# .PCD v0.7 - Point Cloud Data file format
VERSION 0.7
FIELDS x y z rgb
SIZE 4 4 4 4
TYPE F F F U
COUNT 1 1 1 1
WIDTH 859
HEIGHT 1
VIEWPOINT 0 0 0 1 0 0 0
POINTS 859
DATA ascii
-0.019083761 0.042028666 0.59400004 4279126047
-0.017125569 0.041957911 0.59300005 4279126560
-0.020871572 0.043662615 0.59000003 4279255584
-0.018955249 0.043662615 0.59000003 4278862877
-0.01698117 0.043514602 0.588 4278731804
-0.0090558939 0.042182527 0.57000005 4278731550
-0.0071792542 0.042034514 0.56800002 4278469150
-0.0053249979 0.041960511 0.56700003 4278469150
-0.0016301817 0.041664492 0.56300002 4278796580
-0.02080082 0.045425076 0.588 4279190045
-0.018858867 0.045347821 0.58700001 4278993949
-0.016894532 0.045193318 0.58500004 4278862877
-0.014917555 0.044961553 0.58200002 4278797084
-0.010945526 0.044189021 0.57200003 4278862877
-0.0090400064 0.04395726 0.56900001 4278796830
-0.0071666148 0.043802753 0.56700003 4278731037
-0.0053156065 0.043725502 0.56600004 4278202894
-0.0034649502 0.043570992 0.56400001 4278993695
-0.0016301817 0.043493737 0.56300002 4278862623
0.00019809084 0.043416485 0.56200004 4278862623
0.0020234678 0.043416485 0.56200004 4278862623
0.0038419964 0.043339234 0.56100005 4278928416
-0.020730069 0.047174543 0.58600003 4279255838
-0.018794613 0.04709404 0.58500004 4279059742
-0.016807893 0.046852533 0.58200002 4278862623
-0.014840662 0.046611026 0.57900006 4278862623
-0.01284815 0.046208508 0.574 4278797084
-0.010926391 0.045967005 0.57100004 4278797084
-0.009024119 0.045725495 0.56800002 4278862877
-0.0071539758 0.045564491 0.56600004 4278731291
-0.0053062146 0.045483984 0.565 4278201099
-0.0034649502 0.045403484 0.56400001 4278728470
-0.0016301817 0.045322981 0.56300002 4278862109
0.00019809084 0.045242481 0.56200004 4278862363
0.0020198673 0.045161977 0.56100005 4278928156
0.0038419964 0.045161977 0.56100005 4278731291
0.0056540282 0.045081474 0.56 4278797084
0.0074595655 0.04500097 0.55900002 4278731291
-0.020694694 0.048994765 0.58500004 4279058972
-0.018730355 0.048827261 0.583 4278994463
-0.016779013 0.048659757 0.58100003 4278928416
-0.014815029 0.048408501 0.57800001 4278665244
-0.01284815 0.048073493 0.574 4278797084
-0.010907256 0.047738492 0.57000005 4278862877
-0.009024119 0.047570985 0.56800002 4278994463
-0.0071539758 0.047403485 0.56600004 4278468119
-0.0053062146 0.047319729 0.565 4278196736
-0.0034588068 0.047152225 0.56300002 4279254301
-0.0016272862 0.047068477 0.56200004 4278464785
0.00019809084 0.047068477 0.56200004 4278197507
0.0020198673 0.046984725 0.56100005 4278197767
0.0038351475 0.046900969 0.56 4278264841
0.0056540282 0.046900969 0.56 4278595089
0.0074595655 0.046817217 0.55900002 4279056152
0.0092586055 0.046733469 0.55800003 4279056922
0.011051151 0.046649717 0.55700004 4279386654
0.012860288 0.046649717 0.55700004 4279058972
0.014643088 0.046565969 0.55600005 4278796570
0.018189201 0.046398461 0.55400002 4278796568
0.019988593 0.046398461 0.55400002 4278796568
0.023374498 0.045979701 0.54900002 4278533910
0.026793586 0.045728445 0.546 4278402837
0.0409058 0.045644693 0.54500002 4279651887
-0.020659318 0.050808489 0.58400005 4278993695
-0.018730355 0.050721485 0.583 4278797084
-0.016750135 0.050460488 0.58000004 4278797084
-0.014789398 0.050199483 0.57700002 4278928670
-0.012825768 0.049851477 0.57300001 4278862877
-0.010907256 0.04959048 0.57000005 4278928670
-0.009024119 0.049416475 0.56800002 4278796830
-0.0071539758 0.049242474 0.56600004 4279322660
-0.0052968231 0.04906847 0.56400001 4278196993
-0.0034588068 0.048981469 0.56300002 4279320096
-0.0016272862 0.048894472 0.56200004 4278195970
0.00019809084 0.048894472 0.56200004 4278589709
0.0020198673 0.048807472 0.56100005 4278786318
0.0038351475 0.048720468 0.56 4278786318
0.0056439321 0.048633467 0.55900002 4278720525
0.0074595655 0.048633467 0.55900002 4278786318
0.0092586055 0.048546467 0.55800003 4278589963
0.011070991 0.048546467 0.55800003 4278590476
0.012860288 0.048459467 0.55700004 4278195713
0.014643088 0.048372466 0.55600005 4278397708
0.016419392 0.048285462 0.55500001 4278197504
0.018189201 0.048198462 0.55400002 4278197504
0.019988593 0.048198462 0.55400002 4278596371
0.02170933 0.048024464 0.55200005 4278662677
0.023417072 0.04785046 0.55000001 4279058459
0.025157651 0.047763459 0.54900002 4279453215
0.026842659 0.047589459 0.54700005 4278599189
0.028671635 0.047676459 0.54800004 4278599189
0.030395973 0.047589459 0.54700005 4278533910
0.032172631 0.047589459 0.54700005 4278468630
0.033949289 0.047589459 0.54700005 4278468630
0.035725944 0.047589459 0.54700005 4278402837
0.037502602 0.047589459 0.54700005 4279060767
0.03927926 0.047589459 0.54700005 4278797595
0.040980853 0.047502454 0.546 4278798367
0.042832572 0.047589459 0.54700005 4278666781
0.04469078 0.047676459 0.54800004 4279192871
0.046470687 0.047676459 0.54800004 4279916596
0.04825059 0.047676459 0.54800004 4279850549
-0.020659318 0.05270597 0.58400005 4278993695
-0.018698229 0.052525468 0.58200002 4278731550
-0.016750135 0.05234497 0.58000004 4278665757
-0.014789398 0.052074216 0.57700002 4278797597
-0.012825768 0.051713217 0.57300001 4278731804
-0.010907256 0.05144247 0.57000005 4278863390
-0.009024119 0.051261969 0.56800002 4278994463
-0.0071539758 0.051081471 0.56600004 4279125795
-0.0052968231 0.050900966 0.56400001 4278199307
-0.0034588068 0.050810717 0.56300002 4279319842
-0.0016272862 0.050720468 0.56200004 4278196484
0.00019773837 0.050630223 0.56100005 4279643932
0.0020198673 0.050630223 0.56100005 4278787855
0.0038351475 0.050539967 0.56 4280432680
0.0056439321 0.050449718 0.55900002 4279379992
0.0074595655 0.050449718 0.55900002 4280498473
0.0092586055 0.050359469 0.55800003 4279445272
0.011070991 0.050359469 0.55800003 4279511065
0.012860288 0.05026922 0.55700004 4278194946
0.014669425 0.05026922 0.55700004 4279581471
0.016448978 0.050178971 0.55600005 4279385117
0.018222034 0.050088719 0.55500001 4279516703
0.019988593 0.04999847 0.55400002 4279385117
0.02170933 0.049817972 0.55200005 4279385117
0.023459649 0.049727716 0.551 4279385117
0.025203474 0.049637467 0.55000001 4278529808
0.026891733 0.049456973 0.54800004 4278199301
0.028671635 0.049456973 0.54800004 4278195712
0.03045154 0.049456973 0.54800004 4278198016
0.032231446 0.049456973 0.54800004 4278200329
0.034011353 0.049456973 0.54800004 4278793750
0.035791256 0.049456973 0.54800004 4278925590
0.037571162 0.049456973 0.54800004 4279124252
0.039351065 0.049456973 0.54800004 4278992666
0.041055914 0.049366724 0.54700005 4278796570
0.042910878 0.049456973 0.54800004 4278796568
0.04469078 0.049456973 0.54800004 4278862875
0.046470687 0.049456973 0.54800004 4278600216
0.04825059 0.049456973 0.54800004 4278798367
0.050030496 0.049456973 0.54800004 4278864673
0.051810402 0.049456973 0.54800004 4278996007
0.053590305 0.049456973 0.54800004 4278797861
-0.020694694 0.054696944 0.58500004 4278993695
-0.018730355 0.054509941 0.583 4278797343
-0.016750135 0.054229449 0.58000004 4278665757
-0.014789398 0.05394895 0.57700002 4278797343
-0.012825768 0.053574953 0.57300001 4278863390
-0.010907256 0.053294457 0.57000005 4278666011
-0.009024119 0.053107459 0.56800002 4278862877
-0.0071539758 0.052920461 0.56600004 4278202636
-0.0052968231 0.052733462 0.56400001 4278198279
-0.0034588068 0.052639961 0.56300002 4279385889
-0.0016272862 0.052546464 0.56200004 4278394380
0.00019773837 0.052452967 0.56100005 4278722832
0.0020198673 0.052452967 0.56100005 4279708957
0.0038351475 0.052359466 0.56 4280169508
0.0056540282 0.052359466 0.56 4278524683
0.0074595655 0.052265964 0.55900002 4278524683
0.009275198 0.052265964 0.55900002 4279907106
0.011070991 0.052172467 0.55800003 4278195203
0.012860288 0.05207897 0.55700004 4278197513
0.014669425 0.05207897 0.55700004 4279318812
0.016448978 0.051985472 0.55600005 4278199044
0.018222034 0.051891968 0.55500001 4278198535
0.019988593 0.05179847 0.55400002 4279647262
0.021748658 0.051704973 0.55300003 4278200329
0.023502227 0.051611476 0.55200005 4278333453
0.025249299 0.051517971 0.551 4278991383
0.026989875 0.051424474 0.55000001 4278465037
0.028776275 0.051424474 0.55000001 4279320346
0.030507108 0.051330976 0.54900002 4279254555
0.032290261 0.051330976 0.54900002 4278925590
0.034073416 0.051330976 0.54900002 4279188508
0.035856567 0.051330976 0.54900002 4279056152
0.037639722 0.051330976 0.54900002 4279055638
0.039422873 0.051330976 0.54900002 4278397710
0.041130971 0.051237479 0.54800004 4278197504
0.042989179 0.051330976 0.54900002 4278197248
0.044772331 0.051330976 0.54900002 4278531861
0.046555486 0.051330976 0.54900002 4278533910
0.048338637 0.051330976 0.54900002 4278666009
0.050030496 0.051237479 0.54800004 4278666009
0.051810402 0.051237479 0.54800004 4278666009
0.053590305 0.051237479 0.54800004 4279389734
-0.020694694 0.056597669 0.58500004 4279058972
-0.018762486 0.056500919 0.58400005 4278928156
-0.016779013 0.056210674 0.58100003 4278862877
-0.014815029 0.05592043 0.57800001 4278862877
-0.01284815 0.055533435 0.574 4278797084
-0.010926391 0.055243194 0.57100004 4278731291
-0.009024119 0.054952946 0.56800002 4278797084
-0.0071539758 0.054759454 0.56600004 4279256351
-0.0052968231 0.054565955 0.56400001 4279648291
-0.0034588068 0.054469205 0.56300002 4279452195
-0.0016272862 0.05437246 0.56200004 4278197256
0.00019773837 0.054275714 0.56100005 4278655756
0.0020198673 0.054275714 0.56100005 4278852111
0.0038351475 0.054178961 0.56 4278786318
0.0056540282 0.054178961 0.56 4278654732
0.0074595655 0.054082215 0.55900002 4278720525
0.009275198 0.054082215 0.55900002 4278393867
0.011070991 0.053985465 0.55800003 4278393867
0.012883376 0.053985465 0.55800003 4278197255
0.014669425 0.05388872 0.55700004 4279648291
0.016448978 0.053791974 0.55600005 4278591755
0.018254867 0.053791974 0.55600005 4278919439
0.020024672 0.053695221 0.55500001 4278987797
0.021787986 0.053598475 0.55400002 4279581984
0.023544803 0.053501725 0.55300003 4278727189
0.025295125 0.053404979 0.55200005 4278200077
0.027038947 0.053308226 0.551 4279450912
0.028828595 0.053308226 0.551 4278990361
0.030562676 0.05321148 0.55000001 4278727187
0.032349076 0.05321148 0.55000001 4279121947
0.034135479 0.05321148 0.55000001 4279254303
0.035921879 0.05321148 0.55000001 4278925336
0.037708282 0.05321148 0.55000001 4278794263
0.039494682 0.05321148 0.55000001 4279189021
0.041206025 0.053114735 0.54900002 4279123228
0.042989179 0.053114735 0.54900002 4279254814
0.044772331 0.053114735 0.54900002 4278198532
0.046555486 0.053114735 0.54900002 4278795800
0.048338637 0.053114735 0.54900002 4278665496
0.050121788 0.053114735 0.54900002 4278665496
0.051810402 0.053017985 0.54800004 4278731289
0.053688098 0.053114735 0.54900002 4278797084
0.055471253 0.053114735 0.54900002 4279124261
-0.020765444 0.058698382 0.58700001 4278993949
-0.018794613 0.058498394 0.58500004 4278928156
-0.016836772 0.058298394 0.583 4278731291
-0.014866293 0.057998408 0.58000004 4278665498
-0.012870535 0.057498422 0.57500005 4278862877
-0.010945526 0.057198428 0.57200003 4278797084
-0.0090400064 0.056898434 0.56900001 4278993949
-0.0071666148 0.056698442 0.56700003 4278598421
-0.0053062146 0.056498442 0.565 4278202126
-0.0034588068 0.05629845 0.56300002 4278992927
-0.0016272862 0.056198455 0.56200004 4279255586
0.00019773837 0.056098457 0.56100005 4279780647
0.0020198673 0.056098457 0.56100005 4279779363
0.0038351475 0.055998456 0.56 4279844389
0.0056439321 0.055898461 0.55900002 4278658834
0.0074595655 0.055898461 0.55900002 4278394378
0.009275198 0.055898461 0.55900002 4278195974
0.011070991 0.055798467 0.55800003 4278590476
0.012883376 0.055798467 0.55800003 4279119385
0.014669425 0.055698469 0.55700004 4279450398
0.016478563 0.055698469 0.55700004 4279908899
0.018254867 0.055598475 0.55600005 4279315480
0.020024672 0.055498473 0.55500001 4279581217
0.021787986 0.055398475 0.55400002 4278726935
0.023544803 0.055298481 0.55300003 4279187486
0.025340948 0.055298481 0.55300003 4278200845
0.027088022 0.055198483 0.55200005 4278397710
0.028880918 0.055198483 0.55200005 4279516191
0.030618245 0.055098481 0.551 4278199046
0.032407895 0.055098481 0.551 4278265611
0.034197543 0.055098481 0.551 4278331663
0.035987191 0.055098481 0.551 4279713316
0.037708282 0.054998487 0.55000001 4278989593
0.039494682 0.054998487 0.55000001 4278858007
0.041281082 0.054998487 0.55000001 4278728470
0.043067485 0.054998487 0.55000001 4279518756
0.044853885 0.054998487 0.55000001 4278200845
0.046640288 0.054998487 0.55000001 4278992666
0.048426684 0.054998487 0.55000001 4278928154
0.050121788 0.054898489 0.54900002 4278862361
0.051810402 0.054798495 0.54800004 4278796568
0.053688098 0.054898489 0.54900002 4278796568
0.055471253 0.054898489 0.54900002 4279122978
0.05735869 0.054998487 0.55000001 4285501567
-0.018858867 0.060605608 0.58700001 4279253019
-0.016894532 0.060399115 0.58500004 4279451941
-0.014917555 0.060089376 0.58200002 4279387431
-0.012915301 0.059573144 0.57700002 4279255845
-0.010964662 0.059160158 0.57300001 4279190306
-0.0090558939 0.058850423 0.57000005 4279255586
-0.0071792542 0.058643926 0.56800002 4279189793
-0.0053062146 0.058334187 0.565 4279058718
-0.0034649502 0.05823094 0.56400001 4279058718
-0.0016272862 0.058024451 0.56200004 4278795546
0.00019773837 0.057921205 0.56100005 4278927134
0.0020198673 0.057921205 0.56100005 4278927132
0.0038351475 0.057817955 0.56 4279058718
0.0056439321 0.057714708 0.55900002 4279058205
0.0074595655 0.057714708 0.55900002 4279189791
0.009275198 0.057714708 0.55900002 4279058207
0.011070991 0.057611465 0.55800003 4279320609
0.012883376 0.057611465 0.55800003 4279123230
0.014669425 0.057508219 0.55700004 4279385889
0.016478563 0.057508219 0.55700004 4279450658
0.018254867 0.057404973 0.55600005 4278661142
0.020024672 0.057301722 0.55500001 4278199049
0.021787986 0.057198476 0.55400002 4278196480
0.02358738 0.057198476 0.55400002 4278195712
0.025340948 0.057095233 0.55300003 4278199307
0.027088022 0.056991987 0.55200005 4278857748
0.028880918 0.056991987 0.55200005 4279779363
0.030673815 0.056991987 0.55200005 4279911461
0.032407895 0.056888737 0.551 4279319324
0.034197543 0.056888737 0.551 4279188508
0.035987191 0.056888737 0.551 4278530580
0.037776843 0.056888737 0.551 4279188256
0.039566487 0.056888737 0.551 4278266384
0.041356135 0.056888737 0.551 4278793750
0.043067485 0.05678549 0.55000001 4278860056
0.044853885 0.05678549 0.55000001 4278333201
0.046640288 0.05678549 0.55000001 4279190045
0.048426684 0.05678549 0.55000001 4278796568
0.050213084 0.05678549 0.55000001 4278928154
0.051999487 0.05678549 0.55000001 4278993947
0.053785887 0.05678549 0.55000001 4278796568
0.05557229 0.05678549 0.55000001 4279846186
0.05735869 0.05678549 0.55000001 4284185961
-0.012982452 0.061767366 0.58000004 4283856742
-0.011002934 0.061234888 0.57500005 4281290815
-0.0090876687 0.060915399 0.57200003 4279450148
-0.007204534 0.06070241 0.57000005 4279515939
-0.0053156065 0.060276426 0.56600004 4279254051
-0.0034649502 0.060063433 0.56400001 4279583527
-0.0016301817 0.059956938 0.56300002 4279715113
0.00019809084 0.059850447 0.56200004 4279912746
0.0020198673 0.059743952 0.56100005 4279584551
0.0038351475 0.05963745 0.56 4279321379
0.0056439321 0.059530959 0.55900002 4279124000
0.0074595655 0.059530959 0.55900002 4279124000
0.009275198 0.059530959 0.55900002 4278992927
0.011070991 0.059424464 0.55800003 4278796318
0.012883376 0.059424464 0.55800003 4278862111
0.014669425 0.059317969 0.55700004 4278796318
0.016448978 0.059211474 0.55600005 4278993697
0.018254867 0.059211474 0.55600005 4278796318
0.020024672 0.059104975 0.55500001 4278927132
0.021787986 0.05899848 0.55400002 4278927132
0.02358738 0.05899848 0.55400002 4279123998
0.025340948 0.058891986 0.55300003 4279254814
0.027137095 0.058891986 0.55300003 4279320094
0.028880918 0.058785491 0.55200005 4279649059
0.030673815 0.058785491 0.55200005 4279450910
0.032466713 0.058785491 0.55200005 4278266638
0.034197543 0.058678992 0.551 4278196992
0.035987191 0.058678992 0.551 4278196736
0.037776843 0.058678992 0.551 4278196480
0.039566487 0.058678992 0.551 4278200591
0.041356135 0.058678992 0.551 4278991129
0.043067485 0.058572497 0.55000001 4279056922
0.044853885 0.058572497 0.55000001 4279320607
0.046640288 0.058572497 0.55000001 4278466835
0.048426684 0.058572497 0.55000001 4278862361
0.050213084 0.058572497 0.55000001 4278928154
0.052094031 0.058678992 0.551 4278862361
0.053883679 0.058678992 0.551 4278928156
0.055673331 0.058678992 0.551 4279056674
-0.0072298124 0.062773883 0.57200003 4284776813
-0.0053249979 0.062225163 0.56700003 4284909171
-0.0034710935 0.062005669 0.565 4285040757
-0.0016301817 0.061786182 0.56300002 4284843378
0.00019809084 0.061676439 0.56200004 4283527518
0.0020198673 0.061566696 0.56100005 4280963387
0.0038351475 0.061456949 0.56 4279647525
0.0056439321 0.061347205 0.55900002 4279515939
0.0074595655 0.061347205 0.55900002 4279516455
0.009275198 0.061347205 0.55900002 4279254566
0.011070991 0.061237462 0.55800003 4279649324
0.012883376 0.061237462 0.55800003 4279650092
0.014669425 0.061127719 0.55700004 4279650090
0.016448978 0.061017975 0.55600005 4279255332
0.018254867 0.061017975 0.55600005 4279255332
0.020024672 0.060908224 0.55500001 4279058720
0.021787986 0.060798481 0.55400002 4278729755
0.023544803 0.060688738 0.55300003 4278729753
0.025340948 0.060688738 0.55300003 4278992925
0.027137095 0.060688738 0.55300003 4278992925
0.028880918 0.060578994 0.55200005 4278860826
0.030673815 0.060578994 0.55200005 4278992666
0.032466713 0.060578994 0.55200005 4278795287
0.034197543 0.060469247 0.551 4278992666
0.035987191 0.060469247 0.551 4279124252
0.037776843 0.060469247 0.551 4279584549
0.039566487 0.060469247 0.551 4279583779
0.041281082 0.060359504 0.55000001 4279320609
0.043067485 0.060359504 0.55000001 4279254816
0.044853885 0.060359504 0.55000001 4279189023
0.046640288 0.060359504 0.55000001 4279124000
0.048426684 0.060359504 0.55000001 4278862111
0.050213084 0.060359504 0.55000001 4278927902
0.052094031 0.060469247 0.551 4278927902
0.053883679 0.060469247 0.551 4279125283
0.055673331 0.060469247 0.551 4278791964
-0.0053249979 0.064067401 0.56700003 4284710508
-0.0034710935 0.06384141 0.565 4284710508
-0.0016301817 0.063615426 0.56300002 4284775788
0.00019809084 0.063502438 0.56200004 4284775788
0.0020198673 0.063389443 0.56100005 4284841581
0.0038351475 0.063276447 0.56 4284711022
0.0056439321 0.063163452 0.55900002 4284776815
0.0074595655 0.063163452 0.55900002 4285500538
0.0092586055 0.063050456 0.55800003 4285961089
0.011070991 0.063050456 0.55800003 4285371005
0.012883376 0.063050456 0.55800003 4284252272
0.014669425 0.062937468 0.55700004 4281751368
0.016448978 0.062824473 0.55600005 4280107311
0.018222034 0.062711477 0.55500001 4279318308
0.020024672 0.062711477 0.55500001 4278990629
0.021787986 0.062598482 0.55400002 4279188008
0.023544803 0.062485494 0.55300003 4279517223
0.025340948 0.062485494 0.55300003 4279648807
0.027088022 0.062372498 0.55200005 4279583527
0.028880918 0.062372498 0.55200005 4279321125
0.030673815 0.062372498 0.55200005 4279321379
0.032466713 0.062372498 0.55200005 4279321377
0.034197543 0.062259503 0.551 4279321377
0.035987191 0.062259503 0.551 4279321377
0.037776843 0.062259503 0.551 4279123998
0.039566487 0.062259503 0.551 4279189791
0.041281082 0.062146507 0.55000001 4279255584
0.043067485 0.062146507 0.55000001 4279123998
0.044853885 0.062146507 0.55000001 4279255586
0.046640288 0.062146507 0.55000001 4279190306
0.048426684 0.062146507 0.55000001 4278927904
0.050213084 0.062146507 0.55000001 4278927904
0.052094031 0.062259503 0.551 4278993697
0.053883679 0.062259503 0.551 4278992673
-0.0034710935 0.065677151 0.565 4284512875
-0.0016301817 0.065444671 0.56300002 4284775534
0.00019809084 0.065328434 0.56200004 4284775534
0.0020198673 0.06521219 0.56100005 4284841581
0.0038351475 0.065095939 0.56 4284973167
0.0056439321 0.064979702 0.55900002 4284907374
0.0074595655 0.064979702 0.55900002 4285302132
0.014643088 0.064630978 0.55600005 4285762942
0.016448978 0.064630978 0.55600005 4285500286
0.018222034 0.064514726 0.55500001 4285369470
0.019988593 0.06439849 0.55400002 4285566847
0.021787986 0.06439849 0.55400002 4285237112
0.023544803 0.064282246 0.55300003 4284974712
0.025340948 0.064282246 0.55300003 4284448881
0.027088022 0.064166002 0.55200005 4284121199
0.028880918 0.064166002 0.55200005 4283331683
0.030673815 0.064166002 0.55200005 4282804054
0.032407895 0.064049758 0.551 4281290556
0.034197543 0.064049758 0.551 4280765495
0.035987191 0.064049758 0.551 4281029180
0.037776843 0.064049758 0.551 4280240178
0.039494682 0.063933514 0.55000001 4280042799
0.041281082 0.063933514 0.55000001 4279384615
0.043067485 0.063933514 0.55000001 4279187236
0.044853885 0.063933514 0.55000001 4278924834
0.046640288 0.063933514 0.55000001 4278793761
0.048426684 0.063933514 0.55000001 4278991394
0.050213084 0.063933514 0.55000001 4279056674
0.051999487 0.063933514 0.55000001 4279779375
0.016505925 0.054684859 0.55865651 4294967295
0.016505925 0.054684859 0.55865651 4294901760
0.016520711 0.054186977 0.558613 4294901760
0.016535496 0.053689092 0.55856949 4294901760
0.016550282 0.053191211 0.55852592 4294901760
0.016565068 0.05269333 0.55848241 4294901760
0.016579853 0.052195448 0.5584389 4294901760
0.016594639 0.051697563 0.55839539 4294901760
0.016609425 0.051199682 0.55835181 4294901760
0.01662421 0.050701801 0.5583083 4294901760
0.016638996 0.050203916 0.55826479 4294901760
0.016653782 0.049706034 0.55822128 4294901760
0.016668567 0.049208153 0.55817771 4294901760
0.016683353 0.048710272 0.5581342 4294901760
0.016698139 0.048212387 0.55809069 4294901760
0.016712924 0.047714505 0.55804718 4294901760
0.01672771 0.047216624 0.5580036 4294901760
0.016742496 0.046718739 0.55796009 4294901760
0.016757281 0.046220858 0.55791658 4294901760
0.016772067 0.045722976 0.55787307 4294901760
0.016786853 0.045225091 0.5578295 4294901760
0.016801639 0.04472721 0.55778599 4294901760
0.016816424 0.044229329 0.55774248 4294901760
0.01683121 0.043731447 0.55769897 4294901760
0.016845996 0.043233562 0.55765539 4294901760
0.016860781 0.042735681 0.55761188 4294901760
0.016875567 0.0422378 0.55756837 4294901760
0.016890353 0.041739918 0.55752486 4294901760
0.016905138 0.041242033 0.55748135 4294901760
0.016919924 0.040744152 0.55743778 4294901760
0.01693471 0.040246271 0.55739427 4294901760
0.016949495 0.039748386 0.55735075 4294901760
0.016964281 0.039250504 0.55730724 4294901760
0.016979067 0.038752623 0.55726367 4294901760
0.016993852 0.038254738 0.55722016 4294901760
0.017008638 0.037756857 0.55717665 4294901760
0.017023424 0.037258975 0.55713314 4294901760
0.017038209 0.03676109 0.55708957 4294901760
0.017052995 0.036263209 0.55704606 4294901760
0.017067781 0.035765328 0.55700254 4294901760
0.017082566 0.035267446 0.55695903 4294901760
0.017097352 0.034769565 0.55691546 4294901760
0.017112138 0.03427168 0.55687195 4294901760
0.017126923 0.033773798 0.55682844 4294901760
0.017141709 0.033275917 0.55678493 4294901760
0.017156495 0.032778032 0.55674136 4294901760
0.01717128 0.032280151 0.55669785 4294901760
0.017186066 0.031782269 0.55665433 4294901760
0.017200852 0.031284384 0.55661082 4294901760
0.017215637 0.030786503 0.55656725 4294901760
0.017230423 0.03028862 0.55652374 4294901760
0.017245209 0.029790739 0.55648023 4294901760
0.017259995 0.029292857 0.55643672 4294901760
0.01727478 0.028794974 0.55639321 4294901760
0.017289566 0.028297093 0.55634964 4294901760
0.017304352 0.027799208 0.55630612 4294901760
0.017319137 0.027301326 0.55626261 4294901760
0.017333923 0.026803443 0.5562191 4294901760
0.017348709 0.026305562 0.55617553 4294901760
0.017363494 0.025807681 0.55613202 4294901760
0.01737828 0.025309797 0.55608851 4294901760
0.017393066 0.024811914 0.556045 4294901760
0.017407851 0.024314031 0.55600142 4294901760
0.017422637 0.02381615 0.55595791 4294901760
0.017437423 0.023318268 0.5559144 4294901760
0.017452208 0.022820387 0.55587089 4294901760
0.017466994 0.022322502 0.55582732 4294901760
0.01748178 0.021824621 0.55578381 4294901760
0.017496565 0.021326736 0.5557403 4294901760
0.017511351 0.020828854 0.55569679 4294901760
0.017526137 0.020330973 0.55565321 4294901760
0.017540922 0.019833092 0.5556097 4294901760
0.017555708 0.01933521 0.55556619 4294901760
0.017570494 0.018837325 0.55552268 4294901760
0.017585279 0.018339444 0.55547911 4294901760
0.017600065 0.017841559 0.5554356 4294901760
0.017614851 0.017343678 0.55539209 4294901760
0.017629636 0.016845796 0.55534858 4294901760
0.017644422 0.016347915 0.55530506 4294901760
0.017659208 0.015850034 0.55526149 4294901760
0.017673993 0.015352149 0.55521798 4294901760
0.017688779 0.014854267 0.55517447 4294901760
0.017703565 0.014356382 0.55513096 4294901760
0.017718351 0.013858501 0.55508739 4294901760
0.017733136 0.01336062 0.55504388 4294901760
0.017747922 0.012862738 0.55500036 4294901760
0.017762708 0.012364853 0.55495685 4294901760
0.017777493 0.011866972 0.55491328 4294901760
0.017792279 0.011369091 0.55486977 4294901760
0.017807065 0.010871209 0.55482626 4294901760
0.01782185 0.010373324 0.55478275 4294901760
0.017836636 0.0098754428 0.55473918 4294901760
0.017851422 0.0093775578 0.55469567 4294901760
0.017866207 0.0088796765 0.55465215 4294901760
0.017880993 0.0083817951 0.55460864 4294901760
0.017895779 0.0078839138 0.55456507 4294901760
0.017910564 0.0073860325 0.55452156 4294901760
0.01792535 0.0068881474 0.55447805 4294901760
0.017940136 0.0063902624 0.55443454 4294901760
0.017954921 0.0058923811 0.55439097 4294901760
0.017969707 0.0053944997 0.55434746 4294901760
0.017984493 0.0048966184 0.55430394 4294901760
0.016505925 0.054684859 0.55865651 4278255360
0.016962804 0.054715976 0.55845577 4278255360
0.017419681 0.054747093 0.55825508 4278255360
0.01787656 0.054778207 0.55805433 4278255360
0.018333439 0.054809324 0.55785358 4278255360
0.018790318 0.054840442 0.55765283 4278255360
0.019247197 0.054871559 0.55745208 4278255360
0.019704074 0.054902673 0.55725139 4278255360
0.020160953 0.05493379 0.55705065 4278255360
0.020617831 0.054964907 0.5568499 4278255360
0.02107471 0.054996025 0.55664921 4278255360
0.021531587 0.055027138 0.55644846 4278255360
0.021988466 0.055058256 0.55624771 4278255360
0.022445345 0.055089373 0.55604696 4278255360
0.022902224 0.05512049 0.55584621 4278255360
0.023359101 0.055151604 0.55564553 4278255360
0.02381598 0.055182721 0.55544478 4278255360
0.024272859 0.055213839 0.55524403 4278255360
0.024729738 0.055244956 0.55504328 4278255360
0.025186617 0.05527607 0.55484259 4278255360
0.025643494 0.055307187 0.55464184 4278255360
0.026100373 0.055338304 0.55444109 4278255360
0.026557252 0.055369422 0.55424035 4278255360
0.027014129 0.055400535 0.55403966 4278255360
0.027471008 0.055431653 0.55383891 4278255360
0.027927887 0.05546277 0.55363816 4278255360
0.028384764 0.055493888 0.55343747 4278255360
0.028841645 0.055525005 0.55323672 4278255360
0.029298522 0.055556118 0.55303597 4278255360
0.0297554 0.055587236 0.55283523 4278255360
0.030212279 0.055618353 0.55263448 4278255360
0.030669156 0.055649471 0.55243379 4278255360
0.031126035 0.055680584 0.55223304 4278255360
0.031582914 0.055711702 0.55203229 4278255360
0.032039791 0.055742819 0.5518316 4278255360
0.032496668 0.055773936 0.55163085 4278255360
0.032953553 0.05580505 0.55143011 4278255360
0.03341043 0.055836167 0.55122936 4278255360
0.033867307 0.055867285 0.55102861 4278255360
0.034324184 0.055898402 0.55082792 4278255360
0.034781065 0.055929516 0.55062717 4278255360
0.035237942 0.055960633 0.55042642 4278255360
0.035694823 0.05599175 0.55022573 4278255360
0.0361517 0.056022868 0.55002499 4278255360
0.036608577 0.056053981 0.54982424 4278255360
0.037065454 0.056085099 0.54962349 4278255360
0.037522335 0.056116216 0.54942274 4278255360
0.037979215 0.056147333 0.54922205 4278255360
0.038436092 0.056178447 0.5490213 4278255360
0.038892969 0.056209564 0.54882056 4278255360
0.039349847 0.056240682 0.54861987 4278255360
0.039806727 0.056271799 0.54841912 4278255360
0.040263604 0.056302913 0.54821837 4278255360
0.040720485 0.05633403 0.54801762 4278255360
0.041177362 0.056365147 0.54781687 4278255360
0.041634239 0.056396265 0.54761618 4278255360
0.04209112 0.056427382 0.54741544 4278255360
0.042547997 0.056458496 0.54721469 4278255360
0.043004878 0.056489613 0.547014 4278255360
0.043461755 0.05652073 0.54681325 4278255360
0.043918632 0.056551848 0.5466125 4278255360
0.044375513 0.056582961 0.54641175 4278255360
0.04483239 0.056614079 0.546211 4278255360
0.045289271 0.056645196 0.54601032 4278255360
0.045746148 0.056676313 0.54580957 4278255360
0.046203025 0.056707427 0.54560882 4278255360
0.046659905 0.056738544 0.54540807 4278255360
0.047116783 0.056769662 0.54520738 4278255360
0.047573663 0.056800779 0.54500663 4278255360
0.04803054 0.056831893 0.54480588 4278255360
0.048487417 0.05686301 0.54460514 4278255360
0.048944294 0.056894127 0.54440445 4278255360
0.049401179 0.056925245 0.5442037 4278255360
0.049858056 0.056956358 0.54400295 4278255360
0.050314933 0.056987476 0.54380226 4278255360
0.05077181 0.057018593 0.54360151 4278255360
0.051228687 0.05704971 0.54340076 4278255360
0.051685564 0.057080828 0.54320002 4278255360
0.052142441 0.057111941 0.54299927 4278255360
0.052599326 0.057143059 0.54279858 4278255360
0.053056203 0.057174176 0.54259783 4278255360
0.05351308 0.057205293 0.54239708 4278255360
0.053969957 0.057236407 0.54219639 4278255360
0.054426834 0.057267524 0.54199564 4278255360
0.054883718 0.057298642 0.5417949 4278255360
0.055340596 0.057329759 0.54159415 4278255360
0.055797473 0.057360873 0.5413934 4278255360
0.05625435 0.05739199 0.54119271 4278255360
0.056711227 0.057423107 0.54099196 4278255360
0.057168111 0.057454225 0.54079121 4278255360
0.057624988 0.057485338 0.54059052 4278255360
0.058081865 0.057516456 0.54038978 4278255360
0.058538742 0.057547573 0.54018903 4278255360
0.058995619 0.05757869 0.53998828 4278255360
0.059452504 0.057609804 0.53978753 4278255360
0.059909381 0.057640921 0.53958684 4278255360
0.060366258 0.057672039 0.53938609 4278255360
0.060823135 0.057703156 0.53918535 4278255360
0.061280012 0.057734273 0.53898466 4278255360
0.061736897 0.057765387 0.53878391 4278255360
0.062193774 0.057796504 0.53858316 4278255360
0.016505925 0.054684859 0.55865651 4278190335
0.016667821 0.054648433 0.55912817 4278190335
0.016829718 0.054612007 0.55959982 4278190335
0.016991613 0.054575581 0.56007147 4278190335
0.017153509 0.054539155 0.56054318 4278190335
0.017315404 0.054502733 0.56101483 4278190335
0.017477302 0.054466307 0.56148648 4278190335
0.017639197 0.054429881 0.56195813 4278190335
0.017801093 0.054393455 0.56242979 4278190335
0.017962988 0.054357029 0.56290144 4278190335
0.018124886 0.054320604 0.56337309 4278190335
0.018286781 0.054284178 0.5638448 4278190335
0.018448677 0.054247752 0.56431645 4278190335
0.018610574 0.054211326 0.5647881 4278190335
0.01877247 0.054174904 0.56525975 4278190335
0.018934365 0.054138478 0.56573141 4278190335
0.019096261 0.054102052 0.56620306 4278190335
0.019258158 0.054065626 0.56667471 4278190335
0.019420054 0.0540292 0.56714642 4278190335
0.019581949 0.053992774 0.56761807 4278190335
0.019743845 0.053956348 0.56808972 4278190335
0.019905742 0.053919923 0.56856138 4278190335
0.020067638 0.053883497 0.56903303 4278190335
0.020229533 0.053847075 0.56950468 4278190335
0.020391429 0.053810649 0.56997633 4278190335
0.020553326 0.053774223 0.57044804 4278190335
0.020715222 0.053737797 0.57091969 4278190335
0.020877119 0.053701371 0.57139134 4278190335
0.021039013 0.053664945 0.571863 4278190335
0.02120091 0.053628519 0.57233465 4278190335
0.021362806 0.053592093 0.5728063 4278190335
0.021524701 0.053555667 0.57327795 4278190335
0.021686599 0.053519245 0.5737496 4278190335
0.021848494 0.053482819 0.57422131 4278190335
0.02201039 0.053446393 0.57469296 4278190335
0.022172287 0.053409968 0.57516462 4278190335
0.022334183 0.053373542 0.57563627 4278190335
0.022496078 0.053337116 0.57610792 4278190335
0.022657974 0.05330069 0.57657957 4278190335
0.022819869 0.053264264 0.57705122 4278190335
0.022981767 0.053227838 0.57752293 4278190335
0.023143662 0.053191416 0.57799459 4278190335
0.023305558 0.05315499 0.57846624 4278190335
0.023467455 0.053118564 0.57893789 4278190335
0.023629351 0.053082138 0.57940954 4278190335
0.023791246 0.053045712 0.57988119 4278190335
0.023953144 0.053009287 0.58035284 4278190335
0.024115039 0.052972861 0.58082455 4278190335
0.024276935 0.052936435 0.58129621 4278190335
0.024438832 0.052900009 0.58176786 4278190335
0.024600726 0.052863583 0.58223951 4278190335
0.024762623 0.052827161 0.58271116 4278190335
0.024924519 0.052790735 0.58318281 4278190335
0.025086414 0.052754309 0.58365446 4278190335
0.025248311 0.052717883 0.58412617 4278190335
0.025410207 0.052681457 0.58459783 4278190335
0.025572103 0.052645031 0.58506948 4278190335
0.025734 0.052608605 0.58554113 4278190335
0.025895894 0.05257218 0.58601278 4278190335
0.026057791 0.052535757 0.58648443 4278190335
0.026219688 0.052499332 0.58695608 4278190335
0.026381582 0.052462906 0.58742779 4278190335
0.026543479 0.05242648 0.58789945 4278190335
0.026705375 0.052390054 0.5883711 4278190335
0.02686727 0.052353628 0.58884275 4278190335
0.027029168 0.052317202 0.5893144 4278190335
0.027191063 0.052280776 0.58978605 4278190335
0.027352959 0.05224435 0.5902577 4278190335
0.027514856 0.052207924 0.59072936 4278190335
0.02767675 0.052171502 0.59120107 4278190335
0.027838647 0.052135076 0.59167272 4278190335
0.028000543 0.05209865 0.59214437 4278190335
0.028162438 0.052062225 0.59261602 4278190335
0.028324336 0.052025799 0.59308767 4278190335
0.028486231 0.051989373 0.59355932 4278190335
0.028648127 0.051952947 0.59403098 4278190335
0.028810024 0.051916521 0.59450269 4278190335
0.028971918 0.051880099 0.59497434 4278190335
0.029133815 0.051843673 0.59544599 4278190335
0.029295713 0.051807247 0.59591764 4278190335
0.029457606 0.051770821 0.59638929 4278190335
0.029619504 0.051734395 0.59686095 4278190335
0.029781399 0.051697969 0.5973326 4278190335
0.029943295 0.051661544 0.59780431 4278190335
0.030105192 0.051625118 0.59827596 4278190335
0.030267088 0.051588692 0.59874761 4278190335
0.030428983 0.051552266 0.59921926 4278190335
0.030590881 0.051515844 0.59969091 4278190335
0.030752774 0.051479418 0.60016257 4278190335
0.030914672 0.051442992 0.60063422 4278190335
0.031076567 0.051406566 0.60110593 4278190335
0.031238465 0.05137014 0.60157758 4278190335
0.03140036 0.051333714 0.60204923 4278190335
0.031562254 0.051297288 0.60252088 4278190335
0.031724151 0.051260862 0.60299253 4278190335
0.031886049 0.051224437 0.60346419 4278190335
0.032047942 0.051188014 0.60393584 4278190335
0.03220984 0.051151589 0.60440755 4278190335
0.032371737 0.051115163 0.6048792 4278190335
0.032533631 0.051078737 0.60535085 4278190335
0.032695528 0.051042311 0.6058225 4278190335
0.016505925 0.054684859 0.55865651 4294967295
0.015534549 0.05490341 0.55582654 4294967295
0.014563173 0.055121966 0.55299658 4294967295
0.013591796 0.055340517 0.55016667 4294967295
0.01262042 0.055559069 0.5473367 4294967295
0.011649044 0.055777624 0.54450673 4294967295
0.010677667 0.055996176 0.54167676 4294967295
0.0097062914 0.056214727 0.53884679 4294967295
0.0087349154 0.056433283 0.53601682 4294967295
0.0077635385 0.056651834 0.53318691 4294967295
0.0067921625 0.056870386 0.53035694 4294967295
0.0058207866 0.057088941 0.52752697 4294967295
0.0048494106 0.057307493 0.52469701 4294967295
0.0038780347 0.057526045 0.52186704 4294967295
0.0029066578 0.0577446 0.51903713 4294967295
0.0019352809 0.057963151 0.51620716 4294967295
0.00096390583 0.058181707 0.51337719 4294967295
-7.4710697e-06 0.058400258 0.51054722 4294967295
-0.00097884797 0.05861881 0.50771725 4294967295
-0.001950223 0.058837365 0.50488728 4294967295
-0.0029215999 0.059055917 0.50205737 4294967295
-0.0038929749 0.059274469 0.4992274 4294967295
-0.0048643518 0.059493024 0.49639744 4294967295
-0.0058357287 0.059711576 0.49356747 4294967295
-0.0068071038 0.059930127 0.49073753 4294967295
-0.0077784806 0.060148682 0.48790756 4294967295
-0.0087498557 0.060367234 0.48507762 4294967295
-0.0097212344 0.060585789 0.48224765 4294967295
-0.010692609 0.060804341 0.47941768 4294967295
-0.011663985 0.061022893 0.47658771 4294967295
-0.012635363 0.061241448 0.47375777 4294967295
-0.013606738 0.06146 0.4709278 4294967295
-0.014578113 0.061678551 0.46809787 4294967295
-0.01554949 0.061897106 0.4652679 4294967295
-0.016520867 0.062115658 0.46243793 4294967295
-0.017492244 0.06233421 0.45960799 4294967295
-0.018463621 0.062552765 0.45677802 4294967295
-0.019434994 0.06277132 0.45394805 4294967295
-0.020406371 0.062989868 0.45111811 4294967295
-0.021377748 0.063208424 0.44828814 4294967295
-0.022349125 0.063426971 0.44545817 4294967295
-0.023320502 0.063645527 0.44262823 4294967295
-0.024291875 0.063864082 0.43979827 4294967295
-0.025263252 0.064082637 0.43696833 4294967295
-0.026234629 0.064301185 0.43413836 4294967295
-0.027206006 0.064519741 0.43130839 4294967295
-0.028177382 0.064738296 0.42847842 4294967295
-0.029148759 0.064956844 0.42564848 4294967295
-0.030120132 0.065175399 0.42281854 4294967295
-0.031091509 0.065393955 0.41998857 4294967295
-0.032062888 0.065612502 0.4171586 4294967295
-0.033034265 0.065831058 0.41432863 4294967295
-0.034005634 0.066049606 0.4114987 4294967295
-0.034977011 0.066268161 0.40866876 4294967295
-0.035948396 0.066486716 0.40583876 4294967295
-0.036919765 0.066705272 0.40300882 4294967295
-0.037891142 0.066923819 0.40017885 4294967295
-0.038862519 0.067142375 0.39734888 4294967295
-0.039833896 0.06736093 0.39451894 4294967295
-0.040805273 0.067579478 0.391689 4294967295
-0.04177665 0.067798033 0.38885903 4294967295
-0.042748027 0.068016589 0.38602906 4294967295
-0.043719403 0.068235137 0.3831991 4294967295
-0.04469078 0.068453692 0.38036913 4294967295
-0.04566215 0.068672247 0.37753919 4294967295
-0.046633527 0.068890795 0.37470925 4294967295
-0.047604904 0.06910935 0.37187928 4294967295
-0.04857628 0.069327906 0.36904931 4294967295
-0.049547657 0.069546454 0.36621934 4294967295
-0.050519034 0.069765009 0.3633894 4294967295
-0.051490411 0.069983564 0.36055946 4294967295
-0.052461781 0.070202112 0.35772949 4294967295
-0.053433165 0.070420668 0.35489953 4294967295
-0.054404542 0.070639223 0.35206956 4294967295
-0.055375911 0.070857778 0.34923959 4294967295
-0.056347288 0.071076326 0.34640965 4294967295
-0.057318665 0.071294881 0.34357971 4294967295
-0.058290042 0.071513429 0.34074974 4294967295
-0.059261419 0.071731985 0.33791977 4294967295
-0.060232796 0.07195054 0.3350898 4294967295
-0.061204173 0.072169095 0.33225983 4294967295
-0.06217555 0.072387643 0.32942989 4294967295
-0.063146926 0.072606198 0.32659996 4294967295
-0.064118296 0.072824746 0.32376999 4294967295
-0.065089673 0.073043302 0.32094002 4294967295
-0.066061057 0.073261857 0.31811005 4294967295
-0.067032427 0.073480412 0.31528011 4294967295
-0.068003803 0.07369896 0.31245017 4294967295
-0.06897518 0.073917516 0.3096202 4294967295
-0.069946557 0.074136063 0.30679023 4294967295
-0.070917934 0.074354619 0.30396029 4294967295
-0.071889311 0.074573174 0.30113032 4294967295
-0.072860688 0.074791729 0.29830036 4294967295
-0.073832065 0.075010277 0.29547039 4294967295
-0.074803442 0.075228833 0.29264045 4294967295
-0.075774811 0.075447381 0.28981048 4294967295
-0.076746188 0.075665936 0.28698054 4294967295
-0.077717572 0.075884491 0.28415057 4294967295
-0.078688942 0.076103047 0.2813206 4294967295
-0.079660319 0.076321594 0.27849066 4294967295
-0.080631696 0.07654015 0.27566069 4294967295
