# .PCD v0.7 - Point Cloud Data file format
VERSION 0.7
FIELDS x y z rgb
SIZE 4 4 4 4
TYPE F F F U
COUNT 1 1 1 1
WIDTH 1037
HEIGHT 1
VIEWPOINT 0 0 0 1 0 0 0
POINTS 1037
DATA ascii
0.06578885 -0.0014346222 0.36100003 4279188769
0.066775888 -0.0014306481 0.36000001 4283332449
0.096271262 -0.0014703883 0.37 4279648291
0.097473025 -0.0014703883 0.37 4279649061
0.098674789 -0.0014703883 0.37 4279451680
0.046416204 -0.00027184509 0.37500003 4283722328
0.047634203 -0.00027184509 0.37500003 4284052063
0.048982475 -0.00027257 0.37600002 4284249444
0.049803168 -0.00027039525 0.37300003 4284249957
0.051014666 -0.00027039525 0.37300003 4283986785
0.052086156 -0.00026967033 0.37200001 4284313952
0.053151149 -0.00026894541 0.37100002 4279246094
0.060258206 -0.00026314604 0.36300001 4279317527
0.061267979 -0.00026242112 0.36200002 4279120918
0.062443756 -0.00026242112 0.36200002 4278727187
0.063443795 -0.0002616962 0.36100003 4278925336
0.064616323 -0.0002616962 0.36100003 4278860056
0.06578885 -0.0002616962 0.36100003 4278860056
0.066961378 -0.0002616962 0.36100003 4278992414
0.068133906 -0.0002616962 0.36100003 4279057953
0.069114447 -0.00026097128 0.36000001 4278991131
0.072622284 -0.00026097128 0.36000001 4279582246
0.073791571 -0.00026097128 0.36000001 4279385635
0.07496085 -0.00026097128 0.36000001 4279385889
0.076130137 -0.00026097128 0.36000001 4279516705
0.090506412 -0.00026894541 0.37100002 4278729240
0.091711424 -0.00026894541 0.37100002 4278795033
0.092916429 -0.00026894541 0.37100002 4278860826
0.094121441 -0.00026894541 0.37100002 4278663447
0.095069505 -0.00026822046 0.37 4278795287
0.096271262 -0.00026822046 0.37 4278730007
0.097473025 -0.00026822046 0.37 4278730007
0.098408103 -0.00026749558 0.36900002 4278861080
0.099606618 -0.00026749558 0.36900002 4278861080
0.13496937 -0.00027112017 0.37400001 4278991892
0.13618413 -0.00027112017 0.37400001 4279123478
0.13739887 -0.00027112017 0.37400001 4279255064
0.13861363 -0.00027112017 0.37400001 4279255066
0.13982838 -0.00027112017 0.37400001 4279255068
0.045198202 0.00094656833 0.37500003 4283788889
0.046416204 0.00094656833 0.37500003 4283854684
0.047634203 0.00094656833 0.37500003 4284315237
0.048982475 0.00094909244 0.37600002 4284315237
0.049936686 0.00094404409 0.37400001 4283986785
0.051014666 0.00094151992 0.37300003 4283920992
0.052226175 0.00094151992 0.37300003 4284184164
0.053294413 0.00093899574 0.37200001 4282076992
0.059241932 0.00091880228 0.36400002 4279708953
0.060258206 0.00091627805 0.36300001 4279054355
0.061437227 0.00091627805 0.36300001 4279055125
0.062443756 0.00091375393 0.36200002 4278595601
0.063619532 0.00091375393 0.36200002 4278793750
0.064616323 0.00091122976 0.36100003 4278663447
0.06578885 0.00091122976 0.36100003 4282479443
0.066961378 0.00091122976 0.36100003 4279189021
0.068133906 0.00091122976 0.36100003 4278400275
0.069306433 0.00091122976 0.36100003 4278729240
0.070283726 0.00090870552 0.36000001 4278795033
0.071453013 0.00090870552 0.36000001 4278925849
0.072622284 0.00090870552 0.36000001 4278729494
0.073791571 0.00090870552 0.36000001 4278663701
0.07496085 0.00090870552 0.36000001 4278663701
0.076130137 0.00090870552 0.36000001 4278597908
0.077299409 0.00090870552 0.36000001 4278795287
0.078468695 0.00090870552 0.36000001 4278597908
0.089301407 0.00093647157 0.37100002 4278663701
0.090506412 0.00093647157 0.37100002 4278400529
0.091711424 0.00093647157 0.37100002 4278992666
0.092916429 0.00093647157 0.37100002 4278795287
0.093867742 0.00093394733 0.37 4278729494
0.095069505 0.00093394733 0.37 4278927386
0.096271262 0.00093394733 0.37 4278795800
0.097209588 0.00093142322 0.36900002 4278795800
0.098408103 0.00093142322 0.36900002 4278927386
0.099336684 0.00092889904 0.36800003 4278993179
0.10053194 0.00092889904 0.36800003 4279585316
0.10172721 0.00092889904 0.36800003 4279124250
0.10292247 0.00092889904 0.36800003 4279321629
0.10860287 0.00092637481 0.36700001 4279255066
0.10979488 0.00092637481 0.36700001 4278991894
0.1109869 0.00092637481 0.36700001 4279386652
0.11217892 0.00092637481 0.36700001 4278794517
0.11367986 0.00092889904 0.36800003 4279123482
0.11487512 0.00092889904 0.36800003 4278926103
0.11607038 0.00092889904 0.36800003 4279189275
0.11726565 0.00092889904 0.36800003 4278794515
0.13339698 0.00094151992 0.37300003 4279123482
0.13460849 0.00094151992 0.37300003 4278991381
0.13618413 0.00094404409 0.37400001 4278991381
0.13739887 0.00094404409 0.37400001 4279123480
0.13861363 0.00094404409 0.37400001 4278926101
0.13982838 0.00094404409 0.37400001 4278926101
0.14104314 0.00094404409 0.37400001 4279255068
0.045198202 0.0021649816 0.37500003 4283920992
0.046416204 0.0021649816 0.37500003 4283986785
0.047634203 0.0021649816 0.37500003 4284052324
0.048852205 0.0021649816 0.37500003 4283921252
0.049936686 0.0021592083 0.37400001 4284118631
0.051151432 0.0021592083 0.37400001 4284052838
0.052226175 0.002153435 0.37300003 4284250217
0.053294413 0.0021476618 0.37200001 4284710254
0.058219161 0.0021072486 0.36500001 4279840539
0.059241932 0.0021014756 0.36400002 4279578650
0.060258206 0.0020957021 0.36300001 4279251223
0.061437227 0.0020957021 0.36300001 4279317016
0.062443756 0.0020899288 0.36200002 4278726162
0.063619532 0.0020899288 0.36200002 4278792466
0.064795315 0.0020899288 0.36200002 4279123228
0.065971084 0.0020899288 0.36200002 4278531091
0.066961378 0.0020841558 0.36100003 4278597908
0.068133906 0.0020841558 0.36100003 4278861080
0.069306433 0.0020841558 0.36100003 4278795287
0.070478961 0.0020841558 0.36100003 4279058205
0.071453013 0.0020783823 0.36000001 4278663701
0.072622284 0.0020783823 0.36000001 4278663701
0.073791571 0.0020783823 0.36000001 4278795287
0.07496085 0.0020783823 0.36000001 4278663701
0.076130137 0.0020783823 0.36000001 4278729492
0.077299409 0.0020783823 0.36000001 4278992664
0.078468695 0.0020783823 0.36000001 4278992666
0.086657174 0.0021361152 0.37 4279058457
0.087858938 0.0021361152 0.37 4279190043
0.089060701 0.0021361152 0.37 4278992664
0.090262458 0.0021361152 0.37 4278795285
0.091464221 0.0021361152 0.37 4278992664
0.092665978 0.0021361152 0.37 4278861078
0.093867742 0.0021361152 0.37 4278663701
0.094812557 0.0021303419 0.36900002 4278663447
0.096011072 0.0021303419 0.36900002 4278597654
0.097209588 0.0021303419 0.36900002 4278992666
0.098141417 0.0021245687 0.36800003 4278795287
0.099336684 0.0021245687 0.36800003 4278663701
0.10053194 0.0021245687 0.36800003 4278728724
0.10145077 0.0021187954 0.36700001 4278926103
0.10264279 0.0021187954 0.36700001 4278926103
0.10860287 0.0021187954 0.36700001 4279187992
0.10979488 0.0021187954 0.36700001 4279385371
0.1109869 0.0021187954 0.36700001 4279385369
0.11217892 0.0021187954 0.36700001 4279319576
0.11367986 0.0021245687 0.36800003 4279187990
0.11487512 0.0021245687 0.36800003 4279319576
0.11607038 0.0021245687 0.36800003 4279319576
0.11726565 0.0021245687 0.36800003 4279385369
0.11878281 0.0021303419 0.36900002 4279187992
0.12030648 0.0021361152 0.37 4279320348
0.12150824 0.0021361152 0.37 4279254555
0.12271 0.0021361152 0.37 4279057174
0.12424666 0.0021418885 0.37100002 4278991381
0.12545167 0.0021418885 0.37100002 4279254553
0.12665668 0.0021418885 0.37100002 4279254555
0.12786168 0.0021418885 0.37100002 4279386141
0.12906669 0.0021418885 0.37100002 4279516957
0.13062283 0.0021476618 0.37200001 4279319578
0.13183109 0.0021476618 0.37200001 4279516957
0.13339698 0.002153435 0.37300003 4279516957
0.13460849 0.002153435 0.37300003 4279648029
0.13582 0.002153435 0.37300003 4279582236
0.1370315 0.002153435 0.37300003 4279648029
0.138243 0.002153435 0.37300003 4279648027
0.13945451 0.002153435 0.37300003 4279911199
0.14104314 0.0021592083 0.37400001 4280503338
0.045198202 0.003383395 0.37500003 4283920992
0.046416204 0.003383395 0.37500003 4284250471
0.047634203 0.003383395 0.37500003 4283921506
0.048852205 0.003383395 0.37500003 4283921252
0.049936686 0.0033743724 0.37400001 4284118631
0.051014666 0.0033653502 0.37300003 4284184424
0.052226175 0.0033653502 0.37300003 4284315496
0.053294413 0.0033563275 0.37200001 4284315496
0.054209646 0.0033382827 0.37 4284642665
0.058219161 0.0032931708 0.36500001 4279314965
0.059241932 0.0032841486 0.36400002 4279513371
0.060424209 0.0032841486 0.36400002 4279251223
0.061606478 0.0032841486 0.36400002 4279251223
0.062616251 0.003275126 0.36300001 4278791953
0.063795276 0.003275126 0.36300001 4278858259
0.064795315 0.0032661038 0.36200002 4278991894
0.065971084 0.0032661038 0.36200002 4278662929
0.067146868 0.0032661038 0.36200002 4278662929
0.068322644 0.0032661038 0.36200002 4278531343
0.069306433 0.0032570816 0.36100003 4278662931
0.070478961 0.0032570816 0.36100003 4278662931
0.071651496 0.0032570816 0.36100003 4278662931
0.072622284 0.003248059 0.36000001 4278728722
0.073791571 0.003248059 0.36000001 4278662929
0.07496085 0.003248059 0.36000001 4278728722
0.076130137 0.003248059 0.36000001 4278794515
0.077299409 0.003248059 0.36000001 4278860308
0.078468695 0.003248059 0.36000001 4278794515
0.079859197 0.0032570816 0.36100003 4278531343
0.084762543 0.0033112157 0.36700001 4278794517
0.086422972 0.0033292605 0.36900002 4278860310
0.087621488 0.0033292605 0.36900002 4279123482
0.088820003 0.0033292605 0.36900002 4278991896
0.090262458 0.0033382827 0.37 4278794517
0.091464221 0.0033382827 0.37 4278991896
0.092415534 0.0033292605 0.36900002 4278795287
0.093614049 0.0033292605 0.36900002 4279058459
0.094812557 0.0033292605 0.36900002 4279189275
0.095750883 0.0033202383 0.36800003 4279123482
0.09694615 0.0033202383 0.36800003 4279123482
0.098141417 0.0033202383 0.36800003 4279189275
0.099336684 0.0033202383 0.36800003 4279123482
0.10025875 0.0033112157 0.36700001 4279320348
0.10145077 0.0033112157 0.36700001 4279187992
0.10264279 0.0033112157 0.36700001 4279451164
0.10383481 0.0033112157 0.36700001 4279187992
0.10502683 0.0033112157 0.36700001 4279451164
0.10621884 0.0033112157 0.36700001 4279385371
0.10741085 0.0033112157 0.36700001 4279385371
0.10860287 0.0033112157 0.36700001 4279451164
0.10979488 0.0033112157 0.36700001 4279385371
0.1109869 0.0033112157 0.36700001 4279385371
0.11248459 0.0033202383 0.36800003 4279319576
0.11367986 0.0033202383 0.36800003 4279648027
0.11487512 0.0033202383 0.36800003 4279187476
0.11607038 0.0033202383 0.36800003 4279582234
0.1175843 0.0033292605 0.36900002 4279450650
0.11878281 0.0033292605 0.36900002 4279253271
0.12030648 0.0033382827 0.37 4279319064
0.12150824 0.0033382827 0.37 4279187992
0.12304165 0.0033473053 0.37100002 4279187992
0.12424666 0.0033473053 0.37100002 4279450650
0.12545167 0.0033473053 0.37100002 4279253271
0.12665668 0.0033473053 0.37100002 4278726414
0.12786168 0.0033473053 0.37100002 4278923023
0.12906669 0.0033473053 0.37100002 4278330119
0.13062283 0.0033563275 0.37200001 4278527500
0.13183109 0.0033563275 0.37200001 4279843871
0.13339698 0.0033653502 0.37300003 4279779102
0.13460849 0.0033653502 0.37300003 4279713822
0.13582 0.0033653502 0.37300003 4279713822
0.1370315 0.0033653502 0.37300003 4279779615
0.138243 0.0033653502 0.37300003 4279844895
0.13945451 0.0033653502 0.37300003 4280173090
0.046416204 0.0046018083 0.37500003 4284052838
0.047634203 0.0046018083 0.37500003 4284118631
0.048721932 0.0045895367 0.37400001 4284184424
0.049803168 0.0045772656 0.37300003 4284250217
0.051014666 0.0045772656 0.37300003 4284381803
0.052086156 0.0045649935 0.37200001 4284316010
0.053151149 0.0045527224 0.37100002 4284316010
0.054209646 0.0045404509 0.37 4284184424
0.055111885 0.0045159082 0.36800003 4281682747
0.05837867 0.004491365 0.36600003 4279578652
0.059404682 0.0044790935 0.36500001 4279119385
0.060590208 0.0044790935 0.36500001 4279251736
0.061606478 0.0044668219 0.36400002 4279185943
0.062788747 0.0044668219 0.36400002 4278791953
0.063971028 0.0044668219 0.36400002 4279253017
0.064974301 0.0044545503 0.36300001 4279188762
0.066153325 0.0044545503 0.36300001 4279386141
0.06733235 0.0044545503 0.36300001 4279912485
0.068322644 0.0044422788 0.36200002 4279517727
0.069498412 0.0044422788 0.36200002 4279320348
0.070674196 0.0044422788 0.36200002 4279188762
0.071651496 0.0044300077 0.36100003 4278991383
0.072824016 0.0044300077 0.36100003 4278859797
0.073996551 0.0044300077 0.36100003 4279057176
0.07496085 0.0044177361 0.36000001 4279057176
0.076130137 0.0044177361 0.36000001 4279188760
0.077514134 0.0044300077 0.36100003 4278991381
0.078686662 0.0044300077 0.36100003 4278859795
0.079859197 0.0044300077 0.36100003 4278925588
0.081480645 0.0044545503 0.36300001 4279123482
0.082887389 0.0044668219 0.36400002 4278926103
0.084531583 0.004491365 0.36600003 4278991896
0.085954554 0.0045036362 0.36700001 4278991896
0.08738403 0.0045159082 0.36800003 4278991896
0.088820003 0.0045281793 0.36900002 4279254555
0.090018511 0.0045281793 0.36900002 4279386141
0.091217026 0.0045281793 0.36900002 4279254555
0.092415534 0.0045281793 0.36900002 4279123482
0.09336035 0.0045159082 0.36800003 4278991896
0.094555616 0.0045159082 0.36800003 4279320348
0.095750883 0.0045159082 0.36800003 4279254555
0.09694615 0.0045159082 0.36800003 4279188762
0.097874723 0.0045036362 0.36700001 4279187992
0.099066742 0.0045036362 0.36700001 4279451164
0.10025875 0.0045036362 0.36700001 4279451164
0.10145077 0.0045036362 0.36700001 4279779615
0.10264279 0.0045036362 0.36700001 4279713822
0.10383481 0.0045036362 0.36700001 4279384344
0.10502683 0.0045036362 0.36700001 4279318551
0.10621884 0.0045036362 0.36700001 4279384344
0.10741085 0.0045036362 0.36700001 4279384344
0.10860287 0.0045036362 0.36700001 4279186195
0.10979488 0.0045036362 0.36700001 4278922510
0.11128933 0.0045159082 0.36800003 4278527498
0.11248459 0.0045159082 0.36800003 4278198533
0.11367986 0.0045159082 0.36800003 4278198535
0.11487512 0.0045159082 0.36800003 4278461707
0.11638579 0.0045281793 0.36900002 4278724109
0.1175843 0.0045281793 0.36900002 4278921488
0.11878281 0.0045281793 0.36900002 4279184660
0.12030648 0.0045404509 0.37 4279447832
0.12150824 0.0045404509 0.37 4279908383
0.12304165 0.0045527224 0.37100002 4280040739
0.12424666 0.0045527224 0.37100002 4279843360
0.12545167 0.0045527224 0.37100002 4279909666
0.12665668 0.0045527224 0.37100002 4279909666
0.12820633 0.0045649935 0.37200001 4279778078
0.12941457 0.0045649935 0.37200001 4279646492
0.13062283 0.0045649935 0.37200001 4278460169
0.13183109 0.0045649935 0.37200001 4280039967
0.13303934 0.0045649935 0.37200001 4279909664
0.13460849 0.0045772656 0.37300003 4279713309
0.13582 0.0045772656 0.37300003 4279779102
0.1370315 0.0045772656 0.37300003 4279779102
0.138243 0.0045772656 0.37300003 4279976481
0.13945451 0.0045772656 0.37300003 4280699434
0.048591658 0.0057891808 0.37300003 4284118631
0.049669642 0.0057736598 0.37200001 4284316010
0.050877895 0.0057736598 0.37200001 4284316010
0.051946141 0.0057581393 0.37100002 4284381803
0.053151149 0.0057581393 0.37100002 4284118631
0.054063134 0.0057270983 0.36900002 4284184424
0.055111885 0.0057115778 0.36800003 4284512616
0.057346158 0.0056960569 0.36700001 4279445270
0.05837867 0.0056805364 0.36600003 4279579166
0.05956744 0.0056805364 0.36600003 4279119383
0.060590208 0.0056650154 0.36500001 4279383322
0.061775722 0.0056650154 0.36500001 4278922771
0.062961243 0.0056650154 0.36500001 4279120920
0.063971028 0.0056494954 0.36400002 4278990361
0.065153301 0.0056494954 0.36400002 4278859543
0.066335566 0.0056494954 0.36400002 4279188508
0.067517839 0.0056494954 0.36400002 4279649313
0.068511374 0.0056339744 0.36300001 4279319578
0.069690399 0.0056339744 0.36300001 4278858773
0.070674196 0.005618454 0.36200002 4279187738
0.071849972 0.005618454 0.36200002 4279319324
0.072824016 0.0056029335 0.36100003 4279121945
0.073996551 0.0056029335 0.36100003 4279319578
0.075169079 0.0056029335 0.36100003 4278530062
0.076341607 0.0056029335 0.36100003 4279122199
0.077514134 0.0056029335 0.36100003 4279056406
0.078686662 0.0056029335 0.36100003 4278397195
0.080080412 0.005618454 0.36200002 4279054355
0.081480645 0.0056339744 0.36300001 4278922771
0.082887389 0.0056494954 0.36400002 4279319064
0.084300615 0.0056650154 0.36500001 4279122199
0.085720345 0.0056805364 0.36600003 4279516957
0.087146573 0.0056960569 0.36700001 4279252758
0.088579297 0.0057115778 0.36800003 4279317527
0.089774556 0.0057115778 0.36800003 4279317527
0.090969823 0.0057115778 0.36800003 4279054355
0.09216509 0.0057115778 0.36800003 4279054357
0.09336035 0.0057115778 0.36800003 4278198791
0.094555616 0.0057115778 0.36800003 4278461707
0.095490687 0.0056960569 0.36700001 4278592523
0.096682705 0.0056960569 0.36700001 4278855181
0.097874723 0.0056960569 0.36700001 4278591755
0.099066742 0.0056960569 0.36700001 4278922771
0.10025875 0.0056960569 0.36700001 4279253017
0.10145077 0.0056960569 0.36700001 4278791953
0.10264279 0.0056960569 0.36700001 4279514908
0.10383481 0.0056960569 0.36700001 4279842588
0.10502683 0.0056960569 0.36700001 4280303139
0.10621884 0.0056960569 0.36700001 4280171553
0.10741085 0.0056960569 0.36700001 4279908383
0.10860287 0.0056960569 0.36700001 4280303141
0.10979488 0.0056960569 0.36700001 4280039969
0.11128933 0.0057115778 0.36800003 4279842590
0.11248459 0.0057115778 0.36800003 4280171555
0.11367986 0.0057115778 0.36800003 4279843358
0.11487512 0.0057115778 0.36800003 4279843358
0.11638579 0.0057270983 0.36900002 4279777565
0.1175843 0.0057270983 0.36900002 4279843358
0.11910471 0.0057426183 0.37 4279711772
0.12030648 0.0057426183 0.37 4279711772
0.12150824 0.0057426183 0.37 4279580186
0.12304165 0.0057581393 0.37100002 4280040737
0.12424666 0.0057581393 0.37100002 4279580186
0.12545167 0.0057581393 0.37100002 4278461705
0.12699807 0.0057736598 0.37200001 4279514906
0.12820633 0.0057736598 0.37200001 4279581469
0.12941457 0.0057736598 0.37200001 4279843360
0.13062283 0.0057736598 0.37200001 4279579418
0.13183109 0.0057736598 0.37200001 4279975198
0.13303934 0.0057736598 0.37200001 4279975198
0.13460849 0.0057891808 0.37300003 4279779102
0.13582 0.0057891808 0.37300003 4280042274
0.1370315 0.0057891808 0.37300003 4280108067
0.138243 0.0057891808 0.37300003 4280238883
0.048461385 0.006982326 0.37200001 4284118631
0.049536124 0.0069635562 0.37100002 4284184424
0.050741129 0.0069635562 0.37100002 4284316010
0.051946141 0.0069635562 0.37100002 4284250217
0.053007882 0.0069447863 0.37 4284250217
0.054063134 0.0069260169 0.36900002 4284316010
0.055111885 0.0069072475 0.36800003 4284907887
0.056307152 0.0069072475 0.36800003 4279116818
0.057346158 0.0068884776 0.36700001 4279380760
0.058538172 0.0068884776 0.36700001 4279644443
0.05956744 0.0068697082 0.36600003 4279251223
0.06075621 0.0068697082 0.36600003 4279318299
0.061944973 0.0068697082 0.36600003 4279055127
0.063133746 0.0068697082 0.36600003 4279187226
0.064146765 0.0068509378 0.36500001 4279253019
0.065332286 0.0068509378 0.36500001 4279121945
0.066517808 0.0068509378 0.36500001 4279648289
0.067517839 0.0068321684 0.36400002 4279648289
0.06870012 0.0068321684 0.36400002 4279450910
0.069882385 0.0068321684 0.36400002 4279187738
0.070869423 0.0068133986 0.36300001 4279385117
0.071849972 0.0067946292 0.36200002 4279187738
0.073025748 0.0067946292 0.36200002 4279318810
0.073996551 0.0067758597 0.36100003 4279318810
0.075169079 0.0067758597 0.36100003 4279516189
0.076341607 0.0067758597 0.36100003 4279450396
0.077514134 0.0067758597 0.36100003 4279121431
0.078904629 0.0067946292 0.36200002 4278790672
0.080080412 0.0067946292 0.36200002 4279908381
0.081480645 0.0068133986 0.36300001 4279580186
0.082659669 0.0068133986 0.36300001 4279448600
0.084300615 0.0068509378 0.36500001 4278460423
0.085720345 0.0068697082 0.36600003 4278657037
0.086909115 0.0068697082 0.36600003 4278787855
0.088338591 0.0068884776 0.36700001 4278853135
0.089530602 0.0068884776 0.36700001 4278983951
0.09072262 0.0068884776 0.36700001 4278983951
0.091914631 0.0068884776 0.36700001 4279115023
0.09310665 0.0068884776 0.36700001 4279049744
0.094298668 0.0068884776 0.36700001 4278786058
0.095490687 0.0068884776 0.36700001 4278852365
0.096682705 0.0068884776 0.36700001 4279115537
0.097874723 0.0068884776 0.36700001 4279050514
0.099066742 0.0068884776 0.36700001 4279909412
0.10025875 0.0068884776 0.36700001 4279581471
0.10145077 0.0068884776 0.36700001 4279712285
0.10264279 0.0068884776 0.36700001 4278527500
0.10383481 0.0068884776 0.36700001 4278657035
0.10502683 0.0068884776 0.36700001 4279447578
0.10621884 0.0068884776 0.36700001 4278592523
0.10741085 0.0068884776 0.36700001 4279645211
0.10860287 0.0068884776 0.36700001 4278460937
0.10979488 0.0068884776 0.36700001 4279118867
0.11128933 0.0069072475 0.36800003 4279711004
0.11248459 0.0069072475 0.36800003 4280039969
0.11367986 0.0069072475 0.36800003 4279118865
0.11518728 0.0069260169 0.36900002 4278526728
0.11638579 0.0069260169 0.36900002 4279249424
0.1175843 0.0069260169 0.36900002 4279578389
0.11910471 0.0069447863 0.37 4279842336
0.12030648 0.0069447863 0.37 4279710750
0.12183665 0.0069635562 0.37100002 4280434473
0.12304165 0.0069635562 0.37100002 4279908129
0.12424666 0.0069635562 0.37100002 4279381271
0.12578981 0.006982326 0.37200001 4279118353
0.12699807 0.006982326 0.37200001 4279843358
0.12820633 0.006982326 0.37200001 4279514906
0.12941457 0.006982326 0.37200001 4278855181
0.13062283 0.006982326 0.37200001 4280105246
0.13183109 0.006982326 0.37200001 4279975711
0.13339698 0.0070010959 0.37300003 4280107297
0.13460849 0.0070010959 0.37300003 4280107297
0.13582 0.0070010959 0.37300003 4280042274
0.1370315 0.0070010959 0.37300003 4280304676
0.048461385 0.0081909914 0.37200001 4284184424
0.049536124 0.008168973 0.37100002 4284250217
0.050604358 0.0081469538 0.37 4284184424
0.051806122 0.0081469538 0.37 4284513389
0.052864619 0.0081249354 0.36900002 4284579182
0.054063134 0.0081249354 0.36900002 4284644975
0.055111885 0.0081029171 0.36800003 4284381803
0.056307152 0.0081029171 0.36800003 4282407238
0.057346158 0.0080808979 0.36700001 4279314967
0.058538172 0.0080808979 0.36700001 4279447832
0.059730191 0.0080808979 0.36700001 4279317016
0.060922209 0.0080808979 0.36700001 4279055127
0.061944973 0.0080588795 0.36600003 4278857748
0.063133746 0.0080588795 0.36600003 4279121685
0.064322516 0.0080588795 0.36600003 4279056406
0.065511286 0.0080588795 0.36600003 4279386141
0.066700049 0.0080588795 0.36600003 4279846438
0.067703329 0.0080368603 0.36500001 4279385887
0.068888851 0.0080368603 0.36500001 4279056922
0.069882385 0.0080148419 0.36400002 4278991129
0.071064658 0.0080148419 0.36400002 4279056922
0.072048448 0.0079928227 0.36300001 4279385117
0.073025748 0.0079708034 0.36200002 4279516189
0.074201524 0.0079708034 0.36200002 4279187224
0.0753773 0.0079708034 0.36200002 4279253017
0.076553077 0.0079708034 0.36200002 4279318810
0.077728853 0.0079708034 0.36200002 4279581469
0.078904629 0.0079708034 0.36200002 4278195456
0.080080412 0.0079708034 0.36200002 4279776281
0.081480645 0.0079928227 0.36300001 4279579416
0.082887389 0.0080148419 0.36400002 4278460171
0.084069662 0.0080148419 0.36400002 4278853135
0.085486136 0.0080368603 0.36500001 4278983951
0.086909115 0.0080588795 0.36600003 4279444502
0.088097885 0.0080588795 0.36600003 4279445272
0.089286655 0.0080588795 0.36600003 4279445272
0.09072262 0.0080808979 0.36700001 4279379479
0.091914631 0.0080808979 0.36700001 4279840028
0.09310665 0.0080808979 0.36700001 4279050512
0.094298668 0.0080808979 0.36700001 4278918926
0.095490687 0.0080808979 0.36700001 4279774235
0.096682705 0.0080808979 0.36700001 4279116305
0.097874723 0.0080808979 0.36700001 4279248404
0.099066742 0.0080808979 0.36700001 4279646240
0.10025875 0.0080808979 0.36700001 4278725138
0.10145077 0.0080808979 0.36700001 4278984717
0.10264279 0.0080808979 0.36700001 4279116305
0.10383481 0.0080808979 0.36700001 4278853646
0.10502683 0.0080808979 0.36700001 4278920209
0.10621884 0.0080808979 0.36700001 4279974176
0.10741085 0.0080808979 0.36700001 4279514393
0.10860287 0.0080808979 0.36700001 4279645209
0.11009406 0.0081029171 0.36800003 4279184146
0.11128933 0.0081029171 0.36800003 4279512857
0.11248459 0.0081029171 0.36800003 4279644697
0.11367986 0.0081029171 0.36800003 4279843358
0.11518728 0.0081249354 0.36900002 4279909151
0.11638579 0.0081249354 0.36900002 4280170526
0.1175843 0.0081249354 0.36900002 4280499491
0.11910471 0.0081469538 0.37 4280039969
0.12030648 0.0081469538 0.37 4280368934
0.12183665 0.008168973 0.37100002 4280500006
0.12304165 0.008168973 0.37100002 4280434213
0.12424666 0.008168973 0.37100002 4280631592
0.12578981 0.0081909914 0.37200001 4280236834
0.12699807 0.0081909914 0.37200001 4279645211
0.12820633 0.0081909914 0.37200001 4278657802
0.12941457 0.0081909914 0.37200001 4280302627
0.13062283 0.0081909914 0.37200001 4280500006
0.13218549 0.0082130106 0.37300003 4280172323
0.13339698 0.0082130106 0.37300003 4280107297
0.13460849 0.0082130106 0.37300003 4280173090
0.13582 0.0082130106 0.37300003 4280566311
0.049402602 0.0093491217 0.37 4284250219
0.050467592 0.009323854 0.36900002 4284316012
0.051666107 0.009323854 0.36900002 4284381805
0.052864619 0.009323854 0.36900002 4284513389
0.054063134 0.009323854 0.36900002 4284513389
0.055111885 0.0092985863 0.36800003 4284579182
0.056307152 0.0092985863 0.36800003 4285039733
0.057502419 0.0092985863 0.36800003 4279644447
0.058538172 0.0092733176 0.36700001 4279382039
0.059730191 0.0092733176 0.36700001 4279251736
0.060922209 0.0092733176 0.36700001 4279251736
0.06211422 0.0092733176 0.36700001 4279252504
0.063306242 0.0092733176 0.36700001 4279056406
0.064498261 0.0092733176 0.36700001 4279187992
0.065690279 0.0092733176 0.36700001 4279386141
0.066700049 0.0092480499 0.36600003 4279649313
0.067888819 0.0092480499 0.36600003 4279254301
0.069077589 0.0092480499 0.36600003 4278991129
0.070074365 0.0092227822 0.36500001 4279057176
0.071064658 0.0091975145 0.36400002 4279187992
0.072246931 0.0091975145 0.36400002 4279187992
0.073227473 0.0091722459 0.36300001 4279319578
0.074406497 0.0091722459 0.36300001 4279450650
0.075585522 0.0091722459 0.36300001 4279516443
0.076553077 0.0091469781 0.36200002 4279253271
0.077943571 0.0091722459 0.36300001 4278988564
0.079122595 0.0091722459 0.36300001 4279710490
0.08030162 0.0091722459 0.36300001 4279579418
0.081480645 0.0091722459 0.36300001 4279513371
0.082887389 0.0091975145 0.36400002 4278853648
0.084069662 0.0091975145 0.36400002 4280234018
0.085486136 0.0092227822 0.36500001 4279641881
0.086671658 0.0092227822 0.36500001 4279642651
0.088097885 0.0092480499 0.36600003 4279840030
0.089286655 0.0092480499 0.36600003 4278984721
0.090475425 0.0092480499 0.36600003 4279905823
0.091664188 0.0092480499 0.36600003 4279049744
0.092852958 0.0092480499 0.36600003 4279772953
0.094298668 0.0092733176 0.36700001 4279314197
0.095490687 0.0092733176 0.36700001 4279116818
0.096682705 0.0092733176 0.36700001 4279050512
0.097874723 0.0092733176 0.36700001 4280301860
0.099066742 0.0092733176 0.36700001 4279712285
0.10025875 0.0092733176 0.36700001 4278789902
0.10145077 0.0092733176 0.36700001 4278918926
0.10264279 0.0092733176 0.36700001 4280036637
0.10383481 0.0092733176 0.36700001 4280367655
0.10502683 0.0092733176 0.36700001 4280170789
0.10621884 0.0092733176 0.36700001 4280368680
0.10741085 0.0092733176 0.36700001 4280171301
0.10860287 0.0092733176 0.36700001 4279513625
0.11009406 0.0092985863 0.36800003 4279447832
0.11128933 0.0092985863 0.36800003 4278987027
0.11248459 0.0092985863 0.36800003 4278921236
0.11367986 0.0092985863 0.36800003 4278461453
0.11518728 0.009323854 0.36900002 4278526476
0.11638579 0.009323854 0.36900002 4278329097
0.1175843 0.009323854 0.36900002 4278723855
0.11910471 0.0093491217 0.37 4279382039
0.12030648 0.0093491217 0.37 4279974176
0.12183665 0.0093743894 0.37100002 4279711004
0.12304165 0.0093743894 0.37100002 4280434213
0.12424666 0.0093743894 0.37100002 4280697385
0.12578981 0.0093996571 0.37200001 4280894764
0.12699807 0.0093996571 0.37200001 4280565799
0.12820633 0.0093996571 0.37200001 4280434213
0.12941457 0.0093996571 0.37200001 4280170526
0.13097398 0.0094249258 0.37300003 4280104733
0.13218549 0.0094249258 0.37300003 4280895024
0.13339698 0.0094249258 0.37300003 4281487163
0.13460849 0.0094249258 0.37300003 4284841579
0.049269084 0.010522773 0.36900002 4284119401
0.050467592 0.010522773 0.36900002 4284382573
0.051666107 0.010522773 0.36900002 4284250987
0.052864619 0.010522773 0.36900002 4284448366
0.053916626 0.010494256 0.36800003 4284514159
0.055111885 0.010494256 0.36800003 4284382573
0.056307152 0.010494256 0.36800003 4284513389
0.057502419 0.010494256 0.36800003 4284250217
0.058697678 0.010494256 0.36800003 4278657548
0.059892945 0.010494256 0.36800003 4279382809
0.061088212 0.010494256 0.36800003 4279252506
0.062283471 0.010494256 0.36800003 4279318297
0.063478738 0.010494256 0.36800003 4279187992
0.064674005 0.010494256 0.36800003 4279385371
0.065690279 0.010465739 0.36700001 4279911715
0.06688229 0.010465739 0.36700001 4279451680
0.068074308 0.010465739 0.36700001 4279254301
0.069077589 0.010437222 0.36600003 4279188508
0.070266359 0.010437222 0.36600003 4279121945
0.071259893 0.010408705 0.36500001 4279319578
0.072246931 0.010380188 0.36400002 4279516443
0.073429205 0.010380188 0.36400002 4279516443
0.074406497 0.010351671 0.36300001 4279319064
0.075585522 0.010351671 0.36300001 4279319064
0.076764546 0.010351671 0.36300001 4279383574
0.077943571 0.010351671 0.36300001 4278789134
0.079122595 0.010351671 0.36300001 4279908383
0.08030162 0.010351671 0.36300001 4279382809
0.081705116 0.010380188 0.36400002 4278460169
0.082887389 0.010380188 0.36400002 4278984721
0.084069662 0.010380188 0.36400002 4279180562
0.085486136 0.010408705 0.36500001 4278917390
0.086671658 0.010408705 0.36500001 4279049744
0.087857179 0.010408705 0.36500001 4279049744
0.089286655 0.010437222 0.36600003 4279049744
0.090475425 0.010437222 0.36600003 4279115537
0.091664188 0.010437222 0.36600003 4279180816
0.092852958 0.010437222 0.36600003 4279246609
0.094041727 0.010437222 0.36600003 4279181330
0.095490687 0.010465739 0.36700001 4279049744
0.096682705 0.010465739 0.36700001 4279840539
0.097874723 0.010465739 0.36700001 4279513625
0.099066742 0.010465739 0.36700001 4278395914
0.10025875 0.010465739 0.36700001 4278659086
0.10145077 0.010465739 0.36700001 4279512857
0.10264279 0.010465739 0.36700001 4280302373
0.10383481 0.010465739 0.36700001 4280236321
0.10502683 0.010465739 0.36700001 4280105762
0.10621884 0.010465739 0.36700001 4280171555
0.10741085 0.010465739 0.36700001 4279909153
0.10860287 0.010465739 0.36700001 4280303911
0.11009406 0.010494256 0.36800003 4280238118
0.11128933 0.010494256 0.36800003 4279909153
0.11248459 0.010494256 0.36800003 4279909666
0.11367986 0.010494256 0.36800003 4280172838
0.11518728 0.010522773 0.36900002 4280369704
0.11638579 0.010522773 0.36900002 4280369704
0.1175843 0.010522773 0.36900002 4280172325
0.11910471 0.01055129 0.37 4280171555
0.12030648 0.01055129 0.37 4280434727
0.12183665 0.010579807 0.37100002 4280038942
0.12304165 0.010579807 0.37100002 4280763178
0.12424666 0.010579807 0.37100002 4282341958
0.12578981 0.010608324 0.37200001 4283986783
0.12699807 0.010608324 0.37200001 4285368434
0.12820633 0.010608324 0.37200001 4286552195
0.12976247 0.010636841 0.37300003 4286749574
0.13097398 0.010636841 0.37300003 4286091646
0.048070569 0.011721692 0.36900002 4284184424
0.049269084 0.011721692 0.36900002 4284381803
0.050467592 0.011721692 0.36900002 4284513389
0.051666107 0.011721692 0.36900002 4284579182
0.052721359 0.011689926 0.36800003 4284644975
0.053916626 0.011689926 0.36800003 4284579182
0.055111885 0.011689926 0.36800003 4284644975
0.056307152 0.011689926 0.36800003 4284579182
0.057502419 0.011689926 0.36800003 4284710768
0.058697678 0.011689926 0.36800003 4282144577
0.059892945 0.011689926 0.36800003 4279776283
0.061088212 0.011689926 0.36800003 4279581471
0.062283471 0.011689926 0.36800003 4279450396
0.063478738 0.011689926 0.36800003 4279450648
0.064674005 0.011689926 0.36800003 4279648543
0.065869272 0.011689926 0.36800003 4279780129
0.067064531 0.011689926 0.36800003 4279582750
0.068074308 0.01165816 0.36700001 4279385371
0.069266327 0.01165816 0.36700001 4279319324
0.070266359 0.011626394 0.36600003 4279385117
0.071455128 0.011626394 0.36600003 4279318810
0.072445415 0.011594627 0.36500001 4279450396
0.073630929 0.011594627 0.36500001 4279516443
0.074611478 0.011562862 0.36400002 4279450650
0.075793751 0.011562862 0.36400002 4279516443
0.076976024 0.011562862 0.36400002 4279514647
0.078158297 0.011562862 0.36400002 4279513111
0.07934057 0.011562862 0.36400002 4279909151
0.080522843 0.011562862 0.36400002 4279712285
0.081705116 0.011562862 0.36400002 4279382039
0.082887389 0.011562862 0.36400002 4279314965
0.084300615 0.011594627 0.36500001 4279708955
0.085486136 0.011594627 0.36500001 4279841313
0.086671658 0.011594627 0.36500001 4279841824
0.087857179 0.011594627 0.36500001 4279973408
0.089286655 0.011626394 0.36600003 4280236067
0.090475425 0.011626394 0.36600003 4280038688
0.091664188 0.011626394 0.36600003 4280170787
0.092852958 0.011626394 0.36600003 4280170787
0.094041727 0.011626394 0.36600003 4280105248
0.095490687 0.01165816 0.36700001 4280302627
0.096682705 0.01165816 0.36700001 4280303139
0.097874723 0.01165816 0.36700001 4280040991
0.099066742 0.01165816 0.36700001 4279779102
0.10025875 0.01165816 0.36700001 4279844641
0.10145077 0.01165816 0.36700001 4279844641
0.10264279 0.01165816 0.36700001 4280042022
0.10383481 0.01165816 0.36700001 4280107045
0.10502683 0.01165816 0.36700001 4280238631
0.10621884 0.01165816 0.36700001 4279778080
0.10741085 0.01165816 0.36700001 4280040739
0.1088988 0.011689926 0.36800003 4279909153
0.11009406 0.011689926 0.36800003 4280172325
0.11128933 0.011689926 0.36800003 4280369704
0.11248459 0.011689926 0.36800003 4281356345
0.11398876 0.011721692 0.36900002 4283329367
0.11518728 0.011721692 0.36900002 4284382055
0.11638579 0.011721692 0.36900002 4285697399
0.1175843 0.011721692 0.36900002 4286092411
0.11910471 0.011753458 0.37 4286091644
0.12030648 0.011753458 0.37 4286026366
0.12183665 0.011785224 0.37100002 4286026368
0.12304165 0.011785224 0.37100002 4285565817
0.12424666 0.011785224 0.37100002 4286223234
0.048070569 0.012920611 0.36900002 4284316010
0.049269084 0.012920611 0.36900002 4284513389
0.050467592 0.012920611 0.36900002 4284579182
0.051526092 0.012885596 0.36800003 4284513389
0.052721359 0.012885596 0.36800003 4284644975
0.053916626 0.012885596 0.36800003 4284710768
0.055111885 0.012885596 0.36800003 4284513389
0.056307152 0.012885596 0.36800003 4284710254
0.057502419 0.012885596 0.36800003 4284644461
0.058697678 0.012885596 0.36800003 4284710254
0.059892945 0.012885596 0.36800003 4281552956
0.061088212 0.012885596 0.36800003 4279843873
0.062283471 0.012885596 0.36800003 4279450398
0.063478738 0.012885596 0.36800003 4279385117
0.064849749 0.012920611 0.36900002 4279846692
0.065869272 0.012885596 0.36800003 4279649313
0.067064531 0.012885596 0.36800003 4279320348
0.068259798 0.012885596 0.36800003 4279254555
0.069266327 0.01285058 0.36700001 4279188508
0.070458338 0.01285058 0.36700001 4279450910
0.071455128 0.012815565 0.36600003 4279318810
0.072643898 0.012815565 0.36600003 4279581982
0.073630929 0.012780549 0.36500001 4279581982
0.07481645 0.012780549 0.36500001 4279647775
0.075793751 0.012745535 0.36400002 4279186711
0.076976024 0.012745535 0.36400002 4279185941
0.078158297 0.012745535 0.36400002 4278856978
0.07934057 0.012745535 0.36400002 4279844643
0.080522843 0.012745535 0.36400002 4279713057
0.081705116 0.012745535 0.36400002 4279713570
0.083115093 0.012780549 0.36500001 4279713057
0.084300615 0.012780549 0.36500001 4279778080
0.085486136 0.012780549 0.36500001 4280107045
0.086671658 0.012780549 0.36500001 4280107045
0.087857179 0.012780549 0.36500001 4280107815
0.089286655 0.012815565 0.36600003 4280107045
0.090475425 0.012815565 0.36600003 4280172325
0.091664188 0.012815565 0.36600003 4280238118
0.092852958 0.012815565 0.36600003 4280369704
0.094041727 0.012815565 0.36600003 4279711774
0.095490687 0.01285058 0.36700001 4279514395
0.096682705 0.01285058 0.36700001 4280238116
0.097874723 0.01285058 0.36700001 4279777567
0.099066742 0.01285058 0.36700001 4281092657
0.10025875 0.01285058 0.36700001 4281026864
0.10145077 0.01285058 0.36700001 4281947966
0.10264279 0.01285058 0.36700001 4283329365
0.10383481 0.01285058 0.36700001 4284645227
0.10502683 0.01285058 0.36700001 4285697915
0.10621884 0.01285058 0.36700001 4286290822
0.10741085 0.01285058 0.36700001 4286093441
0.1088988 0.012885596 0.36800003 4285894780
0.11009406 0.012885596 0.36800003 4286157952
0.11128933 0.012885596 0.36800003 4285697401
0.11248459 0.012885596 0.36800003 4285566329
0.11367986 0.012885596 0.36800003 4285500538
0.11518728 0.012920611 0.36900002 4285828989
0.11638579 0.012920611 0.36900002 4285697403
0.049135566 0.014081265 0.36800003 4284644975
0.050330825 0.014081265 0.36800003 4284842354
0.051526092 0.014081265 0.36800003 4284710768
0.052721359 0.014081265 0.36800003 4284776561
0.053916626 0.014081265 0.36800003 4284644975
0.055111885 0.014081265 0.36800003 4284644975
0.056307152 0.014081265 0.36800003 4284841840
0.057502419 0.014081265 0.36800003 4284841840
0.058697678 0.014081265 0.36800003 4284513389
0.059892945 0.014081265 0.36800003 4284316010
0.061254211 0.014119529 0.36900002 4284118631
0.062452719 0.014119529 0.36900002 4279777830
0.063651234 0.014119529 0.36900002 4279318812
0.064849749 0.014119529 0.36900002 4280108328
0.066048265 0.014119529 0.36900002 4279582496
0.067064531 0.014081265 0.36800003 4279516703
0.068259798 0.014081265 0.36800003 4279320094
0.069455065 0.014081265 0.36800003 4279320096
0.070458338 0.014043001 0.36700001 4279582498
0.071650356 0.014043001 0.36700001 4279516705
0.072643898 0.014004736 0.36600003 4279779363
0.073630929 0.013966472 0.36500001 4279779363
0.07481645 0.013966472 0.36500001 4280041768
0.076001972 0.013966472 0.36500001 4279646494
0.077187493 0.013966472 0.36500001 4280105760
0.078373015 0.013966472 0.36500001 4279382807
0.079558536 0.013966472 0.36500001 4279448861
0.080744058 0.013966472 0.36500001 4279646240
0.081929572 0.013966472 0.36500001 4280041770
0.083115093 0.013966472 0.36500001 4280765493
0.084300615 0.013966472 0.36500001 4282277447
0.085486136 0.013966472 0.36500001 4283460951
0.086671658 0.013966472 0.36500001 4284315746
0.087857179 0.013966472 0.36500001 4284448618
0.089286655 0.014004736 0.36600003 4285369720
0.090475425 0.014004736 0.36600003 4285303929
0.091664188 0.014004736 0.36600003 4285632894
0.092852958 0.014004736 0.36600003 4285764226
0.094041727 0.014004736 0.36600003 4285237112
0.095490687 0.014043001 0.36700001 4285434745
0.096682705 0.014043001 0.36700001 4285434229
0.097874723 0.014043001 0.36700001 4285565815
0.099066742 0.014043001 0.36700001 4285434229
0.10025875 0.014043001 0.36700001 4285697401
0.10145077 0.014043001 0.36700001 4285631608
0.10264279 0.014043001 0.36700001 4285696890
0.10383481 0.014043001 0.36700001 4285697403
0.10502683 0.014043001 0.36700001 4285631610
0.10621884 0.014043001 0.36700001 4285828989
0.10741085 0.014043001 0.36700001 4285894528
0.1088988 0.014081265 0.36800003 4285894528
0.049135566 0.015276935 0.36800003 4284644975
0.050330825 0.015276935 0.36800003 4284579182
0.051526092 0.015276935 0.36800003 4284644975
0.052721359 0.015276935 0.36800003 4284644975
0.053916626 0.015276935 0.36800003 4284579182
0.055111885 0.015276935 0.36800003 4284513389
0.056307152 0.015276935 0.36800003 4284579182
0.057502419 0.015276935 0.36800003 4284513389
0.058697678 0.015276935 0.36800003 4284381803
0.059892945 0.015276935 0.36800003 4284381803
0.061254211 0.015318448 0.36900002 4284579182
0.062452719 0.015318448 0.36900002 4284579182
0.063651234 0.015318448 0.36900002 4284448620
0.064849749 0.015318448 0.36900002 4284054373
0.066048265 0.015318448 0.36900002 4282804304
0.067246772 0.015318448 0.36900002 4281883204
0.068259798 0.015276935 0.36800003 4281751620
0.069455065 0.015276935 0.36800003 4282212171
0.070458338 0.01523542 0.36700001 4283396443
0.071650356 0.01523542 0.36700001 4283988580
0.072643898 0.015193908 0.36600003 4284580717
0.073832661 0.015193908 0.36600003 4284975477
0.07481645 0.015152394 0.36500001 4284975223
0.076001972 0.015152394 0.36500001 4285369468
0.077187493 0.015152394 0.36500001 4284711792
0.078373015 0.015152394 0.36500001 4284909171
0.079558536 0.015152394 0.36500001 4284909169
0.080744058 0.015152394 0.36500001 4284909169
0.081929572 0.015152394 0.36500001 4284843378
0.083115093 0.015152394 0.36500001 4284908917
0.084300615 0.015152394 0.36500001 4285302391
0.085486136 0.015152394 0.36500001 4285368184
0.086671658 0.015152394 0.36500001 4285433977
0.087857179 0.015152394 0.36500001 4285368184
0.089286655 0.015193908 0.36600003 4285500538
0.090475425 0.015193908 0.36600003 4285237366
0.091664188 0.015193908 0.36600003 4285434231
0.092852958 0.015193908 0.36600003 4285368184
0.094041727 0.015193908 0.36600003 4285433977
0.095490687 0.01523542 0.36700001 4285433977
0.096682705 0.01523542 0.36700001 4285565817
0.097874723 0.01523542 0.36700001 4285697403
0.099066742 0.01523542 0.36700001 4285762683
0.10025875 0.01523542 0.36700001 4285828476
0.10145077 0.01523542 0.36700001 4285828476
0.10264279 0.01523542 0.36700001 4286025085
0.10383481 0.01523542 0.36700001 4285894015
0.061254211 0.016517365 0.36900002 4284841840
0.062452719 0.016517365 0.36900002 4284710254
0.063651234 0.016517365 0.36900002 4284644461
0.064849749 0.016517365 0.36900002 4284710508
0.066048265 0.016517365 0.36900002 4284513643
0.067246772 0.016517365 0.36900002 4284579436
0.068259798 0.016472604 0.36800003 4284382827
0.069455065 0.016472604 0.36800003 4284580206
0.070458338 0.016427841 0.36700001 4284448620
0.071650356 0.016427841 0.36700001 4284514413
0.072842374 0.016427841 0.36700001 4284711022
0.076001972 0.016338315 0.36500001 4284974194
0.077187493 0.016338315 0.36500001 4284974194
0.078373015 0.016338315 0.36500001 4285105780
0.079558536 0.016338315 0.36500001 4285105266
0.080744058 0.016338315 0.36500001 4285236852
0.081929572 0.016338315 0.36500001 4285170805
0.083115093 0.016338315 0.36500001 4285105012
0.084300615 0.016338315 0.36500001 4285433977
0.085486136 0.016338315 0.36500001 4285565563
0.086671658 0.016338315 0.36500001 4285433977
0.087857179 0.016338315 0.36500001 4285433977
0.089286655 0.016383078 0.36600003 4285631356
0.090475425 0.016383078 0.36600003 4285565563
0.091664188 0.016383078 0.36600003 4285565817
0.068259798 0.017668275 0.36800003 4284710768
0.087417334 0.0074061253 0.36731604 4294967295
0.087417334 0.0074061253 0.36731604 4294901760
0.087417334 0.0074061253 0.36781603 4294901760
0.087417334 0.0074061253 0.36831602 4294901760
0.087417334 0.0074061253 0.36881605 4294901760
0.087417334 0.0074061253 0.36931604 4294901760
0.087417334 0.0074061253 0.36981604 4294901760
0.087417334 0.0074061253 0.37031603 4294901760
0.087417334 0.0074061253 0.37081605 4294901760
0.087417334 0.0074061253 0.37131605 4294901760
0.087417334 0.0074061253 0.37181604 4294901760
0.087417334 0.0074061253 0.37231603 4294901760
0.087417334 0.0074061253 0.37281603 4294901760
0.087417334 0.0074061253 0.37331605 4294901760
0.087417334 0.0074061253 0.37381604 4294901760
0.087417334 0.0074061253 0.37431604 4294901760
0.087417334 0.0074061253 0.37481603 4294901760
0.087417334 0.0074061253 0.37531602 4294901760
0.087417334 0.0074061253 0.37581605 4294901760
0.087417334 0.0074061253 0.37631604 4294901760
0.087417334 0.0074061253 0.37681603 4294901760
0.087417334 0.0074061253 0.37731603 4294901760
0.087417334 0.0074061253 0.37781605 4294901760
0.087417334 0.0074061253 0.37831604 4294901760
0.087417334 0.0074061253 0.37881604 4294901760
0.087417334 0.0074061253 0.37931603 4294901760
0.087417334 0.0074061253 0.37981606 4294901760
0.087417334 0.0074061253 0.38031605 4294901760
0.087417334 0.0074061253 0.38081604 4294901760
0.087417334 0.0074061253 0.38131604 4294901760
0.087417334 0.0074061253 0.38181603 4294901760
0.087417334 0.0074061253 0.38231605 4294901760
0.087417334 0.0074061253 0.38281605 4294901760
0.087417334 0.0074061253 0.38331604 4294901760
0.087417334 0.0074061253 0.38381603 4294901760
0.087417334 0.0074061253 0.38431603 4294901760
0.087417334 0.0074061253 0.38481605 4294901760
0.087417334 0.0074061253 0.38531604 4294901760
0.087417334 0.0074061253 0.38581604 4294901760
0.087417334 0.0074061253 0.38631603 4294901760
0.087417334 0.0074061253 0.38681605 4294901760
0.087417334 0.0074061253 0.38731605 4294901760
0.087417334 0.0074061253 0.38781604 4294901760
0.087417334 0.0074061253 0.38831604 4294901760
0.087417334 0.0074061253 0.38881606 4294901760
0.087417334 0.0074061253 0.38931605 4294901760
0.087417334 0.0074061253 0.38981605 4294901760
0.087417334 0.0074061253 0.39031604 4294901760
0.087417334 0.0074061253 0.39081603 4294901760
0.087417334 0.0074061253 0.39131606 4294901760
0.087417334 0.0074061253 0.39181605 4294901760
0.087417334 0.0074061253 0.39231604 4294901760
0.087417334 0.0074061253 0.39281604 4294901760
0.087417334 0.0074061253 0.39331603 4294901760
0.087417334 0.0074061253 0.39381605 4294901760
0.087417334 0.0074061253 0.39431605 4294901760
0.087417334 0.0074061253 0.39481604 4294901760
0.087417334 0.0074061253 0.39531603 4294901760
0.087417334 0.0074061253 0.39581603 4294901760
0.087417334 0.0074061253 0.39631605 4294901760
0.087417334 0.0074061253 0.39681605 4294901760
0.087417334 0.0074061253 0.39731604 4294901760
0.087417334 0.0074061253 0.39781603 4294901760
0.087417334 0.0074061253 0.39831606 4294901760
0.087417334 0.0074061253 0.39881605 4294901760
0.087417334 0.0074061253 0.39931604 4294901760
0.087417334 0.0074061253 0.39981604 4294901760
0.087417334 0.0074061253 0.40031606 4294901760
0.087417334 0.0074061253 0.40081605 4294901760
0.087417334 0.0074061253 0.40131605 4294901760
0.087417334 0.0074061253 0.40181604 4294901760
0.087417334 0.0074061253 0.40231603 4294901760
0.087417334 0.0074061253 0.40281606 4294901760
0.087417334 0.0074061253 0.40331605 4294901760
0.087417334 0.0074061253 0.40381604 4294901760
0.087417334 0.0074061253 0.40431604 4294901760
0.087417334 0.0074061253 0.40481603 4294901760
0.087417334 0.0074061253 0.40531605 4294901760
0.087417334 0.0074061253 0.40581605 4294901760
0.087417334 0.0074061253 0.40631604 4294901760
0.087417334 0.0074061253 0.40681604 4294901760
0.087417334 0.0074061253 0.40731606 4294901760
0.087417334 0.0074061253 0.40781605 4294901760
0.087417334 0.0074061253 0.40831605 4294901760
0.087417334 0.0074061253 0.40881604 4294901760
0.087417334 0.0074061253 0.40931603 4294901760
0.087417334 0.0074061253 0.40981606 4294901760
0.087417334 0.0074061253 0.41031605 4294901760
0.087417334 0.0074061253 0.41081604 4294901760
0.087417334 0.0074061253 0.41131604 4294901760
0.087417334 0.0074061253 0.41181606 4294901760
0.087417334 0.0074061253 0.41231605 4294901760
0.087417334 0.0074061253 0.41281605 4294901760
0.087417334 0.0074061253 0.41331604 4294901760
0.087417334 0.0074061253 0.41381603 4294901760
0.087417334 0.0074061253 0.41431606 4294901760
0.087417334 0.0074061253 0.41481605 4294901760
0.087417334 0.0074061253 0.41531605 4294901760
0.087417334 0.0074061253 0.41581604 4294901760
0.087417334 0.0074061253 0.41631606 4294901760
0.087417334 0.0074061253 0.41681606 4294901760
0.087417334 0.0074061253 0.41731605 4294901760
0.087417334 0.0074061253 0.36731604 4278255360
0.087344222 0.0073407977 0.36780632 4278255360
0.087271109 0.0072754701 0.36829662 4278255360
0.087197997 0.0072101424 0.3687869 4278255360
0.087124884 0.0071448148 0.36927721 4278255360
0.087051772 0.0070794872 0.36976749 4278255360
0.086978659 0.0070141596 0.37025779 4278255360
0.086905546 0.006948832 0.37074807 4278255360
0.086832434 0.0068835043 0.37123838 4278255360
0.086759321 0.0068181762 0.37172866 4278255360
0.086686209 0.0067528486 0.37221897 4278255360
0.086613096 0.006687521 0.37270924 4278255360
0.086539984 0.0066221934 0.37319955 4278255360
0.086466871 0.0065568658 0.37368983 4278255360
0.086393759 0.0064915381 0.37418014 4278255360
0.086320646 0.0064262105 0.37467042 4278255360
0.086247534 0.0063608829 0.37516072 4278255360
0.086174421 0.0062955553 0.375651 4278255360
