# .PCD v0.7 - Point Cloud Data file format
VERSION 0.7
FIELDS x y z rgb
SIZE 4 4 4 4
TYPE F F F U
COUNT 1 1 1 1
WIDTH 1042
HEIGHT 1
VIEWPOINT 0 0 0 1 0 0 0
POINTS 1042
DATA ascii
0.025161708 0.028352046 0.36700001 4278532113
0.026353724 0.028352046 0.36700001 4278532113
0.027470684 0.028274793 0.36600003 4278532626
0.028659454 0.028274793 0.36600003 4278730005
0.029848222 0.028274793 0.36600003 4278401810
0.031036992 0.028274793 0.36600003 4278533910
0.0097181639 0.029705472 0.36900002 4278532113
0.010916677 0.029705472 0.36900002 4278334734
0.012082358 0.029624971 0.36800003 4278662929
0.013277622 0.029624971 0.36800003 4278199559
0.014472887 0.029624971 0.36800003 4278198534
0.015668152 0.029624971 0.36800003 4278989847
0.016863417 0.029624971 0.36800003 4278596625
0.018009609 0.029544465 0.36700001 4278596623
0.019201623 0.029544465 0.36700001 4278596623
0.020393642 0.029544465 0.36700001 4278662929
0.021526841 0.029463964 0.36600003 4278794515
0.022715611 0.029463964 0.36600003 4278597906
0.023904378 0.029463964 0.36600003 4278400527
0.025161708 0.029544465 0.36700001 4278597906
0.026353724 0.029544465 0.36700001 4278400527
0.027470684 0.029463964 0.36600003 4278532113
0.028659454 0.029463964 0.36600003 4278532113
0.029848222 0.029463964 0.36600003 4278334734
0.030952191 0.02938346 0.36500001 4278532113
0.032137711 0.02938346 0.36500001 4278532626
0.033323228 0.02938346 0.36500001 4278466833
0.0097181639 0.03090439 0.36900002 4278729492
0.010916677 0.03090439 0.36900002 4278728722
0.012082358 0.03082064 0.36800003 4278531343
0.013277622 0.03082064 0.36800003 4279055125
0.014472887 0.03082064 0.36800003 4278988564
0.015668152 0.03082064 0.36800003 4278989847
0.016817592 0.030736886 0.36700001 4278661648
0.018009609 0.030736886 0.36700001 4278199042
0.019201623 0.030736886 0.36700001 4278197761
0.020393642 0.030736886 0.36700001 4278528013
0.021526841 0.030653136 0.36600003 4278791185
0.022715611 0.030653136 0.36600003 4278726675
0.023904378 0.030653136 0.36600003 4278595601
0.025093149 0.030653136 0.36600003 4278661648
0.026281916 0.030653136 0.36600003 4278530832
0.027470684 0.030653136 0.36600003 4278465552
0.028659454 0.030653136 0.36600003 4278728724
0.029766668 0.030569382 0.36500001 4278662931
0.030952191 0.030569382 0.36500001 4278662931
0.032137711 0.030569382 0.36500001 4278465552
0.033231933 0.030485632 0.36400002 4278531345
0.034414209 0.030485632 0.36400002 4278532115
0.035596479 0.030485632 0.36400002 4278532115
0.0085196523 0.032103308 0.36900002 4278532113
0.0097181639 0.032103308 0.36900002 4278729492
0.010916677 0.032103308 0.36900002 4278532113
0.012082358 0.032016307 0.36800003 4278399757
0.013277622 0.032016307 0.36800003 4278328585
0.014472887 0.032016307 0.36800003 4278195716
0.015668152 0.032016307 0.36800003 4278726675
0.016817592 0.031929307 0.36700001 4279121431
0.018009609 0.031929307 0.36700001 4278393093
0.019201623 0.031929307 0.36700001 4278589193
0.020393642 0.031929307 0.36700001 4278588939
0.021526841 0.031842306 0.36600003 4278260744
0.022715611 0.031842306 0.36600003 4278260998
0.023904378 0.031842306 0.36600003 4278195205
0.025093149 0.031842306 0.36600003 4278327302
0.026210107 0.031755306 0.36500001 4278194944
0.027395627 0.031755306 0.36500001 4278196997
0.028581148 0.031755306 0.36500001 4278197254
0.029766668 0.031755306 0.36500001 4278461966
0.030952191 0.031755306 0.36500001 4278857748
0.032137711 0.031755306 0.36500001 4278989845
0.033231933 0.031668305 0.36400002 4278661648
0.034414209 0.031668305 0.36400002 4278530832
0.035498686 0.031581301 0.36300001 4278531345
0.036576673 0.031494305 0.36200002 4278531345
0.03775245 0.031494305 0.36200002 4278531345
0.038928226 0.031494305 0.36200002 4278400529
0.039993219 0.031407304 0.36100003 4278334736
0.0061558113 0.03348273 0.37100002 4278795285
0.0073608202 0.03348273 0.37100002 4278861078
0.0085196523 0.033302229 0.36900002 4278794515
0.0097181639 0.033302229 0.36900002 4278728722
0.010916677 0.033302229 0.36900002 4278728722
0.012082358 0.03321198 0.36800003 4278728722
0.013277622 0.03321198 0.36800003 4278196999
0.014472887 0.03321198 0.36800003 4279578652
0.015668152 0.03321198 0.36800003 4278989845
0.016817592 0.033121731 0.36700001 4279055125
0.018009609 0.033121731 0.36700001 4278523400
0.019201623 0.033121731 0.36700001 4278654218
0.020393642 0.033121731 0.36700001 4278719498
0.021526841 0.033031482 0.36600003 4278719498
0.022715611 0.033031482 0.36600003 4278719498
0.023904378 0.033031482 0.36600003 4278587912
0.025093149 0.033031482 0.36600003 4278587912
0.026210107 0.03294123 0.36500001 4278719498
0.027395627 0.03294123 0.36500001 4278654218
0.028581148 0.03294123 0.36500001 4278654218
0.029766668 0.03294123 0.36500001 4278522632
0.030952191 0.03294123 0.36500001 4278391560
0.032049663 0.032850981 0.36400002 4278195716
0.033231933 0.032850981 0.36400002 4279251223
0.034414209 0.032850981 0.36400002 4278196481
0.035498686 0.032760728 0.36300001 4278195456
0.036677711 0.032760728 0.36300001 4278197510
0.03775245 0.032670479 0.36200002 4278395662
0.038928226 0.032670479 0.36200002 4278528013
0.039993219 0.03258023 0.36100003 4278857748
0.041051712 0.032489982 0.36000001 4278726675
0.042220995 0.032489982 0.36000001 4278858261
0.043269746 0.032399733 0.35900003 4278398994
0.044435777 0.032399733 0.35900003 4278596371
0.045601811 0.032399733 0.35900003 4278530832
0.046637569 0.03230948 0.35800001 4278530832
0.04882637 0.032219231 0.35700002 4278596625
0.049845889 0.032128979 0.35600001 4278334734
0.051002178 0.032128979 0.35600001 4278400527
0.052158471 0.032128979 0.35600001 4278335247
0.0049641472 0.034781646 0.37200001 4278597906
0.0061558113 0.034688145 0.37100002 4278729492
0.0073409793 0.034594648 0.37 4278663699
0.0085427398 0.034594648 0.37 4278926101
0.0097181639 0.034501147 0.36900002 4278926101
0.010916677 0.034501147 0.36900002 4278662929
0.012082358 0.034407649 0.36800003 4278662929
0.013277622 0.034407649 0.36800003 4278195716
0.014472887 0.034407649 0.36800003 4279381787
0.015625574 0.034314148 0.36700001 4278859543
0.016817592 0.034314148 0.36700001 4278858261
0.018009609 0.034314148 0.36700001 4278522886
0.019201623 0.034314148 0.36700001 4279905053
0.020393642 0.034314148 0.36700001 4278588166
0.021526841 0.034220651 0.36600003 4280101918
0.022715611 0.034220651 0.36600003 4279049744
0.023904378 0.034220651 0.36600003 4278786318
0.025093149 0.034220651 0.36600003 4278852365
0.026210107 0.03412715 0.36500001 4278325767
0.027395627 0.03412715 0.36500001 4278522632
0.028581148 0.03412715 0.36500001 4278522632
0.029766668 0.03412715 0.36500001 4278851086
0.030952191 0.03412715 0.36500001 4278719498
0.032049663 0.034033652 0.36400002 4278194435
0.033231933 0.034033652 0.36400002 4279381785
0.034414209 0.034033652 0.36400002 4278923541
0.035498686 0.033940151 0.36300001 4278923541
0.036677711 0.033940151 0.36300001 4278923539
0.03775245 0.033846654 0.36200002 4279317529
0.038928226 0.033846654 0.36200002 4279053844
0.039993219 0.033753157 0.36100003 4279184660
0.041165747 0.033753157 0.36100003 4278196742
0.042220995 0.033659656 0.36000001 4278195457
0.043390274 0.033659656 0.36000001 4278195456
0.044435777 0.033566158 0.35900003 4278195712
0.045601811 0.033566158 0.35900003 4278194432
0.046767846 0.033566158 0.35900003 4278460683
0.047800355 0.033472657 0.35800001 4278988564
0.04882637 0.03337916 0.35700002 4278660367
0.049985908 0.03337916 0.35700002 4278595855
0.051145446 0.03337916 0.35700002 4278596625
0.052304983 0.03337916 0.35700002 4278399757
0.056943126 0.03337916 0.35700002 4278532113
0.058102667 0.03337916 0.35700002 4278466833
0.059262205 0.03337916 0.35700002 4278466833
0.063092306 0.033566158 0.35900003 4278466833
0.064258337 0.033566158 0.35900003 4278467603
0.066590399 0.033566158 0.35900003 4278731289
0.067756437 0.033566158 0.35900003 4278533910
0.06892246 0.033566158 0.35900003 4278533910
0.070088498 0.033566158 0.35900003 4278797082
0.071254529 0.033566158 0.35900003 4278797082
0.07242056 0.033566158 0.35900003 4278928668
0.0061558113 0.035893563 0.37100002 4278663699
0.0073409793 0.035796814 0.37 4278597906
0.0085427398 0.035796814 0.37 4278400527
0.0097181639 0.035700068 0.36900002 4278663699
0.010916677 0.035700068 0.36900002 4278663699
0.012082358 0.035603318 0.36800003 4278465552
0.013277622 0.035603318 0.36800003 4278197515
0.014472887 0.035603318 0.36800003 4279250971
0.015625574 0.035506569 0.36700001 4278858773
0.016817592 0.035506569 0.36700001 4278462990
0.018009609 0.035506569 0.36700001 4278523400
0.019201623 0.035506569 0.36700001 4279182098
0.020393642 0.035506569 0.36700001 4279774748
0.021526841 0.035409823 0.36600003 4278458888
0.022715611 0.035409823 0.36600003 4279051025
0.023904378 0.035409823 0.36600003 4278327304
0.025093149 0.035409823 0.36600003 4278656269
0.026281916 0.035409823 0.36600003 4278394380
0.027395627 0.035313074 0.36500001 4278458890
0.028581148 0.035313074 0.36500001 4278656269
0.029766668 0.035313074 0.36500001 4278721549
0.030952191 0.035313074 0.36500001 4278983697
0.032049663 0.035216328 0.36400002 4278194434
0.033231933 0.035216328 0.36400002 4279184406
0.034414209 0.035216328 0.36400002 4278727189
0.035498686 0.035119578 0.36300001 4278661394
0.036677711 0.035119578 0.36300001 4278595087
0.03775245 0.035022829 0.36200002 4278923539
0.038928226 0.035022829 0.36200002 4278792466
0.039993219 0.034926083 0.36100003 4278989845
0.041165747 0.034926083 0.36100003 4278989845
0.042220995 0.034829333 0.36000001 4278989845
0.043390274 0.034829333 0.36000001 4278792466
0.044559553 0.034829333 0.36000001 4279055125
0.045601811 0.034732588 0.35900003 4279185943
0.046767846 0.034732588 0.35900003 4279251736
0.04793388 0.034732588 0.35900003 4279317016
0.048963137 0.034635838 0.35800001 4278527500
0.050125923 0.034635838 0.35800001 4278197510
0.051145446 0.034539089 0.35700002 4278196997
0.052304983 0.034539089 0.35700002 4278194432
0.053614277 0.034635838 0.35800001 4278195200
0.054777063 0.034635838 0.35800001 4278195712
0.055939849 0.034635838 0.35800001 4278197764
0.057102628 0.034635838 0.35800001 4278462988
0.058102667 0.034539089 0.35700002 4278595087
0.059428204 0.034635838 0.35800001 4278464785
0.060590982 0.034635838 0.35800001 4278398992
0.061926268 0.034732588 0.35900003 4278465552
0.063092306 0.034732588 0.35900003 4278531345
0.064258337 0.034732588 0.35900003 4278662929
0.065424368 0.034732588 0.35900003 4278597906
0.066590399 0.034732588 0.35900003 4278335247
0.067756437 0.034732588 0.35900003 4278532626
0.06892246 0.034732588 0.35900003 4278532626
0.070088498 0.034732588 0.35900003 4278664212
0.071254529 0.034732588 0.35900003 4278664982
0.072622284 0.034829333 0.36000001 4278928154
0.073791571 0.034829333 0.36000001 4279124765
0.07496085 0.034829333 0.36000001 4278729494
0.0049641472 0.037198976 0.37200001 4278532115
0.0061558113 0.037098981 0.37100002 4278663699
0.0073409793 0.03699898 0.37 4278597906
0.0085427398 0.03699898 0.37 4278334734
0.0097181639 0.036898986 0.36900002 4278532115
0.010916677 0.036898986 0.36900002 4278597908
0.012082358 0.036798988 0.36800003 4278198530
0.013277622 0.036798988 0.36800003 4278328074
0.014472887 0.036798988 0.36800003 4279118101
0.015625574 0.03669899 0.36700001 4278858773
0.016817592 0.03669899 0.36700001 4278199047
0.018009609 0.03669899 0.36700001 4278589193
0.019201623 0.03669899 0.36700001 4279115537
0.020393642 0.03669899 0.36700001 4278327304
0.021585658 0.03669899 0.36700001 4279379990
0.022715611 0.036598995 0.36600003 4279183381
0.023904378 0.036598995 0.36600003 4278327302
0.025093149 0.036598995 0.36600003 4279051025
0.026281916 0.036598995 0.36600003 4278327304
0.027395627 0.036498994 0.36500001 4278194691
0.028581148 0.036498994 0.36500001 4279051027
0.029766668 0.036498994 0.36500001 4278458886
0.03086739 0.036398999 0.36400002 4278260226
0.032049663 0.036398999 0.36400002 4278194179
0.033231933 0.036398999 0.36400002 4279054103
0.034319662 0.036299001 0.36300001 4278727187
0.035498686 0.036299001 0.36300001 4278197763
0.036677711 0.036299001 0.36300001 4278458886
0.03775245 0.036199003 0.36200002 4278195716
0.038928226 0.036199003 0.36200002 4278922771
0.040104002 0.036199003 0.36200002 4278265611
0.041165747 0.036099009 0.36100003 4278196992
0.042338278 0.036099009 0.36100003 4278198534
0.043390274 0.035999011 0.36000001 4278529808
0.044559553 0.035999011 0.36000001 4278990359
0.045728832 0.035999011 0.36000001 4278529808
0.046767846 0.035899013 0.35900003 4278661394
0.04793388 0.035899013 0.35900003 4278859027
0.049099907 0.035899013 0.35900003 4278661648
0.050125923 0.035799015 0.35800001 4278661394
0.051288709 0.035799015 0.35800001 4278858775
0.052451495 0.035799015 0.35800001 4278726675
0.053614277 0.035799015 0.35800001 4279055127
0.054930072 0.035899013 0.35900003 4278988564
0.055939849 0.035799015 0.35800001 4279317016
0.057102628 0.035799015 0.35800001 4279317016
0.058265414 0.035799015 0.35800001 4278329867
0.059428204 0.035799015 0.35800001 4278197510
0.060760234 0.035899013 0.35900003 4278195712
0.061926268 0.035899013 0.35900003 4278194944
0.063092306 0.035899013 0.35900003 4278196226
0.064258337 0.035899013 0.35900003 4278397962
0.065424368 0.035899013 0.35900003 4278596623
0.066590399 0.035899013 0.35900003 4278662929
0.067756437 0.035899013 0.35900003 4278531343
0.06892246 0.035899013 0.35900003 4278400527
0.070088498 0.035899013 0.35900003 4278597906
0.071453013 0.035999011 0.36000001 4278334734
0.072622284 0.035999011 0.36000001 4278664212
0.073791571 0.035999011 0.36000001 4278993177
0.07496085 0.035999011 0.36000001 4279321631
0.076130137 0.035999011 0.36000001 4281159479
-0.0010858226 0.038717382 0.37500003 4278663699
0.00013217804 0.038717382 0.37500003 4278729492
0.0013501787 0.038717382 0.37500003 4278795285
0.0025613308 0.038614135 0.37400001 4278663699
0.003765987 0.038510889 0.37300003 4278532115
0.0049641472 0.038407642 0.37200001 4278663701
0.0061558113 0.038304396 0.37100002 4278663699
0.0073409793 0.03820115 0.37 4278597906
0.0085427398 0.03820115 0.37 4278729492
0.0097181639 0.038097903 0.36900002 4278663699
0.010916677 0.038097903 0.36900002 4278532113
0.012082358 0.037994657 0.36800003 4278991383
0.013277622 0.037994657 0.36800003 4278196742
0.014472887 0.037994657 0.36800003 4279250199
0.015625574 0.03789141 0.36700001 4278924566
0.016817592 0.03789141 0.36700001 4278197506
0.018009609 0.03789141 0.36700001 4278654472
0.019201623 0.03789141 0.36700001 4278522632
0.020393642 0.03789141 0.36700001 4278719498
0.021585658 0.03789141 0.36700001 4278522632
0.022715611 0.037788164 0.36600003 4278522632
0.023904378 0.037788164 0.36600003 4278522632
0.025093149 0.037788164 0.36600003 4278457093
0.026210107 0.037684917 0.36500001 4278522373
0.027395627 0.037684917 0.36500001 4278720779
0.028581148 0.037684917 0.36500001 4278986002
0.029766668 0.037684917 0.36500001 4279315732
0.03086739 0.037581671 0.36400002 4278524168
0.032049663 0.037581671 0.36400002 4278458890
0.033231933 0.037581671 0.36400002 4278923539
0.034319662 0.037478425 0.36300001 4278595087
0.035498686 0.037478425 0.36300001 4278262277
0.036677711 0.037478425 0.36300001 4278654472
0.03775245 0.037375178 0.36200002 4278851851
0.038928226 0.037375178 0.36200002 4278722830
0.040104002 0.037375178 0.36200002 4278460683
0.041165747 0.037271935 0.36100003 4278857748
0.042338278 0.037271935 0.36100003 4279055127
0.043510806 0.037271935 0.36100003 4278593806
0.044683333 0.037271935 0.36100003 4278198791
0.045728832 0.037168685 0.36000001 4279120920
0.046898115 0.037168685 0.36000001 4278198790
0.048067398 0.037168685 0.36000001 4278989845
0.049099907 0.037065443 0.35900003 4278595855
0.050265942 0.037065443 0.35900003 4278727441
0.051431976 0.037065443 0.35900003 4278661648
0.052598011 0.037065443 0.35900003 4278595855
0.053764038 0.037065443 0.35900003 4278661648
0.054930072 0.037065443 0.35900003 4279056406
0.056096107 0.037065443 0.35900003 4278595855
0.057262138 0.037065443 0.35900003 4278858773
0.058265414 0.036962193 0.35800001 4278858773
0.059594207 0.037065443 0.35900003 4278727187
0.060760234 0.037065443 0.35900003 4278661394
0.061926268 0.037065443 0.35900003 4278989847
0.063092306 0.037065443 0.35900003 4279186713
0.064258337 0.037065443 0.35900003 4278196224
0.065424368 0.037065443 0.35900003 4278792720
0.066590399 0.037065443 0.35900003 4278531343
0.067756437 0.037065443 0.35900003 4278728722
0.069114447 0.037168685 0.36000001 4278728722
0.070283726 0.037168685 0.36000001 4278531343
0.071453013 0.037168685 0.36000001 4278662929
0.072622284 0.037168685 0.36000001 4278728722
0.073791571 0.037168685 0.36000001 4278794515
0.07496085 0.037168685 0.36000001 4278860308
0.076130137 0.037168685 0.36000001 4278593806
-0.0035406069 0.040148783 0.377 4280305192
-0.0023099668 0.040042289 0.37600002 4278926103
-0.0010858226 0.039935797 0.37500003 4278663699
0.00013217804 0.039935797 0.37500003 4278795798
0.0013501787 0.039935797 0.37500003 4278664212
0.0025613308 0.039829299 0.37400001 4278532626
0.003765987 0.039722804 0.37300003 4278598419
0.0049641472 0.039616309 0.37200001 4278532626
0.0061558113 0.039509814 0.37100002 4278729492
0.0073409793 0.039403316 0.37 4278663699
0.0085427398 0.039403316 0.37 4278663699
0.0097181639 0.039296821 0.36900002 4278532113
0.010916677 0.039296821 0.36900002 4278597908
0.012082358 0.03919033 0.36800003 4278199303
0.013277622 0.03919033 0.36800003 4278198280
0.014433557 0.039083831 0.36700001 4278922771
0.015625574 0.039083831 0.36700001 4278858773
0.016817592 0.039083831 0.36700001 4278726675
0.018009609 0.039083831 0.36700001 4278654984
0.019201623 0.039083831 0.36700001 4278720265
0.020393642 0.039083831 0.36700001 4278587912
0.021526841 0.038977336 0.36600003 4278719498
0.022715611 0.038977336 0.36600003 4278719500
0.023904378 0.038977336 0.36600003 4278719500
0.025093149 0.038977336 0.36600003 4278522121
0.026210107 0.038870838 0.36500001 4278587914
0.027395627 0.038870838 0.36500001 4278719498
0.028581148 0.038870838 0.36500001 4278522632
0.029685117 0.038764346 0.36400002 4278391814
0.03086739 0.038764346 0.36400002 4278523400
0.032049663 0.038764346 0.36400002 4278722830
0.033140637 0.038657848 0.36300001 4278923539
0.034319662 0.038657848 0.36300001 4279252504
0.035498686 0.038657848 0.36300001 4278327302
0.036677711 0.038657848 0.36300001 4278785545
0.03775245 0.038551353 0.36200002 4278851084
0.038928226 0.038551353 0.36200002 4279183381
0.040104002 0.038551353 0.36200002 4278329867
0.041279778 0.038551353 0.36200002 4278858261
0.042338278 0.038444858 0.36100003 4278660882
0.043510806 0.038444858 0.36100003 4278593806
0.044683333 0.038444858 0.36100003 4278658832
0.045855861 0.038444858 0.36100003 4278792468
0.046898115 0.038338363 0.36000001 4278792468
0.048067398 0.038338363 0.36000001 4278593552
0.049236674 0.038338363 0.36000001 4278195968
0.050265942 0.038231868 0.35900003 4278395914
0.051431976 0.038231868 0.35900003 4278593293
0.052598011 0.038231868 0.35900003 4278197761
0.053764038 0.038231868 0.35900003 4278462988
0.054930072 0.038231868 0.35900003 4278198017
0.056096107 0.038231868 0.35900003 4278462988
0.057262138 0.038231868 0.35900003 4278859543
0.058428172 0.038231868 0.35900003 4278398992
0.059594207 0.038231868 0.35900003 4278530578
0.060760234 0.038231868 0.35900003 4278530578
0.061926268 0.038231868 0.35900003 4278596625
0.063092306 0.038231868 0.35900003 4278859027
0.064258337 0.038231868 0.35900003 4278196994
0.065424368 0.038231868 0.35900003 4278923539
0.066590399 0.038231868 0.35900003 4278728211
0.067945167 0.038338363 0.36000001 4278531345
0.069114447 0.038338363 0.36000001 4278794517
0.070283726 0.038338363 0.36000001 4278926103
0.071453013 0.038338363 0.36000001 4278728209
0.072622284 0.038338363 0.36000001 4278596623
0.073791571 0.038338363 0.36000001 4278596625
0.07496085 0.038338363 0.36000001 4278728211
0.076130137 0.038338363 0.36000001 4278988564
-0.0047777435 0.041483443 0.37800002 4279178248
-0.0035406069 0.041373696 0.377 4279251221
-0.0023099668 0.041263953 0.37600002 4278924566
-0.0010858226 0.04115421 0.37500003 4278531861
0.00013217804 0.04115421 0.37500003 4278466581
0.0013501787 0.04115421 0.37500003 4278598421
0.0025613308 0.041044462 0.37400001 4278532628
0.003765987 0.040934719 0.37300003 4278466835
0.0049641472 0.040824972 0.37200001 4278597908
0.0061558113 0.040715229 0.37100002 4278597908
0.0073409793 0.040605485 0.37 4278532115
0.0085427398 0.040605485 0.37 4278597908
0.0097181639 0.040495742 0.36900002 4278663701
0.010887093 0.040385999 0.36800003 4278662931
0.012082358 0.040385999 0.36800003 4278200329
0.013277622 0.040385999 0.36800003 4278725392
0.014433557 0.040276252 0.36700001 4278726162
0.015625574 0.040276252 0.36700001 4278661394
0.016817592 0.040276252 0.36700001 4278727187
0.018009609 0.040276252 0.36700001 4279055638
0.019201623 0.040276252 0.36700001 4278923539
0.020393642 0.040276252 0.36700001 4279054357
0.021526841 0.040166508 0.36600003 4279579164
0.022715611 0.040166508 0.36600003 4279381273
0.023904378 0.040166508 0.36600003 4278986002
0.025024587 0.040056761 0.36500001 4278655756
0.026210107 0.040056761 0.36500001 4278523400
0.027395627 0.040056761 0.36500001 4278325767
0.028502844 0.039947018 0.36400002 4278654218
0.029685117 0.039947018 0.36400002 4278654218
0.03086739 0.039947018 0.36400002 4278522632
0.031961612 0.039837271 0.36300001 4279249685
0.033140637 0.039837271 0.36300001 4278857748
0.034319662 0.039837271 0.36300001 4278989847
0.035498686 0.039837271 0.36300001 4278790931
0.036677711 0.039837271 0.36300001 4278524168
0.03775245 0.039727528 0.36200002 4278985232
0.038928226 0.039727528 0.36200002 4279382809
0.040104002 0.039727528 0.36200002 4278988564
0.041279778 0.039727528 0.36200002 4278593806
0.042338278 0.039617784 0.36100003 4278791955
0.043510806 0.039617784 0.36100003 4279055127
0.044683333 0.039617784 0.36100003 4278198533
0.045855861 0.039617784 0.36100003 4278462990
0.046898115 0.039508041 0.36000001 4278198533
0.048067398 0.039508041 0.36000001 4278988564
0.049236674 0.039508041 0.36000001 4278264587
0.050405957 0.039508041 0.36000001 4278197511
0.051431976 0.039398298 0.35900003 4278196997
0.052598011 0.039398298 0.35900003 4278724109
0.053764038 0.039398298 0.35900003 4278263558
0.054930072 0.039398298 0.35900003 4279317014
0.056096107 0.039398298 0.35900003 4278198276
0.057262138 0.039398298 0.35900003 4278790931
0.058428172 0.039398298 0.35900003 4278198535
0.059594207 0.039398298 0.35900003 4278790672
0.060760234 0.039398298 0.35900003 4278857746
0.061926268 0.039398298 0.35900003 4278728211
0.063092306 0.039398298 0.35900003 4279121945
0.064258337 0.039398298 0.35900003 4278198024
0.065424368 0.039398298 0.35900003 4279055125
0.066775888 0.039508041 0.36000001 4278727957
0.067945167 0.039508041 0.36000001 4278727957
0.069114447 0.039508041 0.36000001 4278794004
0.070283726 0.039508041 0.36000001 4278728211
0.071453013 0.039508041 0.36000001 4278596625
0.072622284 0.039508041 0.36000001 4278728211
0.073791571 0.039508041 0.36000001 4278465039
0.07496085 0.039508041 0.36000001 4278530578
0.076130137 0.039508041 0.36000001 4279186461
-0.0047651036 0.042598605 0.377 4279244041
-0.0035406069 0.042598605 0.377 4278786568
-0.0023099668 0.042485613 0.37600002 4279249939
-0.0010858226 0.042372622 0.37500003 4278989847
0.00013217804 0.042372622 0.37500003 4278793752
0.0013501787 0.042372622 0.37500003 4278860056
0.0025681793 0.042372622 0.37500003 4278794517
0.0037861799 0.042372622 0.37500003 4278728724
0.0049641472 0.042033639 0.37200001 4278860310
0.0061558113 0.041920647 0.37100002 4278728470
0.0073409793 0.041807652 0.37 4278794263
0.0085196523 0.04169466 0.36900002 4278662677
0.0097181639 0.04169466 0.36900002 4278794263
0.010887093 0.041581668 0.36800003 4278728470
0.012082358 0.041581668 0.36800003 4278596371
0.013277622 0.041581668 0.36800003 4278859027
0.014433557 0.041468672 0.36700001 4278727441
0.015625574 0.041468672 0.36700001 4278794004
0.016817592 0.041468672 0.36700001 4278794517
0.018009609 0.041468672 0.36700001 4278531091
0.019149303 0.041355681 0.36600003 4278531091
0.020338073 0.041355681 0.36600003 4278531091
0.021526841 0.041355681 0.36600003 4278793750
0.022715611 0.041355681 0.36600003 4278858773
0.023904378 0.041355681 0.36600003 4278924566
0.025024587 0.041242685 0.36500001 4278858773
0.026210107 0.041242685 0.36500001 4279055640
0.027320571 0.04112969 0.36400002 4278858261
0.028502844 0.04112969 0.36400002 4279253019
0.029685117 0.04112969 0.36400002 4279251482
0.03078259 0.041016694 0.36300001 4279448348
0.031961612 0.041016694 0.36300001 4278923541
0.033140637 0.041016694 0.36300001 4278265611
0.034319662 0.041016694 0.36300001 4278195200
0.035400894 0.040903702 0.36200002 4278195200
0.036576673 0.040903702 0.36200002 4278195200
0.03775245 0.040903702 0.36200002 4278196742
0.038928226 0.040903702 0.36200002 4278196226
0.040104002 0.040903702 0.36200002 4278395660
0.041279778 0.040903702 0.36200002 4278790931
0.042338278 0.040790711 0.36100003 4279186459
0.043510806 0.040790711 0.36100003 4279121433
0.044683333 0.040790711 0.36100003 4278792468
0.045855861 0.040790711 0.36100003 4278726421
0.047028389 0.040790711 0.36100003 4278858261
0.048067398 0.040677715 0.36000001 4278989845
0.049236674 0.040677715 0.36000001 4278792466
0.050405957 0.040677715 0.36000001 4278858259
0.051431976 0.040564723 0.35900003 4278660369
0.052598011 0.040564723 0.35900003 4278922771
0.053764038 0.040564723 0.35900003 4278396427
0.054930072 0.040564723 0.35900003 4278195712
0.056096107 0.040564723 0.35900003 4278197767
0.057262138 0.040564723 0.35900003 4279053590
0.058428172 0.040564723 0.35900003 4278658832
0.059594207 0.040564723 0.35900003 4278592269
0.060760234 0.040564723 0.35900003 4278790672
0.061926268 0.040564723 0.35900003 4278924820
0.063092306 0.040564723 0.35900003 4278726673
0.064258337 0.040564723 0.35900003 4278593039
0.065424368 0.040564723 0.35900003 4279055638
0.066775888 0.040677715 0.36000001 4278531091
0.067945167 0.040677715 0.36000001 4278728470
0.069114447 0.040677715 0.36000001 4278662931
0.070283726 0.040677715 0.36000001 4278662931
0.071453013 0.040677715 0.36000001 4278531345
0.072622284 0.040677715 0.36000001 4278530832
0.073791571 0.040677715 0.36000001 4278530578
0.07496085 0.040677715 0.36000001 4278991129
0.076130137 0.040677715 0.36000001 4279385635
0.077299409 0.040677715 0.36000001 4285238649
-0.0023099668 0.043707278 0.37600002 4279246094
-0.0010858226 0.043591034 0.37500003 4279182096
0.00013217804 0.043591034 0.37500003 4280368682
0.0013501787 0.043591034 0.37500003 4278660117
0.0025681793 0.043591034 0.37500003 4278791701
0.0073409793 0.043009818 0.37 4279450910
0.0085196523 0.042893577 0.36900002 4279385117
0.0097181639 0.042893577 0.36900002 4279450910
0.010887093 0.042777337 0.36800003 4279385117
0.012082358 0.042777337 0.36800003 4279056152
0.013241541 0.042661093 0.36700001 4278991129
0.014433557 0.042661093 0.36700001 4278991129
0.015625574 0.042661093 0.36700001 4278859543
0.016817592 0.042661093 0.36700001 4278465298
0.017960537 0.042544849 0.36600003 4278531091
0.019149303 0.042544849 0.36600003 4278662677
0.020338073 0.042544849 0.36600003 4278465298
0.021526841 0.042544849 0.36600003 4278662677
0.022715611 0.042544849 0.36600003 4278662677
0.023839064 0.042428605 0.36500001 4278728470
0.025024587 0.042428605 0.36500001 4278662677
0.026138298 0.042312365 0.36400002 4278662677
0.027320571 0.042312365 0.36400002 4278662677
0.028424539 0.042196121 0.36300001 4278728470
0.029603563 0.042196121 0.36300001 4278793750
0.03078259 0.042196121 0.36300001 4278793750
0.031961612 0.042196121 0.36300001 4278924566
0.033049341 0.042079877 0.36200002 4278990359
0.034225117 0.042079877 0.36200002 4278858773
0.035400894 0.042079877 0.36200002 4279055638
0.036576673 0.042079877 0.36200002 4278923541
0.03775245 0.042079877 0.36200002 4279186713
0.038928226 0.042079877 0.36200002 4279119637
0.040104002 0.042079877 0.36200002 4279382039
0.041279778 0.042079877 0.36200002 4278658064
0.042338278 0.041963637 0.36100003 4278329099
0.043510806 0.041963637 0.36100003 4278196230
0.044683333 0.041963637 0.36100003 4278194176
0.045855861 0.041963637 0.36100003 4278195200
0.046898115 0.041847393 0.36000001 4278195714
0.048067398 0.041847393 0.36000001 4278197511
0.049236674 0.041847393 0.36000001 4278790672
0.050405957 0.041847393 0.36000001 4278725392
0.051431976 0.041731153 0.35900003 4279055127
0.052598011 0.041731153 0.35900003 4279055125
0.053764038 0.041731153 0.35900003 4279120918
0.054930072 0.041731153 0.35900003 4278857746
0.056096107 0.041731153 0.35900003 4278858261
0.057262138 0.041731153 0.35900003 4278726675
0.058428172 0.041731153 0.35900003 4279055127
0.059594207 0.041731153 0.35900003 4279185689
0.060760234 0.041731153 0.35900003 4278988564
0.061926268 0.041731153 0.35900003 4278858773
0.063092306 0.041731153 0.35900003 4278199815
0.064258337 0.041731153 0.35900003 4279185689
0.065606602 0.041847393 0.36000001 4278989847
0.066775888 0.041847393 0.36000001 4278793750
0.067945167 0.041847393 0.36000001 4278596371
0.069114447 0.041847393 0.36000001 4278728211
0.070283726 0.041847393 0.36000001 4278596625
0.071453013 0.041847393 0.36000001 4278596625
0.072622284 0.041847393 0.36000001 4278530832
0.073791571 0.041847393 0.36000001 4278530578
0.07496085 0.041847393 0.36000001 4278793750
0.076130137 0.041847393 0.36000001 4279186972
0.077299409 0.041847393 0.36000001 4284776815
0.0085196523 0.044092495 0.36900002 4279185689
0.0097181639 0.044092495 0.36900002 4279185943
0.010887093 0.043973006 0.36800003 4278988310
0.012082358 0.043973006 0.36800003 4279252765
0.013241541 0.04385351 0.36700001 4279253019
0.014433557 0.04385351 0.36700001 4279318812
0.015625574 0.04385351 0.36700001 4279385117
0.016771767 0.043734021 0.36600003 4279056922
0.017960537 0.043734021 0.36600003 4279320094
0.019149303 0.043734021 0.36600003 4279188508
0.020338073 0.043734021 0.36600003 4279385887
0.021526841 0.043734021 0.36600003 4279320094
0.022653546 0.043614529 0.36500001 4278859543
0.023839064 0.043614529 0.36500001 4278860310
0.024956027 0.043495037 0.36400002 4278662931
0.026138298 0.043495037 0.36400002 4278662931
0.027245512 0.043375544 0.36300001 4278728724
0.028424539 0.043375544 0.36300001 4278662931
0.029603563 0.043375544 0.36300001 4278399759
0.030697789 0.043256052 0.36200002 4278662931
0.031873565 0.043256052 0.36200002 4278728724
0.033049341 0.043256052 0.36200002 4278728724
0.034225117 0.043256052 0.36200002 4278794002
0.035400894 0.043256052 0.36200002 4278728209
0.036576673 0.043256052 0.36200002 4278794002
0.03775245 0.043256052 0.36200002 4278925588
0.038928226 0.043256052 0.36200002 4278596625
0.039993219 0.043136563 0.36100003 4278859027
0.041165747 0.043136563 0.36100003 4278727441
0.042338278 0.043136563 0.36100003 4278924820
0.043510806 0.043136563 0.36100003 4278792720
0.044683333 0.043136563 0.36100003 4278858513
0.045855861 0.043136563 0.36100003 4278923539
0.046898115 0.043017067 0.36000001 4279054357
0.048067398 0.043017067 0.36000001 4279251223
0.049236674 0.043017067 0.36000001 4279317016
0.050265942 0.042897578 0.35900003 4278591755
0.051431976 0.042897578 0.35900003 4278196230
0.052598011 0.042897578 0.35900003 4278195200
0.053764038 0.042897578 0.35900003 4278195456
0.054930072 0.042897578 0.35900003 4278194176
0.056096107 0.042897578 0.35900003 4278196226
0.057262138 0.042897578 0.35900003 4278461453
0.058428172 0.042897578 0.35900003 4278593552
0.059594207 0.042897578 0.35900003 4278857748
0.060760234 0.042897578 0.35900003 4278923541
0.061926268 0.042897578 0.35900003 4279187224
0.063092306 0.042897578 0.35900003 4278198277
0.064258337 0.042897578 0.35900003 4279185689
0.065606602 0.043017067 0.36000001 4278989845
0.066775888 0.043017067 0.36000001 4279056406
0.067945167 0.043017067 0.36000001 4278859027
0.069114447 0.043017067 0.36000001 4278728211
0.070283726 0.043017067 0.36000001 4278794004
0.071453013 0.043017067 0.36000001 4278859797
0.072622284 0.043017067 0.36000001 4278728211
0.073791571 0.043017067 0.36000001 4278727957
0.07496085 0.043017067 0.36000001 4278727957
0.076130137 0.043017067 0.36000001 4278462740
0.077299409 0.043017067 0.36000001 4285302905
0.010887093 0.045168675 0.36800003 4283986783
0.012049525 0.045045931 0.36700001 4284052576
0.013241541 0.045045931 0.36700001 4284052576
0.014433557 0.045045931 0.36700001 4282803023
0.015625574 0.045045931 0.36700001 4281093175
0.016771767 0.044923194 0.36600003 4279514143
0.017960537 0.044923194 0.36600003 4278922517
0.019149303 0.044923194 0.36600003 4278922517
0.020338073 0.044923194 0.36600003 4279120666
0.021526841 0.044923194 0.36600003 4279515424
0.022653546 0.044800449 0.36500001 4279384865
0.023839064 0.044800449 0.36500001 4279516705
0.024956027 0.044677708 0.36400002 4279320094
0.02606649 0.044554967 0.36300001 4279254301
0.027245512 0.044554967 0.36300001 4279188508
0.028424539 0.044554967 0.36300001 4279320094
0.029522011 0.044432227 0.36200002 4279056922
0.030697789 0.044432227 0.36200002 4278727957
0.031873565 0.044432227 0.36200002 4278859543
0.033049341 0.044432227 0.36200002 4278860310
0.034225117 0.044432227 0.36200002 4278662931
0.035400894 0.044432227 0.36200002 4278662931
0.036475632 0.044309489 0.36100003 4278662931
0.03764816 0.044309489 0.36100003 4278465552
0.038820688 0.044309489 0.36100003 4278465552
0.039993219 0.044309489 0.36100003 4278465552
0.041165747 0.044309489 0.36100003 4278531345
0.042338278 0.044309489 0.36100003 4278465552
0.043510806 0.044309489 0.36100003 4278399759
0.044683333 0.044309489 0.36100003 4278662931
0.045855861 0.044309489 0.36100003 4278727957
0.046898115 0.044186745 0.36000001 4278727957
0.048067398 0.044186745 0.36000001 4278727187
0.049236674 0.044186745 0.36000001 4278530578
0.050265942 0.044064008 0.35900003 4278530578
0.051431976 0.044064008 0.35900003 4278858773
0.052598011 0.044064008 0.35900003 4278989847
0.053764038 0.044064008 0.35900003 4278989847
0.054930072 0.044064008 0.35900003 4279055127
0.055939849 0.043941263 0.35800001 4279317275
0.057102628 0.043941263 0.35800001 4279448348
0.058428172 0.044064008 0.35900003 4278987797
0.059594207 0.044064008 0.35900003 4278197513
0.060760234 0.044064008 0.35900003 4278195457
0.061926268 0.044064008 0.35900003 4278195457
0.063092306 0.044064008 0.35900003 4278197256
0.064258337 0.044064008 0.35900003 4279055640
0.065606602 0.044186745 0.36000001 4278924566
0.066775888 0.044186745 0.36000001 4278859027
0.067945167 0.044186745 0.36000001 4278859027
0.069114447 0.044186745 0.36000001 4278859797
0.070283726 0.044186745 0.36000001 4278859797
0.071453013 0.044186745 0.36000001 4278728211
0.072622284 0.044186745 0.36000001 4278530832
0.073791571 0.044186745 0.36000001 4278793750
0.07496085 0.044186745 0.36000001 4278858775
0.076130137 0.044186745 0.36000001 4280764212
0.077299409 0.044186745 0.36000001 4285039733
0.024887465 0.045734394 0.36300001 4279514658
0.02606649 0.045734394 0.36300001 4278857498
0.027170457 0.045608405 0.36200002 4278792216
0.028346235 0.045608405 0.36200002 4279318560
0.029522011 0.045608405 0.36200002 4279582244
0.030697789 0.045608405 0.36200002 4279055900
0.031873565 0.045608405 0.36200002 4279385119
0.033049341 0.045608405 0.36200002 4279319326
0.034130577 0.045482416 0.36100003 4279385889
0.035303105 0.045482416 0.36100003 4279254303
0.036475632 0.045482416 0.36100003 4278991131
0.03764816 0.045482416 0.36100003 4278727959
0.038820688 0.045482416 0.36100003 4278991642
0.039993219 0.045482416 0.36100003 4278860056
0.041165747 0.045482416 0.36100003 4278794263
0.042338278 0.045482416 0.36100003 4278267919
0.043510806 0.045482416 0.36100003 4278728470
0.044683333 0.045482416 0.36100003 4278465298
0.045855861 0.045482416 0.36100003 4278465298
0.046898115 0.045356423 0.36000001 4278662677
0.048067398 0.045356423 0.36000001 4278465298
0.049236674 0.045356423 0.36000001 4278531091
0.050265942 0.045230437 0.35900003 4278662677
0.051431976 0.045230437 0.35900003 4278465298
0.052598011 0.045230437 0.35900003 4278662677
0.053764038 0.045230437 0.35900003 4278859543
0.054777063 0.045104444 0.35800001 4278859543
0.055939849 0.045104444 0.35800001 4278596371
0.057102628 0.045104444 0.35800001 4278924566
0.058265414 0.045104444 0.35800001 4279056152
0.059594207 0.045230437 0.35900003 4279056152
0.060760234 0.045230437 0.35900003 4278858773
0.061926268 0.045230437 0.35900003 4278989845
0.063092306 0.045230437 0.35900003 4278924566
0.064258337 0.045230437 0.35900003 4278794004
0.065424368 0.045230437 0.35900003 4278728211
0.066775888 0.045356423 0.36000001 4278794004
0.067945167 0.045356423 0.36000001 4278859797
0.069114447 0.045356423 0.36000001 4278728211
0.070283726 0.045356423 0.36000001 4278794004
0.071453013 0.045356423 0.36000001 4278728211
0.072824016 0.045482416 0.36100003 4278728211
0.073791571 0.045356423 0.36000001 4278859027
0.07496085 0.045356423 0.36000001 4278989845
0.076130137 0.045356423 0.36000001 4285302907
0.077299409 0.045356423 0.36000001 4285236600
0.027170457 0.046784576 0.36200002 4285171573
0.028346235 0.046784576 0.36200002 4285237366
0.029522011 0.046784576 0.36200002 4285171573
0.030697789 0.046784576 0.36200002 4283855713
0.031785518 0.046655338 0.36100003 4282277197
0.032958046 0.046655338 0.36100003 4280434993
0.034130577 0.046655338 0.36100003 4279185693
0.035303105 0.046655338 0.36100003 4278265359
0.036475632 0.046655338 0.36100003 4279054873
0.03764816 0.046655338 0.36100003 4279252252
0.038820688 0.046655338 0.36100003 4279186972
0.039993219 0.046655338 0.36100003 4279252765
0.041165747 0.046655338 0.36100003 4279187224
0.042338278 0.046655338 0.36100003 4279187224
0.043510806 0.046655338 0.36100003 4279253017
0.044683333 0.046655338 0.36100003 4279187738
0.045855861 0.046655338 0.36100003 4279319324
0.046898115 0.046526097 0.36000001 4279187738
0.048067398 0.046526097 0.36000001 4279385117
0.049236674 0.046526097 0.36000001 4279319324
0.050265942 0.046396859 0.35900003 4279187738
0.051431976 0.046396859 0.35900003 4279056922
0.052598011 0.046396859 0.35900003 4278991129
0.053764038 0.046396859 0.35900003 4278991129
0.054777063 0.046267621 0.35800001 4278793750
0.055939849 0.046267621 0.35800001 4278859543
0.057102628 0.046267621 0.35800001 4278793750
0.058265414 0.046267621 0.35800001 4278793750
0.059428204 0.046267621 0.35800001 4278793750
0.060760234 0.046396859 0.35900003 4278727957
0.061926268 0.046396859 0.35900003 4278727957
0.063092306 0.046396859 0.35900003 4278859543
0.064258337 0.046396859 0.35900003 4278596625
0.065424368 0.046396859 0.35900003 4278794004
0.066775888 0.046526097 0.36000001 4278794004
0.067945167 0.046526097 0.36000001 4278794004
0.069114447 0.046526097 0.36000001 4278728211
0.070283726 0.046526097 0.36000001 4278859797
0.071651496 0.046655338 0.36100003 4278727441
0.072824016 0.046655338 0.36100003 4278990613
0.073996551 0.046655338 0.36100003 4279121431
0.075169079 0.046655338 0.36100003 4280369452
0.076130137 0.046526097 0.36000001 4284973428
0.077299409 0.046526097 0.36000001 4285432696
0.031785518 0.047828268 0.36100003 4284710254
0.034130577 0.047828268 0.36100003 4284250219
0.035303105 0.047828268 0.36100003 4283855713
0.036475632 0.047828268 0.36100003 4284250471
0.03764816 0.047828268 0.36100003 4283921252
0.038820688 0.047828268 0.36100003 4283527518
0.039993219 0.047828268 0.36100003 4282803793
0.041165747 0.047828268 0.36100003 4281356347
0.042338278 0.047828268 0.36100003 4280632622
0.043510806 0.047828268 0.36100003 4280303657
0.044683333 0.047828268 0.36100003 4279250971
0.045855861 0.047828268 0.36100003 4279251484
0.046898115 0.047695778 0.36000001 4278856726
0.048067398 0.047695778 0.36000001 4278856726
0.049236674 0.047695778 0.36000001 4278988312
0.050265942 0.047563292 0.35900003 4278988312
0.051431976 0.047563292 0.35900003 4279514656
0.052598011 0.047563292 0.35900003 4279317277
0.053764038 0.047563292 0.35900003 4279448863
0.054777063 0.047430802 0.35800001 4279318045
0.055939849 0.047430802 0.35800001 4279647010
0.057102628 0.047430802 0.35800001 4279516191
0.058265414 0.047430802 0.35800001 4279450396
0.059428204 0.047430802 0.35800001 4279318810
0.060760234 0.047563292 0.35900003 4279318810
0.061926268 0.047563292 0.35900003 4279319324
0.063092306 0.047563292 0.35900003 4279319324
0.064258337 0.047563292 0.35900003 4279187738
0.065424368 0.047563292 0.35900003 4279187992
0.066775888 0.047695778 0.36000001 4279187992
0.067945167 0.047695778 0.36000001 4279056152
0.069114447 0.047695778 0.36000001 4279319324
0.070283726 0.047695778 0.36000001 4279318810
0.071651496 0.047828268 0.36100003 4279055638
0.072824016 0.047828268 0.36100003 4279186713
0.073996551 0.047828268 0.36100003 4280039719
0.075169079 0.047828268 0.36100003 4285171321
0.076341607 0.047828268 0.36100003 4285236600
0.077514134 0.047828268 0.36100003 4285301880
0.063092306 0.048729714 0.35900003 4279712035
0.064258337 0.048729714 0.35900003 4279712035
0.065424368 0.048729714 0.35900003 4279316764
0.066775888 0.048865452 0.36000001 4278988312
0.067945167 0.048865452 0.36000001 4278725140
0.069114447 0.048865452 0.36000001 4278856213
0.070283726 0.048865452 0.36000001 4279118615
0.071651496 0.049001191 0.36100003 4280631602
0.072824016 0.049001191 0.36100003 4284644461
0.073996551 0.049001191 0.36100003 4285433977
0.075169079 0.049001191 0.36100003 4285236085
0.076341607 0.049001191 0.36100003 4285236087
0.077514134 0.049001191 0.36100003 4285301880
0.071651496 0.050174121 0.36100003 4285039733
0.072824016 0.050174121 0.36100003 4285039733
0.073996551 0.050174121 0.36100003 4285236598
0.075169079 0.050174121 0.36100003 4285236598
0.076341607 0.050174121 0.36100003 4285301878
0.077514134 0.050174121 0.36100003 4285236085
0.039277393 0.039289713 0.36309728 4294967295
0.039277393 0.039289713 0.36309728 4294901760
0.039277393 0.039289713 0.36359727 4294901760
0.039277393 0.039289713 0.36409727 4294901760
0.039277393 0.039289713 0.36459729 4294901760
0.039277393 0.039289713 0.36509728 4294901760
0.039277393 0.039289713 0.36559728 4294901760
0.039277393 0.039289713 0.36609727 4294901760
0.039277393 0.039289713 0.36659729 4294901760
0.039277393 0.039289713 0.36709729 4294901760
0.039277393 0.039289713 0.36759728 4294901760
0.039277393 0.039289713 0.36809728 4294901760
0.039277393 0.039289713 0.36859727 4294901760
0.039277393 0.039289713 0.36909729 4294901760
0.039277393 0.039289713 0.36959729 4294901760
0.039277393 0.039289713 0.37009728 4294901760
0.039277393 0.039289713 0.37059727 4294901760
0.039277393 0.039289713 0.37109727 4294901760
0.039277393 0.039289713 0.37159729 4294901760
0.039277393 0.039289713 0.37209728 4294901760
0.039277393 0.039289713 0.37259728 4294901760
0.039277393 0.039289713 0.37309727 4294901760
0.039277393 0.039289713 0.37359729 4294901760
0.039277393 0.039289713 0.37409729 4294901760
0.039277393 0.039289713 0.37459728 4294901760
0.039277393 0.039289713 0.37509727 4294901760
0.039277393 0.039289713 0.3755973 4294901760
0.039277393 0.039289713 0.37609729 4294901760
0.039277393 0.039289713 0.37659729 4294901760
0.039277393 0.039289713 0.37709728 4294901760
0.039277393 0.039289713 0.37759727 4294901760
0.039277393 0.039289713 0.3780973 4294901760
0.039277393 0.039289713 0.37859729 4294901760
0.039277393 0.039289713 0.37909728 4294901760
0.039277393 0.039289713 0.37959728 4294901760
0.039277393 0.039289713 0.38009727 4294901760
0.039277393 0.039289713 0.38059729 4294901760
0.039277393 0.039289713 0.38109729 4294901760
0.039277393 0.039289713 0.38159728 4294901760
0.039277393 0.039289713 0.38209727 4294901760
0.039277393 0.039289713 0.3825973 4294901760
0.039277393 0.039289713 0.38309729 4294901760
0.039277393 0.039289713 0.38359728 4294901760
0.039277393 0.039289713 0.38409728 4294901760
0.039277393 0.039289713 0.3845973 4294901760
0.039277393 0.039289713 0.3850973 4294901760
0.039277393 0.039289713 0.38559729 4294901760
0.039277393 0.039289713 0.38609728 4294901760
0.039277393 0.039289713 0.38659728 4294901760
0.039277393 0.039289713 0.3870973 4294901760
0.039277393 0.039289713 0.38759729 4294901760
0.039277393 0.039289713 0.38809729 4294901760
0.039277393 0.039289713 0.38859728 4294901760
0.039277393 0.039289713 0.38909727 4294901760
0.039277393 0.039289713 0.3895973 4294901760
0.039277393 0.039289713 0.39009729 4294901760
0.039277393 0.039289713 0.39059728 4294901760
0.039277393 0.039289713 0.39109728 4294901760
0.039277393 0.039289713 0.39159727 4294901760
0.039277393 0.039289713 0.39209729 4294901760
0.039277393 0.039289713 0.39259729 4294901760
0.039277393 0.039289713 0.39309728 4294901760
0.039277393 0.039289713 0.39359728 4294901760
0.039277393 0.039289713 0.3940973 4294901760
0.039277393 0.039289713 0.39459729 4294901760
0.039277393 0.039289713 0.39509729 4294901760
0.039277393 0.039289713 0.39559728 4294901760
0.039277393 0.039289713 0.3960973 4294901760
0.039277393 0.039289713 0.3965973 4294901760
0.039277393 0.039289713 0.39709729 4294901760
0.039277393 0.039289713 0.39759728 4294901760
0.039277393 0.039289713 0.39809728 4294901760
0.039277393 0.039289713 0.3985973 4294901760
0.039277393 0.039289713 0.39909729 4294901760
0.039277393 0.039289713 0.39959729 4294901760
0.039277393 0.039289713 0.40009728 4294901760
0.039277393 0.039289713 0.40059727 4294901760
0.039277393 0.039289713 0.4010973 4294901760
0.039277393 0.039289713 0.40159729 4294901760
0.039277393 0.039289713 0.40209728 4294901760
0.039277393 0.039289713 0.40259728 4294901760
0.039277393 0.039289713 0.4030973 4294901760
0.039277393 0.039289713 0.4035973 4294901760
0.039277393 0.039289713 0.40409729 4294901760
0.039277393 0.039289713 0.40459728 4294901760
0.039277393 0.039289713 0.40509728 4294901760
0.039277393 0.039289713 0.4055973 4294901760
0.039277393 0.039289713 0.40609729 4294901760
0.039277393 0.039289713 0.40659729 4294901760
0.039277393 0.039289713 0.40709728 4294901760
0.039277393 0.039289713 0.4075973 4294901760
0.039277393 0.039289713 0.4080973 4294901760
0.039277393 0.039289713 0.40859729 4294901760
0.039277393 0.039289713 0.40909728 4294901760
0.039277393 0.039289713 0.40959728 4294901760
0.039277393 0.039289713 0.4100973 4294901760
0.039277393 0.039289713 0.41059729 4294901760
0.039277393 0.039289713 0.41109729 4294901760
0.039277393 0.039289713 0.41159728 4294901760
0.039277393 0.039289713 0.41209731 4294901760
0.039277393 0.039289713 0.4125973 4294901760
0.039277393 0.039289713 0.41309729 4294901760
0.039277393 0.039289713 0.36309728 4278255360
0.039378416 0.039330684 0.36358526 4278255360
0.039479434 0.039371658 0.36407322 4278255360
0.039580457 0.039412629 0.3645612 4278255360
0.039681479 0.039453603 0.36504915 4278255360
0.039782498 0.039494574 0.36553714 4278255360
0.03988352 0.039535549 0.36602512 4278255360
0.039984539 0.039576519 0.36651307 4278255360
0.040085562 0.03961749 0.36700106 4278255360
0.040186584 0.039658464 0.36748901 4278255360
0.040287603 0.039699435 0.36797699 4278255360
0.040388625 0.03974041 0.36846498 4278255360
0.040489648 0.03978138 0.36895293 4278255360
0.040590666 0.039822355 0.36944091 4278255360
0.040691689 0.039863326 0.36992887 4278255360
0.040792707 0.039904296 0.37041685 4278255360
0.04089373 0.039945271 0.37090483 4278255360
0.040994752 0.039986242 0.37139279 4278255360
0.041095771 0.040027216 0.37188077 4278255360
0.041196793 0.040068187 0.37236872 4278255360
0.041297816 0.040109161 0.37285671 4278255360
0.041398834 0.040150132 0.37334469 4278255360
0.041499857 0.040191103 0.37383264 4278255360
0.041600876 0.040232077 0.37432063 4278255360
0.041701898 0.040273048 0.37480858 4278255360
0.04180292 0.040314022 0.37529656 4278255360
0.041903939 0.040354993 0.37578455 4278255360
0.042004962 0.040395968 0.3762725 4278255360
0.042105984 0.040436938 0.37676048 4278255360
0.042207003 0.040477909 0.37724844 4278255360
0.042308025 0.040518884 0.37773642 4278255360
0.042409047 0.040559854 0.3782244 4278255360
0.042510066 0.040600829 0.37871236 4278255360
0.042611089 0.0406418 0.37920034 4278255360
0.042712107 0.040682774 0.37968829 4278255360
0.04281313 0.040723745 0.38017628 4278255360
0.042914152 0.040764719 0.38066426 4278255360
0.043015171 0.04080569 0.38115221 4278255360
