# .PCD v0.7 - Point Cloud Data file format
VERSION 0.7
FIELDS x y z rgb
SIZE 4 4 4 4
TYPE F F F U
COUNT 1 1 1 1
WIDTH 1067
HEIGHT 1
VIEWPOINT 0 0 0 1 0 0 0
POINTS 1067
DATA ascii
0.054163922 0.063025892 0.31400001 4279386400
0.055008054 0.062825181 0.31300002 4279519010
0.055845682 0.062624454 0.31200001 4279453730
0.056859057 0.062624454 0.31200001 4279453730
0.057686947 0.062423736 0.31100002 4279125535
0.058508337 0.062223013 0.31 4278796570
0.059515215 0.062223013 0.31 4279257119
0.060326867 0.062022299 0.30900002 4279125533
0.061132021 0.06182158 0.30800003 4279321629
0.062132403 0.06182158 0.30800003 4283136855
0.062927812 0.061620858 0.30700001 4287017625
0.063716725 0.061420143 0.30600002 4282676052
0.06449914 0.06121942 0.30500001 4279387937
0.065489776 0.06121942 0.30500001 4279651109
0.066262454 0.061018702 0.30400002 4280176170
0.067249849 0.061018702 0.30400002 4280241450
0.068237238 0.061018702 0.30400002 4280897329
0.039533362 0.066901676 0.32800001 4280240166
0.040598705 0.066901676 0.32800001 4279123480
0.041537024 0.066697709 0.32700002 4279257119
0.042599123 0.066697709 0.32700002 4279257119
0.043527696 0.066493735 0.32600001 4279257119
0.044449776 0.066289768 0.32500002 4279059740
0.04536536 0.066085801 0.324 4278928154
0.04627445 0.065881833 0.32300001 4279059740
0.047030531 0.065473892 0.32100001 4279125533
0.047923379 0.065269925 0.32000002 4279125533
0.04880973 0.065065958 0.31900001 4279059740
0.049689587 0.064861991 0.31800002 4279322912
0.050562941 0.064658016 0.317 4279257119
0.051429808 0.064454049 0.31600001 4278267660
0.052290183 0.064250089 0.31500003 4278197767
0.0533133 0.064250089 0.31500003 4279844643
0.054163922 0.064046115 0.31400001 4279715619
0.055008054 0.063842148 0.31300002 4279715619
0.056024678 0.063842148 0.31300002 4279584803
0.056859057 0.063638173 0.31200001 4279519523
0.057686947 0.063434213 0.31100002 4279453730
0.058508337 0.063230239 0.31 4279387937
0.059515215 0.063230239 0.31 4279453728
0.060326867 0.063026272 0.30900002 4279059738
0.061132021 0.062822305 0.30800003 4278862873
0.062132403 0.062822305 0.30800003 4279191838
0.062927812 0.062618338 0.30700001 4279057174
0.063716725 0.06241437 0.30600002 4282280261
0.064710617 0.06241437 0.30600002 4286886541
0.065489776 0.062210396 0.30500001 4282873681
0.066262454 0.062006433 0.30400002 4279716389
0.067249849 0.062006433 0.30400002 4279650596
0.068237238 0.062006433 0.30400002 4279848488
0.069224633 0.062006433 0.30400002 4280176940
0.070212021 0.062006433 0.30400002 4280173606
0.038468018 0.067967378 0.32800001 4279509016
0.039533362 0.067967378 0.32800001 4280436008
0.040598705 0.067967378 0.32800001 4279320346
0.041537024 0.067760162 0.32700002 4279519521
0.042599123 0.067760162 0.32700002 4279387935
0.043527696 0.067552939 0.32600001 4279257119
0.044449776 0.067345724 0.32500002 4279059740
0.04536536 0.067138501 0.324 4278862361
0.04627445 0.066931292 0.32300001 4279125533
0.047030531 0.066516854 0.32100001 4279125533
0.047923379 0.066309638 0.32000002 4279059740
0.04880973 0.066102415 0.31900001 4279387935
0.049689587 0.0658952 0.31800002 4279387935
0.050562941 0.065687984 0.317 4279453730
0.051429808 0.065480769 0.31600001 4279451680
0.052456178 0.065480769 0.31600001 4278657035
0.0533133 0.065273553 0.31500003 4279054357
0.054163922 0.06506633 0.31400001 4279386654
0.055183794 0.06506633 0.31400001 4279452445
0.056024678 0.064859115 0.31300002 4279715106
0.056859057 0.064651892 0.31200001 4279715106
0.057872433 0.064651892 0.31200001 4279321631
0.058697078 0.064444676 0.31100002 4279782182
0.059515215 0.06423746 0.31 4279651107
0.060326867 0.064030245 0.30900002 4279585314
0.061132021 0.063823029 0.30800003 4279257117
0.062132403 0.063823029 0.30800003 4278862359
0.062927812 0.063615806 0.30700001 4278402062
0.063716725 0.063408591 0.30600002 4279257369
0.064710617 0.063408591 0.30600002 4279781660
0.065489776 0.063201368 0.30500001 4282346822
0.066480421 0.063201368 0.30500001 4287543185
0.067249849 0.062994152 0.30400002 4283135570
0.068237238 0.062994152 0.30400002 4280177453
0.069224633 0.062994152 0.30400002 4279520293
0.070212021 0.062994152 0.30400002 4279980074
0.071199417 0.062994152 0.30400002 4280111147
0.072186805 0.062994152 0.30400002 4280897842
0.073174201 0.062994152 0.30400002 4282409287
0.037402671 0.069033086 0.32800001 4280035873
0.038468018 0.069033086 0.32800001 4279904287
0.039533362 0.069033086 0.32800001 4279379225
0.040598705 0.069033086 0.32800001 4280304424
0.041537024 0.068822622 0.32700002 4279519521
0.042599123 0.068822622 0.32700002 4279453728
0.043527696 0.068612151 0.32600001 4279190556
0.044449776 0.068401687 0.32500002 4279125533
0.04536536 0.068191215 0.324 4279059740
0.04627445 0.067980751 0.32300001 4279125533
0.047030531 0.067559816 0.32100001 4279059740
0.047923379 0.067349352 0.32000002 4279520291
0.04880973 0.06713888 0.31900001 4279453728
0.049689587 0.066928416 0.31800002 4279256349
0.050562941 0.066717945 0.317 4279519008
0.051429808 0.066507481 0.31600001 4279056406
0.052456178 0.066507481 0.31600001 4278460169
0.0533133 0.066297017 0.31500003 4280172838
0.054336421 0.066297017 0.31500003 4279715104
0.055183794 0.066086553 0.31400001 4278990611
0.056024678 0.065876089 0.31300002 4278787853
0.057041299 0.065876089 0.31300002 4279049742
0.057872433 0.065665618 0.31200001 4278856463
0.058697078 0.065455154 0.31100002 4280174373
0.059515215 0.065244682 0.31 4279781410
0.060326867 0.065034218 0.30900002 4279912996
0.061330501 0.065034218 0.30900002 4279716900
0.062132403 0.064823754 0.30800003 4279454498
0.062927812 0.064613283 0.30700001 4278796566
0.063716725 0.064402819 0.30600002 4279059738
0.064710617 0.064402819 0.30600002 4278928152
0.065489776 0.064192347 0.30500001 4279125531
0.066480421 0.064192347 0.30500001 4279452697
0.067249849 0.063981883 0.30400002 4280570924
0.068237238 0.063981883 0.30400002 4287018127
0.069224633 0.063981883 0.30400002 4282610511
0.070212021 0.063981883 0.30400002 4280242733
0.071199417 0.063981883 0.30400002 4279519523
0.072186805 0.063981883 0.30400002 4279716902
0.073174201 0.063981883 0.30400002 4280111147
0.074161589 0.063981883 0.30400002 4280305446
0.075148985 0.063981883 0.30400002 4282014011
0.037402671 0.070098795 0.32800001 4280562217
0.038468018 0.070098795 0.32800001 4280562217
0.039533362 0.070098795 0.32800001 4280496424
0.040474929 0.069885075 0.32700002 4280102950
0.041537024 0.069885075 0.32700002 4279845670
0.042599123 0.069885075 0.32700002 4279518756
0.043527696 0.069671355 0.32600001 4279256351
0.044449776 0.069457643 0.32500002 4279256351
0.04536536 0.069243923 0.324 4279059740
0.04627445 0.06903021 0.32300001 4279257119
0.047030531 0.068602778 0.32100001 4279257119
0.047923379 0.068389066 0.32000002 4279257119
0.04880973 0.068175346 0.31900001 4279125533
0.049689587 0.067961633 0.31800002 4279059740
0.050562941 0.067747913 0.317 4279453215
0.051592559 0.067747913 0.317 4278791953
0.052456178 0.067534201 0.31600001 4278987281
0.053482544 0.067534201 0.31600001 4279779361
0.054336421 0.067320488 0.31500003 4279649311
0.055183794 0.067106768 0.31400001 4278198531
0.056203667 0.067106768 0.31400001 4278917644
0.057041299 0.066893056 0.31300002 4279180816
0.057872433 0.066679336 0.31200001 4279180303
0.058697078 0.066465624 0.31100002 4278917644
0.059515215 0.066251904 0.31 4278724107
0.060522098 0.066251904 0.31 4280305446
0.061330501 0.066038191 0.30900002 4279519008
0.062132403 0.065824479 0.30800003 4279651107
0.062927812 0.065610759 0.30700001 4279585314
0.063924946 0.065610759 0.30700001 4279585314
0.064710617 0.065397047 0.30600002 4279322912
0.065704502 0.065397047 0.30600002 4279059740
0.066480421 0.065183327 0.30500001 4279059740
0.067471065 0.065183327 0.30500001 4278993947
0.068237238 0.064969614 0.30400002 4279255836
0.069224633 0.064969614 0.30400002 4280570926
0.070212021 0.064969614 0.30400002 4286360460
0.071199417 0.064969614 0.30400002 4282938972
0.072186805 0.064969614 0.30400002 4280110893
0.073174201 0.064969614 0.30400002 4279980074
0.074161589 0.064969614 0.30400002 4279914281
0.075148985 0.064969614 0.30400002 4279979561
0.038468018 0.071164496 0.32800001 4280628010
0.039412834 0.070947535 0.32700002 4280693803
0.040474929 0.070947535 0.32700002 4280431145
0.041537024 0.070947535 0.32700002 4280170024
0.04246885 0.070730567 0.32600001 4279909414
0.043527696 0.070730567 0.32600001 4279780645
0.044449776 0.070513599 0.32500002 4279453217
0.04536536 0.07029663 0.324 4279453728
0.046131186 0.069862708 0.32200003 4279256349
0.047030531 0.06964574 0.32100001 4279387933
0.047923379 0.069428779 0.32000002 4279453726
0.04880973 0.069211811 0.31900001 4279256349
0.049689587 0.06899485 0.31800002 4279387935
0.05072245 0.06899485 0.31800002 4279385117
0.051592559 0.068777882 0.317 4278527246
0.052456178 0.068560913 0.31600001 4279580186
0.053482544 0.068560913 0.31600001 4279780129
0.054336421 0.068343952 0.31500003 4279517725
0.055359542 0.068343952 0.31500003 4278329351
0.056203667 0.068126984 0.31400001 4279115023
0.057041299 0.067910023 0.31300002 4280825641
0.057872433 0.067693055 0.31200001 4279180303
0.058885813 0.067693055 0.31200001 4279246096
0.059707202 0.067476094 0.31100002 4279113740
0.060522098 0.067259125 0.31 4279048717
0.061330501 0.067042165 0.30900002 4278920720
0.062132403 0.066825204 0.30800003 4279647264
0.063132793 0.066825204 0.30800003 4279912996
0.063924946 0.066608228 0.30700001 4279782180
0.064710617 0.066391267 0.30600002 4279848486
0.065704502 0.066391267 0.30600002 4279716900
0.066480421 0.066174299 0.30500001 4279322912
0.067471065 0.066174299 0.30500001 4279059740
0.068237238 0.065957338 0.30400002 4278993947
0.069224633 0.065957338 0.30400002 4278993947
0.070212021 0.065957338 0.30400002 4279519008
0.071199417 0.065957338 0.30400002 4279978276
0.071949348 0.065740369 0.303 4285504638
0.073174201 0.065957338 0.30400002 4282937939
0.074161589 0.065957338 0.30400002 4279914281
0.075148985 0.065957338 0.30400002 4279651109
0.039412834 0.072009988 0.32700002 4280496171
0.040474929 0.072009988 0.32700002 4280561964
0.041537024 0.072009988 0.32700002 4280365099
0.04246885 0.071789771 0.32600001 4280102950
0.043394178 0.071569562 0.32500002 4279842338
0.044449776 0.071569562 0.32500002 4280304424
0.045225345 0.071129136 0.32300001 4279978276
0.046131186 0.070908919 0.32200003 4279649824
0.047030531 0.070688702 0.32100001 4279453215
0.047923379 0.070468493 0.32000002 4279519008
0.04880973 0.070248276 0.31900001 4279519008
0.049689587 0.070028067 0.31800002 4279453215
0.05072245 0.070028067 0.31800002 4279649059
0.051592559 0.069807842 0.317 4278462220
0.052622177 0.069807842 0.317 4278330121
0.053482544 0.069587633 0.31600001 4279713055
0.054508913 0.069587633 0.31600001 4280173606
0.055359542 0.069367424 0.31500003 4278722828
0.056203667 0.069147207 0.31400001 4278786570
0.057041299 0.068926997 0.31300002 4279708955
0.058057927 0.068926997 0.31300002 4279905821
0.058885813 0.068706781 0.31200001 4280234016
0.059707202 0.068486564 0.31100002 4279377680
0.060522098 0.068266347 0.31 4279180303
0.061330501 0.068046138 0.30900002 4279180303
0.062334131 0.068046138 0.30900002 4279048715
0.063132793 0.067825928 0.30800003 4278658316
0.063924946 0.067605712 0.30700001 4280174373
0.064710617 0.067385495 0.30600002 4279782182
0.065704502 0.067385495 0.30600002 4279716389
0.066480421 0.067165278 0.30500001 4279650594
0.067471065 0.067165278 0.30500001 4279782180
0.068237238 0.066945069 0.30400002 4279650594
0.069224633 0.066945069 0.30400002 4279584799
0.070212021 0.066945069 0.30400002 4279124761
0.070965201 0.066724852 0.303 4278993175
0.071949348 0.066724852 0.303 4279189273
0.072933495 0.066724852 0.303 4279584031
0.074161589 0.066945069 0.30400002 4283795555
0.075148985 0.066945069 0.30400002 4282282829
0.040474929 0.073072441 0.32700002 4280628010
0.041409999 0.072848976 0.32600001 4280496171
0.04246885 0.072848976 0.32600001 4280496171
0.043394178 0.072625518 0.32500002 4280037157
0.044313006 0.072402053 0.324 4279971362
0.045225345 0.072178587 0.32300001 4279973922
0.046131186 0.07195513 0.32200003 4280238631
0.047030531 0.071731664 0.32100001 4279649313
0.047923379 0.071508206 0.32000002 4279584803
0.04880973 0.071284734 0.31900001 4279519010
0.049845841 0.071284734 0.31900001 4279519008
0.05072245 0.071061276 0.31800002 4279055379
0.051592559 0.070837811 0.317 4278791183
0.052622177 0.070837811 0.317 4279844641
0.053482544 0.070614345 0.31600001 4279977508
0.054508913 0.070614345 0.31600001 4280897583
0.055359542 0.070390888 0.31500003 4278919437
0.056203667 0.070167422 0.31400001 4279050514
0.05722354 0.070167422 0.31400001 4278984719
0.058057927 0.069943964 0.31300002 4280301092
0.058885813 0.069720492 0.31200001 4278787853
0.059707202 0.069497034 0.31100002 4280497188
0.060717333 0.069497034 0.31100002 4279576084
0.061528981 0.069273569 0.31 4279312400
0.062334131 0.069050103 0.30900002 4279246096
0.063132793 0.068826646 0.30800003 4279180303
0.064133175 0.068826646 0.30800003 4279180814
0.064922087 0.06860318 0.30700001 4278921234
0.065704502 0.068379723 0.30600002 4280042020
0.066480421 0.06815625 0.30500001 4279847205
0.067471065 0.06815625 0.30500001 4279584803
0.068237238 0.067932792 0.30400002 4279716389
0.069224633 0.067932792 0.30400002 4279913766
0.069981061 0.067709327 0.303 4279716898
0.070965201 0.067709327 0.303 4279453726
0.071949348 0.067709327 0.303 4278993177
0.072933495 0.067709327 0.303 4279190554
0.073917635 0.067709327 0.303 4278993175
0.075148985 0.067932792 0.30400002 4279387933
0.045225345 0.073228054 0.32300001 4280102432
0.046131186 0.07300134 0.32200003 4279905821
0.046884019 0.07254792 0.32000002 4279579164
0.047923379 0.07254792 0.32000002 4280107815
0.04880973 0.072321199 0.31900001 4279978278
0.049845841 0.072321199 0.31900001 4279912485
0.05072245 0.072094493 0.31800002 4279978278
0.051755317 0.072094493 0.31800002 4279319064
0.052622177 0.071867779 0.317 4278792466
0.053651791 0.071867779 0.317 4279517727
0.054508913 0.071641065 0.31600001 4279845922
0.055359542 0.071414359 0.31500003 4278328070
0.056382664 0.071414359 0.31500003 4279180816
0.05722354 0.071187645 0.31400001 4279180049
0.058057927 0.070960931 0.31300002 4279246609
0.058885813 0.070734218 0.31200001 4280103200
0.059899185 0.070734218 0.31200001 4281157169
0.060717333 0.070507504 0.31100002 4278919437
0.061528981 0.07028079 0.31 4279313682
0.062334131 0.070054084 0.30900002 4281287472
0.063337766 0.070054084 0.30900002 4279181330
0.064133175 0.06982737 0.30800003 4279180816
0.064922087 0.069600657 0.30700001 4279180049
0.06591922 0.069600657 0.30700001 4279245842
0.066698395 0.06937395 0.30600002 4278525449
0.067471065 0.069147229 0.30500001 4280107045
0.068461701 0.069147229 0.30500001 4279979561
0.069224633 0.068920523 0.30400002 4279913768
0.070212021 0.068920523 0.30400002 4279913766
0.070965201 0.068693802 0.303 4279913766
0.071949348 0.068693802 0.303 4279848486
0.072933495 0.068693802 0.303 4279585314
0.073917635 0.068693802 0.303 4279256601
0.075148985 0.068920523 0.30400002 4279125015
0.046884019 0.073587626 0.32000002 4280497960
0.047923379 0.073587626 0.32000002 4280498473
0.04880973 0.073357664 0.31900001 4280302891
0.049845841 0.073357664 0.31900001 4280633137
0.05072245 0.073127702 0.31800002 4280108326
0.051755317 0.073127702 0.31800002 4280569391
0.052622177 0.07289774 0.317 4280109094
0.053651791 0.07289774 0.317 4279912485
0.054508913 0.072667778 0.31600001 4279847203
0.055535283 0.072667778 0.31600001 4279978278
0.056382664 0.072437823 0.31500003 4279116820
0.05722354 0.072207861 0.31400001 4279247123
0.058057927 0.071977898 0.31300002 4279180049
0.059074551 0.071977898 0.31300002 4279311889
0.059899185 0.071747936 0.31200001 4279312400
0.060717333 0.071517974 0.31100002 4279049742
0.061727464 0.071517974 0.31100002 4279050512
0.06253586 0.071288012 0.31 4279841563
0.063337766 0.07105805 0.30900002 4279182096
0.064341396 0.07105805 0.30900002 4279445270
0.065133564 0.070828095 0.30800003 4279378195
0.06591922 0.070598125 0.30700001 4279246096
0.066698395 0.070368171 0.30600002 4279443221
0.06769228 0.070368171 0.30600002 4279180049
0.068461701 0.070138201 0.30500001 4278858773
0.069224633 0.069908246 0.30400002 4279847205
0.070212021 0.069908246 0.30400002 4279979561
0.070965201 0.069678284 0.303 4279979561
0.071949348 0.069678284 0.303 4280111147
0.072933495 0.069678284 0.303 4279979559
0.073917635 0.069678284 0.303 4279848486
0.075148985 0.069908246 0.30400002 4279585314
0.046884019 0.07462734 0.32000002 4280431145
0.047773615 0.074394129 0.31900001 4279970594
0.04880973 0.074394129 0.31900001 4283392600
0.049845841 0.074394129 0.31900001 4285959808
0.05072245 0.074160919 0.31800002 4285500538
0.051755317 0.074160919 0.31800002 4280895796
0.052622177 0.073927708 0.317 4280371498
0.053651791 0.073927708 0.317 4280109092
0.054508913 0.073694497 0.31600001 4279780897
0.055535283 0.073694497 0.31600001 4279781410
0.056382664 0.073461294 0.31500003 4279781410
0.05722354 0.073228076 0.31400001 4280108840
0.058243413 0.073228076 0.31400001 4279906334
0.059074551 0.072994873 0.31300002 4279247121
0.059899185 0.072761655 0.31200001 4279311119
0.060912564 0.072761655 0.31200001 4279442705
0.061727464 0.072528452 0.31100002 4278983437
0.06253586 0.072295234 0.31 4279444500
0.063542739 0.072295234 0.31 4279180301
0.064341396 0.072062023 0.30900002 4278917642
0.065133564 0.07182882 0.30800003 4278721549
0.066133946 0.07182882 0.30800003 4280037155
0.066916354 0.071595602 0.30700001 4279641113
0.06769228 0.071362399 0.30600002 4279377428
0.068461701 0.07112918 0.30500001 4280436010
0.069452338 0.07112918 0.30500001 4279845670
0.070212021 0.070895977 0.30400002 4278396427
0.071199417 0.070895977 0.30400002 4280172838
0.071949348 0.070662759 0.303 4280175403
0.072933495 0.070662759 0.303 4280176170
0.073917635 0.070662759 0.303 4280044582
0.075148985 0.070895977 0.30400002 4280044582
0.052622177 0.074957669 0.317 4284973678
0.053651791 0.074957669 0.317 4280631852
0.054508913 0.07472121 0.31600001 4280173858
0.055535283 0.07472121 0.31600001 4280043299
0.056382664 0.074484758 0.31500003 4279649824
0.05722354 0.074248292 0.31400001 4279847203
0.058243413 0.074248292 0.31400001 4279846692
0.059074551 0.07401184 0.31300002 4280371498
0.059899185 0.073775373 0.31200001 4279774235
0.060912564 0.073775373 0.31200001 4279312402
0.061727464 0.073538914 0.31100002 4279376658
0.062737592 0.073538914 0.31100002 4279376912
0.063542739 0.073302455 0.31 4279376908
0.064341396 0.073065996 0.30900002 4281023530
0.065345034 0.073065996 0.30900002 4280895794
0.066133946 0.072829537 0.30800003 4278263308
0.066916354 0.072593078 0.30700001 4279312916
0.067913495 0.072593078 0.30700001 4279640854
0.068686165 0.072356619 0.30600002 4280239401
0.069452338 0.07212016 0.30500001 4280175403
0.070442982 0.07212016 0.30500001 4280503084
0.071199417 0.071883701 0.30400002 4280830255
0.072186805 0.071883701 0.30400002 4278197765
0.072933495 0.071647234 0.303 4279975459
0.073917635 0.071647234 0.303 4279978278
0.074901782 0.071647234 0.303 4280241448
0.055359542 0.075508229 0.31500003 4280632876
0.056382664 0.075508229 0.31500003 4280108840
0.05722354 0.075268514 0.31400001 4279846438
0.058243413 0.075268514 0.31400001 4279978278
0.059074551 0.075028807 0.31300002 4279846692
0.060091171 0.075028807 0.31300002 4279977508
0.060912564 0.074789092 0.31200001 4280239912
0.061727464 0.074549392 0.31100002 4279577369
0.062737592 0.074549392 0.31100002 4279246609
0.063542739 0.074309677 0.31 4279442703
0.064549617 0.074309677 0.31 4279311887
0.065345034 0.074069969 0.30900002 4279051025
0.066133946 0.073830262 0.30800003 4281025585
0.067134328 0.073830262 0.30800003 4279444502
0.067913495 0.073590554 0.30700001 4279576086
0.068686165 0.073350847 0.30600002 4280239912
0.069680057 0.073350847 0.30600002 4280175403
0.070442982 0.073111132 0.30500001 4280175403
0.071199417 0.072871432 0.30400002 4280372012
0.072186805 0.072871432 0.30400002 4280568364
0.072933495 0.072631717 0.303 4280633387
0.073917635 0.072631717 0.303 4278330121
0.074901782 0.072631717 0.303 4279843873
0.075635478 0.072392009 0.30200002 4280503336
0.05722354 0.07628873 0.31400001 4280368934
0.058243413 0.07628873 0.31400001 4280437291
0.059074551 0.076045781 0.31300002 4280175657
0.059899185 0.075802818 0.31200001 4279846692
0.060912564 0.075802818 0.31200001 4279912485
0.06192594 0.075802818 0.31200001 4280109864
0.062737592 0.075559862 0.31100002 4280437291
0.063747719 0.075559862 0.31100002 4279774235
0.064549617 0.075316899 0.31 4279378193
0.065345034 0.075073943 0.30900002 4279246096
0.066348664 0.075073943 0.30900002 4279246355
0.067134328 0.074830994 0.30800003 4279180816
0.068134718 0.074830994 0.30800003 4280563751
0.068910629 0.074588031 0.30700001 4280373036
0.069680057 0.074345075 0.30600002 4280175657
0.070442982 0.074102111 0.30500001 4278857746
0.071433619 0.074102111 0.30500001 4278462220
0.072186805 0.073859155 0.30400002 4279513623
0.073174201 0.073859155 0.30400002 4280173090
0.073917635 0.073616199 0.303 4280633641
0.074901782 0.073616199 0.303 4280436262
0.075635478 0.073373243 0.30200002 4278264841
0.076616377 0.073373243 0.30200002 4280238118
0.077597275 0.073373243 0.30200002 4280568618
0.078317977 0.073130287 0.30100003 4280634922
0.059899185 0.076816536 0.31200001 4280240426
0.060912564 0.076816536 0.31200001 4279912231
0.06192594 0.076816536 0.31200001 4279846692
0.062737592 0.076570332 0.31100002 4279912485
0.063747719 0.076570332 0.31100002 4280043301
0.064549617 0.07632412 0.31 4280371752
0.065556504 0.07632412 0.31 4280301090
0.066348664 0.076077916 0.30900002 4279444502
0.067134328 0.075831711 0.30800003 4279443988
0.068134718 0.075831711 0.30800003 4280761641
0.068910629 0.075585499 0.30700001 4280306219
0.06990777 0.075585499 0.30700001 4280766770
0.07067395 0.075339295 0.30600002 4279511315
0.071433619 0.075093083 0.30500001 4279312912
0.072424263 0.075093083 0.30500001 4279378193
0.073174201 0.074846886 0.30400002 4279182096
0.073917635 0.074600674 0.303 4280239401
0.074901782 0.074600674 0.303 4280634670
0.075635478 0.07435447 0.30200002 4280437291
0.076616377 0.07435447 0.30200002 4280502571
0.077597275 0.07435447 0.30200002 4279381271
0.078317977 0.074108265 0.30100003 4280039969
0.079295628 0.074108265 0.30100003 4280174373
0.059899185 0.077830255 0.31200001 4283394131
0.060912564 0.077830255 0.31200001 4280238118
0.06192594 0.077830255 0.31200001 4280108580
0.062737592 0.077580802 0.31100002 4279517727
0.063747719 0.077580802 0.31100002 4279978278
0.064549617 0.077331342 0.31 4280175657
0.065556504 0.077331342 0.31 4280240166
0.066348664 0.077081889 0.30900002 4280437545
0.067352295 0.077081889 0.30900002 4279710750
0.068134718 0.076832436 0.30800003 4280107045
0.068910629 0.076582976 0.30700001 4280569391
0.06990777 0.076582976 0.30700001 4280306219
0.07067395 0.076333523 0.30600002 4279182096
0.071667835 0.076333523 0.30600002 4279443984
0.072424263 0.076084062 0.30500001 4280364575
0.073174201 0.07583461 0.30400002 4279443988
0.074161589 0.07583461 0.30400002 4280302887
0.074901782 0.075585149 0.303 4279251482
0.075885922 0.075585149 0.303 4278396425
0.076616377 0.075335696 0.30200002 4280238629
0.077597275 0.075335696 0.30200002 4280699950
0.078317977 0.075086243 0.30100003 4280699180
0.079295628 0.075086243 0.30100003 4278460169
0.080273278 0.075086243 0.30100003 4279184660
0.081250928 0.075086243 0.30100003 4280568618
0.060912564 0.078843974 0.31200001 4284248159
0.06192594 0.078843974 0.31200001 4283658332
0.062737592 0.078591272 0.31100002 4279974946
0.063747719 0.078591272 0.31100002 4280437032
0.064549617 0.078338563 0.31 4280108580
0.065556504 0.078338563 0.31 4279978278
0.066348664 0.078085862 0.30900002 4279912485
0.067352295 0.078085862 0.30900002 4279978278
0.068134718 0.077833161 0.30800003 4280109864
0.0691351 0.077833161 0.30800003 4279383322
0.06990777 0.077580452 0.30700001 4278790672
0.07067395 0.077327751 0.30600002 4281091630
0.071667835 0.077327751 0.30600002 4279971866
0.072424263 0.077075042 0.30500001 4279246607
0.073414907 0.077075042 0.30500001 4279443473
0.074161589 0.076822333 0.30400002 4280630825
0.074901782 0.076569624 0.303 4280302627
0.075885922 0.076569624 0.303 4280765227
0.076616377 0.076316923 0.30200002 4280304422
0.077597275 0.076316923 0.30200002 4279975457
0.078578167 0.076316923 0.30200002 4280436778
0.079295628 0.076064222 0.30100003 4280699180
0.080273278 0.076064222 0.30100003 4280830768
0.081250928 0.076064222 0.30100003 4278789900
0.062737592 0.079601742 0.31100002 4284247389
0.063747719 0.079601742 0.31100002 4284248411
0.064549617 0.079345785 0.31 4280696100
0.065556504 0.079345785 0.31 4280503336
0.066563383 0.079345785 0.31 4280043299
0.067352295 0.079089835 0.30900002 4280636206
0.068134718 0.078833885 0.30800003 4280175655
0.0691351 0.078833885 0.30800003 4280307243
0.06990777 0.078577928 0.30700001 4280964149
0.070904903 0.078577928 0.30700001 4279973662
0.071667835 0.078321978 0.30600002 4279381271
0.072424263 0.078066014 0.30500001 4280697131
0.073414907 0.078066014 0.30500001 4280632106
0.074161589 0.077810064 0.30400002 4280895530
0.075148985 0.077810064 0.30400002 4279579670
0.075885922 0.077554107 0.303 4280699430
0.076870069 0.077554107 0.303 4280634407
0.077597275 0.077298157 0.30200002 4279053842
0.078578167 0.077298157 0.30200002 4280764973
0.079295628 0.077042207 0.30100003 4279976227
0.080273278 0.077042207 0.30100003 4279581469
0.081250928 0.077042207 0.30100003 4280699180
0.081955381 0.07678625 0.30000001 4280831020
0.082929783 0.07678625 0.30000001 4279381523
0.063747719 0.08061222 0.31100002 4284378461
0.064549617 0.080353007 0.31 4283984217
0.065556504 0.080353007 0.31 4283722326
0.066563383 0.080353007 0.31 4280500004
0.067352295 0.080093808 0.30900002 4280502823
0.068355933 0.080093808 0.30900002 4280109092
0.0691351 0.07983461 0.30800003 4280175657
0.06990777 0.079575405 0.30700001 4280109864
0.070904903 0.079575405 0.30700001 4280306473
0.071667835 0.079316199 0.30600002 4280634924
0.07266172 0.079316199 0.30600002 4279644957
0.073414907 0.079056993 0.30500001 4278526476
0.074161589 0.078797795 0.30400002 4280040739
0.075148985 0.078797795 0.30400002 4280699180
0.075885922 0.078538589 0.303 4279251734
0.076870069 0.078538589 0.303 4278593291
0.077597275 0.078279383 0.30200002 4280238118
0.078578167 0.078279383 0.30200002 4279317016
0.079559065 0.078279383 0.30200002 4280633389
0.080273278 0.078020185 0.30100003 4280699180
0.081250928 0.078020185 0.30100003 4279909664
0.081955381 0.07776098 0.30000001 4280765227
0.082929783 0.07776098 0.30000001 4280765997
0.083904184 0.07776098 0.30000001 4281094192
0.084595665 0.077501781 0.29900002 4279973660
0.063747719 0.081622683 0.31100002 4284575325
0.064757846 0.081622683 0.31100002 4284377946
0.065556504 0.081360221 0.31 4284180567
0.066563383 0.081360221 0.31 4284049494
0.067352295 0.081097774 0.30900002 4283788373
0.068355933 0.081097774 0.30900002 4281026602
0.0691351 0.080835328 0.30800003 4280173860
0.06990777 0.080572866 0.30700001 4280042787
0.070904903 0.080572866 0.30700001 4280306471
0.071667835 0.080310419 0.30600002 4280372264
0.07266172 0.080310419 0.30600002 4280438059
0.073414907 0.080047965 0.30500001 4280700204
0.074405544 0.080047965 0.30500001 4280829485
0.075148985 0.079785518 0.30400002 4278855181
0.076136373 0.079785518 0.30400002 4280368680
0.076870069 0.079523057 0.303 4280830768
0.077854216 0.079523057 0.303 4280699950
0.078578167 0.07926061 0.30200002 4280042022
0.079559065 0.07926061 0.30200002 4280699180
0.080273278 0.078998163 0.30100003 4280568618
0.081250928 0.078998163 0.30100003 4280764975
0.081955381 0.078735702 0.30000001 4280633387
0.082929783 0.078735702 0.30000001 4280503338
0.083904184 0.078735702 0.30000001 4280569131
0.084595665 0.078473255 0.29900002 4280634924
0.085566819 0.078473255 0.29900002 4280437032
0.064757846 0.082633153 0.31100002 4284443739
0.065767981 0.082633153 0.31100002 4284377946
0.066563383 0.08236745 0.31 4284114774
0.067570262 0.08236745 0.31 4284179797
0.068355933 0.082101747 0.30900002 4283851602
0.0691351 0.081836052 0.30800003 4283064650
0.070135482 0.081836052 0.30800003 4280631590
0.070904903 0.08157035 0.30700001 4280240166
0.071667835 0.081304647 0.30600002 4280372266
0.07266172 0.081304647 0.30600002 4280306473
0.073414907 0.081038944 0.30500001 4280569643
0.074405544 0.081038944 0.30500001 4280569643
0.075148985 0.080773242 0.30400002 4280634409
0.076136373 0.080773242 0.30400002 4280500518
0.076870069 0.080507539 0.303 4279382037
0.077854216 0.080507539 0.303 4280305192
0.078578167 0.080241837 0.30200002 4280239914
0.079559065 0.080241837 0.30200002 4279778850
0.080273278 0.079976141 0.30100003 4279120920
0.081250928 0.079976141 0.30100003 4278988051
0.081955381 0.079710439 0.30000001 4280436010
0.082929783 0.079710439 0.30000001 4279514908
0.083904184 0.079710439 0.30000001 4280107815
0.084595665 0.079444736 0.29900002 4280174119
0.085566819 0.079444736 0.29900002 4280438059
0.086248539 0.079179034 0.29800001 4280569127
0.087216437 0.079179034 0.29800001 4280634407
0.087888427 0.078913331 0.29700002 4280105246
0.098738238 0.077584825 0.29200003 4279585566
0.09968666 0.077584825 0.29200003 4279388187
0.10063507 0.077584825 0.29200003 4279584799
0.1015835 0.077584825 0.29200003 4280241450
0.10253191 0.077584825 0.29200003 4281028145
0.10348033 0.077584825 0.29200003 4283853403
0.065767981 0.08364363 0.31100002 4284246873
0.066778101 0.08364363 0.31100002 4284180567
0.067570262 0.083374672 0.31 4284179797
0.068577141 0.083374672 0.31 4284114004
0.069359556 0.083105728 0.30900002 4283982418
0.070135482 0.082836777 0.30800003 4283983442
0.070904903 0.082567826 0.30700001 4282736455
0.071902037 0.082567826 0.30700001 4280566313
0.07266172 0.082298875 0.30600002 4280567848
0.073414907 0.082029924 0.30500001 4280174373
0.074405544 0.082029924 0.30500001 4280372264
0.075148985 0.081760973 0.30400002 4280701229
0.076136373 0.081760973 0.30400002 4280700715
0.076870069 0.081492022 0.303 4281029169
0.077854216 0.081492022 0.303 4280303657
0.078578167 0.081223071 0.30200002 4278198281
0.079559065 0.081223071 0.30200002 4280698669
0.080273278 0.080954127 0.30100003 4280830766
0.081250928 0.080954127 0.30100003 4280568364
0.081955381 0.080685169 0.30000001 4280436778
0.082929783 0.080685169 0.30000001 4279843360
0.083904184 0.080685169 0.30000001 4279710750
0.084595665 0.080416225 0.29900002 4279776029
0.085566819 0.080416225 0.29900002 4280435749
0.086248539 0.080147266 0.29800001 4280437030
0.087216437 0.080147266 0.29800001 4280700202
0.087888427 0.079878323 0.29700002 4280568618
0.088853084 0.079878323 0.29700002 4280568618
0.089515321 0.079609364 0.296 4280500518
0.097789824 0.078533567 0.29200003 4279650844
0.098738238 0.078533567 0.29200003 4279650844
0.09968666 0.078533567 0.29200003 4279585051
0.10063507 0.078533567 0.29200003 4279519773
0.1015835 0.078533567 0.29200003 4279519519
0.10253191 0.078533567 0.29200003 4279848486
0.10348033 0.078533567 0.29200003 4280372266
0.10442874 0.078533567 0.29200003 4281421622
0.066778101 0.0846541 0.31100002 4284180567
0.067788236 0.0846541 0.31100002 4284048211
0.068577141 0.084381893 0.31 4284048981
0.069359556 0.084109701 0.30900002 4283983188
0.070135482 0.083837502 0.30800003 4283917395
0.071135871 0.083837502 0.30800003 4283983442
0.071902037 0.083565302 0.30700001 4283851856
0.07266172 0.083293103 0.30600002 4283523916
0.073414907 0.083020896 0.30500001 4281223214
0.074405544 0.083020896 0.30500001 4280501540
0.075148985 0.082748704 0.30400002 4280634409
0.076136373 0.082748704 0.30400002 4280503336
0.076870069 0.082476497 0.303 4280700715
0.077854216 0.082476497 0.303 4280503338
0.078578167 0.082204305 0.30200002 4280568364
0.079559065 0.082204305 0.30200002 4280501036
0.080273278 0.081932105 0.30100003 4278724109
0.081250928 0.081932105 0.30100003 4279580440
0.081955381 0.081659898 0.30000001 4280305446
0.082929783 0.081659898 0.30000001 4280304676
0.083904184 0.081659898 0.30000001 4280566311
0.084595665 0.081387706 0.29900002 4280565286
0.085566819 0.081387706 0.29900002 4279709723
0.086248539 0.081115499 0.29800001 4280895014
0.087216437 0.081115499 0.29800001 4280238368
0.087888427 0.080843307 0.29700002 4280108067
0.088853084 0.080843307 0.29700002 4280371752
0.089515321 0.0805711 0.296 4280371752
0.090476729 0.0805711 0.296 4280305446
0.091129236 0.080298908 0.29500002 4280303911
0.092087395 0.080298908 0.29500002 4279250453
0.093045548 0.080298908 0.29500002 4279580186
0.094003707 0.080298908 0.29500002 4280108067
0.097173057 0.079754502 0.29300001 4279189271
0.097789824 0.07948231 0.29200003 4279321109
0.098738238 0.07948231 0.29200003 4279256086
0.09968666 0.07948231 0.29200003 4279256086
0.10063507 0.07948231 0.29200003 4279519773
0.1015835 0.07948231 0.29200003 4279519773
0.10253191 0.07948231 0.29200003 4279519773
0.10348033 0.07948231 0.29200003 4279519773
0.10442874 0.07948231 0.29200003 4279847455
0.10501627 0.079210103 0.29100001 4280500768
0.067788236 0.08566457 0.31100002 4284049235
0.068577141 0.085389122 0.31 4283983442
0.069584019 0.085389122 0.31 4283654477
0.070363194 0.085113674 0.30900002 4283982672
0.071135871 0.084838226 0.30800003 4284114258
0.071902037 0.084562778 0.30700001 4284180051
0.07266172 0.084287331 0.30600002 4284509016
0.073414907 0.084011875 0.30500001 4284443993
0.074405544 0.084011875 0.30500001 4284313950
0.075148985 0.083736435 0.30400002 4281616691
0.076136373 0.083736435 0.30400002 4280633128
0.076870069 0.083460979 0.303 4280502823
0.077854216 0.083460979 0.303 4280568616
0.078578167 0.083185531 0.30200002 4280437545
0.079559065 0.083185531 0.30200002 4280503338
0.080273278 0.082910091 0.30100003 4280700204
0.081250928 0.082910091 0.30100003 4281224241
0.081955381 0.082634635 0.30000001 4279644695
0.082929783 0.082634635 0.30000001 4280039969
0.083904184 0.082634635 0.30000001 4280763690
0.084595665 0.082359187 0.29900002 4280829483
0.085566819 0.082359187 0.29900002 4280632104
0.086248539 0.082083732 0.29800001 4280763944
0.087216437 0.082083732 0.29800001 4279776533
0.087888427 0.081808291 0.29700002 4280632104
0.088853084 0.081808291 0.29700002 4279908381
0.089515321 0.081532836 0.296 4280436008
0.090476729 0.081532836 0.296 4280764973
0.091129236 0.081257388 0.29500002 4280633641
0.092087395 0.081257388 0.29500002 4280436262
0.093045548 0.081257388 0.29500002 4280368932
0.094003707 0.081257388 0.29500002 4279578902
0.094639964 0.08098194 0.294 4279448602
0.095594876 0.08098194 0.294 4279910949
0.096549787 0.08098194 0.294 4280109862
0.097173057 0.080706492 0.29300001 4279715102
0.098124713 0.080706492 0.29300001 4279386137
0.099076383 0.080706492 0.29300001 4279123732
0.09968666 0.080431044 0.29200003 4279058709
0.10063507 0.080431044 0.29200003 4279321879
0.1015835 0.080431044 0.29200003 4279388185
0.10253191 0.080431044 0.29200003 4279125013
0.10348033 0.080431044 0.29200003 4279519773
0.10442874 0.080431044 0.29200003 4279124502
0.10501627 0.080155596 0.29100001 4279781149
0.10596144 0.080155596 0.29100001 4280304926
0.068577141 0.086396337 0.31 4283851856
0.069584019 0.086396337 0.31 4283917649
0.070363194 0.08611764 0.30900002 4283917649
0.071135871 0.085838944 0.30800003 4284245844
0.071902037 0.08556024 0.30700001 4284311637
0.07266172 0.085281551 0.30600002 4284574809
0.073655613 0.085281551 0.30600002 4284706395
0.074405544 0.085002847 0.30500001 4284838497
0.075148985 0.084724151 0.30400002 4284839012
0.076136373 0.084724151 0.30400002 4285694321
0.076870069 0.084445447 0.303 4282602562
0.077854216 0.084445447 0.303 4280632104
0.078578167 0.084166758 0.30200002 4280436008
0.079559065 0.084166758 0.30200002 4280437545
0.080273278 0.083888061 0.30100003 4280700717
0.081250928 0.083888061 0.30100003 4280700204
0.081955381 0.083609357 0.30000001 4280765227
0.082929783 0.083609357 0.30000001 4280632104
0.083624512 0.083330661 0.29900002 4279710488
0.084595665 0.083330661 0.29900002 4280302625
0.085566819 0.083330661 0.29900002 4280435495
0.086248539 0.083051965 0.29800001 4280699432
0.087216437 0.083051965 0.29800001 4280238368
0.087888427 0.082773268 0.29700002 4280632358
0.088853084 0.082773268 0.29700002 4280171553
0.089515321 0.082494564 0.296 4280039969
0.090476729 0.082494564 0.296 4280238116
0.091129236 0.082215868 0.29500002 4279646494
0.092087395 0.082215868 0.29500002 4280370215
0.093045548 0.082215868 0.29500002 4280502825
0.094003707 0.082215868 0.29500002 4280305446
0.094639964 0.081937164 0.294 4280567594
0.095594876 0.081937164 0.294 4279251223
0.096549787 0.081937164 0.294 4280174119
0.097173057 0.081658475 0.29300001 4279912485
0.098124713 0.081658475 0.29300001 4279911713
0.099076383 0.081658475 0.29300001 4279911713
0.10002805 0.081658475 0.29300001 4279320598
0.10063507 0.081379779 0.29200003 4279321109
0.1015835 0.081379779 0.29200003 4279124500
0.10253191 0.081379779 0.29200003 4279321879
0.10348033 0.081379779 0.29200003 4279256086
0.10442874 0.081379779 0.29200003 4279190293
0.10501627 0.081101075 0.29100001 4279256088
0.10596144 0.081101075 0.29100001 4279519006
0.10690661 0.081101075 0.29100001 4281551409
0.075148985 0.085711882 0.30400002 4285232485
0.076136373 0.085711882 0.30400002 4285299050
0.076870069 0.085429929 0.303 4285299563
0.077854216 0.085429929 0.303 4285169261
0.078578167 0.085147984 0.30200002 4284182364
0.079559065 0.085147984 0.30200002 4280960809
0.080273278 0.084866039 0.30100003 4280698921
0.081250928 0.084866039 0.30100003 4280633641
0.081955381 0.084584087 0.30000001 4280831018
0.082929783 0.084584087 0.30000001 4280831018
0.083624512 0.08430215 0.29900002 4280633639
0.084595665 0.08430215 0.29900002 4281158188
0.085566819 0.08430215 0.29900002 4279513109
0.086248539 0.084020197 0.29800001 4279974174
0.087216437 0.084020197 0.29800001 4281028397
0.087888427 0.083738253 0.29700002 4280764714
0.088853084 0.083738253 0.29700002 4280435749
0.089515321 0.0834563 0.296 4280435495
0.090476729 0.0834563 0.296 4278921488
0.091438144 0.0834563 0.296 4280434473
0.092087395 0.083174355 0.29500002 4279710750
0.093045548 0.083174355 0.29500002 4280174373
0.094003707 0.083174355 0.29500002 4280371752
0.094639964 0.082892403 0.294 4280042533
0.095594876 0.082892403 0.294 4279516189
0.096549787 0.082892403 0.294 4279118613
0.097504705 0.082892403 0.294 4280305446
0.098124713 0.082610466 0.29300001 4280437545
0.099076383 0.082610466 0.29300001 4280437545
0.10002805 0.082610466 0.29300001 4280043301
0.10097972 0.082610466 0.29300001 4279582746
0.1015835 0.082328521 0.29200003 4279058709
0.10253191 0.082328521 0.29200003 4279124502
0.10348033 0.082328521 0.29200003 4279124500
0.10442874 0.082328521 0.29200003 4279256086
0.10501627 0.082046568 0.29100001 4279059222
0.10596144 0.082046568 0.29100001 4278993175
0.10690661 0.082046568 0.29100001 4279976477
0.076870069 0.086414412 0.303 4285364845
0.077597275 0.086129218 0.30200002 4285430638
0.078578167 0.086129218 0.30200002 4285365358
0.079559065 0.086129218 0.30200002 4285168491
0.080273278 0.085844025 0.30100003 4284773733
0.081250928 0.085844025 0.30100003 4281026348
0.081955381 0.085558824 0.30000001 4280698921
0.082929783 0.085558824 0.30000001 4280698921
0.083624512 0.085273631 0.29900002 4280698921
0.084595665 0.085273631 0.29900002 4280831020
0.085280634 0.08498843 0.29800001 4280633641
0.086248539 0.08498843 0.29800001 4280566311
0.087216437 0.08498843 0.29800001 4279645209
0.087888427 0.084703237 0.29700002 4279711002
0.088853084 0.084703237 0.29700002 4280501542
0.08981774 0.084703237 0.29700002 4280238883
0.090476729 0.084418036 0.296 4280172323
0.091438144 0.084418036 0.296 4280367907
0.092087395 0.084132843 0.29500002 4279840539
0.093045548 0.084132843 0.29500002 4280238629
0.094003707 0.084132843 0.29500002 4280568618
0.094961874 0.084132843 0.29500002 4280437543
0.095920034 0.084132843 0.29500002 4278726160
0.096549787 0.083847642 0.294 4279842590
0.097504705 0.083847642 0.294 4280501542
0.098459609 0.083847642 0.294 4280567846
0.099076383 0.083562449 0.29300001 4280305444
0.10002805 0.083562449 0.29300001 4280371750
0.10097972 0.083562449 0.29300001 4280109090
0.1015835 0.083277255 0.29200003 4279978528
0.10253191 0.083277255 0.29200003 4279321111
0.10348033 0.083277255 0.29200003 4279124248
0.10442874 0.083277255 0.29200003 4279255834
0.10501627 0.082992055 0.29100001 4279255834
0.10596144 0.082992055 0.29100001 4279124248
0.10690661 0.082992055 0.29100001 4279189271
0.081955381 0.086533554 0.30000001 4285431149
0.082653359 0.086245112 0.29900002 4281617202
0.083624512 0.086245112 0.29900002 4281091882
0.084595665 0.086245112 0.29900002 4280895530
0.085280634 0.085956663 0.29800001 4280764714
0.086248539 0.085956663 0.29800001 4280568618
0.087216437 0.085956663 0.29800001 4280764973
0.087888427 0.085668221 0.29700002 4280961071
0.088853084 0.085668221 0.29700002 4279842588
0.08981774 0.085668221 0.29700002 4280039707
0.090476729 0.085379772 0.296 4280436262
0.091438144 0.085379772 0.296 4280698667
0.092399552 0.085379772 0.296 4280303909
0.093045548 0.08509133 0.29500002 4280436008
0.094003707 0.08509133 0.29500002 4280437032
0.094961874 0.08509133 0.29500002 4280173090
0.095920034 0.08509133 0.29500002 4279118353
0.096878193 0.08509133 0.29500002 4280501288
0.097504705 0.084802881 0.294 4280239653
0.098459609 0.084802881 0.294 4280568616
0.09941452 0.084802881 0.294 4280568616
0.10002805 0.084514439 0.29300001 4280174371
0.10097972 0.084514439 0.29300001 4280240166
0.10193138 0.084514439 0.29300001 4280043299
0.10253191 0.084225997 0.29200003 4279846690
0.10348033 0.084225997 0.29200003 4279451932
0.10442874 0.084225997 0.29200003 4279386139
0.10537716 0.084225997 0.29200003 4279386650
0.10596144 0.083937548 0.29100001 4279189271
0.10690661 0.083937548 0.29100001 4279188758
0.082653359 0.087216586 0.29900002 4285036391
0.083624512 0.087216586 0.29900002 4285036389
0.08431273 0.086924888 0.29800001 4282800965
0.085280634 0.086924888 0.29800001 4281289007
0.086248539 0.086924888 0.29800001 4280435749
0.087216437 0.086924888 0.29800001 4280633641
0.087888427 0.086633198 0.29700002 4280700204
0.088853084 0.086633198 0.29700002 4280568616
0.08981774 0.086633198 0.29700002 4280633128
0.090476729 0.0863415 0.296 4279382037
0.091438144 0.0863415 0.296 4279381271
0.092399552 0.0863415 0.296 4280565799
0.093360953 0.0863415 0.296 4280633128
0.094003707 0.08604981 0.29500002 4280239653
0.094961874 0.08604981 0.29500002 4279974692
0.095920034 0.08604981 0.29500002 4278723341
0.096878193 0.08604981 0.29500002 4280764460
0.097504705 0.085758112 0.294 4280502825
0.098459609 0.085758112 0.294 4280371750
0.09941452 0.085758112 0.294 4280503336
0.10002805 0.085466422 0.29300001 4280437541
0.10097972 0.085466422 0.29300001 4280305444
0.10193138 0.085466422 0.29300001 4280240164
0.10253191 0.085174732 0.29200003 4279911713
0.10348033 0.085174732 0.29200003 4279517725
0.10442874 0.085174732 0.29200003 4279649311
0.10537716 0.085174732 0.29200003 4279386137
0.10596144 0.084883027 0.29100001 4279386137
0.10690661 0.084883027 0.29100001 4279187474
0.083624512 0.088188075 0.29900002 4284970087
0.08431273 0.087893121 0.29800001 4284575842
0.085280634 0.087893121 0.29800001 4284181596
0.086248539 0.087893121 0.29800001 4283459154
0.087216437 0.087893121 0.29800001 4280894762
0.087888427 0.087598182 0.29700002 4280567846
0.088853084 0.087598182 0.29700002 4280437030
0.08981774 0.087598182 0.29700002 4280503336
0.090476729 0.087303236 0.296 4280502825
0.091438144 0.087303236 0.296 4280961071
0.092399552 0.087303236 0.296 4280236321
0.093360953 0.087303236 0.296 4279513111
0.094003707 0.087008297 0.29500002 4280105760
0.094961874 0.087008297 0.29500002 4279051023
0.095920034 0.087008297 0.29500002 4279841309
0.096878193 0.087008297 0.29500002 4280567596
0.09783636 0.087008297 0.29500002 4280305194
0.098459609 0.086713351 0.294 4280437805
0.09941452 0.086713351 0.294 4280306473
0.10036944 0.086713351 0.294 4280240164
0.10097972 0.086418413 0.29300001 4280437543
0.10193138 0.086418413 0.29300001 4280240164
0.10253191 0.086123466 0.29200003 4279911713
0.10348033 0.086123466 0.29200003 4279648541
0.10442874 0.086123466 0.29200003 4279582746
0.10537716 0.086123466 0.29200003 4279451160
0.10632557 0.086123466 0.29200003 4279187988
0.10690661 0.08582852 0.29100001 4279319060
0.085280634 0.088861361 0.29800001 4284641120
0.086248539 0.088861361 0.29800001 4284247389
0.087216437 0.088861361 0.29800001 4283656022
0.087888427 0.088563167 0.29700002 4283722326
0.088853084 0.088563167 0.29700002 4280697385
0.08981774 0.088563167 0.29700002 4280436008
0.090476729 0.088264972 0.296 4280436008
0.091438144 0.088264972 0.296 4280370469
0.092399552 0.088264972 0.296 4280830507
0.093360953 0.088264972 0.296 4280829737
0.094003707 0.087966785 0.29500002 4279776281
0.094961874 0.087966785 0.29500002 4279774998
0.095920034 0.087966785 0.29500002 4281026602
0.096878193 0.087966785 0.29500002 4280699434
0.09783636 0.087966785 0.29500002 4280502825
0.098794512 0.087966785 0.29500002 4280436778
0.099752672 0.087966785 0.29500002 4280568618
0.10071083 0.087966785 0.29500002 4280240164
0.10097972 0.087370396 0.29300001 4280371750
0.10193138 0.087370396 0.29300001 4280240164
0.10288304 0.087370396 0.29300001 4279780127
0.10348033 0.087072209 0.29200003 4279582746
0.10442874 0.087072209 0.29200003 4279713818
0.10537716 0.087072209 0.29200003 4279648025
0.10632557 0.087072209 0.29200003 4279582232
0.107274 0.087072209 0.29200003 4279581719
0.085280634 0.089829594 0.29800001 4284903522
0.086248539 0.089829594 0.29800001 4284377948
0.086923771 0.089528158 0.29700002 4284048983
0.087888427 0.089528158 0.29700002 4284179797
0.088853084 0.089528158 0.29700002 4281614640
0.08981774 0.089528158 0.29700002 4281485105
0.090476729 0.089226708 0.296 4281288239
0.091438144 0.089226708 0.296 4280697385
0.092399552 0.089226708 0.296 4280763690
0.093045548 0.088925272 0.29500002 4280698919
0.094003707 0.088925272 0.29500002 4280764712
0.094961874 0.088925272 0.29500002 4280896296
0.095920034 0.088925272 0.29500002 4280763940
0.096878193 0.088925272 0.29500002 4280698917
0.09783636 0.088925272 0.29500002 4280633639
0.098794512 0.088925272 0.29500002 4280437030
0.099752672 0.088925272 0.29500002 4280305444
0.10071083 0.088925272 0.29500002 4280305446
0.101669 0.088925272 0.29500002 4280173860
0.10193138 0.088322386 0.29300001 4279845920
0.10288304 0.088322386 0.29300001 4279911713
0.10348033 0.088020951 0.29200003 4279582232
0.10442874 0.088020951 0.29200003 4279713305
0.10537716 0.088020951 0.29200003 4279581973
0.10632557 0.088020951 0.29200003 4279647766
0.107274 0.088020951 0.29200003 4279778582
0.086248539 0.090797819 0.29800001 4284311385
0.086923771 0.090493135 0.29700002 4284180569
0.087888427 0.090493135 0.29700002 4281876533
0.088853084 0.090493135 0.29700002 4282008119
0.08981774 0.090493135 0.29700002 4282140214
0.090476729 0.090188436 0.296 4282666558
0.091438144 0.090188436 0.296 4283786324
0.092399552 0.090188436 0.296 4283787608
0.093045548 0.089883752 0.29500002 4281091628
0.094003707 0.089883752 0.29500002 4281158186
0.094639964 0.089579053 0.294 4280961321
0.095594876 0.089579053 0.294 4280896298
0.096878193 0.089883752 0.29500002 4280831018
0.09783636 0.089883752 0.29500002 4280568616
0.098794512 0.089883752 0.29500002 4280568616
0.099752672 0.089883752 0.29500002 4280568618
0.10002805 0.089274369 0.29300001 4280437032
0.10097972 0.089274369 0.29300001 4280305446
0.10193138 0.089274369 0.29300001 4279976992
0.10288304 0.089274369 0.29300001 4280042785
0.10348033 0.088969678 0.29200003 4279911197
0.10442874 0.088969678 0.29200003 4279713305
0.10537716 0.088969678 0.29200003 4279647512
0.10632557 0.088969678 0.29200003 4279909914
0.107274 0.088969678 0.29200003 4280172827
0.086923771 0.091458119 0.29700002 4284377948
0.087888427 0.091458119 0.29700002 4281547314
0.088853084 0.091458119 0.29700002 4282007865
0.08981774 0.091458119 0.29700002 4282205498
0.090476729 0.091150172 0.296 4282863941
0.091438144 0.091150172 0.296 4284114778
0.092399552 0.091150172 0.296 4284772708
0.093045548 0.09084224 0.29500002 4284838499
