# .PCD v0.7 - Point Cloud Data file format
VERSION 0.7
FIELDS x y z rgb
SIZE 4 4 4 4
TYPE F F F U
COUNT 1 1 1 1
WIDTH 1057
HEIGHT 1
VIEWPOINT 0 0 0 1 0 0 0
POINTS 1057
DATA ascii
0.0975371 0.054911114 0.303 4283111698
0.091027409 0.055526651 0.30100003 4281731592
0.092005059 0.055526651 0.30100003 4282191109
0.093291618 0.05571112 0.30200002 4282519815
0.094272517 0.05571112 0.30200002 4282848008
0.095253408 0.05571112 0.30200002 4283373069
0.096552961 0.055895593 0.303 4283110667
0.0975371 0.055895593 0.303 4283571731
0.091027409 0.056504626 0.30100003 4282389006
0.092005059 0.056504626 0.30100003 4282650377
0.092982709 0.056504626 0.30100003 4282781704
0.094272517 0.056692347 0.30200002 4283044106
0.095253408 0.056692347 0.30200002 4283635214
0.096234307 0.056692347 0.30200002 4283044104
0.0975371 0.056880068 0.303 4283835673
0.098521248 0.056880068 0.303 4284492320
0.099505395 0.056880068 0.303 4283706147
0.091027409 0.057482608 0.30100003 4282651664
0.092005059 0.057482608 0.30100003 4282781450
0.092982709 0.057482608 0.30100003 4283109385
0.09396036 0.057482608 0.30100003 4283306251
0.095253408 0.057673577 0.30200002 4283831823
0.096234307 0.057673577 0.30200002 4284029456
0.097215205 0.057673577 0.30200002 4284359191
0.098196104 0.057673577 0.30200002 4284753179
0.099176995 0.057673577 0.30200002 4284954669
0.091027409 0.058460586 0.30100003 4283045137
0.092005059 0.058460586 0.30100003 4283043852
0.092982709 0.058460586 0.30100003 4283437837
0.09396036 0.058460586 0.30100003 4283503630
0.094938003 0.058460586 0.30100003 4284028173
0.096234307 0.058654804 0.30200002 4284291345
0.097215205 0.058654804 0.30200002 4284948248
0.098196104 0.058654804 0.30200002 4284948248
0.099176995 0.058654804 0.30200002 4284423701
0.10015789 0.058654804 0.30200002 4284493864
0.091027409 0.059438568 0.30100003 4283109899
0.092005059 0.059438568 0.30100003 4283240971
0.092982709 0.059438568 0.30100003 4283306251
0.09396036 0.059438568 0.30100003 4283831825
0.094938003 0.059438568 0.30100003 4284357138
0.095915653 0.059438568 0.30100003 4284685331
0.097215205 0.059636038 0.30200002 4285210648
0.098196104 0.059636038 0.30200002 4284946963
0.099176995 0.059636038 0.30200002 4285013269
0.10015789 0.059636038 0.30200002 4284686619
0.089072116 0.060416546 0.30100003 4285950818
0.090049759 0.060416546 0.30100003 4282783510
0.091027409 0.060416546 0.30100003 4283372557
0.092005059 0.060416546 0.30100003 4283437835
0.092982709 0.060416546 0.30100003 4283634444
0.09396036 0.060416546 0.30100003 4283897103
0.094938003 0.060416546 0.30100003 4284422159
0.095915653 0.060416546 0.30100003 4289950309
0.096893303 0.060416546 0.30100003 4285935398
0.097870953 0.060416546 0.30100003 4284881683
0.099176995 0.060617261 0.30200002 4285078549
0.10015789 0.060617261 0.30200002 4284882455
0.063230306 0.06098659 0.29900002 4285102446
0.064201459 0.06098659 0.29900002 4285760376
0.089072116 0.061394528 0.30100003 4283181348
0.090049759 0.061394528 0.30100003 4283242518
0.091027409 0.061394528 0.30100003 4283372557
0.092005059 0.061394528 0.30100003 4283437835
0.092982709 0.061394528 0.30100003 4283700491
0.09396036 0.061394528 0.30100003 4283963150
0.094938003 0.061394528 0.30100003 4284685074
0.095915653 0.061394528 0.30100003 4284224778
0.096893303 0.061394528 0.30100003 4288765519
0.097870953 0.061394528 0.30100003 4285079062
0.098848604 0.061394528 0.30100003 4285078551
0.099826254 0.061394528 0.30100003 4284553490
0.1008039 0.061394528 0.30100003 4282915346
0.061083019 0.061750848 0.29800001 4284510049
0.062050927 0.061750848 0.29800001 4284773735
0.063230306 0.061958067 0.29900002 4284906091
0.064416178 0.062165283 0.30000001 4285037423
0.065390579 0.062165283 0.30000001 4285299311
0.089072116 0.062372506 0.30100003 4283373591
0.090049759 0.062372506 0.30100003 4283634962
0.091027409 0.062372506 0.30100003 4283634444
0.092005059 0.062372506 0.30100003 4283766030
0.092673793 0.062165283 0.30000001 4283831562
0.093648195 0.062165283 0.30000001 4283962378
0.094938003 0.062372506 0.30100003 4284290316
0.095915653 0.062372506 0.30100003 4284619281
0.096893303 0.062372506 0.30100003 4284618511
0.097870953 0.062372506 0.30100003 4285079062
0.098848604 0.062372506 0.30100003 4284948248
0.099826254 0.062372506 0.30100003 4284553490
0.1008039 0.062372506 0.30100003 4283374354
0.061083019 0.062719084 0.29800001 4284642149
0.062050927 0.062719084 0.29800001 4284905321
0.063230306 0.062929556 0.29900002 4285102700
0.064416178 0.06314002 0.30000001 4285168493
0.065390579 0.06314002 0.30000001 4285169009
0.089072116 0.063350484 0.30100003 4283831571
0.090049759 0.063350484 0.30100003 4283633933
0.091027409 0.063350484 0.30100003 4283896587
0.092005059 0.063350484 0.30100003 4283962380
0.092982709 0.063350484 0.30100003 4284028171
0.09396036 0.063350484 0.30100003 4283896585
0.094938003 0.063350484 0.30100003 4284224780
0.095915653 0.063350484 0.30100003 4284487952
0.096893303 0.063350484 0.30100003 4284290316
0.097870953 0.063350484 0.30100003 4284948246
0.098848604 0.063350484 0.30100003 4284619538
0.099826254 0.063350484 0.30100003 4284357138
0.1008039 0.063350484 0.30100003 4283505686
0.050436068 0.063687317 0.29800001 4282980879
0.051403977 0.063687317 0.29800001 4283241485
0.052371882 0.063687317 0.29800001 4282191109
0.054348152 0.06261874 0.29300001 4279439625
0.061083019 0.063687317 0.29800001 4284904805
0.062050927 0.063687317 0.29800001 4284905321
0.063230306 0.063901037 0.29900002 4285168239
0.064416178 0.064114749 0.30000001 4285168241
0.065390579 0.064114749 0.30000001 4285037423
0.066364981 0.064114749 0.30000001 4285037423
0.067339376 0.064114749 0.30000001 4285694583
0.087116823 0.064328469 0.30100003 4284499522
0.088094465 0.064328469 0.30100003 4283570968
0.089072116 0.064328469 0.30100003 4284027921
0.090049759 0.064328469 0.30100003 4284092942
0.091027409 0.064328469 0.30100003 4284028173
0.092005059 0.064328469 0.30100003 4284225550
0.092982709 0.064328469 0.30100003 4283962378
0.09396036 0.064328469 0.30100003 4283897355
0.094938003 0.064328469 0.30100003 4283832075
0.095915653 0.064328469 0.30100003 4283897868
0.096893303 0.064328469 0.30100003 4283897355
0.097870953 0.064328469 0.30100003 4284357138
0.098848604 0.064328469 0.30100003 4284160529
0.099826254 0.064328469 0.30100003 4283897870
0.048500262 0.06465555 0.29800001 4280030477
0.049468167 0.06465555 0.29800001 4282523670
0.050436068 0.06465555 0.29800001 4282915086
0.051403977 0.06465555 0.29800001 4283569423
0.052371882 0.06465555 0.29800001 4284162071
0.053339787 0.06465555 0.29800001 4281865228
0.054125451 0.064438581 0.29700002 4280225028
0.055090107 0.064438581 0.29700002 4279832583
0.062050927 0.06465555 0.29800001 4285036393
0.063230306 0.064872518 0.29900002 4284971632
0.064416178 0.065089479 0.30000001 4285037425
0.065390579 0.065089479 0.30000001 4285037425
0.066364981 0.065089479 0.30000001 4285103218
0.067339376 0.065089479 0.30000001 4285234802
0.068541497 0.065306447 0.30100003 4285366390
0.069519147 0.065306447 0.30100003 4285234802
0.087116823 0.065306447 0.30100003 4283438612
0.088094465 0.065306447 0.30100003 4284093714
0.089072116 0.065306447 0.30100003 4284093196
0.090049759 0.065306447 0.30100003 4284290318
0.091027409 0.065306447 0.30100003 4284158985
0.092005059 0.065306447 0.30100003 4284158985
0.092982709 0.065306447 0.30100003 4283765767
0.09396036 0.065306447 0.30100003 4283700489
0.094938003 0.065306447 0.30100003 4283373323
0.095915653 0.065306447 0.30100003 4283439886
0.096893303 0.065306447 0.30100003 4283833620
0.097870953 0.065306447 0.30100003 4283570448
0.098848604 0.065306447 0.30100003 4283898899
0.099826254 0.065306447 0.30100003 4283373841
0.048500262 0.065623783 0.29800001 4280491028
0.049468167 0.065623783 0.29800001 4282588436
0.050436068 0.065623783 0.29800001 4283308561
0.051403977 0.065623783 0.29800001 4283897103
0.052371882 0.065623783 0.29800001 4284160275
0.053339787 0.065623783 0.29800001 4284094995
0.054307688 0.065623783 0.29800001 4284029972
0.055090107 0.065403573 0.29700002 4284030999
0.056054767 0.065403573 0.29700002 4283373841
0.05701942 0.065403573 0.29700002 4283898901
0.057984076 0.065403573 0.29700002 4283635729
0.058948737 0.065403573 0.29700002 4283766800
0.059913389 0.065403573 0.29700002 4283897616
0.061083019 0.065623783 0.29800001 4284101673
0.062050927 0.065623783 0.29800001 4286213472
0.063230306 0.065843999 0.29900002 4284971630
0.064416178 0.066064209 0.30000001 4285037423
0.065390579 0.066064209 0.30000001 4285037425
0.066364981 0.066064209 0.30000001 4285234804
0.067339376 0.066064209 0.30000001 4285234802
0.068541497 0.066284426 0.30100003 4285169009
0.069519147 0.066284426 0.30100003 4285366388
0.070730999 0.066504642 0.30200002 4286220413
0.077854216 0.066724852 0.303 4283570966
0.078838356 0.066724852 0.303 4283636759
0.086139172 0.066284426 0.30100003 4283309590
0.087116823 0.066284426 0.30100003 4284225300
0.088387132 0.066504642 0.30200002 4284224528
0.08936803 0.066504642 0.30200002 4284421902
0.090348929 0.066504642 0.30200002 4284290316
0.091329828 0.066504642 0.30200002 4284224523
0.092310719 0.066504642 0.30200002 4284224780
0.093291618 0.066504642 0.30200002 4283569675
0.094272517 0.066504642 0.30200002 4283241737
0.094938003 0.066284426 0.30100003 4283045387
0.095915653 0.066284426 0.30100003 4282980364
0.096893303 0.066284426 0.30100003 4283177745
0.097870953 0.066284426 0.30100003 4283375124
0.098848604 0.066284426 0.30100003 4283309590
0.048500262 0.066592008 0.29800001 4280753687
0.049468167 0.066592008 0.29800001 4282654229
0.050436068 0.066592008 0.29800001 4283242768
0.051403977 0.066592008 0.29800001 4284161558
0.052371882 0.066592008 0.29800001 4284227351
0.053339787 0.066592008 0.29800001 4284291861
0.054307688 0.066592008 0.29800001 4284357138
0.055090107 0.06636855 0.29700002 4284685076
0.056054767 0.06636855 0.29700002 4285013271
0.05701942 0.06636855 0.29700002 4287254083
0.057984076 0.06636855 0.29700002 4285215013
0.058948737 0.06636855 0.29700002 4284357906
0.059913389 0.06636855 0.29700002 4284357136
0.061083019 0.066592008 0.29800001 4283964181
0.062050927 0.066592008 0.29800001 4284823083
0.064416178 0.067038938 0.30000001 4285233772
0.065390579 0.067038938 0.30000001 4285103216
0.066364981 0.067038938 0.30000001 4285234802
0.067339376 0.067038938 0.30000001 4285432181
0.068541497 0.067262404 0.30100003 4285169009
0.069519147 0.067262404 0.30100003 4285432435
0.070730999 0.067485869 0.30200002 4286023802
0.077854216 0.067709327 0.303 4283833108
0.078838356 0.067709327 0.303 4283964694
0.085444443 0.067485869 0.30200002 4283766548
0.086425342 0.067485869 0.30200002 4284356884
0.08740624 0.067485869 0.30200002 4284224782
0.088387132 0.067485869 0.30200002 4284487697
0.08936803 0.067485869 0.30200002 4284421902
0.090348929 0.067485869 0.30200002 4284487693
0.09163224 0.067709327 0.303 4284290314
0.092616387 0.067709327 0.303 4283962380
0.093291618 0.067485869 0.30200002 4282915086
0.094272517 0.067485869 0.30200002 4282454795
0.095253408 0.067485869 0.30200002 4282783760
0.096234307 0.067485869 0.30200002 4282849553
0.097215205 0.067485869 0.30200002 4282849553
0.097870953 0.067262404 0.30100003 4283245081
0.048663016 0.067786962 0.29900002 4281476896
0.04963417 0.067786962 0.29900002 4282852121
0.050436068 0.067560248 0.29800001 4283441430
0.051403977 0.067560248 0.29800001 4283899413
0.052371882 0.067560248 0.29800001 4284096278
0.053339787 0.067560248 0.29800001 4284226322
0.054307688 0.067560248 0.29800001 4284487954
0.055090107 0.067333534 0.29700002 4284815890
0.056054767 0.067333534 0.29700002 4286000162
0.056827433 0.067106821 0.296 4289294691
0.057788841 0.067106821 0.296 4284226320
0.058948737 0.067333534 0.29700002 4285078547
0.059913389 0.067333534 0.29700002 4284750097
0.061083019 0.067560248 0.29800001 4284422161
0.062050927 0.067560248 0.29800001 4283963150
0.064416178 0.068013668 0.30000001 4285487441
0.065390579 0.068013668 0.30000001 4285825396
0.066364981 0.068013668 0.30000001 4285234286
0.067339376 0.068013668 0.30000001 4285366388
0.068541497 0.068240389 0.30100003 4285234802
0.069519147 0.068240389 0.30100003 4285234802
0.070730999 0.068467095 0.30200002 4285365872
0.078111164 0.068920523 0.30400002 4283898386
0.078838356 0.068693802 0.303 4284029972
0.079822503 0.068693802 0.303 4284162071
0.08080665 0.068693802 0.303 4287130715
0.084463552 0.068467095 0.30200002 4284161819
0.085444443 0.068467095 0.30200002 4284487954
0.086425342 0.068467095 0.30200002 4284422161
0.08740624 0.068467095 0.30200002 4284421902
0.088387132 0.068467095 0.30200002 4284487695
0.089663945 0.068693802 0.303 4284487695
0.090648092 0.068693802 0.303 4284553488
0.09163224 0.068693802 0.303 4283963148
0.092616387 0.068693802 0.303 4282782215
0.093600526 0.068693802 0.303 4282193678
0.094584674 0.068693802 0.303 4284167983
0.095253408 0.068467095 0.30200002 4282986535
0.096234307 0.068467095 0.30200002 4282988332
0.097215205 0.068467095 0.30200002 4284570444
0.048663016 0.068758443 0.29900002 4282069547
0.04963417 0.068758443 0.29900002 4282851608
0.050605319 0.068758443 0.29900002 4283506969
0.051403977 0.068528473 0.29800001 4283899413
0.052371882 0.068528473 0.29800001 4284030739
0.053339787 0.068528473 0.29800001 4284029456
0.054125451 0.068298519 0.29700002 4284291345
0.055090107 0.068298519 0.29700002 4284553488
0.056054767 0.068298519 0.29700002 4285078547
0.056827433 0.068068549 0.296 4285079834
0.057788841 0.068068549 0.296 4284948505
0.058551773 0.067838594 0.29500002 4284946961
0.059913389 0.068298519 0.29700002 4284749582
0.061083019 0.068528473 0.29800001 4284750095
0.062050927 0.068528473 0.29800001 4284290316
0.063230306 0.068758443 0.29900002 4284487954
0.064416178 0.068988398 0.30000001 4284226583
0.065390579 0.068988398 0.30000001 4283773225
0.066364981 0.068988398 0.30000001 4286608232
0.067339376 0.068988398 0.30000001 4285102698
0.068541497 0.069218367 0.30100003 4285169263
0.069519147 0.069218367 0.30100003 4285366642
0.070730999 0.069448322 0.30200002 4285234802
0.078111164 0.069908246 0.30400002 4284357654
0.07909856 0.069908246 0.30400002 4284423447
0.079822503 0.069678284 0.303 4284686101
0.08080665 0.069678284 0.303 4284622361
0.081790797 0.069678284 0.303 4286733393
0.082774937 0.069678284 0.303 4283374874
0.083482653 0.069448322 0.30200002 4284488472
0.084463552 0.069448322 0.30200002 4284553747
0.085444443 0.069448322 0.30200002 4284619538
0.086425342 0.069448322 0.30200002 4284421902
0.087695666 0.069678284 0.303 4284553488
0.088679798 0.069678284 0.303 4284619281
0.089663945 0.069678284 0.303 4284356366
0.090947263 0.069908246 0.30400002 4284158987
0.091934659 0.069908246 0.30400002 4282782217
0.092922054 0.069908246 0.30400002 4282125832
0.09390945 0.069908246 0.30400002 4281668881
0.094584674 0.069678284 0.303 4285621083
0.095253408 0.069448322 0.30200002 4285693036
0.096234307 0.069448322 0.30200002 4285693806
0.097215205 0.069448322 0.30200002 4285759601
0.048663016 0.069729924 0.29900002 4281543716
0.04963417 0.069729924 0.29900002 4282786328
0.050605319 0.069729924 0.29900002 4283245081
0.051403977 0.069496706 0.29800001 4283440917
0.052371882 0.069496706 0.29800001 4283571731
0.053339787 0.069496706 0.29800001 4283898640
0.054125451 0.069263503 0.29700002 4283897357
0.055090107 0.069263503 0.29700002 4284421902
0.055866025 0.069030285 0.296 4284750097
0.056827433 0.069030285 0.296 4285276443
0.05759361 0.068797082 0.29500002 4289357406
0.058551773 0.068797082 0.29500002 4285475617
0.059308197 0.068563864 0.294 4284815888
0.060263112 0.068563864 0.294 4284487695
0.062050927 0.069496706 0.29800001 4284619281
0.063230306 0.069729924 0.29900002 4284553488
0.064416178 0.069963135 0.30000001 4284487952
0.065390579 0.069963135 0.30000001 4284421907
0.066364981 0.069963135 0.30000001 4284093714
0.068541497 0.070196345 0.30100003 4286935399
0.069519147 0.070196345 0.30100003 4286022003
0.070730999 0.070429556 0.30200002 4285496429
0.072186805 0.070895977 0.30400002 4285890419
0.073174201 0.070895977 0.30400002 4281935392
0.074161589 0.070895977 0.30400002 4284688156
0.075148985 0.070895977 0.30400002 4284423699
0.076136373 0.070895977 0.30400002 4284357136
0.077123769 0.070895977 0.30400002 4284357138
0.078111164 0.070895977 0.30400002 4284422931
0.07909856 0.070895977 0.30400002 4284685333
0.079822503 0.070662759 0.303 4284881683
0.08080665 0.070662759 0.303 4284750097
0.081790797 0.070662759 0.303 4284815890
0.082774937 0.070662759 0.303 4285013269
0.083759077 0.070662759 0.303 4284750099
0.084743224 0.070662759 0.303 4284815892
0.085727371 0.070662759 0.303 4284815890
0.086711518 0.070662759 0.303 4284685074
0.087695666 0.070662759 0.303 4284685074
0.088679798 0.070662759 0.303 4284685074
0.089959875 0.070895977 0.30400002 4284094736
0.090947263 0.070895977 0.30400002 4283373071
0.091934659 0.070895977 0.30400002 4282915346
0.092922054 0.070895977 0.30400002 4282062353
0.09390945 0.070895977 0.30400002 4286217329
0.094584674 0.070662759 0.303 4285758318
0.095568813 0.070662759 0.303 4285693808
0.096234307 0.070429556 0.30200002 4285891187
0.048663016 0.070701405 0.29900002 4280360725
0.04963417 0.070701405 0.29900002 4282327063
0.050605319 0.070701405 0.29900002 4282917914
0.051403977 0.070464939 0.29800001 4283179542
0.052371882 0.070464939 0.29800001 4283309842
0.053339787 0.070464939 0.29800001 4283569934
0.054125451 0.07022848 0.29700002 4283832077
0.055090107 0.07022848 0.29700002 4283963150
0.055866025 0.069992021 0.296 4284619281
0.056827433 0.069992021 0.296 4284487952
0.05759361 0.069755562 0.29500002 4284686101
0.058551773 0.069755562 0.29500002 4283895563
0.059509929 0.069755562 0.29500002 4284421904
0.060263112 0.069519103 0.294 4284224780
0.061218027 0.069519103 0.294 4284093194
0.063230306 0.070701405 0.29900002 4284224780
0.064416178 0.070937857 0.30000001 4284553745
0.065390579 0.070937857 0.30000001 4284487954
0.066364981 0.070937857 0.30000001 4284487954
0.067339376 0.070937857 0.30000001 4284685076
0.068541497 0.071174324 0.30100003 4284685076
0.069519147 0.071174324 0.30100003 4283700237
0.070730999 0.071410783 0.30200002 4284360484
0.072186805 0.071883701 0.30400002 4284956732
0.073174201 0.071883701 0.30400002 4284823347
0.074161589 0.071883701 0.30400002 4284554517
0.075148985 0.071883701 0.30400002 4284619536
0.076136373 0.071883701 0.30400002 4284553486
0.077123769 0.071883701 0.30400002 4284619279
0.078111164 0.071883701 0.30400002 4284685072
0.078838356 0.071647234 0.303 4284684304
0.079822503 0.071647234 0.303 4284815377
0.08080665 0.071647234 0.303 4284946963
0.081790797 0.071647234 0.303 4284881683
0.082774937 0.071647234 0.303 4284815890
0.083759077 0.071647234 0.303 4284881683
0.084743224 0.071647234 0.303 4285079062
0.085727371 0.071647234 0.303 4285079062
0.086711518 0.071647234 0.303 4284882453
0.087985091 0.071883701 0.30400002 4284685074
0.088972479 0.071883701 0.30400002 4284291345
0.089959875 0.071883701 0.30400002 4282716940
0.090947263 0.071883701 0.30400002 4282585869
0.09223707 0.07212016 0.30500001 4284238140
0.093227714 0.07212016 0.30500001 4286283117
0.09390945 0.071883701 0.30400002 4285956212
0.047691863 0.071672887 0.29900002 4279441938
0.048663016 0.071672887 0.29900002 4279835410
0.04963417 0.071672887 0.29900002 4282131226
0.050605319 0.071672887 0.29900002 4282524701
0.051403977 0.071433172 0.29800001 4282851608
0.052371882 0.071433172 0.29800001 4282916116
0.053339787 0.071433172 0.29800001 4283307276
0.054125451 0.071193472 0.29700002 4283569421
0.055090107 0.071193472 0.29700002 4283832075
0.055866025 0.070953757 0.296 4283897355
0.056827433 0.070953757 0.296 4284226320
0.05759361 0.070714049 0.29500002 4284161040
0.058551773 0.070714049 0.29500002 4283963148
0.059509929 0.070714049 0.29500002 4284093966
0.060263112 0.070474342 0.294 4283962380
0.061218027 0.070474342 0.294 4283765771
0.063230306 0.071672887 0.29900002 4283832077
0.064416178 0.071912594 0.30000001 4284226581
0.065390579 0.071912594 0.30000001 4284357908
0.066364981 0.071912594 0.30000001 4284422931
0.067339376 0.071912594 0.30000001 4284619283
0.068541497 0.072152302 0.30100003 4284619283
0.069519147 0.072152302 0.30100003 4284750099
0.070730999 0.072392009 0.30200002 4284881685
0.072186805 0.072871432 0.30400002 4284815892
0.073174201 0.072871432 0.30400002 4284684306
0.074161589 0.072871432 0.30400002 4284881683
0.075148985 0.072871432 0.30400002 4284815888
0.076136373 0.072871432 0.30400002 4284815375
0.077123769 0.072871432 0.30400002 4284749582
0.078111164 0.072871432 0.30400002 4284815377
0.078838356 0.072631717 0.303 4284881168
0.079822503 0.072631717 0.303 4284815375
0.08080665 0.072631717 0.303 4284881168
0.081790797 0.072631717 0.303 4284946961
0.082774937 0.072631717 0.303 4285144853
0.083759077 0.072631717 0.303 4284422157
0.085022911 0.072871432 0.30400002 4285343259
0.086010307 0.072871432 0.30400002 4284948244
0.086997695 0.072871432 0.30400002 4284553486
0.087985091 0.072871432 0.30400002 4283964433
0.088972479 0.072871432 0.30400002 4282717194
0.089959875 0.072871432 0.30400002 4282062092
0.091246434 0.073111132 0.30500001 4286211676
0.09223707 0.073111132 0.30500001 4285889386
0.093227714 0.073111132 0.30500001 4286021488
0.047691863 0.072644368 0.29900002 4279573524
0.048663016 0.072644368 0.29900002 4279506961
0.04963417 0.072644368 0.29900002 4280884241
0.050605319 0.072644368 0.29900002 4282395168
0.051403977 0.072401412 0.29800001 4282524955
0.052371882 0.072401412 0.29800001 4282588949
0.053339787 0.072401412 0.29800001 4282717453
0.054125451 0.072158456 0.29700002 4282848010
0.055090107 0.072158456 0.29700002 4283438348
0.055866025 0.071915492 0.296 4283504395
0.056827433 0.071915492 0.296 4283701774
0.05759361 0.071672536 0.29500002 4283767054
0.058551773 0.071672536 0.29500002 4283832077
0.059509929 0.071672536 0.29500002 4283963150
0.060468093 0.071672536 0.29500002 4283897870
0.061218027 0.071429573 0.294 4283569421
0.063230306 0.072644368 0.29900002 4282390287
0.064416178 0.072887324 0.30000001 4282129684
0.065390579 0.072887324 0.30000001 4283833620
0.066364981 0.072887324 0.30000001 4284424984
0.067339376 0.072887324 0.30000001 4284554517
0.068541497 0.073130287 0.30100003 4284619540
0.069519147 0.073130287 0.30100003 4284750099
0.070730999 0.073373243 0.30200002 4284750099
0.072186805 0.073859155 0.30400002 4284749586
0.073174201 0.073859155 0.30400002 4284815377
0.074161589 0.073859155 0.30400002 4284946963
0.075148985 0.073859155 0.30400002 4284815377
0.076136373 0.073859155 0.30400002 4284946193
0.077123769 0.073859155 0.30400002 4285209365
0.078111164 0.073859155 0.30400002 4285209365
0.078578167 0.073373243 0.30200002 4284946963
0.079559065 0.073373243 0.30200002 4284946963
0.080539964 0.073373243 0.30200002 4284946963
0.081790797 0.073616199 0.303 4284684556
0.082774937 0.073616199 0.303 4288503376
0.083759077 0.073616199 0.303 4291337620
0.085022911 0.073859155 0.30400002 4286002994
0.086010307 0.073859155 0.30400002 4284093964
0.086997695 0.073859155 0.30400002 4283504395
0.087985091 0.073859155 0.30400002 4282388742
0.088972479 0.073859155 0.30400002 4282127117
0.089959875 0.073859155 0.30400002 4286348658
0.090947263 0.073859155 0.30400002 4285824622
0.09223707 0.074102111 0.30500001 4286021488
0.047691863 0.073615849 0.29900002 4279573524
0.048663016 0.073615849 0.29900002 4279507731
0.04963417 0.073615849 0.29900002 4279769360
0.050436068 0.073369637 0.29800001 4281477408
0.051403977 0.073369637 0.29800001 4282592799
0.052371882 0.073369637 0.29800001 4282524953
0.053339787 0.073369637 0.29800001 4282456850
0.054125451 0.073123433 0.29700002 4282652944
0.055090107 0.073123433 0.29700002 4282915086
0.055866025 0.072877221 0.296 4282782987
0.056827433 0.072877221 0.296 4283308046
0.057788841 0.072877221 0.296 4283570448
0.058551773 0.072631024 0.29500002 4283766800
0.059509929 0.072631024 0.29500002 4283766800
0.060468093 0.072631024 0.29500002 4283834392
0.061218027 0.072384812 0.294 4283113497
0.063230306 0.073615849 0.29900002 4286218097
0.064416178 0.073862053 0.30000001 4285693808
0.065390579 0.073862053 0.30000001 4285624167
0.066364981 0.073862053 0.30000001 4282262814
0.067339376 0.073862053 0.30000001 4284096278
0.068541497 0.074108265 0.30100003 4284687132
0.069519147 0.074108265 0.30100003 4284948505
0.070730999 0.07435447 0.30200002 4284882455
0.072186805 0.074846886 0.30400002 4284881683
0.073174201 0.074846886 0.30400002 4284946961
0.074161589 0.074846886 0.30400002 4284946961
0.075148985 0.074846886 0.30400002 4285078547
0.076136373 0.074846886 0.30400002 4285011984
0.077123769 0.074846886 0.30400002 4285077777
0.076826438 0.073615849 0.29900002 4285077777
0.078317977 0.074108265 0.30100003 4285340949
0.079295628 0.074108265 0.30100003 4285144340
0.080539964 0.07435447 0.30200002 4285210133
0.081520863 0.07435447 0.30200002 4285275926
0.082774937 0.074600674 0.303 4284421130
0.083759077 0.074600674 0.303 4284094997
0.085022911 0.074846886 0.30400002 4283964694
0.086010307 0.074846886 0.30400002 4282257418
0.086997695 0.074846886 0.30400002 4282257418
0.087985091 0.074846886 0.30400002 4281866258
0.088972479 0.074846886 0.30400002 4287069553
0.089959875 0.074846886 0.30400002 4285825396
0.090947263 0.074846886 0.30400002 4285825396
0.047691863 0.07458733 0.29900002 4279705110
0.048663016 0.07458733 0.29900002 4279639317
0.04963417 0.07458733 0.29900002 4279835926
0.050436068 0.07433787 0.29800001 4279836180
0.051403977 0.07433787 0.29800001 4280490253
0.052371882 0.07433787 0.29800001 4281738006
0.053339787 0.07433787 0.29800001 4282261781
0.054125451 0.074088417 0.29700002 4281997326
0.055090107 0.074088417 0.29700002 4282324492
0.056054767 0.074088417 0.29700002 4282521871
0.056827433 0.073838957 0.296 4282586381
0.057788841 0.073838957 0.296 4282915346
0.058750253 0.073838957 0.296 4283374354
0.059711657 0.073838957 0.296 4283704089
0.060468093 0.073589511 0.29500002 4283508766
0.061634477 0.073838957 0.296 4284761404
0.063230306 0.07458733 0.29900002 4286285177
0.064416178 0.074836783 0.30000001 4285168493
0.065390579 0.074836783 0.30000001 4285168239
0.066364981 0.074836783 0.30000001 4285759862
0.067339376 0.074836783 0.30000001 4285559142
0.068541497 0.075086243 0.30100003 4282922026
0.069519147 0.075086243 0.30100003 4283505686
0.070730999 0.075335696 0.30200002 4284162071
0.072186805 0.07583461 0.30400002 4284817687
0.073174201 0.07583461 0.30400002 4284948503
0.074161589 0.07583461 0.30400002 4284882453
0.075148985 0.07583461 0.30400002 4284750867
0.074884132 0.07458733 0.29900002 4285079060
0.075855285 0.07458733 0.29900002 4285078547
0.076826438 0.07458733 0.29900002 4285078547
0.078057781 0.074836783 0.30000001 4285211418
0.079295628 0.075086243 0.30100003 4285869346
0.080273278 0.075086243 0.30100003 4285079314
0.081520863 0.075335696 0.30200002 4285078801
0.082774937 0.075585149 0.303 4284749582
0.083759077 0.075585149 0.303 4283963150
0.085022911 0.07583461 0.30400002 4282847756
0.086010307 0.07583461 0.30400002 4281996301
0.086997695 0.07583461 0.30400002 4281602056
0.087985091 0.07583461 0.30400002 4286480494
0.088972479 0.07583461 0.30400002 4285759601
0.089959875 0.07583461 0.30400002 4285891189
0.090947263 0.07583461 0.30400002 4285759603
0.047691863 0.075558811 0.29900002 4279244559
0.048663016 0.075558811 0.29900002 4279112973
0.049468167 0.075306103 0.29800001 4279376145
0.050436068 0.075306103 0.29800001 4279178766
0.051403977 0.075306103 0.29800001 4279703567
0.052371882 0.075306103 0.29800001 4280163346
0.053339787 0.075306103 0.29800001 4281015827
0.054125451 0.075053401 0.29700002 4281342994
0.055090107 0.075053401 0.29700002 4281801232
0.056054767 0.075053401 0.29700002 4281800719
0.05701942 0.075053401 0.29700002 4282194193
0.057788841 0.074800692 0.296 4282128400
0.058750253 0.074800692 0.296 4282457365
0.059711657 0.074800692 0.296 4283905325
0.060673065 0.074800692 0.296 4282062607
0.061634477 0.074800692 0.296 4281931021
0.063230306 0.075558811 0.29900002 4280946189
0.064416178 0.075811513 0.30000001 4283119670
0.065390579 0.075811513 0.30000001 4285889136
0.066364981 0.075811513 0.30000001 4285693810
0.067339376 0.075811513 0.30000001 4285299311
0.068541497 0.076064222 0.30100003 4285431151
0.069519147 0.076064222 0.30100003 4286285175
0.070730999 0.076316923 0.30200002 4285690983
0.072186805 0.076822333 0.30400002 4284173630
0.073174201 0.076822333 0.30400002 4282920479
0.072941832 0.075558811 0.29900002 4283242255
0.073912986 0.075558811 0.29900002 4283831823
0.074884132 0.075558811 0.29900002 4284225552
0.075855285 0.075558811 0.29900002 4284422161
0.076826438 0.075558811 0.29900002 4284420621
0.078057781 0.075811513 0.30000001 4285736994
0.079032183 0.075811513 0.30000001 4290874504
0.080273278 0.076064222 0.30100003 4284160275
0.081520863 0.076316923 0.30200002 4285011984
0.082501754 0.076316923 0.30200002 4284815375
0.083759077 0.076569624 0.303 4284357136
0.084743224 0.076569624 0.303 4284294171
0.086010307 0.076822333 0.30400002 4281340168
0.086997695 0.076822333 0.30400002 4286609514
0.087985091 0.076822333 0.30400002 4285825392
0.088972479 0.076822333 0.30400002 4285891187
0.089959875 0.076822333 0.30400002 4285825907
0.090947263 0.076822333 0.30400002 4285760114
0.047691863 0.076530293 0.29900002 4279375375
0.048500262 0.076274335 0.29800001 4279375375
0.049468167 0.076274335 0.29800001 4279309582
0.050436068 0.076274335 0.29800001 4279309582
0.051403977 0.076274335 0.29800001 4279375375
0.052371882 0.076274335 0.29800001 4279638547
0.053339787 0.076274335 0.29800001 4279835151
0.054125451 0.076018386 0.29700002 4279900944
0.055090107 0.076018386 0.29700002 4280162061
0.056054767 0.076018386 0.29700002 4281147413
0.05701942 0.076018386 0.29700002 4283516731
0.057984076 0.076018386 0.29700002 4285754466
0.058948737 0.076018386 0.29700002 4284835419
0.059711657 0.075762428 0.296 4283387201
0.060673065 0.075762428 0.296 4282659369
0.061634477 0.075762428 0.296 4281933847
0.063230306 0.076530293 0.29900002 4282326039
0.064416178 0.07678625 0.30000001 4282194453
0.065390579 0.07678625 0.30000001 4281932053
0.066364981 0.07678625 0.30000001 4281208589
0.067339376 0.07678625 0.30000001 4282923570
0.068541497 0.077042207 0.30100003 4285229407
0.069519147 0.077042207 0.30100003 4286022005
0.070730999 0.077298157 0.30200002 4286350968
0.072186805 0.077810064 0.30400002 4286219121
0.073174201 0.077810064 0.30400002 4286350707
0.072941832 0.076530293 0.29900002 4287069551
0.073912986 0.076530293 0.29900002 4281600771
0.074884132 0.076530293 0.29900002 4283503630
0.075855285 0.076530293 0.29900002 4283962896
0.076826438 0.076530293 0.29900002 4284618513
0.078057781 0.07678625 0.30000001 4284750099
0.079032183 0.07678625 0.30000001 4286329647
0.080273278 0.077042207 0.30100003 4284684052
0.081250928 0.077042207 0.30100003 4285077779
0.082501754 0.077298157 0.30200002 4284946193
0.083482653 0.077298157 0.30200002 4284487695
0.084743224 0.077554107 0.303 4284227353
0.085727371 0.077554107 0.303 4286281064
0.086997695 0.077810064 0.30400002 4285824624
0.087985091 0.077810064 0.30400002 4285891189
0.088972479 0.077810064 0.30400002 4285956982
0.089959875 0.077810064 0.30400002 4286154361
0.090947263 0.077810064 0.30400002 4285956982
0.048500262 0.077242576 0.29800001 4279506961
0.049468167 0.077242576 0.29800001 4279506961
0.050436068 0.077242576 0.29800001 4279309582
0.051403977 0.077242576 0.29800001 4279375375
0.052371882 0.077242576 0.29800001 4279572754
0.053339787 0.077242576 0.29800001 4279638547
0.054307688 0.077242576 0.29800001 4279638801
0.055090107 0.07698337 0.29700002 4279309836
0.056054767 0.07698337 0.29700002 4279835410
0.05701942 0.07698337 0.29700002 4281677614
0.057984076 0.07698337 0.29700002 4285100903
0.058948737 0.07698337 0.29700002 4284707428
0.059913389 0.07698337 0.29700002 4284839014
0.060878046 0.07698337 0.29700002 4285364845
0.061842706 0.07698337 0.29700002 4285562222
0.063230306 0.077501781 0.29900002 4286416246
0.064416178 0.07776098 0.30000001 4285361763
0.065390579 0.07776098 0.30000001 4282857264
0.066364981 0.07776098 0.30000001 4281473044
0.067339376 0.07776098 0.30000001 4282129432
0.068541497 0.078020185 0.30100003 4281865490
0.069519147 0.078020185 0.30100003 4281340429
0.070730999 0.078279383 0.30200002 4280617222
0.072186805 0.078797795 0.30400002 4280749323
0.072211385 0.07776098 0.30000001 4281210642
0.073185779 0.07776098 0.30000001 4281604623
0.074160181 0.07776098 0.30000001 4282391057
0.074884132 0.077501781 0.29900002 4283372555
0.075855285 0.077501781 0.29900002 4284093712
0.076826438 0.077501781 0.29900002 4284487697
0.078057781 0.07776098 0.30000001 4284553490
0.079032183 0.07776098 0.30000001 4284750099
0.080006585 0.07776098 0.30000001 4285078551
0.081250928 0.078020185 0.30100003 4285144344
0.082501754 0.078279383 0.30200002 4284684304
0.083482653 0.078279383 0.30200002 4284093966
0.084743224 0.078538589 0.303 4283110669
0.085727371 0.078538589 0.303 4286481271
0.086711518 0.078538589 0.303 4285891189
0.087695666 0.078538589 0.303 4285891189
0.088972479 0.078797795 0.30400002 4286220154
0.089959875 0.078797795 0.30400002 4286220154
0.090947263 0.078797795 0.30400002 4286022775
0.049468167 0.078210801 0.29800001 4279507731
0.050436068 0.078210801 0.29800001 4279244561
0.051403977 0.078210801 0.29800001 4279309582
0.052371882 0.078210801 0.29800001 4279638547
0.053339787 0.078210801 0.29800001 4279506961
0.054307688 0.078210801 0.29800001 4279375375
0.055090107 0.077948347 0.29700002 4279572754
0.056054767 0.077948347 0.29700002 4279967512
0.05701942 0.077948347 0.29700002 4281745208
0.057984076 0.077948347 0.29700002 4284378211
0.058948737 0.077948347 0.29700002 4284575590
0.059913389 0.077948347 0.29700002 4284905067
0.060878046 0.077948347 0.29700002 4285299565
0.061842706 0.077948347 0.29700002 4285496944
0.063230306 0.078473255 0.29900002 4285694323
0.064416178 0.078735702 0.30000001 4285694323
0.065390579 0.078735702 0.30000001 4285825909
0.066364981 0.078735702 0.30000001 4286549632
0.067339376 0.078735702 0.30000001 4284241999
0.068541497 0.078998163 0.30100003 4281737500
0.069519147 0.078998163 0.30100003 4282195223
0.070730999 0.07926061 0.30200002 4281668879
0.07147444 0.078998163 0.30100003 4282062353
0.072211385 0.078735702 0.30000001 4282260246
0.073185779 0.078735702 0.30000001 4282326291
0.074160181 0.078735702 0.30000001 4282391057
0.075134575 0.078735702 0.30000001 4283308048
0.076108977 0.078735702 0.30000001 4283635727
0.077083379 0.078735702 0.30000001 4284225552
0.078057781 0.078735702 0.30000001 4284093966
0.079032183 0.078735702 0.30000001 4284422161
0.080006585 0.078735702 0.30000001 4284487697
0.081250928 0.078998163 0.30100003 4284619283
0.082228571 0.078998163 0.30100003 4284290318
0.083482653 0.07926061 0.30200002 4283832077
0.084463552 0.07926061 0.30200002 4283245083
0.085727371 0.079523057 0.303 4286087281
0.086711518 0.079523057 0.303 4286087796
0.07147444 0.079976141 0.30100003 4282260500
0.072452091 0.079976141 0.30100003 4282918430
0.073185779 0.079710439 0.30000001 4282655256
0.074160181 0.079710439 0.30000001 4282456848
0.075134575 0.079710439 0.30000001 4282782733
0.076108977 0.079710439 0.30000001 4283176975
0.077083379 0.079710439 0.30000001 4283833106
0.078057781 0.079710439 0.30000001 4283964692
0.079032183 0.079710439 0.30000001 4283831823
0.080006585 0.079710439 0.30000001 4283962896
0.081250928 0.079976141 0.30100003 4284094482
0.082228571 0.079976141 0.30100003 4283831823
0.083482653 0.080241837 0.30200002 4283243286
0.084463552 0.080241837 0.30200002 4286343262
0.072452091 0.080954127 0.30100003 4281408535
0.073185779 0.080685169 0.30000001 4282457877
0.074160181 0.080685169 0.30000001 4282457363
0.075134575 0.080685169 0.30000001 4282521871
0.076108977 0.080685169 0.30000001 4282850323
0.077083379 0.080685169 0.30000001 4283046418
0.078057781 0.080685169 0.30000001 4283177491
0.079032183 0.080685169 0.30000001 4283373587
0.080006585 0.080685169 0.30000001 4283637013
0.080980986 0.080685169 0.30000001 4283439634
0.082228571 0.080954127 0.30100003 4283768599
0.072452091 0.081932105 0.30100003 4286154107
0.073429734 0.081932105 0.30100003 4285030997
0.074160181 0.081659898 0.30000001 4282000924
0.075134575 0.081659898 0.30000001 4282326293
0.076108977 0.081659898 0.30000001 4282523156
0.077083379 0.081659898 0.30000001 4282850325
0.078057781 0.081659898 0.30000001 4282981141
0.079032183 0.081659898 0.30000001 4283111698
0.080006585 0.081659898 0.30000001 4283111698
0.080980986 0.081659898 0.30000001 4283506971
0.074160181 0.082634635 0.30000001 4286089081
0.075134575 0.082634635 0.30000001 4285097819
0.076108977 0.082634635 0.30000001 4282923309
0.077083379 0.082634635 0.30000001 4282327574
0.078057781 0.082634635 0.30000001 4282786842
0.079032183 0.082634635 0.30000001 4282523156
0.080006585 0.082634635 0.30000001 4282457879
0.074011378 0.058235873 0.29857114 4294967295
0.074011378 0.058235873 0.29857114 4294901760
0.074011378 0.057739597 0.29851022 4294901760
0.074011378 0.057243321 0.29844931 4294901760
0.074011378 0.056747045 0.29838839 4294901760
0.074011378 0.05625077 0.29832748 4294901760
0.074011378 0.055754498 0.29826656 4294901760
0.074011378 0.055258222 0.29820564 4294901760
0.074011378 0.054761946 0.29814473 4294901760
0.074011378 0.05426567 0.29808381 4294901760
0.074011378 0.053769395 0.2980229 4294901760
0.074011378 0.053273119 0.29796198 4294901760
0.074011378 0.052776843 0.29790106 4294901760
0.074011378 0.052280568 0.29784015 4294901760
0.074011378 0.051784292 0.29777923 4294901760
0.074011378 0.051288016 0.29771832 4294901760
0.074011378 0.050791744 0.2976574 4294901760
0.074011378 0.050295468 0.29759648 4294901760
0.074011378 0.049799193 0.29753557 4294901760
0.074011378 0.049302917 0.29747465 4294901760
0.074011378 0.048806641 0.29741374 4294901760
0.074011378 0.048310366 0.29735282 4294901760
0.074011378 0.047814094 0.2972919 4294901760
0.074011378 0.047317818 0.29723099 4294901760
0.074011378 0.046821542 0.29717007 4294901760
0.074011378 0.046325266 0.29710916 4294901760
0.074011378 0.045828991 0.29704821 4294901760
0.074011378 0.045332715 0.2969873 4294901760
0.074011378 0.044836439 0.29692638 4294901760
0.074011378 0.044340163 0.29686546 4294901760
0.074011378 0.043843888 0.29680455 4294901760
0.074011378 0.043347612 0.29674363 4294901760
0.074011378 0.042851336 0.29668272 4294901760
0.074011378 0.042355061 0.2966218 4294901760
0.074011378 0.041858785 0.29656088 4294901760
0.074011378 0.041362509 0.29649997 4294901760
0.074011378 0.040866237 0.29643905 4294901760
0.074011378 0.040369961 0.29637814 4294901760
0.074011378 0.039873686 0.29631722 4294901760
0.074011378 0.03937741 0.2962563 4294901760
0.074011378 0.038881138 0.29619539 4294901760
0.074011378 0.038384862 0.29613447 4294901760
0.074011378 0.037888587 0.29607356 4294901760
0.074011378 0.037392311 0.29601264 4294901760
0.074011378 0.036896035 0.29595172 4294901760
0.074011378 0.036399759 0.29589081 4294901760
0.074011378 0.035903484 0.29582989 4294901760
0.074011378 0.035407208 0.29576898 4294901760
0.074011378 0.034910932 0.29570806 4294901760
0.074011378 0.034414656 0.29564714 4294901760
0.074011378 0.033918381 0.29558623 4294901760
0.074011378 0.033422105 0.29552531 4294901760
0.074011378 0.032925829 0.2954644 4294901760
0.074011378 0.032429557 0.29540348 4294901760
0.074011378 0.031933282 0.29534256 4294901760
0.074011378 0.031437002 0.29528165 4294901760
0.074011378 0.03094073 0.29522073 4294901760
0.074011378 0.030444454 0.29515982 4294901760
0.074011378 0.029948181 0.2950989 4294901760
0.074011378 0.029451905 0.29503798 4294901760
0.074011378 0.028955631 0.29497707 4294901760
0.074011378 0.028459353 0.29491615 4294901760
0.074011378 0.027963078 0.29485524 4294901760
0.074011378 0.027466804 0.29479432 4294901760
0.074011378 0.026970528 0.29473341 4294901760
0.074011378 0.026474252 0.29467249 4294901760
0.074011378 0.025977977 0.29461157 4294901760
0.074011378 0.025481701 0.29455066 4294901760
0.074011378 0.024985425 0.29448974 4294901760
0.074011378 0.024489149 0.29442883 4294901760
0.074011378 0.023992877 0.29436791 4294901760
0.074011378 0.023496602 0.29430699 4294901760
0.074011378 0.023000326 0.29424608 4294901760
0.074011378 0.02250405 0.29418516 4294901760
0.074011378 0.022007775 0.29412425 4294901760
0.074011378 0.021511499 0.29406333 4294901760
0.074011378 0.021015223 0.29400241 4294901760
0.074011378 0.020518947 0.29394147 4294901760
0.074011378 0.020022675 0.29388055 4294901760
0.074011378 0.0195264 0.29381964 4294901760
0.074011378 0.01903012 0.29375872 4294901760
0.074011378 0.018533848 0.2936978 4294901760
0.074011378 0.018037573 0.29363689 4294901760
0.074011378 0.017541297 0.29357597 4294901760
0.074011378 0.017045021 0.29351506 4294901760
0.074011378 0.016548749 0.29345414 4294901760
0.074011378 0.01605247 0.29339322 4294901760
0.074011378 0.015556194 0.29333231 4294901760
0.074011378 0.015059922 0.29327139 4294901760
0.074011378 0.014563646 0.29321048 4294901760
0.074011378 0.01406737 0.29314956 4294901760
0.074011378 0.013571095 0.29308864 4294901760
0.074011378 0.013074819 0.29302773 4294901760
0.074011378 0.012578543 0.29296681 4294901760
0.074011378 0.012082268 0.2929059 4294901760
0.074011378 0.011585992 0.29284498 4294901760
0.074011378 0.01108972 0.29278407 4294901760
0.074011378 0.010593444 0.29272315 4294901760
0.074011378 0.010097165 0.29266223 4294901760
0.074011378 0.0096008927 0.29260132 4294901760
0.074011378 0.0091046169 0.2925404 4294901760
0.074011378 0.0086083412 0.29247949 4294901760
0.074011378 0.058235873 0.29857114 4278255360
0.074505351 0.058226444 0.29864797 4278255360
0.074999325 0.058217011 0.2987248 4278255360
0.075493291 0.058207583 0.29880163 4278255360
0.075987265 0.05819815 0.29887846 4278255360
0.076481238 0.058188722 0.29895529 4278255360
0.076975212 0.058179289 0.29903212 4278255360
0.077469185 0.05816986 0.29910895 4278255360
0.077963151 0.058160428 0.29918575 4278255360
0.078457125 0.058150999 0.29926258 4278255360
0.078951098 0.058141567 0.29933941 4278255360
0.079445072 0.058132138 0.29941624 4278255360
0.079939045 0.058122706 0.29949307 4278255360
0.080433011 0.058113277 0.2995699 4278255360
0.080926985 0.058103845 0.29964674 4278255360
0.081420958 0.058094416 0.29972357 4278255360
0.081914932 0.058084983 0.2998004 4278255360
0.082408905 0.058075555 0.29987723 4278255360
0.082902879 0.058066122 0.29995406 4278255360
0.083396845 0.058056694 0.30003089 4278255360
0.083890818 0.058047261 0.30010772 4278255360
0.084384792 0.058037832 0.30018455 4278255360
0.084878765 0.0580284 0.30026135 4278255360
0.085372739 0.058018971 0.30033818 4278255360
0.085866705 0.058009539 0.30041501 4278255360
0.086360678 0.05800011 0.30049184 4278255360
0.086854652 0.057990681 0.30056867 4278255360
0.087348625 0.057981249 0.3006455 4278255360
0.087842599 0.05797182 0.30072233 4278255360
0.088336565 0.057962388 0.30079916 4278255360
0.088830538 0.057952959 0.30087599 4278255360
0.089324512 0.057943527 0.30095282 4278255360
0.089818485 0.057934098 0.30102965 4278255360
0.090312459 0.057924666 0.30110648 4278255360
0.090806425 0.057915237 0.30118331 4278255360
0.091300398 0.057905804 0.30126014 4278255360
0.091794372 0.057896376 0.30133694 4278255360
0.092288345 0.057886943 0.30141377 4278255360
0.092782319 0.057877515 0.3014906 4278255360
0.093276292 0.057868082 0.30156744 4278255360
0.093770266 0.057858653 0.30164427 4278255360
0.094264232 0.057849221 0.3017211 4278255360
0.094758205 0.057839792 0.30179793 4278255360
0.095252179 0.05783036 0.30187476 4278255360
0.095746145 0.057820931 0.30195159 4278255360
0.096240118 0.057811499 0.30202842 4278255360
0.096734092 0.05780207 0.30210525 4278255360
0.097228065 0.057792637 0.30218208 4278255360
0.097722039 0.057783209 0.30225891 4278255360
0.098216012 0.057773776 0.30233574 4278255360
0.098709986 0.057764348 0.30241257 4278255360
0.099203952 0.057754919 0.30248937 4278255360
0.099697925 0.057745486 0.3025662 4278255360
0.1001919 0.057736058 0.30264303 4278255360
0.10068587 0.057726625 0.30271986 4278255360
0.10117985 0.057717197 0.30279669 4278255360
0.10167381 0.057707764 0.30287352 4278255360
0.10216779 0.057698335 0.30295035 4278255360
0.10266176 0.057688903 0.30302718 4278255360
0.10315573 0.057679474 0.30310401 4278255360
0.10364971 0.057670042 0.30318084 4278255360
0.10414368 0.057660613 0.30325767 4278255360
0.10463765 0.057651181 0.3033345 4278255360
0.10513162 0.057641752 0.30341133 4278255360
0.10562558 0.05763232 0.30348817 4278255360
0.10611956 0.057622891 0.30356497 4278255360
0.10661353 0.057613458 0.3036418 4278255360
0.10710751 0.05760403 0.30371863 4278255360
0.10760148 0.057594597 0.30379546 4278255360
0.10809545 0.057585169 0.30387229 4278255360
0.10858943 0.057575736 0.30394912 4278255360
0.1090834 0.057566307 0.30402595 4278255360
0.10957737 0.057556875 0.30410278 4278255360
0.11007135 0.057547446 0.30417961 4278255360
0.11056531 0.057538014 0.30425644 4278255360
0.11105929 0.057528585 0.30433327 4278255360
0.11155325 0.057519156 0.3044101 4278255360
0.11204723 0.057509724 0.30448693 4278255360
0.1125412 0.057500295 0.30456376 4278255360
0.11303517 0.057490863 0.30464056 4278255360
0.11352915 0.057481434 0.30471739 4278255360
0.11402312 0.057472002 0.30479422 4278255360
0.11451709 0.057462573 0.30487105 4278255360
0.11501106 0.057453141 0.30494788 4278255360
0.11550503 0.057443712 0.30502471 4278255360
0.11599901 0.057434279 0.30510154 4278255360
0.11649298 0.057424851 0.30517837 4278255360
0.11698695 0.057415418 0.3052552 4278255360
0.11748092 0.05740599 0.30533203 4278255360
0.11797489 0.057396557 0.30540887 4278255360
0.11846887 0.057387128 0.3054857 4278255360
0.11896284 0.057377696 0.30556253 4278255360
0.11945681 0.057368267 0.30563936 4278255360
0.11995079 0.057358835 0.30571616 4278255360
0.12044475 0.057349406 0.30579299 4278255360
0.12093873 0.057339974 0.30586982 4278255360
0.12143269 0.057330545 0.30594665 4278255360
0.12192667 0.057321113 0.30602348 4278255360
0.12242064 0.057311684 0.30610031 4278255360
0.12291461 0.057302251 0.30617714 4278255360
0.12340859 0.057292823 0.30625397 4278255360
0.074011378 0.058235873 0.29857114 4278190335
0.073933974 0.05817569 0.29906142 4278190335
0.07385657 0.058115508 0.29955173 4278190335
0.073779166 0.058055326 0.300042 4278190335
0.073701754 0.057995144 0.30053231 4278190335
0.07362435 0.057934962 0.30102259 4278190335
0.073546946 0.05787478 0.3015129 4278190335
0.073469542 0.057814598 0.30200318 4278190335
0.073392138 0.057754416 0.30249348 4278190335
0.073314734 0.057694234 0.30298376 4278190335
0.07323733 0.057634052 0.30347407 4278190335
0.073159926 0.05757387 0.30396435 4278190335
0.073082514 0.057513688 0.30445465 4278190335
0.07300511 0.057453506 0.30494493 4278190335
0.072927706 0.057393324 0.30543524 4278190335
0.072850302 0.057333142 0.30592552 4278190335
0.072772898 0.05727296 0.30641583 4278190335
0.072695494 0.057212777 0.3069061 4278190335
0.07261809 0.057152595 0.30739641 4278190335
0.072540686 0.057092413 0.30788669 4278190335
0.072463274 0.057032231 0.308377 4278190335
0.07238587 0.056972049 0.30886728 4278190335
0.072308466 0.056911867 0.30935758 4278190335
0.072231062 0.056851685 0.30984786 4278190335
0.072153658 0.056791503 0.31033814 4278190335
0.072076254 0.056731321 0.31082845 4278190335
0.07199885 0.056671139 0.31131873 4278190335
0.071921438 0.056610957 0.31180903 4278190335
0.071844034 0.056550775 0.31229931 4278190335
0.07176663 0.056490593 0.31278962 4278190335
0.071689226 0.056430411 0.3132799 4278190335
0.071611822 0.056370229 0.3137702 4278190335
0.071534418 0.056310046 0.31426048 4278190335
0.071457013 0.056249864 0.31475079 4278190335
0.071379609 0.056189682 0.31524107 4278190335
0.071302198 0.0561295 0.31573138 4278190335
0.071224794 0.056069318 0.31622165 4278190335
0.07114739 0.056009136 0.31671196 4278190335
0.071069986 0.055948954 0.31720224 4278190335
0.070992582 0.055888772 0.31769255 4278190335
0.070915177 0.05582859 0.31818283 4278190335
0.070837773 0.055768408 0.31867313 4278190335
0.070760369 0.055708226 0.31916341 4278190335
0.070682958 0.055648044 0.31965372 4278190335
0.070605554 0.055587862 0.320144 4278190335
