# .PCD v0.7 - Point Cloud Data file format
VERSION 0.7
FIELDS x y z rgb
SIZE 4 4 4 4
TYPE F F F U
COUNT 1 1 1 1
WIDTH 1043
HEIGHT 1
VIEWPOINT 0 0 0 1 0 0 0
POINTS 1043
DATA ascii
0.058219161 0.00092132646 0.36500001 4281088809
0.059241932 0.00091880228 0.36400002 4279511828
0.060258206 0.00091627805 0.36300001 4279251734
0.061437227 0.00091627805 0.36300001 4279185941
0.062616251 0.00091627805 0.36300001 4278989845
0.063619532 0.00091375393 0.36200002 4278859027
0.064795315 0.00091375393 0.36200002 4278925849
0.065971084 0.00091375393 0.36200002 4282544466
0.067146868 0.00091375393 0.36200002 4279451934
0.068511374 0.00091627805 0.36300001 4278662677
0.069690399 0.00091627805 0.36300001 4278663447
0.075021431 0.00092385069 0.36600003 4278794517
0.076210201 0.00092385069 0.36600003 4278926103
0.10236311 0.00092385069 0.36600003 4279124765
0.10355188 0.00092385069 0.36600003 4279190558
0.10502683 0.00092637481 0.36700001 4278993179
0.11796283 0.00094404409 0.37400001 4279058457
0.11917758 0.00094404409 0.37400001 4278729494
0.12071425 0.00094656833 0.37500003 4278860310
0.12193225 0.00094656833 0.37500003 4278662931
0.12347864 0.00094909244 0.37600002 4278860310
0.1246999 0.00094909244 0.37600002 4278794517
0.12592113 0.00094909244 0.37600002 4278794517
0.12714238 0.00094909244 0.37600002 4278860310
0.12870502 0.00095161662 0.377 4278728724
0.12958489 0.00094909244 0.37600002 4278859795
0.13080613 0.00094909244 0.37600002 4278464267
0.13167626 0.00094656833 0.37500003 4279319576
0.13253987 0.00094404409 0.37400001 4278990611
0.13375461 0.00094404409 0.37400001 4279057174
0.13496937 0.00094404409 0.37400001 4279188760
0.13618413 0.00094404409 0.37400001 4278860308
0.1370315 0.00094151992 0.37300003 4278991894
0.138243 0.00094151992 0.37300003 4279254553
0.13945451 0.00094151992 0.37300003 4279057174
0.14104314 0.00094404409 0.37400001 4279451934
0.028502844 0.0021014756 0.36400002 4280757010
0.029685117 0.0021014756 0.36400002 4282669379
0.03086739 0.0021014756 0.36400002 4283261262
0.032049663 0.0021014756 0.36400002 4283063883
0.033231933 0.0021014756 0.36400002 4282734402
0.034414209 0.0021014756 0.36400002 4283061818
0.035596479 0.0021014756 0.36400002 4283193145
0.036778755 0.0021014756 0.36400002 4282337066
0.037961025 0.0021014756 0.36400002 4283060789
0.039250832 0.0021072486 0.36500001 4283588932
0.040436354 0.0021072486 0.36500001 4283589445
0.041621875 0.0021072486 0.36500001 4282077501
0.042807397 0.0021072486 0.36500001 4283656537
0.04555979 0.0021823014 0.37800002 4283854686
0.046663754 0.0021765281 0.377 4284052578
0.047888249 0.0021765281 0.377 4284052324
0.048982475 0.0021707548 0.37600002 4284052324
0.050070208 0.0021649816 0.37500003 4284249703
0.051151432 0.0021592083 0.37400001 4284249705
0.052226175 0.002153435 0.37300003 4284315498
0.053294413 0.0021476618 0.37200001 4284315496
0.054209646 0.0021361152 0.37 4279838231
0.055261642 0.0021303419 0.36900002 4280034840
0.056154139 0.0021187954 0.36700001 4280034840
0.057189904 0.0021130221 0.36600003 4279969819
0.058219161 0.0021072486 0.36500001 4279708955
0.059241932 0.0021014756 0.36400002 4279644443
0.060424209 0.0021014756 0.36400002 4278922258
0.061437227 0.0020957021 0.36300001 4279251734
0.062616251 0.0020957021 0.36300001 4278660880
0.063795276 0.0020957021 0.36300001 4278595601
0.064974301 0.0020957021 0.36300001 4278793750
0.066153325 0.0020957021 0.36300001 4278859543
0.06733235 0.0020957021 0.36300001 4278926103
0.068511374 0.0020957021 0.36300001 4279058459
0.069882385 0.0021014756 0.36400002 4279058459
0.071259893 0.0021072486 0.36500001 4278663701
0.072643898 0.0021130221 0.36600003 4278729494
0.073832661 0.0021130221 0.36600003 4278794517
0.075021431 0.0021130221 0.36600003 4278795287
0.076210201 0.0021130221 0.36600003 4278597908
0.077187493 0.0021072486 0.36500001 4278729494
0.078158297 0.0021014756 0.36400002 4278861080
0.1008979 0.0021072486 0.36500001 4278663699
0.10236311 0.0021130221 0.36600003 4278992664
0.10355188 0.0021130221 0.36600003 4278992666
0.10474065 0.0021130221 0.36600003 4278992666
0.11069239 0.0021361152 0.37 4279057176
0.11219657 0.0021418885 0.37100002 4279188762
0.11340158 0.0021418885 0.37100002 4279188760
0.1146066 0.0021418885 0.37100002 4279254553
0.11612376 0.0021476618 0.37200001 4279254553
0.11764742 0.002153435 0.37300003 4279188762
0.11917758 0.0021592083 0.37400001 4279516957
0.12039234 0.0021592083 0.37400001 4279187738
0.12193225 0.0021649816 0.37500003 4279385371
0.12315025 0.0021649816 0.37500003 4279385371
0.12436825 0.0021649816 0.37500003 4279516441
0.12592113 0.0021707548 0.37600002 4279582234
0.12714238 0.0021707548 0.37600002 4279582234
0.12836364 0.0021707548 0.37600002 4279582234
0.12924024 0.0021649816 0.37500003 4279516441
0.13045825 0.0021649816 0.37500003 4279450648
0.13132511 0.0021592083 0.37400001 4279582234
0.13253987 0.0021592083 0.37400001 4279582234
0.13375461 0.0021592083 0.37400001 4279582234
0.13496937 0.0021592083 0.37400001 4279516441
0.13618413 0.0021592083 0.37400001 4279582234
0.13739887 0.0021592083 0.37400001 4279582234
0.13861363 0.0021592083 0.37400001 4279713820
0.13982838 0.0021592083 0.37400001 4279713822
0.14104314 0.0021592083 0.37400001 4280174373
0.029685117 0.0032841486 0.36400002 4279508233
0.03086739 0.0032841486 0.36400002 4281679917
0.032049663 0.0032841486 0.36400002 4282865988
0.033231933 0.0032841486 0.36400002 4282932297
0.034414209 0.0032841486 0.36400002 4283327568
0.035596479 0.0032841486 0.36400002 4282604099
0.036778755 0.0032841486 0.36400002 4283130441
0.038065314 0.0032931708 0.36500001 4283590479
0.039250832 0.0032931708 0.36500001 4282339128
0.040436354 0.0032931708 0.36500001 4280825376
0.041621875 0.0032931708 0.36500001 4278721549
0.042807397 0.0032931708 0.36500001 4284315237
0.045439258 0.0034014394 0.377 4283855199
0.046663754 0.0034014394 0.377 4284052578
0.047761224 0.0033924172 0.37600002 4284315496
0.048982475 0.0033924172 0.37600002 4284249703
0.050070208 0.003383395 0.37500003 4284381289
0.051151432 0.0033743724 0.37400001 4284447082
0.052226175 0.0033653502 0.37300003 4284381289
0.053151149 0.0033473053 0.37100002 4284447082
0.054209646 0.0033382827 0.37 4284906350
0.055261642 0.0033292605 0.36900002 4279837979
0.056154139 0.0033112157 0.36700001 4280167198
0.057189904 0.0033021935 0.36600003 4280694055
0.05837867 0.0033021935 0.36600003 4279183381
0.059404682 0.0032931708 0.36500001 4279644445
0.060424209 0.0032841486 0.36400002 4279053844
0.061606478 0.0032841486 0.36400002 4279383320
0.062788747 0.0032841486 0.36400002 4278726160
0.063795276 0.003275126 0.36300001 4278792466
0.064974301 0.003275126 0.36300001 4279121945
0.066153325 0.003275126 0.36300001 4278991129
0.067517839 0.0032841486 0.36400002 4278662677
0.06870012 0.0032841486 0.36400002 4278597908
0.070074365 0.0032931708 0.36500001 4278532115
0.071259893 0.0032931708 0.36500001 4278399759
0.072445415 0.0032931708 0.36500001 4278662931
0.073630929 0.0032931708 0.36500001 4278662931
0.07481645 0.0032931708 0.36500001 4278729494
0.076001972 0.0032931708 0.36500001 4278663701
0.076976024 0.0032841486 0.36400002 4278597908
0.078158297 0.0032841486 0.36400002 4278532115
0.078904629 0.0032661038 0.36200002 4278597908
0.080080412 0.0032661038 0.36200002 4278926103
0.081031717 0.0032570816 0.36100003 4278860310
0.082204252 0.0032570816 0.36100003 4278465552
0.08337678 0.0032570816 0.36100003 4278795287
0.084549308 0.0032570816 0.36100003 4278795287
0.085721835 0.0032570816 0.36100003 4279058459
0.09066239 0.0032661038 0.36200002 4278992664
0.091838174 0.0032661038 0.36200002 4278991894
0.09301395 0.0032661038 0.36200002 4279320859
0.094449915 0.003275126 0.36300001 4278991894
0.09562894 0.003275126 0.36300001 4278991894
0.096807972 0.003275126 0.36300001 4278991896
0.098256938 0.0032841486 0.36400002 4278925849
0.099439196 0.0032841486 0.36400002 4279056922
0.1008979 0.0032931708 0.36500001 4279846692
0.10208342 0.0032931708 0.36500001 4279320348
0.10355188 0.0033021935 0.36600003 4279254555
0.10474065 0.0033021935 0.36600003 4279057176
0.10592942 0.0033021935 0.36600003 4279385371
0.10919471 0.0033292605 0.36900002 4279385371
0.11069239 0.0033382827 0.37 4279451164
0.11189415 0.0033382827 0.37 4279385371
0.11340158 0.0033473053 0.37100002 4279451164
0.1146066 0.0033473053 0.37100002 4279122199
0.11612376 0.0033563275 0.37200001 4279450650
0.11733201 0.0033563275 0.37200001 4279450650
0.11885893 0.0033653502 0.37300003 4279516443
0.12007044 0.0033653502 0.37300003 4279648029
0.12160709 0.0033743724 0.37400001 4279450650
0.12282185 0.0033743724 0.37400001 4279515930
0.12436825 0.003383395 0.37500003 4279712539
0.12558624 0.003383395 0.37500003 4280107297
0.12680425 0.003383395 0.37500003 4279449367
0.12802225 0.003383395 0.37500003 4279054609
0.12924024 0.003383395 0.37500003 4279382807
0.13011035 0.0033743724 0.37400001 4278395914
0.13132511 0.0033743724 0.37400001 4278790672
0.13253987 0.0033743724 0.37400001 4279713309
0.13375461 0.0033743724 0.37400001 4279648029
0.13496937 0.0033743724 0.37400001 4279648029
0.13618413 0.0033743724 0.37400001 4279779615
0.13739887 0.0033743724 0.37400001 4279779613
0.13861363 0.0033743724 0.37400001 4279779613
0.13982838 0.0033743724 0.37400001 4280173090
0.03086739 0.0044668219 0.36400002 4280822553
0.032049663 0.0044668219 0.36400002 4280889116
0.033231933 0.0044668219 0.36400002 4280824093
0.034414209 0.0044668219 0.36400002 4281350439
0.035596479 0.0044668219 0.36400002 4279903506
0.036879793 0.0044790935 0.36500001 4279903504
0.038065314 0.0044790935 0.36500001 4280232469
0.039250832 0.0044790935 0.36500001 4280035090
0.040436354 0.0044790935 0.36500001 4280034838
0.041621875 0.0044790935 0.36500001 4278391562
0.042807397 0.0044790935 0.36500001 4283986533
0.045439258 0.0046263509 0.377 4283855459
0.046663754 0.0046263509 0.377 4284052324
0.047761224 0.0046140798 0.37600002 4284183912
0.048852205 0.0046018083 0.37500003 4284315498
0.049936686 0.0045895367 0.37400001 4284447082
0.051014666 0.0045772656 0.37300003 4284512875
0.052086156 0.0045649935 0.37200001 4284316010
0.053151149 0.0045527224 0.37100002 4284316010
0.054209646 0.0045404509 0.37 4284315496
0.055261642 0.0045281793 0.36900002 4281681980
0.056307152 0.0045159082 0.36800003 4280298784
0.057346158 0.0045036362 0.36700001 4280036639
0.05837867 0.004491365 0.36600003 4279315480
0.059404682 0.0044790935 0.36500001 4279513371
0.060590208 0.0044790935 0.36500001 4279251223
0.061775722 0.0044790935 0.36500001 4279185941
0.062788747 0.0044668219 0.36400002 4278594574
0.063971028 0.0044668219 0.36400002 4279252504
0.065153301 0.0044668219 0.36400002 4279187738
0.066335566 0.0044668219 0.36400002 4278858773
0.067517839 0.0044668219 0.36400002 4279912485
0.068888851 0.0044790935 0.36500001 4279517727
0.070074365 0.0044790935 0.36500001 4279451934
0.071259893 0.0044790935 0.36500001 4279057176
0.072445415 0.0044790935 0.36500001 4279057176
0.073630929 0.0044790935 0.36500001 4279057176
0.07481645 0.0044790935 0.36500001 4279188762
0.075793751 0.0044668219 0.36400002 4279254555
0.076976024 0.0044668219 0.36400002 4278991896
0.077943571 0.0044545503 0.36300001 4278860310
0.078904629 0.0044422788 0.36200002 4279386141
0.080080412 0.0044422788 0.36200002 4279780899
0.081031717 0.0044300077 0.36100003 4279187992
0.082204252 0.0044300077 0.36100003 4279187992
0.08337678 0.0044300077 0.36100003 4279122199
0.084549308 0.0044300077 0.36100003 4279319578
0.085721835 0.0044300077 0.36100003 4279057176
0.087135069 0.0044422788 0.36200002 4279057176
0.090912841 0.0044545503 0.36300001 4279188762
0.092091866 0.0044545503 0.36300001 4279320348
0.09327089 0.0044545503 0.36300001 4279254555
0.094449915 0.0044545503 0.36300001 4279320348
0.09562894 0.0044545503 0.36300001 4279254555
0.097074665 0.0044668219 0.36400002 4279319324
0.098256938 0.0044668219 0.36400002 4279450910
0.099439196 0.0044668219 0.36400002 4279450910
0.1008979 0.0044790935 0.36500001 4279581982
0.10208342 0.0044790935 0.36500001 4279910947
0.10355188 0.004491365 0.36600003 4279713568
0.10474065 0.004491365 0.36600003 4279581469
0.10592942 0.004491365 0.36600003 4279317527
0.10770353 0.0045159082 0.36800003 4279317527
0.10919471 0.0045281793 0.36900002 4279514906
0.11039323 0.0045281793 0.36900002 4279185941
0.11189415 0.0045404509 0.37 4278462220
0.11309592 0.0045404509 0.37 4278330121
0.1146066 0.0045527224 0.37100002 4278460937
0.1158116 0.0045527224 0.37100002 4278263558
0.11733201 0.0045649935 0.37200001 4278329351
0.11854026 0.0045649935 0.37200001 4278724109
0.12007044 0.0045772656 0.37300003 4278987279
0.12128194 0.0045772656 0.37300003 4279513623
0.12249345 0.0045772656 0.37300003 4279447832
0.1240366 0.0045895367 0.37400001 4279973922
0.12525134 0.0045895367 0.37400001 4279908383
0.1264661 0.0045895367 0.37400001 4279843360
0.12768085 0.0045895367 0.37400001 4279777565
0.12889561 0.0045895367 0.37400001 4280105760
0.13011035 0.0045895367 0.37400001 4279908381
0.13132511 0.0045895367 0.37400001 4279052560
0.13253987 0.0045895367 0.37400001 4279646492
0.13339698 0.0045772656 0.37300003 4279779102
0.13496937 0.0045895367 0.37400001 4279516443
0.13618413 0.0045895367 0.37400001 4279713822
0.13739887 0.0045895367 0.37400001 4279713822
0.138243 0.0045772656 0.37300003 4279976994
0.13982838 0.0045895367 0.37400001 4280961071
0.038065314 0.0056650154 0.36500001 4280362002
0.047634203 0.0058202217 0.37500003 4284249703
0.048721932 0.0058047008 0.37400001 4284381289
0.049803168 0.0057891808 0.37300003 4284447082
0.051014666 0.0057891808 0.37300003 4284316010
0.052086156 0.0057736598 0.37200001 4284381803
0.053151149 0.0057581393 0.37100002 4284250217
0.054209646 0.0057426183 0.37 4284250217
0.055261642 0.0057270983 0.36900002 4284972913
0.056307152 0.0057115778 0.36800003 4279905053
0.057346158 0.0056960569 0.36700001 4279379479
0.058538172 0.0056960569 0.36700001 4279512859
0.05956744 0.0056805364 0.36600003 4279447832
0.06075621 0.0056805364 0.36600003 4279711772
0.061775722 0.0056650154 0.36500001 4279054355
0.062961243 0.0056650154 0.36500001 4279186711
0.064146765 0.0056650154 0.36500001 4279252504
0.065332286 0.0056650154 0.36500001 4279318810
0.066517808 0.0056650154 0.36500001 4279450910
0.067703329 0.0056650154 0.36500001 4279649059
0.068888851 0.0056650154 0.36500001 4279320094
0.070074365 0.0056650154 0.36500001 4279319324
0.071259893 0.0056650154 0.36500001 4279187992
0.072445415 0.0056650154 0.36500001 4279187992
0.073630929 0.0056650154 0.36500001 4279187992
0.07481645 0.0056650154 0.36500001 4279254555
0.075793751 0.0056494954 0.36400002 4278991383
0.076764546 0.0056339744 0.36300001 4279188508
0.077943571 0.0056339744 0.36300001 4278991129
0.078904629 0.005618454 0.36200002 4278791185
0.080080412 0.005618454 0.36200002 4279382809
0.081256181 0.005618454 0.36200002 4278660369
0.082204252 0.0056029335 0.36100003 4279450396
0.08337678 0.0056029335 0.36100003 4279318810
0.084783509 0.005618454 0.36200002 4279121431
0.085959293 0.005618454 0.36200002 4279581469
0.087135069 0.005618454 0.36200002 4279844641
0.088554792 0.0056339744 0.36300001 4279317527
0.089733817 0.0056339744 0.36300001 4279185943
0.090912841 0.0056339744 0.36300001 4278856978
0.092091866 0.0056339744 0.36300001 4278198535
0.09327089 0.0056339744 0.36300001 4278658062
0.094710112 0.0056494954 0.36400002 4278526476
0.095892385 0.0056494954 0.36400002 4278195969
0.097074665 0.0056494954 0.36400002 4278657550
0.098256938 0.0056494954 0.36400002 4278527759
0.099712379 0.0056650154 0.36500001 4279318045
0.1008979 0.0056650154 0.36500001 4279054103
0.10236311 0.0056805364 0.36600003 4279711520
0.10355188 0.0056805364 0.36600003 4279777567
0.10502683 0.0056960569 0.36700001 4280501290
0.10621884 0.0056960569 0.36700001 4280238118
0.10770353 0.0057115778 0.36800003 4280303911
0.10919471 0.0057270983 0.36900002 4279843360
0.11039323 0.0057270983 0.36900002 4280040739
0.11189415 0.0057426183 0.37 4279580188
0.11309592 0.0057426183 0.37 4279909153
0.11429767 0.0057426183 0.37 4279711772
0.1158116 0.0057581393 0.37100002 4279974944
0.11701661 0.0057581393 0.37100002 4279777565
0.11854026 0.0057736598 0.37200001 4279711772
0.11974853 0.0057736598 0.37200001 4279580186
0.12095679 0.0057736598 0.37200001 4279974944
0.12249345 0.0057891808 0.37300003 4279974944
0.12370495 0.0057891808 0.37300003 4279843358
0.12491645 0.0057891808 0.37300003 4279514393
0.1264661 0.0058047008 0.37400001 4278724361
0.12768085 0.0058047008 0.37400001 4279975198
0.12889561 0.0058047008 0.37400001 4279843612
0.12976247 0.0057891808 0.37300003 4280039453
0.13097398 0.0057891808 0.37300003 4279710490
0.13218549 0.0057891808 0.37300003 4279647264
0.13339698 0.0057891808 0.37300003 4279713055
0.13460849 0.0057891808 0.37300003 4279713822
0.13618413 0.0058047008 0.37400001 4279779615
0.138243 0.0057891808 0.37300003 4280305192
0.047507178 0.0070198653 0.37400001 4284381543
0.048591658 0.0070010959 0.37300003 4284381543
0.049669642 0.006982326 0.37200001 4284250217
0.050877895 0.006982326 0.37200001 4284250217
0.051946141 0.0069635562 0.37100002 4284316010
0.053007882 0.0069447863 0.37 4284513389
0.054209646 0.0069447863 0.37 4284579182
0.055261642 0.0069260169 0.36900002 4284776561
0.056307152 0.0069072475 0.36800003 4278524683
0.057346158 0.0068884776 0.36700001 4279314969
0.058538172 0.0068884776 0.36700001 4279710238
0.059730191 0.0068884776 0.36700001 4279381785
0.06075621 0.0068697082 0.36600003 4279449113
0.061944973 0.0068697082 0.36600003 4278923539
0.063133746 0.0068697082 0.36600003 4279318297
0.064322516 0.0068697082 0.36600003 4279319064
0.065511286 0.0068697082 0.36600003 4279187224
0.066700049 0.0068697082 0.36600003 4279845668
0.067888819 0.0068697082 0.36600003 4279780645
0.069077589 0.0068697082 0.36600003 4279254301
0.070266359 0.0068697082 0.36600003 4279319324
0.071455128 0.0068697082 0.36600003 4279582750
0.072445415 0.0068509378 0.36500001 4279056406
0.073630929 0.0068509378 0.36500001 4279122199
0.074611478 0.0068321684 0.36400002 4279122199
0.075793751 0.0068321684 0.36400002 4279188762
0.076764546 0.0068133986 0.36300001 4279187738
0.077943571 0.0068133986 0.36300001 4279319324
0.078904629 0.0067946292 0.36200002 4279514395
0.080080412 0.0067946292 0.36200002 4279579418
0.081256181 0.0067946292 0.36200002 4279646494
0.082431957 0.0067946292 0.36200002 4279185943
0.083607741 0.0067946292 0.36200002 4278394380
0.084783509 0.0067946292 0.36200002 4278590476
0.085959293 0.0067946292 0.36200002 4278852365
0.087375768 0.0068133986 0.36300001 4278983951
0.088554792 0.0068133986 0.36300001 4278983697
0.089981019 0.0068321684 0.36400002 4278852111
0.091163293 0.0068321684 0.36400002 4279049744
0.092345566 0.0068321684 0.36400002 4279049742
0.093527839 0.0068321684 0.36400002 4278852365
0.094710112 0.0068321684 0.36400002 4279115537
0.096155822 0.0068509378 0.36500001 4279049744
0.097341344 0.0068509378 0.36500001 4279114771
0.098526873 0.0068509378 0.36500001 4280238118
0.099712379 0.0068509378 0.36500001 4279646494
0.10117434 0.0068697082 0.36600003 4279514395
0.10236311 0.0068697082 0.36600003 4278922258
0.10383481 0.0068884776 0.36700001 4279052306
0.10502683 0.0068884776 0.36700001 4279711004
0.10621884 0.0068884776 0.36700001 4278526730
0.10770353 0.0069072475 0.36800003 4279513625
0.1088988 0.0069072475 0.36800003 4278526476
0.11039323 0.0069260169 0.36900002 4279447832
0.11159174 0.0069260169 0.36900002 4279579418
0.11309592 0.0069447863 0.37 4280303141
0.11429767 0.0069447863 0.37 4279184406
0.11549944 0.0069447863 0.37 4278263304
0.11701661 0.0069635562 0.37100002 4278724109
0.11822161 0.0069635562 0.37100002 4279250453
0.11942662 0.0069635562 0.37100002 4279842076
0.12095679 0.006982326 0.37200001 4279973662
0.12216504 0.006982326 0.37200001 4279579418
0.12370495 0.0070010959 0.37300003 4279974176
0.12491645 0.0070010959 0.37300003 4279513111
0.12612796 0.0070010959 0.37300003 4279381525
0.12733947 0.0070010959 0.37300003 4279908381
0.12855096 0.0070010959 0.37300003 4279909151
0.12976247 0.0070010959 0.37300003 4278920207
0.13097398 0.0070010959 0.37300003 4280105508
0.13218549 0.0070010959 0.37300003 4279844643
0.13339698 0.0070010959 0.37300003 4279713055
0.13460849 0.0070010959 0.37300003 4279713568
0.13618413 0.0070198653 0.37400001 4279910947
0.13739887 0.0070198653 0.37400001 4279778848
0.047507178 0.0082350289 0.37400001 4284183910
0.048591658 0.0082130106 0.37300003 4284315496
0.049669642 0.0081909914 0.37200001 4284184424
0.050741129 0.008168973 0.37100002 4284250217
0.051946141 0.008168973 0.37100002 4284513389
0.053007882 0.0081469538 0.37 4284513389
0.054063134 0.0081249354 0.36900002 4284513389
0.055261642 0.0081249354 0.36900002 4284381803
0.056307152 0.0081029171 0.36800003 4283196754
0.057502419 0.0081029171 0.36800003 4279380760
0.058697678 0.0081029171 0.36800003 4279382555
0.059730191 0.0080808979 0.36700001 4279317529
0.060922209 0.0080808979 0.36700001 4279120920
0.06211422 0.0080808979 0.36700001 4279055127
0.063306242 0.0080808979 0.36700001 4279121431
0.064498261 0.0080808979 0.36700001 4279581982
0.065690279 0.0080808979 0.36700001 4278727187
0.06688229 0.0080808979 0.36700001 4279845668
0.068074308 0.0080808979 0.36700001 4279451680
0.069077589 0.0080588795 0.36600003 4279188508
0.070266359 0.0080588795 0.36600003 4279122199
0.071455128 0.0080588795 0.36600003 4278990613
0.072643898 0.0080588795 0.36600003 4279319576
0.073630929 0.0080368603 0.36500001 4279319576
0.074611478 0.0080148419 0.36400002 4279122197
0.075793751 0.0080148419 0.36400002 4279319576
0.076764546 0.0079928227 0.36300001 4279122199
0.077943571 0.0079928227 0.36300001 4279778848
0.079122595 0.0079928227 0.36300001 4278854416
0.080080412 0.0079708034 0.36200002 4279841824
0.081256181 0.0079708034 0.36200002 4279448861
0.082431957 0.0079708034 0.36200002 4278723343
0.083607741 0.0079708034 0.36200002 4278918674
0.085017718 0.0079928227 0.36300001 4278984467
0.086196743 0.0079928227 0.36300001 4279443736
0.087375768 0.0079928227 0.36300001 4279444250
0.088798746 0.0080148419 0.36400002 4279313432
0.089981019 0.0080148419 0.36400002 4279313432
0.091163293 0.0080148419 0.36400002 4280431395
0.092599258 0.0080368603 0.36500001 4279312914
0.093784779 0.0080368603 0.36500001 4278853646
0.094970301 0.0080368603 0.36500001 4279445783
0.096155822 0.0080368603 0.36500001 4278918674
0.097341344 0.0080368603 0.36500001 4279971616
0.098796807 0.0080588795 0.36600003 4279843360
0.09998557 0.0080588795 0.36600003 4278988051
0.10117434 0.0080588795 0.36600003 4278919439
0.10264279 0.0080808979 0.36700001 4279116307
0.10383481 0.0080808979 0.36700001 4278986002
0.10502683 0.0080808979 0.36700001 4279446551
0.10650827 0.0081029171 0.36800003 4279973922
0.10770353 0.0081029171 0.36800003 4279579164
0.10919471 0.0081249354 0.36900002 4279842590
0.11039323 0.0081249354 0.36900002 4278987281
0.11159174 0.0081249354 0.36900002 4279579418
0.11279026 0.0081249354 0.36900002 4279645211
0.11429767 0.0081469538 0.37 4279711004
0.11549944 0.0081469538 0.37 4279513625
0.11670119 0.0081469538 0.37 4280039969
0.11822161 0.008168973 0.37100002 4279974176
0.11942662 0.008168973 0.37100002 4280565799
0.12095679 0.0081909914 0.37200001 4280171041
0.12216504 0.0081909914 0.37200001 4280039453
0.1233733 0.0081909914 0.37200001 4280171555
0.12491645 0.0082130106 0.37300003 4279908383
0.12612796 0.0082130106 0.37300003 4280105762
0.12733947 0.0082130106 0.37300003 4279579418
0.12855096 0.0082130106 0.37300003 4278987281
0.12976247 0.0082130106 0.37300003 4279711004
0.13097398 0.0082130106 0.37300003 4280171555
0.13218549 0.0082130106 0.37300003 4279975459
0.13339698 0.0082130106 0.37300003 4279778850
0.13496937 0.0082350289 0.37400001 4279713055
0.13618413 0.0082350289 0.37400001 4279713055
0.049536124 0.0093743894 0.37100002 4284316012
0.050604358 0.0093491217 0.37 4284118633
0.051806122 0.0093491217 0.37 4284381805
0.053007882 0.0093491217 0.37 4284513391
0.054063134 0.009323854 0.36900002 4284579184
0.055261642 0.009323854 0.36900002 4284513389
0.056307152 0.0092985863 0.36800003 4284579436
0.057502419 0.0092985863 0.36800003 4279512859
0.058697678 0.0092985863 0.36800003 4279513625
0.059892945 0.0092985863 0.36800003 4279383322
0.061088212 0.0092985863 0.36800003 4279120918
0.062283471 0.0092985863 0.36800003 4279120918
0.063478738 0.0092985863 0.36800003 4279450396
0.064498261 0.0092733176 0.36700001 4279318810
0.065690279 0.0092733176 0.36700001 4279648289
0.06688229 0.0092733176 0.36700001 4279517473
0.068074308 0.0092733176 0.36700001 4279320094
0.069266327 0.0092733176 0.36700001 4278859543
0.070458338 0.0092733176 0.36700001 4279056152
0.071455128 0.0092480499 0.36600003 4279187992
0.072643898 0.0092480499 0.36600003 4279187992
0.073630929 0.0092227822 0.36500001 4279122199
0.07481645 0.0092227822 0.36500001 4279253271
0.075793751 0.0091975145 0.36400002 4279516443
0.076976024 0.0091975145 0.36400002 4279253271
0.077943571 0.0091722459 0.36300001 4279185943
0.079122595 0.0091722459 0.36300001 4278789134
0.08030162 0.0091722459 0.36300001 4279711774
0.081480645 0.0091722459 0.36300001 4279316762
0.082659669 0.0091722459 0.36300001 4278787853
0.083838694 0.0091722459 0.36300001 4280037155
0.085017718 0.0091722459 0.36300001 4279577117
0.0864342 0.0091975145 0.36400002 4279905569
0.087616481 0.0091975145 0.36400002 4279839776
0.088798746 0.0091975145 0.36400002 4278655502
0.090228222 0.0092227822 0.36500001 4279575834
0.091413736 0.0092227822 0.36500001 4278852111
0.092599258 0.0092227822 0.36500001 4279641367
0.093784779 0.0092227822 0.36500001 4279116307
0.095230497 0.0092480499 0.36600003 4279248406
0.096419267 0.0092480499 0.36600003 4278853648
0.097608037 0.0092480499 0.36600003 4280367655
0.098796807 0.0092480499 0.36600003 4279777567
0.09998557 0.0092480499 0.36600003 4279513111
0.10145077 0.0092733176 0.36700001 4279313686
0.10264279 0.0092733176 0.36700001 4279577117
0.10383481 0.0092733176 0.36700001 4280170789
0.105313 0.0092985863 0.36800003 4280104994
0.10650827 0.0092985863 0.36800003 4279776029
0.10770353 0.0092985863 0.36800003 4279973922
0.10919471 0.009323854 0.36900002 4279381785
0.11039323 0.009323854 0.36900002 4279118613
0.11159174 0.009323854 0.36900002 4278789648
0.11279026 0.009323854 0.36900002 4278723855
0.11398876 0.009323854 0.36900002 4278263306
0.11549944 0.0093491217 0.37 4278329099
0.11670119 0.0093491217 0.37 4278789648
0.11790295 0.0093491217 0.37 4278789648
0.11942662 0.0093743894 0.37100002 4279447832
0.12063164 0.0093743894 0.37100002 4279711004
0.12216504 0.0093996571 0.37200001 4279974176
0.1233733 0.0093996571 0.37200001 4280566313
0.12458155 0.0093996571 0.37200001 4280500006
0.12612796 0.0094249258 0.37300003 4280500006
0.12733947 0.0094249258 0.37300003 4280434213
0.12855096 0.0094249258 0.37300003 4280565799
0.12976247 0.0094249258 0.37300003 4280631592
0.13097398 0.0094249258 0.37300003 4280499752
0.13218549 0.0094249258 0.37300003 4280368680
0.13339698 0.0094249258 0.37300003 4282078784
0.13496937 0.0094501935 0.37400001 4284972393
0.048200838 0.01055129 0.37 4284315498
0.049402602 0.01055129 0.37 4284316012
0.050604358 0.01055129 0.37 4284381805
0.051806122 0.01055129 0.37 4284513391
0.053007882 0.01055129 0.37 4284644975
0.054063134 0.010522773 0.36900002 4284513389
0.055261642 0.010522773 0.36900002 4284513389
0.056460157 0.010522773 0.36900002 4284513389
0.057658672 0.010522773 0.36900002 4284250217
0.058697678 0.010494256 0.36800003 4279513109
0.059892945 0.010494256 0.36800003 4279449113
0.061088212 0.010494256 0.36800003 4279252504
0.062283471 0.010494256 0.36800003 4279384090
0.063478738 0.010494256 0.36800003 4278858000
0.064674005 0.010494256 0.36800003 4279450650
0.065869272 0.010494256 0.36800003 4279649059
0.067064531 0.010494256 0.36800003 4279451680
0.068259798 0.010494256 0.36800003 4279254301
0.069455065 0.010494256 0.36800003 4278991129
0.070458338 0.010465739 0.36700001 4279319324
0.071650356 0.010465739 0.36700001 4279319324
0.072643898 0.010437222 0.36600003 4279516703
0.073832661 0.010437222 0.36600003 4279451164
0.07481645 0.010408705 0.36500001 4279516441
0.076001972 0.010408705 0.36500001 4279516441
0.076976024 0.010380188 0.36400002 4279252758
0.078158297 0.010380188 0.36400002 4278788621
0.07934057 0.010380188 0.36400002 4279447578
0.08030162 0.010351671 0.36300001 4279382555
0.081480645 0.010351671 0.36300001 4278525449
0.082659669 0.010351671 0.36300001 4278983951
0.084069662 0.010380188 0.36400002 4279246355
0.085251927 0.010380188 0.36400002 4279114771
0.0864342 0.010380188 0.36400002 4279246355
0.087616481 0.010380188 0.36400002 4279180562
0.089042693 0.010408705 0.36500001 4279246355
0.090228222 0.010408705 0.36500001 4279246355
0.091413736 0.010408705 0.36500001 4279246355
0.092852958 0.010437222 0.36600003 4279246355
0.094041727 0.010437222 0.36600003 4279181330
0.095230497 0.010437222 0.36600003 4278983951
0.096419267 0.010437222 0.36600003 4279183381
0.097874723 0.010465739 0.36700001 4278460169
0.099066742 0.010465739 0.36700001 4278460937
0.10025875 0.010465739 0.36700001 4278987281
0.10145077 0.010465739 0.36700001 4280039715
0.10264279 0.010465739 0.36700001 4280302887
0.10411774 0.010494256 0.36800003 4279448348
0.105313 0.010494256 0.36800003 4280172071
0.10650827 0.010494256 0.36800003 4279974692
0.10770353 0.010494256 0.36800003 4280302887
0.10919471 0.010522773 0.36900002 4280303141
0.11039323 0.010522773 0.36900002 4279974946
0.11159174 0.010522773 0.36900002 4279909153
0.11279026 0.010522773 0.36900002 4280040739
0.11398876 0.010522773 0.36900002 4280172325
0.11549944 0.01055129 0.37 4280238118
0.11670119 0.01055129 0.37 4280172325
0.11790295 0.01055129 0.37 4279777567
0.11942662 0.010579807 0.37100002 4280238118
0.12063164 0.010579807 0.37100002 4280895278
0.12216504 0.010608324 0.37200001 4280039969
0.1233733 0.010608324 0.37200001 4280894764
0.12458155 0.010608324 0.37200001 4282078273
0.12578981 0.010608324 0.37200001 4284315235
0.12733947 0.010636841 0.37300003 4285565813
0.12855096 0.010636841 0.37300003 4286552708
0.12976247 0.010636841 0.37300003 4286749576
0.048200838 0.011753458 0.37 4284316012
0.049402602 0.011753458 0.37 4284381805
0.050604358 0.011753458 0.37 4284513391
0.051806122 0.011753458 0.37 4284381805
0.053007882 0.011753458 0.37 4284644977
0.054063134 0.011721692 0.36900002 4284644977
0.055261642 0.011721692 0.36900002 4284710770
0.056460157 0.011721692 0.36900002 4284644977
0.057658672 0.011721692 0.36900002 4284316010
0.05885718 0.011721692 0.36900002 4282934097
0.060055695 0.011721692 0.36900002 4279447580
0.061254211 0.011721692 0.36900002 4279318299
0.062452719 0.011721692 0.36900002 4279318297
0.063651234 0.011721692 0.36900002 4279318810
0.064849749 0.011721692 0.36900002 4279385117
0.066048265 0.011721692 0.36900002 4279714852
0.067064531 0.011689926 0.36800003 4279385887
0.068259798 0.011689926 0.36800003 4279188508
0.069455065 0.011689926 0.36800003 4279320094
0.070650324 0.011689926 0.36800003 4279056922
0.071650356 0.01165816 0.36700001 4279056922
0.072842374 0.01165816 0.36700001 4279319324
0.073832661 0.011626394 0.36600003 4279516703
0.07481645 0.011594627 0.36500001 4279385371
0.076001972 0.011594627 0.36500001 4279319578
0.077187493 0.011594627 0.36500001 4279514393
0.078158297 0.011562862 0.36400002 4279315478
0.07934057 0.011562862 0.36400002 4279974176
0.080522843 0.011562862 0.36400002 4279777565
0.081705116 0.011562862 0.36400002 4280039967
0.082887389 0.011562862 0.36400002 4279841309
0.084069662 0.011562862 0.36400002 4279840543
0.085251927 0.011562862 0.36400002 4280037922
0.0864342 0.011562862 0.36400002 4280498471
0.087857179 0.011594627 0.36500001 4280366885
0.089042693 0.011594627 0.36500001 4280170274
0.090228222 0.011594627 0.36500001 4280565032
0.091664188 0.011626394 0.36600003 4280236580
0.092852958 0.011626394 0.36600003 4279908129
0.094041727 0.011626394 0.36600003 4279974692
0.095230497 0.011626394 0.36600003 4280040485
0.096682705 0.01165816 0.36700001 4280040739
0.097874723 0.01165816 0.36700001 4280172323
0.099066742 0.01165816 0.36700001 4279974944
0.10025875 0.01165816 0.36700001 4279974944
0.10145077 0.01165816 0.36700001 4279975457
0.10292247 0.011689926 0.36800003 4280172836
0.10411774 0.011689926 0.36800003 4280107045
0.105313 0.011689926 0.36800003 4279909666
0.10650827 0.011689926 0.36800003 4279909666
0.1079962 0.011721692 0.36900002 4279712287
0.10919471 0.011721692 0.36900002 4280369450
0.11039323 0.011721692 0.36900002 4280040485
0.11159174 0.011721692 0.36900002 4280434475
0.11279026 0.011721692 0.36900002 4281947712
0.11398876 0.011721692 0.36900002 4283525719
0.11518728 0.011721692 0.36900002 4284973165
0.11670119 0.011753458 0.37 4285763196
0.11790295 0.011753458 0.37 4285894782
0.11910471 0.011753458 0.37 4285828989
0.12063164 0.011785224 0.37100002 4286157954
0.12183665 0.011785224 0.37100002 4286157187
0.1233733 0.011816991 0.37200001 4285762429
0.12458155 0.011816991 0.37200001 4286157187
0.12578981 0.011816991 0.37200001 4286222980
0.12699807 0.011816991 0.37200001 4286222980
0.048200838 0.012955626 0.37 4284381805
0.049402602 0.012955626 0.37 4284513391
0.050604358 0.012955626 0.37 4284513391
0.051806122 0.012955626 0.37 4284644977
0.053007882 0.012955626 0.37 4284579184
0.054063134 0.012920611 0.36900002 4284644977
0.055261642 0.012920611 0.36900002 4284644977
0.056460157 0.012920611 0.36900002 4284644977
0.057658672 0.012920611 0.36900002 4284579184
0.05885718 0.012920611 0.36900002 4284513391
0.060055695 0.012920611 0.36900002 4282342474
0.061254211 0.012920611 0.36900002 4279383322
0.062452719 0.012920611 0.36900002 4279450398
0.063651234 0.012920611 0.36900002 4278989845
0.064849749 0.012920611 0.36900002 4280108326
0.066048265 0.012920611 0.36900002 4279648289
0.067246772 0.012920611 0.36900002 4279516703
0.068445288 0.012920611 0.36900002 4279187738
0.069455065 0.012885596 0.36800003 4279188508
0.070650324 0.012885596 0.36800003 4279056922
0.071650356 0.01285058 0.36700001 4279254301
0.072842374 0.01285058 0.36700001 4279516703
0.073832661 0.012815565 0.36600003 4279450910
0.075021431 0.012815565 0.36600003 4279516703
0.076001972 0.012780549 0.36500001 4279516189
0.077187493 0.012780549 0.36500001 4278987797
0.078373015 0.012780549 0.36500001 4279316762
0.07934057 0.012745535 0.36400002 4279909405
0.080522843 0.012745535 0.36400002 4279909918
0.081705116 0.012745535 0.36400002 4279778332
0.082887389 0.012745535 0.36400002 4279843871
0.084069662 0.012745535 0.36400002 4279975205
0.085251927 0.012745535 0.36400002 4279843619
0.086671658 0.012780549 0.36500001 4279974692
0.087857179 0.012780549 0.36500001 4280172325
0.089042693 0.012780549 0.36500001 4280238116
0.090475425 0.012815565 0.36600003 4279909151
0.091664188 0.012815565 0.36600003 4280172577
0.092852958 0.012815565 0.36600003 4280172323
0.094298668 0.01285058 0.36700001 4279843358
0.095490687 0.01285058 0.36700001 4280238116
0.096682705 0.01285058 0.36700001 4279712033
0.097874723 0.01285058 0.36700001 4279777313
0.099066742 0.01285058 0.36700001 4281158966
0.10053194 0.012885596 0.36800003 4281356345
0.10172721 0.012885596 0.36800003 4282145861
0.10292247 0.012885596 0.36800003 4283461721
0.10411774 0.012885596 0.36800003 4284842606
0.105313 0.012885596 0.36800003 4286026880
0.10650827 0.012885596 0.36800003 4285961089
0.1079962 0.012920611 0.36900002 4286421640
0.10919471 0.012920611 0.36900002 4285828989
0.11039323 0.012920611 0.36900002 4285762683
0.11159174 0.012920611 0.36900002 4285762431
0.11279026 0.012920611 0.36900002 4285696638
0.11398876 0.012920611 0.36900002 4285038708
0.11518728 0.012920611 0.36900002 4285828224
0.11670119 0.012955626 0.37 4285696636
0.11790295 0.012955626 0.37 4285828222
0.11910471 0.012955626 0.37 4285959808
0.12063164 0.012990641 0.37100002 4285959808
0.12183665 0.012990641 0.37100002 4286091394
0.1233733 0.013025655 0.37200001 4286222980
0.048200838 0.014157793 0.37 4284512877
0.049402602 0.014157793 0.37 4284644463
0.050604358 0.014157793 0.37 4284579184
0.051806122 0.014157793 0.37 4284644977
0.053007882 0.014157793 0.37 4284776563
0.054063134 0.014119529 0.36900002 4284644977
0.055261642 0.014119529 0.36900002 4284710770
0.056460157 0.014119529 0.36900002 4284644977
0.057658672 0.014119529 0.36900002 4284579184
0.05885718 0.014119529 0.36900002 4284579184
0.060055695 0.014119529 0.36900002 4284250217
0.061254211 0.014119529 0.36900002 4284316262
0.062452719 0.014119529 0.36900002 4280039715
0.063651234 0.014119529 0.36900002 4279909666
0.064849749 0.014119529 0.36900002 4280173608
0.066048265 0.014119529 0.36900002 4280107813
0.067246772 0.014119529 0.36900002 4279844641
0.068445288 0.014119529 0.36900002 4279647262
0.069455065 0.014081265 0.36800003 4279713055
0.070650324 0.014081265 0.36800003 4279713055
0.071845591 0.014081265 0.36800003 4279778848
0.072842374 0.014043001 0.36700001 4279976227
0.073832661 0.014004736 0.36600003 4279844641
0.075021431 0.014004736 0.36600003 4279713057
0.076001972 0.013966472 0.36500001 4279713057
0.077187493 0.013966472 0.36500001 4279646494
0.078373015 0.013966472 0.36500001 4279448602
0.079558536 0.013966472 0.36500001 4279448348
0.080744058 0.013966472 0.36500001 4279579934
0.081705116 0.013928208 0.36400002 4280040487
0.082887389 0.013928208 0.36400002 4281224761
0.084069662 0.013928208 0.36400002 4282146376
0.085251927 0.013928208 0.36400002 4283264855
0.086671658 0.013966472 0.36500001 4283593307
0.087857179 0.013966472 0.36500001 4285040753
0.089042693 0.013966472 0.36500001 4285105778
0.090475425 0.014004736 0.36600003 4285763708
0.091664188 0.014004736 0.36600003 4285895296
0.09310665 0.014043001 0.36700001 4285500538
0.094298668 0.014043001 0.36700001 4285763196
0.095490687 0.014043001 0.36700001 4285631610
0.096682705 0.014043001 0.36700001 4285763196
0.097874723 0.014043001 0.36700001 4285697403
0.099336684 0.014081265 0.36800003 4285434231
0.10053194 0.014081265 0.36800003 4285565817
0.10172721 0.014081265 0.36800003 4285697403
0.10292247 0.014081265 0.36800003 4285697149
0.10411774 0.014081265 0.36800003 4285762942
0.105313 0.014081265 0.36800003 4285697149
0.10650827 0.014081265 0.36800003 4285762942
0.1079962 0.014119529 0.36900002 4285894528
0.10919471 0.014119529 0.36900002 4285959808
0.11039323 0.014119529 0.36900002 4285959810
0.11159174 0.014119529 0.36900002 4285959810
0.11279026 0.014119529 0.36900002 4285959810
0.048200838 0.01535996 0.37 4284710256
0.049402602 0.01535996 0.37 4284710770
0.050604358 0.01535996 0.37 4284710770
0.051806122 0.01535996 0.37 4284644977
0.053007882 0.01535996 0.37 4284644977
0.054209646 0.01535996 0.37 4284644977
0.055261642 0.015318448 0.36900002 4284579184
0.056460157 0.015318448 0.36900002 4284644977
0.057658672 0.015318448 0.36900002 4284381805
0.05885718 0.015318448 0.36900002 4284579184
0.060055695 0.015318448 0.36900002 4284381803
0.06142021 0.01535996 0.37 4284513643
0.062621966 0.01535996 0.37 4284645229
0.06382373 0.01535996 0.37 4284843378
0.064849749 0.015318448 0.36900002 4284185444
0.066048265 0.015318448 0.36900002 4282672205
0.067246772 0.015318448 0.36900002 4281685825
0.068445288 0.015318448 0.36900002 4281554239
0.069643795 0.015318448 0.36900002 4282475341
0.070650324 0.015276935 0.36800003 4283659102
0.071845591 0.015276935 0.36800003 4284382053
0.072842374 0.01523542 0.36700001 4284251239
0.074034385 0.01523542 0.36700001 4284909169
0.075021431 0.015193908 0.36600003 4285303927
0.076210201 0.015193908 0.36600003 4285370235
0.077187493 0.015152394 0.36500001 4284383086
0.078373015 0.015152394 0.36500001 4284974964
0.079558536 0.015152394 0.36500001 4285171059
0.080744058 0.015152394 0.36500001 4285236852
0.09310665 0.01523542 0.36700001 4285565563
0.094298668 0.01523542 0.36700001 4285499257
0.095490687 0.01523542 0.36700001 4285696636
0.096682705 0.01523542 0.36700001 4285697149
0.097874723 0.01523542 0.36700001 4285631356
0.099336684 0.015276935 0.36800003 4285762942
0.10053194 0.015276935 0.36800003 4285762942
0.10172721 0.015276935 0.36800003 4285762429
0.10292247 0.015276935 0.36800003 4285828224
0.10411774 0.015276935 0.36800003 4285762944
0.06142021 0.016562128 0.37 4284513389
0.062621966 0.016562128 0.37 4284381803
0.06382373 0.016562128 0.37 4284382573
0.065025486 0.016562128 0.37 4284382573
0.066048265 0.016517365 0.36900002 4284382573
0.067246772 0.016517365 0.36900002 4284448366
0.068445288 0.016517365 0.36900002 4284448366
0.069643795 0.016517365 0.36900002 4284514159
0.070650324 0.016472604 0.36800003 4284710768
0.071845591 0.016472604 0.36800003 4284710768
0.072842374 0.016427841 0.36700001 4284644975
0.074034385 0.016427841 0.36700001 4284776561
0.075021431 0.016383078 0.36600003 4284842354
0.076210201 0.016383078 0.36600003 4284842354
0.077398971 0.016383078 0.36600003 4284842354
0.078587733 0.016383078 0.36600003 4285170805
0.066048265 0.017716285 0.36900002 4284644975
0.067246772 0.017716285 0.36900002 4284644975
0.073469803 0.0027958348 0.36765546 4294967295
0.073469803 0.0027958348 0.36765546 4294901760
0.073469803 0.0027958348 0.36815545 4294901760
0.073469803 0.0027958348 0.36865544 4294901760
0.073469803 0.0027958348 0.36915547 4294901760
0.073469803 0.0027958348 0.36965546 4294901760
0.073469803 0.0027958348 0.37015545 4294901760
0.073469803 0.0027958348 0.37065545 4294901760
0.073469803 0.0027958348 0.37115547 4294901760
0.073469803 0.0027958348 0.37165546 4294901760
0.073469803 0.0027958348 0.37215546 4294901760
0.073469803 0.0027958348 0.37265545 4294901760
0.073469803 0.0027958348 0.37315544 4294901760
0.073469803 0.0027958348 0.37365547 4294901760
0.073469803 0.0027958348 0.37415546 4294901760
0.073469803 0.0027958348 0.37465546 4294901760
0.073469803 0.0027958348 0.37515545 4294901760
0.073469803 0.0027958348 0.37565547 4294901760
0.073469803 0.0027958348 0.37615547 4294901760
0.073469803 0.0027958348 0.37665546 4294901760
0.073469803 0.0027958348 0.37715545 4294901760
0.073469803 0.0027958348 0.37765545 4294901760
0.073469803 0.0027958348 0.37815547 4294901760
0.073469803 0.0027958348 0.37865546 4294901760
0.073469803 0.0027958348 0.37915546 4294901760
0.073469803 0.0027958348 0.37965545 4294901760
0.073469803 0.0027958348 0.38015544 4294901760
0.073469803 0.0027958348 0.38065547 4294901760
0.073469803 0.0027958348 0.38115546 4294901760
0.073469803 0.0027958348 0.38165545 4294901760
0.073469803 0.0027958348 0.38215545 4294901760
0.073469803 0.0027958348 0.38265547 4294901760
0.073469803 0.0027958348 0.38315547 4294901760
0.073469803 0.0027958348 0.38365546 4294901760
0.073469803 0.0027958348 0.38415545 4294901760
0.073469803 0.0027958348 0.38465548 4294901760
0.073469803 0.0027958348 0.38515547 4294901760
0.073469803 0.0027958348 0.38565546 4294901760
0.073469803 0.0027958348 0.38615546 4294901760
0.073469803 0.0027958348 0.38665545 4294901760
0.073469803 0.0027958348 0.38715547 4294901760
0.073469803 0.0027958348 0.38765547 4294901760
0.073469803 0.0027958348 0.38815546 4294901760
0.073469803 0.0027958348 0.38865545 4294901760
0.073469803 0.0027958348 0.38915545 4294901760
0.073469803 0.0027958348 0.38965547 4294901760
0.073469803 0.0027958348 0.39015546 4294901760
0.073469803 0.0027958348 0.39065546 4294901760
0.073469803 0.0027958348 0.39115545 4294901760
0.073469803 0.0027958348 0.39165547 4294901760
0.073469803 0.0027958348 0.39215547 4294901760
0.073469803 0.0027958348 0.39265546 4294901760
0.073469803 0.0027958348 0.39315546 4294901760
0.073469803 0.0027958348 0.39365545 4294901760
0.073469803 0.0027958348 0.39415547 4294901760
0.073469803 0.0027958348 0.39465547 4294901760
0.073469803 0.0027958348 0.39515546 4294901760
0.073469803 0.0027958348 0.39565545 4294901760
0.073469803 0.0027958348 0.39615548 4294901760
0.073469803 0.0027958348 0.39665547 4294901760
0.073469803 0.0027958348 0.39715546 4294901760
0.073469803 0.0027958348 0.39765546 4294901760
0.073469803 0.0027958348 0.39815545 4294901760
0.073469803 0.0027958348 0.39865547 4294901760
0.073469803 0.0027958348 0.39915547 4294901760
0.073469803 0.0027958348 0.39965546 4294901760
0.073469803 0.0027958348 0.40015545 4294901760
0.073469803 0.0027958348 0.40065548 4294901760
0.073469803 0.0027958348 0.40115547 4294901760
0.073469803 0.0027958348 0.40165547 4294901760
0.073469803 0.0027958348 0.40215546 4294901760
0.073469803 0.0027958348 0.40265545 4294901760
0.073469803 0.0027958348 0.40315548 4294901760
0.073469803 0.0027958348 0.40365547 4294901760
0.073469803 0.0027958348 0.40415546 4294901760
0.073469803 0.0027958348 0.40465546 4294901760
0.073469803 0.0027958348 0.40515548 4294901760
0.073469803 0.0027958348 0.40565547 4294901760
0.073469803 0.0027958348 0.40615547 4294901760
0.073469803 0.0027958348 0.40665546 4294901760
0.073469803 0.0027958348 0.40715545 4294901760
0.073469803 0.0027958348 0.40765548 4294901760
0.073469803 0.0027958348 0.40815547 4294901760
0.073469803 0.0027958348 0.40865546 4294901760
0.073469803 0.0027958348 0.40915546 4294901760
0.073469803 0.0027958348 0.40965545 4294901760
0.073469803 0.0027958348 0.41015548 4294901760
0.073469803 0.0027958348 0.41065547 4294901760
0.073469803 0.0027958348 0.41115546 4294901760
0.073469803 0.0027958348 0.41165546 4294901760
0.073469803 0.0027958348 0.41215545 4294901760
0.073469803 0.0027958348 0.41265547 4294901760
0.073469803 0.0027958348 0.41315547 4294901760
0.073469803 0.0027958348 0.41365546 4294901760
0.073469803 0.0027958348 0.41415548 4294901760
0.073469803 0.0027958348 0.41465548 4294901760
0.073469803 0.0027958348 0.41515547 4294901760
0.073469803 0.0027958348 0.41565546 4294901760
0.073469803 0.0027958348 0.41615546 4294901760
0.073469803 0.0027958348 0.41665548 4294901760
0.073469803 0.0027958348 0.41715547 4294901760
0.073469803 0.0027958348 0.41765547 4294901760
0.073469803 0.0027958348 0.36765546 4278255360
0.073426306 0.0028916106 0.36814427 4278255360
0.073382802 0.0029873862 0.36863306 4278255360
0.073339306 0.003083162 0.36912188 4278255360
0.073295802 0.0031789378 0.3696107 4278255360
0.073252305 0.0032747136 0.37009951 4278255360
0.073208801 0.0033704895 0.3705883 4278255360
0.073165305 0.003466265 0.37107712 4278255360
0.073121801 0.0035620409 0.37156594 4278255360
0.073078305 0.0036578167 0.37205476 4278255360
0.073034808 0.0037535925 0.37254354 4278255360
0.072991304 0.0038493681 0.37303236 4278255360
0.072947808 0.0039451439 0.37352118 4278255360
0.072904304 0.0040409197 0.37400997 4278255360
0.072860807 0.0041366955 0.37449878 4278255360
0.072817303 0.0042324713 0.3749876 4278255360
0.072773807 0.0043282472 0.37547642 4278255360
0.07273031 0.0044240225 0.37596521 4278255360
0.072686806 0.0045197988 0.37645403 4278255360
0.07264331 0.0046155741 0.37694284 4278255360
0.072599806 0.00471135 0.37743166 4278255360
0.072556309 0.0048071258 0.37792045 4278255360
0.072512805 0.0049029016 0.37840927 4278255360
0.072469309 0.0049986774 0.37889808 4278255360
0.072425805 0.0050944528 0.3793869 4278255360
0.072382309 0.005190229 0.37987569 4278255360
0.072338812 0.0052860044 0.38036451 4278255360
0.072295308 0.0053817807 0.38085333 4278255360
0.072251812 0.005477556 0.38134211 4278255360
0.072208308 0.0055733318 0.38183093 4278255360
0.072164811 0.0056691077 0.38231975 4278255360
0.072121307 0.0057648835 0.38280857 4278255360
0.072077811 0.0058606593 0.38329735 4278255360
0.072034307 0.0059564351 0.38378617 4278255360
0.07199081 0.0060522109 0.38427499 4278255360
0.071947314 0.0061479863 0.38476381 4278255360
0.07190381 0.0062437626 0.38525259 4278255360
0.071860313 0.0063395379 0.38574141 4278255360
0.071816809 0.0064353137 0.38623023 4278255360
0.071773313 0.0065310895 0.38671902 4278255360
0.071729809 0.0066268654 0.38720784 4278255360
0.071686313 0.0067226412 0.38769665 4278255360
0.071642816 0.0068184165 0.38818547 4278255360
0.071599312 0.0069141928 0.38867426 4278255360
0.071555816 0.0070099682 0.38916308 4278255360
0.071512312 0.0071057435 0.38965189 4278255360
0.071468815 0.0072015198 0.39014071 4278255360
0.071425311 0.0072972951 0.3906295 4278255360
0.071381815 0.0073930714 0.39111832 4278255360
0.071338311 0.0074888468 0.39160714 4278255360
0.071294814 0.0075846231 0.39209592 4278255360
0.071251318 0.0076803984 0.39258474 4278255360
0.071207814 0.0077761738 0.39307356 4278255360
