# .PCD v0.7 - Point Cloud Data file format
VERSION 0.7
FIELDS x y z rgb
SIZE 4 4 4 4
TYPE F F F U
COUNT 1 1 1 1
WIDTH 996
HEIGHT 1
VIEWPOINT 0 0 0 1 0 0 0
POINTS 996
DATA ascii
0.076071844 -0.077636719 0.42500001 4286881686
0.077452242 -0.077636719 0.42500001 4283790438
0.078832641 -0.077636719 0.42500001 4281223225
0.073138542 -0.076076433 0.42400002 4287408283
0.0745157 -0.076076433 0.42400002 4285895812
0.076071844 -0.076255858 0.42500001 4281227841
0.077452242 -0.076255858 0.42500001 4280176436
0.078832641 -0.076255858 0.42500001 4280505912
0.080213048 -0.076255858 0.42500001 4279714600
0.07142289 -0.074346453 0.42200002 4287145111
0.072966047 -0.074522629 0.42300001 4283923818
0.074339949 -0.074522629 0.42300001 4281096255
0.075892851 -0.074698813 0.42400002 4280113203
0.077270001 -0.074698813 0.42400002 4279719469
0.078832641 -0.074874982 0.42500001 4279588396
0.080213048 -0.074874982 0.42500001 4279719469
0.069886245 -0.072802417 0.42100003 4288263590
0.07142289 -0.072975338 0.42200002 4283001433
0.072793551 -0.072975338 0.42200002 4281361475
0.074339949 -0.073148265 0.42300001 4280113203
0.075713858 -0.073148265 0.42300001 4279851568
0.077270001 -0.073321193 0.42400002 4279654187
0.078647159 -0.073321193 0.42400002 4279260199
0.080024309 -0.073321193 0.42400002 4279192355
0.066832408 -0.071095183 0.41900003 4287539869
0.068356074 -0.071264856 0.42000002 4287605660
0.069720238 -0.071264856 0.42000002 4281620802
0.071253642 -0.071434543 0.42100003 4280965180
0.072793551 -0.071604215 0.42200002 4280048180
0.074164212 -0.071604215 0.42200002 4279654189
0.075713858 -0.071773894 0.42300001 4279457580
0.07708776 -0.071773894 0.42300001 4279325992
0.078461662 -0.071773894 0.42300001 4279849258
0.080024309 -0.071943574 0.42400002 4283332697
0.065315239 -0.069567382 0.41800001 4287671455
0.066672906 -0.069567382 0.41800001 4288000418
0.068193324 -0.069733813 0.41900003 4281423423
0.069720238 -0.069900237 0.42000002 4280769338
0.071084395 -0.069900237 0.42000002 4279916596
0.072621055 -0.070066668 0.42100003 4279392301
0.073988467 -0.070066668 0.42100003 4279392299
0.075534865 -0.070233099 0.42200002 4279326506
0.076905519 -0.070233099 0.42200002 4280246324
0.078461662 -0.070399523 0.42300001 4281754689
0.080024309 -0.070565954 0.42400002 4285501558
0.063651562 -0.067882888 0.41600001 4287671455
0.065158986 -0.068046071 0.41700003 4286685330
0.066513397 -0.068046071 0.41700003 4281096255
0.068030566 -0.068209253 0.41800001 4280769084
0.06955424 -0.068372436 0.41900003 4279653937
0.070915148 -0.068372436 0.41900003 4279392047
0.072448559 -0.068535611 0.42000002 4279195433
0.073988467 -0.068698794 0.42100003 4279129640
0.075534865 -0.068861976 0.42200002 4280639547
0.076905519 -0.068861976 0.42200002 4281624899
0.078461662 -0.069025151 0.42300001 4281884226
0.062000871 -0.066211402 0.41400003 4287803039
0.063498549 -0.066371337 0.41500002 4285699716
0.065002732 -0.066531263 0.41600001 4281556036
0.066353895 -0.066531263 0.41600001 4279982389
0.067867815 -0.066691197 0.41700003 4279720752
0.069388233 -0.066851124 0.41800001 4279326508
0.070915148 -0.067011058 0.41900003 4279195435
0.072276063 -0.067011058 0.41900003 4279326506
0.073812723 -0.067170985 0.42000002 4280771385
0.07535588 -0.067330919 0.42100003 4279781928
0.076905519 -0.067490846 0.42200002 4282017607
0.060363177 -0.064552918 0.41200003 4287934625
0.061851107 -0.064709596 0.41300002 4285040503
0.063345544 -0.064866282 0.41400003 4281096766
0.064690217 -0.064866282 0.41400003 4280046899
0.066194393 -0.06502296 0.41500002 4279785773
0.067705065 -0.065179639 0.41600001 4279260711
0.069056235 -0.065179639 0.41600001 4279129638
0.070576653 -0.065336324 0.41700003 4279129125
0.072276063 -0.065649688 0.41900003 4281165118
0.073812723 -0.065806367 0.42000002 4280637491
0.07535588 -0.065963052 0.42100003 4281819712
0.076723285 -0.065963052 0.42100003 4282016323
0.059024997 -0.06321428 0.41200003 4287868832
0.060216662 -0.06306085 0.41100001 4283593570
0.06170135 -0.06321428 0.41200003 4281030460
0.063039526 -0.06321428 0.41200003 4279718445
0.064533964 -0.06336771 0.41300002 4279851568
0.065875381 -0.06336771 0.41300002 4279326506
0.067379564 -0.063521147 0.41400003 4279260711
0.068890236 -0.063674577 0.41500002 4279654955
0.070407398 -0.063828006 0.41600001 4280968766
0.07210356 -0.064134873 0.41800001 4280900922
0.073636979 -0.064288311 0.41900003 4281557569
0.07517688 -0.064441741 0.42000002 4282279495
0.076723285 -0.064595178 0.42100003 4284054110
0.05888173 -0.061725467 0.41100001 4282410579
0.06007015 -0.061575286 0.41000003 4280309303
0.061401825 -0.061575286 0.41000003 4280113203
0.062886514 -0.061725467 0.41100001 4279523373
0.064221449 -0.061725467 0.41100001 4279260715
0.06555637 -0.061725467 0.41100001 4279523885
0.067054056 -0.061875656 0.41200003 4279391783
0.068558231 -0.062025838 0.41300002 4281691458
0.070238151 -0.062326204 0.41500002 4280506416
0.071758568 -0.062476385 0.41600001 4281492030
0.073461227 -0.062776752 0.41800001 4280833333
0.07517688 -0.063077122 0.42000002 4282869584
0.057406787 -0.060243152 0.41000003 4281753933
0.05888173 -0.060390085 0.41100001 4280638272
0.059923634 -0.060096215 0.40900001 4279457328
0.061252065 -0.060096215 0.40900001 4279655986
0.062580496 -0.060096215 0.40900001 4279327789
0.063908935 -0.060096215 0.40900001 4279196203
0.065237358 -0.060096215 0.40900001 4279522601
0.066728555 -0.060243152 0.41000003 4281231936
0.068226233 -0.060390085 0.41100001 4280703282
0.070068903 -0.060830891 0.41400003 4281425724
0.071586072 -0.060977824 0.41500002 4282147650
0.07328549 -0.061271694 0.41700003 4282211908
0.053808782 -0.057905227 0.40300003 4287804322
0.05963061 -0.058479965 0.40700001 4279063595
0.06095254 -0.058479965 0.40700001 4279064619
0.062274482 -0.058479965 0.40700001 4279196201
0.06359642 -0.058479965 0.40700001 4279983920
0.065077856 -0.058623653 0.40800002 4280770872
0.066403046 -0.058623653 0.40800002 4280506416
0.068060234 -0.058911026 0.41000003 4281688126
0.069730408 -0.059198394 0.41200003 4281950784
0.071413584 -0.059485767 0.41400003 4282144829
0.051063862 -0.056455396 0.40200001 4287342488
0.052369561 -0.056455396 0.40200001 4288263590
0.05367526 -0.056455396 0.40200001 4281228093
0.054980952 -0.056455396 0.40200001 4280506934
0.057735614 -0.056595836 0.40300003 4279326508
0.05933759 -0.056876708 0.40500003 4279196205
0.060653023 -0.056876708 0.40500003 4278933546
0.062121473 -0.057017144 0.40600002 4280311606
0.063440166 -0.057017144 0.40600002 4280837180
0.064758852 -0.057017144 0.40600002 4280835383
0.066077538 -0.057017144 0.40600002 4281163065
0.067728229 -0.057298016 0.40800002 4281687358
0.049510613 -0.054874886 0.40000001 4287013525
0.05093684 -0.055012077 0.40100002 4287935395
0.052239291 -0.055012077 0.40100002 4281555522
0.05367526 -0.055149261 0.40200001 4280178483
0.054980952 -0.055149261 0.40200001 4279260201
0.056286652 -0.055149261 0.40200001 4279261226
0.057735614 -0.055286452 0.40300003 4279196203
0.059191074 -0.055423636 0.40400001 4278867751
0.060503263 -0.055423636 0.40400001 4279654959
0.061815456 -0.055423636 0.40400001 4280902460
0.063283913 -0.055560827 0.40500003 4280901176
0.06459935 -0.055560827 0.40500003 4281360444
0.065914787 -0.055560827 0.40500003 4281753919
0.047970362 -0.053307369 0.39800003 4287079316
0.049510613 -0.053575244 0.40000001 4287870369
0.050809812 -0.053575244 0.40000001 4280637500
0.052239291 -0.053709183 0.40100002 4280310330
0.053541742 -0.053709183 0.40100002 4279260715
0.054980952 -0.053843118 0.40200001 4279458605
0.056286652 -0.053843118 0.40200001 4279262509
0.057592351 -0.053843118 0.40200001 4278999337
0.059044562 -0.053977061 0.40300003 4280837950
0.060503263 -0.054110996 0.40400001 4280705594
0.061815456 -0.054110996 0.40400001 4280833846
0.063127652 -0.054110996 0.40400001 4281359677
0.064439841 -0.054110996 0.40400001 4281687872
0.065914787 -0.054244936 0.40500003 4281555261
0.04504285 -0.051622156 0.39500001 4286487179
0.046443094 -0.051752847 0.39600003 4286618765
0.04784983 -0.051883534 0.39700001 4287607713
0.04938684 -0.052144911 0.39900002 4281096003
0.050682791 -0.052144911 0.39900002 4280443453
0.052109014 -0.052275598 0.40000001 4279326254
0.053541742 -0.052406289 0.40100002 4279261224
0.054844186 -0.052406289 0.40100002 4279327017
0.056286652 -0.052536976 0.40200001 4279196201
0.057592351 -0.052536976 0.40200001 4280116020
0.059044562 -0.05266767 0.40300003 4281165632
0.060353503 -0.05266767 0.40300003 4281098042
0.06166245 -0.05266767 0.40300003 4280700463
0.063127652 -0.052798357 0.40400001 4281818944
0.064439841 -0.052798357 0.40400001 4282080835
0.04504285 -0.050338764 0.39500001 4286356363
0.046325814 -0.050338764 0.39500001 4287672736
0.047729302 -0.050466206 0.39600003 4281623114
0.049139284 -0.050593644 0.39700001 4280112440
0.050555769 -0.050721087 0.39800003 4278998572
0.051978745 -0.050848521 0.39900002 4278999339
0.053408217 -0.05097596 0.40000001 4279130923
0.054844186 -0.051103402 0.40100002 4279262507
0.056146637 -0.051103402 0.40100002 4280377649
0.057592351 -0.05123084 0.40200001 4280902456
0.059044562 -0.051358283 0.40300003 4281228343
0.060353503 -0.051358283 0.40300003 4281425470
0.06166245 -0.051358283 0.40300003 4282542667
0.062971398 -0.051358283 0.40300003 4282607177
0.064439841 -0.051485721 0.40400001 4286355070
0.042046785 -0.048558608 0.39100003 4286552972
0.043427538 -0.048682798 0.39200002 4286618765
0.044928819 -0.048931178 0.39400002 4287344541
0.046208534 -0.048931178 0.39400002 4281293636
0.04760877 -0.049055368 0.39500001 4280705342
0.049015511 -0.049179561 0.39600003 4279457326
0.050428741 -0.049303748 0.39700001 4279065132
0.051848475 -0.049427941 0.39800003 4278999339
0.053274699 -0.049552131 0.39900002 4279130412
0.054707415 -0.049676321 0.40000001 4281035840
0.056146637 -0.049800515 0.40100002 4281165116
0.057592351 -0.049924701 0.40200001 4281820993
0.058898047 -0.049924701 0.40200001 4280108067
0.060353503 -0.050048895 0.40300003 4281686847
0.06166245 -0.050048895 0.40300003 4282343494
0.062971398 -0.050048895 0.40300003 4286026618
0.04056824 -0.047046322 0.38900003 4287013777
0.042046785 -0.047288209 0.39100003 4288593579
0.043316755 -0.047288209 0.39100003 4286225290
0.044814784 -0.047530089 0.39300001 4281294145
0.046208534 -0.047651034 0.39400002 4280310071
0.04760877 -0.047771972 0.39500001 4279787318
0.049015511 -0.047892917 0.39600003 4279130923
0.050428741 -0.048013855 0.39700001 4278802728
0.051848475 -0.0481348 0.39800003 4278671142
0.053274699 -0.048255742 0.39900002 4280641852
0.054707415 -0.048376679 0.40000001 4281231936
0.056006618 -0.048376679 0.40000001 4279780129
0.057449088 -0.048497625 0.40100002 4280569131
0.058898047 -0.048618563 0.40200001 4282146115
0.060353503 -0.048739508 0.40300003 4282146115
0.06166245 -0.048739508 0.40300003 4285171055
0.062971398 -0.048739508 0.40300003 4285960312
0.04056824 -0.045782425 0.38900003 4286750089
0.043316755 -0.046017811 0.39100003 4280569139
0.044700753 -0.0461355 0.39200002 4280113457
0.046091251 -0.046253193 0.39300001 4279391787
0.047488246 -0.046370886 0.39400002 4279130923
0.048891731 -0.046488576 0.39500001 4278868519
0.050301719 -0.046606272 0.39600003 4278735652
0.051718198 -0.046723962 0.39700001 4280247608
0.05314118 -0.046841659 0.39800003 4281099839
0.054570649 -0.046959348 0.39900002 4279846438
0.056006618 -0.047077041 0.40000001 4281553978
0.057449088 -0.047194734 0.40100002 4281619771
0.058898047 -0.047312424 0.40200001 4282277701
0.060203739 -0.047312424 0.40200001 4285632120
0.06166245 -0.04743012 0.40300003 4286091898
0.041831709 -0.044518519 0.38900003 4280505653
0.043205969 -0.044632964 0.39000002 4279719215
0.044586722 -0.044747408 0.39100003 4279261228
0.045973971 -0.044861849 0.39200002 4279130412
0.047367714 -0.04497629 0.39300001 4278934312
0.048767958 -0.045090739 0.39400002 4279394093
0.050174691 -0.04520518 0.39500001 4280574776
0.051587928 -0.045319624 0.39600003 4281231423
0.05314118 -0.045548514 0.39800003 4280239401
0.054570649 -0.045662954 0.39900002 4280633135
0.055866603 -0.045662954 0.39900002 4281817663
0.057449088 -0.04589184 0.40100002 4282015042
0.058751538 -0.04589184 0.40100002 4285105776
0.060203739 -0.046006285 0.40200001 4286026364
0.06166245 -0.046120729 0.40300003 4286091646
0.04046395 -0.043143425 0.38800001 4280963897
0.041831709 -0.043254621 0.38900003 4279785523
0.043205969 -0.043365814 0.39000002 4279063082
0.044586722 -0.04347701 0.39100003 4278999339
0.045973971 -0.043588202 0.39200002 4279065130
0.047367714 -0.043699395 0.39300001 4279129127
0.048767958 -0.043810591 0.39400002 4280443703
0.050174691 -0.043921784 0.39500001 4281294651
0.051587928 -0.04403298 0.39600003 4279976229
0.053007659 -0.044144172 0.39700001 4281093173
0.054433882 -0.044255368 0.39800003 4280764721
0.055866603 -0.044366561 0.39900002 4282146628
0.05730582 -0.044477757 0.40000001 4285961339
0.058751538 -0.044588953 0.40100002 4286091644
0.039102685 -0.041774828 0.38700002 4281294399
0.040359661 -0.041774828 0.38700002 4280112690
0.041724171 -0.041882772 0.38800001 4279195435
0.043095186 -0.04199072 0.38900003 4278933546
0.044472687 -0.042098664 0.39000002 4278934314
0.045856692 -0.042206611 0.39100003 4279065130
0.047367714 -0.0424225 0.39300001 4280969534
0.048767958 -0.042530444 0.39400002 4280375600
0.050174691 -0.042638388 0.39500001 4279843871
0.051587928 -0.042746335 0.39600003 4281026862
0.053007659 -0.042854279 0.39700001 4279908899
0.054297112 -0.042854279 0.39700001 4283264342
0.055726588 -0.042962227 0.39800003 4284974190
0.03014724 -0.040308032 0.38500002 4279655480
0.031397719 -0.040308032 0.38500002 4280178748
0.037747912 -0.040412728 0.38600001 4280702262
0.039001644 -0.040412728 0.38600001 4279983152
0.040359661 -0.040517427 0.38700002 4279194920
0.041724171 -0.040622123 0.38800001 4278604579
0.043095186 -0.040726818 0.38900003 4278999337
0.044472687 -0.040831514 0.39000002 4279064617
0.045856692 -0.040936213 0.39100003 4280312887
0.047247186 -0.041040905 0.39200002 4282018374
0.048644178 -0.0411456 0.39300001 4279976229
0.05004767 -0.0412503 0.39400002 4281157936
0.051457655 -0.041354995 0.39500001 4280500006
0.05287414 -0.041459691 0.39600003 4282342722
0.054297112 -0.041564386 0.39700001 4285434741
0.055726588 -0.041669086 0.39800003 4286026364
0.03014724 -0.039057128 0.38500002 4279393584
0.031397719 -0.039057128 0.38500002 4279459123
0.032648202 -0.039057128 0.38500002 4279655732
0.033898681 -0.039057128 0.38500002 4279654707
0.035149161 -0.039057128 0.38500002 4279982902
0.036399644 -0.039057128 0.38500002 4279456558
0.037747912 -0.039158575 0.38600001 4279392047
0.039001644 -0.039158575 0.38600001 4278867236
0.040359661 -0.039260022 0.38700002 4279262507
0.041724171 -0.039361469 0.38800001 4279131691
0.043095186 -0.039462917 0.38900003 4279459886
0.044472687 -0.039564364 0.39000002 4280641082
0.045856692 -0.039665814 0.39100003 4280442420
0.047367714 -0.039868705 0.39300001 4279910947
0.048767958 -0.039970152 0.39400002 4282014788
0.05004767 -0.039970152 0.39400002 4280302373
0.051457655 -0.040071599 0.39500001 4282802507
0.05287414 -0.040173046 0.39600003 4286157950
0.054297112 -0.040274493 0.39700001 4286157437
0.03014724 -0.037806224 0.38500002 4278735652
0.031479269 -0.037904423 0.38600001 4278801958
0.032648202 -0.037806224 0.38500002 4280052027
0.033898681 -0.037806224 0.38500002 4281760847
0.035149161 -0.037806224 0.38500002 4280114740
0.036494188 -0.037904423 0.38600001 4279260974
0.037747912 -0.037904423 0.38600001 4279394097
0.039102685 -0.038002621 0.38700002 4279066414
0.040359661 -0.038002621 0.38700002 4279263793
0.041724171 -0.038100816 0.38800001 4279327789
0.043095186 -0.038199019 0.38900003 4280247608
0.044586722 -0.038395412 0.39100003 4281625669
0.045973971 -0.038493611 0.39200002 4281098042
0.047367714 -0.038591806 0.39300001 4280830766
0.048767958 -0.038690008 0.39400002 4279513373
0.05004767 -0.038690008 0.39400002 4282540873
0.051457655 -0.038788203 0.39500001 4286027132
0.030225543 -0.03665027 0.38600001 4278337814
0.031479269 -0.03665027 0.38600001 4278274329
0.032733001 -0.03665027 0.38600001 4278604064
0.033986729 -0.03665027 0.38600001 4278209309
0.035240456 -0.03665027 0.38600001 4279130410
0.036494188 -0.03665027 0.38600001 4280445498
0.037747912 -0.03665027 0.38600001 4278999337
0.039102685 -0.03674522 0.38700002 4278671656
0.04046395 -0.036840167 0.38800001 4279263279
0.041831709 -0.036935117 0.38900003 4280509498
0.043205969 -0.037030064 0.39000002 4280837950
0.044586722 -0.037125014 0.39100003 4281492546
0.045973971 -0.037219964 0.39200002 4281820743
0.047367714 -0.03731491 0.39300001 4280237864
0.048767958 -0.037409861 0.39400002 4282145861
0.05004767 -0.037409861 0.39400002 4285764730
0.02972238 -0.036313117 0.39600003 4278597906
0.030851981 -0.036129717 0.39400002 4278599187
0.031560823 -0.035487816 0.38700002 4278600214
0.032817803 -0.035487816 0.38700002 4278732570
0.03407478 -0.035487816 0.38700002 4278998052
0.035240456 -0.035396114 0.38600001 4278998052
0.036588732 -0.035487816 0.38700002 4279063845
0.037845708 -0.035487816 0.38700002 4279655982
0.039203726 -0.035579514 0.38800001 4279326506
0.04046395 -0.035579514 0.38800001 4280377912
0.041831709 -0.035671216 0.38900003 4280902460
0.043205969 -0.035762914 0.39000002 4281165118
0.044586722 -0.035854615 0.39100003 4280044332
0.046091251 -0.036038015 0.39300001 4280899128
0.047367714 -0.036038015 0.39300001 4282804045
0.048767958 -0.036129717 0.39400002 4285763446
0.030773675 -0.034761116 0.39300001 4278664212
0.031642377 -0.034318864 0.38800001 4278665494
0.032902602 -0.034318864 0.38800001 4278929179
0.03407478 -0.034230415 0.38700002 4278865439
0.035331756 -0.034230415 0.38700002 4278997025
0.036588732 -0.034230415 0.38700002 4280312117
0.037943501 -0.034318864 0.38800001 4279785773
0.039203726 -0.034318864 0.38800001 4280114738
0.04056824 -0.034407318 0.38900003 4280640569
0.041939247 -0.034495767 0.39000002 4281034044
0.043316755 -0.034584217 0.39100003 4281230911
0.044700753 -0.034672666 0.39200002 4281096505
0.046091251 -0.034761116 0.39300001 4282147911
0.047367714 -0.034761116 0.39300001 4286158202
0.032987405 -0.033143416 0.38900003 4279192353
0.034162827 -0.033058211 0.38800001 4279127330
0.035423048 -0.033058211 0.38800001 4279917361
0.036683276 -0.033058211 0.38800001 4280246324
0.037943501 -0.033058211 0.38800001 4279983152
0.039304767 -0.033143416 0.38900003 4280508983
0.04056824 -0.033143416 0.38900003 4280968764
0.041939247 -0.033228617 0.39000002 4281033532
0.043316755 -0.033313818 0.39100003 4281032762
0.044700753 -0.033399019 0.39200002 4282147911
0.046091251 -0.033484221 0.39300001 4285896829
0.030695371 -0.032125372 0.39200002 4278795287
0.031887036 -0.03204342 0.39100003 4278928154
0.033072203 -0.031961467 0.39000002 4279586598
0.034250874 -0.031879514 0.38900003 4279390504
0.035423048 -0.031797562 0.38800001 4279852084
0.036683276 -0.031797562 0.38800001 4279918131
0.038041294 -0.031879514 0.38900003 4280181301
0.039304767 -0.031879514 0.38900003 4280705592
0.040672526 -0.031961467 0.39000002 4281034557
0.041939247 -0.031961467 0.39000002 4281296704
0.043316755 -0.03204342 0.39100003 4281097790
0.044700753 -0.032125372 0.39200002 4285567351
0.046091251 -0.032207321 0.39300001 4286027132
0.030773675 -0.030930424 0.39300001 4278795546
0.031968586 -0.030851722 0.39200002 4278862875
0.033157006 -0.030773019 0.39100003 4279521316
0.034338925 -0.030694313 0.39000002 4279325222
0.035514347 -0.030615611 0.38900003 4280443705
0.03677782 -0.030615611 0.38900003 4280509498
0.038041294 -0.030615611 0.38900003 4280312119
0.039405808 -0.030694313 0.39000002 4280771387
0.040672526 -0.030694313 0.39000002 4280902460
0.041939247 -0.030694313 0.39000002 4281818946
0.043316755 -0.030773019 0.39100003 4286027132
0.044700753 -0.030851722 0.39200002 4286157437
0.046091251 -0.030930424 0.39300001 4286157437
0.017642433 -0.029049894 0.38500002 4282404419
0.027218524 -0.029955344 0.39700001 4279186713
0.02850798 -0.029955344 0.39700001 4278859543
0.02972238 -0.02987989 0.39600003 4278598167
0.030851981 -0.029728983 0.39400002 4278862109
0.032050136 -0.029653527 0.39300001 4278994461
0.033241805 -0.029578073 0.39200002 4279258144
0.034426972 -0.029502621 0.39100003 4279916844
0.035514347 -0.029351711 0.38900003 4279917357
0.03677782 -0.029351711 0.38900003 4280048945
0.038139086 -0.029427165 0.39000002 4280508985
0.039405808 -0.029427165 0.39000002 4281362497
0.040672526 -0.029427165 0.39000002 4281755202
0.041939247 -0.029427165 0.39000002 4286355845
0.043316755 -0.029502621 0.39100003 4286157952
0.044700753 -0.029578073 0.39200002 4286223743
0.046091251 -0.029653527 0.39300001 4286289023
0.016391952 -0.02779899 0.38500002 4286488203
0.017734082 -0.027943401 0.38700002 4287211156
0.019089203 -0.028087812 0.38900003 4284511846
0.023291336 -0.028593246 0.39600003 4280167971
0.024577547 -0.028593246 0.39600003 4279642649
0.025863754 -0.028593246 0.39600003 4279710236
0.027218524 -0.028665451 0.39700001 4279121947
0.028436171 -0.028593246 0.39600003 4278925849
0.02972238 -0.028593246 0.39600003 4278795800
0.030851981 -0.028448837 0.39400002 4278664984
0.032050136 -0.02837663 0.39300001 4279191840
0.033326603 -0.02837663 0.39300001 4279652904
0.03451502 -0.028304426 0.39200002 4280048943
0.03587953 -0.02837663 0.39300001 4279983150
0.037155997 -0.02837663 0.39300001 4280443701
0.038139086 -0.028160015 0.39000002 4280968764
0.039405808 -0.028160015 0.39000002 4281951298
0.040672526 -0.028160015 0.39000002 4286093695
0.041939247 -0.028160015 0.39000002 4286026364
0.043316755 -0.028232221 0.39100003 4286223230
0.044700753 -0.028304426 0.39200002 4286223232
0.046091251 -0.02837663 0.39300001 4286223230
0.014071392 -0.026892865 0.39000002 4285102948
0.015338113 -0.026892865 0.39000002 4286619019
0.016519681 -0.026754953 0.38800001 4286882961
0.01782573 -0.02682391 0.38900003 4286882959
0.019138277 -0.026892865 0.39000002 4286816394
0.020509636 -0.027030777 0.39200002 4287078539
0.02323252 -0.027237644 0.39500001 4279116305
0.024577547 -0.027306603 0.39600003 4279710236
0.025863754 -0.027306603 0.39600003 4279647264
0.027149964 -0.027306603 0.39600003 4278925336
0.028436171 -0.027306603 0.39600003 4278860826
0.029647322 -0.027237644 0.39500001 4278927386
0.030851981 -0.027168689 0.39400002 4278928156
0.032131691 -0.027168689 0.39400002 4279323939
0.033326603 -0.027099732 0.39300001 4279389732
0.034603067 -0.027099732 0.39300001 4280311602
0.035970829 -0.027168689 0.39400002 4279917357
0.037250545 -0.027168689 0.39400002 4280574778
0.038530257 -0.027168689 0.39400002 4280834616
0.039809968 -0.027168689 0.39400002 4285895546
0.04108968 -0.027168689 0.39400002 4286026618
0.042369392 -0.027168689 0.39400002 4286157437
0.043649107 -0.027168689 0.39400002 4286223230
0.044928819 -0.027168689 0.39400002 4286157437
0.046208534 -0.027168689 0.39400002 4286289023
0.012837506 -0.025691424 0.39100003 4283191857
0.014071392 -0.025625715 0.39000002 4286616959
0.015338113 -0.025625715 0.39000002 4286947468
0.016604833 -0.025625715 0.39000002 4287210640
0.017871555 -0.025625715 0.39000002 4287473812
0.01918735 -0.025691424 0.39100003 4286815880
0.020561956 -0.025822837 0.39300001 4286223743
0.021893991 -0.025888544 0.39400002 4286223743
0.02323252 -0.02595425 0.39500001 4285170796
0.02451548 -0.02595425 0.39500001 4280171041
0.02579844 -0.02595425 0.39500001 4279383838
0.027081402 -0.02595425 0.39500001 4279320348
0.028364362 -0.02595425 0.39500001 4279189275
0.029647322 -0.02595425 0.39500001 4278993949
0.030851981 -0.025888544 0.39400002 4279257635
0.032131691 -0.025888544 0.39400002 4279323937
0.033326603 -0.025822837 0.39300001 4280245039
0.034603067 -0.025822837 0.39300001 4280442672
0.035970829 -0.025888544 0.39400002 4280705844
0.037250545 -0.025888544 0.39400002 4281754437
0.038530257 -0.025888544 0.39400002 4286028161
0.039809968 -0.025888544 0.39400002 4286223743
0.04108968 -0.025888544 0.39400002 4286289536
0.042369392 -0.025888544 0.39400002 4286092157
0.043649107 -0.025888544 0.39400002 4286223230
0.044928819 -0.025888544 0.39400002 4286354816
0.046208534 -0.025888544 0.39400002 4286289023
0.012837506 -0.024421025 0.39100003 4282601008
0.014107473 -0.024421025 0.39100003 4287604885
0.015377442 -0.024421025 0.39100003 4287342226
0.016647412 -0.024421025 0.39100003 4287276433
0.01791738 -0.024421025 0.39100003 4286750089
0.019236421 -0.024483481 0.39200002 4286552708
0.020561956 -0.02454594 0.39300001 4286289536
0.021893991 -0.024608398 0.39400002 4286355329
0.023173705 -0.024608398 0.39400002 4286092411
0.02451548 -0.024670856 0.39500001 4286158204
0.02579844 -0.024670856 0.39500001 4286158464
0.027081402 -0.024670856 0.39500001 4280699180
0.028364362 -0.024670856 0.39500001 4279055125
0.029647322 -0.024670856 0.39500001 4279584033
0.030851981 -0.024608398 0.39400002 4279782182
0.032131691 -0.024608398 0.39400002 4279717670
0.033411406 -0.024608398 0.39400002 4280376112
0.034691118 -0.024608398 0.39400002 4280177451
0.035970829 -0.024608398 0.39400002 4283266904
0.037250545 -0.024608398 0.39400002 4286487429
0.038530257 -0.024608398 0.39400002 4285961085
0.039809968 -0.024608398 0.39400002 4286157950
0.04108968 -0.024608398 0.39400002 4286157950
0.042369392 -0.024608398 0.39400002 4286223743
0.043649107 -0.024608398 0.39400002 4286289536
0.044928819 -0.024608398 0.39400002 4286026364
0.046208534 -0.024608398 0.39400002 4285894778
0.014107473 -0.023150627 0.39100003 4287013775
0.01541677 -0.023209834 0.39200002 4287211154
0.016647412 -0.023150627 0.39100003 4286224259
0.017963205 -0.023209834 0.39200002 4286552708
0.019285493 -0.023269042 0.39300001 4286552962
0.020561956 -0.023269042 0.39300001 4286552962
0.021893991 -0.023328252 0.39400002 4286618755
0.023173705 -0.023328252 0.39400002 4286355329
0.024453416 -0.023328252 0.39400002 4286289536
0.025733128 -0.023328252 0.39400002 4286092925
0.027081402 -0.02338746 0.39500001 4285961337
0.028292555 -0.023328252 0.39400002 4286356095
0.029572265 -0.023328252 0.39400002 4286289788
0.030851981 -0.023328252 0.39400002 4284316514
0.032131691 -0.023328252 0.39400002 4283857246
0.033411406 -0.023328252 0.39400002 4284779118
0.034691118 -0.023328252 0.39400002 4286027900
0.035970829 -0.023328252 0.39400002 4285830523
0.037250545 -0.023328252 0.39400002 4286092671
0.038530257 -0.023328252 0.39400002 4286026878
0.039809968 -0.023328252 0.39400002 4286223743
0.04108968 -0.023328252 0.39400002 4286026364
0.042369392 -0.023328252 0.39400002 4286289536
0.019285493 -0.021992145 0.39300001 4286487429
0.020561956 -0.021992145 0.39300001 4286618755
0.021893991 -0.022048106 0.39400002 4286487169
0.023173705 -0.022048106 0.39400002 4286487169
0.024453416 -0.022048106 0.39400002 4286355583
0.025733128 -0.022048106 0.39400002 4286158204
0.027012844 -0.022048106 0.39400002 4286289788
0.028292555 -0.022048106 0.39400002 4286158202
0.029572265 -0.022048106 0.39400002 4286158204
0.030851981 -0.022048106 0.39400002 4286158204
0.032131691 -0.022048106 0.39400002 4286158204
0.033411406 -0.022048106 0.39400002 4286158204
0.034691118 -0.022048106 0.39400002 4286158204
0.035970829 -0.022048106 0.39400002 4286223997
0.037250545 -0.022048106 0.39400002 4286223997
0.038530257 -0.022048106 0.39400002 4286158204
0.039809968 -0.022048106 0.39400002 4286223997
0.04108968 -0.022048106 0.39400002 4286289790
0.042369392 -0.022048106 0.39400002 4286355583
0.029572265 -0.020767959 0.39400002 4286289790
0.030851981 -0.020767959 0.39400002 4286289790
0.032131691 -0.020767959 0.39400002 4286289790
0.033411406 -0.020767959 0.39400002 4286223997
0.034691118 -0.020767959 0.39400002 4286158204
0.035970829 -0.020767959 0.39400002 4286289790
0.037250545 -0.020767959 0.39400002 4286289790
0.038530257 -0.020767959 0.39400002 4286355070
0.039809968 -0.020767959 0.39400002 4286289277
0.04108968 -0.020767959 0.39400002 4286289277
0.042369392 -0.020767959 0.39400002 4286223484
0.047442462 -0.043187529 0.39900357 4294967295
0.047442462 -0.043187529 0.39900357 4294901760
0.047094736 -0.043546792 0.39899969 4294901760
0.046747006 -0.043906055 0.39899585 4294901760
0.04639928 -0.044265322 0.39899197 4294901760
0.046051551 -0.044624586 0.3989881 4294901760
0.045703825 -0.044983849 0.39898422 4294901760
0.045356099 -0.045343112 0.39898038 4294901760
0.045008369 -0.045702375 0.3989765 4294901760
0.044660643 -0.046061642 0.39897263 4294901760
0.044312913 -0.046420906 0.39896879 4294901760
0.043965187 -0.046780169 0.39896491 4294901760
0.043617461 -0.047139432 0.39896104 4294901760
0.043269731 -0.047498696 0.39895716 4294901760
0.042922005 -0.047857963 0.39895332 4294901760
0.042574275 -0.048217226 0.39894944 4294901760
0.042226549 -0.048576489 0.39894557 4294901760
0.041878823 -0.048935752 0.39894173 4294901760
0.041531093 -0.049295016 0.39893785 4294901760
0.041183367 -0.049654283 0.39893398 4294901760
0.040835638 -0.050013546 0.39893013 4294901760
0.040487912 -0.050372809 0.39892626 4294901760
0.040140186 -0.050732072 0.39892238 4294901760
0.039792456 -0.051091336 0.39891851 4294901760
0.03944473 -0.051450603 0.39891466 4294901760
0.039097004 -0.051809866 0.39891079 4294901760
0.038749274 -0.052169129 0.39890692 4294901760
0.038401548 -0.052528393 0.39890307 4294901760
0.038053818 -0.052887656 0.3988992 4294901760
0.037706092 -0.053246923 0.39889532 4294901760
0.037358366 -0.053606186 0.39889145 4294901760
0.037010636 -0.053965449 0.3988876 4294901760
0.036662906 -0.054324713 0.39888373 4294901760
0.03631518 -0.054683976 0.39887986 4294901760
0.035967454 -0.055043243 0.39887601 4294901760
0.035619725 -0.055402506 0.39887214 4294901760
0.035271998 -0.055761769 0.39886826 4294901760
0.034924269 -0.056121033 0.39886439 4294901760
0.034576543 -0.056480296 0.39886054 4294901760
0.034228817 -0.056839563 0.39885667 4294901760
0.033881091 -0.057198826 0.3988528 4294901760
0.033533361 -0.057558089 0.39884895 4294901760
0.033185635 -0.057917353 0.39884508 4294901760
0.032837905 -0.058276616 0.3988412 4294901760
0.032490179 -0.058635883 0.39883733 4294901760
0.032142453 -0.058995146 0.39883348 4294901760
0.031794723 -0.05935441 0.39882961 4294901760
0.031446993 -0.059713677 0.39882573 4294901760
0.031099267 -0.060072936 0.39882189 4294901760
0.030751541 -0.060432203 0.39881802 4294901760
0.030403813 -0.060791466 0.39881414 4294901760
0.030056085 -0.06115073 0.39881027 4294901760
0.029708358 -0.061509993 0.39880642 4294901760
0.029360631 -0.061869256 0.39880255 4294901760
0.029012904 -0.062228523 0.39879867 4294901760
0.028665174 -0.062587783 0.39879483 4294901760
0.028317448 -0.06294705 0.39879096 4294901760
0.02796972 -0.063306317 0.39878708 4294901760
0.027621994 -0.063665576 0.39878324 4294901760
0.027274266 -0.064024843 0.39877936 4294901760
0.026926538 -0.064384103 0.39877549 4294901760
0.02657881 -0.06474337 0.39877161 4294901760
0.026231082 -0.065102637 0.39876777 4294901760
0.025883354 -0.065461896 0.3987639 4294901760
0.025535628 -0.065821163 0.39876002 4294901760
0.0251879 -0.066180423 0.39875618 4294901760
0.024840172 -0.06653969 0.3987523 4294901760
0.024492444 -0.066898957 0.39874843 4294901760
0.024144717 -0.067258216 0.39874455 4294901760
0.023796989 -0.067617483 0.39874071 4294901760
0.023449263 -0.067976743 0.39873683 4294901760
0.023101535 -0.06833601 0.39873296 4294901760
0.022753809 -0.068695277 0.39872912 4294901760
0.022406079 -0.069054537 0.39872524 4294901760
0.022058351 -0.069413804 0.39872137 4294901760
0.021710625 -0.069773063 0.39871749 4294901760
0.021362897 -0.07013233 0.39871365 4294901760
0.021015169 -0.070491597 0.39870977 4294901760
0.020667443 -0.070850857 0.3987059 4294901760
0.020319715 -0.071210124 0.39870206 4294901760
0.019971985 -0.071569383 0.39869818 4294901760
0.019624259 -0.07192865 0.39869431 4294901760
0.019276531 -0.072287917 0.39869043 4294901760
0.018928805 -0.072647177 0.39868659 4294901760
0.018581077 -0.073006444 0.39868271 4294901760
0.01823335 -0.073365703 0.39867884 4294901760
0.017885622 -0.07372497 0.39867499 4294901760
0.017537894 -0.074084237 0.39867112 4294901760
0.017190166 -0.074443497 0.39866725 4294901760
0.01684244 -0.074802764 0.3986634 4294901760
0.016494712 -0.075162023 0.39865953 4294901760
0.016146984 -0.07552129 0.39865565 4294901760
0.015799254 -0.075880557 0.39865178 4294901760
0.015451528 -0.076239824 0.39864793 4294901760
0.015103802 -0.076599084 0.39864406 4294901760
0.014756072 -0.076958343 0.39864019 4294901760
0.014408346 -0.07731761 0.39863634 4294901760
0.01406062 -0.077676877 0.39863247 4294901760
0.01371289 -0.078036144 0.39862859 4294901760
0.013365164 -0.078395404 0.39862472 4294901760
0.013017435 -0.078754663 0.39862087 4294901760
0.012669709 -0.07911393 0.398617 4294901760
0.047442462 -0.043187529 0.39900357 4278255360
0.047768578 -0.043505393 0.39920998 4278255360
0.048094697 -0.043823261 0.39941642 4278255360
0.048420813 -0.044141125 0.39962283 4278255360
0.048746929 -0.044458993 0.39982924 4278255360
0.049073044 -0.044776857 0.40003568 4278255360
0.049399164 -0.045094725 0.40024209 4278255360
0.049725279 -0.045412589 0.4004485 4278255360
0.050051395 -0.045730457 0.40065494 4278255360
0.050377514 -0.046048321 0.40086135 4278255360
0.05070363 -0.046366185 0.40106776 4278255360
0.051029745 -0.046684053 0.4012742 4278255360
0.051355861 -0.047001917 0.40148062 4278255360
0.05168198 -0.047319785 0.40168703 4278255360
0.052008096 -0.047637649 0.40189344 4278255360
0.052334212 -0.047955517 0.40209988 4278255360
0.052660331 -0.048273381 0.40230629 4278255360
0.052986447 -0.048591249 0.4025127 4278255360
0.053312562 -0.048909113 0.40271914 4278255360
0.053638682 -0.049226977 0.40292555 4278255360
0.053964797 -0.049544845 0.40313196 4278255360
0.054290913 -0.049862709 0.4033384 4278255360
0.054617029 -0.050180577 0.40354481 4278255360
0.054943148 -0.050498441 0.40375122 4278255360
0.055269264 -0.050816305 0.40395766 4278255360
0.055595379 -0.051134173 0.40416408 4278255360
0.055921495 -0.051452037 0.40437049 4278255360
0.056247614 -0.051769905 0.40457693 4278255360
0.05657373 -0.052087769 0.40478334 4278255360
0.056899846 -0.052405637 0.40498975 4278255360
0.057225965 -0.052723501 0.40519619 4278255360
0.057552081 -0.053041369 0.4054026 4278255360
0.057878196 -0.053359233 0.40560901 4278255360
0.058204316 -0.053677101 0.40581545 4278255360
0.058530431 -0.053994965 0.40602186 4278255360
0.058856547 -0.054312829 0.40622827 4278255360
0.059182666 -0.054630697 0.40643471 4278255360
0.059508782 -0.054948561 0.40664113 4278255360
0.059834898 -0.055266429 0.40684754 4278255360
0.060161013 -0.055584293 0.40705395 4278255360
0.060487133 -0.055902161 0.40726039 4278255360
0.060813248 -0.056220025 0.4074668 4278255360
0.061139364 -0.056537889 0.40767321 4278255360
0.061465479 -0.056855757 0.40787965 4278255360
0.061791599 -0.057173621 0.40808606 4278255360
0.062117714 -0.057491489 0.40829247 4278255360
0.06244383 -0.057809353 0.40849891 4278255360
0.062769949 -0.058127221 0.40870532 4278255360
0.063096061 -0.058445085 0.40891173 4278255360
0.063422181 -0.058762953 0.40911818 4278255360
0.0637483 -0.059080817 0.40932459 4278255360
0.064074412 -0.059398681 0.409531 4278255360
0.064400531 -0.059716545 0.40973744 4278255360
0.064726651 -0.060034413 0.40994385 4278255360
0.065052763 -0.060352281 0.41015026 4278255360
0.065378882 -0.060670145 0.4103567 4278255360
0.065705001 -0.060988009 0.41056311 4278255360
0.066031113 -0.061305877 0.41076952 4278255360
0.066357233 -0.061623745 0.41097596 4278255360
0.066683352 -0.061941609 0.41118237 4278255360
0.067009464 -0.062259473 0.41138878 4278255360
0.067335583 -0.062577337 0.41159523 4278255360
0.067661703 -0.062895209 0.41180164 4278255360
0.067987815 -0.063213073 0.41200805 4278255360
0.068313934 -0.063530937 0.41221446 4278255360
0.068640046 -0.063848801 0.4124209 4278255360
0.068966165 -0.064166673 0.41262731 4278255360
0.069292285 -0.064484537 0.41283372 4278255360
0.069618404 -0.064802401 0.41304016 4278255360
0.069944516 -0.065120265 0.41324657 4278255360
0.070270628 -0.065438129 0.41345298 4278255360
0.070596747 -0.065755993 0.41365942 4278255360
0.070922866 -0.066073865 0.41386583 4278255360
0.071248986 -0.066391729 0.41407225 4278255360
0.071575098 -0.066709593 0.41427869 4278255360
0.071901217 -0.067027465 0.4144851 4278255360
0.072227329 -0.067345329 0.41469151 4278255360
0.072553448 -0.067663193 0.41489795 4278255360
0.072879568 -0.067981057 0.41510436 4278255360
0.07320568 -0.068298921 0.41531077 4278255360
0.073531799 -0.068616793 0.41551721 4278255360
0.073857918 -0.068934657 0.41572362 4278255360
0.07418403 -0.069252521 0.41593003 4278255360
0.07451015 -0.069570385 0.41613647 4278255360
0.074836269 -0.069888249 0.41634288 4278255360
0.075162381 -0.070206121 0.4165493 4278255360
0.0754885 -0.070523985 0.41675574 4278255360
0.07581462 -0.070841849 0.41696215 4278255360
0.076140732 -0.071159713 0.41716856 4278255360
0.076466851 -0.071477577 0.41737497 4278255360
0.07679297 -0.071795449 0.41758141 4278255360
0.077119082 -0.072113313 0.41778782 4278255360
0.077445202 -0.072431177 0.41799423 4278255360
0.077771321 -0.072749048 0.41820067 4278255360
0.078097433 -0.073066913 0.41840708 4278255360
0.078423552 -0.073384777 0.41861349 4278255360
0.078749672 -0.073702641 0.41881993 4278255360
0.079075783 -0.074020505 0.41902635 4278255360
0.079401903 -0.074338377 0.41923276 4278255360
0.079728022 -0.074656241 0.4194392 4278255360
0.080054134 -0.074974105 0.41964561 4278255360
0.047442462 -0.043187529 0.39900357 4278190335
0.047218453 -0.042974945 0.39939681 4278190335
0.046994444 -0.042762358 0.39979002 4278190335
0.046770435 -0.042549774 0.40018326 4278190335
0.046546426 -0.04233719 0.40057647 4278190335
0.046322417 -0.042124607 0.40096971 4278190335
0.046098407 -0.041912019 0.40136293 4278190335
0.045874398 -0.041699436 0.40175617 4278190335
0.045650389 -0.041486852 0.40214938 4278190335
0.04542638 -0.041274268 0.40254262 4278190335
0.045202374 -0.041061681 0.40293583 4278190335
0.044978365 -0.040849097 0.40332907 4278190335
0.044754356 -0.040636513 0.40372229 4278190335
0.044530347 -0.04042393 0.40411553 4278190335
0.044306338 -0.040211342 0.40450874 4278190335
0.044082329 -0.039998759 0.40490198 4278190335
0.04385832 -0.039786175 0.40529519 4278190335
0.04363431 -0.039573587 0.40568843 4278190335
0.043410301 -0.039361004 0.40608165 4278190335
0.043186292 -0.03914842 0.40647489 4278190335
0.042962283 -0.038935836 0.4068681 4278190335
0.042738274 -0.038723253 0.40726134 4278190335
0.042514265 -0.038510665 0.40765455 4278190335
0.042290255 -0.038298082 0.4080478 4278190335
0.042066246 -0.038085498 0.40844101 4278190335
0.041842237 -0.03787291 0.40883425 4278190335
0.041618228 -0.037660327 0.40922749 4278190335
0.041394219 -0.037447743 0.4096207 4278190335
0.04117021 -0.037235159 0.41001394 4278190335
0.0409462 -0.037022572 0.41040716 4278190335
0.040722191 -0.036809988 0.4108004 4278190335
0.040498182 -0.036597405 0.41119361 4278190335
0.040274177 -0.036384821 0.41158685 4278190335
0.040050168 -0.036172234 0.41198006 4278190335
0.039826158 -0.03595965 0.4123733 4278190335
0.039602149 -0.035747066 0.41276652 4278190335
0.03937814 -0.035534479 0.41315976 4278190335
0.039154131 -0.035321895 0.41355297 4278190335
0.038930122 -0.035109311 0.41394621 4278190335
0.038706113 -0.034896728 0.41433942 4278190335
0.038482103 -0.03468414 0.41473266 4278190335
0.038258094 -0.034471557 0.41512588 4278190335
0.038034085 -0.034258973 0.41551912 4278190335
0.037810076 -0.034046389 0.41591233 4278190335
0.037586067 -0.033833802 0.41630557 4278190335
0.037362058 -0.033621218 0.41669878 4278190335
0.037138049 -0.033408634 0.41709203 4278190335
0.036914039 -0.033196047 0.41748524 4278190335
0.036690034 -0.032983463 0.41787848 4278190335
0.036466025 -0.03277088 0.41827172 4278190335
0.036242016 -0.032558296 0.41866493 4278190335
0.036018007 -0.032345712 0.41905814 4278190335
0.035793997 -0.032133125 0.41945139 4278190335
0.035569988 -0.031920541 0.41984463 4278190335
0.035345979 -0.031707957 0.42023784 4278190335
0.03512197 -0.03149537 0.42063108 4278190335
0.034897961 -0.031282786 0.42102429 4278190335
0.034673952 -0.031070203 0.42141753 4278190335
0.034449942 -0.030857619 0.42181075 4278190335
0.034225933 -0.030645033 0.42220399 4278190335
0.034001924 -0.030432448 0.4225972 4278190335
0.033777915 -0.030219864 0.42299044 4278190335
0.033553906 -0.030007279 0.42338365 4278190335
0.033329897 -0.029794693 0.42377689 4278190335
0.033105887 -0.029582109 0.42417011 4278190335
0.032881878 -0.029369526 0.42456335 4278190335
0.032657869 -0.029156938 0.42495656 4278190335
0.03243386 -0.028944355 0.4253498 4278190335
0.032209851 -0.028731771 0.42574301 4278190335
0.031985842 -0.028519187 0.42613626 4278190335
0.031761833 -0.028306602 0.42652947 4278190335
0.031537823 -0.028094016 0.42692271 4278190335
0.031313814 -0.027881432 0.42731595 4278190335
0.031089807 -0.027668847 0.42770916 4278190335
0.030865798 -0.027456263 0.42810237 4278190335
0.03064179 -0.027243678 0.42849562 4278190335
0.030417781 -0.027031094 0.42888886 4278190335
0.030193772 -0.026818508 0.42928207 4278190335
0.029969763 -0.026605925 0.42967528 4278190335
0.029745754 -0.026393339 0.43006852 4278190335
0.029521745 -0.026180753 0.43046176 4278190335
0.029297736 -0.02596817 0.43085498 4278190335
0.029073726 -0.025755586 0.43124822 4278190335
0.028849719 -0.025543001 0.43164143 4278190335
0.02862571 -0.025330417 0.43203467 4278190335
0.028401699 -0.025117831 0.43242788 4278190335
0.02817769 -0.024905246 0.43282112 4278190335
0.027953682 -0.024692662 0.43321434 4278190335
0.027729673 -0.024480077 0.43360758 4278190335
0.027505664 -0.024267493 0.43400079 4278190335
0.027281655 -0.024054909 0.43439403 4278190335
0.027057646 -0.023842322 0.43478724 4278190335
0.026833637 -0.023629738 0.43518049 4278190335
0.026609628 -0.023417154 0.4355737 4278190335
0.026385618 -0.023204569 0.43596694 4278190335
0.026161611 -0.022991985 0.43636015 4278190335
0.025937602 -0.0227794 0.43675339 4278190335
0.025713591 -0.022566814 0.4371466 4278190335
0.025489584 -0.02235423 0.43753985 4278190335
0.025265574 -0.022141645 0.43793309 4278190335
0.025041565 -0.021929061 0.4383263 4278190335
0.047442462 -0.043187529 0.39900357 4294967295
0.048786517 -0.044463038 0.3966442 4294967295
0.050130568 -0.045738544 0.39428484 4294967295
0.051474623 -0.047014054 0.39192548 4294967295
0.052818678 -0.04828956 0.38956612 4294967295
0.054162733 -0.049565069 0.38720673 4294967295
0.055506784 -0.050840579 0.38484737 4294967295
0.056850839 -0.052116085 0.38248801 4294967295
0.058194894 -0.053391594 0.38012865 4294967295
0.059538946 -0.0546671 0.37776929 4294967295
0.060883 -0.05594261 0.37540993 4294967295
0.062227055 -0.05721812 0.37305057 4294967295
0.06357111 -0.058493625 0.37069118 4294967295
0.064915165 -0.059769131 0.36833182 4294967295
0.06625922 -0.061044641 0.36597246 4294967295
0.067603275 -0.06232015 0.3636131 4294967295
0.068947323 -0.06359566 0.36125374 4294967295
0.070291378 -0.06487117 0.35889438 4294967295
0.071635433 -0.066146672 0.35653502 4294967295
0.072979487 -0.067422181 0.35417566 4294967295
0.074323542 -0.068697691 0.3518163 4294967295
0.07566759 -0.069973201 0.34945691 4294967295
0.077011645 -0.07124871 0.34709755 4294967295
0.0783557 -0.07252422 0.34473819 4294967295
0.079699755 -0.073799722 0.34237882 4294967295
0.08104381 -0.075075231 0.34001946 4294967295
0.082387865 -0.076350734 0.3376601 4294967295
0.08373192 -0.077626251 0.33530074 4294967295
0.085075974 -0.078901753 0.33294135 4294967295
0.086420029 -0.080177262 0.33058202 4294967295
0.087764084 -0.081452772 0.32822263 4294967295
0.089108132 -0.082728282 0.32586327 4294967295
0.090452187 -0.084003791 0.32350391 4294967295
0.091796242 -0.085279301 0.32114455 4294967295
0.093140297 -0.08655481 0.31878519 4294967295
0.094484344 -0.087830313 0.31642583 4294967295
0.095828399 -0.089105822 0.31406647 4294967295
0.097172454 -0.090381324 0.31170708 4294967295
0.098516509 -0.091656834 0.30934772 4294967295
0.099860564 -0.092932343 0.30698836 4294967295
0.10120462 -0.094207853 0.304629 4294967295
0.10254867 -0.095483363 0.30226964 4294967295
0.10389273 -0.096758872 0.29991028 4294967295
0.10523678 -0.098034382 0.29755092 4294967295
0.10658084 -0.099309884 0.29519153 4294967295
0.10792489 -0.10058539 0.2928322 4294967295
0.10926894 -0.1018609 0.29047281 4294967295
0.11061299 -0.10313641 0.28811345 4294967295
0.11195704 -0.10441191 0.28575408 4294967295
0.1133011 -0.10568742 0.28339472 4294967295
0.11464515 -0.10696293 0.28103536 4294967295
0.11598921 -0.10823844 0.278676 4294967295
0.11733326 -0.10951395 0.27631664 4294967295
0.11867732 -0.11078946 0.27395725 4294967295
0.12002137 -0.11206497 0.27159789 4294967295
0.12136543 -0.11334047 0.26923853 4294967295
0.12270948 -0.11461598 0.26687917 4294967295
0.12405354 -0.11589149 0.26451981 4294967295
0.12539759 -0.117167 0.26216045 4294967295
0.12674163 -0.11844251 0.25980109 4294967295
0.1280857 -0.11971802 0.2574417 4294967295
0.12942976 -0.12099352 0.25508237 4294967295
0.1307738 -0.12226903 0.25272298 4294967295
0.13211785 -0.12354454 0.25036362 4294967295
0.13346191 -0.12482005 0.24800426 4294967295
0.13480596 -0.12609556 0.2456449 4294967295
0.13615002 -0.12737107 0.24328552 4294967295
0.13749407 -0.12864658 0.24092616 4294967295
0.13883813 -0.12992209 0.2385668 4294967295
0.14018218 -0.13119759 0.23620744 4294967295
0.14152624 -0.1324731 0.23384808 4294967295
0.14287029 -0.13374859 0.23148872 4294967295
0.14421435 -0.13502412 0.22912934 4294967295
0.1455584 -0.13629963 0.22676997 4294967295
0.14690246 -0.13757512 0.22441061 4294967295
0.14824651 -0.13885063 0.22205125 4294967295
0.14959055 -0.14012614 0.21969189 4294967295
0.15093461 -0.14140165 0.21733253 4294967295
0.15227866 -0.14267716 0.21497317 4294967295
0.15362272 -0.14395267 0.21261379 4294967295
0.15496677 -0.14522818 0.21025443 4294967295
0.15631083 -0.14650369 0.20789507 4294967295
0.15765488 -0.1477792 0.20553571 4294967295
0.15899894 -0.14905471 0.20317635 4294967295
0.16034299 -0.15033022 0.20081697 4294967295
0.16168705 -0.15160573 0.1984576 4294967295
0.1630311 -0.15288123 0.19609824 4294967295
0.16437516 -0.15415674 0.19373888 4294967295
0.16571921 -0.15543224 0.19137952 4294967295
0.16706325 -0.15670775 0.18902016 4294967295
0.16840731 -0.15798326 0.1866608 4294967295
0.16975138 -0.15925877 0.18430142 4294967295
0.17109542 -0.16053428 0.18194206 4294967295
0.17243947 -0.16180979 0.1795827 4294967295
0.17378353 -0.16308528 0.17722334 4294967295
0.17512758 -0.16436079 0.17486396 4294967295
0.17647164 -0.1656363 0.1725046 4294967295
0.17781569 -0.16691181 0.17014523 4294967295
0.17915975 -0.16818732 0.16778587 4294967295
0.1805038 -0.16946283 0.16542651 4294967295
0.18184786 -0.17073834 0.16306715 4294967295
