# .PCD v0.7 - Point Cloud Data file format
VERSION 0.7
FIELDS x y z rgb
SIZE 4 4 4 4
TYPE F F F U
COUNT 1 1 1 1
WIDTH 1070
HEIGHT 1
VIEWPOINT 0 0 0 1 0 0 0
POINTS 1070
DATA ascii
0.03947258 0.054911114 0.303 4278863386
0.040456723 0.054911114 0.303 4278863386
0.0413041 0.05472989 0.30200002 4279060767
0.042284999 0.05472989 0.30200002 4278930716
0.043122634 0.05454867 0.30100003 4278865693
0.043953769 0.054367442 0.30000001 4278865693
0.044778407 0.054186217 0.29900002 4279063586
0.045443542 0.053823769 0.29700002 4278998306
0.046251941 0.053642541 0.296 4279195685
0.047053844 0.053461317 0.29500002 4279129379
0.047849249 0.053280089 0.294 4279129379
0.048638165 0.053098865 0.29300001 4279851564
0.031912293 0.056449018 0.30600002 4279783461
0.032906178 0.056449018 0.30600002 4279717922
0.033900067 0.056449018 0.30600002 4279125785
0.034779921 0.056264542 0.30500001 4279323424
0.035653286 0.056080069 0.30400002 4279323424
0.036640678 0.056080069 0.30400002 4279191838
0.037504289 0.055895593 0.303 4279191838
0.038488433 0.055895593 0.303 4278994461
0.039342307 0.05571112 0.30200002 4278928670
0.040323205 0.05571112 0.30200002 4278664212
0.0413041 0.05571112 0.30200002 4279191840
0.042144984 0.055526651 0.30100003 4278732570
0.043122634 0.055526651 0.30100003 4278930462
0.043953769 0.055342171 0.30000001 4278996509
0.044778407 0.055157702 0.29900002 4279063072
0.045443542 0.054788753 0.29700002 4278866207
0.046251941 0.054604277 0.296 4278800927
0.047053844 0.054419804 0.29500002 4278866718
0.047849249 0.054235328 0.294 4278998306
0.048638165 0.054050855 0.29300001 4279260965
0.049251329 0.053681906 0.29100001 4279457830
0.049851507 0.053312957 0.289 4279653926
0.050614439 0.053128488 0.28800002 4280639284
0.030918404 0.057443243 0.30600002 4279717668
0.031912293 0.057443243 0.30600002 4279652389
0.032906178 0.057443243 0.30600002 4279455010
0.033789281 0.057255514 0.30500001 4279455010
0.03466589 0.057067793 0.30400002 4279389730
0.035653286 0.057067793 0.30400002 4279389730
0.036520146 0.056880068 0.303 4279389217
0.037504289 0.056880068 0.303 4279257631
0.038361412 0.056692347 0.30200002 4279257119
0.039342307 0.056692347 0.30200002 4278267919
0.040323205 0.056692347 0.30200002 4279911461
0.041167334 0.056504626 0.30100003 4279123482
0.042144984 0.056504626 0.30100003 4278731802
0.042979367 0.056316901 0.30000001 4278733083
0.043807257 0.05612918 0.29900002 4278734107
0.044778407 0.05612918 0.29900002 4278536726
0.045443542 0.055753734 0.29700002 4278734105
0.046251941 0.055566009 0.296 4278931484
0.047053844 0.055378288 0.29500002 4278931484
0.047849249 0.055190559 0.294 4278931998
0.048638165 0.055002838 0.29300001 4279129379
0.049251329 0.054627392 0.29100001 4279260965
0.049679011 0.054064225 0.28800002 4279326244
0.050614439 0.054064225 0.28800002 4279326244
0.051370867 0.053876501 0.287 4279916844
0.052120801 0.053688779 0.28600001 4280375598
0.030918404 0.05843747 0.30600002 4279652389
0.031912293 0.05843747 0.30600002 4279718182
0.03279864 0.058246493 0.30500001 4279652904
0.033789281 0.058246493 0.30500001 4279521318
0.03466589 0.058055524 0.30400002 4279258146
0.035536002 0.057864547 0.303 4279192353
0.036520146 0.057864547 0.303 4279126560
0.037380517 0.057673577 0.30200002 4278929179
0.038361412 0.057673577 0.30200002 4279059738
0.039212037 0.057482608 0.30100003 4278531343
0.040189687 0.057482608 0.30100003 4278726414
0.041167334 0.057482608 0.30100003 4278727441
0.042004965 0.057291634 0.30000001 4278994461
0.042979367 0.057291634 0.30000001 4278929951
0.043807257 0.057100665 0.29900002 4278469398
0.044778407 0.057100665 0.29900002 4278667031
0.045596547 0.056909688 0.29800001 4278667029
0.046408199 0.056718718 0.29700002 4278667029
0.047213346 0.056527745 0.296 4278798615
0.048012007 0.056336775 0.29500002 4278996507
0.048804164 0.056145798 0.294 4278668828
0.04942058 0.055763859 0.29200003 4278668828
0.049679011 0.05499997 0.28800002 4279063586
0.050438691 0.054808993 0.287 4279326758
0.051370867 0.054808993 0.287 4279457830
0.052120801 0.054618023 0.28600001 4279457060
0.053049732 0.054618023 0.28600001 4279981867
0.030918404 0.059431691 0.30600002 4280046887
0.031808 0.059237465 0.30500001 4279652643
0.03279864 0.059237465 0.30500001 4279389732
0.033678498 0.059043247 0.30400002 4279258146
0.034551855 0.058849026 0.303 4279521318
0.035536002 0.058849026 0.303 4279192353
0.036399618 0.058654804 0.30200002 4278863388
0.037380517 0.058654804 0.30200002 4278929181
0.038234387 0.058460586 0.30100003 4278994459
0.039212037 0.058460586 0.30100003 4278400529
0.040189687 0.058460586 0.30100003 4279122199
0.041030563 0.05826636 0.30000001 4279320346
0.042004965 0.05826636 0.30000001 4278928668
0.042979367 0.05826636 0.30000001 4278994461
0.043807257 0.058072142 0.29900002 4278863388
0.044628642 0.057877917 0.29800001 4278863388
0.045596547 0.057877917 0.29800001 4278666261
0.046408199 0.057683699 0.29700002 4278929431
0.047213346 0.057489477 0.296 4278929431
0.048012007 0.057295255 0.29500002 4278929431
0.048970167 0.057295255 0.29500002 4278667542
0.049928326 0.057295255 0.29500002 4278997277
0.049679011 0.055935707 0.28800002 4278668826
0.050438691 0.055741485 0.287 4278931998
0.051370867 0.055741485 0.287 4278866205
0.052120801 0.055547267 0.28600001 4279195172
0.053049732 0.055547267 0.28600001 4279260965
0.030918404 0.060425919 0.30600002 4280111910
0.031808 0.060228445 0.30500001 4279981094
0.032691106 0.060030978 0.30400002 4279587109
0.033678498 0.060030978 0.30400002 4279587109
0.034551855 0.059833504 0.303 4279126047
0.035418723 0.059636038 0.30200002 4279126045
0.036399618 0.059636038 0.30200002 4279191838
0.037380517 0.059636038 0.30200002 4278994459
0.038234387 0.059438568 0.30100003 4279256351
0.039212037 0.059438568 0.30100003 4278199301
0.040056165 0.059241094 0.30000001 4278195969
0.041030563 0.059241094 0.30000001 4279386139
0.042004965 0.059241094 0.30000001 4279125531
0.042836104 0.059043627 0.29900002 4279126045
0.043807257 0.059043627 0.29900002 4279453728
0.044628642 0.058846153 0.29800001 4278862875
0.045443542 0.058648687 0.29700002 4278928668
0.046408199 0.058648687 0.29700002 4278797080
0.047213346 0.058451213 0.296 4278863127
0.048012007 0.058253743 0.29500002 4278666261
0.048970167 0.058253743 0.29500002 4278601236
0.049928326 0.058253743 0.29500002 4278732822
0.049506512 0.056673978 0.287 4278930714
0.050438691 0.056673978 0.287 4278799898
0.051370867 0.056673978 0.287 4278799898
0.052303042 0.056673978 0.287 4279063070
0.053049732 0.056476511 0.28600001 4278931998
0.053978663 0.056476511 0.28600001 4279129379
0.031703714 0.061018702 0.30400002 4279915301
0.032691106 0.061018702 0.30400002 4279389730
0.033567712 0.060817979 0.303 4279323939
0.034551855 0.060817979 0.303 4279192353
0.035418723 0.060617261 0.30200002 4279060765
0.036399618 0.060617261 0.30200002 4279126558
0.03725674 0.060416546 0.30100003 4278929179
0.038234387 0.060416546 0.30100003 4278993947
0.039212037 0.060416546 0.30100003 4278529294
0.040056165 0.060215823 0.30000001 4279580186
0.041030563 0.060215823 0.30000001 4279517727
0.04186495 0.060015105 0.29900002 4279124765
0.042836104 0.060015105 0.29900002 4278199045
0.043660741 0.059814382 0.29800001 4278459656
0.044628642 0.059814382 0.29800001 4278197511
0.045443542 0.059613667 0.29700002 4279190045
0.046251941 0.059412945 0.296 4279058968
0.047213346 0.059412945 0.296 4278797080
0.048012007 0.059212226 0.29500002 4278731800
0.048804164 0.059011504 0.294 4278732054
0.049759075 0.059011504 0.294 4278863638
0.050886486 0.059212226 0.29500002 4278863638
0.051844649 0.059212226 0.29500002 4278798617
0.051549863 0.057807192 0.28800002 4278930203
0.052303042 0.05760647 0.287 4279062300
0.053235218 0.05760647 0.287 4278865691
0.054167397 0.05760647 0.287 4279063070
0.055099569 0.05760647 0.287 4279129379
0.055836517 0.057405751 0.28600001 4279195172
0.056765448 0.057405751 0.28600001 4279523369
0.057694372 0.057405751 0.28600001 4279654185
0.031599425 0.061802458 0.303 4279849506
0.032583568 0.061802458 0.303 4279586336
0.033567712 0.061802458 0.303 4279455264
0.034437824 0.061598495 0.30200002 4278863386
0.035418723 0.061598495 0.30200002 4278797593
0.036399618 0.061598495 0.30200002 4279060767
0.03725674 0.061394528 0.30100003 4278863388
0.038234387 0.061394528 0.30100003 4279059740
0.039212037 0.061394528 0.30100003 4278200583
0.040056165 0.061190557 0.30000001 4279713309
0.041030563 0.061190557 0.30000001 4279255836
0.04186495 0.06098659 0.29900002 4278925590
0.042692836 0.060782619 0.29800001 4278656519
0.043660741 0.060782619 0.29800001 4278983435
0.044478886 0.060578652 0.29700002 4278917644
0.04529053 0.060374681 0.296 4278458890
0.046251941 0.060374681 0.296 4278460683
0.047053844 0.060170714 0.29500002 4279058457
0.047849249 0.059966743 0.294 4279125531
0.048638165 0.059762776 0.29300001 4278731287
0.049589828 0.059762776 0.29300001 4278731287
0.050196499 0.059354838 0.29100001 4278863127
0.050965928 0.059150871 0.29000002 4278732054
0.051549863 0.058742933 0.28800002 4279061019
0.052485283 0.058742933 0.28800002 4278798617
0.053235218 0.058538962 0.287 4278667544
0.054167397 0.058538962 0.287 4279062302
0.055099569 0.058538962 0.287 4278799900
0.055836517 0.058334995 0.28600001 4278865693
0.056765448 0.058334995 0.28600001 4279194404
0.057694372 0.058334995 0.28600001 4279523369
0.05841833 0.058131032 0.28500003 4279391783
0.031599425 0.062786937 0.303 4279980322
0.032583568 0.062786937 0.303 4279914531
0.033567712 0.062786937 0.303 4279585566
0.034437824 0.062579721 0.30200002 4279125785
0.035418723 0.062579721 0.30200002 4278862873
0.036399618 0.062579721 0.30200002 4279257631
0.03725674 0.062372506 0.30100003 4278994459
0.038234387 0.062372506 0.30100003 4279059738
0.039212037 0.062372506 0.30100003 4278199298
0.040056165 0.062165283 0.30000001 4279779102
0.041030563 0.062165283 0.30000001 4279255836
0.04186495 0.061958067 0.29900002 4279121431
0.042692836 0.061750848 0.29800001 4278721547
0.043514233 0.061543632 0.29700002 4279246607
0.044478886 0.061543632 0.29700002 4278851338
0.04529053 0.061336413 0.296 4278982670
0.046095688 0.061129197 0.29500002 4278916877
0.046894338 0.060921974 0.294 4278721545
0.047849249 0.060921974 0.294 4278197251
0.048638165 0.060714759 0.29300001 4278861078
0.04942058 0.060507547 0.29200003 4278993175
0.050196499 0.060300324 0.29100001 4278796566
0.050965928 0.060093109 0.29000002 4278993945
0.051728852 0.059885889 0.289 4278928920
0.052485283 0.059678674 0.28800002 4278863127
0.053420711 0.059678674 0.28800002 4278797847
0.054356135 0.059678674 0.28800002 4278732824
0.055099569 0.059471451 0.287 4278995996
0.056031749 0.059471451 0.287 4278535958
0.056765448 0.059264239 0.28600001 4279063072
0.057694372 0.059264239 0.28600001 4278997279
0.05841833 0.059057023 0.28500003 4278865953
0.059344012 0.059057023 0.28500003 4279392297
0.031599425 0.063771412 0.303 4279980324
0.032583568 0.063771412 0.303 4279849508
0.033456929 0.063560948 0.30200002 4279520543
0.034437824 0.063560948 0.30200002 4279257631
0.035418723 0.063560948 0.30200002 4279191838
0.036399618 0.063560948 0.30200002 4279257631
0.03725674 0.063350484 0.30100003 4278994459
0.038234387 0.063350484 0.30100003 4278861080
0.039212037 0.063350484 0.30100003 4278197767
0.040056165 0.06314002 0.30000001 4279647775
0.041030563 0.06314002 0.30000001 4279255838
0.04186495 0.062929556 0.29900002 4279384092
0.042692836 0.062719084 0.29800001 4278721547
0.043514233 0.06250862 0.29700002 4280234016
0.044329122 0.062298149 0.296 4278851851
0.04529053 0.062298149 0.296 4278982670
0.046095688 0.062087685 0.29500002 4278982672
0.046894338 0.061877213 0.294 4279180049
0.047686499 0.061666749 0.29300001 4278917644
0.048472166 0.061456285 0.29200003 4278590472
0.04942058 0.061456285 0.29200003 4278394630
0.050024007 0.06103535 0.29000002 4278728722
0.050965928 0.06103535 0.29000002 4279124250
0.051728852 0.060824882 0.289 4278993945
0.052485283 0.060614418 0.28800002 4279126299
0.053420711 0.060614418 0.28800002 4279126299
0.054356135 0.060614418 0.28800002 4278863127
0.055099569 0.060403947 0.287 4278863638
0.056031749 0.060403947 0.287 4279061017
0.056963924 0.060403947 0.287 4278930716
0.057694372 0.060193483 0.28600001 4278931486
0.058623303 0.060193483 0.28600001 4278734621
0.059344012 0.059983019 0.28500003 4278932000
0.060058217 0.059772547 0.28400001 4279063332
0.033456929 0.064542182 0.30200002 4279388957
0.034437824 0.064542182 0.30200002 4279126045
0.035418723 0.064542182 0.30200002 4279126045
0.036399618 0.064542182 0.30200002 4279126045
0.03725674 0.064328469 0.30100003 4279126045
0.038234387 0.064328469 0.30100003 4279582750
0.039212037 0.064328469 0.30100003 4278657548
0.040056165 0.064114749 0.30000001 4279515678
0.041030563 0.064114749 0.30000001 4279716389
0.04186495 0.063901037 0.29900002 4278922771
0.042692836 0.063687317 0.29800001 4278853646
0.043514233 0.063473605 0.29700002 4279578137
0.044329122 0.063259885 0.296 4279183381
0.045137525 0.063046172 0.29500002 4280366885
0.045939427 0.062832452 0.294 4279182098
0.046894338 0.062832452 0.294 4278852365
0.047686499 0.06261874 0.29300001 4278851851
0.048472166 0.062405024 0.29200003 4278917644
0.049251329 0.062191308 0.29100001 4278916877
0.050024007 0.061977591 0.29000002 4278654984
0.050965928 0.061977591 0.29000002 4278195972
0.051728852 0.061763875 0.289 4278991642
0.052667525 0.061763875 0.289 4279058972
0.053420711 0.061550159 0.28800002 4278928154
0.054356135 0.061550159 0.28800002 4278928152
0.05529156 0.061550159 0.28800002 4278994199
0.056031749 0.061336439 0.287 4278863127
0.056963924 0.061336439 0.287 4278929433
0.057694372 0.061122727 0.28600001 4278732054
0.058623303 0.061122727 0.28600001 4278930203
0.059344012 0.060909014 0.28500003 4278667544
0.060058217 0.060695294 0.28400001 4279193888
0.06076593 0.060481582 0.28300002 4279522853
0.035418723 0.065523408 0.30200002 4279191838
0.036399618 0.065523408 0.30200002 4279323424
0.03725674 0.065306447 0.30100003 4279257631
0.038234387 0.065306447 0.30100003 4279452445
0.039212037 0.065306447 0.30100003 4278594576
0.040056165 0.065089479 0.30000001 4280042787
0.041030563 0.065089479 0.30000001 4279584031
0.04186495 0.064872518 0.29900002 4278330121
0.042692836 0.06465555 0.29800001 4278918926
0.043514233 0.064438581 0.29700002 4279775520
0.044329122 0.064221613 0.296 4279710240
0.045137525 0.064004652 0.29500002 4278722830
0.045939427 0.063787684 0.294 4279775518
0.046734836 0.063570723 0.29300001 4279906334
0.047686499 0.063570723 0.29300001 4279840541
0.048472166 0.063353762 0.29200003 4279049744
0.049251329 0.063136794 0.29100001 4278982924
0.050024007 0.062919833 0.29000002 4279048463
0.050965928 0.062919833 0.29000002 4278982670
0.051728852 0.062702864 0.289 4278720777
0.052485283 0.0624859 0.28800002 4278195972
0.053420711 0.0624859 0.28800002 4279058455
0.054356135 0.0624859 0.28800002 4279256347
0.05529156 0.0624859 0.28800002 4279059738
0.056031749 0.062268931 0.287 4278862873
0.056963924 0.062268931 0.287 4278731287
0.0578961 0.062268931 0.287 4278863127
0.058828276 0.062268931 0.287 4278994713
0.059968684 0.0624859 0.28800002 4278732054
0.060904108 0.0624859 0.28800002 4278601238
0.061839528 0.0624859 0.28800002 4278996509
0.035418723 0.066504642 0.30200002 4279586084
0.036399618 0.066504642 0.30200002 4279586082
0.03725674 0.066284426 0.30100003 4279322910
0.038234387 0.066284426 0.30100003 4278199809
0.039212037 0.066284426 0.30100003 4278200840
0.040189687 0.066284426 0.30100003 4278925588
0.041030563 0.066064209 0.30000001 4279519521
0.04186495 0.065843999 0.29900002 4278922517
0.042692836 0.065623783 0.29800001 4278853133
0.043514233 0.065403573 0.29700002 4278786318
0.044329122 0.065183349 0.296 4278589709
0.045137525 0.06496314 0.29500002 4279380758
0.045939427 0.064742923 0.294 4280762411
0.046734836 0.064522713 0.29300001 4278853648
0.047686499 0.064522713 0.29300001 4279379990
0.048472166 0.064302504 0.29200003 4280500006
0.049251329 0.06408228 0.29100001 4279116307
0.050024007 0.06386207 0.29000002 4279245842
0.05079018 0.063641854 0.289 4279310867
0.051728852 0.063641854 0.289 4279048463
0.052485283 0.063421644 0.28800002 4279180303
0.053420711 0.063421644 0.28800002 4279911201
0.054167397 0.063201427 0.287 4278198528
0.055099569 0.063201427 0.287 4279386650
0.056031749 0.063201427 0.287 4279059738
0.056963924 0.063201427 0.287 4278994713
0.0578961 0.063201427 0.287 4278863127
0.058828276 0.063201427 0.287 4278994197
0.059968684 0.063421644 0.28800002 4278797332
0.060904108 0.063421644 0.28800002 4278731800
0.061839528 0.063421644 0.28800002 4278929179
0.036399618 0.067485869 0.30200002 4279651105
0.03725674 0.067262404 0.30100003 4279586336
0.038234387 0.067262404 0.30100003 4280044580
0.039212037 0.067262404 0.30100003 4279057176
0.040189687 0.067262404 0.30100003 4278991383
0.041030563 0.067038938 0.30000001 4279387937
0.042004965 0.067038938 0.30000001 4279779875
0.042692836 0.066592008 0.29800001 4278657037
0.043367717 0.066145085 0.296 4279311889
0.044329122 0.066145085 0.296 4278982670
0.045137525 0.065921627 0.29500002 4278852363
0.045939427 0.065698154 0.294 4279379477
0.046734836 0.065474696 0.29300001 4278852365
0.047523748 0.065251239 0.29200003 4279511578
0.048472166 0.065251239 0.29200003 4278590472
0.049251329 0.065027766 0.29100001 4279049742
0.050024007 0.064804308 0.29000002 4279379477
0.05079018 0.064580843 0.289 4279511578
0.051728852 0.064580843 0.289 4279114769
0.052485283 0.064357385 0.28800002 4278522632
0.053235218 0.064133912 0.287 4280700463
0.054167397 0.064133912 0.287 4280043047
0.055099569 0.064133912 0.287 4278856978
0.055836517 0.063910455 0.28600001 4278528013
0.056765448 0.063910455 0.28600001 4278465548
0.057694372 0.063910455 0.28600001 4279190295
0.058828276 0.064133912 0.287 4279192092
0.059968684 0.064357385 0.28800002 4278863640
0.060904108 0.064357385 0.28800002 4278797593
0.061839528 0.064357385 0.28800002 4278928666
0.069731623 0.059888117 0.26800001 4285434229
0.037380517 0.068467095 0.30200002 4279717152
0.038361412 0.068467095 0.30200002 4279586336
0.039342307 0.068467095 0.30200002 4279586082
0.040323205 0.068467095 0.30200002 4279651109
0.041167334 0.068240389 0.30100003 4279585316
0.042004965 0.068013668 0.30000001 4279585314
0.042692836 0.067560248 0.29800001 4280306471
0.043367717 0.067106821 0.296 4279049742
0.044179361 0.066880114 0.29500002 4279115023
0.045137525 0.066880114 0.29500002 4278916879
0.045939427 0.066653393 0.294 4278916879
0.046734836 0.066426687 0.29300001 4279048463
0.047523748 0.066199973 0.29200003 4279443734
0.048472166 0.066199973 0.29200003 4279115021
0.049251329 0.06597326 0.29100001 4278983435
0.050024007 0.065746553 0.29000002 4280038690
0.05079018 0.065519832 0.289 4280631852
0.051549863 0.065293126 0.28800002 4279774750
0.052485283 0.065293126 0.28800002 4278984721
0.053235218 0.065066412 0.287 4280832049
0.054167397 0.065066412 0.287 4279583779
0.054907586 0.064839698 0.28600001 4279781158
0.055836517 0.064839698 0.28600001 4280108840
0.056566969 0.064612992 0.28500003 4278790670
0.057492647 0.064612992 0.28500003 4278526728
0.058828276 0.065066412 0.287 4279320346
0.059968684 0.065293126 0.28800002 4279322912
0.060904108 0.065293126 0.28800002 4279322910
0.061839528 0.065293126 0.28800002 4279519519
0.06824439 0.060985595 0.26900002 4280045863
0.069118105 0.060985595 0.26900002 4280571696
0.06999182 0.060985595 0.26900002 4281228345
0.070602082 0.060758878 0.26800001 4282211136
0.071472548 0.060758878 0.26800001 4285170542
0.038361412 0.069448322 0.30200002 4279584801
0.039342307 0.069448322 0.30200002 4279650592
0.040323205 0.069448322 0.30200002 4279585312
0.0413041 0.069448322 0.30200002 4279651105
0.042284999 0.069448322 0.30200002 4279520289
0.043265894 0.069448322 0.30200002 4279716900
0.043367717 0.068068549 0.296 4279847203
0.044179361 0.067838594 0.29500002 4279845670
0.045137525 0.067838594 0.29500002 4278918928
0.045939427 0.067608625 0.294 4278983697
0.046734836 0.06737867 0.29300001 4278917392
0.047523748 0.067148708 0.29200003 4278916879
0.048472166 0.067148708 0.29200003 4278851338
0.049251329 0.066918746 0.29100001 4279378195
0.050024007 0.066688791 0.29000002 4279909412
0.05079018 0.066458821 0.289 4278528013
0.051549863 0.066228867 0.28800002 4278918926
0.052485283 0.066228867 0.28800002 4278523400
0.053235218 0.065998897 0.287 4279779875
0.053978663 0.065768942 0.28600001 4279519010
0.054907586 0.065768942 0.28600001 4279650596
0.055641286 0.06553898 0.28500003 4279453217
0.056566969 0.06553898 0.28500003 4279715617
0.057290915 0.065309018 0.28400001 4280438057
0.057803396 0.064849094 0.28200001 4278659084
0.058719333 0.064849094 0.28200001 4278263810
0.059423801 0.064619139 0.28100002 4278595853
0.060121763 0.064389169 0.28 4279255064
0.061031204 0.064389169 0.28 4279388187
0.067621119 0.062089559 0.27000001 4279456293
0.06824439 0.0618596 0.26900002 4284455280
0.069118105 0.0618596 0.26900002 4283203929
0.06999182 0.0618596 0.26900002 4280177449
0.070602082 0.061629634 0.26800001 4280703280
0.071472548 0.061629634 0.26800001 4281162550
0.072343014 0.061629634 0.26800001 4282934345
0.039342307 0.070429556 0.30200002 4280042785
0.040456723 0.070662759 0.303 4279912994
0.041440867 0.070662759 0.303 4279716385
0.042425014 0.070662759 0.303 4279716385
0.043265894 0.070429556 0.30200002 4279651105
0.044246793 0.070429556 0.30200002 4279651105
0.044179361 0.068797082 0.29500002 4279585312
0.045137525 0.068797082 0.29500002 4279912996
0.045939427 0.068563864 0.294 4280567848
0.046734836 0.06833066 0.29300001 4279246607
0.047523748 0.06809745 0.29200003 4279246096
0.048472166 0.06809745 0.29200003 4279113486
0.049251329 0.067864239 0.29100001 4279047947
0.050024007 0.067631029 0.29000002 4278720777
0.05079018 0.067397818 0.289 4279183633
0.051549863 0.067164607 0.28800002 4279840028
0.052485283 0.067164607 0.28800002 4278589191
0.053235218 0.066931397 0.287 4279779875
0.053978663 0.066698186 0.28600001 4279781410
0.054907586 0.066698186 0.28600001 4278925590
0.055641286 0.066464975 0.28500003 4278199299
0.056368485 0.066231765 0.28400001 4278858513
0.057290915 0.066231765 0.28400001 4279648541
0.057803396 0.065765344 0.28200001 4279780897
0.058511112 0.065532133 0.28100002 4280372264
0.059423801 0.065532133 0.28100002 4278790672
0.060121763 0.065298922 0.28 4278197511
0.061031204 0.065298922 0.28 4279187476
0.061719432 0.065065712 0.27900001 4279584799
0.062625624 0.065065712 0.27900001 4279453726
0.067621119 0.062966816 0.27000001 4279653672
0.06824439 0.062733613 0.26900002 4279982637
0.069118105 0.062733613 0.26900002 4280245041
0.06999182 0.062733613 0.26900002 4285376382
0.070602082 0.062500395 0.26800001 4281953862
0.071472548 0.062500395 0.26800001 4280177449
0.07207308 0.062267188 0.26700002 4280966454
0.07294029 0.062267188 0.26700002 4281556538
0.040590249 0.071883701 0.30400002 4279908635
0.041577637 0.071883701 0.30400002 4279911715
0.042565033 0.071883701 0.30400002 4279584801
0.043552425 0.071883701 0.30400002 4279651105
0.04453982 0.071883701 0.30400002 4279585312
0.044179361 0.069755562 0.29500002 4279651105
0.045137525 0.069755562 0.29500002 4279585312
0.045939427 0.069519103 0.294 4279651105
0.046894338 0.069519103 0.294 4279847203
0.047686499 0.069282643 0.29300001 4280436778
0.048472166 0.069046184 0.29200003 4278589191
0.049251329 0.068809725 0.29100001 4278983437
0.050024007 0.068573266 0.29000002 4279180303
0.05079018 0.0683368 0.289 4279179531
0.051549863 0.068100348 0.28800002 4278982922
0.052485283 0.068100348 0.28800002 4279247119
0.053235218 0.067863882 0.287 4279715106
0.053978663 0.06762743 0.28600001 4279847203
0.054715607 0.067390971 0.28500003 4278658054
0.055641286 0.067390971 0.28500003 4278919689
0.056368485 0.067154504 0.28400001 4278984971
0.057089191 0.066918053 0.28300002 4278328322
0.057803396 0.066681586 0.28200001 4279716385
0.058511112 0.066445127 0.28100002 4279519519
0.059423801 0.066445127 0.28100002 4279847203
0.060121763 0.066208668 0.28 4280043301
0.060813237 0.065972209 0.27900001 4279317016
0.061719432 0.065972209 0.27900001 4278198021
0.062401161 0.065735757 0.27800003 4279319324
0.063076392 0.065499291 0.27700001 4279584799
0.063976087 0.065499291 0.27700001 4279388187
0.066193767 0.065026373 0.27500001 4278863127
0.067086965 0.065026373 0.27500001 4278797332
0.067732967 0.064789914 0.27400002 4278731539
0.06824439 0.063607618 0.26900002 4279391013
0.069118105 0.063607618 0.26900002 4279325220
0.06999182 0.063607618 0.26900002 4280048430
0.070602082 0.063371152 0.26800001 4281297216
0.071472548 0.063371152 0.26800001 4285573249
0.07207308 0.0631347 0.26700002 4280769586
0.07294029 0.0631347 0.26700002 4280375082
0.073531076 0.062898234 0.266 4281162032
0.074115366 0.062661774 0.26500002 4281556276
0.039733123 0.073111132 0.30500001 4279309832
0.040590249 0.072871432 0.30400002 4279047943
0.041577637 0.072871432 0.30400002 4278720263
0.042565033 0.072871432 0.30400002 4279581723
0.043552425 0.072871432 0.30400002 4279912483
0.04453982 0.072871432 0.30400002 4279716385
0.045527209 0.072871432 0.30400002 4279584801
0.04529053 0.070953757 0.296 4279716898
0.046095688 0.070714049 0.29500002 4279848484
0.046894338 0.070474342 0.294 4279519521
0.047686499 0.070234634 0.29300001 4279651107
0.048472166 0.069994926 0.29200003 4279780645
0.049251329 0.069755211 0.29100001 4280699182
0.050024007 0.069515511 0.29000002 4278852363
0.05079018 0.069275796 0.289 4279180814
0.051728852 0.069275796 0.289 4279179533
0.052485283 0.069036089 0.28800002 4279641877
0.053235218 0.068796374 0.287 4279912996
0.053978663 0.068556674 0.28600001 4279517727
0.054715607 0.068316966 0.28500003 4278721545
0.055446051 0.068077251 0.28400001 4279246605
0.056368485 0.068077251 0.28400001 4278983433
0.057089191 0.067837551 0.28300002 4279247119
0.057803396 0.067597836 0.28200001 4279977254
0.058511112 0.067358129 0.28100002 4278201356
0.059212323 0.067118414 0.28 4279187476
0.060121763 0.067118414 0.28 4279911713
0.060813237 0.066878714 0.27900001 4279912485
0.061498217 0.066639006 0.27800003 4280241196
0.062401161 0.066639006 0.27800003 4278527500
0.063076392 0.066399291 0.27700001 4278724109
0.063976087 0.066399291 0.27700001 4279186191
0.064641573 0.066159591 0.27600002 4279780125
0.065300561 0.065919876 0.27500001 4279387933
0.066193767 0.065919876 0.27500001 4279125531
0.06684301 0.065680169 0.27400002 4279126299
0.067732967 0.065680169 0.27400002 4278928920
0.068372466 0.065440454 0.273 4279126299
0.069375046 0.064721331 0.27000001 4278929433
0.06999182 0.064481631 0.26900002 4279456545
0.070865527 0.064481631 0.26900002 4279588131
0.071472548 0.064241916 0.26800001 4279850535
0.07207308 0.064002208 0.26700002 4283466586
0.072667107 0.063762493 0.266 4286426501
0.073531076 0.063762493 0.266 4281557819
0.074115366 0.063522793 0.26500002 4280833835
0.074693151 0.063283078 0.264 4281424942
0.075264454 0.063043371 0.26300001 4281751859
0.039602853 0.073859155 0.30400002 4278915078
0.040590249 0.073859155 0.30400002 4278915078
0.041577637 0.073859155 0.30400002 4278850568
0.042565033 0.073859155 0.30400002 4278719750
0.043552425 0.073859155 0.30400002 4278457091
0.044393305 0.073616199 0.303 4279976740
0.044778407 0.072644368 0.29900002 4279912998
0.045443542 0.072158456 0.29700002 4279650594
0.046251941 0.071915492 0.296 4279716385
0.047053844 0.071672536 0.29500002 4279651107
0.047849249 0.071429573 0.294 4279585314
0.048638165 0.071186624 0.29300001 4279651107
0.04942058 0.070943668 0.29200003 4279717672
0.050196499 0.070700705 0.29100001 4279781412
0.050965928 0.070457749 0.29000002 4279975457
0.051728852 0.070214786 0.289 4278918926
0.052485283 0.069971837 0.28800002 4279774746
0.053235218 0.069728874 0.287 4279715619
0.053978663 0.069485918 0.28600001 4279912998
0.054715607 0.069242962 0.28500003 4279445781
0.055446051 0.068999998 0.28400001 4279115533
0.056170009 0.06875705 0.28300002 4279378193
0.057089191 0.06875705 0.28300002 4279180812
0.057803396 0.068514086 0.28200001 4279645209
0.058511112 0.06827113 0.28100002 4280369702
0.059212323 0.068028167 0.28 4280765997
0.060121763 0.068028167 0.28 4279384342
0.060813237 0.067785211 0.27900001 4279781412
0.061498217 0.067542255 0.27800003 4279649824
0.062401161 0.067542255 0.27800003 4279912483
0.063076392 0.067299299 0.27700001 4280042785
0.063745126 0.067056343 0.27600002 4279119635
0.064407364 0.06681338 0.27500001 4278196480
0.065300561 0.06681338 0.27500001 4278595341
0.065953061 0.066570424 0.27400002 4279123480
0.06684301 0.066570424 0.27400002 4279453726
0.067485765 0.06632746 0.273 4279387933
0.068372466 0.06632746 0.273 4278993945
0.068751782 0.065841556 0.27100003 4278928920
0.069375046 0.065598592 0.27000001 4278994711
0.06999182 0.065355636 0.26900002 4279126297
0.070865527 0.065355636 0.26900002 4279061787
0.071472548 0.065112673 0.26800001 4279456799
0.07207308 0.064869724 0.26700002 4279587109
0.072667107 0.064626761 0.266 4281428290
0.073531076 0.064626761 0.266 4285307511
0.074115366 0.064383805 0.26500002 4286689162
0.074693151 0.064140841 0.264 4281030446
0.075264454 0.063897885 0.26300001 4281030446
0.07582926 0.063654937 0.26200002 4281358643
0.076680228 0.063654937 0.26200002 4281621304
0.039602853 0.074846886 0.30400002 4279179279
0.040590249 0.074846886 0.30400002 4279112973
0.041577637 0.074846886 0.30400002 4279047180
0.042565033 0.074846886 0.30400002 4279112973
0.043409158 0.074600674 0.303 4279178766
0.044246793 0.07435447 0.30200002 4279048715
0.044778407 0.073615849 0.29900002 4279313682
0.045443542 0.073123433 0.29700002 4280042787
0.046251941 0.072877221 0.296 4279846690
0.047053844 0.072631024 0.29500002 4279649824
0.047849249 0.072384812 0.294 4279847203
0.048638165 0.072138608 0.29300001 4279848486
0.04942058 0.071892403 0.29200003 4279519521
0.050196499 0.071646191 0.29100001 4279585316
0.050965928 0.071399987 0.29000002 4279914281
0.051728852 0.071153775 0.289 4279977508
0.052485283 0.07090757 0.28800002 4280240166
0.053235218 0.070661359 0.287 4278331656
0.053978663 0.070415162 0.28600001 4279318551
0.054715607 0.070168957 0.28500003 4280829483
0.055446051 0.069922745 0.28400001 4279051277
0.056170009 0.069676541 0.28300002 4279312400
0.057089191 0.069676541 0.28300002 4279181326
0.057803396 0.069430329 0.28200001 4280040221
0.058511112 0.069184124 0.28100002 4280369702
0.059212323 0.068937913 0.28 4279780899
0.060121763 0.068937913 0.28 4279516957
0.060813237 0.068691708 0.27900001 4280109094
0.061498217 0.068445504 0.27800003 4278859027
0.06217669 0.068199299 0.27700001 4278792720
0.063076392 0.068199299 0.27700001 4279451162
0.063745126 0.067953095 0.27600002 4279584029
0.064407364 0.067706883 0.27500001 4279715102
0.065300561 0.067706883 0.27500001 4279515160
0.065953061 0.067460679 0.27400002 4278196480
0.06684301 0.067460679 0.27400002 4278463240
0.067485765 0.067214467 0.273 4279516953
0.068122022 0.066968262 0.27200001 4279190041
0.068751782 0.066722058 0.27100003 4278994199
0.069375046 0.066475846 0.27000001 4278994199
0.070252009 0.066475846 0.27000001 4278994713
0.070865527 0.066229641 0.26900002 4278731541
0.071472548 0.065983437 0.26800001 4279323678
0.07207308 0.065737233 0.26700002 4279586850
0.072667107 0.065491021 0.266 4279586850
0.073531076 0.065491021 0.266 4279981092
0.074115366 0.065244816 0.26500002 4282018624
0.074693151 0.064998604 0.264 4287543953
0.075264454 0.0647524 0.26300001 4285635956
0.07582926 0.064506195 0.26200002 4281162030
0.076680228 0.064506195 0.26200002 4281162284
0.077235281 0.064259984 0.26100001 4281556536
0.078083009 0.064259984 0.26100001 4282147909
0.044778407 0.07458733 0.29900002 4279048717
0.045443542 0.074088417 0.29700002 4278852363
0.046251941 0.073838957 0.296 4278919437
0.047053844 0.073589511 0.29500002 4279648289
0.047849249 0.073340051 0.294 4279912485
0.048638165 0.073090598 0.29300001 4279716387
0.04942058 0.072841145 0.29200003 4279716387
0.050196499 0.072591685 0.29100001 4279585314
0.050965928 0.072342232 0.29000002 4279651107
0.051728852 0.072092772 0.289 4279716387
0.052485283 0.071843319 0.28800002 4279716387
0.053235218 0.071593858 0.287 4280373034
0.053978663 0.071344405 0.28600001 4279515676
0.054715607 0.071094953 0.28500003 4278328835
0.055446051 0.070845492 0.28400001 4280105246
0.056170009 0.070596039 0.28300002 4280105760
0.056887455 0.070346579 0.28200001 4280040737
0.057803396 0.070346579 0.28200001 4280370469
0.058511112 0.070097126 0.28100002 4279515930
0.059212323 0.069847666 0.28 4279780127
0.059907045 0.069598213 0.27900001 4279319064
0.060813237 0.069598213 0.27900001 4279515676
0.061498217 0.06934876 0.27800003 4279909664
0.06217669 0.0690993 0.27700001 4280699950
0.063076392 0.0690993 0.27700001 4278529294
0.063745126 0.068849847 0.27600002 4279782180
0.064407364 0.068600386 0.27500001 4279453213
0.065300561 0.068600386 0.27500001 4279255834
0.065953061 0.068350933 0.27400002 4279517725
0.066599056 0.068101473 0.273 4279449113
0.067485765 0.068101473 0.273 4278198276
0.068122022 0.06785202 0.27200001 4278660619
0.068751782 0.067602567 0.27100003 4279255064
0.069375046 0.067353107 0.27000001 4278994199
0.070252009 0.067353107 0.27000001 4279125785
0.070865527 0.067103654 0.26900002 4279059992
0.071472548 0.066854194 0.26800001 4278994199
0.07207308 0.066604741 0.26700002 4279059990
0.07294029 0.066604741 0.26700002 4279257369
0.073531076 0.066355281 0.266 4278929431
0.074115366 0.066105828 0.26500002 4279653154
0.074693151 0.065856367 0.264 4280309287
0.075264454 0.065606914 0.26300001 4282938959
0.076118678 0.065606914 0.26300001 4287873184
0.076680228 0.065357462 0.26200002 4283070545
0.077531204 0.065357462 0.26200002 4280504100
0.078083009 0.065108001 0.26100001 4281097007
0.045443542 0.075053401 0.29700002 4279509014
0.046251941 0.074800692 0.296 4279509014
0.047053844 0.074547991 0.29500002 4279576858
0.047849249 0.074295282 0.294 4279841822
0.048638165 0.074042581 0.29300001 4279516957
0.049589828 0.074042581 0.29300001 4279846690
0.050368998 0.07378988 0.29200003 4279716387
0.051141668 0.073537171 0.29100001 4279650594
0.051728852 0.073031753 0.289 4279979557
0.052485283 0.072779052 0.28800002 4279585312
0.053235218 0.072526343 0.287 4279519521
0.053978663 0.072273642 0.28600001 4279848486
0.054715607 0.07202094 0.28500003 4280109094
0.055446051 0.071768232 0.28400001 4279844641
0.056170009 0.07151553 0.28300002 4278197765
0.056887455 0.071262822 0.28200001 4279448600
0.057803396 0.071262822 0.28200001 4279976992
0.058511112 0.07101012 0.28100002 4280042785
0.059212323 0.070757411 0.28 4278923021
0.059907045 0.07050471 0.27900001 4279383572
0.060813237 0.07050471 0.27900001 4280370215
0.061498217 0.070252009 0.27800003 4279778078
0.06217669 0.0699993 0.27700001 4279780645
0.063076392 0.0699993 0.27700001 4279451680
0.063745126 0.069746599 0.27600002 4278464269
0.064407364 0.06949389 0.27500001 4279386652
0.065063111 0.069241188 0.27400002 4279387935
0.065953061 0.069241188 0.27400002 4279387935
0.066599056 0.068988472 0.273 4279190043
0.067238562 0.068735771 0.27200001 4279517725
0.068122022 0.068735771 0.27200001 4279844641
0.068751782 0.06848307 0.27100003 4278197763
0.069375046 0.068230361 0.27000001 4278660621
0.070252009 0.068230361 0.27000001 4279320346
0.070865527 0.067977659 0.26900002 4278992916
0.071472548 0.067724951 0.26800001 4279190295
0.07207308 0.067472249 0.26700002 4279125013
0.07294029 0.067472249 0.26700002 4279190806
0.073531076 0.06721954 0.266 4278994711
0.074115366 0.066966839 0.26500002 4278797847
0.074693151 0.06671413 0.264 4279653156
0.075550631 0.06671413 0.264 4279849768
0.076118678 0.066461429 0.26300001 4280768305
0.076680228 0.066208728 0.26200002 4284189028
0.077531204 0.066208728 0.26200002 4288267426
0.078382187 0.066208728 0.26200002 4282281033
0.079233162 0.066208728 0.26200002 4280505383
0.080084138 0.066208728 0.26200002 4281097520
0.080935121 0.066208728 0.26200002 4281883706
0.04529053 0.075762428 0.296 4280364323
0.046251941 0.075762428 0.296 4280298530
0.047053844 0.075506479 0.29500002 4280298530
0.047849249 0.075250521 0.294 4280299297
0.048804164 0.075250521 0.294 4279971614
0.049589828 0.074994572 0.29300001 4279643930
0.050368998 0.074738614 0.29200003 4279649311
0.051141668 0.074482657 0.29100001 4279781410
0.051728852 0.07397075 0.289 4279912996
0.052303042 0.073458843 0.287 4279913766
0.053049732 0.073202886 0.28600001 4279914279
0.053789929 0.072946936 0.28500003 4279848486
0.054523617 0.072690979 0.28400001 4279914279
0.055446051 0.072690979 0.28400001 4279914279
0.056170009 0.072435029 0.28300002 4280174371
0.056887455 0.072179072 0.28200001 4279513623
0.057598419 0.071923122 0.28100002 4278263558
0.058511112 0.071923122 0.28100002 4280566311
0.059212323 0.071667165 0.28 4280042272
0.059907045 0.071411207 0.27900001 4280043299
0.06059527 0.071155258 0.27800003 4279845920
0.061498217 0.071155258 0.27800003 4279318551
0.06217669 0.0708993 0.27700001 4279517725
0.06284868 0.07064335 0.27600002 4279649311
0.063745126 0.07064335 0.27600002 4278792207
0.064407364 0.070387393 0.27500001 4278858000
0.065063111 0.070131443 0.27400002 4279255838
0.065953061 0.070131443 0.27400002 4279058972
0.066599056 0.069875479 0.273 4279058970
0.067238562 0.069619529 0.27200001 4279124763
0.068122022 0.069619529 0.27200001 4279321629
0.068751782 0.069363579 0.27100003 4279320348
0.069375046 0.069107622 0.27000001 4279317527
0.06999182 0.068851672 0.26900002 4278198019
0.070865527 0.068851672 0.26900002 4278197508
0.071472548 0.068595715 0.26800001 4279253271
0.07207308 0.068339765 0.26700002 4279058709
0.07294029 0.068339765 0.26700002 4279519258
0.073531076 0.0680838 0.266 4279388439
0.074115366 0.067827851 0.26500002 4279060244
0.074693151 0.067571893 0.264 4278994711
0.075550631 0.067571893 0.264 4279126297
0.076118678 0.067315944 0.26300001 4279652641
0.076972902 0.067315944 0.26300001 4279586336
0.077531204 0.067059994 0.26200002 4281162550
0.078382187 0.067059994 0.26200002 4286359947
0.079233162 0.067059994 0.26200002 4287215002
0.080084138 0.067059994 0.26200002 4280570413
0.080935121 0.067059994 0.26200002 4280636971
0.081786096 0.067059994 0.26200002 4280834350
0.082637064 0.067059994 0.26200002 4281423927
0.049589828 0.075946555 0.29300001 4280364577
0.050368998 0.075687356 0.29200003 4279905819
0.051317416 0.075687356 0.29200003 4279710490
0.052265834 0.075687356 0.29200003 4280043049
0.052303042 0.074391335 0.287 4280110377
0.053049732 0.074132137 0.28600001 4280111145
0.053789929 0.073872931 0.28500003 4279913766
0.054523617 0.073613726 0.28400001 4279716900
0.055250823 0.073354527 0.28300002 4279914279
0.056170009 0.073354527 0.28300002 4279914279
0.056887455 0.073095322 0.28200001 4279913766
0.057598419 0.072836116 0.28100002 4280502823
0.058302883 0.07257691 0.28 4279580186
0.059212323 0.07257691 0.28 4278920974
0.059907045 0.072317712 0.27900001 4279118865
0.06059527 0.072058514 0.27800003 4279912483
0.061498217 0.072058514 0.27800003 4279912483
0.06217669 0.071799301 0.27700001 4278266376
0.06284868 0.071540102 0.27600002 4278463242
0.063745126 0.071540102 0.27600002 4280765997
0.064407364 0.071280897 0.27500001 4280239653
0.065063111 0.071021698 0.27400002 4279055379
0.065953061 0.071021698 0.27400002 4278330886
0.066599056 0.070762493 0.273 4279386141
0.067238562 0.070503287 0.27200001 4278861078
0.067871571 0.070244089 0.27100003 4279387933
0.068751782 0.070244089 0.27100003 4279190554
0.069375046 0.069984883 0.27000001 4279453213
0.06999182 0.069725685 0.26900002 4279320859
0.070865527 0.069725685 0.26900002 4279975711
0.071472548 0.069466472 0.26800001 4278198019
0.07207308 0.069207273 0.26700002 4278462220
0.07294029 0.069207273 0.26700002 4279253269
0.073531076 0.068948068 0.266 4278795535
0.074115366 0.068688869 0.26500002 4279059220
0.074976087 0.068688869 0.26500002 4278928918
0.075550631 0.068429656 0.264 4278928918
0.076408103 0.068429656 0.264 4279126297
0.076972902 0.068170458 0.26300001 4279192090
0.077827126 0.068170458 0.26300001 4279454232
0.07868135 0.068170458 0.26300001 4280242213
0.079233162 0.06791126 0.26200002 4285043063
0.080084138 0.06791126 0.26200002 4286489736
0.080935121 0.06791126 0.26200002 4281095471
0.081786096 0.06791126 0.26200002 4280176420
0.082637064 0.06791126 0.26200002 4280046117
0.083169378 0.067652054 0.26100001 4280899630
0.052303042 0.07532382 0.287 4280893231
0.053049732 0.075061373 0.28600001 4280634409
0.053789929 0.074798919 0.28500003 4280307239
0.054523617 0.074536465 0.28400001 4280045350
0.055250823 0.074274018 0.28300002 4279980072
0.055971522 0.074011557 0.28200001 4279914277
0.056887455 0.074011557 0.28200001 4279651359
0.057598419 0.07374911 0.28100002 4279914018
0.058302883 0.073486656 0.28 4280044834
0.059000853 0.073224202 0.27900001 4280174373
0.059907045 0.073224202 0.27900001 4279514393
0.06059527 0.072961755 0.27800003 4278330373
0.061276998 0.072699301 0.27700001 4279778332
0.06217669 0.072699301 0.27700001 4279780127
0.06284868 0.072436847 0.27600002 4280109092
0.063514166 0.072174393 0.27500001 4279977506
0.064407364 0.072174393 0.27500001 4280372264
0.065063111 0.071911946 0.27400002 4278592523
0.065953061 0.071911946 0.27400002 4279447578
0.066599056 0.071649484 0.273 4280039715
0.067238562 0.071387038 0.27200001 4278528013
0.067871571 0.071124591 0.27100003 4279123478
0.068751782 0.071124591 0.27100003 4278926099
0.069375046 0.070862129 0.27000001 4279123478
0.06999182 0.070599683 0.26900002 4279386650
0.070865527 0.070599683 0.26900002 4279517723
0.071472548 0.070337228 0.26800001 4279385367
0.07207308 0.070074782 0.26700002 4279449367
0.07294029 0.070074782 0.26700002 4278395912
0.073531076 0.06981232 0.266 4278526728
0.074115366 0.069549873 0.26500002 4279252756
0.074976087 0.069549873 0.26500002 4278861328
0.075836807 0.069549873 0.26500002 4278993427
0.076408103 0.069287419 0.264 4278863125
0.077265568 0.069287419 0.264 4278994711
0.077827126 0.069024965 0.26300001 4279126035
0.07868135 0.069024965 0.26300001 4279717402
0.079535574 0.069024965 0.26300001 4279649815
0.080084138 0.068762518 0.26200002 4283924824
0.080935121 0.068762518 0.26200002 4287937441
0.081786096 0.068762518 0.26200002 4279715367
0.082637064 0.068762518 0.26200002 4279717152
0.083169378 0.068500064 0.26100001 4279848738
0.084017113 0.068500064 0.26100001 4281159983
0.053601187 0.075459212 0.28400001 4282473542
0.054523617 0.075459212 0.28400001 4280437545
0.055250823 0.075193517 0.28300002 4280241448
0.055971522 0.074927807 0.28200001 4279847203
0.056685731 0.074662112 0.28100002 4279913764
0.057393439 0.074396402 0.28 4279782178
0.058302883 0.074396402 0.28 4279979557
0.059000853 0.074130706 0.27900001 4279979557
0.059692327 0.073865011 0.27800003 4279716385
0.06059527 0.073865011 0.27800003 4280240166
0.061276998 0.073599301 0.27700001 4279186711
0.06217669 0.073599301 0.27700001 4279052558
0.06284868 0.073333606 0.27600002 4279909151
0.063514166 0.073067896 0.27500001 4279386139
0.064407364 0.073067896 0.27500001 4279846690
0.065063111 0.072802201 0.27400002 4279911199
0.065712355 0.072536491 0.273 4280042274
0.066599056 0.072536491 0.273 4278723341
0.067238562 0.072270796 0.27200001 4279909666
0.067871571 0.072005101 0.27100003 4278725390
0.068751782 0.072005101 0.27100003 4279317527
0.069375046 0.07173939 0.27000001 4278330886
0.06999182 0.071473695 0.26900002 4279385369
0.070865527 0.071473695 0.26900002 4279320857
0.071472548 0.071207985 0.26800001 4279189271
0.07207308 0.07094229 0.26700002 4279320857
0.07294029 0.07094229 0.26700002 4279517723
0.073531076 0.070676588 0.266 4279515158
0.074395046 0.070676588 0.266 4279052812
0.074976087 0.070410885 0.26500002 4278330884
0.075836807 0.070410885 0.26500002 4279452184
0.076408103 0.070145182 0.264 4279125013
0.077265568 0.070145182 0.264 4278994197
0.07812304 0.070145182 0.264 4278862865
0.07868135 0.06987948 0.26300001 4278994451
0.079535574 0.06987948 0.26300001 4279520025
0.080084138 0.069613785 0.26200002 4279520025
0.080935121 0.069613785 0.26200002 4279650594
0.081786096 0.069613785 0.26200002 4280441141
0.082321651 0.069348082 0.26100001 4279718184
0.083169378 0.069348082 0.26100001 4279520289
0.084017113 0.069348082 0.26100001 4279519006
0.08486484 0.069348082 0.26100001 4280767022
0.057393439 0.075306155 0.28 4280109862
0.058094662 0.075037211 0.27900001 4280110375
0.059000853 0.075037211 0.27900001 4279716385
0.059692327 0.07476826 0.27800003 4279914018
0.06059527 0.07476826 0.27800003 4279848738
0.061276998 0.074499309 0.27700001 4279059222
0.06217669 0.074499309 0.27700001 4280371748
0.06284868 0.074230358 0.27600002 4279250703
0.063514166 0.073961407 0.27500001 4278262529
0.064173155 0.073692456 0.27400002 4279579416
0.065063111 0.073692456 0.27400002 4279648027
0.065712355 0.073423505 0.273 4279976992
0.066599056 0.073423505 0.273 4280042783
0.067238562 0.073154554 0.27200001 4279779611
0.067871571 0.07288561 0.27100003 4278594828
0.068751782 0.07288561 0.27100003 4279844895
0.069375046 0.072616652 0.27000001 4279844641
0.06999182 0.072347708 0.26900002 4279384344
0.070865527 0.072347708 0.26900002 4279188760
0.071472548 0.07207875 0.26800001 4278465035
0.07207308 0.071809806 0.26700002 4279255064
0.07294029 0.071809806 0.26700002 4279320857
0.073531076 0.071540847 0.266 4279386650
0.074395046 0.071540847 0.266 4279255064
0.074976087 0.071271904 0.26500002 4278593291
0.075836807 0.071271904 0.26500002 4279317781
0.076697528 0.071271904 0.26500002 4278993429
0.077265568 0.071002945 0.264 4279059220
0.07812304 0.071002945 0.264 4279190293
0.07868135 0.070734002 0.26300001 4279256086
0.079535574 0.070734002 0.26300001 4278993427
0.080084138 0.070465051 0.26200002 4279454232
0.080935121 0.070465051 0.26200002 4279059990
0.081786096 0.070465051 0.26200002 4279323164
0.082321651 0.0701961 0.26100001 4279257633
0.083169378 0.0701961 0.26100001 4279389471
0.084017113 0.0701961 0.26100001 4279190808
0.08486484 0.0701961 0.26100001 4279913248
0.058094662 0.075943708 0.27900001 4280372264
0.058789384 0.075671516 0.27800003 4280044582
0.059692327 0.075671516 0.27800003 4279912996
0.06059527 0.075671516 0.27800003 4279912996
0.061498217 0.075671516 0.27800003 4279847203
0.062401161 0.075671516 0.27800003 4279912994
0.06262096 0.07485491 0.27500001 4279846688
0.063514166 0.07485491 0.27500001 4280832303
0.064173155 0.074582711 0.27400002 4279448602
0.065063111 0.074582711 0.27400002 4278196480
0.065712355 0.074310511 0.273 4279383059
0.066355109 0.074038312 0.27200001 4279976477
0.067238562 0.074038312 0.27200001 4279845918
0.067871571 0.073766112 0.27100003 4279516953
0.068751782 0.073766112 0.27100003 4278332167
0.069375046 0.073493913 0.27000001 4279251223
0.06999182 0.073221713 0.26900002 4279119637
0.070865527 0.073221713 0.26900002 4278198278
0.071472548 0.072949514 0.26800001 4279449113
0.07207308 0.072677314 0.26700002 4278858000
0.07294029 0.072677314 0.26700002 4279516953
0.073531076 0.072405107 0.266 4279124248
0.074395046 0.072405107 0.266 4279124248
0.075259015 0.072405107 0.266 4278593806
0.075836807 0.072132915 0.26500002 4279119635
0.076697528 0.072132915 0.26500002 4279190041
0.077558242 0.072132915 0.26500002 4279124502
0.07812304 0.071860708 0.264 4279058709
0.078980513 0.071860708 0.264 4279256088
0.079535574 0.071588516 0.26300001 4279256601
0.080389798 0.071588516 0.26300001 4278993429
0.080935121 0.071316317 0.26200002 4279257371
0.081786096 0.071316317 0.26200002 4278994199
0.082321651 0.07104411 0.26100001 4279257117
0.083169378 0.07104411 0.26100001 4279257371
0.084017113 0.07104411 0.26100001 4279125015
0.08486484 0.07104411 0.26100001 4279256088
0.085384175 0.070771918 0.26000002 4280304161
0.058789384 0.076574765 0.27800003 4280567846
0.059692327 0.076574765 0.27800003 4280569129
0.06059527 0.076574765 0.27800003 4279912996
0.061498217 0.076574765 0.27800003 4279781410
0.062401161 0.076574765 0.27800003 4280241961
0.06262096 0.075748414 0.27500001 4280110375
0.063283205 0.075472966 0.27400002 4279847201
0.064173155 0.075472966 0.27400002 4279781408
0.064825647 0.075197518 0.273 4280174373
0.065712355 0.075197518 0.273 4279250451
0.066355109 0.07492207 0.27200001 4278723593
