# .PCD v0.7 - Point Cloud Data file format
VERSION 0.7
FIELDS x y z rgb
SIZE 4 4 4 4
TYPE F F F U
COUNT 1 1 1 1
WIDTH 1014
HEIGHT 1
VIEWPOINT 0 0 0 1 0 0 0
POINTS 1014
DATA ascii
0.083897255 -0.04149266 0.43700001 4287606943
0.085316636 -0.04149266 0.43700001 4285830532
0.086736016 -0.04149266 0.43700001 4285304958
0.082289152 -0.039981104 0.43600002 4281558091
0.083897255 -0.040072802 0.43700001 4281099335
0.085316636 -0.040072802 0.43700001 4280309817
0.086736016 -0.040072802 0.43700001 4280836161
0.088357121 -0.040164504 0.43800002 4280244024
0.079274647 -0.038476046 0.43500003 4280310584
0.08068753 -0.038476046 0.43500003 4280246074
0.082289152 -0.038564496 0.43600002 4279852600
0.083705276 -0.038564496 0.43600002 4279787066
0.085121401 -0.038564496 0.43600002 4279721273
0.086736016 -0.038652945 0.43700001 4279326767
0.088357121 -0.038741399 0.43800002 4279984184
0.089779742 -0.038741399 0.43800002 4280374326
0.077503785 -0.036892284 0.43300003 4279721264
0.079092406 -0.036977485 0.43400002 4279261226
0.080502041 -0.036977485 0.43400002 4279327789
0.082100414 -0.03706269 0.43500003 4279459375
0.08351329 -0.03706269 0.43500003 4279130412
0.085121401 -0.037147891 0.43600002 4279064619
0.086537533 -0.037147891 0.43600002 4279065132
0.088357121 -0.037318293 0.43800002 4279393584
0.089779742 -0.037318293 0.43800002 4280769084
0.072946131 -0.035321519 0.43100002 4279393330
0.074346021 -0.035321519 0.43100002 4279327789
0.07574591 -0.035321519 0.43100002 4279130408
0.077503785 -0.035485424 0.43300003 4279196201
0.078910165 -0.035485424 0.43300003 4279064615
0.080502041 -0.035567377 0.43400002 4278472478
0.081911676 -0.035567377 0.43400002 4278867236
0.083321303 -0.035567377 0.43400002 4278801956
0.084926173 -0.035649329 0.43500003 4278933542
0.086339056 -0.035649329 0.43500003 4278670372
0.089779742 -0.035895187 0.43800002 4279715883
0.057146799 -0.033685043 0.42800003 4286356878
0.058536936 -0.033685043 0.42800003 4285633923
0.059787065 -0.033606339 0.42700002 4282149456
0.061173964 -0.033606339 0.42700002 4281031743
0.062560864 -0.033606339 0.42700002 4281034053
0.063947752 -0.033606339 0.42700002 4279851316
0.065334655 -0.033606339 0.42700002 4279130671
0.066721551 -0.033606339 0.42700002 4279459890
0.068108447 -0.033606339 0.42700002 4279328304
0.069495343 -0.033606339 0.42700002 4279394097
0.072776876 -0.033842448 0.43000001 4278933544
0.074346021 -0.033921152 0.43100002 4278933542
0.07574591 -0.033921152 0.43100002 4279065128
0.077324793 -0.033999857 0.43200001 4278868003
0.078910165 -0.034078561 0.43300003 4278604831
0.080316551 -0.034078561 0.43300003 4278406939
0.081911676 -0.034157261 0.43400002 4278604064
0.083321303 -0.034157261 0.43400002 4278800160
0.084730938 -0.034157261 0.43400002 4278865953
0.086140573 -0.034157261 0.43400002 4278800160
0.089984715 -0.034550779 0.43900001 4280044080
0.053100135 -0.032369882 0.42900002 4285961605
0.054366503 -0.032294426 0.42800003 4286029708
0.055626374 -0.032218974 0.42700002 4282938207
0.057013273 -0.032218974 0.42700002 4280901442
0.058400165 -0.032218974 0.42700002 4280705090
0.059787065 -0.032218974 0.42700002 4280181051
0.061173964 -0.032218974 0.42700002 4279589426
0.062414352 -0.032143518 0.42600003 4279328820
0.063797995 -0.032143518 0.42600003 4279131695
0.06518165 -0.032143518 0.42600003 4279658039
0.066565298 -0.032143518 0.42600003 4278802730
0.068108447 -0.032218974 0.42700002 4278868521
0.069495343 -0.032218974 0.42700002 4278736933
0.071048245 -0.032294426 0.42800003 4278867749
0.072776876 -0.032445334 0.43000001 4278670370
0.074346021 -0.03252079 0.43100002 4278538271
0.07574591 -0.03252079 0.43100002 4278669341
0.077324793 -0.032596242 0.43200001 4278735134
0.078910165 -0.032671697 0.43300003 4278931746
0.080316551 -0.032671697 0.43300003 4278201353
0.081911676 -0.032747153 0.43400002 4278201867
0.083321303 -0.032747153 0.43400002 4278203404
0.084730938 -0.032747153 0.43400002 4279192351
0.086140573 -0.032747153 0.43400002 4279127582
0.052976359 -0.030903812 0.42800003 4281558089
0.054366503 -0.030903812 0.42800003 4280507709
0.055496104 -0.030759402 0.42600003 4279457074
0.056879755 -0.030759402 0.42600003 4279721012
0.058263399 -0.030759402 0.42600003 4279589939
0.05964705 -0.030759402 0.42600003 4279262257
0.060887434 -0.030687196 0.42500001 4279197234
0.062267836 -0.030687196 0.42500001 4278803244
0.063648231 -0.030687196 0.42500001 4278671658
0.065028638 -0.030687196 0.42500001 4278540070
0.066565298 -0.030759402 0.42600003 4278210077
0.067948945 -0.030759402 0.42600003 4278671140
0.069495343 -0.030831605 0.42700002 4278276382
0.071048245 -0.030903812 0.42800003 4278604318
0.072607629 -0.030976016 0.42900002 4278735134
0.074346021 -0.031120427 0.43100002 4279194404
0.07574591 -0.031120427 0.43100002 4278206226
0.077324793 -0.031192631 0.43200001 4278199808
0.078910165 -0.031264838 0.43300003 4279124765
0.080502041 -0.031337041 0.43400002 4279585832
0.081911676 -0.031337041 0.43400002 4279586086
0.083321303 -0.031337041 0.43400002 4278993177
0.084730938 -0.031337041 0.43400002 4279389217
0.086140573 -0.031337041 0.43400002 4279455010
0.024577547 -0.027306603 0.39600003 4280836165
0.025863754 -0.027306603 0.39600003 4281559634
0.052976359 -0.029513197 0.42800003 4279721527
0.054239478 -0.02944424 0.42700002 4279459125
0.055365831 -0.029306328 0.42500001 4279393332
0.056746233 -0.029306328 0.42500001 4279394095
0.057989862 -0.029237373 0.42400002 4279065130
0.059367016 -0.029237373 0.42400002 4278670372
0.06074417 -0.029237373 0.42400002 4278539556
0.062121328 -0.029237373 0.42400002 4278342177
0.063498475 -0.029237373 0.42400002 4278538786
0.065028638 -0.029306328 0.42500001 4278604064
0.066409037 -0.029306328 0.42500001 4278472478
0.067948945 -0.029375285 0.42600003 4278406685
0.069495343 -0.02944424 0.42700002 4278669087
0.071048245 -0.029513197 0.42800003 4278864671
0.072607629 -0.029582152 0.42900002 4278201863
0.074346021 -0.029720064 0.43100002 4278928154
0.075921655 -0.029789019 0.43200001 4279783461
0.077503785 -0.029857976 0.43300003 4279652391
0.078910165 -0.029857976 0.43300003 4279257633
0.080502041 -0.029926931 0.43400002 4278533910
0.081911676 -0.029926931 0.43400002 4279191840
0.08351329 -0.029995888 0.43500003 4280309807
0.084926173 -0.029995888 0.43500003 4279257633
0.086339056 -0.029995888 0.43500003 4279718186
0.024577547 -0.026019959 0.39600003 4279584551
0.025863754 -0.026019959 0.39600003 4280509246
0.027149964 -0.026019959 0.39600003 4279720762
0.038101446 -0.026479907 0.40300003 4285896579
0.03941039 -0.026479907 0.40300003 4286422923
0.040719334 -0.026479907 0.40300003 4285570181
0.054239478 -0.028056873 0.42700002 4279131693
0.055105284 -0.027794044 0.42300001 4278736935
0.05647919 -0.027794044 0.42300001 4278671140
0.057853092 -0.027794044 0.42300001 4278473761
0.059086982 -0.02772834 0.42200002 4278538784
0.060600903 -0.027794044 0.42300001 4278538784
0.061974812 -0.027794044 0.42300001 4278604064
0.063348711 -0.027794044 0.42300001 4278669087
0.064875633 -0.027859753 0.42400002 4278603294
0.066252783 -0.027859753 0.42400002 4278733853
0.067789435 -0.02792546 0.42500001 4278202890
0.069332592 -0.027991166 0.42600003 4278202377
0.071048245 -0.028122582 0.42800003 4279454246
0.072607629 -0.028188288 0.42900002 4279059488
0.074346021 -0.028319702 0.43100002 4279323426
0.075921655 -0.028385408 0.43200001 4278533908
0.077503785 -0.028451117 0.43300003 4278204174
0.079092406 -0.028516822 0.43400002 4278467351
0.080502041 -0.028516822 0.43400002 4280045867
0.082100414 -0.02858253 0.43500003 4278664982
0.08351329 -0.02858253 0.43500003 4279586598
0.084926173 -0.02858253 0.43500003 4279586598
0.086339056 -0.02858253 0.43500003 4279715113
0.024577547 -0.024733314 0.39600003 4280566051
0.025863754 -0.024733314 0.39600003 4279912996
0.027149964 -0.024733314 0.39600003 4278933031
0.028436171 -0.024733314 0.39600003 4279459890
0.02972238 -0.024733314 0.39600003 4280115518
0.03100859 -0.024733314 0.39600003 4281495374
0.032294799 -0.024733314 0.39600003 4285241214
0.033665806 -0.024795771 0.39700001 4286425490
0.035043314 -0.024858231 0.39800003 4286622099
0.036427312 -0.024920687 0.39900002 4285964169
0.038006898 -0.02510806 0.40200001 4283267424
0.039312594 -0.02510806 0.40200001 4281296200
0.040618293 -0.02510806 0.40200001 4279852598
0.041923989 -0.02510806 0.40200001 4279786805
0.054714467 -0.026232302 0.42000002 4278539036
0.056078631 -0.026232302 0.42000002 4278539038
0.057579558 -0.02629476 0.42100003 4278275099
0.058946967 -0.02629476 0.42100003 4278669087
0.06031438 -0.02629476 0.42100003 4278866466
0.061681788 -0.02629476 0.42100003 4279127841
0.063198954 -0.026357219 0.42200002 4278206226
0.06472262 -0.026419675 0.42300001 4278200833
0.066252783 -0.026482133 0.42400002 4279651109
0.067789435 -0.026544591 0.42500001 4279520293
0.069332592 -0.02660705 0.42600003 4279520293
0.071048245 -0.026731966 0.42800003 4278203405
0.072607629 -0.026794422 0.42900002 4278664984
0.074346021 -0.026919339 0.43100002 4278268943
0.075921655 -0.026981795 0.43200001 4278794517
0.077503785 -0.027044255 0.43300003 4278993179
0.079092406 -0.027106712 0.43400002 4279585316
0.08068753 -0.027169172 0.43500003 4279716389
0.082100414 -0.027169172 0.43500003 4279519523
0.083705276 -0.027231628 0.43600002 4279323941
0.084926173 -0.027169172 0.43500003 4278994209
0.027149964 -0.02344667 0.39600003 4278603035
0.028436171 -0.02344667 0.39600003 4278867490
0.02972238 -0.02344667 0.39600003 4279723312
0.03100859 -0.02344667 0.39600003 4279328300
0.032294799 -0.02344667 0.39600003 4279063849
0.033665806 -0.023505878 0.39700001 4279852598
0.035043314 -0.023565087 0.39800003 4279983672
0.036427312 -0.023624295 0.39900002 4279786807
0.03781781 -0.023683503 0.40000001 4279918904
0.039214805 -0.023742713 0.40100002 4279459123
0.040618293 -0.023801921 0.40200001 4279328302
0.041923989 -0.023801921 0.40200001 4279328302
0.043229684 -0.023801921 0.40200001 4279197486
0.054453921 -0.024749262 0.41800001 4279261478
0.055811588 -0.024749262 0.41800001 4279195172
0.057306021 -0.024808472 0.41900003 4279194404
0.058666933 -0.024808472 0.41900003 4279191840
0.060171112 -0.02486768 0.42000002 4278201094
0.061535276 -0.02486768 0.42000002 4279848488
0.063049197 -0.02492689 0.42100003 4280440625
0.064569615 -0.024986098 0.42200002 4280309037
0.066096522 -0.025045305 0.42300001 4278993177
0.067629933 -0.025104515 0.42400002 4278993179
0.069332592 -0.025222933 0.42600003 4278993949
0.070882238 -0.025282141 0.42700002 4278664984
0.072607629 -0.025400558 0.42900002 4278336019
0.074173518 -0.025459766 0.43000001 4279387683
0.075921655 -0.025578184 0.43200001 4280045613
0.077503785 -0.025637394 0.43300003 4278597656
0.079092406 -0.025696602 0.43400002 4278201356
0.08068753 -0.025755811 0.43500003 4280176686
0.082289152 -0.025815019 0.43600002 4280110123
0.083705276 -0.025815019 0.43600002 4282148171
0.027149964 -0.022160025 0.39600003 4279060767
0.028436171 -0.022160025 0.39600003 4278536474
0.02972238 -0.022160025 0.39600003 4278209560
0.03100859 -0.022160025 0.39600003 4278604831
0.032294799 -0.022160025 0.39600003 4282354782
0.033665806 -0.022215985 0.39700001 4283800180
0.035043314 -0.022271946 0.39800003 4280051262
0.036336016 -0.022271946 0.39800003 4279525431
0.03781781 -0.022383863 0.40000001 4279855414
0.039117008 -0.022383863 0.40000001 4279263791
0.040517252 -0.022439824 0.40100002 4279000873
0.041819703 -0.022439824 0.40100002 4278606115
0.043229684 -0.022495782 0.40200001 4279131945
0.044535384 -0.022495782 0.40200001 4278802208
0.045955114 -0.022551743 0.40300003 4278670624
0.050872158 -0.022999419 0.41100001 4279261478
0.052334111 -0.02305538 0.41200003 4279721516
0.054063104 -0.023223259 0.41500002 4279588646
0.055544548 -0.023279218 0.41600001 4279056152
0.057032481 -0.023335177 0.41700003 4278199047
0.058526915 -0.023391137 0.41800001 4278921236
0.060027849 -0.023447098 0.41900003 4279119383
0.061388765 -0.023447098 0.41900003 4280177451
0.062899433 -0.023503058 0.42000002 4278465298
0.064416602 -0.023559017 0.42100003 4279780129
0.066096522 -0.023670936 0.42300001 4280570926
0.067629933 -0.023726895 0.42400002 4279321631
0.069169834 -0.023782855 0.42500001 4278466581
0.070882238 -0.023894774 0.42700002 4279389221
0.072607629 -0.024006695 0.42900002 4278797084
0.074173518 -0.024062652 0.43000001 4278201101
0.075921655 -0.024174573 0.43200001 4279519017
0.077503785 -0.024230532 0.43300003 4280505912
0.079274647 -0.024342453 0.43500003 4280308533
0.08068753 -0.024342453 0.43500003 4281489727
0.027149964 -0.020873381 0.39600003 4279124765
0.028436171 -0.020873381 0.39600003 4278731802
0.02972238 -0.020873381 0.39600003 4278470681
0.03100859 -0.020873381 0.39600003 4278602781
0.032294799 -0.020873381 0.39600003 4279065382
0.033665806 -0.02092609 0.39700001 4279329070
0.034955263 -0.02092609 0.39700001 4278737197
0.036336016 -0.020978801 0.39800003 4279132207
0.037723266 -0.021031512 0.39900002 4278869033
0.039117008 -0.021084221 0.40000001 4278671908
0.040517252 -0.021136932 0.40100002 4278210070
0.041819703 -0.021136932 0.40100002 4278605083
0.043229684 -0.021189643 0.40200001 4279064867
0.04464617 -0.021242354 0.40300003 4279261478
0.046069145 -0.021295063 0.40400001 4278469911
0.047615901 -0.021400485 0.40600002 4278995742
0.049055114 -0.021453194 0.40700001 4280114223
0.050748382 -0.021611327 0.41000003 4278204945
0.052207083 -0.021664038 0.41100001 4278397195
0.053932834 -0.021822169 0.41400003 4278659086
0.05541103 -0.02187488 0.41500002 4278986002
0.056895711 -0.02192759 0.41600001 4279249687
0.0583869 -0.021980301 0.41700003 4280170787
0.059884582 -0.022033012 0.41800001 4280172325
0.061388765 -0.022085723 0.41900003 4279385887
0.062899433 -0.022138434 0.42000002 4279119637
0.064416602 -0.022191145 0.42100003 4280108326
0.065940268 -0.022243854 0.42200002 4279386400
0.067470424 -0.022296565 0.42300001 4280506164
0.069169834 -0.022401985 0.42500001 4278992925
0.070882238 -0.022507407 0.42700002 4278795548
0.072607629 -0.022612827 0.42900002 4280966717
0.074173518 -0.022665538 0.43000001 4280505912
0.07574591 -0.022718249 0.43100002 4280374326
0.077503785 -0.022823671 0.43300003 4281754185
0.027149964 -0.019586736 0.39600003 4279190558
0.028436171 -0.019586736 0.39600003 4278797084
0.02972238 -0.019586736 0.39600003 4278929179
0.03100859 -0.019586736 0.39600003 4278995742
0.032294799 -0.019586736 0.39600003 4278997279
0.033665806 -0.019636197 0.39700001 4278800673
0.034955263 -0.019636197 0.39700001 4278670370
0.036336016 -0.01968566 0.39800003 4278802210
0.037723266 -0.01973512 0.39900002 4278802210
0.039117008 -0.019784581 0.40000001 4278341659
0.040517252 -0.019834043 0.40100002 4278735902
0.041923989 -0.019883504 0.40200001 4279195683
0.043229684 -0.019883504 0.40200001 4279523623
0.04464617 -0.019932967 0.40300003 4278931232
0.046069145 -0.019982427 0.40400001 4278468632
0.047615901 -0.020081351 0.40600002 4280112944
0.049055114 -0.020130811 0.40700001 4278198273
0.050748382 -0.020279195 0.41000003 4278920720
0.052207083 -0.020328658 0.41100001 4279117588
0.053802561 -0.020427579 0.41300002 4280039205
0.055277511 -0.020477042 0.41400003 4280500268
0.056895711 -0.020575963 0.41600001 4279316764
0.0583869 -0.020625426 0.41700003 4278198281
0.059884582 -0.020674886 0.41800001 4281357880
0.061242249 -0.020674886 0.41800001 4278791955
0.062899433 -0.020773809 0.42000002 4279579936
0.064416602 -0.020823272 0.42100003 4280437553
0.065940268 -0.020872733 0.42200002 4278200847
0.067470424 -0.020922193 0.42300001 4280504883
0.069007084 -0.020971656 0.42400002 4280769338
0.070882238 -0.02112004 0.42700002 4280375348
0.072438389 -0.021169502 0.42800003 4280046383
0.074173518 -0.021268424 0.43000001 4281556806
0.07574591 -0.021317886 0.43100002 4285963915
0.025929065 -0.018346304 0.39700001 4279844125
0.027218524 -0.018346304 0.39700001 4278862363
0.02850798 -0.018346304 0.39700001 4278862363
0.029797435 -0.018346304 0.39700001 4279192353
0.031086894 -0.018346304 0.39700001 4279323937
0.032376349 -0.018346304 0.39700001 4279127841
0.033665806 -0.018346304 0.39700001 4279062818
0.035043314 -0.018392516 0.39800003 4279787309
0.036336016 -0.018392516 0.39800003 4279260965
0.037723266 -0.018438729 0.39900002 4279064099
0.039117008 -0.018484941 0.40000001 4278735134
0.040517252 -0.018531153 0.40100002 4279063586
0.041923989 -0.018577365 0.40200001 4279523623
0.043337222 -0.018623577 0.40300003 4279654185
0.044756953 -0.01866979 0.40400001 4279916846
0.046183176 -0.018716002 0.40500003 4278202120
0.047615901 -0.018762214 0.40600002 4280638774
0.049175646 -0.018854639 0.40800002 4278922256
0.050624602 -0.018900851 0.40900001 4279644697
0.052207083 -0.018993275 0.41100001 4280566059
0.053802561 -0.019085702 0.41300002 4280302889
0.055277511 -0.019131914 0.41400003 4278789650
0.056758944 -0.019178126 0.41500002 4279712033
0.058246881 -0.019224338 0.41600001 4278265611
0.059741318 -0.01927055 0.41700003 4281161528
0.061242249 -0.019316763 0.41800001 4278727957
0.062749669 -0.019362975 0.41900003 4280043047
0.064263597 -0.019409187 0.42000002 4280966204
0.065784015 -0.019455401 0.42100003 4280571959
0.067470424 -0.019547824 0.42300001 4280966717
0.068844333 -0.019547824 0.42300001 4280177201
0.024701675 -0.017099373 0.39800003 4280368157
0.025994379 -0.017099373 0.39800003 4279713820
0.027218524 -0.017056409 0.39700001 4279190558
0.02850798 -0.017056409 0.39700001 4278928156
0.029797435 -0.017056409 0.39700001 4278862875
0.031086894 -0.017056409 0.39700001 4279652902
0.032376349 -0.017056409 0.39700001 4279391013
0.033665806 -0.017056409 0.39700001 4278997025
0.035043314 -0.017099373 0.39800003 4279326758
0.036427312 -0.017142337 0.39900002 4279195172
0.03781781 -0.017185299 0.40000001 4279195172
0.039214805 -0.017228262 0.40100002 4279260965
0.040618293 -0.017271226 0.40200001 4279457830
0.041923989 -0.017271226 0.40200001 4279523623
0.043337222 -0.01731419 0.40300003 4279786025
0.044756953 -0.017357152 0.40400001 4279586596
0.046183176 -0.017400118 0.40500003 4279388707
0.04773318 -0.017486041 0.40700001 4278993179
0.049175646 -0.017529005 0.40800002 4280568364
0.050624602 -0.017571969 0.40900001 4280634157
0.052207083 -0.017657895 0.41100001 4280039715
0.053672288 -0.01770086 0.41200003 4279052306
0.055143986 -0.017743822 0.41300002 4279116820
0.056758944 -0.017829748 0.41500002 4278657037
0.058246881 -0.017872712 0.41600001 4280503346
0.059741318 -0.017915675 0.41700003 4280175664
0.061242249 -0.017958637 0.41800001 4280505651
0.062749669 -0.018001603 0.41900003 4280375348
0.064263597 -0.018044565 0.42000002 4280506934
0.065784015 -0.018087529 0.42100003 4280571957
0.067310922 -0.018130491 0.42200002 4283266656
0.068844333 -0.018173454 0.42300001 4286489232
0.025994379 -0.015806232 0.39800003 4279451160
0.027287085 -0.015806232 0.39800003 4279124763
0.028579788 -0.015806232 0.39800003 4278928156
0.029872492 -0.015806232 0.39800003 4279192355
0.031165199 -0.015806232 0.39800003 4279652904
0.032457903 -0.015806232 0.39800003 4278865439
0.033750609 -0.015806232 0.39800003 4279260197
0.035043314 -0.015806232 0.39800003 4279523623
0.036427312 -0.015845945 0.39900002 4279392551
0.03781781 -0.015885659 0.40000001 4279260451
0.039214805 -0.015925374 0.40100002 4279326244
0.040618293 -0.015965087 0.40200001 4279457830
0.042028278 -0.016004803 0.40300003 4279786025
0.043444756 -0.016044516 0.40400001 4279654439
0.044867739 -0.016084231 0.40500003 4278336017
0.046297207 -0.016123945 0.40600002 4280111660
0.04773318 -0.016163658 0.40700001 4278200327
0.049175646 -0.016203372 0.40800002 4279184406
0.050624602 -0.016243087 0.40900001 4278789136
0.052207083 -0.016322514 0.41100001 4279117588
0.053672288 -0.016362229 0.41200003 4278657037
0.055143986 -0.016401943 0.41300002 4281093686
0.056758944 -0.016481372 0.41500002 4280767542
0.058246881 -0.016521085 0.41600001 4280506166
0.059741318 -0.0165608 0.41700003 4280177201
0.061242249 -0.016600514 0.41800001 4280769338
0.062749669 -0.016640229 0.41900003 4280176434
0.064110585 -0.016640229 0.41900003 4284253037
0.026059691 -0.014549552 0.39900002 4279386139
0.027355645 -0.014549552 0.39900002 4278928154
0.028651597 -0.014549552 0.39900002 4278862361
0.029947549 -0.014549552 0.39900002 4278995742
0.031165199 -0.014513087 0.39800003 4279390500
0.032457903 -0.014513087 0.39800003 4279194404
0.033835407 -0.014549552 0.39900002 4279523369
0.035131361 -0.014549552 0.39900002 4279392297
0.036518607 -0.014586017 0.40000001 4279392551
0.037912354 -0.014622482 0.40100002 4279786795
0.039312594 -0.014658947 0.40200001 4279457830
0.040719334 -0.014695412 0.40300003 4279655209
0.042132568 -0.014731877 0.40400001 4279655209
0.043552294 -0.014768342 0.40500003 4280113453
0.044867739 -0.014768342 0.40500003 4278201864
0.046297207 -0.014804807 0.40600002 4280702514
0.04773318 -0.014841272 0.40700001 4278331402
0.049175646 -0.014877737 0.40800002 4279117588
0.050624602 -0.014914203 0.40900001 4280039715
0.052080061 -0.014950668 0.41000003 4281358909
0.053542014 -0.014987133 0.41100001 4280570676
0.055010468 -0.015023598 0.41200003 4279783213
0.056758944 -0.015132993 0.41500002 4279783727
0.058246881 -0.015169458 0.41600001 4280309557
0.059741318 -0.015205923 0.41700003 4280834368
0.061095737 -0.015205923 0.41700003 4285372032
0.023526601 -0.013286376 0.40000001 4281023005
0.024825802 -0.013286376 0.40000001 4279779613
0.026125003 -0.013286376 0.40000001 4279452447
0.027424205 -0.013286376 0.40000001 4278928156
0.028723404 -0.013286376 0.40000001 4278928668
0.029947549 -0.013253161 0.39900002 4278995742
0.031243503 -0.013253161 0.39900002 4279325220
0.032539453 -0.013253161 0.39900002 4279194404
0.033835407 -0.013253161 0.39900002 4279392297
0.035219409 -0.013286376 0.40000001 4279524137
0.036609907 -0.013319593 0.40100002 4279392551
0.038006898 -0.013352809 0.40200001 4279655209
0.03941039 -0.013386025 0.40300003 4279852588
0.040820375 -0.01341924 0.40400001 4279786025
0.042132568 -0.01341924 0.40400001 4279786025
0.043552294 -0.013452456 0.40500003 4278599191
0.044978522 -0.013485672 0.40600002 4279320609
0.046411239 -0.013518888 0.40700001 4280374578
0.04773318 -0.013518888 0.40700001 4280637752
0.049175646 -0.013552104 0.40800002 4280571444
0.050624602 -0.01358532 0.40900001 4280374578
0.052080061 -0.013618536 0.41000003 4280046383
0.053542014 -0.013651752 0.41100001 4280441143
0.055010468 -0.013684968 0.41200003 4280702008
0.056758944 -0.013784616 0.41500002 4282937687
0.058246881 -0.013817831 0.41600001 4287015060
0.02358542 -0.012016703 0.40100002 4280301079
0.024887869 -0.012016703 0.40100002 4279648543
0.026190316 -0.012016703 0.40100002 4279255584
0.027492767 -0.012016703 0.40100002 4279125535
0.028723404 -0.011986735 0.40000001 4279059742
0.030022604 -0.011986735 0.40000001 4279061537
0.031321805 -0.011986735 0.40000001 4279260197
0.032621007 -0.011986735 0.40000001 4278865953
0.03392021 -0.011986735 0.40000001 4279392297
0.035307456 -0.012016703 0.40100002 4279523885
0.036609907 -0.012016703 0.40100002 4279392297
0.038006898 -0.01204667 0.40200001 4279260711
0.03941039 -0.012076637 0.40300003 4279589676
0.040820375 -0.012106603 0.40400001 4279720748
0.042236857 -0.01213657 0.40500003 4279523369
0.043659832 -0.012166537 0.40600002 4279323428
0.044978522 -0.012166537 0.40600002 4279454246
0.046411239 -0.012196504 0.40700001 4280047412
0.04773318 -0.012196504 0.40700001 4279719215
0.049175646 -0.012226471 0.40800002 4280310836
0.050624602 -0.012256437 0.40900001 4280047410
0.051953036 -0.012256437 0.40900001 4281688392
0.053411745 -0.012286405 0.41000003 4285766274
0.054876946 -0.012316371 0.41100001 4287015060
0.05621187 -0.012316371 0.41100001 4286883474
0.057546802 -0.012316371 0.41100001 4286882961
0.018696396 -0.010900837 0.40800002 4286553226
0.023644235 -0.010740531 0.40200001 4280238370
0.024949932 -0.010740531 0.40200001 4279255584
0.026190316 -0.010713813 0.40100002 4279190304
0.027492767 -0.010713813 0.40100002 4278927902
0.028795214 -0.010713813 0.40100002 4279125795
0.030097662 -0.010713813 0.40100002 4279390500
0.031400111 -0.010713813 0.40100002 4279325220
0.032702558 -0.010713813 0.40100002 4279194918
0.034005009 -0.010713813 0.40100002 4279589676
0.035307456 -0.010713813 0.40100002 4279523885
0.036701199 -0.010740531 0.40200001 4279261226
0.038101446 -0.010767248 0.40300003 4279590191
0.039508179 -0.010793966 0.40400001 4280116022
0.040820375 -0.010793966 0.40400001 4279983920
0.042236857 -0.010820684 0.40500003 4279654185
0.043659832 -0.010847402 0.40600002 4279586600
0.044978522 -0.010847402 0.40600002 4280638520
0.046411239 -0.01087412 0.40700001 4280638520
0.04773318 -0.01087412 0.40700001 4280505653
0.049175646 -0.010900837 0.40800002 4283662184
0.050500829 -0.010900837 0.40800002 4287081882
0.051953036 -0.010927555 0.40900001 4287014293
0.053411745 -0.010954273 0.41000003 4286882707
0.054743428 -0.010954273 0.41000003 4287080086
0.05621187 -0.010980991 0.41100001 4286948500
0.017371211 -0.0095752031 0.40800002 4286422410
0.018696396 -0.0095752031 0.40800002 4286422410
0.022338537 -0.0094343908 0.40200001 4279907102
0.023644235 -0.0094343908 0.40200001 4279909666
0.024949932 -0.0094343908 0.40200001 4279189791
0.026255628 -0.0094343908 0.40200001 4279190304
0.027561326 -0.0094343908 0.40200001 4279059488
0.028795214 -0.0094109224 0.40100002 4279125795
0.030097662 -0.0094109224 0.40100002 4279456808
0.031400111 -0.0094109224 0.40100002 4279062818
0.032702558 -0.0094109224 0.40100002 4279260711
0.034005009 -0.0094109224 0.40100002 4279326506
0.035395507 -0.0094343908 0.40200001 4279589678
0.036701199 -0.0094343908 0.40200001 4279327019
0.038101446 -0.0094578601 0.40300003 4279523885
0.039508179 -0.0094813285 0.40400001 4279852336
0.040921416 -0.0095047979 0.40500003 4280114738
0.042341143 -0.0095282663 0.40600002 4279851566
0.043659832 -0.0095282663 0.40600002 4280769338
0.044978522 -0.0095282663 0.40600002 4281885769
0.046411239 -0.0095517347 0.40700001 4286621070
0.04773318 -0.0095517347 0.40700001 4286883472
0.049055114 -0.0095517347 0.40700001 4286884244
0.050500829 -0.0095752031 0.40800002 4286620818
0.051826011 -0.0095752031 0.40800002 4286818199
0.053281467 -0.0095986715 0.40900001 4287015576
0.054609902 -0.0095986715 0.40900001 4287014806
0.019727146 -0.0081282528 0.40200001 4286357130
0.024949932 -0.0081282528 0.40200001 4279517221
0.026255628 -0.0081282528 0.40200001 4279124513
0.027561326 -0.0081282528 0.40200001 4279060515
0.028867021 -0.0081282528 0.40200001 4279389734
0.030097662 -0.0081080329 0.40100002 4279522601
0.031400111 -0.0081080329 0.40100002 4278799646
0.032702558 -0.0081080329 0.40100002 4279589676
0.034005009 -0.0081080329 0.40100002 4279721264
0.035395507 -0.0081282528 0.40200001 4279721262
0.036701199 -0.0081282528 0.40200001 4279523883
0.038101446 -0.0081484718 0.40300003 4279720748
0.039508179 -0.0081686918 0.40400001 4280114738
0.040921416 -0.0081889117 0.40500003 4280702780
0.042341143 -0.0082091307 0.40600002 4284779895
0.043659832 -0.0082091307 0.40600002 4287279002
0.044978522 -0.0082091307 0.40600002 4287212955
0.049055114 -0.0082293497 0.40700001 4287081369
0.050500829 -0.0082495697 0.40800002 4287014806
0.051826011 -0.0082495697 0.40800002 4286883220
0.053281467 -0.0082697887 0.40900001 4287146392
0.054609902 -0.0082697887 0.40900001 4286949015
0.022338537 -0.0068221129 0.40200001 4286357130
0.024949932 -0.0068221129 0.40200001 4283857764
0.026255628 -0.0068221129 0.40200001 4279318047
0.027561326 -0.0068221129 0.40200001 4279256617
0.028867021 -0.0068221129 0.40200001 4279652654
0.030172717 -0.0068221129 0.40200001 4279522603
0.031400111 -0.0068051429 0.40100002 4279785773
0.032702558 -0.0068051429 0.40100002 4279786543
0.034005009 -0.0068051429 0.40100002 4279787057
0.035395507 -0.0068221129 0.40200001 4279523371
0.036701199 -0.0068221129 0.40200001 4279522090
0.038101446 -0.0068390835 0.40300003 4281885769
0.039508179 -0.0068560536 0.40400001 4286293132
0.042341143 -0.0068899947 0.40600002 4286687638
0.023644235 -0.005515974 0.40200001 4286356876
0.024949932 -0.005515974 0.40200001 4286225544
0.026255628 -0.005515974 0.40200001 4286553996
0.027561326 -0.005515974 0.40200001 4285830273
0.028867021 -0.005515974 0.40200001 4282212941
0.030172717 -0.005515974 0.40200001 4280175666
0.031400111 -0.0055022528 0.40100002 4279913264
0.032702558 -0.0055022528 0.40100002 4279979568
0.034005009 -0.0055022528 0.40100002 4281887052
0.035395507 -0.005515974 0.40200001 4285503104
0.023644235 -0.0042098351 0.40200001 4286488462
0.024949932 -0.0042098351 0.40200001 4286291083
0.026255628 -0.0042098351 0.40200001 4286093191
0.027561326 -0.0042098351 0.40200001 4286356617
0.028867021 -0.0042098351 0.40200001 4286225031
0.030172717 -0.0042098351 0.40200001 4286357130
0.031400111 -0.0041993628 0.40100002 4285897349
0.032702558 -0.0041993628 0.40100002 4286094474
0.034005009 -0.0041993628 0.40100002 4286686611
0.052048497 -0.020825321 0.4134874 4294967295
0.052048497 -0.020825321 0.4134874 4294901760
0.051890559 -0.021298761 0.41345721 4294901760
0.051732622 -0.021772198 0.41342703 4294901760
0.051574685 -0.022245638 0.41339684 4294901760
0.051416747 -0.022719076 0.41336665 4294901760
0.05125881 -0.023192516 0.41333646 4294901760
0.051100872 -0.023665953 0.41330627 4294901760
0.050942935 -0.024139393 0.41327605 4294901760
0.050784998 -0.024612831 0.41324586 4294901760
0.05062706 -0.025086271 0.41321567 4294901760
0.050469123 -0.025559708 0.41318548 4294901760
0.050311185 -0.026033148 0.41315529 4294901760
0.050153248 -0.026506586 0.4131251 4294901760
0.049995314 -0.026980026 0.41309491 4294901760
0.049837377 -0.027453464 0.41306472 4294901760
0.04967944 -0.027926903 0.41303453 4294901760
0.049521502 -0.028400341 0.41300434 4294901760
0.049363565 -0.028873781 0.41297415 4294901760
0.049205627 -0.029347219 0.41294396 4294901760
0.04904769 -0.029820658 0.41291374 4294901760
0.048889752 -0.030294098 0.41288355 4294901760
0.048731815 -0.030767536 0.41285336 4294901760
0.048573878 -0.031240974 0.41282317 4294901760
0.04841594 -0.031714413 0.41279298 4294901760
0.048258003 -0.032187853 0.41276279 4294901760
0.048100065 -0.032661289 0.4127326 4294901760
0.047942128 -0.033134729 0.41270241 4294901760
0.047784191 -0.033608168 0.41267222 4294901760
0.047626253 -0.034081608 0.41264203 4294901760
0.047468316 -0.034555048 0.41261184 4294901760
0.047310378 -0.035028487 0.41258165 4294901760
0.047152441 -0.035501923 0.41255146 4294901760
0.046994504 -0.035975363 0.41252124 4294901760
0.046836566 -0.036448803 0.41249105 4294901760
0.046678629 -0.036922239 0.41246086 4294901760
0.046520691 -0.037395678 0.41243067 4294901760
0.046362754 -0.037869118 0.41240048 4294901760
0.04620482 -0.038342558 0.41237029 4294901760
0.046046883 -0.038815998 0.4123401 4294901760
0.045888945 -0.039289434 0.41230991 4294901760
0.045731008 -0.039762873 0.41227973 4294901760
0.045573071 -0.040236309 0.41224954 4294901760
0.045415133 -0.040709749 0.41221935 4294901760
0.045257196 -0.041183189 0.41218916 4294901760
0.045099258 -0.041656628 0.41215894 4294901760
0.044941321 -0.042130068 0.41212875 4294901760
0.044783384 -0.042603508 0.41209856 4294901760
0.044625446 -0.043076944 0.41206837 4294901760
0.044467509 -0.043550383 0.41203818 4294901760
0.044309571 -0.044023823 0.41200799 4294901760
0.044151634 -0.044497259 0.4119778 4294901760
0.043993697 -0.044970699 0.41194761 4294901760
0.043835759 -0.045444138 0.41191742 4294901760
0.043677822 -0.045917578 0.41188723 4294901760
0.043519884 -0.046391018 0.41185704 4294901760
0.043361947 -0.046864457 0.41182685 4294901760
0.04320401 -0.047337893 0.41179666 4294901760
0.043046072 -0.047811329 0.41176644 4294901760
0.042888135 -0.048284769 0.41173625 4294901760
0.042730197 -0.048758209 0.41170606 4294901760
0.04257226 -0.049231648 0.41167587 4294901760
0.042414322 -0.049705088 0.41164568 4294901760
0.042256385 -0.050178528 0.41161549 4294901760
0.042098448 -0.050651968 0.4115853 4294901760
0.04194051 -0.051125403 0.41155511 4294901760
0.041782577 -0.051598839 0.41152492 4294901760
0.041624635 -0.052072283 0.41149473 4294901760
0.041466698 -0.052545719 0.41146454 4294901760
0.041308764 -0.053019159 0.41143435 4294901760
0.041150827 -0.053492598 0.41140413 4294901760
0.04099289 -0.053966038 0.41137394 4294901760
0.040834952 -0.054439478 0.41134375 4294901760
0.040677015 -0.054912917 0.41131356 4294901760
0.040519077 -0.055386357 0.41128337 4294901760
0.04036114 -0.055859789 0.41125318 4294901760
0.040203203 -0.056333229 0.41122299 4294901760
0.040045265 -0.056806669 0.4111928 4294901760
0.039887328 -0.057280108 0.41116261 4294901760
0.03972939 -0.057753548 0.41113243 4294901760
0.039571453 -0.058226988 0.41110224 4294901760
0.039413515 -0.058700427 0.41107205 4294901760
0.039255578 -0.059173867 0.41104186 4294901760
0.039097641 -0.059647299 0.41101164 4294901760
0.038939707 -0.060120739 0.41098145 4294901760
0.03878177 -0.060594179 0.41095126 4294901760
0.038623828 -0.061067618 0.41092107 4294901760
0.038465895 -0.061541058 0.41089088 4294901760
0.038307957 -0.062014498 0.41086069 4294901760
0.03815002 -0.062487938 0.4108305 4294901760
0.037992083 -0.06296137 0.41080031 4294901760
0.037834145 -0.063434809 0.41077012 4294901760
0.037676208 -0.063908249 0.41073993 4294901760
0.03751827 -0.064381689 0.41070974 4294901760
0.037360333 -0.064855129 0.41067955 4294901760
0.037202395 -0.065328568 0.41064933 4294901760
0.037044458 -0.065802008 0.41061914 4294901760
0.036886521 -0.066275448 0.41058895 4294901760
0.036728583 -0.066748887 0.41055876 4294901760
0.036570646 -0.067222327 0.41052857 4294901760
0.036412708 -0.067695759 0.41049838 4294901760
0.036254771 -0.068169199 0.41046819 4294901760
0.052048497 -0.020825321 0.4134874 4278255360
0.052437529 -0.020972786 0.41376472 4278255360
0.052826565 -0.021120252 0.41404206 4278255360
0.053215601 -0.021267718 0.41431937 4278255360
0.053604633 -0.021415183 0.41459668 4278255360
0.053993665 -0.021562649 0.41487402 4278255360
0.0543827 -0.021710113 0.41515133 4278255360
0.054771736 -0.021857578 0.41542864 4278255360
0.055160768 -0.022005044 0.41570598 4278255360
0.055549804 -0.02215251 0.41598329 4278255360
0.055938836 -0.022299975 0.4162606 4278255360
0.056327872 -0.022447441 0.41653794 4278255360
0.056716904 -0.022594906 0.41681525 4278255360
0.057105936 -0.022742372 0.41709256 4278255360
0.057494972 -0.022889838 0.4173699 4278255360
0.057884008 -0.023037303 0.41764721 4278255360
0.05827304 -0.023184769 0.41792452 4278255360
0.058662072 -0.023332234 0.41820186 4278255360
0.059051108 -0.023479698 0.41847917 4278255360
0.059440143 -0.023627164 0.41875648 4278255360
0.059829175 -0.023774629 0.41903383 4278255360
0.060218208 -0.023922095 0.41931114 4278255360
0.060607243 -0.024069561 0.41958845 4278255360
0.060996279 -0.024217026 0.41986579 4278255360
0.061385311 -0.024364492 0.4201431 4278255360
0.061774343 -0.024511958 0.42042041 4278255360
0.062163379 -0.024659423 0.42069775 4278255360
0.062552415 -0.024806889 0.42097506 4278255360
0.062941447 -0.024954353 0.42125237 4278255360
0.063330479 -0.025101818 0.42152971 4278255360
0.063719511 -0.025249284 0.42180702 4278255360
0.064108551 -0.025396749 0.42208433 4278255360
0.064497583 -0.025544215 0.42236167 4278255360
0.064886615 -0.025691681 0.42263898 4278255360
0.065275654 -0.025839146 0.42291629 4278255360
0.065664686 -0.025986612 0.42319363 4278255360
0.066053718 -0.026134077 0.42347094 4278255360
0.06644275 -0.026281543 0.42374825 4278255360
0.066831782 -0.026429009 0.4240256 4278255360
0.067220822 -0.026576474 0.42430291 4278255360
0.067609854 -0.02672394 0.42458022 4278255360
0.067998886 -0.026871404 0.42485756 4278255360
0.068387926 -0.027018869 0.42513487 4278255360
0.068776958 -0.027166335 0.42541218 4278255360
0.06916599 -0.027313801 0.42568952 4278255360
0.069555022 -0.027461266 0.42596683 4278255360
0.069944054 -0.027608732 0.42624414 4278255360
0.070333093 -0.027756197 0.42652148 4278255360
0.070722125 -0.027903661 0.42679879 4278255360
0.071111158 -0.028051129 0.4270761 4278255360
0.071500197 -0.028198592 0.42735344 4278255360
0.071889229 -0.028346058 0.42763075 4278255360
0.072278261 -0.028493524 0.42790806 4278255360
0.072667293 -0.028640989 0.42818537 4278255360
0.073056325 -0.028788455 0.42846271 4278255360
0.073445365 -0.02893592 0.42874002 4278255360
0.073834397 -0.029083386 0.42901734 4278255360
0.074223429 -0.029230852 0.42929468 4278255360
0.074612468 -0.029378317 0.42957199 4278255360
0.075001493 -0.029525783 0.4298493 4278255360
0.075390533 -0.029673249 0.43012664 4278255360
0.075779565 -0.029820714 0.43040395 4278255360
0.076168597 -0.02996818 0.43068126 4278255360
0.076557636 -0.030115645 0.4309586 4278255360
0.076946668 -0.030263109 0.43123591 4278255360
0.0773357 -0.030410575 0.43151322 4278255360
0.07772474 -0.030558042 0.43179056 4278255360
0.078113772 -0.030705506 0.43206787 4278255360
0.078502804 -0.030852972 0.43234518 4278255360
0.078891836 -0.031000437 0.43262252 4278255360
0.079280868 -0.031147901 0.43289983 4278255360
0.079669908 -0.031295367 0.43317714 4278255360
0.08005894 -0.031442832 0.43345448 4278255360
0.080447972 -0.031590298 0.43373179 4278255360
0.080837011 -0.031737763 0.4340091 4278255360
0.081226043 -0.031885229 0.43428645 4278255360
0.081615075 -0.032032695 0.43456376 4278255360
0.082004108 -0.03218016 0.43484107 4278255360
0.08239314 -0.032327626 0.43511841 4278255360
0.082782179 -0.032475092 0.43539572 4278255360
0.083171211 -0.032622557 0.43567303 4278255360
0.083560243 -0.032770023 0.43595037 4278255360
0.083949283 -0.032917488 0.43622768 4278255360
0.084338307 -0.033064954 0.43650499 4278255360
0.084727347 -0.033212416 0.43678233 4278255360
0.085116386 -0.033359885 0.43705964 4278255360
0.085505411 -0.033507351 0.43733695 4278255360
0.085894451 -0.033654816 0.43761429 4278255360
0.086283483 -0.033802278 0.4378916 4278255360
0.086672515 -0.033949748 0.43816891 4278255360
0.087061554 -0.03409721 0.43844625 4278255360
0.087450586 -0.034244679 0.43872356 4278255360
0.087839618 -0.034392141 0.43900087 4278255360
0.088228658 -0.034539606 0.43927822 4278255360
0.088617682 -0.034687072 0.43955553 4278255360
0.089006722 -0.034834538 0.43983284 4278255360
0.089395754 -0.034982003 0.44011018 4278255360
0.089784786 -0.035129469 0.44038749 4278255360
0.090173826 -0.035276935 0.4406648 4278255360
0.090562858 -0.0354244 0.44094214 4278255360
0.09095189 -0.035571866 0.44121945 4278255360
0.052048497 -0.020825321 0.4134874 4278190335
0.051738102 -0.020746259 0.41387135 4278190335
0.051427707 -0.020667197 0.41425526 4278190335
0.051117312 -0.020588135 0.4146392 4278190335
0.050806921 -0.020509072 0.41502315 4278190335
0.050496526 -0.02043001 0.41540706 4278190335
0.050186131 -0.020350948 0.415791 4278190335
0.049875736 -0.020271886 0.41617495 4278190335
0.049565341 -0.020192824 0.41655886 4278190335
0.049254946 -0.020113762 0.41694281 4278190335
0.048944551 -0.020034701 0.41732675 4278190335
0.04863416 -0.019955637 0.41771066 4278190335
0.048323765 -0.019876575 0.41809461 4278190335
0.04801337 -0.019797513 0.41847852 4278190335
0.047702976 -0.019718451 0.41886246 4278190335
0.047392581 -0.01963939 0.41924641 4278190335
0.047082186 -0.019560328 0.41963032 4278190335
0.046771795 -0.019481266 0.42001426 4278190335
0.046461396 -0.019402202 0.42039821 4278190335
0.046151005 -0.01932314 0.42078212 4278190335
0.04584061 -0.019244079 0.42116606 4278190335
0.045530215 -0.019165017 0.42155001 4278190335
0.04521982 -0.019085955 0.42193392 4278190335
0.044909425 -0.019006893 0.42231786 4278190335
0.044599034 -0.018927831 0.42270181 4278190335
0.044288639 -0.018848769 0.42308572 4278190335
0.043978244 -0.018769706 0.42346966 4278190335
0.043667849 -0.018690644 0.42385361 4278190335
0.043357454 -0.018611582 0.42423752 4278190335
0.043047059 -0.01853252 0.42462146 4278190335
0.042736664 -0.018453458 0.42500538 4278190335
0.042426273 -0.018374396 0.42538932 4278190335
0.042115878 -0.018295333 0.42577326 4278190335
0.041805483 -0.018216271 0.42615718 4278190335
0.041495088 -0.018137209 0.42654112 4278190335
0.041184694 -0.018058147 0.42692506 4278190335
0.040874299 -0.017979085 0.42730898 4278190335
0.040563904 -0.017900024 0.42769292 4278190335
0.040253513 -0.017820962 0.42807686 4278190335
0.039943118 -0.0177419 0.42846078 4278190335
0.039632723 -0.017662836 0.42884472 4278190335
0.039322328 -0.017583774 0.42922866 4278190335
0.039011933 -0.017504713 0.42961258 4278190335
0.038701538 -0.017425651 0.42999652 4278190335
0.038391143 -0.017346589 0.43038046 4278190335
0.038080752 -0.017267527 0.43076438 4278190335
0.037770353 -0.017188463 0.43114832 4278190335
0.037459962 -0.017109402 0.43153226 4278190335
0.037149567 -0.01703034 0.43191618 4278190335
0.036839172 -0.016951278 0.43230012 4278190335
0.036528777 -0.016872216 0.43268406 4278190335
0.036218382 -0.016793154 0.43306798 4278190335
0.035907991 -0.016714092 0.43345192 4278190335
0.035597596 -0.016635031 0.43383583 4278190335
0.035287201 -0.016555967 0.43421978 4278190335
0.034976806 -0.016476905 0.43460372 4278190335
0.034666412 -0.016397843 0.43498763 4278190335
0.03435602 -0.016318781 0.43537158 4278190335
0.034045622 -0.016239719 0.43575552 4278190335
0.033735231 -0.016160658 0.43613943 4278190335
0.033424832 -0.016081594 0.43652338 4278190335
0.033114441 -0.016002532 0.43690732 4278190335
0.032804046 -0.01592347 0.43729123 4278190335
0.032493651 -0.015844408 0.43767518 4278190335
0.03218326 -0.015765347 0.43805912 4278190335
0.031872861 -0.015686285 0.43844303 4278190335
0.03156247 -0.015607223 0.43882698 4278190335
0.031252071 -0.01552816 0.43921092 4278190335
0.03094168 -0.015449098 0.43959484 4278190335
0.030631285 -0.015370036 0.43997878 4278190335
0.03032089 -0.015290974 0.44036269 4278190335
0.030010497 -0.015211912 0.44074664 4278190335
0.0297001 -0.01513285 0.44113058 4278190335
0.029389707 -0.015053788 0.44151449 4278190335
0.029079312 -0.014974725 0.44189844 4278190335
0.028768919 -0.014895664 0.44228238 4278190335
0.028458524 -0.014816602 0.44266629 4278190335
0.028148131 -0.014737539 0.44305024 4278190335
0.027837737 -0.014658477 0.44343418 4278190335
0.027527342 -0.014579415 0.44381809 4278190335
0.027216947 -0.014500353 0.44420204 4278190335
0.026906552 -0.014421292 0.44458598 4278190335
0.026596159 -0.014342229 0.44496989 4278190335
0.026285764 -0.014263167 0.44535384 4278190335
0.025975371 -0.014184104 0.44573778 4278190335
0.025664974 -0.014105042 0.44612169 4278190335
0.025354581 -0.014025981 0.44650564 4278190335
0.025044186 -0.013946919 0.44688958 4278190335
0.024733793 -0.013867857 0.44727349 4278190335
0.024423398 -0.013788794 0.44765744 4278190335
0.024113003 -0.013709732 0.44804138 4278190335
0.023802608 -0.01363067 0.44842529 4278190335
0.023492213 -0.013551608 0.44880924 4278190335
0.02318182 -0.013472546 0.44919318 4278190335
0.022871425 -0.013393484 0.44957709 4278190335
0.022561032 -0.013314422 0.44996104 4278190335
0.022250637 -0.01323536 0.45034495 4278190335
0.021940242 -0.013156297 0.45072889 4278190335
0.021629848 -0.013077235 0.45111284 4278190335
0.021319455 -0.012998173 0.45149675 4278190335
0.02100906 -0.012919111 0.45188069 4278190335
0.052048497 -0.020825321 0.4134874 4294967295
0.053910863 -0.021299694 0.4111838 4294967295
0.055773228 -0.021774067 0.4088802 4294967295
0.057635594 -0.022248439 0.4065766 4294967295
0.05949796 -0.022722811 0.404273 4294967295
0.061360329 -0.023197183 0.4019694 4294967295
0.063222691 -0.023671556 0.39966583 4294967295
0.065085061 -0.024145929 0.39736223 4294967295
0.066947423 -0.024620302 0.39505863 4294967295
0.068809792 -0.025094675 0.39275503 4294967295
0.070672162 -0.025569048 0.39045143 4294967295
0.072534524 -0.026043421 0.38814783 4294967295
0.074396893 -0.026517794 0.38584423 4294967295
0.076259255 -0.026992165 0.38354063 4294967295
0.078121625 -0.027466537 0.38123703 4294967295
0.079983994 -0.02794091 0.37893343 4294967295
0.081846356 -0.028415283 0.37662983 4294967295
0.083708718 -0.028889656 0.37432623 4294967295
0.085571095 -0.029364029 0.37202263 4294967295
0.087433457 -0.029838402 0.36971906 4294967295
0.089295819 -0.030312773 0.36741546 4294967295
0.091158181 -0.030787148 0.36511186 4294967295
0.093020558 -0.031261519 0.36280826 4294967295
0.09488292 -0.031735893 0.36050466 4294967295
0.096745282 -0.032210264 0.35820106 4294967295
0.098607652 -0.032684639 0.35589746 4294967295
0.10047002 -0.03315901 0.35359386 4294967295
0.10233238 -0.033633381 0.35129026 4294967295
0.10419475 -0.034107756 0.34898666 4294967295
0.10605711 -0.034582127 0.34668308 4294967295
0.10791948 -0.035056502 0.34437948 4294967295
0.10978185 -0.035530873 0.34207588 4294967295
0.11164421 -0.036005244 0.33977228 4294967295
0.11350659 -0.036479618 0.33746868 4294967295
0.11536895 -0.036953993 0.33516508 4294967295
0.11723131 -0.037428364 0.33286148 4294967295
0.11909369 -0.037902735 0.33055788 4294967295
0.12095605 -0.03837711 0.32825428 4294967295
0.12281841 -0.038851481 0.32595068 4294967295
0.12468077 -0.039325856 0.32364708 4294967295
0.12654315 -0.039800227 0.32134348 4294967295
0.12840551 -0.040274598 0.31903988 4294967295
0.13026787 -0.040748972 0.31673631 4294967295
0.13213024 -0.041223347 0.31443268 4294967295
0.13399261 -0.041697718 0.31212911 4294967295
0.13585497 -0.042172089 0.30982551 4294967295
0.13771734 -0.042646464 0.30752191 4294967295
0.13957971 -0.043120835 0.30521831 4294967295
0.14144208 -0.04359521 0.30291471 4294967295
0.14330444 -0.044069581 0.30061111 4294967295
0.14516681 -0.044543952 0.29830751 4294967295
0.14702916 -0.045018326 0.29600394 4294967295
0.14889154 -0.045492698 0.29370034 4294967295
0.1507539 -0.045967072 0.29139674 4294967295
0.15261628 -0.046441443 0.28909314 4294967295
0.15447864 -0.046915818 0.28678954 4294967295
0.156341 -0.047390189 0.28448594 4294967295
0.15820336 -0.047864564 0.28218234 4294967295
0.16006574 -0.048338935 0.27987874 4294967295
0.16192809 -0.048813306 0.27757514 4294967295
0.16379046 -0.049287681 0.27527153 4294967295
0.16565284 -0.049762055 0.27296793 4294967295
0.1675152 -0.050236426 0.27066433 4294967295
0.16937757 -0.050710797 0.26836073 4294967295
0.17123993 -0.051185168 0.26605713 4294967295
0.17310229 -0.051659543 0.26375353 4294967295
0.17496467 -0.052133918 0.26144993 4294967295
0.17682704 -0.052608289 0.25914633 4294967295
0.17868939 -0.05308266 0.25684273 4294967295
0.18055177 -0.053557031 0.25453916 4294967295
0.18241411 -0.054031409 0.25223556 4294967295
0.18427649 -0.05450578 0.24993196 4294967295
0.18613887 -0.054980151 0.24762836 4294967295
0.18800125 -0.055454522 0.24532476 4294967295
0.18986359 -0.055928901 0.24302116 4294967295
0.19172597 -0.056403272 0.24071757 4294967295
0.19358832 -0.056877643 0.23841397 4294967295
0.19545069 -0.057352014 0.23611037 4294967295
0.19731304 -0.057826385 0.23380679 4294967295
0.19917542 -0.058300763 0.23150317 4294967295
0.20103779 -0.058775134 0.22919957 4294967295
0.20290017 -0.059249505 0.22689599 4294967295
0.20476252 -0.059723876 0.22459239 4294967295
0.2066249 -0.060198247 0.22228879 4294967295
0.20848724 -0.060672626 0.2199852 4294967295
0.21034962 -0.061146997 0.21768159 4294967295
0.212212 -0.061621368 0.21537799 4294967295
0.21407434 -0.062095739 0.2130744 4294967295
0.21593672 -0.062570117 0.2107708 4294967295
0.2177991 -0.063044488 0.2084672 4294967295
0.21966144 -0.063518859 0.20616361 4294967295
0.22152382 -0.06399323 0.20386 4294967295
0.2233862 -0.064467609 0.2015564 4294967295
0.22524855 -0.06494198 0.19925281 4294967295
0.22711092 -0.065416351 0.19694921 4294967295
0.22897327 -0.065890722 0.19464561 4294967295
0.23083565 -0.066365093 0.19234203 4294967295
0.23269802 -0.066839471 0.19003841 4294967295
0.2345604 -0.067313842 0.18773481 4294967295
0.23642275 -0.067788213 0.18543123 4294967295
0.23828512 -0.068262585 0.18312763 4294967295
