# .PCD v0.7 - Point Cloud Data file format
VERSION 0.7
FIELDS x y z rgb
SIZE 4 4 4 4
TYPE F F F U
COUNT 1 1 1 1
WIDTH 1052
HEIGHT 1
VIEWPOINT 0 0 0 1 0 0 0
POINTS 1052
DATA ascii
0.054318037 -0.0060245027 0.35500002 4281155120
0.054318037 -0.0048710718 0.35500002 4281088813
0.055471081 -0.0048710718 0.35500002 4281155120
0.056464609 -0.0048573501 0.354 4280957741
0.057614405 -0.0048573501 0.354 4281615157
0.059744742 -0.004843629 0.35300002 4282470980
0.061862092 -0.0048299078 0.35200003 4281549110
0.052011959 -0.0037176404 0.35500002 4282207290
0.053164996 -0.0037176404 0.35500002 4283062599
0.054318037 -0.0037176404 0.35500002 4282274371
0.055471081 -0.0037176404 0.35500002 4282340164
0.056464609 -0.0037071679 0.354 4282143298
0.057614405 -0.0037071679 0.354 4282536773
0.058764197 -0.0037071679 0.354 4282603336
0.059744742 -0.0036966959 0.35300002 4282800715
0.060891286 -0.0036966959 0.35300002 4281484085
0.062037833 -0.0036966959 0.35300002 4284115803
0.063184381 -0.0036966959 0.35300002 4280826153
0.064330921 -0.0036966959 0.35300002 4280891948
0.052158471 -0.0025714322 0.35600001 4282404671
0.053314753 -0.0025714322 0.35600001 4282207292
0.054471046 -0.0025714322 0.35600001 4281616439
0.055471081 -0.0025642093 0.35500002 4281419060
0.056624118 -0.0025642093 0.35500002 4281880124
0.057614405 -0.0025569859 0.354 4282209089
0.058764197 -0.0025569859 0.354 4282274369
0.059913989 -0.0025569859 0.354 4282340162
0.062037833 -0.0025497628 0.35300002 4281286192
0.063184381 -0.0025497628 0.35300002 4280628774
0.064330921 -0.0025497628 0.35300002 4281089325
0.065477468 -0.0025497628 0.35300002 4280631090
0.047533315 -0.001414752 0.35600001 4280762161
0.0486896 -0.001414752 0.35600001 4280959024
0.052158471 -0.001414752 0.35600001 4282273599
0.053314753 -0.001414752 0.35600001 4281549876
0.054471046 -0.001414752 0.35600001 4281286706
0.055627335 -0.001414752 0.35600001 4281353269
0.05678362 -0.001414752 0.35600001 4281682747
0.057777159 -0.001410778 0.35500002 4282011712
0.058930203 -0.001410778 0.35500002 4282471748
0.059913989 -0.001406804 0.354 4281682232
0.061063781 -0.001406804 0.354 4281418290
0.062037833 -0.0014028299 0.35300002 4280628008
0.063184381 -0.0014028299 0.35300002 4280167709
0.064330921 -0.0014028299 0.35300002 4280825126
0.065477468 -0.0014028299 0.35300002 4281024052
0.052304983 -0.00025879653 0.35700002 4281352499
0.053464517 -0.00025879653 0.35700002 4281615671
0.054624055 -0.00025879653 0.35700002 4281549878
0.055627335 -0.00025807158 0.35600001 4281616441
0.05678362 -0.00025807158 0.35600001 4281419575
0.057939909 -0.00025807158 0.35600001 4281748540
0.058930203 -0.00025734669 0.35500002 4281222196
0.06008324 -0.00025734669 0.35500002 4281484855
0.061063781 -0.00025662174 0.354 4280826155
0.062213577 -0.00025662174 0.354 4280694055
0.063363373 -0.00025662174 0.354 4281746741
0.064330921 -0.00025589683 0.35300002 4280562467
0.065477468 -0.00025589683 0.35300002 4280826925
0.066624016 -0.00025589683 0.35300002 4280760878
0.052304983 0.000901133 0.35700002 4280825901
0.053464517 0.000901133 0.35700002 4281746743
0.054624055 0.000901133 0.35700002 4281879359
0.055783596 0.000901133 0.35700002 4282208578
0.056943126 0.000901133 0.35700002 4281682747
0.057939909 0.00089860882 0.35600001 4281814333
0.059096199 0.00089860882 0.35600001 4281353269
0.06008324 0.00089608465 0.35500002 4281353269
0.061236281 0.00089608465 0.35500002 4280694053
0.062213577 0.00089356041 0.354 4280759846
0.063363373 0.00089356041 0.354 4280365602
0.064513162 0.00089356041 0.354 4281286704
0.065477468 0.0008910363 0.35300002 4280694569
0.066624016 0.0008910363 0.35300002 4281220397
0.067770556 0.0008910363 0.35300002 4279775266
0.052304983 0.0020610625 0.35700002 4281549624
0.053464517 0.0020610625 0.35700002 4282339394
0.054624055 0.0020610625 0.35700002 4282470980
0.055783596 0.0020610625 0.35700002 4282273601
0.056943126 0.0020610625 0.35700002 4282207554
0.058102667 0.0020610625 0.35700002 4281944382
0.059096199 0.0020552892 0.35600001 4281419062
0.060252484 0.0020552892 0.35600001 4280431397
0.061236281 0.002049516 0.35500002 4280365090
0.062389322 0.002049516 0.35500002 4280496674
0.063363373 0.0020437425 0.354 4280365088
0.064513162 0.0020437425 0.354 4281549362
0.06566295 0.0020437425 0.354 4280628260
0.066624016 0.0020379694 0.35300002 4280958509
0.067770556 0.0020379694 0.35300002 4279842340
0.068917103 0.0020379694 0.35300002 4281750853
0.056943126 0.0032209919 0.35700002 4282142533
0.058102667 0.0032209919 0.35700002 4281614903
0.059262205 0.0032209919 0.35700002 4281023534
0.060252484 0.0032119695 0.35600001 4280628776
0.061408777 0.0032119695 0.35600001 4280234018
0.062389322 0.0032029471 0.35500002 4280101918
0.063363373 0.0031939247 0.354 4280233504
0.064513162 0.0031939247 0.354 4280299297
0.065477468 0.0031849022 0.35300002 4281023018
0.066624016 0.0031849022 0.35300002 4280695337
0.067770556 0.0031849022 0.35300002 4278658066
0.068917103 0.0031849022 0.35300002 4279777830
0.052158471 0.0043686498 0.35600001 4280958006
0.059262205 0.0043809214 0.35700002 4280299295
0.060421735 0.0043809214 0.35700002 4280628260
0.061408777 0.0043686498 0.35600001 4280299297
0.062389322 0.0043563787 0.35500002 4280035871
0.063363373 0.0043441067 0.354 4280233250
0.064513162 0.0043441067 0.354 4280496422
0.065477468 0.0043318355 0.35300002 4281680946
0.066624016 0.0043318355 0.35300002 4280759844
0.067770556 0.0043318355 0.35300002 4279118617
0.068721868 0.004319564 0.35200003 4279252256
0.069865167 0.004319564 0.35200003 4279975725
0.052158471 0.0055253301 0.35600001 4281287224
0.060421735 0.005540851 0.35700002 4280101405
0.061408777 0.0055253301 0.35600001 4280299043
0.062389322 0.0055098101 0.35500002 4280299043
0.063363373 0.0054942891 0.354 4280496422
0.064330921 0.0054787686 0.35300002 4280496422
0.065477468 0.0054787686 0.35300002 4279904537
0.066435277 0.0054632481 0.35200003 4281483567
0.067578569 0.0054632481 0.35200003 4279513371
0.068721868 0.0054632481 0.35200003 4279055386
0.069865167 0.0054632481 0.35200003 4279319072
0.060421735 0.0067007807 0.35700002 4280694569
0.061236281 0.0066632414 0.35500002 4280693288
0.062389322 0.0066632414 0.35500002 4280627495
0.063363373 0.0066444711 0.354 4280365350
0.064330921 0.0066257017 0.35300002 4280365350
0.065291978 0.0066069323 0.35200003 4280496936
0.066435277 0.0066069323 0.35200003 4281484853
0.067386582 0.0065881624 0.35100001 4278922256
0.068526633 0.0065881624 0.35100001 4278858259
0.069666684 0.0065881624 0.35100001 4279056154
0.070605002 0.006569393 0.35000002 4279779623
0.061236281 0.0078166723 0.35500002 4280627749
0.062213577 0.0077946531 0.354 4280562215
0.063184381 0.0077726347 0.35300002 4280496422
0.064148679 0.0077506159 0.35200003 4280299043
0.065291978 0.0077506159 0.35200003 4280102948
0.066246539 0.0077285971 0.35100001 4280169508
0.067386582 0.0077285971 0.35100001 4278988562
0.068331406 0.0077065784 0.35000002 4278661394
0.069468208 0.0077065784 0.35000002 4278530578
0.070605002 0.0077065784 0.35000002 4279056154
0.061063781 0.0089448346 0.354 4279904799
0.062037833 0.0089195678 0.35300002 4280496422
0.063184381 0.0089195678 0.35300002 4280364836
0.064148679 0.0088943001 0.35200003 4280364836
0.065106489 0.0088690314 0.35100001 4280233764
0.066057809 0.0088437637 0.35000002 4280037409
0.067194603 0.0088437637 0.35000002 4279053590
0.068136171 0.008818496 0.34900001 4278726675
0.069269724 0.008818496 0.34900001 4278530578
0.07040327 0.008818496 0.34900001 4278859543
0.13886924 0.0091469781 0.36200002 4286024050
0.13965815 0.0091217114 0.36100003 4286024050
0.14160985 0.0090964427 0.36000001 4285300329
0.14238253 0.009071175 0.35900003 4284905571
0.14354855 0.009071175 0.35900003 4284773471
0.14471458 0.009071175 0.35900003 4285826159
0.061063781 0.010095018 0.354 4283325775
0.062037833 0.010066501 0.35300002 4280298530
0.063005388 0.010037985 0.35200003 4280299043
0.063966438 0.010009467 0.35100001 4280299043
0.064920999 0.0099809505 0.35000002 4280036385
0.066057809 0.0099809505 0.35000002 4279840028
0.067002617 0.0099524325 0.34900001 4279316762
0.068136171 0.0099524325 0.34900001 4278660882
0.069269724 0.0099524325 0.34900001 4278399505
0.07040327 0.0099524325 0.34900001 4278465298
0.071331851 0.0099239163 0.34800002 4279252765
0.1347276 0.01055129 0.37 4279775516
0.13886924 0.010323154 0.36200002 4280302879
0.14004502 0.010323154 0.36200002 4280236571
0.14083068 0.010294638 0.36100003 4280368157
0.14160985 0.01026612 0.36000001 4280368159
0.14277913 0.01026612 0.36000001 4280170780
0.14394841 0.01026612 0.36000001 4280499745
0.14511769 0.01026612 0.36000001 4279841815
0.061063781 0.0112452 0.354 4285234284
0.062037833 0.011213434 0.35300002 4280167198
0.063005388 0.011181668 0.35200003 4280430116
0.063966438 0.011149902 0.35100001 4280298530
0.064920999 0.011118136 0.35000002 4279970846
0.065869063 0.01108637 0.34900001 4279445783
0.067002617 0.01108637 0.34900001 4279384092
0.068136171 0.01108637 0.34900001 4278595601
0.069269724 0.01108637 0.34900001 4278662677
0.070201546 0.011054604 0.34800002 4278465298
0.071331851 0.011054604 0.34800002 4278793752
0.072462156 0.011054604 0.34800002 4279975979
0.073592462 0.011054604 0.34800002 4280302386
0.094970301 0.011594627 0.36500001 4285037675
0.096155822 0.011594627 0.36500001 4285169774
0.097341344 0.011594627 0.36500001 4284511844
0.098526873 0.011594627 0.36500001 4283985500
0.099712379 0.011594627 0.36500001 4283459154
0.1008979 0.011594627 0.36500001 4282801478
0.10180375 0.011562862 0.36400002 4281617204
0.10298602 0.011562862 0.36400002 4281222446
0.1041683 0.011562862 0.36400002 4280367137
0.10535057 0.011562862 0.36400002 4280235551
0.1068255 0.011594627 0.36500001 4279840793
0.10801102 0.011594627 0.36500001 4280038942
0.10919655 0.011594627 0.36500001 4280302625
0.11068449 0.011626394 0.36600003 4279842074
0.11187326 0.011626394 0.36600003 4280039455
0.11306203 0.011626394 0.36600003 4279841822
0.1142508 0.011626394 0.36600003 4279710750
0.11575497 0.01165816 0.36700001 4279908383
0.11694699 0.01165816 0.36700001 4279711002
0.11813901 0.01165816 0.36700001 4279711002
0.11933102 0.01165816 0.36700001 4279974174
0.12992056 0.011753458 0.37 4279119383
0.13112232 0.011753458 0.37 4279382555
0.13232408 0.011753458 0.37 4279316762
0.13352583 0.011753458 0.37 4279448348
0.1347276 0.011753458 0.37 4279317016
0.13556199 0.011721692 0.36900002 4279382809
0.13638988 0.011689926 0.36800003 4279448602
0.13721128 0.01165816 0.36700001 4279251223
0.13802618 0.011626394 0.36600003 4279317016
0.13883457 0.011594627 0.36500001 4279448854
0.13925284 0.011531095 0.36300001 4279317268
0.14004502 0.011499329 0.36200002 4279383059
0.14122079 0.011499329 0.36200002 4279119887
0.14200321 0.011467564 0.36100003 4279317268
0.14277913 0.011435797 0.36000001 4279251475
0.14394841 0.011435797 0.36000001 4279251988
0.14511769 0.011435797 0.36000001 4279251988
0.14628696 0.011435797 0.36000001 4279318551
0.14745624 0.011435797 0.36000001 4279252504
0.061862092 0.012325352 0.35200003 4281418288
0.063005388 0.012325352 0.35200003 4280430370
0.063784197 0.012255322 0.35000002 4280167457
0.064920999 0.012255322 0.35000002 4279511576
0.065869063 0.012220306 0.34900001 4279381785
0.067002617 0.012220306 0.34900001 4279318812
0.068136171 0.012220306 0.34900001 4278727189
0.069269724 0.012220306 0.34900001 4278530578
0.07040327 0.012220306 0.34900001 4278728470
0.071536824 0.012220306 0.34900001 4278728470
0.072670378 0.012220306 0.34900001 4278662679
0.073803931 0.012220306 0.34900001 4279581734
0.094970301 0.012780549 0.36500001 4279710490
0.096155822 0.012780549 0.36500001 4280105248
0.097341344 0.012780549 0.36500001 4280039455
0.098526873 0.012780549 0.36500001 4279842590
0.099439196 0.012745535 0.36400002 4279711004
0.10062148 0.012745535 0.36400002 4279513625
0.10180375 0.012745535 0.36400002 4279711002
0.10298602 0.012745535 0.36400002 4279514647
0.1041683 0.012745535 0.36400002 4279580440
0.10535057 0.012745535 0.36400002 4279317268
0.10653283 0.012745535 0.36400002 4279383320
0.10771511 0.012745535 0.36400002 4278922769
0.10919655 0.012780549 0.36500001 4279120918
0.11038207 0.012780549 0.36500001 4279186711
0.11156759 0.012780549 0.36500001 4279252504
0.11306203 0.012815565 0.36600003 4278857748
0.1142508 0.012815565 0.36600003 4279055127
0.11543956 0.012815565 0.36600003 4278923539
0.11694699 0.01285058 0.36700001 4278660367
0.11813901 0.01285058 0.36700001 4278791953
0.11933102 0.01285058 0.36700001 4278660367
0.12052304 0.01285058 0.36700001 4278791953
0.12956943 0.012920611 0.36900002 4278726162
0.13076794 0.012920611 0.36900002 4278791953
0.13196646 0.012920611 0.36900002 4278857746
0.13316496 0.012920611 0.36900002 4278791953
0.13436347 0.012920611 0.36900002 4278857746
0.13519461 0.012885596 0.36800003 4278791953
0.13638988 0.012885596 0.36800003 4278792466
0.13721128 0.01285058 0.36700001 4278858259
0.13802618 0.012815565 0.36600003 4278989845
0.13883457 0.012780549 0.36500001 4279121172
0.13925284 0.012710519 0.36300001 4279121170
0.14043188 0.012710519 0.36300001 4278923791
0.14122079 0.012675504 0.36200002 4278923791
0.14200321 0.012640489 0.36100003 4279121170
0.14317575 0.012640489 0.36100003 4278923791
0.14434826 0.012640489 0.36100003 4278923791
0.14511769 0.012605473 0.36000001 4279252756
0.14628696 0.012605473 0.36000001 4278990097
0.14745624 0.012605473 0.36000001 4279253271
0.061862092 0.013469037 0.35200003 4281615155
0.063005388 0.013469037 0.35200003 4281023018
0.063784197 0.013392507 0.35000002 4279576856
0.064920999 0.013392507 0.35000002 4279118615
0.066057809 0.013392507 0.35000002 4279185689
0.067194603 0.013392507 0.35000002 4279055640
0.068136171 0.013354243 0.34900001 4279056154
0.069269724 0.013354243 0.34900001 4278531091
0.07040327 0.013354243 0.34900001 4278794263
0.071536824 0.013354243 0.34900001 4278992412
0.072670378 0.013354243 0.34900001 4278531861
0.074015409 0.013392507 0.35000002 4278728472
0.075152203 0.013392507 0.35000002 4278859291
0.076506972 0.013430771 0.35100001 4279319074
0.077647023 0.013430771 0.35100001 4279252767
0.091838174 0.013851679 0.36200002 4279055640
0.09327089 0.013889942 0.36300001 4279187226
0.094710112 0.013928208 0.36400002 4279055640
0.095892385 0.013928208 0.36400002 4279121433
0.097074665 0.013928208 0.36400002 4279120920
0.098256938 0.013928208 0.36400002 4279055127
0.099439196 0.013928208 0.36400002 4279055125
0.10062148 0.013928208 0.36400002 4279055125
0.10180375 0.013928208 0.36400002 4279055127
0.10270309 0.013889942 0.36300001 4278792466
0.10388211 0.013889942 0.36300001 4278989845
0.10506114 0.013889942 0.36300001 4278858259
0.10653283 0.013928208 0.36400002 4278989845
0.10771511 0.013928208 0.36400002 4278661394
0.10889738 0.013928208 0.36400002 4278727187
0.11007966 0.013928208 0.36400002 4278727187
0.11156759 0.013966472 0.36500001 4278858773
0.11275312 0.013966472 0.36500001 4278727187
0.11393864 0.013966472 0.36500001 4278924566
0.11543956 0.014004736 0.36600003 4278858773
0.11662833 0.014004736 0.36600003 4278924566
0.11813901 0.014043001 0.36700001 4278858773
0.11933102 0.014043001 0.36700001 4278924566
0.12052304 0.014043001 0.36700001 4278858773
0.12956943 0.014119529 0.36900002 4278990359
0.13076794 0.014119529 0.36900002 4279582236
0.13196646 0.014119529 0.36900002 4279253271
0.13316496 0.014119529 0.36900002 4279450650
0.13399935 0.014081265 0.36800003 4279121685
0.13519461 0.014081265 0.36800003 4279318810
0.13601926 0.014043001 0.36700001 4279253017
0.13683741 0.014004736 0.36600003 4279319324
0.13802618 0.014004736 0.36600003 4279121945
0.13883457 0.013966472 0.36500001 4279319578
0.13963647 0.013928208 0.36400002 4279451164
0.14043188 0.013889942 0.36300001 4279450650
0.14122079 0.013851679 0.36200002 4279582236
0.14239657 0.013851679 0.36200002 4279253271
0.14317575 0.013813416 0.36100003 4279450650
0.14434826 0.013813416 0.36100003 4279253271
0.14552079 0.013813416 0.36100003 4279252758
0.14669332 0.013813416 0.36100003 4279252758
0.14745624 0.01377515 0.36000001 4279449367
0.063184381 0.014654233 0.35300002 4279313682
0.063784197 0.014529693 0.35000002 4279774748
0.064920999 0.014529693 0.35000002 4279118613
0.066246539 0.014571206 0.35100001 4279185689
0.067194603 0.014529693 0.35000002 4279055127
0.068331406 0.014529693 0.35000002 4279253017
0.069468208 0.014529693 0.35000002 4278728211
0.070605002 0.014529693 0.35000002 4278662931
0.071741804 0.014529693 0.35000002 4278599191
0.072878607 0.014529693 0.35000002 4279125535
0.074015409 0.014529693 0.35000002 4278729240
0.075366922 0.014571206 0.35100001 4278400275
0.076506972 0.014571206 0.35100001 4278465300
0.077868246 0.01461272 0.35200003 4278465300
0.079236001 0.014654233 0.35300002 4278530580
0.080382548 0.014654233 0.35300002 4278793752
0.084297091 0.01473726 0.35500002 4278530580
0.085450135 0.01473726 0.35500002 4278727705
0.091584474 0.014986341 0.36100003 4278727959
0.09301395 0.015027854 0.36200002 4278859545
0.094449915 0.015069366 0.36300001 4278727959
0.09562894 0.015069366 0.36300001 4278925338
0.096807972 0.015069366 0.36300001 4278793752
0.097986996 0.015069366 0.36300001 4278793750
0.099166013 0.015069366 0.36300001 4278991383
0.10034504 0.015069366 0.36300001 4278794004
0.10152406 0.015069366 0.36300001 4279188762
0.10270309 0.015069366 0.36300001 4278926103
0.10388211 0.015069366 0.36300001 4278728724
0.10506114 0.015069366 0.36300001 4278860310
0.10624015 0.015069366 0.36300001 4278860310
0.10741919 0.015069366 0.36300001 4278926103
0.10859821 0.015069366 0.36300001 4278728724
0.11007966 0.015110881 0.36400002 4279189275
0.11126193 0.015110881 0.36400002 4279320348
0.11244421 0.015110881 0.36400002 4279386139
0.11393864 0.015152394 0.36500001 4279386139
0.11512415 0.015152394 0.36500001 4279649313
0.11662833 0.015193908 0.36600003 4279517727
0.1178171 0.015193908 0.36600003 4279517473
0.11933102 0.01523542 0.36700001 4279320094
0.12052304 0.01523542 0.36700001 4279320094
0.12956943 0.015318448 0.36900002 4279385371
0.13076794 0.015318448 0.36900002 4279516957
0.13196646 0.015318448 0.36900002 4279385371
0.13280408 0.015276935 0.36800003 4279516957
0.13399935 0.015276935 0.36800003 4279648029
0.13482724 0.01523542 0.36700001 4280042787
0.13564864 0.015193908 0.36600003 4279648029
0.13683741 0.015193908 0.36600003 4279713309
0.13764904 0.015152394 0.36500001 4279976481
0.1384542 0.015110881 0.36400002 4279713309
0.13963647 0.015110881 0.36400002 4280437032
0.14043188 0.015069366 0.36300001 4279844895
0.14122079 0.015027854 0.36200002 4280502825
0.14239657 0.015027854 0.36200002 4280042787
0.14357235 0.015027854 0.36200002 4280437545
0.14434826 0.014986341 0.36100003 4280174373
0.14552079 0.014986341 0.36100003 4281029682
0.14669332 0.014986341 0.36100003 4280831020
0.14786586 0.014986341 0.36100003 4281881657
0.063363373 0.015845928 0.354 4280038942
0.065059885 0.015980216 0.35700002 4279513111
0.064920999 0.015666878 0.35000002 4279119637
0.066435277 0.015756404 0.35200003 4279185943
0.067578569 0.015756404 0.35200003 4279055127
0.068526633 0.015711641 0.35100001 4279713568
0.069666684 0.015711641 0.35100001 4279911713
0.070806727 0.015711641 0.35100001 4279123480
0.071946777 0.015711641 0.35100001 4278927384
0.073086828 0.015711641 0.35100001 4278862363
0.074226879 0.015711641 0.35100001 4283599205
0.075581647 0.015756404 0.35200003 4279123998
0.076724946 0.015756404 0.35200003 4278795033
0.077868246 0.015756404 0.35200003 4278795033
0.079236001 0.015801165 0.35300002 4278597654
0.080610253 0.015845928 0.354 4278729240
0.081991017 0.015890691 0.35500002 4278663701
0.083144054 0.015890691 0.35500002 4278597908
0.084297091 0.015890691 0.35500002 4278992412
0.085690841 0.015935453 0.35600001 4278729240
0.086847119 0.015935453 0.35600001 4279123998
0.088250615 0.015980216 0.35700002 4278992412
0.089660592 0.016024979 0.35800001 4279123998
0.091330774 0.016114503 0.36000001 4279058205
0.092757009 0.016159266 0.36100003 4278992412
0.094189726 0.016204027 0.36200002 4279255584
0.095365502 0.016204027 0.36200002 4279123998
0.096541286 0.016204027 0.36200002 4279518756
0.097986996 0.016248791 0.36300001 4279255584
0.099166013 0.016248791 0.36300001 4279123998
0.10006861 0.016204027 0.36200002 4279058459
0.10124438 0.016204027 0.36200002 4278663701
0.10242017 0.016204027 0.36200002 4279058205
0.10359594 0.016204027 0.36200002 4278860826
0.10477172 0.016204027 0.36200002 4278795287
0.10594749 0.016204027 0.36200002 4279058459
0.10712326 0.016204027 0.36200002 4278861080
0.10829905 0.016204027 0.36200002 4279190045
0.10977723 0.016248791 0.36300001 4279255068
0.11095626 0.016248791 0.36300001 4279188762
0.11213529 0.016248791 0.36300001 4279780899
0.11362648 0.016293554 0.36400002 4279320348
0.11480875 0.016293554 0.36400002 4279649059
0.11662833 0.016383078 0.36600003 4280109610
0.1178171 0.016383078 0.36600003 4280372782
0.11900587 0.016383078 0.36600003 4279977254
0.12052304 0.016427841 0.36700001 4280306219
0.12956943 0.016517365 0.36900002 4280240426
0.13076794 0.016517365 0.36900002 4280437805
0.13160881 0.016472604 0.36800003 4280437291
0.13280408 0.016472604 0.36800003 4280699180
0.13363522 0.016427841 0.36700001 4280436778
0.13482724 0.016427841 0.36700001 4280502571
0.13564864 0.016383078 0.36600003 4280699180
0.13646352 0.016338315 0.36500001 4280764973
0.13764904 0.016338315 0.36500001 4280699180
0.1384542 0.016293554 0.36400002 4280567594
0.13925284 0.016248791 0.36300001 4280632874
0.14043188 0.016248791 0.36300001 4280764973
0.14161091 0.016248791 0.36300001 4281159731
0.14239657 0.016204027 0.36200002 4281422390
0.14357235 0.016204027 0.36200002 4281225524
0.14434826 0.016159266 0.36100003 4281554489
0.14552079 0.016159266 0.36100003 4281553976
0.14669332 0.016159266 0.36100003 4283129928
0.065059885 0.017140146 0.35700002 4279775770
0.06603393 0.017092135 0.35600001 4279317529
0.066812746 0.016996112 0.354 4279251736
0.067770556 0.0169481 0.35300002 4280108326
0.068917103 0.0169481 0.35300002 4279976740
0.069865167 0.016900089 0.35200003 4279846690
0.071008459 0.016900089 0.35200003 4279650594
0.072151758 0.016900089 0.35200003 4279584801
0.073295057 0.016900089 0.35200003 4279058457
0.074438356 0.016900089 0.35200003 4278729753
0.075581647 0.016900089 0.35200003 4278927386
0.076942913 0.0169481 0.35300002 4278795800
0.078089461 0.0169481 0.35300002 4278664214
0.079460464 0.016996112 0.354 4278664984
0.080610253 0.016996112 0.354 4278928156
0.081991017 0.017044123 0.35500002 4279059740
0.083144054 0.017044123 0.35500002 4278796568
0.084534548 0.017092135 0.35600001 4278796568
0.085690841 0.017092135 0.35600001 4278796570
0.086847119 0.017092135 0.35600001 4279124765
0.088250615 0.017140146 0.35700002 4278730007
0.089660592 0.017188158 0.35800001 4279255838
0.091077082 0.017236169 0.35900003 4279255838
0.092500061 0.017284181 0.36000001 4279058459
0.093929537 0.017332194 0.36100003 4279453217
0.095102072 0.017332194 0.36100003 4280111147
0.096541286 0.017380204 0.36200002 4279650596
0.097717062 0.017380204 0.36200002 4279715619
0.09889283 0.017380204 0.36200002 4279781412
0.10006861 0.017380204 0.36200002 4279781412
0.10124438 0.017380204 0.36200002 4280176170
0.10213724 0.017332194 0.36100003 4279847205
0.10330977 0.017332194 0.36100003 4280110377
0.1044823 0.017332194 0.36100003 4279912998
0.10565482 0.017332194 0.36100003 4279912744
0.10682735 0.017332194 0.36100003 4280175916
0.10799988 0.017332194 0.36100003 4280636467
0.10947482 0.017380204 0.36200002 4280306989
0.1106506 0.017380204 0.36200002 4280306219
0.11182638 0.017380204 0.36200002 4280108580
0.11331432 0.017428216 0.36300001 4280569131
0.11449333 0.017428216 0.36300001 4280503084
0.11662833 0.017572252 0.36600003 4280700463
0.1178171 0.017572252 0.36600003 4280634157
0.11900587 0.017572252 0.36600003 4280699950
0.12052304 0.017620262 0.36700001 4280502571
0.13160881 0.017668275 0.36800003 4280698415
0.13280408 0.017668275 0.36800003 4280895794
0.13363522 0.017620262 0.36700001 4280632622
0.13445987 0.017572252 0.36600003 4280896046
0.135278 0.017524239 0.36500001 4281224241
0.13646352 0.017524239 0.36500001 4281290034
0.13727194 0.017476227 0.36400002 4281026862
0.1384542 0.017476227 0.36400002 4280500004
0.13925284 0.017428216 0.36300001 4281092655
0.14043188 0.017428216 0.36300001 4281225011
0.14161091 0.017428216 0.36300001 4281291058
0.14239657 0.017380204 0.36200002 4281487667
0.14357235 0.017380204 0.36200002 4281685046
0.14474812 0.017380204 0.36200002 4281815866
0.14552079 0.017332194 0.36100003 4284512096
0.065242119 0.018351335 0.35800001 4279775770
0.066219419 0.018300075 0.35700002 4279317529
0.067001484 0.018197555 0.35500002 4279647264
0.068154521 0.018197555 0.35500002 4279845668
0.069112331 0.018146293 0.354 4280043047
0.070262127 0.018146293 0.354 4279978278
0.071411915 0.018146293 0.354 4279781412
0.072356731 0.018095033 0.35300002 4280044584
0.073503278 0.018095033 0.35300002 4280241963
0.074649826 0.018095033 0.35300002 4279914281
0.075796366 0.018095033 0.35300002 4279848488
0.076942913 0.018095033 0.35300002 4279651109
0.078310676 0.018146293 0.354 4279585316
0.079460464 0.018146293 0.354 4279716389
0.080837972 0.018197555 0.35500002 4279650596
0.081991017 0.018197555 0.35500002 4279979561
0.083378255 0.018248815 0.35600001 4279716389
0.084534548 0.018248815 0.35600001 4279650596
0.085690841 0.018248815 0.35600001 4279782182
0.087091081 0.018300075 0.35700002 4279912998
0.088250615 0.018300075 0.35700002 4279781412
0.089660592 0.018351335 0.35800001 4280241450
0.091077082 0.018402597 0.35900003 4280306473
0.09224312 0.018402597 0.35900003 4280175657
0.09366934 0.018453857 0.36000001 4280044330
0.095102072 0.018505119 0.36100003 4280307502
0.096274599 0.018505119 0.36100003 4280702001
0.097447127 0.018505119 0.36100003 4280503852
0.098619647 0.018505119 0.36100003 4280306473
0.099792175 0.018505119 0.36100003 4280372266
0.10096471 0.018505119 0.36100003 4281095475
0.10213724 0.018505119 0.36100003 4280239399
0.10330977 0.018505119 0.36100003 4280436778
0.1044823 0.018505119 0.36100003 4280173606
0.10565482 0.018505119 0.36100003 4279843873
0.10682735 0.018505119 0.36100003 4279318560
0.10799988 0.018505119 0.36100003 4280503346
0.10917241 0.018505119 0.36100003 4279779363
0.11034494 0.018505119 0.36100003 4280304422
0.11151747 0.018505119 0.36100003 4280369702
0.11300216 0.018556379 0.36200002 4280961839
0.11449333 0.018607639 0.36300001 4280896046
0.11662833 0.018761422 0.36600003 4280961839
0.1178171 0.018761422 0.36600003 4280830253
0.11900587 0.018761422 0.36600003 4281356597
0.12052304 0.018812682 0.36700001 4281093679
0.1332711 0.018761422 0.36600003 4280960557
0.13445987 0.018761422 0.36600003 4281026348
0.13490738 0.018658901 0.36400002 4281486386
0.13608965 0.018658901 0.36400002 4281486640
0.13727194 0.018658901 0.36400002 4280499745
0.13807382 0.018607639 0.36300001 4281551409
0.13925284 0.018607639 0.36300001 4281814835
0.14043188 0.018607639 0.36300001 4281552944
0.14161091 0.018607639 0.36300001 4281618737
0.14278993 0.018607639 0.36300001 4282078005
0.14357235 0.018556379 0.36200002 4283656272
0.14514796 0.018607639 0.36300001 4286615675
0.14632699 0.018607639 0.36300001 4286351990
0.064079344 0.019514514 0.35800001 4284051545
0.065242119 0.019514514 0.35800001 4280762665
0.066404909 0.019514514 0.35800001 4279646494
0.067378961 0.019460006 0.35700002 4280174121
0.068346508 0.019405494 0.35600001 4279846438
0.069502793 0.019405494 0.35600001 4279978278
0.07046061 0.019350985 0.35500002 4279846692
0.071613647 0.019350985 0.35500002 4280175657
0.072561711 0.019296475 0.354 4280044584
0.0737115 0.019296475 0.354 4280307756
0.074861296 0.019296475 0.354 4279979307
0.076011084 0.019296475 0.354 4280045100
0.07716088 0.019296475 0.354 4279650596
0.078310676 0.019296475 0.354 4279913768
0.079684928 0.019350985 0.35500002 4279913768
0.080837972 0.019350985 0.35500002 4279782182
0.08222197 0.019405494 0.35600001 4279716135
0.083378255 0.019405494 0.35600001 4279781928
0.084534548 0.019405494 0.35600001 4279781928
0.085690841 0.019405494 0.35600001 4279912746
0.087091081 0.019460006 0.35700002 4279778080
0.088250615 0.019460006 0.35700002 4280699180
0.089660592 0.019514514 0.35800001 4280503338
0.090823382 0.019514514 0.35800001 4280568618
0.09224312 0.019569024 0.35900003 4279118613
0.09366934 0.019623535 0.36000001 4279184408
0.094838627 0.019623535 0.36000001 4279051025
0.096274599 0.019678045 0.36100003 4279314195
0.097447127 0.019678045 0.36100003 4279577369
0.098619647 0.019678045 0.36100003 4279249174
0.099792175 0.019678045 0.36100003 4279907102
0.10096471 0.019678045 0.36100003 4280037918
0.10213724 0.019678045 0.36100003 4280169504
0.10302359 0.019623535 0.36000001 4280498723
0.10419287 0.019623535 0.36000001 4280959274
0.10536214 0.019623535 0.36000001 4280037918
0.10653143 0.019623535 0.36000001 4281093940
0.10770071 0.019623535 0.36000001 4280765745
0.10886999 0.019623535 0.36000001 4279842336
0.11003927 0.019623535 0.36000001 4280038688
0.11151747 0.019678045 0.36100003 4280170787
0.11269 0.019678045 0.36100003 4280368682
0.11449333 0.019787064 0.36300001 4280632874
0.11662833 0.019950593 0.36600003 4280961839
0.1178171 0.019950593 0.36600003 4280895278
0.11900587 0.019950593 0.36600003 4281092657
0.12052304 0.020005103 0.36700001 4281026348
0.13490738 0.019841574 0.36400002 4282406972
0.13608965 0.019841574 0.36400002 4282275386
0.13689481 0.019787064 0.36300001 4282472252
0.13807382 0.019787064 0.36300001 4283590479
0.13925284 0.019787064 0.36300001 4285102948
0.14043188 0.019787064 0.36300001 4285761132
0.14161091 0.019787064 0.36300001 4286484855
0.14278993 0.019787064 0.36300001 4286418808
0.14396895 0.019787064 0.36300001 4286352501
0.14514796 0.019787064 0.36300001 4286418296
0.14632699 0.019787064 0.36300001 4286286710
0.064079344 0.020677693 0.35800001 4283985752
0.066590399 0.020735452 0.35900003 4280567342
0.067567699 0.020677693 0.35800001 4280108842
0.068538494 0.020619934 0.35700002 4279912485
0.069698036 0.020619934 0.35700002 4279978278
0.07085757 0.020619934 0.35700002 4280109864
0.071815372 0.020562174 0.35600001 4280372782
0.072766684 0.020504417 0.35500002 4280241963
0.073919728 0.020504417 0.35500002 4280307756
0.074861296 0.020446656 0.354 4280241963
0.076011084 0.020446656 0.354 4280176170
0.077378854 0.020504417 0.35500002 4280044330
0.078531891 0.020504417 0.35500002 4280044330
0.079684928 0.020504417 0.35500002 4279847205
0.081065685 0.020562174 0.35600001 4279847205
0.08222197 0.020562174 0.35600001 4279715365
0.083378255 0.020562174 0.35600001 4279912744
0.084534548 0.020562174 0.35600001 4279846951
0.085931547 0.020619934 0.35700002 4279186972
0.087091081 0.020619934 0.35700002 4280567596
0.088250615 0.020619934 0.35700002 4280634159
0.089660592 0.020677693 0.35800001 4280501290
0.090823382 0.020677693 0.35800001 4279381271
0.09224312 0.020735452 0.35900003 4281025583
0.093409151 0.020735452 0.35900003 4281091378
0.094838627 0.020793211 0.36000001 4280169506
0.096007906 0.020793211 0.36000001 4281156401
0.097177185 0.020793211 0.36000001 4279905053
0.098619647 0.020850971 0.36100003 4280826925
0.099792175 0.020850971 0.36100003 4279971614
0.10096471 0.020850971 0.36100003 4280365602
0.10185431 0.020793211 0.36000001 4280366883
0.10302359 0.020793211 0.36000001 4280169504
0.10419287 0.020793211 0.36000001 4280037918
0.10536214 0.020793211 0.36000001 4281815612
0.10653143 0.020793211 0.36000001 4280896307
0.10770071 0.020793211 0.36000001 4280632622
0.10886999 0.020793211 0.36000001 4281091376
0.11003927 0.020793211 0.36000001 4281156401
0.11120855 0.020793211 0.36000001 4281090608
0.11269 0.020850971 0.36100003 4280565032
0.11449333 0.020966487 0.36300001 4280697385
0.11662833 0.021139765 0.36600003 4281355315
0.1178171 0.021139765 0.36600003 4281420595
0.11900587 0.021139765 0.36600003 4281289009
0.12052304 0.021197524 0.36700001 4282078525
0.13335773 0.020966487 0.36300001 4286287222
0.13453676 0.020966487 0.36300001 4285893234
0.13571578 0.020966487 0.36300001 4285827441
0.13689481 0.020966487 0.36300001 4286089843
0.13807382 0.020966487 0.36300001 4286286708
0.13925284 0.020966487 0.36300001 4286286708
0.14043188 0.020966487 0.36300001 4286418294
0.14161091 0.020966487 0.36300001 4286351990
0.14278993 0.020966487 0.36300001 4286483576
0.14396895 0.020966487 0.36300001 4286351990
0.14514796 0.020966487 0.36300001 4286351990
0.14632699 0.020966487 0.36300001 4286351990
0.065424368 0.021901879 0.35900003 4283985239
0.066590399 0.021901879 0.35900003 4283986781
0.067567699 0.02184087 0.35800001 4280634157
0.068730474 0.02184087 0.35800001 4280109864
0.069893263 0.02184087 0.35800001 4280175657
0.071056046 0.02184087 0.35800001 4280307243
0.072017103 0.021779863 0.35700002 4280306989
0.072971664 0.021718854 0.35600001 4280307502
0.07412795 0.021718854 0.35600001 4280241963
0.075072773 0.021657847 0.35500002 4280176170
0.07622581 0.021657847 0.35500002 4280176170
0.077378854 0.021657847 0.35500002 4280044330
0.078531891 0.021657847 0.35500002 4279386400
0.079909392 0.021718854 0.35600001 4279583779
0.081065685 0.021718854 0.35600001 4279583779
0.08222197 0.021718854 0.35600001 4279452193
0.083378255 0.021718854 0.35600001 4279452193
0.084772006 0.021779863 0.35700002 4278331663
0.085931547 0.021779863 0.35700002 4279054105
0.087091081 0.021779863 0.35700002 4279976742
0.088250615 0.021779863 0.35700002 4280042535
0.089660592 0.02184087 0.35800001 4279315478
0.090823382 0.02184087 0.35800001 4279446553
0.09224312 0.021901879 0.35900003 4279379990
0.093409151 0.021901879 0.35900003 4280235299
0.094838627 0.021962887 0.36000001 4279775518
0.096007906 0.021962887 0.36000001 4281222964
0.097177185 0.021962887 0.36000001 4281486134
0.098619647 0.022023896 0.36100003 4281880894
0.099792175 0.022023896 0.36100003 4282078273
0.10096471 0.022023896 0.36100003 4282012480
0.10185431 0.021962887 0.36000001 4282736455
0.10302359 0.021962887 0.36000001 4281881146
0.10419287 0.021962887 0.36000001 4282209341
0.10536214 0.021962887 0.36000001 4281552181
0.10653143 0.021962887 0.36000001 4281815866
0.10770071 0.021962887 0.36000001 4281553208
0.10886999 0.021962887 0.36000001 4282407749
0.11003927 0.021962887 0.36000001 4282933834
0.11120855 0.021962887 0.36000001 4283327822
0.11269 0.022023896 0.36100003 4284446303
0.11449333 0.02214591 0.36300001 4284973163
0.11662833 0.022328936 0.36600003 4285432944
0.1178171 0.022328936 0.36600003 4284906600
0.11900587 0.022328936 0.36600003 4285498737
0.12052304 0.022389943 0.36700001 4285630064
0.13335773 0.02214591 0.36300001 4286024052
0.13453676 0.02214591 0.36300001 4286089845
0.13571578 0.02214591 0.36300001 4286221431
0.13689481 0.02214591 0.36300001 4286155636
0.13807382 0.02214591 0.36300001 4286220915
0.13925284 0.02214591 0.36300001 4286418294
0.14043188 0.02214591 0.36300001 4286352503
0.14161091 0.02214591 0.36300001 4286286710
0.14278993 0.02214591 0.36300001 4286549882
0.14396895 0.02214591 0.36300001 4286352503
0.14514796 0.02214591 0.36300001 4286352503
0.14632699 0.02214591 0.36300001 4286286710
0.066590399 0.023068309 0.35900003 4283721813
0.067756437 0.023068309 0.35900003 4283591512
0.06892246 0.023068309 0.35900003 4280633905
0.070088498 0.023068309 0.35900003 4280569393
0.071056046 0.023004051 0.35800001 4280438577
0.072218828 0.023004051 0.35800001 4280438575
0.073176645 0.022939794 0.35700002 4280438575
0.074336179 0.022939794 0.35700002 4280175916
0.07622581 0.022811281 0.35500002 4280044584
0.077378854 0.022811281 0.35500002 4279584033
0.078531891 0.022811281 0.35500002 4279452193
0.079909392 0.022875536 0.35600001 4279386400
0.081065685 0.022875536 0.35600001 4279189021
0.08222197 0.022875536 0.35600001 4279385887
0.083612472 0.022939794 0.35700002 4278793750
0.084772006 0.022939794 0.35700002 4279713316
0.085931547 0.022939794 0.35700002 4279712803
0.087091081 0.022939794 0.35700002 4279778598
0.088250615 0.022939794 0.35700002 4279778598
0.089660592 0.023004051 0.35800001 4279975977
0.090823382 0.023004051 0.35800001 4280435245
0.09224312 0.023068309 0.35900003 4280829231
0.093409151 0.023068309 0.35900003 4281355575
0.094838627 0.023132564 0.36000001 4282473542
0.096007906 0.023132564 0.36000001 4283394385
0.097177185 0.023132564 0.36000001 4283854936
0.098619647 0.023196824 0.36100003 4284577635
0.099792175 0.023196824 0.36100003 4284775784
0.10096471 0.023196824 0.36100003 4284446819
0.10185431 0.023132564 0.36000001 4285366892
0.10302359 0.023132564 0.36000001 4285037927
0.10419287 0.023132564 0.36000001 4285104233
0.10536214 0.023132564 0.36000001 4284972647
0.10653143 0.023132564 0.36000001 4284972647
0.10770071 0.023132564 0.36000001 4285169772
0.10886999 0.023132564 0.36000001 4285103981
0.11003927 0.023132564 0.36000001 4285367153
0.11120855 0.023132564 0.36000001 4285366640
0.11269 0.023196824 0.36100003 4285432433
0.11449333 0.023325335 0.36300001 4285694835
0.11662833 0.023518108 0.36600003 4285563249
0.1178171 0.023518108 0.36600003 4285694835
0.11900587 0.023518108 0.36600003 4285826421
0.12052304 0.023582365 0.36700001 4285694833
0.13453676 0.023325335 0.36300001 4286286710
0.13571578 0.023325335 0.36300001 4286286710
0.13689481 0.023325335 0.36300001 4286286710
0.13807382 0.023325335 0.36300001 4286351990
0.13925284 0.023325335 0.36300001 4286351990
0.14043188 0.023325335 0.36300001 4286351990
0.14161091 0.023325335 0.36300001 4286286710
0.14278993 0.023325335 0.36300001 4286220917
0.14396895 0.023325335 0.36300001 4286352503
0.14514796 0.023325335 0.36300001 4286286710
0.14632699 0.023325335 0.36300001 4286220917
0.06892246 0.024234736 0.35900003 4283196754
0.070088498 0.024234736 0.35900003 4282868302
0.071254529 0.024234736 0.35900003 4281948482
0.07242056 0.024234736 0.35900003 4280764721
0.074336179 0.024099724 0.35700002 4280173608
0.077378854 0.023964711 0.35500002 4279252252
0.078753106 0.024032217 0.35600001 4279252252
0.079909392 0.024032217 0.35600001 4279252254
0.081065685 0.024032217 0.35600001 4279646244
0.090823382 0.024167228 0.35800001 4281485884
0.09224312 0.024234736 0.35900003 4283722326
0.093409151 0.024234736 0.35900003 4284248670
0.094838627 0.024302242 0.36000001 4284577124
0.096007906 0.024302242 0.36000001 4284642915
0.097177185 0.024302242 0.36000001 4284577122
0.098619647 0.024369748 0.36100003 4284774501
0.099792175 0.024369748 0.36100003 4284708708
0.10096471 0.024369748 0.36100003 4284971880
0.10213724 0.024369748 0.36100003 4285102696
0.10330977 0.024369748 0.36100003 4285168489
0.1044823 0.024369748 0.36100003 4285300075
0.10565482 0.024369748 0.36100003 4285234282
0.10682735 0.024369748 0.36100003 4285235052
0.10799988 0.024369748 0.36100003 4285235052
0.10917241 0.024369748 0.36100003 4285300075
0.11034494 0.024369748 0.36100003 4285497454
0.11151747 0.024369748 0.36100003 4285497454
0.11269 0.024369748 0.36100003 4285694833
0.11449333 0.02450476 0.36300001 4285563247
0.11662833 0.02470728 0.36600003 4285694835
0.1178171 0.02470728 0.36600003 4285694835
0.11900587 0.02470728 0.36600003 4285760628
0.12052304 0.024774784 0.36700001 4285891700
0.096192889 0.014543594 0.35898873 4294967295
0.096192889 0.014543594 0.35898873 4294901760
0.096192889 0.014543594 0.35948873 4294901760
0.096192889 0.014543594 0.35998872 4294901760
0.096192889 0.014543594 0.36048874 4294901760
0.096192889 0.014543594 0.36098874 4294901760
0.096192889 0.014543594 0.36148873 4294901760
0.096192889 0.014543594 0.36198872 4294901760
0.096192889 0.014543594 0.36248875 4294901760
0.096192889 0.014543594 0.36298874 4294901760
0.096192889 0.014543594 0.36348873 4294901760
0.096192889 0.014543594 0.36398873 4294901760
0.096192889 0.014543594 0.36448872 4294901760
0.096192889 0.014543594 0.36498874 4294901760
0.096192889 0.014543594 0.36548874 4294901760
0.096192889 0.014543594 0.36598873 4294901760
0.096192889 0.014543594 0.36648872 4294901760
0.096192889 0.014543594 0.36698872 4294901760
0.096192889 0.014543594 0.36748874 4294901760
0.096192889 0.014543594 0.36798874 4294901760
0.096192889 0.014543594 0.36848873 4294901760
0.096192889 0.014543594 0.36898872 4294901760
0.096192889 0.014543594 0.36948875 4294901760
0.096192889 0.014543594 0.36998874 4294901760
0.096192889 0.014543594 0.37048873 4294901760
0.096192889 0.014543594 0.37098873 4294901760
0.096192889 0.014543594 0.37148875 4294901760
0.096192889 0.014543594 0.37198874 4294901760
0.096192889 0.014543594 0.37248874 4294901760
0.096192889 0.014543594 0.37298873 4294901760
0.096192889 0.014543594 0.37348872 4294901760
0.096192889 0.014543594 0.37398875 4294901760
0.096192889 0.014543594 0.37448874 4294901760
0.096192889 0.014543594 0.37498873 4294901760
0.096192889 0.014543594 0.37548873 4294901760
0.096192889 0.014543594 0.37598872 4294901760
0.096192889 0.014543594 0.37648875 4294901760
0.096192889 0.014543594 0.37698874 4294901760
0.096192889 0.014543594 0.37748873 4294901760
0.096192889 0.014543594 0.37798873 4294901760
0.096192889 0.014543594 0.37848875 4294901760
0.096192889 0.014543594 0.37898874 4294901760
0.096192889 0.014543594 0.37948874 4294901760
0.096192889 0.014543594 0.37998873 4294901760
0.096192889 0.014543594 0.38048875 4294901760
0.096192889 0.014543594 0.38098875 4294901760
0.096192889 0.014543594 0.38148874 4294901760
0.096192889 0.014543594 0.38198873 4294901760
0.096192889 0.014543594 0.38248873 4294901760
0.096192889 0.014543594 0.38298875 4294901760
0.096192889 0.014543594 0.38348874 4294901760
0.096192889 0.014543594 0.38398874 4294901760
0.096192889 0.014543594 0.38448873 4294901760
0.096192889 0.014543594 0.38498873 4294901760
0.096192889 0.014543594 0.38548875 4294901760
0.096192889 0.014543594 0.38598874 4294901760
0.096192889 0.014543594 0.38648874 4294901760
0.096192889 0.014543594 0.38698873 4294901760
0.096192889 0.014543594 0.38748872 4294901760
0.096192889 0.014543594 0.38798875 4294901760
0.096192889 0.014543594 0.38848874 4294901760
0.096192889 0.014543594 0.38898873 4294901760
0.096192889 0.014543594 0.38948873 4294901760
0.096192889 0.014543594 0.38998875 4294901760
0.096192889 0.014543594 0.39048874 4294901760
0.096192889 0.014543594 0.39098874 4294901760
0.096192889 0.014543594 0.39148873 4294901760
0.096192889 0.014543594 0.39198875 4294901760
0.096192889 0.014543594 0.39248875 4294901760
0.096192889 0.014543594 0.39298874 4294901760
0.096192889 0.014543594 0.39348873 4294901760
0.096192889 0.014543594 0.39398873 4294901760
0.096192889 0.014543594 0.39448875 4294901760
0.096192889 0.014543594 0.39498875 4294901760
0.096192889 0.014543594 0.39548874 4294901760
0.096192889 0.014543594 0.39598873 4294901760
0.096192889 0.014543594 0.39648873 4294901760
0.096192889 0.014543594 0.39698875 4294901760
0.096192889 0.014543594 0.39748874 4294901760
0.096192889 0.014543594 0.39798874 4294901760
0.096192889 0.014543594 0.39848873 4294901760
0.096192889 0.014543594 0.39898875 4294901760
0.096192889 0.014543594 0.39948875 4294901760
0.096192889 0.014543594 0.39998874 4294901760
0.096192889 0.014543594 0.40048873 4294901760
0.096192889 0.014543594 0.40098873 4294901760
0.096192889 0.014543594 0.40148875 4294901760
0.096192889 0.014543594 0.40198874 4294901760
0.096192889 0.014543594 0.40248874 4294901760
0.096192889 0.014543594 0.40298873 4294901760
0.096192889 0.014543594 0.40348876 4294901760
0.096192889 0.014543594 0.40398875 4294901760
0.096192889 0.014543594 0.40448874 4294901760
0.096192889 0.014543594 0.40498874 4294901760
0.096192889 0.014543594 0.40548873 4294901760
0.096192889 0.014543594 0.40598875 4294901760
0.096192889 0.014543594 0.40648875 4294901760
0.096192889 0.014543594 0.40698874 4294901760
0.096192889 0.014543594 0.40748873 4294901760
0.096192889 0.014543594 0.40798876 4294901760
0.096192889 0.014543594 0.40848875 4294901760
0.096192889 0.014543594 0.40898874 4294901760
0.096192889 0.014543594 0.35898873 4278255360
0.096142694 0.014794729 0.35941815 4278255360
0.0960925 0.015045863 0.35984761 4278255360
0.096042298 0.015296998 0.36027703 4278255360
0.095992103 0.015548132 0.36070645 4278255360
0.095941909 0.015799267 0.3611359 4278255360
0.095891714 0.0160504 0.36156532 4278255360
0.09584152 0.016301535 0.36199474 4278255360
0.095791318 0.01655267 0.36242419 4278255360
0.095741123 0.016803805 0.36285362 4278255360
0.095690928 0.01705494 0.36328304 4278255360
0.095640734 0.017306075 0.36371249 4278255360
0.095590539 0.017557207 0.36414191 4278255360
0.095540337 0.017808342 0.36457136 4278255360
0.095490143 0.018059477 0.36500078 4278255360
0.095439948 0.018310612 0.36543021 4278255360
0.095389754 0.018561747 0.36585966 4278255360
0.095339559 0.01881288 0.36628908 4278255360
0.095289357 0.019064015 0.3667185 4278255360
0.095239162 0.01931515 0.36714795 4278255360
0.095188968 0.019566284 0.36757737 4278255360
0.095138773 0.019817419 0.3680068 4278255360
0.095088579 0.020068552 0.36843625 4278255360
0.095038377 0.020319689 0.36886567 4278255360
0.094988182 0.020570822 0.36929509 4278255360
0.094937988 0.020821957 0.36972454 4278255360
0.094887793 0.021073092 0.37015396 4278255360
0.094837599 0.021324227 0.37058339 4278255360
0.094787396 0.021575361 0.37101284 4278255360
0.094737202 0.021826494 0.37144226 4278255360
0.094687007 0.022077629 0.37187171 4278255360
0.094636813 0.022328764 0.37230113 4278255360
0.094586618 0.022579897 0.37273055 4278255360
0.094536416 0.022831034 0.37316 4278255360
0.094486222 0.023082167 0.37358943 4278255360
0.094436027 0.023333302 0.37401885 4278255360
0.094385833 0.023584437 0.3744483 4278255360
0.094335638 0.023835571 0.37487772 4278255360
0.094285436 0.024086706 0.37530714 4278255360
0.094235241 0.024337839 0.37573659 4278255360
0.094185047 0.024588976 0.37616602 4278255360
0.094134852 0.024840109 0.37659544 4278255360
0.094084658 0.025091244 0.37702489 4278255360
0.094034456 0.025342379 0.37745431 4278255360
0.093984261 0.025593512 0.37788373 4278255360
0.093934067 0.025844647 0.37831318 4278255360
0.093883872 0.026095781 0.37874261 4278255360
0.093833677 0.026346916 0.37917203 4278255360
0.093783475 0.026598051 0.37960148 4278255360
0.093733281 0.026849186 0.3800309 4278255360
0.093683086 0.027100321 0.38046032 4278255360
0.093632892 0.027351454 0.38088977 4278255360
0.093582697 0.027602589 0.3813192 4278255360
0.093532495 0.027853724 0.38174862 4278255360
0.093482301 0.028104858 0.38217807 4278255360
0.093432106 0.028355993 0.38260749 4278255360
0.093381912 0.028607126 0.38303694 4278255360
0.093331717 0.028858261 0.38346636 4278255360
0.093281515 0.029109396 0.38389578 4278255360
0.09323132 0.029360529 0.38432524 4278255360
0.093181126 0.029611666 0.38475466 4278255360
0.093130931 0.029862799 0.38518408 4278255360
0.093080737 0.030113935 0.38561353 4278255360
0.093030535 0.030365068 0.38604295 4278255360
0.09298034 0.030616201 0.38647237 4278255360
0.092930146 0.030867338 0.38690183 4278255360
0.092879951 0.031118471 0.38733125 4278255360
0.092829756 0.031369608 0.3877607 4278255360
0.092779554 0.031620741 0.38819012 4278255360
0.09272936 0.031871878 0.38861954 4278255360
0.092679165 0.032123011 0.38904899 4278255360
0.092628971 0.032374144 0.38947842 4278255360
0.092578776 0.03262528 0.38990784 4278255360
0.092528574 0.032876413 0.39033729 4278255360
0.09247838 0.03312755 0.39076671 4278255360
0.092428185 0.033378683 0.39119613 4278255360
0.09237799 0.033629816 0.39162558 4278255360
0.092327796 0.033880953 0.392055 4278255360
0.092277594 0.034132086 0.39248443 4278255360
0.092227399 0.034383222 0.39291388 4278255360
0.092177205 0.034634355 0.3933433 4278255360
0.09212701 0.034885488 0.39377272 4278255360
0.092076816 0.035136625 0.39420217 4278255360
0.092026614 0.035387758 0.39463159 4278255360
0.091976419 0.035638895 0.39506102 4278255360
0.091926225 0.035890028 0.39549047 4278255360
0.09187603 0.036141165 0.39591989 4278255360
0.091825835 0.036392298 0.39634931 4278255360
0.091775633 0.036643431 0.39677876 4278255360
0.091725439 0.036894567 0.39720818 4278255360
0.091675244 0.0371457 0.39763761 4278255360
0.09162505 0.037396837 0.39806706 4278255360
0.091574855 0.03764797 0.39849648 4278255360
0.091524653 0.037899103 0.3989259 4278255360
0.091474459 0.03815024 0.39935535 4278255360
0.091424264 0.038401373 0.39978477 4278255360
