# .PCD v0.7 - Point Cloud Data file format
VERSION 0.7
FIELDS x y z rgb
SIZE 4 4 4 4
TYPE F F F U
COUNT 1 1 1 1
WIDTH 1053
HEIGHT 1
VIEWPOINT 0 0 0 1 0 0 0
POINTS 1053
DATA ascii
0.063966438 0.010009467 0.35100001 4280233504
0.065106489 0.010009467 0.35100001 4280036639
0.066246539 0.010009467 0.35100001 4279708955
0.067194603 0.0099809505 0.35000002 4279251734
0.068331406 0.0099809505 0.35000002 4278727187
0.069468208 0.0099809505 0.35000002 4278662677
0.070605002 0.0099809505 0.35000002 4278531091
0.071536824 0.0099524325 0.34900001 4279515941
0.13409248 0.010408705 0.36500001 4280039969
0.135278 0.010408705 0.36500001 4280105762
0.13646352 0.010408705 0.36500001 4279645211
0.13764904 0.010408705 0.36500001 4280105248
0.13883457 0.010408705 0.36500001 4280631592
0.14002009 0.010408705 0.36500001 4279973662
0.14120561 0.010408705 0.36500001 4279842590
0.14200102 0.010380188 0.36400002 4280105762
0.14318329 0.010380188 0.36400002 4279842590
0.14396895 0.010351671 0.36300001 4280171555
0.14514796 0.010351671 0.36300001 4280171555
0.14632699 0.010351671 0.36300001 4280105248
0.03702243 0.011276967 0.35500002 4279510041
0.038175467 0.011276967 0.35500002 4280366887
0.062098764 0.011435797 0.36000001 4285167977
0.063268043 0.011435797 0.36000001 4280298782
0.06443733 0.011435797 0.36000001 4280496676
0.063966438 0.011149902 0.35100001 4280168225
0.064920999 0.011118136 0.35000002 4279708955
0.066057809 0.011118136 0.35000002 4279315478
0.067194603 0.011118136 0.35000002 4278858259
0.068331406 0.011118136 0.35000002 4278596371
0.069468208 0.011118136 0.35000002 4278531091
0.070605002 0.011118136 0.35000002 4278399505
0.071536824 0.01108637 0.34900001 4278858775
0.072670378 0.01108637 0.34900001 4279844139
0.099166013 0.011531095 0.36300001 4282934093
0.10034504 0.011531095 0.36300001 4282670662
0.10298602 0.011562862 0.36400002 4280960044
0.1041683 0.011562862 0.36400002 4280302627
0.10535057 0.011562862 0.36400002 4280170787
0.11662833 0.011626394 0.36600003 4279711774
0.1178171 0.011626394 0.36600003 4279448602
0.11900587 0.011626394 0.36600003 4279448602
0.12019464 0.011626394 0.36600003 4279580188
0.12105176 0.011594627 0.36500001 4279448602
0.12223727 0.011594627 0.36500001 4279448600
0.12342279 0.011594627 0.36500001 4279251734
0.13409248 0.011594627 0.36500001 4279251734
0.135278 0.011594627 0.36500001 4279317527
0.13646352 0.011594627 0.36500001 4279317527
0.13764904 0.011594627 0.36500001 4279251734
0.13883457 0.011594627 0.36500001 4279449367
0.14002009 0.011594627 0.36500001 4279186195
0.14120561 0.011594627 0.36500001 4279055125
0.14200102 0.011562862 0.36400002 4279120918
0.14318329 0.011562862 0.36400002 4279120918
0.14396895 0.011531095 0.36300001 4278922769
0.14514796 0.011531095 0.36300001 4279251734
0.14632699 0.011531095 0.36300001 4279251734
0.14750603 0.011531095 0.36300001 4279383320
0.040367514 0.012395382 0.354 4280366374
0.04151731 0.012395382 0.354 4280563751
0.063784197 0.012255322 0.35000002 4279774235
0.064920999 0.012255322 0.35000002 4279052310
0.066057809 0.012255322 0.35000002 4279053592
0.067194603 0.012255322 0.35000002 4279187224
0.068331406 0.012255322 0.35000002 4278661394
0.069468208 0.012255322 0.35000002 4278662677
0.070605002 0.012255322 0.35000002 4278794517
0.071741804 0.012255322 0.35000002 4278530578
0.072878607 0.012255322 0.35000002 4278727957
0.074015409 0.012255322 0.35000002 4279976490
0.084315091 0.012605473 0.36000001 4280696883
0.085484378 0.012605473 0.36000001 4280171053
0.088066891 0.012640489 0.36100003 4279973672
0.089239419 0.012640489 0.36100003 4279973926
0.090411946 0.012640489 0.36100003 4279250201
0.097986996 0.012710519 0.36300001 4279712287
0.099166013 0.012710519 0.36300001 4279383322
0.10034504 0.012710519 0.36300001 4279514654
0.10152406 0.012710519 0.36300001 4279448602
0.10270309 0.012710519 0.36300001 4279382809
0.10388211 0.012710519 0.36300001 4279383322
0.10506114 0.012710519 0.36300001 4279120920
0.10624015 0.012710519 0.36300001 4279055127
0.10741919 0.012710519 0.36300001 4278791953
0.10859821 0.012710519 0.36300001 4279120918
0.10977723 0.012710519 0.36300001 4278923539
0.11095626 0.012710519 0.36300001 4278857746
0.11244421 0.012745535 0.36400002 4278857746
0.11362648 0.012745535 0.36400002 4278923539
0.11512415 0.012780549 0.36500001 4278857746
0.11630967 0.012780549 0.36500001 4279055379
0.11749519 0.012780549 0.36500001 4279121172
0.11868072 0.012780549 0.36500001 4278923539
0.11986624 0.012780549 0.36500001 4278792466
0.12105176 0.012780549 0.36500001 4278792466
0.12223727 0.012780549 0.36500001 4278792720
0.12342279 0.012780549 0.36500001 4278858513
0.12426693 0.012745535 0.36400002 4278990099
0.1254492 0.012745535 0.36400002 4278990099
0.13409248 0.012780549 0.36500001 4278988562
0.135278 0.012780549 0.36500001 4279055125
0.13646352 0.012780549 0.36500001 4278858000
0.13764904 0.012780549 0.36500001 4279055379
0.13883457 0.012780549 0.36500001 4278923793
0.14002009 0.012780549 0.36500001 4278923793
0.14081874 0.012745535 0.36400002 4279121685
0.14200102 0.012745535 0.36400002 4278726927
0.14318329 0.012745535 0.36400002 4278990099
0.14436556 0.012745535 0.36400002 4278990099
0.14514796 0.012710519 0.36300001 4278990099
0.14632699 0.012710519 0.36300001 4279121685
0.14750603 0.012710519 0.36300001 4279187478
0.063784197 0.013392507 0.35000002 4279511576
0.064920999 0.013392507 0.35000002 4278987799
0.066057809 0.013392507 0.35000002 4278988310
0.067194603 0.013392507 0.35000002 4279187224
0.068331406 0.013392507 0.35000002 4278859027
0.069468208 0.013392507 0.35000002 4278465552
0.070605002 0.013392507 0.35000002 4278728724
0.071741804 0.013392507 0.35000002 4278729494
0.072878607 0.013392507 0.35000002 4278465298
0.074015409 0.013392507 0.35000002 4278727189
0.075366922 0.013430771 0.35100001 4279121433
0.076724946 0.013469037 0.35200003 4279514654
0.078089461 0.0135073 0.35300002 4279514654
0.079460464 0.013545563 0.354 4279383068
0.081065685 0.013622093 0.35600001 4279383068
0.082452938 0.013660357 0.35700002 4279251482
0.08408089 0.013736886 0.35900003 4279251482
0.085484378 0.01377515 0.36000001 4279317275
0.086653657 0.01377515 0.36000001 4279251482
0.087822936 0.01377515 0.36000001 4279383068
0.088992216 0.01377515 0.36000001 4279318045
0.090411946 0.013813416 0.36100003 4279252252
0.091330774 0.01377515 0.36000001 4279252252
0.092757009 0.013813416 0.36100003 4278858521
0.093929537 0.013813416 0.36100003 4278924568
0.095102072 0.013813416 0.36100003 4278924568
0.096274599 0.013813416 0.36100003 4278661396
0.097717062 0.013851679 0.36200002 4278397710
0.099166013 0.013889942 0.36300001 4278989847
0.10034504 0.013889942 0.36300001 4278858773
0.10152406 0.013889942 0.36300001 4278727187
0.10270309 0.013889942 0.36300001 4278661394
0.10388211 0.013889942 0.36300001 4278924566
0.10506114 0.013889942 0.36300001 4278924566
0.10624015 0.013889942 0.36300001 4278858773
0.10741919 0.013889942 0.36300001 4278858773
0.10859821 0.013889942 0.36300001 4278727187
0.10977723 0.013889942 0.36300001 4278727187
0.11095626 0.013889942 0.36300001 4278661394
0.11213529 0.013889942 0.36300001 4279121685
0.11331432 0.013889942 0.36300001 4278858513
0.11480875 0.013928208 0.36400002 4278858513
0.11630967 0.013966472 0.36500001 4278792720
0.11749519 0.013966472 0.36500001 4278990613
0.11868072 0.013966472 0.36500001 4278924566
0.11986624 0.013966472 0.36500001 4278727187
0.12105176 0.013966472 0.36500001 4279121685
0.12223727 0.013966472 0.36500001 4278859027
0.12308465 0.013928208 0.36400002 4278924820
0.12426693 0.013928208 0.36400002 4279056406
0.1254492 0.013928208 0.36400002 4279122199
0.12663147 0.013928208 0.36400002 4278595855
0.1332711 0.014004736 0.36600003 4279450396
0.13409248 0.013966472 0.36500001 4279450396
0.135278 0.013966472 0.36500001 4279647775
0.13646352 0.013966472 0.36500001 4279318810
0.13764904 0.013966472 0.36500001 4279318810
0.13883457 0.013966472 0.36500001 4279516443
0.14002009 0.013966472 0.36500001 4279319064
0.14081874 0.013928208 0.36400002 4279451164
0.14200102 0.013928208 0.36400002 4279319578
0.14318329 0.013928208 0.36400002 4279122199
0.14436556 0.013928208 0.36400002 4279451164
0.14514796 0.013889942 0.36300001 4279319578
0.14632699 0.013889942 0.36300001 4279122199
0.14750603 0.013889942 0.36300001 4279187478
0.063784197 0.014529693 0.35000002 4279381271
0.064920999 0.014529693 0.35000002 4279054105
0.066246539 0.014571206 0.35100001 4279054873
0.067386582 0.014571206 0.35100001 4278727187
0.068526633 0.014571206 0.35100001 4279319324
0.069666684 0.014571206 0.35100001 4278991383
0.070806727 0.014571206 0.35100001 4278926103
0.071946777 0.014571206 0.35100001 4278599191
0.073086828 0.014571206 0.35100001 4278993949
0.074226879 0.014571206 0.35100001 4278728470
0.075581647 0.01461272 0.35200003 4278727957
0.076724946 0.01461272 0.35200003 4278859543
0.078089461 0.014654233 0.35300002 4278596371
0.079684928 0.01473726 0.35500002 4278398222
0.081065685 0.014778772 0.35600001 4278398994
0.082452938 0.014820287 0.35700002 4278530580
0.08408089 0.014903313 0.35900003 4278596373
0.085246921 0.014903313 0.35900003 4278596373
0.086412959 0.014903313 0.35900003 4278727189
0.087822936 0.014944826 0.36000001 4278727189
0.088992216 0.014944826 0.36000001 4278990361
0.090161495 0.014944826 0.36000001 4279254303
0.091330774 0.014944826 0.36000001 4278530580
0.092500061 0.014944826 0.36000001 4278793752
0.09366934 0.014944826 0.36000001 4278596373
0.095102072 0.014986341 0.36100003 4278596371
0.096274599 0.014986341 0.36100003 4278727957
0.097717062 0.015027854 0.36200002 4278859543
0.09889283 0.015027854 0.36200002 4278728470
0.10006861 0.015027854 0.36200002 4278794517
0.10124438 0.015027854 0.36200002 4278860310
0.10242017 0.015027854 0.36200002 4278860310
0.10359594 0.015027854 0.36200002 4278794517
0.10477172 0.015027854 0.36200002 4279189273
0.10594749 0.015027854 0.36200002 4279386652
0.10712326 0.015027854 0.36200002 4279386139
0.10829905 0.015027854 0.36200002 4279188760
0.10947482 0.015027854 0.36200002 4279780899
0.1106506 0.015027854 0.36200002 4278794004
0.11182638 0.015027854 0.36200002 4279715106
0.11331432 0.015069366 0.36300001 4279386141
0.11449333 0.015069366 0.36300001 4279320348
0.11599102 0.015110881 0.36400002 4279254555
0.11717329 0.015110881 0.36400002 4279320094
0.11868072 0.015152394 0.36500001 4279254301
0.11986624 0.015152394 0.36500001 4279188508
0.12105176 0.015152394 0.36500001 4278991129
0.12190238 0.015110881 0.36400002 4278991383
0.12308465 0.015110881 0.36400002 4279254555
0.12426693 0.015110881 0.36400002 4279057176
0.1254492 0.015110881 0.36400002 4279188762
0.12663147 0.015110881 0.36400002 4279188762
0.12781376 0.015110881 0.36400002 4279188762
0.13125119 0.01523542 0.36700001 4279582750
0.13208233 0.015193908 0.36600003 4278990613
0.1332711 0.015193908 0.36600003 4279451164
0.13445987 0.015193908 0.36600003 4279582236
0.135278 0.015152394 0.36500001 4279648029
0.13646352 0.015152394 0.36500001 4279713568
0.13764904 0.015152394 0.36500001 4279910947
0.13883457 0.015152394 0.36500001 4279911201
0.14002009 0.015152394 0.36500001 4279779615
0.14081874 0.015110881 0.36400002 4279713822
0.14200102 0.015110881 0.36400002 4279976994
0.14318329 0.015110881 0.36400002 4279319064
0.14436556 0.015110881 0.36400002 4280305446
0.14514796 0.015069366 0.36300001 4280108067
0.14632699 0.015069366 0.36300001 4280042533
0.14750603 0.015069366 0.36300001 4281160501
0.063784197 0.015666878 0.35000002 4279382037
0.064920999 0.015666878 0.35000002 4279054103
0.066435277 0.015756404 0.35200003 4279120666
0.067578569 0.015756404 0.35200003 4278595603
0.068721868 0.015756404 0.35200003 4279648291
0.069865167 0.015756404 0.35200003 4279715619
0.071008459 0.015756404 0.35200003 4279124252
0.072151758 0.015756404 0.35200003 4278993179
0.073295057 0.015756404 0.35200003 4279190558
0.074438356 0.015756404 0.35200003 4283532381
0.075581647 0.015756404 0.35200003 4278663701
0.076942913 0.015801165 0.35300002 4278925849
0.078310676 0.015845928 0.354 4278860310
0.079684928 0.015890691 0.35500002 4278728724
0.081065685 0.015935453 0.35600001 4278926103
0.082452938 0.015980216 0.35700002 4278860056
0.083846673 0.016024979 0.35800001 4278795033
0.085246921 0.016069742 0.35900003 4278795033
0.086412959 0.016069742 0.35900003 4278860826
0.087578982 0.016069742 0.35900003 4278794263
0.08874502 0.016069742 0.35900003 4278925849
0.090161495 0.016114503 0.36000001 4279189791
0.091330774 0.016114503 0.36000001 4278992412
0.092500061 0.016114503 0.36000001 4279321377
0.09366934 0.016114503 0.36000001 4279189791
0.095102072 0.016159266 0.36100003 4279321631
0.096274599 0.016159266 0.36100003 4279320861
0.097447127 0.016159266 0.36100003 4279519010
0.09889283 0.016204027 0.36200002 4279190045
0.10006861 0.016204027 0.36200002 4279124252
0.10124438 0.016204027 0.36200002 4278992666
0.10242017 0.016204027 0.36200002 4279190045
0.10359594 0.016204027 0.36200002 4278992666
0.10477172 0.016204027 0.36200002 4279058457
0.10594749 0.016204027 0.36200002 4278861078
0.10682735 0.016159266 0.36100003 4278597906
0.10799988 0.016159266 0.36100003 4279190043
0.10917241 0.016159266 0.36100003 4279386654
0.11034494 0.016159266 0.36100003 4279517727
0.11182638 0.016204027 0.36200002 4279386141
0.11300216 0.016204027 0.36200002 4279846692
0.11449333 0.016248791 0.36300001 4279911461
0.11567236 0.016248791 0.36300001 4279911461
0.11717329 0.016293554 0.36400002 4280240426
0.11835556 0.016293554 0.36400002 4279911461
0.11986624 0.016338315 0.36500001 4279714852
0.12072012 0.016293554 0.36400002 4280175403
0.12190238 0.016293554 0.36400002 4280175403
0.12308465 0.016293554 0.36400002 4279978024
0.12426693 0.016293554 0.36400002 4280043047
0.1254492 0.016293554 0.36400002 4280306219
0.12663147 0.016293554 0.36400002 4280108840
0.12781376 0.016293554 0.36400002 4280306473
0.13125119 0.016427841 0.36700001 4280371752
0.13208233 0.016383078 0.36600003 4280239912
0.1332711 0.016383078 0.36600003 4280568877
0.13445987 0.016383078 0.36600003 4280437291
0.135278 0.016338315 0.36500001 4280436778
0.13646352 0.016338315 0.36500001 4280305192
0.13764904 0.016338315 0.36500001 4280436778
0.13883457 0.016338315 0.36500001 4280567594
0.13963647 0.016293554 0.36400002 4280370215
0.14081874 0.016293554 0.36400002 4280963376
0.14200102 0.016293554 0.36400002 4280765997
0.14318329 0.016293554 0.36400002 4280765743
0.14436556 0.016293554 0.36400002 4281028915
0.14554784 0.016293554 0.36400002 4281291571
0.14632699 0.016248791 0.36300001 4281883195
0.066812746 0.016996112 0.354 4279186972
0.067962535 0.016996112 0.354 4279451682
0.069112331 0.016996112 0.354 4279517473
0.070063643 0.0169481 0.35300002 4279715365
0.071210191 0.0169481 0.35300002 4279649572
0.072356731 0.0169481 0.35300002 4279519010
0.073503278 0.0169481 0.35300002 4278597908
0.074649826 0.0169481 0.35300002 4278598421
0.075796366 0.0169481 0.35300002 4278532626
0.07716088 0.016996112 0.354 4278795798
0.078531891 0.017044123 0.35500002 4278862361
0.079684928 0.017044123 0.35500002 4278862361
0.081065685 0.017092135 0.35600001 4278796570
0.082452938 0.017140146 0.35700002 4278993695
0.083846673 0.017188158 0.35800001 4278927902
0.085009463 0.017188158 0.35800001 4278927132
0.086412959 0.017236169 0.35900003 4279058718
0.087578982 0.017236169 0.35900003 4279058718
0.08874502 0.017236169 0.35900003 4278992925
0.089911051 0.017236169 0.35900003 4279387683
0.091077082 0.017236169 0.35900003 4279190304
0.092500061 0.017284181 0.36000001 4279256097
0.09366934 0.017284181 0.36000001 4279716648
0.094838627 0.017284181 0.36000001 4279650342
0.096274599 0.017332194 0.36100003 4279519010
0.097447127 0.017332194 0.36100003 4280373549
0.098619647 0.017332194 0.36100003 4279649826
0.099792175 0.017332194 0.36100003 4279781412
0.10096471 0.017332194 0.36100003 4279912998
0.10213724 0.017332194 0.36100003 4279649826
0.10330977 0.017332194 0.36100003 4279912998
0.1044823 0.017332194 0.36100003 4280044584
0.10565482 0.017332194 0.36100003 4280044584
0.10682735 0.017332194 0.36100003 4280110377
0.10799988 0.017332194 0.36100003 4280044584
0.10917241 0.017332194 0.36100003 4280307243
0.11034494 0.017332194 0.36100003 4280175657
0.11151747 0.017332194 0.36100003 4280307243
0.11269 0.017332194 0.36100003 4280438059
0.11449333 0.017428216 0.36300001 4280569391
0.11567236 0.017428216 0.36300001 4280503598
0.11685138 0.017428216 0.36300001 4280306219
0.11835556 0.017476227 0.36400002 4280437805
0.11986624 0.017524239 0.36500001 4280503084
0.12105176 0.017524239 0.36500001 4280634670
0.12223727 0.017524239 0.36500001 4280371498
0.12342279 0.017524239 0.36500001 4280239912
0.12460832 0.017524239 0.36500001 4279976740
0.12579384 0.017524239 0.36500001 4279778848
0.12697937 0.017524239 0.36500001 4279515676
0.12816489 0.017524239 0.36500001 4279778848
0.13125119 0.017620262 0.36700001 4280435756
0.13208233 0.017572252 0.36600003 4280633135
0.1332711 0.017572252 0.36600003 4280764721
0.13445987 0.017572252 0.36600003 4280895794
0.13564864 0.017572252 0.36600003 4281159220
0.13646352 0.017524239 0.36500001 4280830255
0.13764904 0.017524239 0.36500001 4281553978
0.13883457 0.017524239 0.36500001 4279843360
0.13963647 0.017476227 0.36400002 4281159733
0.14081874 0.017476227 0.36400002 4280963376
0.14200102 0.017476227 0.36400002 4281094962
0.14318329 0.017476227 0.36400002 4281226548
0.14436556 0.017476227 0.36400002 4281225778
0.14554784 0.017476227 0.36400002 4281947191
0.14673011 0.017476227 0.36400002 4285169763
0.14791238 0.017476227 0.36400002 4285958509
0.066590399 0.018402597 0.35900003 4279054873
0.067190222 0.018248815 0.35600001 4279253019
0.068346508 0.018248815 0.35600001 4279714854
0.069307566 0.018197555 0.35500002 4279715365
0.07046061 0.018197555 0.35500002 4279846951
0.071613647 0.018197555 0.35500002 4279846951
0.072766684 0.018197555 0.35500002 4280110377
0.073919728 0.018197555 0.35500002 4280373549
0.074861296 0.018146293 0.354 4279980074
0.076011084 0.018146293 0.354 4279651107
0.077378854 0.018197555 0.35500002 4279519521
0.078531891 0.018197555 0.35500002 4279651107
0.079909392 0.018248815 0.35600001 4279519523
0.081293397 0.018300075 0.35700002 4279585316
0.082452938 0.018300075 0.35700002 4279848234
0.083846673 0.018351335 0.35800001 4279848488
0.085009463 0.018351335 0.35800001 4279651109
0.086172245 0.018351335 0.35800001 4279716902
0.087578982 0.018402597 0.35900003 4279913768
0.08874502 0.018402597 0.35900003 4279649826
0.089911051 0.018402597 0.35900003 4280110377
0.091077082 0.018402597 0.35900003 4280110377
0.09224312 0.018402597 0.35900003 4280110377
0.09366934 0.018453857 0.36000001 4280570415
0.094838627 0.018453857 0.36000001 4280175657
0.096007906 0.018453857 0.36000001 4280241450
0.097447127 0.018505119 0.36100003 4280373036
0.098619647 0.018505119 0.36100003 4280307243
0.099792175 0.018505119 0.36100003 4280569645
0.10096471 0.018505119 0.36100003 4280503852
0.10213724 0.018505119 0.36100003 4280437545
0.10330977 0.018505119 0.36100003 4280503338
0.1044823 0.018505119 0.36100003 4280173860
0.10536214 0.018453857 0.36000001 4279713309
0.10653143 0.018453857 0.36000001 4279516191
0.10770071 0.018453857 0.36000001 4280634670
0.10886999 0.018453857 0.36000001 4279778848
0.11003927 0.018453857 0.36000001 4280305192
0.11120855 0.018453857 0.36000001 4280172836
0.11269 0.018505119 0.36100003 4280896559
0.11449333 0.018607639 0.36300001 4280830766
0.11567236 0.018607639 0.36300001 4280830766
0.11685138 0.018607639 0.36300001 4280830766
0.11835556 0.018658901 0.36400002 4280896561
0.11986624 0.018710161 0.36500001 4281028147
0.12105176 0.018710161 0.36500001 4280830768
0.12223727 0.018710161 0.36500001 4280698667
0.12342279 0.018710161 0.36500001 4280896046
0.12460832 0.018710161 0.36500001 4280699180
0.12579384 0.018710161 0.36500001 4280172325
0.12697937 0.018710161 0.36500001 4281224243
0.12816489 0.018710161 0.36500001 4280829485
0.1332711 0.018761422 0.36600003 4280895278
0.13445987 0.018761422 0.36600003 4280763178
0.13564864 0.018761422 0.36600003 4281223729
0.13646352 0.018710161 0.36500001 4281290036
0.13764904 0.018710161 0.36500001 4279842590
0.13883457 0.018710161 0.36500001 4281486901
0.13963647 0.018658901 0.36400002 4281487415
0.14081874 0.018658901 0.36400002 4281291317
0.14200102 0.018658901 0.36400002 4281028399
0.14318329 0.018658901 0.36400002 4282275384
0.14436556 0.018658901 0.36400002 4283787858
0.14554784 0.018658901 0.36400002 4286484603
0.14673011 0.018658901 0.36400002 4286089845
0.06443733 0.019623535 0.36000001 4283788119
0.065606602 0.019623535 0.36000001 4279973408
0.066590399 0.019569024 0.35900003 4279384092
0.067567699 0.019514514 0.35800001 4279911461
0.068730474 0.019514514 0.35800001 4279782182
0.069698036 0.019460006 0.35700002 4279650596
0.07085757 0.019460006 0.35700002 4279716389
0.072017103 0.019460006 0.35700002 4280111147
0.073176645 0.019460006 0.35700002 4280242733
0.07412795 0.019405494 0.35600001 4280111147
0.075072773 0.019350985 0.35500002 4280111147
0.076440528 0.019405494 0.35600001 4280045354
0.077596813 0.019405494 0.35600001 4279782180
0.078753106 0.019405494 0.35600001 4279782180
0.080133863 0.019460006 0.35700002 4280045354
0.081293397 0.019460006 0.35700002 4279913768
0.082683891 0.019514514 0.35800001 4279782182
0.083846673 0.019514514 0.35800001 4279321629
0.085009463 0.019514514 0.35800001 4280045352
0.086172245 0.019514514 0.35800001 4280176170
0.087335028 0.019514514 0.35800001 4279581469
0.08874502 0.019569024 0.35900003 4280174119
0.089911051 0.019569024 0.35900003 4280306219
0.091077082 0.019569024 0.35900003 4280239912
0.09224312 0.019569024 0.35900003 4278988051
0.09366934 0.019623535 0.36000001 4279184406
0.094838627 0.019623535 0.36000001 4279446551
0.096007906 0.019623535 0.36000001 4279578391
0.097177185 0.019623535 0.36000001 4279380758
0.098619647 0.019678045 0.36100003 4279249172
0.099792175 0.019678045 0.36100003 4279643930
0.10096471 0.019678045 0.36100003 4279841311
0.10213724 0.019678045 0.36100003 4280104483
0.10330977 0.019678045 0.36100003 4280301862
0.10419287 0.019623535 0.36000001 4280893229
0.10536214 0.019623535 0.36000001 4279578139
0.10653143 0.019623535 0.36000001 4281028663
0.10770071 0.019623535 0.36000001 4280568366
0.10886999 0.019623535 0.36000001 4280171039
0.11003927 0.019623535 0.36000001 4280236832
0.11120855 0.019623535 0.36000001 4279446551
0.11237784 0.019623535 0.36000001 4281026096
0.11449333 0.019787064 0.36300001 4280829231
0.11567236 0.019787064 0.36300001 4280896048
0.11685138 0.019787064 0.36300001 4280830253
0.11835556 0.019841574 0.36400002 4280829483
0.11986624 0.019896083 0.36500001 4280172325
0.12105176 0.019896083 0.36500001 4280830255
0.12223727 0.019896083 0.36500001 4281356599
0.12342279 0.019896083 0.36500001 4281159220
0.12460832 0.019896083 0.36500001 4280961071
0.12579384 0.019896083 0.36500001 4281157936
0.12697937 0.019896083 0.36500001 4281223729
0.12816489 0.019896083 0.36500001 4280960557
0.13764904 0.019896083 0.36500001 4283129930
0.13883457 0.019896083 0.36500001 4283393100
0.13963647 0.019841574 0.36400002 4284839776
0.14081874 0.019841574 0.36400002 4286222714
0.14200102 0.019841574 0.36400002 4286420091
0.14318329 0.019841574 0.36400002 4286155636
0.14436556 0.019841574 0.36400002 4286747773
0.14554784 0.019841574 0.36400002 4286286710
0.065606602 0.020793211 0.36000001 4283722326
0.066775888 0.020793211 0.36000001 4280172838
0.067756437 0.020735452 0.35900003 4279977254
0.06892246 0.020735452 0.35900003 4279912998
0.070088498 0.020735452 0.35900003 4279453217
0.071254529 0.020735452 0.35900003 4279782182
0.07242056 0.020735452 0.35900003 4280242733
0.073586598 0.020735452 0.35900003 4280111147
0.0745444 0.020677693 0.35800001 4280176940
0.075284243 0.020562174 0.35600001 4280111147
0.076655254 0.020619934 0.35700002 4280045354
0.077814788 0.020619934 0.35700002 4279913768
0.078974329 0.020619934 0.35700002 4279913768
0.080133863 0.020619934 0.35700002 4280044584
0.081521109 0.020677693 0.35800001 4279847205
0.082683891 0.020677693 0.35800001 4279781412
0.083846673 0.020677693 0.35800001 4279847205
0.085009463 0.020677693 0.35800001 4279847205
0.086172245 0.020677693 0.35800001 4279252506
0.087335028 0.020677693 0.35800001 4280764975
0.08874502 0.020735452 0.35900003 4280568879
0.089911051 0.020735452 0.35900003 4280238631
0.091077082 0.020735452 0.35900003 4279315478
0.09224312 0.020735452 0.35900003 4280959274
0.093409151 0.020735452 0.35900003 4281222446
0.094838627 0.020793211 0.36000001 4280037922
0.096007906 0.020793211 0.36000001 4280893231
0.097177185 0.020793211 0.36000001 4279840028
0.098619647 0.020850971 0.36100003 4280761643
0.099792175 0.020850971 0.36100003 4279708955
0.10096471 0.020850971 0.36100003 4280366372
0.10213724 0.020850971 0.36100003 4280300579
0.10302359 0.020793211 0.36000001 4280366372
0.10419287 0.020793211 0.36000001 4280169508
0.10536214 0.020793211 0.36000001 4281026612
0.10653143 0.020793211 0.36000001 4280568114
0.10770071 0.020793211 0.36000001 4280502321
0.10886999 0.020793211 0.36000001 4280762924
0.11003927 0.020793211 0.36000001 4280959790
0.11120855 0.020793211 0.36000001 4281025583
0.11237784 0.020793211 0.36000001 4280762411
0.11449333 0.020966487 0.36300001 4281157936
0.11567236 0.020966487 0.36300001 4280632106
0.11685138 0.020966487 0.36300001 4281026864
0.11835556 0.021024248 0.36400002 4281553208
0.11986624 0.021082005 0.36500001 4281816380
0.12105176 0.021082005 0.36500001 4281684280
0.12223727 0.021082005 0.36500001 4282012730
0.12342279 0.021082005 0.36500001 4282275902
0.12460832 0.021082005 0.36500001 4282867269
0.12579384 0.021082005 0.36500001 4283656272
0.12697937 0.021082005 0.36500001 4284117338
0.12816489 0.021082005 0.36500001 4284972647
0.065606602 0.021962887 0.36000001 4283722326
0.066961378 0.022023896 0.36100003 4282867271
0.067945167 0.021962887 0.36000001 4280698667
0.069114447 0.021962887 0.36000001 4279912998
0.070478961 0.022023896 0.36100003 4280044584
0.071651496 0.022023896 0.36100003 4280045354
0.072824016 0.022023896 0.36100003 4280176940
0.073791571 0.021962887 0.36000001 4280045354
0.07496085 0.021962887 0.36000001 4280176940
0.076553077 0.022084903 0.36200002 4280045354
0.076869972 0.02184087 0.35800001 4279913768
0.078032754 0.02184087 0.35800001 4279782182
0.079195544 0.02184087 0.35800001 4279650342
0.080358319 0.02184087 0.35800001 4278992412
0.081521109 0.02184087 0.35800001 4279123998
0.082683891 0.02184087 0.35800001 4279583779
0.083846673 0.02184087 0.35800001 4279649572
0.085009463 0.02184087 0.35800001 4278528011
0.086172245 0.02184087 0.35800001 4279448602
0.087335028 0.02184087 0.35800001 4279910949
0.08874502 0.021901879 0.35900003 4279713570
0.089911051 0.021901879 0.35900003 4278921234
0.091077082 0.021901879 0.35900003 4279249174
0.09224312 0.021901879 0.35900003 4279511574
0.09366934 0.021962887 0.36000001 4280235297
0.094838627 0.021962887 0.36000001 4280037918
0.096007906 0.021962887 0.36000001 4281156399
0.097177185 0.021962887 0.36000001 4281814331
0.098619647 0.022023896 0.36100003 4282209089
0.099792175 0.022023896 0.36100003 4282473029
0.10096471 0.022023896 0.36100003 4281749306
0.10213724 0.022023896 0.36100003 4281880892
0.10302359 0.021962887 0.36000001 4282209857
0.10419287 0.021962887 0.36000001 4281618233
0.10536214 0.021962887 0.36000001 4281684026
0.10653143 0.021962887 0.36000001 4281223475
0.10770071 0.021962887 0.36000001 4281618233
0.10886999 0.021962887 0.36000001 4281750333
0.10973361 0.021901879 0.35900003 4282605382
0.11120855 0.021962887 0.36000001 4282868554
0.11237784 0.021962887 0.36000001 4283854936
0.11449333 0.02214591 0.36300001 4284776549
0.11567236 0.02214591 0.36300001 4284776549
0.11685138 0.02214591 0.36300001 4285302382
0.11835556 0.022206919 0.36400002 4285433714
0.11986624 0.022267926 0.36500001 4285433714
0.12105176 0.022267926 0.36500001 4285498991
0.12223727 0.022267926 0.36500001 4285564784
0.12342279 0.022267926 0.36500001 4285827441
0.12460832 0.022267926 0.36500001 4285629546
0.12579384 0.022267926 0.36500001 4285826671
0.12697937 0.022267926 0.36500001 4285893236
0.12816489 0.022267926 0.36500001 4285959029
0.066961378 0.023196824 0.36100003 4283722326
0.070674196 0.02326108 0.36200002 4280372014
0.071849972 0.02326108 0.36200002 4280176686
0.073025748 0.02326108 0.36200002 4280176940
0.074201524 0.02326108 0.36200002 4280111147
0.075169079 0.023196824 0.36100003 4279979561
0.076553077 0.02326108 0.36200002 4279913768
0.07708469 0.023068309 0.35900003 4279782182
0.078250729 0.023068309 0.35900003 4279453217
0.079195544 0.023004051 0.35800001 4279189791
0.080358319 0.023004051 0.35800001 4279058205
0.081521109 0.023004051 0.35800001 4279189791
0.082683891 0.023004051 0.35800001 4279189791
0.083846673 0.023004051 0.35800001 4279056924
0.085009463 0.023004051 0.35800001 4279384092
0.086172245 0.023004051 0.35800001 4280107045
0.087335028 0.023004051 0.35800001 4279778596
0.08874502 0.023068309 0.35900003 4279844389
0.089911051 0.023068309 0.35900003 4280172584
0.091077082 0.023068309 0.35900003 4280106791
0.09224312 0.023068309 0.35900003 4280829231
0.09366934 0.023132564 0.36000001 4281618485
0.094838627 0.023132564 0.36000001 4282144829
0.096007906 0.023132564 0.36000001 4282868039
0.097177185 0.023132564 0.36000001 4283920727
0.098346457 0.023132564 0.36000001 4283986522
0.099792175 0.023196824 0.36100003 4284644711
0.10096471 0.023196824 0.36100003 4285105262
0.10213724 0.023196824 0.36100003 4284842090
0.10302359 0.023132564 0.36000001 4284776297
0.10419287 0.023132564 0.36000001 4285236848
0.10536214 0.023132564 0.36000001 4284644711
0.10653143 0.023132564 0.36000001 4284907370
0.10770071 0.023132564 0.36000001 4285103979
0.10886999 0.023132564 0.36000001 4284709221
0.11003927 0.023132564 0.36000001 4285169772
0.11120855 0.023132564 0.36000001 4285366638
0.11237784 0.023132564 0.36000001 4285366892
0.11449333 0.023325335 0.36300001 4285498478
0.11567236 0.023325335 0.36300001 4285498478
0.11685138 0.023325335 0.36300001 4285695087
0.11835556 0.023389595 0.36400002 4285694833
0.11986624 0.02345385 0.36500001 4285760628
0.12105176 0.02345385 0.36500001 4285694833
0.12223727 0.02345385 0.36500001 4285760626
0.12342279 0.02345385 0.36500001 4285957491
0.12460832 0.02345385 0.36500001 4285891952
0.12579384 0.02345385 0.36500001 4286089331
0.12697937 0.02345385 0.36500001 4286220917
0.12816489 0.02345385 0.36500001 4286220917
0.069498412 0.024437254 0.36200002 4283328338
0.070674196 0.024437254 0.36200002 4283525717
0.071849972 0.024437254 0.36200002 4281882689
0.074201524 0.024437254 0.36200002 4280042022
0.0753773 0.024437254 0.36200002 4279516191
0.076764546 0.02450476 0.36300001 4279713570
0.079416759 0.024234736 0.35900003 4278990107
0.080358319 0.024167228 0.35800001 4279318049
0.081521109 0.024167228 0.35800001 4279581221
0.082683891 0.024167228 0.35800001 4279778346
0.083846673 0.024167228 0.35800001 4279844139
0.085009463 0.024167228 0.35800001 4279909162
0.086172245 0.024167228 0.35800001 4280171821
0.087578982 0.024234736 0.35900003 4280303407
0.08874502 0.024234736 0.35900003 4280369200
0.089911051 0.024234736 0.35900003 4280631604
0.091077082 0.024234736 0.35900003 4281749310
0.09224312 0.024234736 0.35900003 4283919705
0.09366934 0.024302242 0.36000001 4284182877
0.094838627 0.024302242 0.36000001 4284446049
0.096007906 0.024302242 0.36000001 4284511842
0.097177185 0.024302242 0.36000001 4284511842
0.098346457 0.024302242 0.36000001 4284577635
0.099792175 0.024369748 0.36100003 4284643430
0.10096471 0.024369748 0.36100003 4284709221
0.10213724 0.024369748 0.36100003 4284906087
0.10330977 0.024369748 0.36100003 4284971880
0.1044823 0.024369748 0.36100003 4285037673
0.10565482 0.024369748 0.36100003 4285235052
0.10682735 0.024369748 0.36100003 4285103466
0.10799988 0.024369748 0.36100003 4285497454
0.10917241 0.024369748 0.36100003 4285365868
0.11034494 0.024369748 0.36100003 4285563247
0.11151747 0.024369748 0.36100003 4285563247
0.11269 0.024369748 0.36100003 4285563247
0.11449333 0.02450476 0.36300001 4285563247
0.11567236 0.02450476 0.36300001 4285694833
0.11685138 0.02450476 0.36300001 4285694833
0.11835556 0.024572266 0.36400002 4285760628
0.11986624 0.024639772 0.36500001 4285826421
0.12105176 0.024639772 0.36500001 4285760628
0.12223727 0.024639772 0.36500001 4285760626
0.12342279 0.024639772 0.36500001 4285760626
0.12460832 0.024639772 0.36500001 4286023798
0.12579384 0.024639772 0.36500001 4285958259
0.12697937 0.024639772 0.36500001 4285958259
0.12816489 0.024639772 0.36500001 4286155124
0.095055945 0.014452141 0.35950866 4294967295
0.095055945 0.014452141 0.35950866 4294901760
0.095113307 0.013960913 0.35958219 4294901760
0.095170662 0.013469685 0.35965571 4294901760
0.095228024 0.012978458 0.35972923 4294901760
0.095285386 0.01248723 0.35980275 4294901760
0.095342748 0.011996002 0.35987628 4294901760
0.095400102 0.011504774 0.35994977 4294901760
0.095457464 0.011013547 0.36002329 4294901760
0.095514826 0.010522319 0.36009681 4294901760
0.095572181 0.010031091 0.36017033 4294901760
0.095629543 0.0095398631 0.36024386 4294901760
0.095686905 0.0090486351 0.36031738 4294901760
0.095744267 0.0085574072 0.3603909 4294901760
0.095801622 0.0080661802 0.36046442 4294901760
0.095858984 0.0075749522 0.36053795 4294901760
0.095916346 0.0070837238 0.36061144 4294901760
0.095973708 0.0065924963 0.36068496 4294901760
0.096031062 0.0061012683 0.36075848 4294901760
0.096088424 0.0056100404 0.36083201 4294901760
0.096145786 0.0051188134 0.36090553 4294901760
0.096203141 0.0046275854 0.36097905 4294901760
0.096260503 0.0041363584 0.36105257 4294901760
0.096317865 0.0036451295 0.3611261 4294901760
0.096375227 0.0031539015 0.36119962 4294901760
0.096432582 0.0026626745 0.36127314 4294901760
0.096489944 0.0021714466 0.36134666 4294901760
0.096547306 0.0016802195 0.36142015 4294901760
0.09660466 0.0011889907 0.36149368 4294901760
0.096662022 0.00069776364 0.3615672 4294901760
0.096719384 0.00020653568 0.36164072 4294901760
0.096776746 -0.0002846932 0.36171424 4294901760
0.096834101 -0.00077592023 0.36178777 4294901760
0.096891463 -0.0012671482 0.36186129 4294901760
0.096948825 -0.0017583761 0.36193481 4294901760
0.097006179 -0.0022496041 0.36200833 4294901760
0.097063541 -0.0027408302 0.36208183 4294901760
0.097120903 -0.00323206 0.36215535 4294901760
0.097178265 -0.0037232861 0.36222887 4294901760
0.09723562 -0.004214514 0.36230239 4294901760
0.097292982 -0.004705742 0.36237592 4294901760
0.097350344 -0.00519697 0.36244944 4294901760
0.097407706 -0.0056881979 0.36252296 4294901760
0.097465061 -0.006179424 0.36259648 4294901760
0.097522423 -0.0066706538 0.36267 4294901760
0.097579785 -0.0071618818 0.36274353 4294901760
0.097637139 -0.0076531079 0.36281705 4294901760
0.097694501 -0.0081443377 0.36289054 4294901760
0.097751863 -0.0086355638 0.36296406 4294901760
0.097809225 -0.0091267917 0.36303759 4294901760
0.09786658 -0.0096180197 0.36311111 4294901760
0.097923942 -0.010109248 0.36318463 4294901760
0.097981304 -0.010600476 0.36325815 4294901760
0.098038658 -0.011091702 0.36333168 4294901760
0.098096021 -0.01158293 0.3634052 4294901760
0.098153383 -0.012074159 0.36347872 4294901760
0.098210745 -0.012565387 0.36355221 4294901760
0.098268099 -0.013056614 0.36362574 4294901760
0.098325461 -0.013547841 0.36369926 4294901760
0.098382823 -0.014039069 0.36377278 4294901760
0.098440178 -0.014530296 0.3638463 4294901760
0.09849754 -0.015021527 0.36391982 4294901760
0.098554902 -0.015512753 0.36399335 4294901760
0.098612264 -0.016003981 0.36406687 4294901760
0.098669618 -0.016495209 0.36414039 4294901760
0.09872698 -0.016986437 0.36421391 4294901760
0.098784342 -0.017477661 0.36428744 4294901760
0.098841704 -0.017968893 0.36436093 4294901760
0.098899059 -0.018460121 0.36443445 4294901760
0.098956421 -0.018951349 0.36450797 4294901760
0.099013783 -0.019442577 0.3645815 4294901760
0.099071138 -0.019933801 0.36465502 4294901760
0.0991285 -0.020425029 0.36472854 4294901760
0.099185862 -0.020916261 0.36480206 4294901760
0.099243224 -0.021407489 0.36487558 4294901760
0.099300578 -0.021898713 0.36494911 4294901760
0.09935794 -0.022389941 0.3650226 4294901760
0.099415302 -0.022881169 0.36509612 4294901760
0.099472657 -0.023372397 0.36516964 4294901760
0.099530019 -0.023863625 0.36524317 4294901760
0.099587381 -0.024354853 0.36531669 4294901760
0.099644743 -0.024846081 0.36539021 4294901760
0.099702097 -0.025337309 0.36546373 4294901760
0.099759459 -0.025828537 0.36553726 4294901760
0.099816822 -0.026319765 0.36561078 4294901760
0.099874176 -0.026810989 0.3656843 4294901760
0.099931538 -0.02730222 0.36575782 4294901760
0.0999889 -0.027793448 0.36583132 4294901760
0.10004626 -0.028284676 0.36590484 4294901760
0.10010362 -0.028775904 0.36597836 4294901760
0.10016098 -0.029267129 0.36605188 4294901760
0.10021834 -0.029758357 0.3661254 4294901760
0.1002757 -0.030249588 0.36619893 4294901760
0.10033306 -0.030740816 0.36627245 4294901760
0.10039042 -0.03123204 0.36634597 4294901760
0.10044778 -0.031723268 0.36641949 4294901760
0.10050514 -0.032214496 0.36649299 4294901760
0.1005625 -0.032705724 0.36656651 4294901760
0.10061986 -0.033196956 0.36664003 4294901760
0.10067722 -0.03368818 0.36671355 4294901760
0.10073458 -0.034179408 0.36678708 4294901760
0.10079194 -0.034670636 0.3668606 4294901760
0.095055945 0.014452141 0.35950866 4278255360
0.095547244 0.014519135 0.35957298 4278255360
0.096038543 0.014586128 0.35963729 4278255360
0.096529841 0.014653123 0.3597016 4278255360
0.097021148 0.014720117 0.35976592 4278255360
0.097512446 0.014787111 0.35983023 4278255360
0.098003745 0.014854104 0.35989454 4278255360
0.098495044 0.014921098 0.35995886 4278255360
0.098986343 0.014988092 0.36002317 4278255360
0.099477641 0.015055086 0.36008748 4278255360
0.09996894 0.01512208 0.3601518 4278255360
0.10046024 0.015189074 0.36021611 4278255360
0.10095154 0.015256068 0.36028042 4278255360
0.10144284 0.015323061 0.36034477 4278255360
0.10193414 0.015390055 0.36040908 4278255360
0.10242544 0.01545705 0.36047339 4278255360
0.10291674 0.015524044 0.36053771 4278255360
0.10340804 0.015591037 0.36060202 4278255360
0.10389934 0.015658032 0.36066633 4278255360
0.10439064 0.015725026 0.36073065 4278255360
0.10488194 0.01579202 0.36079496 4278255360
0.10537324 0.015859013 0.36085927 4278255360
0.10586454 0.015926007 0.36092359 4278255360
0.10635584 0.015993001 0.3609879 4278255360
0.10684714 0.016059995 0.36105222 4278255360
0.10733844 0.016126988 0.36111653 4278255360
0.10782973 0.016193982 0.36118084 4278255360
0.10832104 0.016260976 0.36124516 4278255360
0.10881234 0.01632797 0.36130947 4278255360
0.10930364 0.016394965 0.36137378 4278255360
0.10979494 0.016461959 0.3614381 4278255360
0.11028624 0.016528953 0.36150241 4278255360
0.11077753 0.016595947 0.36156672 4278255360
0.11126883 0.01666294 0.36163104 4278255360
0.11176014 0.016729934 0.36169535 4278255360
0.11225143 0.016796928 0.36175966 4278255360
0.11274274 0.016863922 0.36182398 4278255360
0.11323404 0.016930915 0.36188829 4278255360
0.11372533 0.016997909 0.36195263 4278255360
0.11421663 0.017064903 0.36201695 4278255360
0.11470793 0.017131899 0.36208126 4278255360
0.11519923 0.017198892 0.36214557 4278255360
0.11569053 0.017265886 0.36220989 4278255360
0.11618184 0.01733288 0.3622742 4278255360
0.11667313 0.017399874 0.36233851 4278255360
0.11716443 0.017466867 0.36240283 4278255360
0.11765573 0.017533861 0.36246714 4278255360
0.11814703 0.017600855 0.36253145 4278255360
0.11863833 0.017667849 0.36259577 4278255360
0.11912963 0.017734844 0.36266008 4278255360
0.11962093 0.017801836 0.36272439 4278255360
0.12011223 0.017868832 0.36278871 4278255360
0.12060353 0.017935826 0.36285302 4278255360
0.12109483 0.018002819 0.36291733 4278255360
0.12158613 0.018069813 0.36298165 4278255360
0.12207743 0.018136807 0.36304596 4278255360
0.12256873 0.018203801 0.36311027 4278255360
0.12306003 0.018270794 0.36317459 4278255360
0.12355132 0.018337788 0.3632389 4278255360
0.12404263 0.018404782 0.36330321 4278255360
0.12453393 0.018471777 0.36336753 4278255360
0.12502523 0.018538769 0.36343184 4278255360
0.12551653 0.018605765 0.36349615 4278255360
0.12600783 0.018672759 0.3635605 4278255360
0.12649912 0.018739752 0.36362481 4278255360
0.12699042 0.018806746 0.36368912 4278255360
0.12748173 0.01887374 0.36375344 4278255360
0.12797302 0.018940734 0.36381775 4278255360
0.12846433 0.019007728 0.36388206 4278255360
0.12895563 0.019074721 0.36394638 4278255360
0.12944692 0.019141715 0.36401069 4278255360
0.12993822 0.019208709 0.36407501 4278255360
0.13042952 0.019275703 0.36413932 4278255360
0.13092083 0.019342698 0.36420363 4278255360
0.13141212 0.019409692 0.36426795 4278255360
0.13190342 0.019476686 0.36433226 4278255360
0.13239473 0.019543679 0.36439657 4278255360
0.13288602 0.019610673 0.36446089 4278255360
0.13337731 0.019677667 0.3645252 4278255360
0.13386862 0.019744661 0.36458951 4278255360
0.13435993 0.019811654 0.36465383 4278255360
0.13485122 0.019878648 0.36471814 4278255360
0.13534252 0.019945642 0.36478245 4278255360
0.13583381 0.020012636 0.36484677 4278255360
0.13632512 0.020079631 0.36491108 4278255360
0.13681641 0.020146625 0.36497539 4278255360
0.13730772 0.020213619 0.36503971 4278255360
0.13779902 0.020280613 0.36510402 4278255360
0.13829032 0.020347606 0.36516836 4278255360
0.13878162 0.0204146 0.36523268 4278255360
0.13927291 0.020481594 0.36529699 4278255360
0.13976422 0.020548588 0.3653613 4278255360
0.14025551 0.020615581 0.36542562 4278255360
0.14074682 0.020682577 0.36548993 4278255360
0.14123812 0.020749569 0.36555424 4278255360
0.14172941 0.020816565 0.36561856 4278255360
0.14222072 0.020883556 0.36568287 4278255360
0.14271203 0.020950552 0.36574718 4278255360
0.14320332 0.021017546 0.3658115 4278255360
0.14369461 0.02108454 0.36587581 4278255360
0.14418592 0.021151533 0.36594012 4278255360
0.095055945 0.014452141 0.35950866 4278190335
0.094988123 0.01451771 0.35999969 4278190335
0.094920307 0.014583278 0.36049071 4278190335
0.094852485 0.014648848 0.36098173 4278190335
0.094784662 0.014714417 0.36147276 4278190335
0.094716839 0.014779986 0.36196378 4278190335
0.094649024 0.014845555 0.36245477 4278190335
0.094581202 0.014911124 0.3629458 4278190335
0.094513379 0.014976693 0.36343682 4278190335
0.094445564 0.015042262 0.36392784 4278190335
0.094377741 0.015107831 0.36441886 4278190335
0.094309919 0.0151734 0.36490989 4278190335
0.094242096 0.015238969 0.36540091 4278190335
0.094174281 0.015304538 0.36589193 4278190335
0.094106458 0.015370107 0.36638296 4278190335
0.094038635 0.015435676 0.36687398 4278190335
0.09397082 0.015501245 0.367365 4278190335
0.093902998 0.015566814 0.367856 4278190335
0.093835175 0.015632384 0.36834702 4278190335
0.09376736 0.015697952 0.36883804 4278190335
0.093699537 0.015763521 0.36932907 4278190335
0.093631715 0.01582909 0.36982009 4278190335
0.093563892 0.015894659 0.37031111 4278190335
0.093496077 0.015960228 0.37080213 4278190335
0.093428254 0.016025797 0.37129316 4278190335
0.093360431 0.016091365 0.37178418 4278190335
0.093292616 0.016156936 0.3722752 4278190335
0.093224794 0.016222505 0.37276623 4278190335
0.093156971 0.016288074 0.37325722 4278190335
0.093089148 0.016353643 0.37374824 4278190335
0.093021333 0.016419211 0.37423927 4278190335
0.092953511 0.01648478 0.37473029 4278190335
0.092885688 0.016550349 0.37522131 4278190335
0.092817873 0.016615918 0.37571234 4278190335
0.09275005 0.016681487 0.37620336 4278190335
0.092682227 0.016747057 0.37669438 4278190335
0.092614405 0.016812626 0.3771854 4278190335
0.09254659 0.016878195 0.37767643 4278190335
0.092478767 0.016943764 0.37816745 4278190335
0.092410944 0.017009333 0.37865844 4278190335
0.092343129 0.017074902 0.37914947 4278190335
0.092275307 0.01714047 0.37964049 4278190335
0.092207484 0.017206039 0.38013151 4278190335
0.092139661 0.017271608 0.38062254 4278190335
0.092071846 0.017337177 0.38111356 4278190335
0.092004023 0.017402746 0.38160458 4278190335
0.091936201 0.017468316 0.38209561 4278190335
0.091868386 0.017533885 0.38258663 4278190335
0.091800563 0.017599454 0.38307765 4278190335
0.09173274 0.017665023 0.38356867 4278190335
0.091664925 0.017730592 0.38405967 4278190335
0.091597103 0.017796161 0.38455069 4278190335
0.09152928 0.017861729 0.38504171 4278190335
0.091461457 0.017927298 0.38553274 4278190335
0.091393642 0.017992869 0.38602376 4278190335
0.091325819 0.018058438 0.38651478 4278190335
0.091257997 0.018124007 0.38700581 4278190335
0.091190182 0.018189576 0.38749683 4278190335
0.091122359 0.018255144 0.38798785 4278190335
0.091054536 0.018320713 0.38847888 4278190335
0.090986714 0.018386282 0.3889699 4278190335
0.090918899 0.018451851 0.38946092 4278190335
0.090851076 0.01851742 0.38995191 4278190335
0.090783253 0.018582989 0.39044294 4278190335
0.090715438 0.018648557 0.39093396 4278190335
0.090647615 0.018714126 0.39142498 4278190335
0.090579793 0.018779697 0.39191601 4278190335
0.09051197 0.018845266 0.39240703 4278190335
0.090444155 0.018910835 0.39289805 4278190335
0.090376332 0.018976403 0.39338908 4278190335
0.09030851 0.019041972 0.3938801 4278190335
0.090240695 0.019107541 0.39437112 4278190335
0.090172872 0.01917311 0.39486215 4278190335
0.090105049 0.019238679 0.39535314 4278190335
0.090037227 0.019304249 0.39584416 4278190335
0.089969411 0.019369818 0.39633518 4278190335
0.089901589 0.019435387 0.39682621 4278190335
0.089833766 0.019500956 0.39731723 4278190335
0.089765951 0.019566525 0.39780825 4278190335
0.089698128 0.019632094 0.39829928 4278190335
0.089630306 0.019697662 0.3987903 4278190335
0.089562491 0.019763231 0.39928132 4278190335
0.089494668 0.0198288 0.39977235 4278190335
0.089426845 0.019894369 0.40026337 4278190335
0.089359023 0.019959938 0.40075436 4278190335
0.089291207 0.020025507 0.40124539 4278190335
0.089223385 0.020091077 0.40173641 4278190335
0.089155562 0.020156646 0.40222743 4278190335
0.08908774 0.020222215 0.40271845 4278190335
0.089019924 0.020287784 0.40320948 4278190335
0.088952102 0.020353353 0.4037005 4278190335
0.088884279 0.020418921 0.40419152 4278190335
0.088816464 0.02048449 0.40468255 4278190335
0.088748641 0.020550059 0.40517357 4278190335
0.088680819 0.02061563 0.40566456 4278190335
0.088613003 0.020681199 0.40615559 4278190335
0.088545181 0.020746768 0.40664661 4278190335
0.088477358 0.020812336 0.40713763 4278190335
0.088409536 0.020877905 0.40762866 4278190335
0.08834172 0.020943474 0.40811968 4278190335
0.088273898 0.021009043 0.4086107 4278190335
0.095055945 0.014452141 0.35950866 4294967295
0.095462866 0.014058727 0.35656255 4294967295
0.095869787 0.013665313 0.35361642 4294967295
0.096276715 0.013271898 0.35067031 4294967295
0.096683636 0.012878484 0.34772417 4294967295
0.097090557 0.01248507 0.34477806 4294967295
0.097497478 0.012091656 0.34183192 4294967295
0.097904406 0.011698242 0.33888581 4294967295
0.098311327 0.011304827 0.33593968 4294967295
0.098718248 0.010911413 0.33299357 4294967295
0.099125169 0.010518 0.33004743 4294967295
0.099532098 0.010124586 0.32710132 4294967295
0.099939018 0.0097311717 0.32415518 4294967295
0.10034594 0.0093377568 0.32120907 4294967295
0.10075286 0.0089443428 0.31826293 4294967295
0.10115978 0.0085509289 0.31531683 4294967295
0.10156671 0.008157515 0.31237069 4294967295
0.10197363 0.0077641006 0.30942458 4294967295
0.10238055 0.0073706862 0.30647844 4294967295
0.10278747 0.0069772727 0.30353233 4294967295
0.1031944 0.0065838583 0.30058619 4294967295
0.10360132 0.0061904443 0.29764009 4294967295
0.10400824 0.0057970304 0.29469395 4294967295
0.10441516 0.0054036155 0.29174784 4294967295
0.10482208 0.0050102016 0.28880173 4294967295
0.10522901 0.0046167877 0.28585559 4294967295
0.10563593 0.0042233737 0.28290945 4294967295
0.10604285 0.0038299588 0.27996334 4294967295
0.10644978 0.0034365449 0.27701724 4294967295
0.1068567 0.0030431319 0.2740711 4294967295
0.10726362 0.0026497161 0.27112496 4294967295
0.10767055 0.0022563031 0.26817885 4294967295
0.10807747 0.0018628892 0.26523274 4294967295
0.10848439 0.0014694743 0.2622866 4294967295
0.10889132 0.0010760603 0.25934049 4294967295
0.10929824 0.00068264641 0.25639436 4294967295
