# .PCD v0.7 - Point Cloud Data file format
VERSION 0.7
FIELDS x y z rgb
SIZE 4 4 4 4
TYPE F F F U
COUNT 1 1 1 1
WIDTH 1081
HEIGHT 1
VIEWPOINT 0 0 0 1 0 0 0
POINTS 1081
DATA ascii
0.04957477 0.029240981 0.324 4279443734
0.050627124 0.029240981 0.324 4279247123
0.051679473 0.029240981 0.324 4278922004
0.052731827 0.029240981 0.324 4278726675
0.05378418 0.029240981 0.324 4278530578
0.05483653 0.029240981 0.324 4278794517
0.055888884 0.029240981 0.324 4278663699
0.056941237 0.029240981 0.324 4278598419
0.057993591 0.029240981 0.324 4278533910
0.059045941 0.029240981 0.324 4278797595
0.060098294 0.029240981 0.324 4278797593
0.061150651 0.029240981 0.324 4278797593
0.062202998 0.029240981 0.324 4278797593
0.063255355 0.029240981 0.324 4279126558
0.064307705 0.029240981 0.324 4279126558
0.065360054 0.029240981 0.324 4279060765
0.066412412 0.029240981 0.324 4278929949
0.087729409 0.029331231 0.32500002 4279912744
0.088785 0.029331231 0.32500002 4279846951
0.089840598 0.029331231 0.32500002 4280766770
0.090896204 0.029331231 0.32500002 4281489979
0.037972834 0.031135181 0.333 4280365350
0.039171703 0.031228682 0.33400002 4280693801
0.040377058 0.031322181 0.33500001 4281022766
0.041588917 0.031415682 0.33600003 4280957739
0.042680245 0.031415682 0.33600003 4280365088
0.043901846 0.03150918 0.33700001 4279377682
0.045396984 0.031789675 0.34 4279311635
0.046638072 0.031883176 0.34100002 4279048465
0.047745645 0.031883176 0.34100002 4278982672
0.048853215 0.031883176 0.34100002 4279245842
0.047323558 0.030200193 0.32300001 4279509014
0.048372656 0.030200193 0.32300001 4279311635
0.049421765 0.030200193 0.32300001 4279443734
0.05047087 0.030200193 0.32300001 4279444502
0.051679473 0.03029369 0.324 4278790418
0.052731827 0.03029369 0.324 4278726162
0.05378418 0.03029369 0.324 4278793750
0.05483653 0.03029369 0.324 4278465039
0.055888884 0.03029369 0.324 4278662931
0.056941237 0.03029369 0.324 4278400527
0.057993591 0.03029369 0.324 4278467603
0.059045941 0.03029369 0.324 4278599189
0.060098294 0.03029369 0.324 4278533910
0.061150651 0.03029369 0.324 4278336531
0.062202998 0.03029369 0.324 4278468117
0.063255355 0.03029369 0.324 4278665494
0.064307705 0.03029369 0.324 4278731800
0.065360054 0.03029369 0.324 4278863386
0.066412412 0.03029369 0.324 4278929179
0.06725654 0.030200193 0.32300001 4279060765
0.068305649 0.030200193 0.32300001 4278863386
0.087729409 0.030387191 0.32500002 4279126047
0.088785 0.030387191 0.32500002 4279126047
0.089840598 0.030387191 0.32500002 4278994461
0.090896204 0.030387191 0.32500002 4279191840
0.091668874 0.03029369 0.324 4279257117
0.092721224 0.03029369 0.324 4279388703
0.037972834 0.032217134 0.333 4280694315
0.039171703 0.032313883 0.33400002 4280233764
0.040377058 0.032410629 0.33500001 4281154868
0.041588917 0.032507379 0.33600003 4281286706
0.04280727 0.032604124 0.33700001 4280167709
0.044032123 0.032700874 0.33800003 4279377682
0.045396984 0.032894369 0.34 4279376658
0.046638072 0.032991119 0.34100002 4279179279
0.047745645 0.032991119 0.34100002 4279179279
0.048853215 0.032991119 0.34100002 4279310865
0.049960785 0.032991119 0.34100002 4279442451
0.048372656 0.031249652 0.32300001 4279311635
0.049421765 0.031249652 0.32300001 4279641367
0.05047087 0.031249652 0.32300001 4279247123
0.051679473 0.031346399 0.324 4278921234
0.052731827 0.031346399 0.324 4278660369
0.05378418 0.031346399 0.324 4278727187
0.05483653 0.031346399 0.324 4278661648
0.055888884 0.031346399 0.324 4278662931
0.056941237 0.031346399 0.324 4278728724
0.057993591 0.031346399 0.324 4278598421
0.059045941 0.031346399 0.324 4278598421
0.060098294 0.031346399 0.324 4278467603
0.061150651 0.031346399 0.324 4278533396
0.062202998 0.031346399 0.324 4278533396
0.063255355 0.031346399 0.324 4278664982
0.064307705 0.031346399 0.324 4278533396
0.065360054 0.031346399 0.324 4278533396
0.066207439 0.031249652 0.32300001 4278402324
0.06725654 0.031249652 0.32300001 4278533910
0.068305649 0.031249652 0.32300001 4278665494
0.06935475 0.031249652 0.32300001 4278797080
0.070403859 0.031249652 0.32300001 4278731287
0.071674176 0.031346399 0.324 4278731287
0.072726525 0.031346399 0.324 4278600214
0.073778875 0.031346399 0.324 4278666007
0.0750622 0.031443149 0.32500002 4278731800
0.076117791 0.031443149 0.32500002 4278731802
0.077173397 0.031443149 0.32500002 4278666007
0.086673804 0.031443149 0.32500002 4279060767
0.087729409 0.031443149 0.32500002 4279126560
0.088785 0.031443149 0.32500002 4279060767
0.089840598 0.031443149 0.32500002 4278929181
0.090616517 0.031346399 0.324 4278797593
0.091668874 0.031346399 0.324 4278929179
0.092721224 0.031346399 0.324 4278929179
0.093773581 0.031346399 0.324 4278863386
0.037972834 0.033299085 0.333 4280167971
0.039171703 0.033399083 0.33400002 4281154866
0.040377058 0.033499077 0.33500001 4281023280
0.041712694 0.033699073 0.33700001 4281286452
0.042934295 0.033799071 0.33800003 4280232737
0.044162393 0.033899069 0.33900002 4279311635
0.045530509 0.034099061 0.34100002 4279376658
0.046638072 0.034099061 0.34100002 4279376658
0.048025675 0.034299057 0.34300002 4279047693
0.049139742 0.034299057 0.34300002 4279376658
0.050253808 0.034299057 0.34300002 4279180049
0.051367871 0.034299057 0.34300002 4279245844
0.049421765 0.032299113 0.32300001 4279443988
0.05047087 0.032299113 0.32300001 4279247121
0.051519971 0.032299113 0.32300001 4278790672
0.052731827 0.032399107 0.324 4278726162
0.05378418 0.032399107 0.324 4278858773
0.05483653 0.032399107 0.324 4278661648
0.055888884 0.032399107 0.324 4278728724
0.056941237 0.032399107 0.324 4278662931
0.057993591 0.032399107 0.324 4278663701
0.059045941 0.032399107 0.324 4278466835
0.060098294 0.032399107 0.324 4278335247
0.060961917 0.032299113 0.32300001 4278335247
0.062011018 0.032299113 0.32300001 4278401810
0.06306012 0.032299113 0.32300001 4278533396
0.064109229 0.032299113 0.32300001 4278467605
0.06515833 0.032299113 0.32300001 4278599191
0.066207439 0.032299113 0.32300001 4278533398
0.06725654 0.032299113 0.32300001 4278467605
0.068305649 0.032299113 0.32300001 4278336017
0.06935475 0.032299113 0.32300001 4278336017
0.070403859 0.032299113 0.32300001 4278533396
0.071674176 0.032399107 0.324 4278204431
0.072726525 0.032399107 0.324 4278532115
0.073778875 0.032399107 0.324 4278532628
0.0750622 0.032499105 0.32500002 4278468119
0.076117791 0.032499105 0.32500002 4278402326
0.077173397 0.032499105 0.32500002 4278468117
0.078228995 0.032499105 0.32500002 4278533910
0.085618205 0.032499105 0.32500002 4278665496
0.086673804 0.032499105 0.32500002 4278797080
0.087729409 0.032499105 0.32500002 4278665494
0.088785 0.032499105 0.32500002 4278862873
0.089840598 0.032499105 0.32500002 4278994459
0.090616517 0.032399107 0.324 4279126045
0.091668874 0.032399107 0.324 4278928666
0.092721224 0.032399107 0.324 4278797080
0.093773581 0.032399107 0.324 4278994459
0.036669683 0.034174543 0.33100003 4281616954
0.037972834 0.034381032 0.333 4280167971
0.039171703 0.034484282 0.33400002 4280562215
0.04049759 0.034690775 0.33600003 4280891694
0.041712694 0.034794021 0.33700001 4280957487
0.042934295 0.034897268 0.33800003 4280232737
0.044292662 0.035103757 0.34 4279311637
0.045530509 0.035207007 0.34100002 4279376658
0.046774838 0.03531025 0.34200001 4279376658
0.048025675 0.0354135 0.34300002 4278981900
0.049139742 0.0354135 0.34300002 4279574037
0.050253808 0.0354135 0.34300002 4279443221
0.051367871 0.0354135 0.34300002 4279377428
0.049421765 0.033348572 0.32300001 4279312916
0.05047087 0.033348572 0.32300001 4279313684
0.051519971 0.033348572 0.32300001 4278856465
0.052569076 0.033348572 0.32300001 4278791955
0.05378418 0.033451818 0.324 4278727441
0.05483653 0.033451818 0.324 4278595855
0.055888884 0.033451818 0.324 4278728211
0.056941237 0.033451818 0.324 4278794517
0.057993591 0.033451818 0.324 4278729494
0.058863703 0.033348572 0.32300001 4278597908
0.059912808 0.033348572 0.32300001 4278664214
0.060961917 0.033348572 0.32300001 4278466835
0.062011018 0.033348572 0.32300001 4278336019
0.06306012 0.033348572 0.32300001 4278401812
0.064109229 0.033348572 0.32300001 4278467605
0.06515833 0.033348572 0.32300001 4278467605
0.066207439 0.033348572 0.32300001 4278467605
0.06725654 0.033348572 0.32300001 4278599191
0.068305649 0.033348572 0.32300001 4278401812
0.06935475 0.033348572 0.32300001 4278598421
0.070403859 0.033348572 0.32300001 4278597654
0.071674176 0.033451818 0.324 4278199817
0.072726525 0.033451818 0.324 4279252506
0.073778875 0.033451818 0.324 4278397710
0.0750622 0.033555064 0.32500002 4278598421
0.076117791 0.033555064 0.32500002 4278532628
0.077173397 0.033555064 0.32500002 4278598419
0.078228995 0.033555064 0.32500002 4278532626
0.036780465 0.035356492 0.33200002 4280234016
0.037972834 0.035462983 0.333 4280298530
0.039288979 0.035675976 0.33500001 4280561702
0.04049759 0.035782471 0.33600003 4280891694
0.041712694 0.035888966 0.33700001 4281418038
0.042934295 0.035995465 0.33800003 4279706393
0.044292662 0.036208451 0.34 4279245844
0.045530509 0.036314949 0.34100002 4279442453
0.046774838 0.036421444 0.34200001 4279508244
0.048025675 0.036527943 0.34300002 4279179279
0.049139742 0.036527943 0.34300002 4279772186
0.050253808 0.036527943 0.34300002 4279706393
0.048372656 0.03439803 0.32300001 4279443221
0.049421765 0.03439803 0.32300001 4279116305
0.05047087 0.03439803 0.32300001 4279116816
0.051519971 0.03439803 0.32300001 4278988049
0.052569076 0.03439803 0.32300001 4278857746
0.05378418 0.034504525 0.324 4278792720
0.05483653 0.034504525 0.324 4278661648
0.055888884 0.034504525 0.324 4278596625
0.056941237 0.034504525 0.324 4278728724
0.057814602 0.03439803 0.32300001 4278664214
0.058863703 0.03439803 0.32300001 4278532628
0.059912808 0.03439803 0.32300001 4278598421
0.060961917 0.03439803 0.32300001 4278598421
0.062011018 0.03439803 0.32300001 4278532628
0.06306012 0.03439803 0.32300001 4278466835
0.064109229 0.03439803 0.32300001 4278466835
0.06515833 0.03439803 0.32300001 4278664214
0.066207439 0.03439803 0.32300001 4278598421
0.06725654 0.03439803 0.32300001 4278598421
0.068305649 0.03439803 0.32300001 4278664214
0.06935475 0.03439803 0.32300001 4278466835
0.070403859 0.03439803 0.32300001 4278991642
0.071674176 0.034504525 0.324 4278198278
0.072726525 0.034504525 0.324 4278196740
0.073778875 0.034504525 0.324 4279121179
0.0750622 0.034611024 0.32500002 4278663447
0.076117791 0.034611024 0.32500002 4278400529
0.077173397 0.034611024 0.32500002 4278663701
0.078228995 0.034611024 0.32500002 4278400529
0.079528548 0.034717515 0.32600001 4278532115
0.080587395 0.034717515 0.32600001 4278597908
0.081646241 0.034717515 0.32600001 4278729492
0.086408526 0.034930509 0.32800001 4278729490
0.087473869 0.034930509 0.32800001 4278795283
0.088539213 0.034930509 0.32800001 4278598419
0.089604549 0.034930509 0.32800001 4278664212
0.0906699 0.034930509 0.32800001 4278203661
0.092014931 0.035037003 0.32900003 4278730005
0.093083523 0.035037003 0.32900003 4278598419
0.094152115 0.035037003 0.32900003 4278664212
0.095220707 0.035037003 0.32900003 4278795800
0.096289292 0.035037003 0.32900003 4278795800
0.097357891 0.035037003 0.32900003 4278861076
0.098725647 0.035143498 0.33000001 4278795283
0.099797487 0.035143498 0.33000001 4278598417
0.036780465 0.036435191 0.33200002 4280496422
0.037972834 0.036544934 0.333 4280758311
0.039288979 0.036764424 0.33500001 4280890667
0.04049759 0.036874171 0.33600003 4281418038
0.041712694 0.036983915 0.33700001 4281023280
0.042934295 0.037093662 0.33800003 4279968795
0.044292662 0.037313148 0.34 4279573524
0.045530509 0.037422892 0.34100002 4279442453
0.046774838 0.037532635 0.34200001 4279442451
0.048025675 0.037642382 0.34300002 4279310865
0.049139742 0.037642382 0.34300002 4279311635
0.050253808 0.037642382 0.34300002 4279838492
0.048372656 0.035447489 0.32300001 4279312148
0.049421765 0.035447489 0.32300001 4278984719
0.05047087 0.035447489 0.32300001 4278986000
0.051519971 0.035447489 0.32300001 4278856978
0.052569076 0.035447489 0.32300001 4278791955
0.053618181 0.035447489 0.32300001 4278726927
0.05483653 0.035557233 0.324 4278727441
0.055888884 0.035557233 0.324 4278794517
0.056765497 0.035447489 0.32300001 4278860310
0.057814602 0.035447489 0.32300001 4278598421
0.058863703 0.035447489 0.32300001 4278335249
0.059912808 0.035447489 0.32300001 4278466835
0.060961917 0.035447489 0.32300001 4278532628
0.062011018 0.035447489 0.32300001 4278664214
0.06306012 0.035447489 0.32300001 4278598419
0.064109229 0.035447489 0.32300001 4278532626
0.06515833 0.035447489 0.32300001 4278598419
0.066207439 0.035447489 0.32300001 4278532626
0.06725654 0.035447489 0.32300001 4278664212
0.068305649 0.035447489 0.32300001 4278598419
0.06935475 0.035447489 0.32300001 4278664212
0.070621818 0.035557233 0.324 4278662931
0.071674176 0.035557233 0.324 4278398222
0.072726525 0.035557233 0.324 4279581471
0.073778875 0.035557233 0.324 4278793750
0.0750622 0.03566698 0.32500002 4278727957
0.076117791 0.03566698 0.32500002 4278198275
0.077173397 0.03566698 0.32500002 4278194944
0.078469701 0.035776723 0.32600001 4278194945
0.079528548 0.035776723 0.32600001 4278196742
0.080587395 0.035776723 0.32600001 4278195971
0.081896693 0.03588647 0.32700002 4278196740
0.082958788 0.03588647 0.32700002 4278593806
0.084277831 0.035996214 0.32800001 4278792466
0.085343175 0.035996214 0.32800001 4278990613
0.086408526 0.035996214 0.32800001 4278595855
0.087473869 0.035996214 0.32800001 4278727441
0.088539213 0.035996214 0.32800001 4278728724
0.08987774 0.036105961 0.32900003 4278728724
0.090946332 0.036105961 0.32900003 4278662931
0.092014931 0.036105961 0.32900003 4278728724
0.093083523 0.036105961 0.32900003 4278728724
0.094152115 0.036105961 0.32900003 4278728724
0.095510133 0.036215704 0.33000001 4278926103
0.096581966 0.036215704 0.33000001 4278926103
0.097653806 0.036215704 0.33000001 4278728722
0.098725647 0.036215704 0.33000001 4278795285
0.099797487 0.036215704 0.33000001 4278729492
0.101175 0.036325447 0.33100003 4278663699
0.10225009 0.036325447 0.33100003 4278729492
0.10363734 0.036435191 0.33200002 4278663699
0.10471567 0.036435191 0.33200002 4278663699
0.10579401 0.036435191 0.33200002 4278729492
0.10719424 0.036544934 0.333 4278730003
0.10827583 0.036544934 0.333 4278795796
0.10935742 0.036544934 0.333 4278598419
0.110439 0.036544934 0.333 4278664210
0.11185548 0.036654681 0.33400002 4278730003
0.035487056 0.037287906 0.33000001 4280234536
0.036780465 0.037513893 0.33200002 4280496424
0.037972834 0.037626885 0.333 4280561702
0.039171703 0.03773988 0.33400002 4280562215
0.04049759 0.037965868 0.33600003 4281352245
0.041712694 0.038078863 0.33700001 4281220399
0.042934295 0.038191859 0.33800003 4279836696
0.044292662 0.038417842 0.34 4279573524
0.045664027 0.03864383 0.34200001 4279705110
0.046774838 0.03864383 0.34200001 4279574037
0.048025675 0.038756825 0.34300002 4279442451
0.049139742 0.038756825 0.34300002 4279442451
0.050253808 0.038756825 0.34300002 4279837979
0.048372656 0.036496952 0.32300001 4279575320
0.049421765 0.036496952 0.32300001 4279182096
0.05047087 0.036496952 0.32300001 4278920720
0.051519971 0.036496952 0.32300001 4278791185
0.052569076 0.036496952 0.32300001 4279055638
0.053618181 0.036496952 0.32300001 4278727187
0.054667283 0.036496952 0.32300001 4278859027
0.055716392 0.036496952 0.32300001 4278728724
0.056765497 0.036496952 0.32300001 4278729494
0.057814602 0.036496952 0.32300001 4278466835
0.058863703 0.036496952 0.32300001 4278532628
0.059912808 0.036496952 0.32300001 4278598421
0.060961917 0.036496952 0.32300001 4278598421
0.062011018 0.036496952 0.32300001 4278466833
0.06306012 0.036496952 0.32300001 4278664212
0.064109229 0.036496952 0.32300001 4278598419
0.06515833 0.036496952 0.32300001 4278664212
0.066207439 0.036496952 0.32300001 4278598419
0.06725654 0.036496952 0.32300001 4278730005
0.068305649 0.036496952 0.32300001 4278598419
0.06935475 0.036496952 0.32300001 4278532626
0.070621818 0.036609944 0.324 4278200585
0.071674176 0.036609944 0.324 4278196226
0.072726525 0.036609944 0.324 4278196480
0.073778875 0.036609944 0.324 4278990359
0.0750622 0.036722939 0.32500002 4278198791
0.076117791 0.036722939 0.32500002 4278195459
0.077173397 0.036722939 0.32500002 4278457093
0.078469701 0.036835931 0.32600001 4278522119
0.079528548 0.036835931 0.32600001 4278522121
0.080587395 0.036835931 0.32600001 4278391048
0.081896693 0.036948927 0.32700002 4278456841
0.082958788 0.036948927 0.32700002 4278391048
0.084277831 0.037061919 0.32800001 4278325767
0.085343175 0.037061919 0.32800001 4278325767
0.086408526 0.037061919 0.32800001 4278195205
0.087473869 0.037061919 0.32800001 4278195205
0.088809155 0.037174914 0.32900003 4278195974
0.08987774 0.037174914 0.32900003 4278922517
0.090946332 0.037174914 0.32900003 4278198019
0.092294604 0.037287906 0.33000001 4278197253
0.093366444 0.037287906 0.33000001 4278194944
0.094438292 0.037287906 0.33000001 4278198535
0.095510133 0.037287906 0.33000001 4278198278
0.096581966 0.037287906 0.33000001 4278462220
0.097949728 0.037400901 0.33100003 4279186713
0.099024817 0.037400901 0.33100003 4279121431
0.10009991 0.037400901 0.33100003 4278661394
0.10148066 0.037513893 0.33200002 4278398476
0.102559 0.037513893 0.33200002 4278859027
0.10363734 0.037513893 0.33200002 4278990613
0.10503107 0.037626885 0.333 4278990613
0.10611266 0.037626885 0.333 4278596625
0.10719424 0.037626885 0.333 4278400527
0.10827583 0.037626885 0.333 4278532113
0.10968582 0.03773988 0.33400002 4278663699
0.11077066 0.03773988 0.33400002 4278597904
0.11219037 0.037852872 0.33500001 4278730003
0.1136166 0.037965868 0.33600003 4278664212
0.12231036 0.03864383 0.34200001 4278796050
0.034310929 0.038243867 0.32900003 4280695087
0.035594594 0.038476355 0.33100003 4280693803
0.036780465 0.038592596 0.33200002 4280496424
0.037972834 0.038708836 0.333 4280562217
0.039171703 0.03882508 0.33400002 4281154352
0.040377058 0.038941324 0.33500001 4281089327
0.041588917 0.039057568 0.33600003 4280233504
0.04280727 0.039173808 0.33700001 4279836950
0.044292662 0.039522536 0.34 4279705364
0.045530509 0.03963878 0.34100002 4279705364
0.046774838 0.03975502 0.34200001 4279639830
0.048025675 0.039871268 0.34300002 4279639830
0.049139742 0.039871268 0.34300002 4279639830
0.050253808 0.039871268 0.34300002 4279639830
0.048372656 0.037546411 0.32300001 4280101405
0.049421765 0.037546411 0.32300001 4279116816
0.05047087 0.037546411 0.32300001 4279249172
0.051519971 0.037546411 0.32300001 4278922771
0.052569076 0.037546411 0.32300001 4279120918
0.053618181 0.037546411 0.32300001 4278859027
0.054667283 0.037546411 0.32300001 4278727441
0.055716392 0.037546411 0.32300001 4278662931
0.056765497 0.037546411 0.32300001 4278663701
0.057814602 0.037546411 0.32300001 4278598421
0.058863703 0.037546411 0.32300001 4278466835
0.059912808 0.037546411 0.32300001 4278532628
0.060961917 0.037546411 0.32300001 4278466835
0.062011018 0.037546411 0.32300001 4278532626
0.06306012 0.037546411 0.32300001 4278598419
0.064109229 0.037546411 0.32300001 4278598419
0.06515833 0.037546411 0.32300001 4278466833
0.066207439 0.037546411 0.32300001 4278598421
0.06725654 0.037546411 0.32300001 4278664214
0.068305649 0.037546411 0.32300001 4278664214
0.06935475 0.037546411 0.32300001 4278598421
0.070621818 0.037662651 0.324 4278859027
0.071674176 0.037662651 0.324 4278393863
0.072726525 0.037662651 0.324 4279318299
0.073778875 0.037662651 0.324 4278858773
0.0750622 0.037778895 0.32500002 4278194688
0.076117791 0.037778895 0.32500002 4278457091
0.077173397 0.037778895 0.32500002 4278522119
0.078469701 0.037895139 0.32600001 4278522121
0.079528548 0.037895139 0.32600001 4278652937
0.080834597 0.038011383 0.32700002 4278718730
0.081896693 0.038011383 0.32700002 4278652937
0.083212487 0.038127623 0.32800001 4278850316
0.084277831 0.038127623 0.32800001 4278652937
0.085343175 0.038127623 0.32800001 4278718730
0.086671971 0.038243867 0.32900003 4278587914
0.087740563 0.038243867 0.32900003 4278522121
0.088809155 0.038243867 0.32900003 4278325767
0.08987774 0.038243867 0.32900003 4279381785
0.091222763 0.038360108 0.33000001 4279055125
0.092294604 0.038360108 0.33000001 4279055125
0.093366444 0.038360108 0.33000001 4278857748
0.094724469 0.038476355 0.33100003 4279252506
0.095799558 0.038476355 0.33100003 4279383322
0.096874639 0.038476355 0.33100003 4279448602
0.097949728 0.038476355 0.33100003 4279118867
0.099323988 0.038592596 0.33200002 4279052306
0.10040233 0.038592596 0.33200002 4278394376
0.10148066 0.038592596 0.33200002 4278263044
0.10286791 0.038708836 0.333 4278193920
0.10394949 0.038708836 0.333 4278194944
0.10503107 0.038708836 0.333 4278262277
0.10611266 0.038708836 0.333 4278195969
0.10751615 0.03882508 0.33400002 4278195200
0.10860099 0.03882508 0.33400002 4278196224
0.11001422 0.038941324 0.33500001 4278196224
0.1111023 0.038941324 0.33500001 4278197765
0.11252528 0.039057568 0.33600003 4278593806
0.11395475 0.039173808 0.33700001 4278726162
0.11573211 0.039406296 0.33900002 4278990099
0.11717782 0.039522536 0.34 4278990099
0.11863004 0.03963878 0.34100002 4278925590
0.12008874 0.03975502 0.34200001 4278597906
0.12119956 0.03975502 0.34200001 4278598417
0.12231036 0.03975502 0.34200001 4278796050
0.12378207 0.039871268 0.34300002 4278598671
0.12489614 0.039871268 0.34300002 4278730257
0.12601019 0.039871268 0.34300002 4278796050
0.033141293 0.039193328 0.32800001 4280957489
0.034415215 0.039432313 0.33000001 4280694317
0.035594594 0.039551806 0.33100003 4280562478
0.036780465 0.039671298 0.33200002 4280496685
0.037972834 0.039790787 0.333 4281154354
0.039171703 0.039910283 0.33400002 4281022768
0.040256534 0.039910283 0.33400002 4281023280
0.041465141 0.040029772 0.33500001 4280561956
0.04255322 0.040029772 0.33500001 4280165145
0.044162393 0.040507741 0.33900002 4279967766
0.045530509 0.040746726 0.34100002 4279705364
0.046774838 0.040866215 0.34200001 4279705364
0.048025675 0.040985707 0.34300002 4279574291
0.049139742 0.040985707 0.34300002 4279903256
0.050253808 0.040985707 0.34300002 4280298014
0.048372656 0.03859587 0.32300001 4280957223
0.049421765 0.03859587 0.32300001 4279315219
0.05047087 0.03859587 0.32300001 4279053074
0.051519971 0.03859587 0.32300001 4278988564
0.052569076 0.03859587 0.32300001 4278989845
0.053618181 0.03859587 0.32300001 4278726927
0.054667283 0.03859587 0.32300001 4278858513
0.055716392 0.03859587 0.32300001 4278794004
0.056765497 0.03859587 0.32300001 4278663699
0.057814602 0.03859587 0.32300001 4278335247
0.058863703 0.03859587 0.32300001 4278598419
0.059912808 0.03859587 0.32300001 4278466833
0.060961917 0.03859587 0.32300001 4278598419
0.062011018 0.03859587 0.32300001 4278598419
0.06306012 0.03859587 0.32300001 4278598419
0.064109229 0.03859587 0.32300001 4278664212
0.06515833 0.03859587 0.32300001 4278598419
0.066207439 0.03859587 0.32300001 4278730007
0.06725654 0.03859587 0.32300001 4278466835
0.068305649 0.03859587 0.32300001 4278466835
0.069569468 0.038715359 0.324 4278532628
0.070621818 0.038715359 0.324 4279056152
0.071674176 0.038715359 0.324 4278195200
0.072726525 0.038715359 0.324 4278924566
0.073778875 0.038715359 0.324 4278530578
0.0750622 0.038834855 0.32500002 4278458375
0.076117791 0.038834855 0.32500002 4278983437
0.077173397 0.038834855 0.32500002 4278193667
0.078469701 0.038954344 0.32600001 4279049490
0.079528548 0.038954344 0.32600001 4278918674
0.080834597 0.03907384 0.32700002 4279313432
0.081896693 0.03907384 0.32700002 4279050260
0.083212487 0.039193328 0.32800001 4279511324
0.084277831 0.039193328 0.32800001 4278984467
0.085603371 0.039312821 0.32900003 4279114769
0.086671971 0.039312821 0.32900003 4278785804
0.087740563 0.039312821 0.32900003 4278917390
0.089079089 0.039432313 0.33000001 4278523146
0.090150923 0.039432313 0.33000001 4279579166
0.091222763 0.039432313 0.33000001 4278860310
0.092574291 0.039551806 0.33100003 4278794517
0.09364938 0.039551806 0.33100003 4278859543
0.094724469 0.039551806 0.33100003 4278793750
0.096088983 0.039671298 0.33200002 4278793750
0.097167313 0.039671298 0.33200002 4278859543
0.098245651 0.039671298 0.33200002 4278924566
0.099323988 0.039671298 0.33200002 4279056406
0.10070474 0.039790787 0.333 4279056406
0.10178632 0.039790787 0.333 4278727441
0.10286791 0.039790787 0.333 4278924820
0.10426166 0.039910283 0.33400002 4279056152
0.10534649 0.039910283 0.33400002 4278989845
0.10643132 0.039910283 0.33400002 4279121431
0.10783806 0.040029772 0.33500001 4279187224
0.10892613 0.040029772 0.33500001 4279055125
0.11001422 0.040029772 0.33500001 4279119635
0.11143395 0.040149264 0.33600003 4279579416
0.11286017 0.040268756 0.33700001 4279184658
0.1142929 0.040388249 0.33800003 4278921486
0.1160735 0.04062723 0.34 4279184660
0.11752246 0.040746726 0.34100002 4278329351
0.11863004 0.040746726 0.34100002 4278592523
0.12008874 0.040866215 0.34200001 4278196228
0.12119956 0.040866215 0.34200001 4278531343
0.12266801 0.040985707 0.34300002 4278663697
0.12378207 0.040985707 0.34300002 4278729490
0.12489614 0.040985707 0.34300002 4278729490
0.12637757 0.0411052 0.34400001 4278861330
0.12786552 0.041224692 0.34500003 4278861330
0.027729772 0.040136296 0.32700002 4282075704
0.031010604 0.040259033 0.32800001 4281878841
0.033242337 0.040381778 0.32900003 4281879613
0.03905442 0.040872738 0.333 4281812796
0.040136002 0.040872738 0.333 4281483317
0.041217584 0.040872738 0.333 4279969565
0.04229917 0.040872738 0.333 4280100122
0.044162393 0.041609187 0.33900002 4280100122
0.045530509 0.041854668 0.34100002 4279837463
0.046774838 0.041977406 0.34200001 4279771670
0.048025675 0.04210015 0.34300002 4279771670
0.049139742 0.04210015 0.34300002 4279969049
0.050253808 0.04210015 0.34300002 4280298780
0.048372656 0.039645329 0.32300001 4281484335
0.049421765 0.039645329 0.32300001 4279184146
0.05047087 0.039645329 0.32300001 4279053844
0.051519971 0.039645329 0.32300001 4278923539
0.052569076 0.039645329 0.32300001 4278989845
0.053618181 0.039645329 0.32300001 4278661648
0.054667283 0.039645329 0.32300001 4278859025
0.055716392 0.039645329 0.32300001 4278531343
0.056765497 0.039645329 0.32300001 4278729492
0.057814602 0.039645329 0.32300001 4278663699
0.058863703 0.039645329 0.32300001 4278532626
0.059912808 0.039645329 0.32300001 4278532626
0.060961917 0.039645329 0.32300001 4278335247
0.062011018 0.039645329 0.32300001 4278598419
0.06306012 0.039645329 0.32300001 4278664212
0.064109229 0.039645329 0.32300001 4278466833
0.06515833 0.039645329 0.32300001 4278532626
0.066207439 0.039645329 0.32300001 4278598421
0.06725654 0.039645329 0.32300001 4278664214
0.068517119 0.03976807 0.324 4278729494
0.069569468 0.03976807 0.324 4278532115
0.070621818 0.03976807 0.324 4279581471
0.071674176 0.03976807 0.324 4278262792
0.072726525 0.03976807 0.324 4278727957
0.073778875 0.03976807 0.324 4278794263
0.0750622 0.039890811 0.32500002 4278392584
0.076117791 0.039890811 0.32500002 4279181330
0.077410847 0.040013552 0.32600001 4279117590
0.078469701 0.040013552 0.32600001 4278328074
0.079772502 0.040136296 0.32700002 4278196488
0.080834597 0.040136296 0.32700002 4278986002
0.082147136 0.040259033 0.32800001 4278194690
0.083212487 0.040259033 0.32800001 4278723345
0.084277831 0.040259033 0.32800001 4278194950
0.085603371 0.040381778 0.32900003 4278458123
0.086671971 0.040381778 0.32900003 4278853648
0.088007249 0.040504515 0.33000001 4278589963
0.089079089 0.040504515 0.33000001 4278194176
0.090150923 0.040504515 0.33000001 4279120920
0.091499202 0.04062726 0.33100003 4278400275
0.092574291 0.04062726 0.33100003 4278198016
0.09364938 0.04062726 0.33100003 4278458890
0.095010646 0.040750001 0.33200002 4278328074
0.096088983 0.040750001 0.33200002 4279515678
0.097167313 0.040750001 0.33200002 4278197760
0.098541565 0.040872738 0.333 4278198017
0.099623151 0.040872738 0.333 4278791953
0.10070474 0.040872738 0.333 4278595855
0.10209199 0.040995482 0.33400002 4278198528
0.10317682 0.040995482 0.33400002 4278199301
0.10426166 0.040995482 0.33400002 4278924820
0.10566189 0.041118219 0.33500001 4278924820
0.10674997 0.041118219 0.33500001 4278794004
0.10783806 0.041118219 0.33500001 4278794517
0.10925129 0.041240964 0.33600003 4278794517
0.11034262 0.041240964 0.33600003 4278990613
0.1117656 0.041363701 0.33700001 4279122199
0.11319507 0.041486446 0.33800003 4279121685
0.11463103 0.041609187 0.33900002 4279121685
0.1160735 0.041731924 0.34 4279121685
0.11752246 0.041854668 0.34100002 4279121685
0.11897792 0.041977406 0.34200001 4279317527
0.12008874 0.041977406 0.34200001 4278194176
0.12155395 0.04210015 0.34300002 4278596623
0.12266801 0.04210015 0.34300002 4278860306
0.12378207 0.04210015 0.34300002 4278795283
0.12526026 0.042222891 0.34400001 4278597904
0.12637757 0.042222891 0.34400001 4278663697
0.12786552 0.042345632 0.34500003 4278729490
0.034519505 0.041702714 0.33100003 4285433979
0.035702128 0.041828703 0.33200002 4285696636
0.036669683 0.041702714 0.33100003 4285828222
0.037744772 0.041702714 0.33100003 4285236598
0.03989495 0.041702714 0.33100003 4281681980
0.040970035 0.041702714 0.33100003 4280168225
0.042045124 0.041702714 0.33100003 4279903256
0.044162393 0.042710632 0.33900002 4280034329
0.045530509 0.042962614 0.34100002 4279968282
0.046774838 0.043088604 0.34200001 4279968536
0.048025675 0.043214593 0.34300002 4280100122
0.049139742 0.043214593 0.34300002 4279968536
0.050253808 0.043214593 0.34300002 4280561952
0.048522417 0.040820781 0.324 4281156140
0.04957477 0.040820781 0.324 4279382039
0.050627124 0.040820781 0.324 4279053844
0.051679473 0.040820781 0.324 4279317527
0.052569076 0.040694792 0.32300001 4278923539
0.053618181 0.040694792 0.32300001 4278661648
0.054667283 0.040694792 0.32300001 4278728211
0.055716392 0.040694792 0.32300001 4278860308
0.056765497 0.040694792 0.32300001 4278663699
0.057814602 0.040694792 0.32300001 4278532626
0.058863703 0.040694792 0.32300001 4278335247
0.059912808 0.040694792 0.32300001 4278532626
0.060961917 0.040694792 0.32300001 4278664212
0.062011018 0.040694792 0.32300001 4278598419
0.06306012 0.040694792 0.32300001 4278598419
0.064109229 0.040694792 0.32300001 4278664212
0.06515833 0.040694792 0.32300001 4278598419
0.066207439 0.040694792 0.32300001 4278532626
0.067464761 0.040820781 0.324 4278664212
0.068517119 0.040820781 0.324 4278730005
0.069569468 0.040820781 0.324 4278466835
0.070621818 0.040820781 0.324 4278856211
0.071674176 0.040820781 0.324 4278195972
0.072726525 0.040820781 0.324 4278793750
0.074006595 0.040946774 0.32500002 4278465039
0.0750622 0.040946774 0.32500002 4278392330
0.076117791 0.040946774 0.32500002 4279050514
0.077410847 0.04107276 0.32600001 4278195718
0.078469701 0.04107276 0.32600001 4279446555
0.079772502 0.041198753 0.32700002 4278657037
0.080834597 0.041198753 0.32700002 4278194945
0.082147136 0.041324742 0.32800001 4278194691
0.083212487 0.041324742 0.32800001 4278262281
0.084534779 0.041450735 0.32900003 4278523146
0.085603371 0.041450735 0.32900003 4279511065
0.086671971 0.041450735 0.32900003 4278195971
0.088007249 0.041576721 0.33000001 4278260998
0.089079089 0.041576721 0.33000001 4278459656
0.090150923 0.041576721 0.33000001 4278923541
0.091499202 0.041702714 0.33100003 4278529296
0.092574291 0.041702714 0.33100003 4278196484
0.093932308 0.041828703 0.33200002 4278523146
0.095010646 0.041828703 0.33200002 4278720525
0.096088983 0.041828703 0.33200002 4279052822
0.097459979 0.041954692 0.333 4279185943
0.098541565 0.041954692 0.333 4278923539
0.099623151 0.041954692 0.333 4278196736
0.10100716 0.042080685 0.33400002 4278396425
0.10209199 0.042080685 0.33400002 4279121172
0.10317682 0.042080685 0.33400002 4278594574
0.10457382 0.042206671 0.33500001 4278790931
0.10566189 0.042206671 0.33500001 4278594828
0.10706864 0.042332664 0.33600003 4278397962
0.10815997 0.042332664 0.33600003 4278727441
0.10957644 0.042458653 0.33700001 4278924820
0.11067102 0.042458653 0.33700001 4278397962
0.11209726 0.042584646 0.33800003 4278792720
0.11352996 0.042710632 0.33900002 4278859027
0.11496918 0.042836621 0.34 4278859027
0.1164149 0.042962614 0.34100002 4278859027
0.11752246 0.042962614 0.34100002 4278990613
0.11897792 0.043088604 0.34200001 4278792466
0.12043988 0.043214593 0.34300002 4278196226
0.12155395 0.043214593 0.34300002 4278925586
0.12266801 0.043214593 0.34300002 4278794513
0.12414294 0.043340582 0.34400001 4278662927
0.12526026 0.043340582 0.34400001 4278926099
0.12674496 0.043466575 0.34500003 4278860306
0.12786552 0.043466575 0.34500003 4279123478
0.034519505 0.042778164 0.33100003 4285104761
0.035702128 0.042907402 0.33200002 4285302393
0.036669683 0.042778164 0.33100003 4285368184
0.037630737 0.042648923 0.33000001 4285302391
0.038702577 0.042648923 0.33000001 4285368184
0.039774418 0.042648923 0.33000001 4285171319
0.040722482 0.042519685 0.32900003 4285434491
0.041791074 0.042519685 0.32900003 4285828222
0.04246885 0.042131964 0.32600001 4281747775
0.043394178 0.04200273 0.32500002 4279442453
0.044449776 0.04200273 0.32500002 4280099868
0.045505378 0.04200273 0.32500002 4280100122
0.04656098 0.04200273 0.32500002 4280165915
0.047616582 0.04200273 0.32500002 4280957223
0.048522417 0.041873489 0.324 4279445268
0.04957477 0.041873489 0.324 4278987797
0.050627124 0.041873489 0.324 4279054357
0.051679473 0.041873489 0.324 4279120920
0.052731827 0.041873489 0.324 4278989845
0.05378418 0.041873489 0.324 4278727187
0.054667283 0.041744251 0.32300001 4278728211
0.055716392 0.041744251 0.32300001 4278531345
0.056765497 0.041744251 0.32300001 4278663701
0.057814602 0.041744251 0.32300001 4278466833
0.058863703 0.041744251 0.32300001 4278664212
0.059912808 0.041744251 0.32300001 4278598419
0.060961917 0.041744251 0.32300001 4278532626
0.062011018 0.041744251 0.32300001 4278730005
0.06306012 0.041744251 0.32300001 4278466833
0.064109229 0.041744251 0.32300001 4278466833
0.065360054 0.041873489 0.324 4278466833
0.066412412 0.041873489 0.324 4278532626
0.067464761 0.041873489 0.324 4278335247
0.068517119 0.041873489 0.324 4278663699
0.069569468 0.041873489 0.324 4278399759
0.070621818 0.041873489 0.324 4278393095
0.071674176 0.041873489 0.324 4278391812
0.072726525 0.041873489 0.324 4278529810
0.074006595 0.04200273 0.32500002 4278989845
0.0750622 0.04200273 0.32500002 4278523146
0.076117791 0.04200273 0.32500002 4278522632
0.077410847 0.042131964 0.32600001 4278587914
0.078469701 0.042131964 0.32600001 4278456841
0.079772502 0.042261206 0.32700002 4278456839
0.080834597 0.042261206 0.32700002 4278391046
0.082147136 0.042390443 0.32800001 4278522119
0.083212487 0.042390443 0.32800001 4278522119
0.084534779 0.042519685 0.32900003 4278720265
0.085603371 0.042519685 0.32900003 4278983951
0.086935401 0.042648923 0.33000001 4278788623
0.088007249 0.042648923 0.33000001 4278524168
0.089079089 0.042648923 0.33000001 4278854927
0.090424113 0.042778164 0.33100003 4278924566
0.091499202 0.042778164 0.33100003 4278196996
0.092574291 0.042778164 0.33100003 4278589191
0.093932308 0.042907402 0.33200002 4278785804
0.095010646 0.042907402 0.33200002 4278785804
0.096378401 0.04303664 0.333 4278854927
0.097459979 0.04303664 0.333 4279317529
0.098541565 0.04303664 0.333 4278989845
0.099922322 0.043165881 0.33400002 4278397197
0.10100716 0.043165881 0.33400002 4278197506
0.10209199 0.043165881 0.33400002 4278858513
0.10348573 0.043295119 0.33500001 4278726160
0.10457382 0.043295119 0.33500001 4278922771
0.1059773 0.04342436 0.33600003 4278922258
0.10706864 0.04342436 0.33600003 4278460423
0.10848186 0.043553598 0.33700001 4278658316
0.10957644 0.043553598 0.33700001 4278198278
0.11099943 0.04368284 0.33800003 4279251736
0.1124289 0.043812077 0.33900002 4278198277
0.11386485 0.043941315 0.34 4278790670
0.11496918 0.043941315 0.34 4279053842
0.1164149 0.044070557 0.34100002 4278200329
0.1178671 0.044199791 0.34200001 4278859797
0.11897792 0.044199791 0.34200001 4279647775
0.12043988 0.044329032 0.34300002 4278921488
0.12155395 0.044329032 0.34300002 4278859795
0.12302563 0.04445827 0.34400001 4278794515
0.12414294 0.04445827 0.34400001 4278794513
0.12562439 0.044587512 0.34500003 4278991892
0.12674496 0.044587512 0.34500003 4278728720
0.12823614 0.044716749 0.34600002 4278860306
0.033444416 0.043853618 0.33100003 4285893247
0.034519505 0.043853618 0.33100003 4285236087
0.035702128 0.043986108 0.33200002 4285302140
0.036448114 0.043588642 0.32900003 4285302140
0.037516706 0.043588642 0.32900003 4285368184
0.038468018 0.043456152 0.32800001 4285368184
0.039533362 0.043456152 0.32800001 4285302391
0.040598705 0.043456152 0.32800001 4285237112
0.041537024 0.043323666 0.32700002 4285171319
0.04246885 0.043191176 0.32600001 4285171319
0.043394178 0.04305869 0.32500002 4285630845
0.044449776 0.04305869 0.32500002 4284445801
0.045505378 0.04305869 0.32500002 4280298014
0.04656098 0.04305869 0.32500002 4280560673
0.047616582 0.04305869 0.32500002 4280233500
0.048522417 0.0429262 0.324 4279116816
0.04957477 0.0429262 0.324 4279119637
0.050627124 0.0429262 0.324 4279251736
0.051679473 0.0429262 0.324 4279186713
0.052731827 0.0429262 0.324 4278858261
0.05378418 0.0429262 0.324 4278661394
0.05483653 0.0429262 0.324 4278727957
0.055716392 0.04279371 0.32300001 4278662931
0.056765497 0.04279371 0.32300001 4278663701
0.057814602 0.04279371 0.32300001 4278730005
0.058863703 0.04279371 0.32300001 4278598419
0.059912808 0.04279371 0.32300001 4278532626
0.060961917 0.04279371 0.32300001 4278664212
0.062011018 0.04279371 0.32300001 4278598419
0.06306012 0.04279371 0.32300001 4278664212
0.064307705 0.0429262 0.324 4278532626
0.065360054 0.0429262 0.324 4278532626
0.066412412 0.0429262 0.324 4278598419
0.067464761 0.0429262 0.324 4278532626
0.068517119 0.0429262 0.324 4278598419
0.069569468 0.0429262 0.324 4278532115
0.070621818 0.0429262 0.324 4278593039
0.071674176 0.0429262 0.324 4279512859
0.072950989 0.04305869 0.32500002 4278858775
0.074006595 0.04305869 0.32500002 4279055640
0.0750622 0.04305869 0.32500002 4278522632
0.076352 0.043191176 0.32600001 4278652935
0.077410847 0.043191176 0.32600001 4278718730
0.078710407 0.043323666 0.32700002 4278718730
0.079772502 0.043323666 0.32700002 4278587912
0.0810818 0.043456152 0.32800001 4278719498
0.082147136 0.043456152 0.32800001 4278522119
0.083212487 0.043456152 0.32800001 4278522119
0.084534779 0.043588642 0.32900003 4278522119
0.085603371 0.043588642 0.32900003 4278522119
0.086935401 0.043721128 0.33000001 4278522119
0.088007249 0.043721128 0.33000001 4278456839
0.089079089 0.043721128 0.33000001 4279053590
0.090424113 0.043853618 0.33100003 4278793750
0.091499202 0.043853618 0.33100003 4278988310
0.092574291 0.043853618 0.33100003 4278391814
0.093932308 0.043986108 0.33200002 4278719498
0.095010646 0.043986108 0.33200002 4279312916
0.096378401 0.044118594 0.333 4279185941
0.097459979 0.044118594 0.333 4278196992
0.098837487 0.044251084 0.33400002 4278197763
0.099922322 0.044251084 0.33400002 4279055127
0.10100716 0.044251084 0.33400002 4278196481
0.10239765 0.044383571 0.33500001 4278329867
0.10348573 0.044383571 0.33500001 4278660367
0.10488598 0.044516061 0.33600003 4279186711
0.1059773 0.044516061 0.33600003 4278196480
0.10738729 0.044648547 0.33700001 4279512857
0.10848186 0.044648547 0.33700001 4278592523
0.1099016 0.044781037 0.33800003 4278198021
0.11132782 0.044913523 0.33900002 4278791185
0.1124289 0.044913523 0.33900002 4278330634
0.11386485 0.045046009 0.34 4278197507
0.11530732 0.045178503 0.34100002 4278921488
0.11675628 0.045310989 0.34200001 4278198791
0.1178671 0.045310989 0.34200001 4278859797
0.11932582 0.045443479 0.34300002 4279317529
0.12043988 0.045443479 0.34300002 4279579418
0.12190833 0.045575965 0.34400001 4278794515
0.12302563 0.045575965 0.34400001 4278860308
0.12450383 0.045708455 0.34500003 4278794000
0.12562439 0.045708455 0.34500003 4279057172
0.12711233 0.045840941 0.34600002 4278532111
0.12823614 0.045840941 0.34600002 4278662929
0.12973382 0.045973428 0.347 4279054094
0.033747539 0.04533628 0.33400002 4285301880
0.03483237 0.04533628 0.33400002 4285301880
0.035056908 0.04425038 0.32600001 4285236600
0.036337327 0.044521853 0.32800001 4285368186
0.03728864 0.044386119 0.32700002 4285433979
0.038350739 0.044386119 0.32700002 4285433979
0.039412834 0.044386119 0.32700002 4285433979
0.040351149 0.04425038 0.32600001 4285302393
0.041409999 0.04425038 0.32600001 4285433979
0.042338576 0.044114646 0.32500002 4285302391
0.043394178 0.044114646 0.32500002 4285236598
0.044313006 0.043978903 0.324 4285302391
0.04536536 0.043978903 0.324 4285696636
0.046417713 0.043978903 0.324 4279839776
0.047470067 0.043978903 0.324 4279116305
0.048522417 0.043978903 0.324 4279379990
0.04957477 0.043978903 0.324 4278922004
0.050627124 0.043978903 0.324 4279054103
0.051679473 0.043978903 0.324 4279120920
0.052731827 0.043978903 0.324 4279055640
0.05378418 0.043978903 0.324 4278727189
0.05483653 0.043978903 0.324 4278991129
0.055716392 0.043843169 0.32300001 4278991383
0.056765497 0.043843169 0.32300001 4278860308
0.057814602 0.043843169 0.32300001 4278729492
0.058863703 0.043843169 0.32300001 4278598419
0.059912808 0.043843169 0.32300001 4278598419
0.061150651 0.043978903 0.324 4278664212
0.062202998 0.043978903 0.324 4278730005
0.063255355 0.043978903 0.324 4278598419
0.064307705 0.043978903 0.324 4278532626
0.065360054 0.043978903 0.324 4278664212
0.066412412 0.043978903 0.324 4278532628
0.067464761 0.043978903 0.324 4278466833
0.068517119 0.043978903 0.324 4278598419
0.069569468 0.043978903 0.324 4278201351
0.070621818 0.043978903 0.324 4278396427
0.071895398 0.044114646 0.32500002 4278527759
0.072950989 0.044114646 0.32500002 4278859543
0.074006595 0.044114646 0.32500002 4278925849
0.0750622 0.044114646 0.32500002 4279118613
0.076352 0.04425038 0.32600001 4278590476
0.077410847 0.04425038 0.32600001 4278523916
0.078710407 0.044386119 0.32700002 4278458123
0.079772502 0.044386119 0.32700002 4278193924
0.0810818 0.044521853 0.32800001 4278325253
0.082147136 0.044521853 0.32800001 4278390533
0.083212487 0.044521853 0.32800001 4278587912
0.084534779 0.044657595 0.32900003 4278719498
0.085603371 0.044657595 0.32900003 4278390533
0.086671971 0.044657595 0.32900003 4278587912
0.088007249 0.04479333 0.33000001 4278654218
0.089079089 0.04479333 0.33000001 4279316762
0.090424113 0.044929069 0.33100003 4278199561
0.091499202 0.044929069 0.33100003 4279184406
0.092574291 0.044929069 0.33100003 4279644443
0.093932308 0.045064807 0.33200002 4280104994
0.095010646 0.045064807 0.33200002 4279447578
0.096378401 0.045200542 0.333 4278922769
0.097459979 0.045200542 0.333 4279055125
0.098837487 0.04533628 0.33400002 4278989845
0.099922322 0.04533628 0.33400002 4279121431
0.10130957 0.045472018 0.33500001 4279121431
0.10239765 0.045472018 0.33500001 4279450396
0.10348573 0.045472018 0.33500001 4279187224
0.10488598 0.045607757 0.33600003 4278727187
0.1059773 0.045607757 0.33600003 4278858773
0.10738729 0.045743492 0.33700001 4279121431
0.10880377 0.04587923 0.33800003 4279186711
0.1099016 0.04587923 0.33800003 4279186965
0.11132782 0.046014968 0.33900002 4279384344
0.11276054 0.046150703 0.34 4279055125
0.11419976 0.046286441 0.34100002 4279120918
0.11530732 0.046286441 0.34100002 4279185943
0.11675628 0.04642218 0.34200001 4279317527
0.11821175 0.046557918 0.34300002 4278924820
0.11932582 0.046557918 0.34300002 4278196224
0.12079101 0.046693653 0.34400001 4279447830
0.12190833 0.046693653 0.34400001 4278925588
0.12338327 0.046829391 0.34500003 4279057174
0.12450383 0.046829391 0.34500003 4279057172
0.12598851 0.04696513 0.34600002 4278794000
0.12711233 0.04696513 0.34600002 4278794000
0.12823614 0.04696513 0.34600002 4278991381
0.033249456 0.047255401 0.34 4285630073
0.034353778 0.047255401 0.34 4285301880
0.035458099 0.047255401 0.34 4285302393
0.035056908 0.045309588 0.32600001 4285302393
0.036226545 0.045448579 0.32700002 4285368186
0.037174605 0.045309588 0.32600001 4285302393
0.038233455 0.045309588 0.32600001 4285433979
0.039171774 0.045170605 0.32500002 4285368186
0.040227376 0.045170605 0.32500002 4285368186
0.041282974 0.045170605 0.32500002 4285368186
0.042208303 0.045031615 0.324 4285236600
0.043260656 0.045031615 0.324 4285170807
0.044313006 0.045031615 0.324 4285302393
0.04536536 0.045031615 0.324 4285170805
0.046417713 0.045031615 0.324 4285631356
0.047470067 0.045031615 0.324 4283789406
0.048522417 0.045031615 0.324 4278854931
0.04957477 0.045031615 0.324 4278592271
0.050627124 0.045031615 0.324 4278922006
0.051679473 0.045031615 0.324 4279186459
0.052731827 0.045031615 0.324 4278858261
0.05378418 0.045031615 0.324 4278793752
0.05483653 0.045031615 0.324 4278925338
0.055888884 0.045031615 0.324 4278860310
0.056765497 0.044892631 0.32300001 4278795285
0.057814602 0.044892631 0.32300001 4278598419
0.058863703 0.044892631 0.32300001 4278730005
0.060098294 0.045031615 0.324 4278598419
0.061150651 0.045031615 0.324 4278466833
0.062202998 0.045031615 0.324 4278598419
0.063255355 0.045031615 0.324 4278598419
0.064307705 0.045031615 0.324 4278663699
0.065360054 0.045031615 0.324 4278730007
0.066412412 0.045031615 0.324 4278466835
0.067464761 0.045031615 0.324 4278532628
0.068517119 0.045031615 0.324 4278466833
0.069569468 0.045031615 0.324 4278200071
0.070839792 0.045170605 0.32500002 4278331150
0.071895398 0.045170605 0.32500002 4278593552
0.072950989 0.045170605 0.32500002 4278728211
0.074006595 0.045170605 0.32500002 4278728724
0.075293154 0.045309588 0.32600001 4278662677
0.076352 0.045309588 0.32600001 4278860056
0.077410847 0.045309588 0.32600001 4278990359
0.078710407 0.045448579 0.32700002 4279121945
0.079772502 0.045448579 0.32700002 4279056152
0.0810818 0.045587562 0.32800001 4278858773
0.082147136 0.045587562 0.32800001 4279055638
0.083212487 0.045587562 0.32800001 4279253017
0.084277831 0.045587562 0.32800001 4279186711
0.085603371 0.045726553 0.32900003 4279055127
0.086671971 0.045726553 0.32900003 4279053844
0.087740563 0.045726553 0.32900003 4279382809
0.089079089 0.045865536 0.33000001 4278923287
0.090150923 0.045865536 0.33000001 4278791701
0.091499202 0.046004526 0.33100003 4278921236
0.092574291 0.046004526 0.33100003 4278591757
0.093932308 0.046143509 0.33200002 4278196228
0.095010646 0.046143509 0.33200002 4278262792
0.096378401 0.046282496 0.333 4278194688
0.097459979 0.046282496 0.333 4278194944
0.098837487 0.046421483 0.33400002 4278196488
0.099922322 0.046421483 0.33400002 4278195457
0.10130957 0.046560466 0.33500001 4278194688
0.10239765 0.046560466 0.33500001 4278196742
0.10379466 0.046699457 0.33600003 4278193920
0.10488598 0.046699457 0.33600003 4278194944
0.10629271 0.04683844 0.33700001 4278198024
0.10738729 0.04683844 0.33700001 4278198281
0.10880377 0.046977431 0.33800003 4278462220
0.11022675 0.047116414 0.33900002 4278922771
0.11132782 0.047116414 0.33900002 4278988562
0.11276054 0.047255401 0.34 4279185941
0.11419976 0.047394387 0.34100002 4279384090
0.11564547 0.047533374 0.34200001 4279318297
0.11675628 0.047533374 0.34200001 4278923793
0.11821175 0.047672361 0.34300002 4279055379
0.11932582 0.047672361 0.34300002 4278194688
0.12079101 0.047811348 0.34400001 4279318297
0.12190833 0.047811348 0.34400001 4278859797
0.12338327 0.047950335 0.34500003 4279057174
0.12450383 0.047950335 0.34500003 4279188758
0.12598851 0.048089322 0.34600002 4278859793
0.12711233 0.048089322 0.34600002 4278991379
0.12823614 0.048089322 0.34600002 4279319576
0.032145139 0.048360098 0.34 4282601285
0.033347253 0.048502333 0.34100002 4285433466
0.034454823 0.048502333 0.34100002 4285236600
0.035562389 0.048502333 0.34100002 4285368186
0.036669958 0.048502333 0.34100002 4285368186
0.037777528 0.048502333 0.34100002 4285170807
0.037174605 0.0463688 0.32600001 4285302393
0.038116176 0.046226565 0.32500002 4285368186
0.039051246 0.046084326 0.324 4285368186
0.040103596 0.046084326 0.324 4285368186
0.041155949 0.046084326 0.324 4285236600
0.042078033 0.045942094 0.32300001 4285368186
0.043127138 0.045942094 0.32300001 4285236600
0.04417624 0.045942094 0.32300001 4285236600
0.04536536 0.046084326 0.324 4285170807
0.046417713 0.046084326 0.324 4285236598
0.047470067 0.046084326 0.324 4285236598
0.048522417 0.046084326 0.324 4285433977
0.04957477 0.046084326 0.324 4284711022
