# .PCD v0.7 - Point Cloud Data file format
VERSION 0.7
FIELDS x y z rgb
SIZE 4 4 4 4
TYPE F F F U
COUNT 1 1 1 1
WIDTH 886
HEIGHT 1
VIEWPOINT 0 0 0 1 0 0 0
POINTS 886
DATA ascii
-0.003662697 0.01112163 0.39000002 4281549624
-0.00112636 0.011093114 0.38900003 4281352245
0.0013969848 0.011064596 0.38800001 4282604617
0.0039174343 0.011064596 0.38800001 4279514395
0.005177659 0.011064596 0.38800001 4280173608
0.0064378832 0.011064596 0.38800001 4281230405
0.007698108 0.011064596 0.38800001 4281033540
0.0089583332 0.011064596 0.38800001 4281888587
0.010244895 0.011093114 0.38900003 4282677333
0.0013969848 0.012325248 0.38800001 4281878841
0.0089583332 0.012325248 0.38800001 4278536478
0.010244895 0.012357014 0.38900003 4278471199
0.011537951 0.01238878 0.39000002 4279063849
0.012804672 0.01238878 0.39000002 4280313401
0.014107473 0.012420547 0.39100003 4282218833
0.01541677 0.012452313 0.39200002 4280112690
0.016732562 0.012484078 0.39300001 4280442170
0.018009027 0.012484078 0.39300001 4279982387
0.019334566 0.012515845 0.39400002 4279588396
0.020614278 0.012515845 0.39400002 4279391017
-0.0036533056 0.013620915 0.38900003 4281023018
-0.0023898329 0.013620915 0.38900003 4281353267
0.00013676021 0.013585899 0.38800001 4280893227
0.0013933844 0.013550884 0.38700002 4280695337
0.002650361 0.013550884 0.38700002 4280826925
0.0039073378 0.013550884 0.38700002 4282866504
0.0051643145 0.013550884 0.38700002 4281419571
0.0064212908 0.013550884 0.38700002 4279713057
0.007698108 0.013585899 0.38800001 4279387683
0.0089583332 0.013585899 0.38800001 4278535708
0.010244895 0.013620915 0.38900003 4278601501
0.011537951 0.01365593 0.39000002 4278602785
0.012804672 0.01365593 0.39000002 4278669089
0.014107473 0.013690946 0.39100003 4278867753
0.01541677 0.013725961 0.39200002 4279130412
0.016689988 0.013725961 0.39200002 4279590189
0.018009027 0.013760975 0.39300001 4279590443
0.019334566 0.01379599 0.39400002 4279721775
0.020614278 0.01379599 0.39400002 4279195431
0.021949559 0.013831005 0.39500001 4279064615
-0.0036533056 0.014884816 0.38900003 4280562981
-0.0023898329 0.014884816 0.38900003 4280365602
-0.00112636 0.014884816 0.38900003 4280892716
0.00013640775 0.014808287 0.38700002 4280300579
0.0013897839 0.014770022 0.38600001 4280892716
0.0026435126 0.014770022 0.38600001 4280695337
0.0039073378 0.014808287 0.38700002 4280563749
0.0051643145 0.014808287 0.38700002 4281682230
0.0064212908 0.014808287 0.38700002 4279382809
0.007698108 0.01484655 0.38800001 4279450910
0.0089583332 0.01484655 0.38800001 4279059742
0.010244895 0.014884816 0.38900003 4278731291
0.011537951 0.014923079 0.39000002 4278666779
0.012804672 0.014923079 0.39000002 4278864671
0.014107473 0.014961344 0.39100003 4278668576
0.01541677 0.014999609 0.39200002 4278998054
0.016689988 0.014999609 0.39200002 4278800927
0.018009027 0.015037872 0.39300001 4279129892
0.019334566 0.015076137 0.39400002 4279261478
0.020614278 0.015076137 0.39400002 4279129892
0.021893991 0.015076137 0.39400002 4278669087
0.02323252 0.015114401 0.39500001 4278866466
0.02451548 0.015114401 0.39500001 4278800673
-0.0036439139 0.016107202 0.38800001 4280234018
-0.0023898329 0.016148716 0.38900003 4280168225
-0.00112636 0.016148716 0.38900003 4280826155
0.00013605527 0.016024174 0.38600001 4280036639
0.0013897839 0.016024174 0.38600001 4280562467
0.0026435126 0.016024174 0.38600001 4280497188
0.0038972411 0.016024174 0.38600001 4280957991
0.0051509701 0.016024174 0.38600001 4281023784
0.0064212908 0.016065689 0.38700002 4280565797
0.007698108 0.016107202 0.38800001 4279515930
0.0089583332 0.016107202 0.38800001 4279124763
0.010244895 0.016148716 0.38900003 4279124763
0.011508367 0.016148716 0.38900003 4278797082
0.012804672 0.016190229 0.39000002 4278863388
0.014107473 0.016231744 0.39100003 4278733855
0.015377442 0.016231744 0.39100003 4278602269
0.016689988 0.016273256 0.39200002 4278800673
0.018009027 0.016314769 0.39300001 4278866466
0.019285493 0.016314769 0.39300001 4279063845
0.020614278 0.016356282 0.39400002 4278866466
0.021893991 0.016356282 0.39400002 4278668574
0.02323252 0.016397797 0.39500001 4278800160
0.02451548 0.016397797 0.39500001 4278734880
0.02579844 0.016397797 0.39500001 4278405915
0.027081402 0.016397797 0.39500001 4278207252
0.028436171 0.016439309 0.39600003 4278602267
0.02972238 0.016439309 0.39600003 4278668828
0.031086894 0.016480822 0.39700001 4278405656
-0.0036439139 0.017367853 0.38800001 4280168225
-0.0023898329 0.017412616 0.38900003 4280562983
0.00013570279 0.017233565 0.38500002 4280299297
0.0013861834 0.017233565 0.38500002 4280561956
0.0026366641 0.017233565 0.38500002 4280364577
0.0038972411 0.017278329 0.38600001 4280562467
0.0051509701 0.017278329 0.38600001 4280825637
0.0064212908 0.017323092 0.38700002 4279578902
0.007678268 0.017323092 0.38700002 4279515928
0.0089583332 0.017367853 0.38800001 4279123480
0.010244895 0.017412616 0.38900003 4279058457
0.011508367 0.017412616 0.38900003 4278928154
0.012804672 0.017457379 0.39000002 4278797084
0.014107473 0.017502142 0.39100003 4278732572
0.015377442 0.017502142 0.39100003 4279127843
0.016689988 0.017546903 0.39200002 4278668576
0.017963205 0.017546903 0.39200002 4278865953
0.019285493 0.017591666 0.39300001 4278734367
0.020614278 0.01763643 0.39400002 4278865953
0.021893991 0.01763643 0.39400002 4278668574
0.023173705 0.01763643 0.39400002 4278865439
0.02451548 0.017681191 0.39500001 4278799646
0.02579844 0.017681191 0.39500001 4278206997
0.027081402 0.017681191 0.39500001 4279652139
0.028436171 0.017725954 0.39600003 4279258146
0.029797435 0.017770715 0.39700001 4278996255
0.031086894 0.017770715 0.39700001 4278864923
0.032621007 0.017905002 0.40000001 4278733337
0.034089811 0.017994529 0.40200001 4278930716
0.035483554 0.018039292 0.40300003 4278864923
0.036975093 0.018128816 0.40500003 4278864923
0.038385078 0.018173579 0.40600002 4279061789
0.039801557 0.01821834 0.40700001 4278995996
0.041123495 0.01821834 0.40700001 4278864923
0.057547357 0.019292641 0.43100002 4278470683
0.058947243 0.019292641 0.43100002 4278536474
0.062033553 0.019382168 0.43300003 4278930462
0.063439943 0.019382168 0.43300003 4278668576
0.064996079 0.019426929 0.43400002 4278602783
0.066558726 0.019471692 0.43500003 4278734369
0.06797161 0.019471692 0.43500003 4279193638
-0.0036345224 0.018580494 0.38700002 4280167971
-0.0023591151 0.01843646 0.384 4279904799
-0.0011118823 0.01843646 0.384 4280233504
0.00013535032 0.01843646 0.384 4280167711
0.0013861834 0.018484471 0.38500002 4280299297
0.0026366641 0.018484471 0.38500002 4280167711
0.0038871446 0.018484471 0.38500002 4279904537
0.0051509701 0.018532483 0.38600001 4281023018
0.0064212908 0.018580494 0.38700002 4279249939
0.007678268 0.018580494 0.38700002 4279253271
0.0089583332 0.018628506 0.38800001 4279123480
0.010244895 0.018676519 0.38900003 4279124250
0.011508367 0.018676519 0.38900003 4279058970
0.012804672 0.018724529 0.39000002 4279059740
0.014071392 0.018724529 0.39000002 4279060767
0.015377442 0.018772542 0.39100003 4278929951
0.016647412 0.018772542 0.39100003 4278799648
0.017963205 0.018820552 0.39200002 4278997027
0.019285493 0.018868564 0.39300001 4279063334
0.020561956 0.018868564 0.39300001 4278471197
0.021893991 0.018916577 0.39400002 4278668574
0.023173705 0.018916577 0.39400002 4279194404
0.02451548 0.018964587 0.39500001 4278865439
0.02579844 0.018964587 0.39500001 4279194404
0.027081402 0.018964587 0.39500001 4279125535
0.028436171 0.0190126 0.39600003 4278929183
0.029797435 0.01906061 0.39700001 4278202894
0.031165199 0.019108623 0.39800003 4278200584
0.032621007 0.019204644 0.40000001 4278198016
0.034089811 0.019300669 0.40200001 4278199301
0.035483554 0.019348681 0.40300003 4278197760
0.036975093 0.019444704 0.40500003 4278200326
0.038385078 0.019492716 0.40600002 4278198272
0.039801557 0.019540727 0.40700001 4278196992
0.041224536 0.019588739 0.40800002 4278200067
0.042654008 0.01963675 0.40900001 4278196992
0.044089977 0.019684762 0.41000003 4278196992
0.04542166 0.019684762 0.41000003 4278196992
0.05601719 0.020644994 0.43000001 4278196736
0.057413835 0.020644994 0.43000001 4278196992
0.058947243 0.020693006 0.43100002 4278196736
0.060487147 0.020741018 0.43200001 4278198787
0.062033553 0.020789029 0.43300003 4278197760
0.063439943 0.020789029 0.43300003 4278535454
0.064996079 0.020837041 0.43400002 4278536478
0.066558726 0.020885052 0.43500003 4278667294
0.068127863 0.020933064 0.43600002 4278929699
0.069543988 0.020933064 0.43600002 4286095241
-0.0036345224 0.019837897 0.38700002 4280233252
-0.0023591151 0.019684114 0.384 4279838492
-0.0011089868 0.019632854 0.38300002 4280035871
0.00013535032 0.019684114 0.384 4280167711
0.0013861834 0.019735375 0.38500002 4280233504
0.0026366641 0.019735375 0.38500002 4280233504
0.0038972411 0.019786635 0.38600001 4280628262
0.0051509701 0.019786635 0.38600001 4280299295
0.0064212908 0.019837897 0.38700002 4279644697
0.007678268 0.019837897 0.38700002 4279318297
0.0089583332 0.019889157 0.38800001 4279124250
0.010244895 0.019940419 0.38900003 4278927384
0.011508367 0.019940419 0.38900003 4278796568
0.012804672 0.019991679 0.39000002 4278928668
0.014071392 0.019991679 0.39000002 4278732574
0.015338113 0.019991679 0.39000002 4278995744
0.016647412 0.020042941 0.39100003 4278996257
0.01791738 0.020042941 0.39100003 4279062820
0.019236421 0.020094201 0.39200002 4278865955
0.020561956 0.020145461 0.39300001 4278734369
0.021838421 0.020145461 0.39300001 4278668576
0.023173705 0.020196723 0.39400002 4278734369
0.024453416 0.020196723 0.39400002 4278734369
0.02579844 0.020247983 0.39500001 4278536476
0.027149964 0.020299245 0.39600003 4278199296
0.028436171 0.020299245 0.39600003 4278993949
0.029797435 0.020350505 0.39700001 4278198285
0.031165199 0.020401767 0.39800003 4278656015
0.032621007 0.020504287 0.40000001 4278852113
0.034089811 0.020606807 0.40200001 4278786320
0.035571601 0.020709328 0.40400001 4278852111
0.036975093 0.02076059 0.40500003 4278852365
0.038385078 0.02081185 0.40600002 4278786572
0.039801557 0.02086311 0.40700001 4278525451
0.041224536 0.020914372 0.40800002 4279518758
0.042654008 0.020965632 0.40900001 4279322662
0.044089977 0.021016894 0.41000003 4279257121
0.045532443 0.021068154 0.41100001 4279980074
0.046981405 0.021119416 0.41200003 4279585316
0.054239478 0.021888325 0.42700002 4279190558
0.055886921 0.021990847 0.42900002 4279190558
0.057413835 0.022042107 0.43000001 4278993949
0.058947243 0.022093369 0.43100002 4279126049
0.060347132 0.022093369 0.43100002 4278994463
0.061890285 0.022144629 0.43200001 4279454760
0.063439943 0.022195891 0.43300003 4278205206
0.064996079 0.022247151 0.43400002 4278930212
0.066558726 0.022298412 0.43500003 4279061798
0.068127863 0.022349672 0.43600002 4278863136
0.069543988 0.022349672 0.43600002 4285832069
-0.0023591151 0.020931769 0.384 4280167457
-0.0011089868 0.020877261 0.38300002 4280364836
0.00013535032 0.020931769 0.384 4279904285
0.0013861834 0.020986279 0.38500002 4280233504
0.0026435126 0.02104079 0.38600001 4280299297
0.0038972411 0.02104079 0.38600001 4280628262
0.0051509701 0.02104079 0.38600001 4280826153
0.0064212908 0.0210953 0.38700002 4279382039
0.007698108 0.021149809 0.38800001 4279187738
0.0089583332 0.021149809 0.38800001 4278993179
0.010244895 0.021204319 0.38900003 4278928154
0.011508367 0.021204319 0.38900003 4278797082
0.012804672 0.021258829 0.39000002 4278929181
0.014071392 0.021258829 0.39000002 4278929951
0.015338113 0.021258829 0.39000002 4278995744
0.016647412 0.021313339 0.39100003 4278996257
0.01791738 0.021313339 0.39100003 4278997027
0.019236421 0.021367848 0.39200002 4279063334
0.020509636 0.021367848 0.39200002 4278668578
0.021838421 0.021422358 0.39300001 4278799648
0.023173705 0.021476869 0.39400002 4278865441
0.024453416 0.021476869 0.39400002 4278799648
0.02579844 0.021531377 0.39500001 4279390502
0.027149964 0.021585887 0.39600003 4278727959
0.028436171 0.021585887 0.39600003 4279585062
0.029797435 0.021640398 0.39700001 4278196228
0.031243503 0.021749416 0.39900002 4278590476
0.032621007 0.021803927 0.40000001 4278852881
0.034089811 0.021912945 0.40200001 4278984467
0.035571601 0.022021966 0.40400001 4279248152
0.036975093 0.022076476 0.40500003 4279248406
0.038385078 0.022130987 0.40600002 4279248406
0.039899349 0.022240005 0.40800002 4278197254
0.041325577 0.022294514 0.40900001 4278928416
0.042758297 0.022349026 0.41000003 4278201352
0.044197515 0.022403535 0.41100001 4278198272
0.045643229 0.022458045 0.41200003 4278795798
0.047095437 0.022512555 0.41300002 4278199808
0.048905987 0.022730595 0.41700003 4278599189
0.050501458 0.022839613 0.41900003 4278200064
0.0522337 0.023003142 0.42200002 4279126047
0.054112453 0.023221184 0.42600003 4278797080
0.055756651 0.023330202 0.42800003 4278928666
0.057280317 0.023384711 0.42900002 4278533910
0.058810472 0.023439221 0.43000001 4278797595
0.060347132 0.023493731 0.43100002 4278666779
0.061890285 0.02354824 0.43200001 4279258146
0.063439943 0.023602752 0.43300003 4279323428
0.064996079 0.02365726 0.43400002 4278798365
0.066558726 0.023711771 0.43500003 4278930464
0.068127863 0.023766281 0.43600002 4279258146
0.069543988 0.023766281 0.43600002 4285634177
0.00013535032 0.022179425 0.384 4280167711
0.0013897839 0.022294942 0.38600001 4280628008
0.0026435126 0.022294942 0.38600001 4280233504
0.0039073378 0.022352701 0.38700002 4281023534
0.0051643145 0.022352701 0.38700002 4281089327
0.0064212908 0.022352701 0.38700002 4279251223
0.007698108 0.02241046 0.38800001 4279385371
0.0089583332 0.02241046 0.38800001 4279124250
0.010244895 0.02246822 0.38900003 4278993177
0.011508367 0.02246822 0.38900003 4278862875
0.012804672 0.022525977 0.39000002 4279323426
0.014071392 0.022525977 0.39000002 4278733085
0.015338113 0.022525977 0.39000002 4279193634
0.016647412 0.022583738 0.39100003 4278931232
0.01791738 0.022583738 0.39100003 4279062820
0.019236421 0.022641497 0.39200002 4278865957
0.020509636 0.022641497 0.39200002 4278734369
0.021838421 0.022699254 0.39300001 4278865441
0.023114886 0.022699254 0.39300001 4279260197
0.024453416 0.022757014 0.39400002 4278602267
0.02579844 0.022814773 0.39500001 4279522599
0.027149964 0.022872532 0.39600003 4279452963
0.028436171 0.022872532 0.39600003 4279913514
0.029797435 0.022930291 0.39700001 4278197510
0.031243503 0.023045808 0.39900002 4279118101
0.032621007 0.023103567 0.40000001 4278723343
0.034089811 0.023219084 0.40200001 4278196228
0.035571601 0.023334604 0.40400001 4278723345
0.036975093 0.023392363 0.40500003 4278394380
0.038479622 0.02350788 0.40700001 4279184408
0.039899349 0.023565639 0.40800002 4278658832
0.041325577 0.023623398 0.40900001 4279190306
0.042758297 0.023681156 0.41000003 4278200077
0.044197515 0.023738915 0.41100001 4278196224
0.045643229 0.023796676 0.41200003 4279254301
0.047209471 0.023912193 0.41400003 4278992666
0.048905987 0.02408547 0.41700003 4278992666
0.050501458 0.024200987 0.41900003 4279190558
0.0522337 0.024374263 0.42200002 4278202124
0.053985428 0.02454754 0.42500001 4278201357
0.055626374 0.024663059 0.42700002 4278200842
0.057280317 0.024778577 0.42900002 4278860056
0.058810472 0.024836333 0.43000001 4278531091
0.060347132 0.024894094 0.43100002 4279125533
0.061890285 0.024951853 0.43200001 4278862361
0.063439943 0.025009612 0.43300003 4278797082
0.064996079 0.02506737 0.43400002 4278667292
0.066558726 0.025125131 0.43500003 4278996257
0.068127863 0.025182888 0.43600002 4278600986
0.069543988 0.025182888 0.43600002 4285371005
0.0001399325 0.024220183 0.39700001 4280101918
0.0013969848 0.023671111 0.38800001 4280627749
0.0026572095 0.023671111 0.38800001 4280562983
0.0039174343 0.023671111 0.38800001 4280826153
0.005177659 0.023671111 0.38800001 4280826921
0.0064378832 0.023671111 0.38800001 4279513623
0.0077179489 0.02373212 0.38900003 4279385369
0.0089814216 0.02373212 0.38900003 4279190043
0.010244895 0.02373212 0.38900003 4279058970
0.011537951 0.023793127 0.39000002 4278731289
0.012804672 0.023793127 0.39000002 4278994461
0.014071392 0.023793127 0.39000002 4278798365
0.015338113 0.023793127 0.39000002 4278929951
0.016647412 0.023854136 0.39100003 4278865439
0.01791738 0.023854136 0.39100003 4278931746
0.019236421 0.023915144 0.39200002 4278800160
0.020509636 0.023915144 0.39200002 4278668574
0.021838421 0.023976151 0.39300001 4278471195
0.023114886 0.023976151 0.39300001 4278668574
0.024453416 0.02403716 0.39400002 4278931232
0.02579844 0.024098167 0.39500001 4279258914
0.027149964 0.024159176 0.39600003 4279650596
0.028436171 0.024159176 0.39600003 4280176940
0.029797435 0.024220183 0.39700001 4278197253
0.031243503 0.0243422 0.39900002 4278658062
0.032621007 0.024403207 0.40000001 4279251223
0.034089811 0.024525223 0.40200001 4278195457
0.035571601 0.02464724 0.40400001 4278592273
0.036975093 0.024708249 0.40500003 4280566063
0.038479622 0.024830263 0.40700001 4280106791
0.039899349 0.024891272 0.40800002 4279185689
0.041325577 0.024952279 0.40900001 4278595603
0.042758297 0.025013288 0.41000003 4278460171
0.044197515 0.025074296 0.41100001 4278197254
0.045754012 0.025196312 0.41300002 4279450910
0.047209471 0.025257321 0.41400003 4278202378
0.048905987 0.025440345 0.41700003 4278203663
0.050501458 0.025562361 0.41900003 4278730007
0.0522337 0.025745384 0.42200002 4278663449
0.053985428 0.025928408 0.42500001 4278201614
0.055626374 0.026050424 0.42700002 4278925338
0.057280317 0.02617244 0.42900002 4278200327
0.058810472 0.026233448 0.43000001 4278200841
0.060347132 0.026294457 0.43100002 4278203406
0.061890285 0.026355464 0.43200001 4278795800
0.063439943 0.026416473 0.43300003 4279389732
0.064996079 0.02647748 0.43400002 4278930464
0.066558726 0.026538489 0.43500003 4278601499
0.068127863 0.026599497 0.43600002 4278797597
0.069543988 0.026599497 0.43600002 4286553226
0.0014005854 0.024996022 0.38900003 4280628262
0.002664058 0.024996022 0.38900003 4280431397
0.0039275307 0.024996022 0.38900003 4280694569
0.0051910039 0.024996022 0.38900003 4280891946
0.0064544762 0.024996022 0.38900003 4279449113
0.0077179489 0.024996022 0.38900003 4279385371
0.0089814216 0.024996022 0.38900003 4279058457
0.010271231 0.025060279 0.39000002 4279058457
0.011537951 0.025060279 0.39000002 4278993947
0.012804672 0.025060279 0.39000002 4279059740
0.014071392 0.025060279 0.39000002 4279060767
0.015377442 0.025124537 0.39100003 4279061537
0.016647412 0.025124537 0.39100003 4278865441
0.01791738 0.025124537 0.39100003 4278997025
0.019236421 0.025188792 0.39200002 4278865953
0.020509636 0.025188792 0.39200002 4278734367
0.021838421 0.02525305 0.39300001 4278602781
0.023173705 0.025317308 0.39400002 4278799646
0.024453416 0.025317308 0.39400002 4278864669
0.02579844 0.025381563 0.39500001 4278928154
0.027149964 0.025445823 0.39600003 4279519010
0.028436171 0.025445823 0.39600003 4279452963
0.029797435 0.025510078 0.39700001 4278591757
0.031243503 0.025638593 0.39900002 4278657039
0.032621007 0.025702849 0.40000001 4278787855
0.034089811 0.025831364 0.40200001 4278655756
0.035571601 0.025959879 0.40400001 4278655502
0.036975093 0.026024137 0.40500003 4278392330
0.038479622 0.02615265 0.40700001 4278459406
0.039899349 0.026216907 0.40800002 4280040485
0.041325577 0.026281163 0.40900001 4280373034
0.042758297 0.026345422 0.41000003 4278264841
0.044305053 0.026473936 0.41200003 4279779363
0.045754012 0.026538193 0.41300002 4279320607
0.047323503 0.026666706 0.41500002 4279716648
0.048905987 0.026795221 0.41700003 4279058718
0.050501458 0.026923737 0.41900003 4279454246
0.0522337 0.027116507 0.42200002 4279059488
0.053858403 0.027245022 0.42400002 4279059742
0.055626374 0.027437793 0.42700002 4279322914
0.057280317 0.027566306 0.42900002 4278928156
0.058810472 0.027630564 0.43000001 4279257121
0.060487147 0.027759077 0.43200001 4279388453
0.062033553 0.027823336 0.43300003 4278202126
0.063439943 0.027823336 0.43300003 4278863388
0.064996079 0.027887592 0.43400002 4278995744
0.066558726 0.02795185 0.43500003 4278995744
0.06797161 0.02795185 0.43500003 4279256099
0.0014077864 0.026394935 0.39100003 4280957741
0.0026709065 0.026327427 0.39000002 4281023534
0.0039376272 0.026327427 0.39000002 4280891948
0.0051910039 0.026259923 0.38900003 4280761130
0.0064544762 0.026259923 0.38900003 4279515676
0.0077377893 0.026327427 0.39000002 4279254555
0.00900451 0.026327427 0.39000002 4278992664
0.010271231 0.026327427 0.39000002 4279124250
0.011537951 0.026327427 0.39000002 4279125533
0.012804672 0.026327427 0.39000002 4278928668
0.014107473 0.026394935 0.39100003 4279126560
0.015377442 0.026394935 0.39100003 4278995744
0.016647412 0.026394935 0.39100003 4279062050
0.017963205 0.026462441 0.39200002 4278931232
0.019236421 0.026462441 0.39200002 4278800160
0.020561956 0.026529947 0.39300001 4278602781
0.021838421 0.026529947 0.39300001 4278733855
0.023173705 0.026597453 0.39400002 4278865439
0.024453416 0.026597453 0.39400002 4278995742
0.02579844 0.026664959 0.39500001 4278268689
0.027149964 0.026732467 0.39600003 4279189791
0.028436171 0.026732467 0.39600003 4279979307
0.029797435 0.026799971 0.39700001 4278657039
0.031243503 0.026934985 0.39900002 4278984721
0.032621007 0.027002489 0.40000001 4279115283
0.034089811 0.027137503 0.40200001 4278983437
0.035483554 0.027205011 0.40300003 4278852113
0.036975093 0.027340023 0.40500003 4278852113
0.038479622 0.027475033 0.40700001 4278852111
0.039899349 0.027542541 0.40800002 4280369450
0.041325577 0.027610047 0.40900001 4278200072
0.042862587 0.027745059 0.41100001 4278196480
0.044305053 0.027812567 0.41200003 4278196737
0.045754012 0.027880071 0.41300002 4278195712
0.047323503 0.028015085 0.41500002 4278196480
0.048905987 0.028150097 0.41700003 4278196736
0.050501458 0.02828511 0.41900003 4278196224
0.0522337 0.028487628 0.42200002 4278196224
0.053858403 0.02862264 0.42400002 4278196736
0.055626374 0.028825158 0.42700002 4278196736
0.057280317 0.028960172 0.42900002 4278196992
0.058810472 0.029027676 0.43000001 4278199045
0.060627166 0.029230196 0.43300003 4278200331
0.062176816 0.029297702 0.43400002 4279715367
0.063586451 0.029297702 0.43400002 4279192355
0.064996079 0.029297702 0.43400002 4279323941
0.066558726 0.02936521 0.43500003 4279388967
0.068127863 0.029432716 0.43600002 4281294147
0.0014113868 0.027736088 0.39200002 4283918426
0.0064710681 0.027594578 0.39000002 4279253019
0.0077377893 0.027594578 0.39000002 4279320094
0.00900451 0.027594578 0.39000002 4279255068
0.010271231 0.027594578 0.39000002 4279058457
0.011567537 0.027665334 0.39100003 4278993947
0.012837506 0.027665334 0.39100003 4278994461
0.014107473 0.027665334 0.39100003 4279127330
0.015377442 0.027665334 0.39100003 4279062050
0.016689988 0.027736088 0.39200002 4278931232
0.017963205 0.027736088 0.39200002 4279194404
0.019285493 0.027806843 0.39300001 4278997025
0.020561956 0.027806843 0.39300001 4278799646
0.021838421 0.027806843 0.39300001 4278799646
0.023173705 0.027877599 0.39400002 4278799646
0.024453416 0.027877599 0.39400002 4279193121
0.02579844 0.027948353 0.39500001 4278532628
0.027149964 0.028019112 0.39600003 4279190304
0.028436171 0.028019112 0.39600003 4279256867
0.029797435 0.028089866 0.39700001 4280044330
0.031165199 0.028160622 0.39800003 4279583781
0.032621007 0.028302131 0.40000001 4279845416
0.034005009 0.028372888 0.40100002 4280437039
0.035483554 0.028514398 0.40300003 4280240428
0.036975093 0.028655909 0.40500003 4280110125
0.038479622 0.028797418 0.40700001 4279452965
0.039899349 0.028868174 0.40800002 4279585062
0.041426618 0.029009685 0.41000003 4279585316
0.042862587 0.029080439 0.41100001 4279585062
0.044305053 0.029151196 0.41200003 4279585064
0.045864798 0.029292706 0.41400003 4279453476
0.047323503 0.029363461 0.41500002 4279256349
0.048905987 0.029504972 0.41700003 4279322914
0.050501458 0.029646484 0.41900003 4279125281
0.0522337 0.029858749 0.42200002 4279125535
0.053858403 0.03000026 0.42400002 4279257121
0.055626374 0.030212525 0.42700002 4279257119
0.057280317 0.030354036 0.42900002 4279125533
0.058947243 0.030495547 0.43100002 4279257119
0.060767181 0.030707812 0.43400002 4279191840
0.062320083 0.030778568 0.43500003 4279257635
0.063586451 0.030707812 0.43400002 4279126562
0.065145843 0.030778568 0.43500003 4279258148
0.066558726 0.030778568 0.43500003 4279320096
0.068127863 0.030849323 0.43600002 4285962370
-0.0011408377 0.029157747 0.39400002 4283721045
0.0052043479 0.028861728 0.39000002 4279644957
0.0064710681 0.028861728 0.39000002 4279713570
0.0077377893 0.028861728 0.39000002 4279451682
0.00900451 0.028861728 0.39000002 4279189275
0.010297568 0.028935732 0.39100003 4278795285
0.011567537 0.028935732 0.39100003 4279125533
0.012837506 0.028935732 0.39100003 4279257633
0.014107473 0.028935732 0.39100003 4278930464
0.01541677 0.029009737 0.39200002 4278997027
0.016689988 0.029009737 0.39200002 4278997027
0.017963205 0.029009737 0.39200002 4279062820
0.019285493 0.02908374 0.39300001 4278997025
0.020561956 0.02908374 0.39300001 4278997025
0.021893991 0.029157747 0.39400002 4278865439
0.023173705 0.029157747 0.39400002 4278733853
0.02451548 0.029231749 0.39500001 4278667292
0.02579844 0.029231749 0.39500001 4278204174
0.027149964 0.029305754 0.39600003 4279059742
0.028436171 0.029305754 0.39600003 4279323428
0.029797435 0.029379759 0.39700001 4279126049
0.031165199 0.029453764 0.39800003 4279258148
0.032539453 0.029527768 0.39900002 4279126562
0.034005009 0.029675776 0.40100002 4279192355
0.035483554 0.029823786 0.40300003 4278864671
0.036975093 0.029971795 0.40500003 4278864671
0.038479622 0.030119803 0.40700001 4278733083
0.039899349 0.030193808 0.40800002 4279061535
0.041426618 0.030341817 0.41000003 4278929949
0.042862587 0.03041582 0.41100001 4279061537
0.044412587 0.030563829 0.41300002 4278995744
0.045864798 0.030637836 0.41400003 4278732570
0.047323503 0.030711839 0.41500002 4278732570
0.048905987 0.030859848 0.41700003 4278929949
0.050501458 0.031007856 0.41900003 4278929951
0.0522337 0.03122987 0.42200002 4278732572
0.053858403 0.031377878 0.42400002 4278929951
0.055626374 0.03159989 0.42700002 4279127330
0.057280317 0.0317479 0.42900002 4279061537
0.058947243 0.031895909 0.43100002 4279323939
0.061047215 0.032265931 0.43600002 4279389734
0.06260661 0.032339934 0.43700001 4279258148
0.063586451 0.032117922 0.43400002 4279388967
0.065145843 0.032191928 0.43500003 4279255586
0.066558726 0.032191928 0.43500003 4284976245
0.0014113868 0.030283384 0.39200002 4283852633
0.002677755 0.030206133 0.39100003 4283918426
0.0039477237 0.030206133 0.39100003 4283986783
0.0052043479 0.030128878 0.39000002 4279712033
0.0064710681 0.030128878 0.39000002 4279516705
0.0077377893 0.030128878 0.39000002 4279320609
0.00900451 0.030128878 0.39000002 4279189791
0.010297568 0.030206133 0.39100003 4279124765
0.011567537 0.030206133 0.39100003 4279059740
0.012837506 0.030206133 0.39100003 4279322912
0.014107473 0.030206133 0.39100003 4278732572
0.01541677 0.030283384 0.39200002 4278865441
0.016689988 0.030283384 0.39200002 4278931234
0.018009027 0.030360637 0.39300001 4278931236
0.019285493 0.030360637 0.39300001 4278799650
0.020614278 0.030437892 0.39400002 4278865441
0.021893991 0.030437892 0.39400002 4278931234
0.023173705 0.030437892 0.39400002 4278865441
0.02451548 0.030515144 0.39500001 4278799648
0.02579844 0.030515144 0.39500001 4278931236
0.027149964 0.030592399 0.39600003 4279062052
0.028436171 0.030592399 0.39600003 4279127332
0.029797435 0.030669652 0.39700001 4278995746
0.031165199 0.030746907 0.39800003 4279061539
0.032539453 0.030824158 0.39900002 4279127332
0.034005009 0.030978667 0.40100002 4278929953
0.035395507 0.03105592 0.40200001 4278930464
0.036975093 0.031287681 0.40500003 4278996257
0.038479622 0.031442188 0.40700001 4278733085
0.039899349 0.031519443 0.40800002 4278930462
0.041426618 0.031673949 0.41000003 4279456293
0.042862587 0.031751201 0.41100001 4279061535
0.044412587 0.031905707 0.41300002 4279193123
0.045864798 0.031982962 0.41400003 4278995744
0.047323503 0.032060217 0.41500002 4278995744
0.048905987 0.032214724 0.41700003 4279127332
0.050501458 0.03236923 0.41900003 4279061539
0.0522337 0.032600991 0.42200002 4279192355
0.053858403 0.032755498 0.42400002 4279256867
0.055496104 0.032910004 0.42600003 4279125281
0.057146799 0.033064511 0.42800003 4278926880
0.0014113868 0.031557031 0.39200002 4283328088
0.002677755 0.031476531 0.39100003 4280104231
0.0039477237 0.031476531 0.39100003 4279842340
0.0052176928 0.031476531 0.39100003 4279843108
0.0064710681 0.031396028 0.39000002 4279647523
0.0077377893 0.031396028 0.39000002 4279713316
0.00900451 0.031396028 0.39000002 4279320609
0.010297568 0.031476531 0.39100003 4279386400
0.011567537 0.031476531 0.39100003 4279650596
0.012837506 0.031476531 0.39100003 4279256351
0.014107473 0.031476531 0.39100003 4279126562
0.01541677 0.031557031 0.39200002 4279192355
0.016689988 0.031557031 0.39200002 4278864673
0.018009027 0.031637534 0.39300001 4279062822
0.019285493 0.031637534 0.39300001 4279062052
0.020614278 0.031718038 0.39400002 4279127845
0.021893991 0.031718038 0.39400002 4278996259
0.023173705 0.031718038 0.39400002 4279325224
0.02451548 0.031798538 0.39500001 4279192871
0.02579844 0.031798538 0.39500001 4279258664
0.027149964 0.031879045 0.39600003 4279192871
0.028436171 0.031879045 0.39600003 4278995492
0.029797435 0.031959545 0.39700001 4279258664
0.031165199 0.032040048 0.39800003 4279127078
0.032539453 0.032120552 0.39900002 4279126308
0.03392021 0.032201052 0.40000001 4279126310
0.035307456 0.032281555 0.40100002 4278534689
0.036975093 0.032603566 0.40500003 4279126826
0.038479622 0.032764569 0.40700001 4278798115
0.039899349 0.032845076 0.40800002 4279191588
0.041426618 0.033006079 0.41000003 4279257381
0.042862587 0.033086583 0.41100001 4278928416
0.044412587 0.033247586 0.41300002 4279717932
0.045864798 0.03332809 0.41400003 4278994209
0.047323503 0.033408593 0.41500002 4279058466
0.048905987 0.033569597 0.41700003 4280306739
0.050501458 0.033730604 0.41900003 4281884749
0.0522337 0.033972111 0.42200002 4285107833
0.053858403 0.034133118 0.42400002 4286029448
0.010271231 0.032663178 0.39000002 4279647014
0.011567537 0.03274693 0.39100003 4278925088
0.012837506 0.03274693 0.39100003 4279451945
0.014107473 0.03274693 0.39100003 4279715885
0.01541677 0.032830682 0.39200002 4279519019
0.016689988 0.032830682 0.39200002 4279980338
0.018009027 0.03291443 0.39300001 4279782959
0.019285493 0.03291443 0.39300001 4279914545
0.020614278 0.032998186 0.39400002 4279519787
0.021893991 0.032998186 0.39400002 4279650605
0.023173705 0.032998186 0.39400002 4279847984
0.02451548 0.033081934 0.39500001 4279650092
0.02579844 0.033081934 0.39500001 4279650092
0.027149964 0.033165686 0.39600003 4279846699
0.028436171 0.033165686 0.39600003 4279780906
0.02972238 0.033165686 0.39600003 4279846188
0.031165199 0.03333319 0.39800003 4280175151
0.032539453 0.033416942 0.39900002 4280833081
0.03392021 0.033500694 0.40000001 4281161278
0.035307456 0.033584446 0.40100002 4281490245
0.036975093 0.033919454 0.40500003 4282411347
0.038479622 0.034086954 0.40700001 4282608726
0.039899349 0.03417071 0.40800002 4283793000
0.041426618 0.034338214 0.41000003 4284450676
0.042862587 0.034421962 0.41100001 4285108606
0.044412587 0.034589466 0.41300002 4286555538
0.045864798 0.034673218 0.41400003 4287016343
0.047323503 0.03475697 0.41500002 4286621072
0.048905987 0.034924474 0.41700003 4286160267
0.050501458 0.035091978 0.41900003 4286487949
0.019285493 0.034191329 0.39300001 4286752656
0.020614278 0.034278329 0.39400002 4286621070
0.021893991 0.034278329 0.39400002 4286555279
0.023173705 0.034278329 0.39400002 4286883474
0.02451548 0.03436533 0.39500001 4286817681
0.028384553 0.024116416 0.4018892 4294967295
0.028384553 0.024116416 0.4018892 4294901760
0.028384553 0.024116416 0.4023892 4294901760
0.028384553 0.024116416 0.40288919 4294901760
0.028384553 0.024116416 0.40338922 4294901760
0.028384553 0.024116416 0.40388921 4294901760
0.028384553 0.024116416 0.4043892 4294901760
0.028384553 0.024116416 0.4048892 4294901760
0.028384553 0.024116416 0.40538922 4294901760
0.028384553 0.024116416 0.40588921 4294901760
0.028384553 0.024116416 0.40638921 4294901760
0.028384553 0.024116416 0.4068892 4294901760
0.028384553 0.024116416 0.40738919 4294901760
0.028384553 0.024116416 0.40788922 4294901760
0.028384553 0.024116416 0.40838921 4294901760
0.028384553 0.024116416 0.4088892 4294901760
0.028384553 0.024116416 0.4093892 4294901760
0.028384553 0.024116416 0.40988922 4294901760
0.028384553 0.024116416 0.41038921 4294901760
0.028384553 0.024116416 0.41088921 4294901760
0.028384553 0.024116416 0.4113892 4294901760
0.028384553 0.024116416 0.4118892 4294901760
0.028384553 0.024116416 0.41238922 4294901760
0.028384553 0.024116416 0.41288921 4294901760
0.028384553 0.024116416 0.41338921 4294901760
0.028384553 0.024116416 0.4138892 4294901760
0.028384553 0.024116416 0.41438919 4294901760
0.028384553 0.024116416 0.41488922 4294901760
0.028384553 0.024116416 0.41538921 4294901760
0.028384553 0.024116416 0.4158892 4294901760
0.028384553 0.024116416 0.4163892 4294901760
0.028384553 0.024116416 0.41688922 4294901760
0.028384553 0.024116416 0.41738921 4294901760
0.028384553 0.024116416 0.41788921 4294901760
0.028384553 0.024116416 0.4183892 4294901760
0.028384553 0.024116416 0.41888922 4294901760
0.028384553 0.024116416 0.41938922 4294901760
0.028384553 0.024116416 0.41988921 4294901760
0.028384553 0.024116416 0.42038921 4294901760
0.028384553 0.024116416 0.4208892 4294901760
0.028384553 0.024116416 0.42138922 4294901760
0.028384553 0.024116416 0.42188922 4294901760
0.028384553 0.024116416 0.42238921 4294901760
0.028384553 0.024116416 0.4228892 4294901760
0.028384553 0.024116416 0.4233892 4294901760
0.028384553 0.024116416 0.42388922 4294901760
0.028384553 0.024116416 0.42438921 4294901760
0.028384553 0.024116416 0.42488921 4294901760
0.028384553 0.024116416 0.4253892 4294901760
0.028384553 0.024116416 0.42588922 4294901760
0.028384553 0.024116416 0.42638922 4294901760
0.028384553 0.024116416 0.42688921 4294901760
0.028384553 0.024116416 0.4273892 4294901760
0.028384553 0.024116416 0.4278892 4294901760
0.028384553 0.024116416 0.42838922 4294901760
0.028384553 0.024116416 0.42888921 4294901760
0.028384553 0.024116416 0.42938921 4294901760
0.028384553 0.024116416 0.4298892 4294901760
0.028384553 0.024116416 0.43038923 4294901760
0.028384553 0.024116416 0.43088922 4294901760
0.028384553 0.024116416 0.43138921 4294901760
0.028384553 0.024116416 0.43188921 4294901760
0.028384553 0.024116416 0.4323892 4294901760
0.028384553 0.024116416 0.43288922 4294901760
0.028384553 0.024116416 0.43338922 4294901760
0.028384553 0.024116416 0.43388921 4294901760
0.028384553 0.024116416 0.4343892 4294901760
0.028384553 0.024116416 0.43488923 4294901760
0.028384553 0.024116416 0.43538922 4294901760
0.028384553 0.024116416 0.43588921 4294901760
0.028384553 0.024116416 0.43638921 4294901760
0.028384553 0.024116416 0.4368892 4294901760
0.028384553 0.024116416 0.43738922 4294901760
0.028384553 0.024116416 0.43788922 4294901760
0.028384553 0.024116416 0.43838921 4294901760
0.028384553 0.024116416 0.43888921 4294901760
0.028384553 0.024116416 0.43938923 4294901760
0.028384553 0.024116416 0.43988922 4294901760
0.028384553 0.024116416 0.44038922 4294901760
0.028384553 0.024116416 0.44088921 4294901760
0.028384553 0.024116416 0.4413892 4294901760
0.028384553 0.024116416 0.44188923 4294901760
0.028384553 0.024116416 0.44238922 4294901760
0.028384553 0.024116416 0.44288921 4294901760
0.028384553 0.024116416 0.44338921 4294901760
0.028384553 0.024116416 0.4438892 4294901760
0.028384553 0.024116416 0.44438922 4294901760
0.028384553 0.024116416 0.44488922 4294901760
0.028384553 0.024116416 0.44538921 4294901760
0.028384553 0.024116416 0.4458892 4294901760
0.028384553 0.024116416 0.4463892 4294901760
0.028384553 0.024116416 0.44688922 4294901760
0.028384553 0.024116416 0.44738922 4294901760
0.028384553 0.024116416 0.44788921 4294901760
0.028384553 0.024116416 0.44838923 4294901760
0.028384553 0.024116416 0.44888923 4294901760
0.028384553 0.024116416 0.44938922 4294901760
0.028384553 0.024116416 0.44988921 4294901760
0.028384553 0.024116416 0.45038921 4294901760
0.028384553 0.024116416 0.45088923 4294901760
0.028384553 0.024116416 0.45138922 4294901760
0.028384553 0.024116416 0.45188922 4294901760
0.028384553 0.024116416 0.4018892 4278255360
0.02820291 0.024089269 0.40235424 4278255360
0.028021269 0.024062125 0.40281931 4278255360
0.027839625 0.024034979 0.40328434 4278255360
0.027657984 0.024007834 0.40374941 4278255360
0.027476341 0.023980688 0.40421444 4278255360
0.027294699 0.023953544 0.40467948 4278255360
0.027113056 0.023926398 0.40514454 4278255360
0.026931414 0.023899253 0.40560958 4278255360
0.026749771 0.023872107 0.40607464 4278255360
0.02656813 0.023844961 0.40653968 4278255360
0.026386486 0.023817817 0.40700471 4278255360
0.026204845 0.023790671 0.40746978 4278255360
0.026023202 0.023763526 0.40793481 4278255360
0.02584156 0.02373638 0.40839988 4278255360
0.025659917 0.023709236 0.40886492 4278255360
0.025478274 0.02368209 0.40932995 4278255360
0.025296632 0.023654943 0.40979502 4278255360
0.025114989 0.023627799 0.41026005 4278255360
0.024933347 0.023600653 0.41072512 4278255360
0.024751704 0.023573508 0.41119015 4278255360
0.024570063 0.023546362 0.41165519 4278255360
0.024388419 0.023519218 0.41212025 4278255360
0.024206778 0.023492072 0.41258529 4278255360
0.024025135 0.023464927 0.41305035 4278255360
0.023843493 0.023437781 0.41351539 4278255360
0.02366185 0.023410635 0.41398042 4278255360
0.023480207 0.023383491 0.41444549 4278255360
0.023298565 0.023356345 0.41491053 4278255360
0.023116924 0.0233292 0.41537559 4278255360
0.022935281 0.023302054 0.41584063 4278255360
0.022753637 0.02327491 0.41630566 4278255360
0.022571996 0.023247764 0.41677073 4278255360
0.022390354 0.023220617 0.41723576 4278255360
0.022208711 0.023193473 0.41770083 4278255360
0.022027068 0.023166327 0.41816586 4278255360
0.021845426 0.023139182 0.4186309 4278255360
0.021663783 0.023112036 0.41909596 4278255360
0.021482142 0.023084892 0.419561 4278255360
0.021300498 0.023057746 0.42002606 4278255360
0.021118857 0.023030601 0.4204911 4278255360
0.020937214 0.023003455 0.42095613 4278255360
0.020755572 0.022976309 0.4214212 4278255360
0.020573929 0.022949165 0.42188624 4278255360
0.020392288 0.022922019 0.4223513 4278255360
0.020210646 0.022894874 0.42281634 4278255360
0.020029001 0.022867728 0.42328137 4278255360
0.01984736 0.022840584 0.42374644 4278255360
0.019665718 0.022813438 0.42421147 4278255360
0.019484075 0.022786293 0.42467654 4278255360
0.019302431 0.022759147 0.42514157 4278255360
0.01912079 0.022732001 0.42560661 4278255360
0.018939149 0.022704856 0.42607167 4278255360
0.018757505 0.02267771 0.42653671 4278255360
0.018575862 0.022650566 0.42700177 4278255360
0.018394221 0.02262342 0.42746681 4278255360
0.018212579 0.022596275 0.42793185 4278255360
0.018030936 0.022569129 0.42839691 4278255360
0.017849293 0.022541985 0.42886195 4278255360
0.017667651 0.022514839 0.42932701 4278255360
0.017486008 0.022487693 0.42979205 4278255360
0.017304365 0.022460548 0.43025708 4278255360
0.017122723 0.022433402 0.43072215 4278255360
0.016941082 0.022406258 0.43118718 4278255360
0.016759438 0.022379111 0.43165225 4278255360
0.016577797 0.022351967 0.43211728 4278255360
0.016396154 0.022324821 0.43258232 4278255360
0.016214512 0.022297675 0.43304738 4278255360
0.016032869 0.02227053 0.43351242 4278255360
0.015851226 0.022243384 0.43397748 4278255360
0.015669584 0.02221624 0.43444252 4278255360
0.015487942 0.022189094 0.43490756 4278255360
0.015306299 0.022161949 0.43537262 4278255360
0.015124656 0.022134803 0.43583766 4278255360
0.014943014 0.022107657 0.43630272 4278255360
0.014761372 0.022080513 0.43676776 4278255360
0.01457973 0.022053368 0.43723279 4278255360
0.014398088 0.022026222 0.43769786 4278255360
0.014216445 0.021999076 0.43816289 4278255360
0.014034802 0.021971932 0.43862796 4278255360
0.01385316 0.021944785 0.43909299 4278255360
0.013671517 0.021917641 0.43955803 4278255360
0.013489875 0.021890495 0.44002309 4278255360
0.013308233 0.021863349 0.44048813 4278255360
0.01312659 0.021836204 0.4409532 4278255360
0.012944947 0.021809058 0.44141823 4278255360
0.012763306 0.021781914 0.44188327 4278255360
0.012581663 0.021754768 0.44234833 4278255360
0.01240002 0.021727623 0.44281337 4278255360
0.012218378 0.021700477 0.44327843 4278255360
0.012036737 0.021673333 0.44374347 4278255360
0.011855094 0.021646187 0.4442085 4278255360
0.01167345 0.021619041 0.44467357 4278255360
0.011491809 0.021591896 0.4451386 4278255360
0.011310166 0.02156475 0.44560367 4278255360
0.011128524 0.021537606 0.4460687 4278255360
0.010946881 0.021510459 0.44653374 4278255360
0.010765238 0.021483315 0.4469988 4278255360
0.010583596 0.021456169 0.44746384 4278255360
0.010401953 0.021429025 0.44792891 4278255360
0.010220312 0.021401878 0.44839394 4278255360
