# .PCD v0.7 - Point Cloud Data file format
VERSION 0.7
FIELDS x y z rgb
SIZE 4 4 4 4
TYPE F F F U
COUNT 1 1 1 1
WIDTH 1064
HEIGHT 1
VIEWPOINT 0 0 0 1 0 0 0
POINTS 1064
DATA ascii
0.067858353 0.057877917 0.29800001 4281744947
0.068826258 0.057877917 0.29800001 4279966996
0.069794163 0.057877917 0.29800001 4279966996
0.070762068 0.057877917 0.29800001 4281218601
0.071729973 0.057877917 0.29800001 4280954657
0.07269787 0.057877917 0.29800001 4280623886
0.073665775 0.057877917 0.29800001 4281939228
0.074884132 0.058072142 0.29900002 4281214990
0.075855285 0.058072142 0.29900002 4281018124
0.076826438 0.058072142 0.29900002 4280558606
0.078057781 0.05826636 0.30000001 4280822550
0.079032183 0.05826636 0.30000001 4278782211
0.080006585 0.05826636 0.30000001 4278913799
0.080980986 0.05826636 0.30000001 4278979849
0.081955381 0.05826636 0.30000001 4278388482
0.082653359 0.058072142 0.29900002 4285957757
0.083624512 0.058072142 0.29900002 4285432183
0.084595665 0.058072142 0.29900002 4285562997
0.085566819 0.058072142 0.29900002 4285694069
0.086537972 0.058072142 0.29900002 4285694069
0.087801784 0.05826636 0.30000001 4285694069
0.088776186 0.05826636 0.30000001 4286744191
0.089750588 0.05826636 0.30000001 4281210642
0.09072499 0.05826636 0.30000001 4282978313
0.091699392 0.05826636 0.30000001 4283372557
0.092982709 0.058460586 0.30100003 4283438348
0.09396036 0.058460586 0.30100003 4283635214
0.094938003 0.058460586 0.30100003 4284028173
0.095915653 0.058460586 0.30100003 4284553745
0.097215205 0.058654804 0.30200002 4285144340
0.098196104 0.058654804 0.30200002 4285078547
0.099176995 0.058654804 0.30200002 4284556829
0.051141668 0.057463862 0.29100001 4280426507
0.052086838 0.057463862 0.29100001 4280426507
0.053032003 0.057463862 0.29100001 4280558093
0.054162666 0.057661336 0.29200003 4281734924
0.055111084 0.057661336 0.29200003 4282980879
0.056059498 0.057661336 0.29200003 4283111182
0.057203144 0.057858802 0.29300001 4282853657
0.05835329 0.058056269 0.294 4280754702
0.059711657 0.058451213 0.296 4280623886
0.060878046 0.058648687 0.29700002 4280427020
0.062050927 0.058846153 0.29800001 4280427020
0.063018829 0.058846153 0.29800001 4279966735
0.064201459 0.059043627 0.29900002 4279045892
0.065172613 0.059043627 0.29900002 4278916877
0.066143766 0.059043627 0.29900002 4279509014
0.067114912 0.059043627 0.29900002 4279045642
0.068086065 0.059043627 0.29900002 4278848515
0.069057226 0.059043627 0.29900002 4280888868
0.069794163 0.058846153 0.29800001 4281020454
0.070762068 0.058846153 0.29800001 4281349417
0.071729973 0.058846153 0.29800001 4281087015
0.07269787 0.058846153 0.29800001 4280954911
0.073912986 0.059043627 0.29900002 4280888343
0.074884132 0.059043627 0.29900002 4281085202
0.075855285 0.059043627 0.29900002 4281085202
0.077083379 0.059241094 0.30000001 4280953366
0.078057781 0.059241094 0.30000001 4279900942
0.079032183 0.059241094 0.30000001 4278914054
0.080006585 0.059241094 0.30000001 4278848263
0.080980986 0.059241094 0.30000001 4278913803
0.081955381 0.059241094 0.30000001 4279046412
0.082929783 0.059241094 0.30000001 4285563767
0.083624512 0.059043627 0.29900002 4285694583
0.084595665 0.059043627 0.29900002 4285628790
0.085566819 0.059043627 0.29900002 4285825655
0.08682739 0.059241094 0.30000001 4285825655
0.087801784 0.059241094 0.30000001 4285430897
0.088776186 0.059241094 0.30000001 4286412398
0.089750588 0.059241094 0.30000001 4282390807
0.09072499 0.059241094 0.30000001 4283306251
0.091699392 0.059241094 0.30000001 4283306251
0.092982709 0.059438568 0.30100003 4283634446
0.09396036 0.059438568 0.30100003 4283962896
0.094938003 0.059438568 0.30100003 4284619283
0.095915653 0.059438568 0.30100003 4284882453
0.097215205 0.059636038 0.30200002 4285078549
0.098196104 0.059636038 0.30200002 4285077779
0.099176995 0.059636038 0.30200002 4284882453
0.10015789 0.059636038 0.30200002 4284623908
0.053032003 0.058409348 0.29100001 4280426509
0.053977173 0.058409348 0.29100001 4281603853
0.055111084 0.05861007 0.29200003 4282849553
0.056059498 0.05861007 0.29200003 4283373841
0.057203144 0.058810785 0.29300001 4284563251
0.058551773 0.059212226 0.29500002 4280688909
0.059711657 0.059412945 0.296 4280558095
0.060878046 0.059613667 0.29700002 4280492815
0.062050927 0.059814382 0.29800001 4280492815
0.063018829 0.059814382 0.29800001 4280098832
0.064201459 0.060015105 0.29900002 4278914306
0.065172613 0.060015105 0.29900002 4279244559
0.066143766 0.060015105 0.29900002 4278784008
0.067114912 0.060015105 0.29900002 4278191104
0.068086065 0.060015105 0.29900002 4279244043
0.069057226 0.060015105 0.29900002 4279045892
0.070028372 0.060015105 0.29900002 4282073140
0.070999525 0.060015105 0.29900002 4281415210
0.071970679 0.060015105 0.29900002 4281481003
0.072941832 0.060015105 0.29900002 4280954661
0.073912986 0.060015105 0.29900002 4280954661
0.075134575 0.060215823 0.30000001 4280625946
0.076108977 0.060215823 0.30000001 4280690969
0.077083379 0.060215823 0.30000001 4279900172
0.078057781 0.060215823 0.30000001 4278914049
0.079032183 0.060215823 0.30000001 4278848261
0.080006585 0.060215823 0.30000001 4278914056
0.080980986 0.060215823 0.30000001 4278717447
0.081955381 0.060215823 0.30000001 4285496179
0.082929783 0.060215823 0.30000001 4285497204
0.083904184 0.060215823 0.30000001 4285628790
0.084878586 0.060215823 0.30000001 4285628790
0.085852988 0.060215823 0.30000001 4285562997
0.08682739 0.060215823 0.30000001 4285825655
0.087801784 0.060215823 0.30000001 4285694323
0.088776186 0.060215823 0.30000001 4282656289
0.089750588 0.060215823 0.30000001 4283176212
0.091027409 0.060416546 0.30100003 4283568651
0.092005059 0.060416546 0.30100003 4283568651
0.092982709 0.060416546 0.30100003 4283831310
0.09396036 0.060416546 0.30100003 4284225298
0.094938003 0.060416546 0.30100003 4285869355
0.095915653 0.060416546 0.30100003 4290215293
0.096893303 0.060416546 0.30100003 4284683791
0.098196104 0.060617261 0.30200002 4285011986
0.099176995 0.060617261 0.30200002 4284946963
0.10015789 0.060617261 0.30200002 4284686103
0.053977173 0.059354838 0.29100001 4281080335
0.054922346 0.059354838 0.29100001 4282325777
0.056059498 0.059558809 0.29200003 4283438864
0.057203144 0.059762776 0.29300001 4284495402
0.058551773 0.060170714 0.29500002 4280753425
0.059711657 0.060374681 0.296 4280491280
0.060878046 0.060578652 0.29700002 4280164368
0.062050927 0.060782619 0.29800001 4282008115
0.063018829 0.060782619 0.29800001 4285234802
0.064201459 0.06098659 0.29900002 4284247139
0.065172613 0.06098659 0.29900002 4278914054
0.066143766 0.06098659 0.29900002 4278979847
0.067114912 0.06098659 0.29900002 4280297501
0.068086065 0.06098659 0.29900002 4280296731
0.069057226 0.06098659 0.29900002 4278848515
0.070028372 0.06098659 0.29900002 4278913797
0.070999525 0.06098659 0.29900002 4279901203
0.071970679 0.06098659 0.29900002 4281547568
0.073185779 0.061190557 0.30000001 4282402623
0.074160181 0.061190557 0.30000001 4281020970
0.075134575 0.061190557 0.30000001 4278782211
0.076108977 0.061190557 0.30000001 4278979842
0.077340335 0.061394528 0.30100003 4279045635
0.078317977 0.061394528 0.30100003 4278782722
0.079295628 0.061394528 0.30100003 4278848261
0.080273278 0.061394528 0.30100003 4279243021
0.080980986 0.061190557 0.30000001 4281614390
0.081955381 0.061190557 0.30000001 4285562997
0.082929783 0.061190557 0.30000001 4285562997
0.083904184 0.061190557 0.30000001 4285628790
0.084878586 0.061190557 0.30000001 4285825655
0.085852988 0.061190557 0.30000001 4285628276
0.08682739 0.061190557 0.30000001 4285628276
0.087801784 0.061190557 0.30000001 4286548349
0.089072116 0.061394528 0.30100003 4282519565
0.090049759 0.061394528 0.30100003 4283503630
0.091027409 0.061394528 0.30100003 4283634444
0.092005059 0.061394528 0.30100003 4283765517
0.092982709 0.061394528 0.30100003 4284092942
0.09396036 0.061394528 0.30100003 4284356114
0.094938003 0.061394528 0.30100003 4284881431
0.095915653 0.061394528 0.30100003 4287711557
0.096893303 0.061394528 0.30100003 4285343006
0.097870953 0.061394528 0.30100003 4285078549
0.099176995 0.061598495 0.30200002 4285011986
0.10015789 0.061598495 0.30200002 4284684306
0.064201459 0.061958067 0.29900002 4285301110
0.065390579 0.062165283 0.30000001 4281350448
0.066364981 0.062165283 0.30000001 4278848261
0.067339376 0.062165283 0.30000001 4280560671
0.068313777 0.062165283 0.30000001 4280823843
0.069288179 0.062165283 0.30000001 4278914308
0.070262581 0.062165283 0.30000001 4282138935
0.071236983 0.062165283 0.30000001 4278782468
0.072211385 0.062165283 0.30000001 4278782468
0.073185779 0.062165283 0.30000001 4278717447
0.074407384 0.062372506 0.30100003 4278717447
0.075385034 0.062372506 0.30100003 4278191104
0.076362684 0.062372506 0.30100003 4279573008
0.077340335 0.062372506 0.30100003 4279309582
0.078317977 0.062372506 0.30100003 4278783238
0.079295628 0.062372506 0.30100003 4278979849
0.080273278 0.062372506 0.30100003 4279902491
0.081250928 0.062372506 0.30100003 4285563767
0.081955381 0.062165283 0.30000001 4285562997
0.082929783 0.062165283 0.30000001 4285628790
0.083904184 0.062165283 0.30000001 4285694583
0.084878586 0.062165283 0.30000001 4285628790
0.085852988 0.062165283 0.30000001 4285628276
0.08682739 0.062165283 0.30000001 4285496177
0.088094465 0.062372506 0.30100003 4282397998
0.089072116 0.062372506 0.30100003 4283765778
0.090049759 0.062372506 0.30100003 4283765519
0.091027409 0.062372506 0.30100003 4283765517
0.092005059 0.062372506 0.30100003 4283896333
0.092982709 0.062372506 0.30100003 4284224528
0.09396036 0.062372506 0.30100003 4284356114
0.094938003 0.062372506 0.30100003 4284684306
0.095915653 0.062372506 0.30100003 4284815892
0.096893303 0.062372506 0.30100003 4285144344
0.097870953 0.062372506 0.30100003 4285144344
0.099176995 0.062579721 0.30200002 4284881170
0.10015789 0.062579721 0.30200002 4284750099
0.065390579 0.06314002 0.30000001 4285891197
0.066364981 0.06314002 0.30000001 4281087795
0.067339376 0.06314002 0.30000001 4278913281
0.068313777 0.06314002 0.30000001 4280361754
0.069288179 0.06314002 0.30000001 4281415212
0.070262581 0.06314002 0.30000001 4280230938
0.07147444 0.063350484 0.30100003 4278651652
0.072452091 0.063350484 0.30100003 4278782468
0.073429734 0.063350484 0.30100003 4281810740
0.074407384 0.063350484 0.30100003 4282402877
0.075385034 0.063350484 0.30100003 4278256896
0.076616377 0.063560948 0.30200002 4281546544
0.077597275 0.063560948 0.30200002 4279967512
0.078578167 0.063560948 0.30200002 4279045640
0.079559065 0.063560948 0.30200002 4279968797
0.080273278 0.063350484 0.30100003 4285629562
0.081250928 0.063350484 0.30100003 4285497976
0.082228571 0.063350484 0.30100003 4285432181
0.083206221 0.063350484 0.30100003 4285628790
0.084183872 0.063350484 0.30100003 4285628790
0.085161522 0.063350484 0.30100003 4285497204
0.086139172 0.063350484 0.30100003 4285299825
0.087116823 0.063350484 0.30100003 4286676340
0.088094465 0.063350484 0.30100003 4282257936
0.089072116 0.063350484 0.30100003 4283831312
0.090049759 0.063350484 0.30100003 4283831310
0.091027409 0.063350484 0.30100003 4283962380
0.092005059 0.063350484 0.30100003 4284158989
0.092982709 0.063350484 0.30100003 4284224525
0.09396036 0.063350484 0.30100003 4284290318
0.094938003 0.063350484 0.30100003 4284487697
0.095915653 0.063350484 0.30100003 4284618511
0.096893303 0.063350484 0.30100003 4284684304
0.097870953 0.063350484 0.30100003 4285210648
0.098848604 0.063350484 0.30100003 4284881683
0.10015789 0.063560948 0.30200002 4284421904
0.049302168 0.063473605 0.29700002 4282850838
0.050266825 0.063473605 0.29700002 4282913549
0.051231481 0.063473605 0.29700002 4282979083
0.052196138 0.063473605 0.29700002 4281273351
0.053160798 0.063473605 0.29700002 4279111430
0.066364981 0.064114749 0.30000001 4285496953
0.067339376 0.064114749 0.30000001 4283587929
0.068313777 0.064114749 0.30000001 4278849033
0.069288179 0.064114749 0.30000001 4279638547
0.07049679 0.064328469 0.30100003 4281217579
0.07147444 0.064328469 0.30100003 4279506961
0.072452091 0.064328469 0.30100003 4279374605
0.073673688 0.064542182 0.30200002 4281284142
0.074654587 0.064542182 0.30200002 4281613620
0.075635478 0.064542182 0.30200002 4278979849
0.076616377 0.064542182 0.30200002 4278716677
0.077597275 0.064542182 0.30200002 4279045385
0.078578167 0.064542182 0.30200002 4280227345
0.079559065 0.064542182 0.30200002 4285692527
0.080539964 0.064542182 0.30200002 4285496690
0.081250928 0.064328469 0.30100003 4285694583
0.082228571 0.064328469 0.30100003 4285562997
0.083206221 0.064328469 0.30100003 4285628790
0.084183872 0.064328469 0.30100003 4285562997
0.085161522 0.064328469 0.30100003 4285562997
0.086139172 0.064328469 0.30100003 4286089081
0.087116823 0.064328469 0.30100003 4283704612
0.088094465 0.064328469 0.30100003 4284028950
0.089072116 0.064328469 0.30100003 4284093712
0.090049759 0.064328469 0.30100003 4284093712
0.091027409 0.064328469 0.30100003 4284158989
0.092005059 0.064328469 0.30100003 4284224525
0.092982709 0.064328469 0.30100003 4284290318
0.09396036 0.064328469 0.30100003 4284158989
0.094938003 0.064328469 0.30100003 4284356366
0.095915653 0.064328469 0.30100003 4284158987
0.096893303 0.064328469 0.30100003 4284290316
0.097870953 0.064328469 0.30100003 4284487695
0.098848604 0.064328469 0.30100003 4284422161
0.099826254 0.064328469 0.30100003 4284225298
0.048337512 0.064438581 0.29700002 4281871136
0.049302168 0.064438581 0.29700002 4282850323
0.050266825 0.064438581 0.29700002 4283242255
0.051231481 0.064438581 0.29700002 4283701009
0.052196138 0.064438581 0.29700002 4283833622
0.053160798 0.064438581 0.29700002 4280290054
0.053943206 0.064221613 0.296 4279898891
0.054904617 0.064221613 0.296 4279702284
0.069519147 0.065306447 0.30100003 4283259217
0.07049679 0.065306447 0.30100003 4278782470
0.07171189 0.065523408 0.30200002 4279109893
0.072692789 0.065523408 0.30200002 4279109893
0.073673688 0.065523408 0.30200002 4279109893
0.074654587 0.065523408 0.30200002 4279176201
0.075635478 0.065523408 0.30200002 4279438088
0.076616377 0.065523408 0.30200002 4280291339
0.077854216 0.065740369 0.303 4282062867
0.078578167 0.065523408 0.30200002 4282718741
0.079559065 0.065523408 0.30200002 4284967003
0.080539964 0.065523408 0.30200002 4285562224
0.081520863 0.065523408 0.30200002 4285562997
0.082501754 0.065523408 0.30200002 4285497204
0.083482653 0.065523408 0.30200002 4285562997
0.084183872 0.065306447 0.30100003 4285497204
0.085161522 0.065306447 0.30100003 4285759601
0.086139172 0.065306447 0.30100003 4283120949
0.087116823 0.065306447 0.30100003 4283898136
0.088387132 0.065523408 0.30200002 4284027921
0.08936803 0.065523408 0.30200002 4284356114
0.090348929 0.065523408 0.30200002 4284224528
0.091329828 0.065523408 0.30200002 4284421904
0.092310719 0.065523408 0.30200002 4284224523
0.093291618 0.065523408 0.30200002 4283896587
0.094272517 0.065523408 0.30200002 4283831564
0.095253408 0.065523408 0.30200002 4283767054
0.096234307 0.065523408 0.30200002 4283898640
0.097215205 0.065523408 0.30200002 4284030226
0.098196104 0.065523408 0.30200002 4283767054
0.098848604 0.065306447 0.30100003 4283898640
0.047372855 0.065403573 0.29700002 4279439625
0.048337512 0.065403573 0.29700002 4281541404
0.049302168 0.065403573 0.29700002 4283178518
0.050266825 0.065403573 0.29700002 4283439634
0.051231481 0.065403573 0.29700002 4283962898
0.052196138 0.065403573 0.29700002 4284094484
0.053160798 0.065403573 0.29700002 4284094997
0.053943206 0.065183349 0.296 4284228380
0.054904617 0.065183349 0.296 4283638296
0.070730999 0.066504642 0.30200002 4283126346
0.07171189 0.066504642 0.30200002 4281011980
0.072692789 0.066504642 0.30200002 4281274636
0.073917635 0.066724852 0.303 4281799697
0.074901782 0.066724852 0.303 4282062355
0.075885922 0.066724852 0.303 4282914836
0.076870069 0.066724852 0.303 4283243288
0.077854216 0.066724852 0.303 4283702552
0.078838356 0.066724852 0.303 4283767829
0.079822503 0.066724852 0.303 4283514930
0.080539964 0.066504642 0.30200002 4286086511
0.081520863 0.066504642 0.30200002 4285693556
0.082501754 0.066504642 0.30200002 4285628276
0.083482653 0.066504642 0.30200002 4285628276
0.084463552 0.066504642 0.30200002 4285431151
0.085444443 0.066504642 0.30200002 4284499263
0.086425342 0.066504642 0.30200002 4283767577
0.08740624 0.066504642 0.30200002 4284093712
0.088387132 0.066504642 0.30200002 4284093966
0.08936803 0.066504642 0.30200002 4284356368
0.090348929 0.066504642 0.30200002 4284421904
0.091329828 0.066504642 0.30200002 4284487697
0.092310719 0.066504642 0.30200002 4284158989
0.093291618 0.066504642 0.30200002 4283569421
0.094272517 0.066504642 0.30200002 4283307276
0.095253408 0.066504642 0.30200002 4283045389
0.096234307 0.066504642 0.30200002 4283242768
0.097215205 0.066504642 0.30200002 4283571733
0.098196104 0.066504642 0.30200002 4283637526
0.099176995 0.066504642 0.30200002 4283375383
0.047372855 0.06636855 0.29700002 4279373832
0.048337512 0.06636855 0.29700002 4281672990
0.049302168 0.06636855 0.29700002 4283112211
0.050266825 0.06636855 0.29700002 4283701522
0.051231481 0.06636855 0.29700002 4284227353
0.052196138 0.06636855 0.29700002 4284292374
0.053160798 0.06636855 0.29700002 4284357138
0.053943206 0.066145085 0.296 4284685074
0.054904617 0.066145085 0.296 4284948246
0.055866025 0.066145085 0.296 4284619538
0.056827433 0.066145085 0.296 4286069037
0.070730999 0.067485869 0.30200002 4286088829
0.071949348 0.067709327 0.303 4281076226
0.072933495 0.067709327 0.303 4283110928
0.073917635 0.067709327 0.303 4283109899
0.074901782 0.067709327 0.303 4283044106
0.075885922 0.067709327 0.303 4283437837
0.076870069 0.067709327 0.303 4283832854
0.077854216 0.067709327 0.303 4284030487
0.078838356 0.067709327 0.303 4283898899
0.079822503 0.067709327 0.303 4282786840
0.08080665 0.067709327 0.303 4286347886
0.081790797 0.067709327 0.303 4285825396
0.082501754 0.067485869 0.30200002 4285759603
0.083482653 0.067485869 0.30200002 4285758320
0.084463552 0.067485869 0.30200002 4283777596
0.085444443 0.067485869 0.30200002 4284161306
0.086425342 0.067485869 0.30200002 4284356886
0.08740624 0.067485869 0.30200002 4284421904
0.088679798 0.067709327 0.303 4284421904
0.089663945 0.067709327 0.303 4284224525
0.090648092 0.067709327 0.303 4284487697
0.09163224 0.067709327 0.303 4284158989
0.092616387 0.067709327 0.303 4283831564
0.093600526 0.067709327 0.303 4282849293
0.094584674 0.067709327 0.303 4282586381
0.095253408 0.067485869 0.30200002 4282783760
0.096234307 0.067485869 0.30200002 4282849553
0.097215205 0.067485869 0.30200002 4283046934
0.098196104 0.067485869 0.30200002 4283442977
0.047372855 0.067333534 0.29700002 4279636237
0.048337512 0.067333534 0.29700002 4282395943
0.049302168 0.067333534 0.29700002 4283309590
0.050266825 0.067333534 0.29700002 4283768599
0.051231481 0.067333534 0.29700002 4284293659
0.052196138 0.067333534 0.29700002 4284292374
0.052981801 0.067106821 0.296 4284291345
0.053943206 0.067106821 0.296 4284619283
0.054904617 0.067106821 0.296 4285144342
0.055866025 0.067106821 0.296 4288172360
0.056635451 0.066880114 0.29500002 4285543465
0.05759361 0.066880114 0.29500002 4285145107
0.071949348 0.068693802 0.303 4281998611
0.072933495 0.068693802 0.303 4283111182
0.074161589 0.068920523 0.30400002 4283437067
0.075148985 0.068920523 0.30400002 4283633933
0.076136373 0.068920523 0.30400002 4283699726
0.077123769 0.068920523 0.30400002 4283897618
0.077854216 0.068693802 0.303 4284226583
0.078838356 0.068693802 0.303 4284226583
0.079822503 0.068693802 0.303 4283111952
0.08080665 0.068693802 0.303 4287201137
0.081790797 0.068693802 0.303 4285562222
0.082774937 0.068693802 0.303 4286547836
0.083759077 0.068693802 0.303 4283244061
0.084743224 0.068693802 0.303 4284094745
0.085727371 0.068693802 0.303 4284487700
0.086711518 0.068693802 0.303 4284224528
0.087695666 0.068693802 0.303 4284421904
0.088679798 0.068693802 0.303 4284487697
0.089663945 0.068693802 0.303 4284487697
0.090648092 0.068693802 0.303 4284422161
0.091934659 0.068920523 0.30400002 4283570188
0.092616387 0.068693802 0.303 4282717194
0.093600526 0.068693802 0.303 4282391570
0.094584674 0.068693802 0.303 4283642153
0.095568813 0.068693802 0.303 4283382317
0.096552961 0.068693802 0.303 4283580723
0.097215205 0.068467095 0.30200002 4285227861
0.098196104 0.068467095 0.30200002 4287071609
0.047372855 0.068298519 0.29700002 4280032532
0.048337512 0.068298519 0.29700002 4282001955
0.049302168 0.068298519 0.29700002 4283245081
0.050266825 0.068298519 0.29700002 4283572249
0.051231481 0.068298519 0.29700002 4284096278
0.052196138 0.068298519 0.29700002 4284227605
0.052981801 0.068068549 0.296 4284225552
0.053943206 0.068068549 0.296 4284553490
0.054904617 0.068068549 0.296 4284881168
0.055677291 0.067838594 0.29500002 4285011984
0.056635451 0.067838594 0.29500002 4286922038
0.05759361 0.067838594 0.29500002 4285341721
0.05835329 0.067608625 0.294 4284815375
0.059308197 0.067608625 0.294 4284815888
0.060263112 0.067608625 0.294 4284487695
0.072186805 0.069908246 0.30400002 4284698437
0.073174201 0.069908246 0.30400002 4283112465
0.074161589 0.069908246 0.30400002 4283699726
0.075148985 0.069908246 0.30400002 4283830542
0.076136373 0.069908246 0.30400002 4283830540
0.077123769 0.069908246 0.30400002 4283962896
0.077854216 0.069678284 0.303 4284423447
0.078838356 0.069678284 0.303 4284620826
0.079822503 0.069678284 0.303 4284752666
0.08080665 0.069678284 0.303 4286730313
0.081790797 0.069678284 0.303 4285221701
0.082774937 0.069678284 0.303 4283177493
0.083759077 0.069678284 0.303 4284357402
0.084743224 0.069678284 0.303 4284422679
0.085727371 0.069678284 0.303 4284553490
0.086711518 0.069678284 0.303 4284487697
0.087695666 0.069678284 0.303 4284421904
0.088972479 0.069908246 0.30400002 4284619283
0.089959875 0.069908246 0.30400002 4284224782
0.090947263 0.069908246 0.30400002 4284028173
0.091934659 0.069908246 0.30400002 4282256902
0.092922054 0.069908246 0.30400002 4282258188
0.09390945 0.069908246 0.30400002 4281472783
0.094896838 0.069908246 0.30400002 4286675309
0.095568813 0.069678284 0.303 4285955697
0.096552961 0.069678284 0.303 4285890417
0.0975371 0.069678284 0.303 4285890415
0.047372855 0.069263503 0.29700002 4279901203
0.048337512 0.069263503 0.29700002 4281672990
0.049302168 0.069263503 0.29700002 4283179801
0.050266825 0.069263503 0.29700002 4283310104
0.051231481 0.069263503 0.29700002 4283571733
0.052196138 0.069263503 0.29700002 4283702804
0.052981801 0.069030285 0.296 4283963150
0.053943206 0.069030285 0.296 4284356368
0.054904617 0.069030285 0.296 4284750095
0.055677291 0.068797082 0.29500002 4284946961
0.056635451 0.068797082 0.29500002 4284618509
0.057398375 0.068563864 0.294 4289818977
0.05835329 0.068563864 0.294 4284552970
0.059308197 0.068563864 0.294 4284881422
0.060263112 0.068563864 0.294 4284815888
0.061218027 0.068563864 0.294 4284553488
0.062172942 0.068563864 0.294 4284356366
0.074161589 0.070895977 0.30400002 4284490005
0.075148985 0.070895977 0.30400002 4284160527
0.076136373 0.070895977 0.30400002 4284291345
0.077123769 0.070895977 0.30400002 4284422931
0.077854216 0.070662759 0.303 4284685333
0.078838356 0.070662759 0.303 4284882710
0.079822503 0.070662759 0.303 4284750867
0.08080665 0.070662759 0.303 4284750867
0.081790797 0.070662759 0.303 4284948248
0.082774937 0.070662759 0.303 4284750869
0.083759077 0.070662759 0.303 4284750869
0.084743224 0.070662759 0.303 4284685076
0.085727371 0.070662759 0.303 4284882455
0.086997695 0.070895977 0.30400002 4284619283
0.087985091 0.070895977 0.30400002 4284750869
0.088972479 0.070895977 0.30400002 4284619283
0.089959875 0.070895977 0.30400002 4284029456
0.090947263 0.070895977 0.30400002 4282847495
0.091934659 0.070895977 0.30400002 4282520592
0.092922054 0.070895977 0.30400002 4283906354
0.09390945 0.070895977 0.30400002 4286217327
0.094896838 0.070895977 0.30400002 4285955697
0.095884226 0.070895977 0.30400002 4285955699
0.096552961 0.070662759 0.303 4286022005
0.047532357 0.070464939 0.29800001 4279769363
0.048500262 0.070464939 0.29800001 4281344538
0.049302168 0.07022848 0.29700002 4283048987
0.050266825 0.07022848 0.29700002 4283114010
0.051231481 0.07022848 0.29700002 4283178258
0.052196138 0.07022848 0.29700002 4283374352
0.052981801 0.069992021 0.296 4283897357
0.053943206 0.069992021 0.296 4284158989
0.054719131 0.069755562 0.29500002 4284487695
0.055677291 0.069755562 0.29500002 4284750097
0.056635451 0.069755562 0.29500002 4284685072
0.057398375 0.069519103 0.294 4284686869
0.05835329 0.069519103 0.294 4284552716
0.059308197 0.069519103 0.294 4284749582
0.060263112 0.069519103 0.294 4284552718
0.061218027 0.069519103 0.294 4284355339
0.062172942 0.069519103 0.294 4284619281
0.076136373 0.071883701 0.30400002 4284553488
0.077123769 0.071883701 0.30400002 4284684304
0.077854216 0.071647234 0.303 4284815377
0.078838356 0.071647234 0.303 4284815377
0.079822503 0.071647234 0.303 4284815377
0.08080665 0.071647234 0.303 4284946963
0.081790797 0.071647234 0.303 4284946963
0.082774937 0.071647234 0.303 4284881170
0.083759077 0.071647234 0.303 4284881683
0.085022911 0.071883701 0.30400002 4285014039
0.086010307 0.071883701 0.30400002 4284882710
0.086997695 0.071883701 0.30400002 4284816917
0.087985091 0.071883701 0.30400002 4284422159
0.088972479 0.071883701 0.30400002 4284094734
0.089959875 0.071883701 0.30400002 4282651914
0.091246434 0.07212016 0.30500001 4282455049
0.09223707 0.07212016 0.30500001 4285820511
0.093227714 0.07212016 0.30500001 4286151534
0.09390945 0.071883701 0.30400002 4285956210
0.094896838 0.071883701 0.30400002 4286022003
0.095884226 0.071883701 0.30400002 4286087798
0.047532357 0.071433172 0.29800001 4279572754
0.048500262 0.071433172 0.29800001 4280556821
0.049468167 0.071433172 0.29800001 4282328346
0.050266825 0.071193472 0.29700002 4282656026
0.051231481 0.071193472 0.29700002 4282916116
0.052196138 0.071193472 0.29700002 4282981393
0.052981801 0.070953757 0.296 4283307276
0.053943206 0.070953757 0.296 4283569421
0.054719131 0.070714049 0.29500002 4284028173
0.055677291 0.070714049 0.29500002 4284224782
0.056635451 0.070714049 0.29500002 4284423699
0.057398375 0.070474342 0.294 4284160527
0.05835329 0.070474342 0.294 4284093196
0.059308197 0.070474342 0.294 4284224525
0.060263112 0.070474342 0.294 4284158732
0.061218027 0.070474342 0.294 4284027403
0.062172942 0.070474342 0.294 4284224782
0.076136373 0.072871432 0.30400002 4284881170
0.077123769 0.072871432 0.30400002 4284881170
0.077854216 0.072631717 0.303 4284815377
0.078838356 0.072631717 0.303 4284946963
0.079822503 0.072631717 0.303 4284946963
0.08080665 0.072631717 0.303 4285078549
0.081790797 0.072631717 0.303 4284946963
0.082774937 0.072631717 0.303 4285275928
0.084035516 0.072871432 0.30400002 4285079832
0.085022911 0.072871432 0.30400002 4285014039
0.086010307 0.072871432 0.30400002 4285014296
0.086997695 0.072871432 0.30400002 4284422159
0.087985091 0.072871432 0.30400002 4283898386
0.088972479 0.072871432 0.30400002 4282848010
0.090255789 0.073111132 0.30500001 4282260498
0.091246434 0.073111132 0.30500001 4286806379
0.09223707 0.073111132 0.30500001 4285824624
0.093227714 0.073111132 0.30500001 4285956210
0.094218358 0.073111132 0.30500001 4285956212
0.047532357 0.072401412 0.29800001 4279441938
0.048500262 0.072401412 0.29800001 4279769617
0.049468167 0.072401412 0.29800001 4282263582
0.050436068 0.072401412 0.29800001 4282591518
0.051231481 0.072158456 0.29700002 4282721051
0.052196138 0.072158456 0.29700002 4282719252
0.053160798 0.072158456 0.29700002 4282651660
0.053943206 0.071915492 0.296 4283110669
0.054904617 0.071915492 0.296 4283504141
0.055677291 0.071672536 0.29500002 4283701007
0.056635451 0.071672536 0.29500002 4283964433
0.057398375 0.071429573 0.294 4283964431
0.05835329 0.071429573 0.294 4283897357
0.059308197 0.071429573 0.294 4284357138
0.060263112 0.071429573 0.294 4283831823
0.061218027 0.071429573 0.294 4283569934
0.062172942 0.071429573 0.294 4282389776
0.077597275 0.073373243 0.30200002 4284881170
0.078578167 0.073373243 0.30200002 4285078547
0.079559065 0.073373243 0.30200002 4285144340
0.08080665 0.073616199 0.303 4285275926
0.081790797 0.073616199 0.303 4285408797
0.082774937 0.073616199 0.303 4289888113
0.084035516 0.073859155 0.30400002 4290743690
0.085022911 0.073859155 0.30400002 4283962898
0.086010307 0.073859155 0.30400002 4284029202
0.086997695 0.073859155 0.30400002 4283176462
0.088274516 0.074102111 0.30500001 4282389004
0.089265145 0.074102111 0.30500001 4282522645
0.090255789 0.074102111 0.30500001 4286743668
0.091246434 0.074102111 0.30500001 4285955697
0.09223707 0.074102111 0.30500001 4285890165
0.093227714 0.074102111 0.30500001 4285955958
0.047532357 0.073369637 0.29800001 4279507731
0.048500262 0.073369637 0.29800001 4279441938
0.049468167 0.073369637 0.29800001 4280293136
0.050436068 0.073369637 0.29800001 4282461477
0.051231481 0.073123433 0.29700002 4282460445
0.052196138 0.073123433 0.29700002 4282524440
0.053160798 0.073123433 0.29700002 4282653459
0.053943206 0.072877221 0.296 4282849553
0.054904617 0.072877221 0.296 4282980112
0.055677291 0.072631024 0.29500002 4283111182
0.056635451 0.072631024 0.29500002 4283767827
0.057398375 0.072384812 0.294 4283898899
0.05835329 0.072384812 0.294 4284094995
0.059308197 0.072384812 0.294 4284160788
0.060263112 0.072384812 0.294 4283506710
0.061218027 0.072384812 0.294 4284958529
0.062172942 0.072384812 0.294 4285496431
0.074884132 0.073615849 0.29900002 4285077777
0.076108977 0.073862053 0.30000001 4285077777
0.077340335 0.074108265 0.30100003 4285209365
0.078317977 0.074108265 0.30100003 4285275158
0.079559065 0.07435447 0.30200002 4285144342
0.080539964 0.07435447 0.30200002 4285604891
0.081790797 0.074600674 0.303 4284750095
0.082774937 0.074600674 0.303 4284290316
0.084035516 0.074846886 0.30400002 4284029720
0.085022911 0.074846886 0.30400002 4283899163
0.086010307 0.074846886 0.30400002 4282192397
0.087283872 0.075093083 0.30500001 4282192910
0.088274516 0.075093083 0.30500001 4282131996
0.089265145 0.075093083 0.30500001 4286480242
0.090255789 0.075093083 0.30500001 4286022003
0.091246434 0.075093083 0.30500001 4286022005
0.09223707 0.075093083 0.30500001 4285955958
0.047532357 0.07433787 0.29800001 4279836696
0.048500262 0.07433787 0.29800001 4279705110
0.049468167 0.07433787 0.29800001 4279770387
0.050436068 0.07433787 0.29800001 4279966996
0.051403977 0.07433787 0.29800001 4281671959
0.052196138 0.074088417 0.29700002 4282592031
0.053160798 0.074088417 0.29700002 4282457361
0.053943206 0.073838957 0.296 4282193676
0.054904617 0.073838957 0.296 4282389772
0.055866025 0.073838957 0.296 4282389772
0.056635451 0.073589511 0.29500002 4282849039
0.05759361 0.073589511 0.29500002 4283177491
0.05835329 0.073340051 0.294 4283505686
0.059308197 0.073340051 0.294 4283572762
0.060263112 0.073340051 0.294 4283312934
0.061218027 0.073340051 0.294 4286935401
0.062172942 0.073340051 0.294 4285234032
0.074884132 0.07458733 0.29900002 4284946961
0.076108977 0.074836783 0.30000001 4285210133
0.077340335 0.075086243 0.30100003 4285210135
0.078317977 0.075086243 0.30100003 4284882712
0.079295628 0.075086243 0.30100003 4285210648
0.080539964 0.075335696 0.30200002 4284881683
0.081790797 0.075585149 0.303 4285013267
0.082774937 0.075585149 0.303 4284487693
0.084035516 0.07583461 0.30400002 4283635729
0.085022911 0.07583461 0.30400002 4282257418
0.086010307 0.07583461 0.30400002 4281930254
0.087283872 0.076084062 0.30500001 4282392086
0.088274516 0.076084062 0.30500001 4286349937
0.089265145 0.076084062 0.30500001 4285825392
0.090255789 0.076084062 0.30500001 4285956982
0.091246434 0.076084062 0.30500001 4285956982
0.047532357 0.075306103 0.29800001 4279244559
0.048500262 0.075306103 0.29800001 4279376145
0.049468167 0.075306103 0.29800001 4279376145
0.050436068 0.075306103 0.29800001 4279506961
0.051403977 0.075306103 0.29800001 4279965969
0.052196138 0.075053401 0.29700002 4280622101
0.053160798 0.075053401 0.29700002 4281277201
0.054125451 0.075053401 0.29700002 4281802515
0.054904617 0.074800692 0.296 4281997328
0.055866025 0.074800692 0.296 4282325779
0.056827433 0.074800692 0.296 4282457365
0.05759361 0.074547991 0.29500002 4282259473
0.058551773 0.074547991 0.29500002 4282457365
0.059308197 0.074295282 0.294 4284563255
0.060263112 0.074295282 0.294 4281733642
0.061218027 0.074295282 0.294 4281667595
0.062172942 0.074295282 0.294 4281672224
0.073912986 0.075558811 0.29900002 4283832077
0.074884132 0.075558811 0.29900002 4284291343
0.076108977 0.075811513 0.30000001 4284553488
0.077083379 0.075811513 0.30000001 4284946961
0.078317977 0.076064222 0.30100003 4287974981
0.079295628 0.076064222 0.30100003 4288899933
0.080539964 0.076316923 0.30200002 4284882453
0.081520863 0.076316923 0.30200002 4284946191
0.082774937 0.076569624 0.303 4284815375
0.083759077 0.076569624 0.303 4283767054
0.085022911 0.076822333 0.30400002 4283638555
0.086010307 0.076822333 0.30400002 4282064920
0.086997695 0.076822333 0.30400002 4286742383
0.088274516 0.077075042 0.30500001 4285890415
0.088972479 0.076822333 0.30400002 4285891187
0.089959875 0.076822333 0.30400002 4285891189
0.047532357 0.076274335 0.29800001 4279441938
0.048500262 0.076274335 0.29800001 4279244559
0.049468167 0.076274335 0.29800001 4279178766
0.050436068 0.076274335 0.29800001 4279506961
0.051403977 0.076274335 0.29800001 4279703824
0.052371882 0.076274335 0.29800001 4279835410
0.053160798 0.076018386 0.29700002 4280031762
0.054125451 0.076018386 0.29700002 4279965969
0.055090107 0.076018386 0.29700002 4280424206
0.056054767 0.076018386 0.29700002 4282068002
0.056827433 0.075762428 0.296 4283582784
0.057788841 0.075762428 0.296 4285228894
0.058551773 0.075506479 0.29500002 4283385920
0.059509929 0.075506479 0.29500002 4282397226
0.060468093 0.075506479 0.29500002 4281474066
0.061426256 0.075506479 0.29500002 4281866260
0.062384415 0.075506479 0.29500002 4281865488
0.074160181 0.07678625 0.30000001 4283045135
0.075134575 0.07678625 0.30000001 4283701007
0.076108977 0.07678625 0.30000001 4284357138
0.077083379 0.07678625 0.30000001 4284815377
0.078057781 0.07678625 0.30000001 4285144340
0.079295628 0.077042207 0.30100003 4288764238
0.080273278 0.077042207 0.30100003 4284881170
0.081520863 0.077298157 0.30200002 4285078547
0.082501754 0.077298157 0.30200002 4284815888
0.083759077 0.077554107 0.303 4284160529
0.085022911 0.077810064 0.30400002 4284428071
0.086010307 0.077810064 0.30400002 4286940023
0.086997695 0.077810064 0.30400002 4286086513
0.087985091 0.077810064 0.30400002 4286087798
0.088972479 0.077810064 0.30400002 4286022005
0.047532357 0.077242576 0.29800001 4279441938
0.048500262 0.077242576 0.29800001 4279244559
0.049468167 0.077242576 0.29800001 4279376145
0.050436068 0.077242576 0.29800001 4279244559
0.051403977 0.077242576 0.29800001 4279506961
0.052371882 0.077242576 0.29800001 4279638547
0.053160798 0.07698337 0.29700002 4279638547
0.054125451 0.07698337 0.29700002 4279572754
0.055090107 0.07698337 0.29700002 4279769363
0.056054767 0.07698337 0.29700002 4280690208
0.05701942 0.07698337 0.29700002 4282007349
0.057788841 0.076724164 0.296 4284574559
0.058750253 0.076724164 0.296 4284904040
0.059711657 0.076724164 0.296 4285233007
0.060673065 0.076724164 0.296 4285430638
0.061634477 0.076724164 0.296 4286022005
0.062595889 0.076724164 0.296 4285756269
0.072452091 0.078020185 0.30100003 4281869090
0.073185779 0.07776098 0.30000001 4282193939
0.074160181 0.07776098 0.30000001 4282586383
0.075134575 0.07776098 0.30000001 4283635214
0.076108977 0.07776098 0.30000001 4284225552
0.077083379 0.07776098 0.30000001 4284487695
0.078057781 0.07776098 0.30000001 4284881683
0.079295628 0.078020185 0.30100003 4284881170
0.080273278 0.078020185 0.30100003 4285210135
0.081250928 0.078020185 0.30100003 4285210646
0.082501754 0.078279383 0.30200002 4284684302
0.083759077 0.078538589 0.303 4283963148
0.084743224 0.078538589 0.303 4285482556
0.086010307 0.078797795 0.30400002 4286021492
0.086997695 0.078797795 0.30400002 4286285177
0.049468167 0.078210801 0.29800001 4279376145
0.050436068 0.078210801 0.29800001 4279441938
0.051403977 0.078210801 0.29800001 4279376145
0.052371882 0.078210801 0.29800001 4279441938
0.053339787 0.078210801 0.29800001 4279572756
0.054125451 0.077948347 0.29700002 4279638549
0.055090107 0.077948347 0.29700002 4279572756
0.056054767 0.077948347 0.29700002 4281085995
0.05701942 0.077948347 0.29700002 4282863689
0.057984076 0.077948347 0.29700002 4284509282
0.058948737 0.077948347 0.29700002 4285101419
0.059913389 0.077948347 0.29700002 4285364591
0.060878046 0.077948347 0.29700002 4285496690
0.061842706 0.077948347 0.29700002 4285628276
0.072452091 0.078998163 0.30100003 4282325787
0.073429734 0.078998163 0.30100003 4282653207
0.074160181 0.078735702 0.30000001 4282717971
0.075134575 0.078735702 0.30000001 4283569423
0.076108977 0.078735702 0.30000001 4283897616
0.077083379 0.078735702 0.30000001 4283963150
0.078057781 0.078735702 0.30000001 4284094736
0.079032183 0.078735702 0.30000001 4284487695
0.080273278 0.078998163 0.30100003 4284619281
0.081250928 0.078998163 0.30100003 4284750867
0.082501754 0.07926061 0.30200002 4284421902
0.083482653 0.07926061 0.30200002 4283833106
0.084743224 0.079523057 0.303 4286407512
0.085727371 0.079523057 0.303 4285891189
0.072452091 0.079976141 0.30100003 4282917662
0.073429734 0.079976141 0.30100003 4282456852
0.074160181 0.079710439 0.30000001 4282521873
0.075134575 0.079710439 0.30000001 4282980112
0.076108977 0.079710439 0.30000001 4283373841
0.077083379 0.079710439 0.30000001 4283833106
0.078057781 0.079710439 0.30000001 4283767054
0.079032183 0.079710439 0.30000001 4283897357
0.080273278 0.079976141 0.30100003 4284226322
0.081250928 0.079976141 0.30100003 4284291345
0.082228571 0.079976141 0.30100003 4283897357
0.083482653 0.080241837 0.30200002 4282390289
0.084463552 0.080241837 0.30200002 4287201912
0.072452091 0.080954127 0.30100003 4282129943
0.073429734 0.080954127 0.30100003 4282786844
0.074160181 0.080685169 0.30000001 4282521875
0.075134575 0.080685169 0.30000001 4282587153
0.076108977 0.080685169 0.30000001 4282981141
0.077083379 0.080685169 0.30000001 4283374870
0.078057781 0.080685169 0.30000001 4283177745
0.079032183 0.080685169 0.30000001 4283570448
0.080006585 0.080685169 0.30000001 4283898899
0.081250928 0.080954127 0.30100003 4283898899
0.082228571 0.080954127 0.30100003 4284031769
0.072452091 0.081932105 0.30100003 4285824372
0.073429734 0.081932105 0.30100003 4282923057
0.074407384 0.081932105 0.30100003 4281997074
0.075134575 0.081659898 0.30000001 4282588438
0.076108977 0.081659898 0.30000001 4282653461
0.077083379 0.081659898 0.30000001 4282784784
0.078057781 0.081659898 0.30000001 4283047186
0.079032183 0.081659898 0.30000001 4283046672
0.080006585 0.081659898 0.30000001 4283243538
0.081250928 0.081932105 0.30100003 4283178518
0.082228571 0.081932105 0.30100003 4284432439
0.073429734 0.082910091 0.30100003 4286022775
0.074407384 0.082910091 0.30100003 4286152308
0.075134575 0.082634635 0.30000001 4284108098
0.076108977 0.082634635 0.30000001 4282263836
0.077083379 0.082634635 0.30000001 4282260498
0.078057781 0.082634635 0.30000001 4282194191
0.079032183 0.082634635 0.30000001 4282457361
0.080006585 0.082634635 0.30000001 4283380264
0.075134575 0.083609357 0.30000001 4285891702
0.079032183 0.083609357 0.30000001 4286349937
0.075630486 0.059218504 0.29801148 4294967295
0.075630486 0.059218504 0.29801148 4294901760
0.075630486 0.058721162 0.29795998 4294901760
0.075630486 0.058223825 0.29790846 4294901760
0.075630486 0.057726484 0.29785696 4294901760
0.075630486 0.057229143 0.29780546 4294901760
0.075630486 0.056731805 0.29775396 4294901760
0.075630486 0.056234464 0.29770243 4294901760
0.075630486 0.055737123 0.29765093 4294901760
0.075630486 0.055239782 0.29759943 4294901760
0.075630486 0.054742444 0.29754791 4294901760
0.075630486 0.054245103 0.29749641 4294901760
0.075630486 0.053747762 0.29744491 4294901760
0.075630486 0.053250425 0.29739341 4294901760
0.075630486 0.052753083 0.29734188 4294901760
0.075630486 0.052255742 0.29729038 4294901760
0.075630486 0.051758405 0.29723889 4294901760
0.075630486 0.051261064 0.29718739 4294901760
0.075630486 0.050763723 0.29713586 4294901760
0.075630486 0.050266385 0.29708436 4294901760
0.075630486 0.049769044 0.29703286 4294901760
0.075630486 0.049271703 0.29698133 4294901760
0.075630486 0.048774362 0.29692984 4294901760
0.075630486 0.048277024 0.29687834 4294901760
0.075630486 0.047779683 0.29682684 4294901760
0.075630486 0.047282346 0.29677531 4294901760
0.075630486 0.046785004 0.29672381 4294901760
0.075630486 0.046287663 0.29667231 4294901760
0.075630486 0.045790322 0.29662079 4294901760
0.075630486 0.045292985 0.29656929 4294901760
0.075630486 0.044795644 0.29651779 4294901760
0.075630486 0.044298302 0.29646629 4294901760
0.075630486 0.043800965 0.29641476 4294901760
0.075630486 0.043303624 0.29636326 4294901760
0.075630486 0.042806283 0.29631177 4294901760
0.075630486 0.042308941 0.29626024 4294901760
0.075630486 0.041811604 0.29620874 4294901760
0.075630486 0.041314263 0.29615724 4294901760
0.075630486 0.040816925 0.29610574 4294901760
0.075630486 0.040319584 0.29605421 4294901760
0.075630486 0.039822243 0.29600272 4294901760
0.075630486 0.039324902 0.29595122 4294901760
0.075630486 0.038827565 0.29589972 4294901760
0.075630486 0.038330223 0.29584819 4294901760
0.075630486 0.037832882 0.29579669 4294901760
0.075630486 0.037335545 0.29574519 4294901760
0.075630486 0.036838204 0.29569367 4294901760
0.075630486 0.036340863 0.29564217 4294901760
0.075630486 0.035843521 0.29559067 4294901760
0.075630486 0.035346184 0.29553917 4294901760
0.075630486 0.034848843 0.29548764 4294901760
0.075630486 0.034351505 0.29543614 4294901760
0.075630486 0.033854164 0.29538465 4294901760
0.075630486 0.033356823 0.29533312 4294901760
0.075630486 0.032859486 0.29528162 4294901760
0.075630486 0.032362141 0.29523012 4294901760
0.075630486 0.031864803 0.29517862 4294901760
0.075630486 0.031367466 0.29512709 4294901760
0.075630486 0.030870125 0.2950756 4294901760
0.075630486 0.030372784 0.2950241 4294901760
0.075630486 0.029875444 0.29497257 4294901760
0.075630486 0.029378103 0.29492107 4294901760
0.075630486 0.028880762 0.29486957 4294901760
0.075630486 0.028383423 0.29481807 4294901760
0.075630486 0.027886085 0.29476655 4294901760
0.075630486 0.027388744 0.29471505 4294901760
0.075630486 0.026891403 0.29466355 4294901760
0.075630486 0.026394062 0.29461205 4294901760
0.075630486 0.025896724 0.29456052 4294901760
0.075630486 0.025399383 0.29450902 4294901760
0.075630486 0.024902042 0.29445753 4294901760
0.075630486 0.024404705 0.294406 4294901760
0.075630486 0.023907363 0.2943545 4294901760
0.075630486 0.023410022 0.294303 4294901760
0.075630486 0.022912681 0.2942515 4294901760
0.075630486 0.022415344 0.29419997 4294901760
0.075630486 0.021918003 0.29414847 4294901760
0.075630486 0.021420665 0.29409698 4294901760
0.075630486 0.020923324 0.29404545 4294901760
0.075630486 0.020425986 0.29399395 4294901760
0.075630486 0.019928642 0.29394245 4294901760
0.075630486 0.019431304 0.29389095 4294901760
0.075630486 0.018933963 0.29383942 4294901760
0.075630486 0.018436626 0.29378793 4294901760
0.075630486 0.017939284 0.29373643 4294901760
0.075630486 0.017441943 0.2936849 4294901760
0.075630486 0.016944602 0.2936334 4294901760
0.075630486 0.016447261 0.2935819 4294901760
0.075630486 0.015949924 0.2935304 4294901760
0.075630486 0.015452582 0.29347888 4294901760
0.075630486 0.014955245 0.29342738 4294901760
0.075630486 0.014457904 0.29337588 4294901760
0.075630486 0.013960563 0.29332438 4294901760
0.075630486 0.013463221 0.29327285 4294901760
0.075630486 0.012965884 0.29322135 4294901760
0.075630486 0.012468543 0.29316986 4294901760
0.075630486 0.011971205 0.29311833 4294901760
0.075630486 0.011473864 0.29306683 4294901760
0.075630486 0.010976523 0.29301533 4294901760
0.075630486 0.010479182 0.29296383 4294901760
0.075630486 0.0099818446 0.2929123 4294901760
0.075630486 0.0094845034 0.29286081 4294901760
0.075630486 0.059218504 0.29801148 4278255360
0.076124303 0.059210427 0.29808944 4278255360
0.07661812 0.059202351 0.29816744 4278255360
0.077111937 0.059194278 0.2982454 4278255360
0.077605754 0.059186202 0.29832339 4278255360
0.078099564 0.059178125 0.29840136 4278255360
0.078593381 0.059170049 0.29847935 4278255360
0.079087198 0.059161972 0.29855731 4278255360
0.079581015 0.0591539 0.2986353 4278255360
0.080074832 0.059145823 0.29871327 4278255360
0.080568649 0.059137747 0.29879126 4278255360
0.081062466 0.05912967 0.29886922 4278255360
0.081556283 0.059121598 0.29894722 4278255360
0.082050093 0.059113521 0.29902518 4278255360
0.08254391 0.059105445 0.29910317 4278255360
0.083037727 0.059097368 0.29918113 4278255360
0.083531544 0.059089292 0.29925913 4278255360
0.084025361 0.059081219 0.29933709 4278255360
0.084519178 0.059073143 0.29941505 4278255360
0.085012995 0.059065066 0.29949304 4278255360
0.085506812 0.05905699 0.29957101 4278255360
0.086000621 0.059048913 0.299649 4278255360
0.086494438 0.059040841 0.29972696 4278255360
0.086988255 0.059032764 0.29980496 4278255360
0.087482072 0.059024688 0.29988292 4278255360
0.087975889 0.059016611 0.29996091 4278255360
0.088469706 0.059008535 0.30003887 4278255360
0.088963524 0.059000462 0.30011687 4278255360
0.089457341 0.058992386 0.30019483 4278255360
0.089951158 0.058984309 0.30027282 4278255360
0.090444967 0.058976233 0.30035079 4278255360
0.090938784 0.05896816 0.30042878 4278255360
0.091432601 0.058960084 0.30050674 4278255360
0.091926418 0.058952007 0.30058473 4278255360
0.092420235 0.058943931 0.3006627 4278255360
0.092914052 0.058935855 0.30074066 4278255360
0.093407869 0.058927782 0.30081865 4278255360
0.093901679 0.058919705 0.30089661 4278255360
0.094395503 0.058911629 0.30097461 4278255360
0.094889313 0.058903553 0.30105257 4278255360
0.09538313 0.058895476 0.30113056 4278255360
0.095876947 0.058887403 0.30120853 4278255360
0.096370764 0.058879327 0.30128652 4278255360
0.096864581 0.058871251 0.30136448 4278255360
0.097358398 0.058863174 0.30144247 4278255360
0.097852215 0.058855098 0.30152044 4278255360
0.098346025 0.058847025 0.30159843 4278255360
0.098839842 0.058838949 0.30167639 4278255360
0.099333659 0.058830872 0.30175439 4278255360
0.099827476 0.058822796 0.30183235 4278255360
0.10032129 0.058814719 0.30191034 4278255360
0.10081511 0.058806647 0.3019883 4278255360
0.10130893 0.05879857 0.30206627 4278255360
0.10180274 0.058790494 0.30214426 4278255360
0.10229656 0.058782417 0.30222222 4278255360
0.10279037 0.058774345 0.30230021 4278255360
0.10328419 0.058766268 0.30237818 4278255360
0.103778 0.058758192 0.30245617 4278255360
0.10427182 0.058750115 0.30253413 4278255360
0.10476564 0.058742039 0.30261213 4278255360
0.10525946 0.058733966 0.30269009 4278255360
0.10575327 0.05872589 0.30276808 4278255360
0.10624708 0.058717813 0.30284604 4278255360
0.10674091 0.058709737 0.30292404 4278255360
0.10723472 0.05870166 0.303002 4278255360
0.10772853 0.058693588 0.30307999 4278255360
0.10822235 0.058685511 0.30315796 4278255360
0.10871617 0.058677435 0.30323595 4278255360
0.10920998 0.058669358 0.30331391 4278255360
0.10970379 0.058661282 0.30339187 4278255360
0.11019762 0.058653209 0.30346987 4278255360
0.11069143 0.058645133 0.30354783 4278255360
0.11118525 0.058637056 0.30362582 4278255360
0.11167906 0.05862898 0.30370378 4278255360
0.11217288 0.058620907 0.30378178 4278255360
0.1126667 0.058612831 0.30385974 4278255360
0.11316051 0.058604755 0.30393773 4278255360
0.11365433 0.058596678 0.3040157 4278255360
0.11414814 0.058588602 0.30409369 4278255360
0.11464196 0.058580529 0.30417165 4278255360
0.11513577 0.058572453 0.30424964 4278255360
0.1156296 0.058564376 0.30432761 4278255360
0.11612341 0.0585563 0.3044056 4278255360
0.11661723 0.058548223 0.30448356 4278255360
0.11711104 0.058540151 0.30456153 4278255360
0.11760486 0.058532074 0.30463952 4278255360
0.11809868 0.058523998 0.30471748 4278255360
0.11859249 0.058515921 0.30479547 4278255360
0.11908631 0.058507845 0.30487344 4278255360
0.11958012 0.058499772 0.30495143 4278255360
