# .PCD v0.7 - Point Cloud Data file format
VERSION 0.7
FIELDS x y z rgb
SIZE 4 4 4 4
TYPE F F F U
COUNT 1 1 1 1
WIDTH 1007
HEIGHT 1
VIEWPOINT 0 0 0 1 0 0 0
POINTS 1007
DATA ascii
0.050960883 -0.010795572 0.46000001 4279066412
0.052568998 -0.010819041 0.46100003 4278276384
0.05406633 -0.010819041 0.46100003 4278342175
0.055563658 -0.010819041 0.46100003 4278802980
0.057060983 -0.010819041 0.46100003 4278342429
0.058431286 -0.010795572 0.46000001 4278604829
0.05992537 -0.010795572 0.46000001 4278670622
0.061686493 -0.01084251 0.46200001 4278604829
0.062639996 -0.010748635 0.45800003 4278868001
0.064127579 -0.010748635 0.45800003 4278473245
0.06561517 -0.010748635 0.45800003 4278539038
0.067102753 -0.010748635 0.45800003 4278407452
0.068740092 -0.010772103 0.45900002 4278933544
0.070230931 -0.010772103 0.45900002 4279191340
-0.0065138885 -0.0082900086 0.41000003 4280366374
-0.0051948479 -0.0083102286 0.41100001 4281024304
-0.0025249904 -0.0083102286 0.41100001 4281353782
-0.0011871661 -0.0082900086 0.41000003 4280562981
0.00014416219 -0.0082697887 0.40900001 4280496674
0.0014617934 -0.0082091307 0.40600002 4280036125
0.0027736337 -0.0081889117 0.40500003 4280628262
0.0040789777 -0.0081686918 0.40400001 4280431397
0.0053911707 -0.0081686918 0.40400001 4280103200
0.0067033628 -0.0081686918 0.40400001 4280827434
0.0080155563 -0.0081686918 0.40400001 4280500518
0.0093277488 -0.0081686918 0.40400001 4278996259
0.010639941 -0.0081686918 0.40400001 4278669091
0.033606384 -0.0094627421 0.46800002 4279328041
0.035201505 -0.0094829611 0.46900001 4279459627
0.036724817 -0.0094829611 0.46900001 4279328554
0.038329683 -0.0095031811 0.47000003 4278868773
0.039856248 -0.0095031811 0.47000003 4278802980
0.041294757 -0.0094829611 0.46900001 4278802978
0.042818066 -0.0094829611 0.46900001 4278802208
0.04443593 -0.0095031811 0.47000003 4279065380
0.045962486 -0.0095031811 0.47000003 4278474013
0.052112866 -0.0092403265 0.45700002 4278604577
0.053714488 -0.0092605464 0.45800003 4278341405
0.055202074 -0.0092605464 0.45800003 4278539038
0.056689657 -0.0092605464 0.45800003 4278472732
0.05817724 -0.0092605464 0.45800003 4278538525
0.059664827 -0.0092605464 0.45800003 4278472732
0.060885374 -0.0092201075 0.45600003 4278603548
0.062503226 -0.0092403265 0.45700002 4278734621
0.063987561 -0.0092403265 0.45700002 4279326244
0.065471902 -0.0092403265 0.45700002 4278997279
0.067102753 -0.0092605464 0.45800003 4279194658
0.068590336 -0.0092605464 0.45800003 4279457576
0.070230931 -0.0092807664 0.45900002 4279059238
-0.010380774 -0.0068730246 0.40500003 4280827184
-0.0051822085 -0.0069578765 0.41000003 4281616439
-0.0025249904 -0.0069748466 0.41100001 4280761641
-0.0011900616 -0.0069748466 0.41100001 4280167709
0.00014486714 -0.0069748466 0.41100001 4280299295
0.0014617934 -0.0068899947 0.40600002 4280036125
0.0027667852 -0.0068560536 0.40400001 4280299297
0.0040688813 -0.0068390835 0.40300003 4280102432
0.0054045157 -0.0068730246 0.40500003 4280168225
0.0067199557 -0.0068730246 0.40500003 4281023530
0.0080353972 -0.0068730246 0.40500003 4279709207
0.0093508381 -0.0068730246 0.40500003 4279257121
0.010692614 -0.0068899947 0.40600002 4279193125
0.012011304 -0.0068899947 0.40600002 4278734367
0.013362825 -0.0069069648 0.40700001 4278867236
0.014793002 -0.0069578765 0.41000003 4278604581
0.016124683 -0.0069578765 0.41000003 4282814566
0.035126448 -0.0079421615 0.46800002 4278671392
0.04120671 -0.0079421615 0.46800002 4278604829
0.04272677 -0.0079421615 0.46800002 4278604829
0.04112687 -0.0073821372 0.43500003 4278735902
0.042539749 -0.0073821372 0.43500003 4278735132
0.050074611 -0.0076706344 0.45200002 4278800927
0.051770773 -0.0077045755 0.45400003 4278669341
0.053362645 -0.0077215456 0.45500001 4278603548
0.054961015 -0.0077385162 0.45600003 4278603548
0.056442104 -0.0077385162 0.45600003 4278866207
0.05792319 -0.0077385162 0.45600003 4279325222
0.05940428 -0.0077385162 0.45600003 4278666781
0.060885374 -0.0077385162 0.45600003 4278199553
0.062366456 -0.0077385162 0.45600003 4278199811
0.063847549 -0.0077385162 0.45600003 4278200579
0.065471902 -0.0077554868 0.45700002 4279783977
0.066956237 -0.0077554868 0.45700002 4279391013
0.068590336 -0.0077724573 0.45800003 4279588392
0.070230931 -0.0077894274 0.45900002 4279584812
-0.0077881627 -0.0055845808 0.40700001 4281222194
-0.0025311338 -0.0056531876 0.41200003 4280431393
-0.0011958526 -0.0056669088 0.41300002 4280496674
0.00014557209 -0.0056669088 0.41300002 4280036125
0.0014869968 -0.0056669088 0.41300002 4280233504
0.0027667852 -0.0055434168 0.40400001 4280168225
0.0040688813 -0.0055296957 0.40300003 4280102432
0.0054178596 -0.0055708596 0.40600002 4280168223
0.0067365482 -0.0055708596 0.40600002 4280826405
0.0080750771 -0.0055845808 0.40700001 4280300831
0.009397014 -0.0055845808 0.40700001 4279255068
0.01071895 -0.0055845808 0.40700001 4279125535
0.012070472 -0.005598302 0.40800002 4278732570
0.01342849 -0.0056120232 0.40900001 4278667290
0.014793002 -0.0056257448 0.41000003 4278604064
0.01616401 -0.005639466 0.41100001 4278933029
0.021713009 -0.0056943516 0.41500002 4278934566
0.023116497 -0.0057080728 0.41600001 4278802980
0.024467666 -0.0057080728 0.41600001 4278539808
0.025880901 -0.0057217944 0.41700003 4278604831
0.035149135 -0.0059138928 0.43100002 4278867236
0.036633827 -0.0059276139 0.43200001 4278735650
0.038125012 -0.0059413356 0.43300003 4278604318
0.039622691 -0.0059550568 0.43400002 4278800927
0.04112687 -0.0059687784 0.43500003 4278931998
0.042637542 -0.0059824996 0.43600002 4279129631
0.044255752 -0.0060099419 0.43800002 4278865945
0.045886952 -0.0060373847 0.44000003 4279391265
0.049742259 -0.0061608767 0.44900003 4278731287
0.051428676 -0.0061883195 0.45100003 4278203149
0.053010803 -0.0062020407 0.45200002 4278199552
0.054599427 -0.0062157619 0.45300001 4278201353
0.056194548 -0.0062294835 0.45400003 4278927132
0.057796162 -0.0062432047 0.45500001 4279848236
0.059274007 -0.0062432047 0.45500001 4280177201
0.060751848 -0.0062432047 0.45500001 4280045867
0.062366456 -0.0062569259 0.45600003 4279980072
0.063847549 -0.0062569259 0.45600003 4278203661
0.065471902 -0.006270647 0.45700002 4279849256
0.066956237 -0.006270647 0.45700002 4279456295
0.068590336 -0.0062843687 0.45800003 4279522090
0.070077918 -0.0062843687 0.45800003 4279912496
-0.011580696 -0.0041993628 0.40100002 4280365604
-0.0090429494 -0.0042307796 0.40400001 4283588166
-0.0064821136 -0.0042726686 0.40800002 4280959024
-0.0051822085 -0.0042936131 0.41000003 4281353782
-0.0025372773 -0.0043250294 0.41300002 4280891946
-0.0012045392 -0.0043564462 0.41600001 4280627747
0.00014662951 -0.0043564462 0.41600001 4280759846
0.0014977981 -0.0043564462 0.41600001 4279904539
0.0028489667 -0.0043564462 0.41600001 4280562469
0.0042001354 -0.0043564462 0.41600001 4280496674
0.0054445486 -0.0042726686 0.40800002 4280628260
0.006769733 -0.0042726686 0.40800002 4280957991
0.0081147579 -0.0042831404 0.40900001 4280169756
0.0094431909 -0.0042831404 0.40900001 4279385369
0.010771624 -0.0042831404 0.40900001 4279190556
0.012129641 -0.0042936131 0.41000003 4278666009
0.013461323 -0.0042936131 0.41000003 4278929181
0.014829082 -0.0043040849 0.41100001 4278865439
0.01620334 -0.0043145572 0.41200003 4279194404
0.017584093 -0.0043250294 0.41300002 4278867236
0.018971344 -0.0043355017 0.41400003 4278801956
0.020365089 -0.004345974 0.41500002 4278604831
0.021713009 -0.004345974 0.41500002 4278670622
0.023116497 -0.0043564462 0.41600001 4278473243
0.024526484 -0.0043669185 0.41700003 4278802208
0.025880901 -0.0043669185 0.41700003 4278998306
0.027300628 -0.0043773907 0.41800001 4278800673
0.028726855 -0.004387863 0.41900003 4278202372
0.030159576 -0.0043983352 0.42000002 4279127328
0.031598791 -0.0044088075 0.42100003 4278800673
0.033514336 -0.0044821128 0.42800003 4278603294
0.035067581 -0.0045030573 0.43000001 4279327017
0.036549024 -0.0045135296 0.43100002 4279194918
0.038036961 -0.0045240019 0.43200001 4279326244
0.039531395 -0.0045344741 0.43300003 4278864923
0.041032325 -0.0045449464 0.43400002 4278532626
0.042637542 -0.0045658909 0.43600002 4278466833
0.044154711 -0.0045763627 0.43700001 4278199040
0.045886952 -0.0046077799 0.44000003 4278267919
0.047638681 -0.0046391962 0.44300002 4279846951
0.049409904 -0.004670613 0.44600001 4280506418
0.051086575 -0.0046915575 0.44800001 4279520293
0.052776244 -0.004712502 0.45000002 4279389221
0.054478899 -0.0047334465 0.45200002 4279258146
0.056070771 -0.0047439183 0.45300001 4279061537
0.05766914 -0.004754391 0.45400003 4278995746
0.059274007 -0.0047648628 0.45500001 4279193125
0.060751848 -0.0047648628 0.45500001 4278468632
0.062229685 -0.0047648628 0.45500001 4279652389
0.063847549 -0.0047753355 0.45600003 4278203917
0.065328635 -0.0047753355 0.45600003 4279652391
0.066956237 -0.0047858073 0.45700002 4279785773
0.068440571 -0.0047858073 0.45700002 4279325224
0.070077918 -0.0047962801 0.45800003 4285108092
-0.0090429494 -0.0029181424 0.40400001 4284639301
-0.0064821136 -0.0029470348 0.40800002 4281287985
-0.002543421 -0.0029903736 0.41400003 4280761132
-0.0012045392 -0.0030048196 0.41600001 4280628262
0.00014662951 -0.0030048196 0.41600001 4281088811
0.0014977981 -0.0030048196 0.41600001 4280496674
0.0028421185 -0.0029975967 0.41500002 4281088813
0.0041799429 -0.0029903736 0.41400003 4280694567
0.0054845819 -0.0029687041 0.41100001 4281023532
0.0068029179 -0.002961481 0.41000003 4281221933
0.0081345988 -0.002961481 0.41000003 4279841561
0.0094662802 -0.002961481 0.41000003 4279320346
0.010824297 -0.0029687041 0.41100001 4279256349
0.012159226 -0.0029687041 0.41100001 4278664982
0.013494154 -0.0029687041 0.41100001 4278928668
0.014865164 -0.0029759274 0.41200003 4279127841
0.01620334 -0.0029759274 0.41200003 4278865439
0.017584093 -0.0029831503 0.41300002 4278734367
0.018971344 -0.0029903736 0.41400003 4278734880
0.020365089 -0.0029975967 0.41500002 4278669341
0.021713009 -0.0029975967 0.41500002 4278735134
0.023116497 -0.0030048196 0.41600001 4278735904
0.024526484 -0.003012043 0.41700003 4278604318
0.025880901 -0.003012043 0.41700003 4278800927
0.028726855 -0.0030264892 0.41900003 4278336533
0.030159576 -0.0030337123 0.42000002 4279323939
0.031673849 -0.0030481585 0.42200002 4278797595
0.03343603 -0.0030842742 0.42700002 4278201093
0.03498603 -0.0030987205 0.42900002 4278198789
0.036464226 -0.0031059433 0.43000001 4278198536
0.038036961 -0.0031203898 0.43200001 4278395660
0.039531395 -0.0031276129 0.43300003 4278591757
0.041032325 -0.003134836 0.43400002 4278526478
0.042539749 -0.0031420593 0.43500003 4280306991
0.044154711 -0.0031565053 0.43700001 4279520293
0.045782663 -0.0031709515 0.43900001 4279717672
0.047531147 -0.0031926211 0.44200003 4279126047
0.049299117 -0.0032142904 0.44500002 4278203403
0.050972544 -0.0032287366 0.44700003 4278336017
0.052658964 -0.003243183 0.44900003 4278203917
0.054358374 -0.0032576292 0.45100003 4278402324
0.055946995 -0.0032648523 0.45200002 4278203917
0.057542115 -0.0032720752 0.45300001 4278468119
0.059143737 -0.0032792985 0.45400003 4278533398
0.060751848 -0.0032865216 0.45500001 4279255838
0.062229685 -0.0032865216 0.45500001 4279848484
0.063847549 -0.0032937448 0.45600003 4278993947
0.065328635 -0.0032937448 0.45600003 4279719465
0.066956237 -0.0033009679 0.45700002 4279588392
0.068440571 -0.0033009679 0.45700002 4278929953
-0.0064821136 -0.0016214012 0.40800002 4281484071
-0.0051822085 -0.0016293493 0.41000003 4281222446
-0.002543421 -0.0016452454 0.41400003 4280892716
-0.0012045392 -0.0016531934 0.41600001 4280694569
0.00014662951 -0.0016531934 0.41600001 4281023534
0.0014977981 -0.0016531934 0.41600001 4280431397
0.0028421185 -0.0016492193 0.41500002 4280826153
0.0041900389 -0.0016492193 0.41500002 4280826153
0.0054979268 -0.0016372973 0.41200003 4281023532
0.0068361033 -0.0016372973 0.41200003 4281089577
0.0081742806 -0.0016372973 0.41200003 4279381523
0.0095124571 -0.0016372973 0.41200003 4279451932
0.010850633 -0.0016372973 0.41200003 4279058457
0.012188811 -0.0016372973 0.41200003 4279059740
0.013526988 -0.0016372973 0.41200003 4278994459
0.014865164 -0.0016372973 0.41200003 4279127328
0.016242668 -0.0016412713 0.41300002 4278864669
0.017584093 -0.0016412713 0.41300002 4278865439
0.018971344 -0.0016452454 0.41400003 4279063332
0.020365089 -0.0016492193 0.41500002 4278932000
0.021713009 -0.0016492193 0.41500002 4278800414
0.023116497 -0.0016531934 0.41600001 4278800927
0.024526484 -0.0016571674 0.41700003 4278800927
0.025880901 -0.0016571674 0.41700003 4278669341
0.027300628 -0.0016611414 0.41800001 4278800414
0.028726855 -0.0016651155 0.41900003 4278336792
0.030231385 -0.0016730635 0.42100003 4279521066
0.031673849 -0.0016770376 0.42200002 4278199309
0.033357725 -0.0016929336 0.42600003 4278722832
0.03490448 -0.0017008816 0.42800003 4278853394
0.036464226 -0.0017088297 0.43000001 4278590476
0.037948914 -0.0017128037 0.43100002 4278985234
0.039440095 -0.0017167777 0.43200001 4278853648
0.041032325 -0.0017247257 0.43400002 4278329099
0.042539749 -0.0017286999 0.43500003 4280636467
0.044154711 -0.0017366478 0.43700001 4278199813
0.045782663 -0.0017445958 0.43900001 4278199045
0.047423609 -0.001752544 0.44100001 4279256351
0.049077548 -0.001760492 0.44300002 4279190558
0.050858509 -0.001772414 0.44600001 4279519271
0.052541681 -0.0017803621 0.44800001 4278532374
0.054237843 -0.0017883101 0.45000002 4278200583
0.055946995 -0.0017962581 0.45200002 4278201354
0.057542115 -0.0018002321 0.45300001 4278200066
0.059143737 -0.0018042063 0.45400003 4279979559
0.060751848 -0.0018081802 0.45500001 4280111658
0.062229685 -0.0018081802 0.45500001 4280572207
0.063847549 -0.0018121543 0.45600003 4279257633
0.065328635 -0.0018121543 0.45600003 4279522601
0.066809729 -0.0018121543 0.45600003 4279654189
0.068440571 -0.0018161283 0.45700002 4281625165
-0.0064821136 -0.00029576744 0.40800002 4281878829
-0.0051822085 -0.00029721731 0.41000003 4281221679
-0.002543421 -0.00030011698 0.41400003 4281155118
0.0041900389 -0.0003008419 0.41500002 4281089325
0.0055246158 -0.00030011698 0.41400003 4281155118
0.0068526953 -0.00029939206 0.41300002 4281221679
0.0095355455 -0.00029939206 0.41300002 4279255584
0.010876969 -0.00029939206 0.41300002 4279058972
0.012218395 -0.00029939206 0.41300002 4278928154
0.01355982 -0.00029939206 0.41300002 4278994461
0.014901243 -0.00029939206 0.41300002 4279258914
0.016242668 -0.00029939206 0.41300002 4279127841
0.017626671 -0.00030011698 0.41400003 4278931486
0.018971344 -0.00030011698 0.41400003 4278931486
0.020365089 -0.0003008419 0.41500002 4279194658
0.021713009 -0.0003008419 0.41500002 4278997279
0.023116497 -0.00030156682 0.41600001 4278866207
0.024526484 -0.00030229174 0.41700003 4278932000
0.025942964 -0.00030301666 0.41800001 4278800414
0.027365942 -0.00030374157 0.41900003 4279063072
0.028795416 -0.00030446649 0.42000002 4279519271
0.030231385 -0.00030519141 0.42100003 4279848236
0.031748902 -0.00030664125 0.42300001 4278920722
0.033357725 -0.00030881603 0.42600003 4279249176
0.03490448 -0.00031026587 0.42800003 4280104996
0.036379423 -0.00031099078 0.42900002 4279776029
0.037948914 -0.00031244062 0.43100002 4278657550
0.039440095 -0.00031316554 0.43200001 4279644445
0.041032325 -0.00031461538 0.43400002 4278264587
0.042539749 -0.00031534029 0.43500003 4280570928
0.044154711 -0.00031679013 0.43700001 4278593039
0.045678377 -0.00031751505 0.43800002 4278789648
0.047316074 -0.00031896491 0.44000003 4278662677
0.049077548 -0.00032113967 0.44300002 4279124511
0.050744478 -0.00032258951 0.44500002 4278201610
0.052541681 -0.00032476426 0.44800001 4279585062
0.054237843 -0.0003262141 0.45000002 4279519523
0.055946995 -0.00032766393 0.45200002 4279914281
0.057542115 -0.00032838885 0.45300001 4280045867
0.059143737 -0.0003291138 0.45400003 4278729494
0.060751848 -0.00032983869 0.45500001 4278200323
0.062366456 -0.00033056363 0.45600003 4278466835
0.063847549 -0.00033056363 0.45600003 4279587111
0.065328635 -0.00033056363 0.45600003 4279522601
0.066809729 -0.00033056363 0.45600003 4279586094
-0.0064821136 0.0010298663 0.40800002 4283063105
-0.0038787022 0.0010424872 0.41300002 4280893229
-0.002543421 0.0010450114 0.41400003 4281549876
0.0095586339 0.0010450114 0.41400003 4279189791
0.010876969 0.0010424872 0.41300002 4279058972
0.012218395 0.0010424872 0.41300002 4278928154
0.01355982 0.0010424872 0.41300002 4279257633
0.014937324 0.0010450114 0.41400003 4279456293
0.016281998 0.0010450114 0.41400003 4279128095
0.017626671 0.0010450114 0.41400003 4278405140
0.018971344 0.0010450114 0.41400003 4278931998
0.020365089 0.0010475356 0.41500002 4278800927
0.021765329 0.0010500597 0.41600001 4278800673
0.023116497 0.0010500597 0.41600001 4278800927
0.024526484 0.0010525839 0.41700003 4278800927
0.025942964 0.0010551082 0.41800001 4278932000
0.027365942 0.0010576323 0.41900003 4278799900
0.028795416 0.0010601565 0.42000002 4279716648
0.030231385 0.0010626807 0.42100003 4278992414
0.031748902 0.001067729 0.42300001 4279710752
0.033279419 0.0010727773 0.42500001 4279118615
0.034822926 0.0010778258 0.42700002 4279908131
0.036379423 0.0010828741 0.42900002 4279579166
0.037948914 0.0010879225 0.43100002 4279842336
0.039440095 0.0010904466 0.43200001 4280699182
0.041032325 0.0010954951 0.43400002 4278198789
0.042539749 0.0010980192 0.43500003 4280505135
0.04405367 0.0011005434 0.43600002 4278396427
0.045678377 0.0011055918 0.43800002 4280633387
0.047316074 0.0011106401 0.44000003 4280045354
0.048966765 0.0011156885 0.44200003 4279716902
0.050744478 0.0011232611 0.44500002 4278861080
0.052424401 0.0011283094 0.44700003 4278198784
0.054237843 0.0011358819 0.45000002 4278198272
0.055946995 0.0011409303 0.45200002 4278795033
0.057542115 0.0011434545 0.45300001 4279913514
0.059143737 0.0011459787 0.45400003 4279913514
0.060751848 0.0011485028 0.45500001 4279849772
0.062366456 0.001151027 0.45600003 4279784492
0.063847549 0.001151027 0.45600003 4279718699
0.065328635 0.001151027 0.45600003 4278994209
0.066956237 0.0011535512 0.45700002 4286095241
-0.0038787022 0.0023843665 0.41300002 4281615155
0.0082338015 0.002395913 0.41500002 4279976229
0.0095586339 0.0023901397 0.41400003 4279452447
0.010903306 0.0023901397 0.41400003 4279124763
0.01224798 0.0023901397 0.41400003 4278797082
0.013592653 0.0023901397 0.41400003 4279258146
0.014937324 0.0023901397 0.41400003 4278996255
0.016281998 0.0023901397 0.41400003 4278931486
0.017626671 0.0023901397 0.41400003 4278932000
0.019017167 0.002395913 0.41500002 4278735134
0.020365089 0.002395913 0.41500002 4278866466
0.021765329 0.0024016863 0.41600001 4278734880
0.023172066 0.0024074595 0.41700003 4278800414
0.024526484 0.0024074595 0.41700003 4278932000
0.025942964 0.0024132328 0.41800001 4278997279
0.027365942 0.0024190061 0.41900003 4278204430
0.028795416 0.0024247793 0.42000002 4280309555
0.030303193 0.0024363259 0.42200002 4278199558
0.031748902 0.0024420992 0.42300001 4279381787
0.033279419 0.0024536457 0.42500001 4278789650
0.034822926 0.0024651925 0.42700002 4278723345
0.036379423 0.002476739 0.42900002 4278722578
0.037948914 0.0024882855 0.43100002 4278852881
0.039440095 0.0024940588 0.43200001 4278853394
0.041032325 0.0025056053 0.43400002 4280305967
0.042539749 0.0025113788 0.43500003 4278859545
0.04405367 0.0025171519 0.43600002 4278200074
0.045678377 0.0025286984 0.43800002 4278198275
0.047316074 0.0025402452 0.44000003 4278793752
0.048966765 0.0025517917 0.44200003 4279912746
0.050744478 0.0025691115 0.44500002 4279650855
0.052424401 0.0025806581 0.44700003 4279717418
0.054237843 0.0025979779 0.45000002 4279586346
0.055946995 0.0026095244 0.45200002 4279521066
0.057542115 0.0026152977 0.45300001 4279389734
0.059143737 0.0026210712 0.45400003 4279258148
0.060751848 0.0026268442 0.45500001 4278927902
0.062366456 0.0026326177 0.45600003 4280307504
0.063847549 0.0026326177 0.45600003 4284910963
0.065471902 0.002638391 0.45700002 4286621070
-0.0077881627 0.0036721111 0.40700001 4281287476
-0.0038787022 0.0037262456 0.41300002 4281680948
0.0082338015 0.0037442902 0.41500002 4279910947
0.0095817223 0.0037442902 0.41500002 4279320861
0.010929643 0.0037442902 0.41500002 4279058457
0.012277564 0.0037442902 0.41500002 4278928666
0.013625485 0.0037442902 0.41500002 4279060765
0.014973405 0.0037442902 0.41500002 4279062048
0.016321326 0.0037442902 0.41500002 4278799646
0.017669247 0.0037442902 0.41500002 4278865953
0.019017167 0.0037442902 0.41500002 4278800673
0.020414161 0.0037533126 0.41600001 4278998052
0.021765329 0.0037533126 0.41600001 4278734880
0.023172066 0.0037623351 0.41700003 4278800414
0.024585299 0.0037713575 0.41800001 4278800160
0.025942964 0.0037713575 0.41800001 4279851566
0.027365942 0.0037803799 0.41900003 4278200835
0.028795416 0.0037894021 0.42000002 4279387683
0.030303193 0.0038074469 0.42200002 4278196993
0.031748902 0.0038164693 0.42300001 4278854164
0.033279419 0.0038345142 0.42500001 4278854166
0.034822926 0.0038525588 0.42700002 4278525199
0.036379423 0.0038706036 0.42900002 4278787601
0.037860863 0.003879626 0.43000001 4278789138
0.039440095 0.0038976707 0.43200001 4279514143
0.040937781 0.0039066933 0.43300003 4279846951
0.042539749 0.0039247382 0.43500003 4280505651
0.04405367 0.0039337603 0.43600002 4279716648
0.045678377 0.0039518052 0.43800002 4279454246
0.047316074 0.00396985 0.44000003 4279192355
0.048966765 0.0039878949 0.44200003 4279323687
0.050630447 0.0040059397 0.44400004 4279193125
0.052424401 0.0040330067 0.44700003 4279258918
0.054237843 0.0040600738 0.45000002 4279061539
0.055946995 0.0040781186 0.45200002 4279126308
0.057542115 0.0040871408 0.45300001 4280175664
0.059143737 0.0040961634 0.45400003 4284911477
0.060751848 0.0041051856 0.45500001 4286488203
-0.0038880939 0.0050803963 0.41400003 4281352497
0.0069024726 0.005104939 0.41600001 4279317529
0.0082536414 0.005104939 0.41600001 4279845668
0.0096048107 0.005104939 0.41600001 4279321631
0.010955979 0.005104939 0.41600001 4279124763
0.012277564 0.0050926679 0.41500002 4278928666
0.013625485 0.0050926679 0.41500002 4279192351
0.014973405 0.0050926679 0.41500002 4279522599
0.016321326 0.0050926679 0.41500002 4278865439
0.017711822 0.005104939 0.41600001 4278800160
0.019062992 0.005104939 0.41600001 4278865953
0.020414161 0.005104939 0.41600001 4278866466
0.021817649 0.005117211 0.41700003 4278669087
0.023172066 0.005117211 0.41700003 4278734880
0.024585299 0.0051294821 0.41800001 4278998052
0.02600503 0.0051417537 0.41900003 4279062052
0.027431253 0.0051540253 0.42000002 4278664732
0.028863978 0.0051662968 0.42100003 4279650855
0.030303193 0.0051785684 0.42200002 4278334484
0.031748902 0.0051908395 0.42300001 4279581732
0.033279419 0.0052153827 0.42500001 4280503346
0.034822926 0.0052399258 0.42700002 4280374065
0.036379423 0.0052644685 0.42900002 4279585062
0.037860863 0.0052767401 0.43000001 4279455014
0.039440095 0.0053012832 0.43200001 4279586600
0.040937781 0.0053135548 0.43300003 4279586600
0.042539749 0.0053380979 0.43500003 4279258148
0.04405367 0.005350369 0.43600002 4279062052
0.045574088 0.0053626406 0.43700001 4279062052
0.047316074 0.0053994553 0.44000003 4278996259
0.048966765 0.005423998 0.44200003 4279061285
0.050630447 0.0054485411 0.44400004 4279781930
0.052307121 0.0054730838 0.44600001 4281688390
0.054237843 0.0055221696 0.45000002 4285371518
0.055946995 0.0055467128 0.45200002 4286423952
0.057542115 0.0055589844 0.45300001 4286094474
0.059143737 0.0055712559 0.45400003 4286027911
0.060751848 0.005583527 0.45500001 4285895812
-0.0078264335 0.0063479217 0.40900001 4287277465
-0.0065297759 0.0063789627 0.41100001 4286948754
-0.0052201268 0.0064100041 0.41300002 4286882961
-0.0038880939 0.0064255251 0.41400003 4286948754
0.0082536414 0.0064565656 0.41600001 4279715106
0.0096048107 0.0064565656 0.41600001 4279255838
0.010955979 0.0064565656 0.41600001 4279124763
0.012307148 0.0064565656 0.41600001 4278862873
0.013658317 0.0064565656 0.41600001 4279258144
0.015009484 0.0064565656 0.41600001 4279128095
0.016360654 0.0064565656 0.41600001 4278930716
0.017711822 0.0064565656 0.41600001 4278998306
0.019062992 0.0064565656 0.41600001 4278800927
0.020463234 0.0064720865 0.41700003 4278866720
0.021817649 0.0064720865 0.41700003 4278735134
0.023227634 0.006487607 0.41800001 4279129892
0.024585299 0.006487607 0.41800001 4278735134
0.02600503 0.006503128 0.41900003 4278535704
0.027431253 0.006518648 0.42000002 4278204174
0.028863978 0.006534169 0.42100003 4279060767
0.030303193 0.0065496895 0.42200002 4279258916
0.031748902 0.0065652099 0.42300001 4279258918
0.033279419 0.0065962509 0.42500001 4279193125
0.034822926 0.0066272924 0.42700002 4279193123
0.036294624 0.0066428133 0.42800003 4278995744
0.037860863 0.0066738538 0.43000001 4279193123
0.0393488 0.0066893748 0.43100002 4279258916
0.040937781 0.0067204162 0.43300003 4279193123
0.042539749 0.0067514572 0.43500003 4279521320
0.04405367 0.0067669777 0.43600002 4279520041
0.045574088 0.0067824982 0.43700001 4280045615
0.047316074 0.0068290601 0.44000003 4283068759
0.048966765 0.0068601016 0.44200003 4286160521
0.050630447 0.0068911426 0.44400004 4286357130
0.052307121 0.0069221836 0.44600001 4286027652
0.054237843 0.006984266 0.45000002 4286093445
-0.009132484 0.007658035 0.40800002 4286817681
-0.0078455694 0.0076955743 0.41000003 4286817427
-0.0065297759 0.0077143437 0.41100001 4286949013
-0.0052201268 0.0077518835 0.41300002 4286949013
-0.0038974853 0.0077894228 0.41500002 4287014293
-0.0025679951 0.0078457315 0.41800001 4287014293
-0.0012103303 0.0078457315 0.41800001 4287211926
0.00014733446 0.0078457315 0.41800001 4287278232
0.0015049991 0.0078457315 0.41800001 4287014547
0.0069190655 0.0078269625 0.41700003 4279845668
0.0082734823 0.0078269625 0.41700003 4279715619
0.0096278992 0.0078269625 0.41700003 4279256351
0.010982316 0.0078269625 0.41700003 4279124763
0.012307148 0.0078081922 0.41600001 4279257631
0.013658317 0.0078081922 0.41600001 4279193121
0.015009484 0.0078081922 0.41600001 4279062818
0.016360654 0.0078081922 0.41600001 4278865953
0.0177544 0.0078269625 0.41700003 4278865953
0.019108817 0.0078269625 0.41700003 4278800673
0.020463234 0.0078269625 0.41700003 4278800927
0.021869969 0.0078457315 0.41800001 4278800412
0.023227634 0.0078457315 0.41800001 4278866718
0.024644116 0.0078645013 0.41900003 4278800927
0.02600503 0.0078645013 0.41900003 4279193634
0.027431253 0.0078832712 0.42000002 4279258916
0.028863978 0.0079020411 0.42100003 4279127843
0.030303193 0.007920811 0.42200002 4279325222
0.031748902 0.0079395799 0.42300001 4279456808
0.033201117 0.0079583498 0.42400002 4279193636
0.034822926 0.0080146594 0.42700002 4279456297
0.036294624 0.0080334293 0.42800003 4279587883
0.037860863 0.0080709681 0.43000001 4279914027
0.0393488 0.008089738 0.43100002 4280176686
0.040937781 0.0081272777 0.43300003 4282281040
0.042539749 0.0081648165 0.43500003 4285766274
0.04405367 0.0081835864 0.43600002 4286884242
0.045574088 0.0082023554 0.43700001 4286292107
0.047316074 0.008258665 0.44000003 4286028165
0.048966765 0.0082962047 0.44200003 4286027911
-0.011696215 0.008917612 0.40500003 4287474074
-0.010432036 0.0089616496 0.40700001 4286818197
-0.0091548664 0.0090056872 0.40900001 4287014806
-0.0078455694 0.0090277065 0.41000003 4286949013
-0.0065456638 0.009071744 0.41200003 4286883220
-0.0052327667 0.0091157816 0.41400003 4286883220
-0.0038974853 0.0091378 0.41500002 4286817427
-0.0025679951 0.0092038559 0.41800001 4287146392
-0.0012103303 0.0092038559 0.41800001 4287014806
0.00014733446 0.0092038559 0.41800001 4287014806
0.0015049991 0.0092038559 0.41800001 4286883220
0.0042102323 0.0091818376 0.41700003 4282475091
0.0055646491 0.0091818376 0.41700003 4279251234
0.0069190655 0.0091818376 0.41700003 4279517223
0.0082734823 0.0091818376 0.41700003 4279452195
0.0096278992 0.0091818376 0.41700003 4279321631
0.010982316 0.0091818376 0.41700003 4279256351
0.012336733 0.0091818376 0.41700003 4279258146
0.01369115 0.0091818376 0.41700003 4279258914
0.015045566 0.0091818376 0.41700003 4278602267
0.016399983 0.0091818376 0.41700003 4278865953
0.0177544 0.0091818376 0.41700003 4278998052
0.019108817 0.0091818376 0.41700003 4278866466
0.020512305 0.0092038559 0.41800001 4278734880
0.021869969 0.0092038559 0.41800001 4279063845
0.023227634 0.0092038559 0.41800001 4278603294
0.024644116 0.0092258751 0.41900003 4278998054
0.02600503 0.0092258751 0.41900003 4279917359
0.027431253 0.0092478935 0.42000002 4279193638
0.028863978 0.0092699127 0.42100003 4279850285
0.030303193 0.0092919311 0.42200002 4279389480
0.031748902 0.0093139503 0.42300001 4280242227
0.033201117 0.0093359696 0.42400002 4282346320
-0.013108037 0.010309302 0.40800002 4287671191
-0.011782853 0.010309302 0.40800002 4286883220
-0.010457668 0.010309302 0.40800002 4287014806
-0.0091548664 0.010334569 0.40900001 4286949013
-0.0078455694 0.010359838 0.41000003 4286883220
-0.0065456638 0.010410374 0.41200003 4286949013
-0.0052327667 0.010460909 0.41400003 4286949013
-0.0038974853 0.010486177 0.41500002 4287212185
-0.0025679951 0.01056198 0.41800001 4287212185
-0.0012103303 0.01056198 0.41800001 4287014806
0.00014733446 0.01056198 0.41800001 4286949013
0.0015049991 0.01056198 0.41800001 4287212185
0.0028626637 0.01056198 0.41800001 4286949013
0.0042102323 0.010536713 0.41700003 4286620818
0.0096278992 0.010536713 0.41700003 4278990877
0.010982316 0.010536713 0.41700003 4279518758
0.012336733 0.010536713 0.41700003 4279586600
0.01369115 0.010536713 0.41700003 4279521320
0.015045566 0.010536713 0.41700003 4279785775
0.016399983 0.010536713 0.41700003 4279588396
0.0177544 0.010536713 0.41700003 4279523373
0.019108817 0.010536713 0.41700003 4279654959
0.020512305 0.01056198 0.41800001 4279785521
0.021869969 0.01056198 0.41800001 4279653935
0.023283204 0.010587249 0.41900003 4279980592
0.024644116 0.010587249 0.41900003 4280046131
0.02600503 0.010587249 0.41900003 4282281044
0.027431253 0.010612517 0.42000002 4284780665
0.0028558155 0.01189159 0.41700003 4286883220
0.0042102323 0.01189159 0.41700003 4286686611
0.0055646491 0.01189159 0.41700003 4286752404
0.0069190655 0.01189159 0.41700003 4286686611
0.0082734823 0.01189159 0.41700003 4286687124
0.012336733 0.01189159 0.41700003 4282279757
0.01369115 0.01189159 0.41700003 4280569909
0.015045566 0.01189159 0.41700003 4279715367
0.016399983 0.01189159 0.41700003 4279846953
0.0177544 0.01189159 0.41700003 4280636215
0.019108817 0.01189159 0.41700003 4282083148
0.020512305 0.011920106 0.41800001 4285043067
0.021869969 0.011920106 0.41800001 4286621845
0.029037789 -0.00076475251 0.43003771 4294967295
0.029037789 -0.00076475251 0.43003771 4294901760
0.029084666 -0.00026707794 0.43004876 4294901760
0.029131543 0.00023059663 0.43005985 4294901760
0.02917842 0.00072827132 0.43007091 4294901760
0.029225297 0.0012259458 0.43008199 4294901760
0.029272176 0.0017236206 0.43009305 4294901760
0.029319054 0.0022212951 0.43010411 4294901760
0.029365931 0.0027189697 0.43011519 4294901760
0.029412808 0.0032166441 0.43012625 4294901760
0.029459685 0.0037143191 0.43013734 4294901760
0.029506562 0.0042119939 0.43014839 4294901760
0.029553439 0.0047096685 0.43015945 4294901760
0.029600317 0.005207343 0.43017054 4294901760
0.029647196 0.0057050176 0.43018159 4294901760
0.029694073 0.0062026922 0.43019268 4294901760
0.02974095 0.0067003667 0.43020374 4294901760
0.029787827 0.0071980404 0.43021479 4294901760
0.029834704 0.0076957159 0.43022588 4294901760
0.029881582 0.0081933904 0.43023694 4294901760
0.029928459 0.008691065 0.43024802 4294901760
0.029975336 0.0091887396 0.43025908 4294901760
0.030022215 0.0096864132 0.43027014 4294901760
0.030069092 0.010184089 0.43028122 4294901760
0.030115969 0.010681763 0.43029228 4294901760
0.030162847 0.011179438 0.43030336 4294901760
0.030209724 0.011677112 0.43031442 4294901760
0.030256601 0.012174787 0.43032548 4294901760
0.030303478 0.012672463 0.43033656 4294901760
0.030350355 0.013170136 0.43034762 4294901760
0.030397233 0.013667811 0.43035871 4294901760
0.030444112 0.014165486 0.43036976 4294901760
0.030490989 0.01466316 0.43038082 4294901760
0.030537866 0.015160833 0.43039191 4294901760
0.030584743 0.015658511 0.43040296 4294901760
0.03063162 0.016156185 0.43041405 4294901760
0.030678498 0.01665386 0.43042511 4294901760
0.030725375 0.017151535 0.43043616 4294901760
0.030772252 0.017649209 0.43044725 4294901760
0.030819131 0.018146884 0.43045831 4294901760
0.030866008 0.018644556 0.43046939 4294901760
0.030912885 0.019142233 0.43048045 4294901760
0.030959763 0.019639907 0.43049151 4294901760
0.03100664 0.02013758 0.43050259 4294901760
0.031053517 0.020635257 0.43051365 4294901760
0.031100394 0.021132931 0.43052474 4294901760
0.031147271 0.021630606 0.43053579 4294901760
0.03119415 0.02212828 0.43054685 4294901760
0.031241028 0.022625955 0.43055794 4294901760
0.031287905 0.023123629 0.43056899 4294901760
0.03133478 0.023621304 0.43058008 4294901760
0.031381659 0.024118979 0.43059114 4294901760
0.031428538 0.024616653 0.43060219 4294901760
0.031475414 0.025114328 0.43061328 4294901760
0.031522293 0.025612 0.43062434 4294901760
0.031569168 0.026109679 0.43063542 4294901760
0.031616047 0.026607351 0.43064648 4294901760
0.031662922 0.027105026 0.43065754 4294901760
0.031709801 0.027602701 0.43066862 4294901760
0.031756677 0.028100375 0.43067968 4294901760
0.031803556 0.028598048 0.43069077 4294901760
0.031850435 0.029095726 0.43070182 4294901760
0.03189731 0.029593401 0.43071288 4294901760
0.031944189 0.030091073 0.43072397 4294901760
0.031991065 0.030588748 0.43073502 4294901760
0.032037944 0.031086421 0.43074611 4294901760
0.032084819 0.031584095 0.43075716 4294901760
0.032131698 0.032081772 0.43076822 4294901760
0.032178577 0.032579444 0.43077931 4294901760
0.032225452 0.033077121 0.43079036 4294901760
0.032272331 0.033574793 0.43080145 4294901760
0.032319207 0.03407247 0.43081251 4294901760
0.032366086 0.034570143 0.43082356 4294901760
0.032412961 0.035067819 0.43083465 4294901760
0.03245984 0.035565492 0.43084571 4294901760
0.032506716 0.036063168 0.43085679 4294901760
0.032553595 0.036560841 0.43086785 4294901760
0.032600474 0.037058517 0.43087891 4294901760
0.032647349 0.03755619 0.43088999 4294901760
0.032694228 0.038053863 0.43090105 4294901760
0.032741103 0.038551543 0.43091214 4294901760
0.032787982 0.039049216 0.43092319 4294901760
0.032834858 0.039546888 0.43093425 4294901760
0.032881737 0.040044565 0.43094534 4294901760
0.032928612 0.040542237 0.43095639 4294901760
0.032975491 0.04103991 0.43096748 4294901760
0.03302237 0.04153759 0.43097854 4294901760
0.033069246 0.042035263 0.43098959 4294901760
0.033116125 0.042532936 0.43100068 4294901760
0.033163 0.043030612 0.43101174 4294901760
0.033209879 0.043528285 0.43102282 4294901760
0.033256754 0.044025961 0.43103388 4294901760
0.033303633 0.044523638 0.43104494 4294901760
0.033350512 0.04502131 0.43105602 4294901760
0.033397388 0.045518987 0.43106708 4294901760
0.033444267 0.04601666 0.43107817 4294901760
0.033491142 0.046514332 0.43108922 4294901760
0.033538021 0.047012009 0.43110028 4294901760
0.033584896 0.047509685 0.43111137 4294901760
0.033631776 0.048007358 0.43112242 4294901760
0.033678651 0.048505034 0.43113351 4294901760
0.03372553 0.049002707 0.43114457 4294901760
0.029037789 -0.00076475251 0.43003771 4278255360
0.029414507 -0.00080748642 0.43036368 4278255360
0.029791223 -0.00085022033 0.43068966 4278255360
0.030167941 -0.00089295418 0.43101561 4278255360
0.030544659 -0.00093568815 0.43134159 4278255360
0.030921375 -0.000978422 0.43166757 4278255360
0.031298093 -0.0010211559 0.43199354 4278255360
0.03167481 -0.0010638898 0.43231952 4278255360
0.03205153 -0.0011066238 0.43264547 4278255360
0.032428246 -0.0011493576 0.43297145 4278255360
0.032804962 -0.0011920915 0.43329743 4278255360
0.033181682 -0.0012348255 0.4336234 4278255360
0.033558398 -0.0012775593 0.43394938 4278255360
0.033935115 -0.0013202932 0.43427536 4278255360
0.034311831 -0.0013630271 0.43460131 4278255360
0.034688551 -0.0014057611 0.43492728 4278255360
0.035065267 -0.001448495 0.43525326 4278255360
0.035441987 -0.0014912288 0.43557924 4278255360
0.035818703 -0.0015339628 0.43590522 4278255360
0.03619542 -0.0015766968 0.43623117 4278255360
0.036572136 -0.0016194306 0.43655714 4278255360
0.036948856 -0.0016621645 0.43688312 4278255360
0.037325572 -0.0017048984 0.4372091 4278255360
0.037702292 -0.0017476323 0.43753508 4278255360
0.038079008 -0.0017903661 0.43786103 4278255360
0.038455725 -0.0018331001 0.438187 4278255360
0.038832441 -0.001875834 0.43851298 4278255360
0.039209161 -0.0019185679 0.43883896 4278255360
0.039585877 -0.0019613018 0.43916494 4278255360
0.039962593 -0.0020040357 0.43949088 4278255360
0.040339313 -0.0020467697 0.43981686 4278255360
0.04071603 -0.0020895037 0.44014284 4278255360
0.041092746 -0.0021322374 0.44046882 4278255360
0.041469466 -0.0021749714 0.4407948 4278255360
0.041846182 -0.0022177054 0.44112077 4278255360
0.042222898 -0.0022604391 0.44144672 4278255360
0.042599618 -0.0023031731 0.4417727 4278255360
0.042976335 -0.002345907 0.44209868 4278255360
0.043353051 -0.0023886408 0.44242465 4278255360
0.043729767 -0.0024313747 0.44275063 4278255360
0.044106487 -0.0024741087 0.44307658 4278255360
0.044483203 -0.0025168424 0.44340256 4278255360
0.044859923 -0.0025595764 0.44372854 4278255360
0.04523664 -0.0026023104 0.44405451 4278255360
0.045613356 -0.0026450441 0.44438049 4278255360
0.045990072 -0.0026877781 0.44470644 4278255360
0.046366792 -0.0027305121 0.44503242 4278255360
0.046743508 -0.002773246 0.4453584 4278255360
0.047120228 -0.0028159798 0.44568437 4278255360
0.047496945 -0.0028587137 0.44601035 4278255360
0.047873661 -0.0029014477 0.44633633 4278255360
0.048250377 -0.0029441817 0.44666228 4278255360
0.048627093 -0.0029869154 0.44698825 4278255360
0.04900381 -0.0030296494 0.44731423 4278255360
0.049380533 -0.0030723833 0.44764021 4278255360
0.04975725 -0.0031151173 0.44796619 4278255360
0.050133966 -0.0031578511 0.44829214 4278255360
0.050510682 -0.003200585 0.44861811 4278255360
0.050887398 -0.0032433188 0.44894409 4278255360
0.051264115 -0.0032860527 0.44927007 4278255360
0.051640838 -0.0033287869 0.44959605 4278255360
0.052017555 -0.0033715207 0.449922 4278255360
0.052394271 -0.0034142546 0.45024797 4278255360
0.052770987 -0.0034569884 0.45057395 4278255360
0.053147703 -0.0034997223 0.45089993 4278255360
0.05352442 -0.0035424561 0.45122591 4278255360
0.053901143 -0.0035851903 0.45155185 4278255360
0.05427786 -0.0036279242 0.45187783 4278255360
0.054654576 -0.003670658 0.45220381 4278255360
0.055031292 -0.003713392 0.45252979 4278255360
0.055408008 -0.0037561257 0.45285577 4278255360
0.055784725 -0.0037988597 0.45318174 4278255360
0.056161448 -0.0038415936 0.45350769 4278255360
0.056538165 -0.0038843276 0.45383367 4278255360
0.056914881 -0.0039270613 0.45415965 4278255360
0.057291597 -0.0039697951 0.45448563 4278255360
0.057668313 -0.0040125293 0.4548116 4278255360
0.05804503 -0.004055263 0.45513755 4278255360
0.058421746 -0.0040979972 0.45546353 4278255360
0.05879847 -0.0041407309 0.45578951 4278255360
0.059175186 -0.0041834647 0.45611548 4278255360
0.059551902 -0.0042261984 0.45644146 4278255360
0.059928618 -0.0042689326 0.45676741 4278255360
0.060305335 -0.0043116664 0.45709339 4278255360
0.060682055 -0.0043544006 0.45741937 4278255360
0.061058771 -0.0043971343 0.45774534 4278255360
0.061435491 -0.004439868 0.45807132 4278255360
0.061812207 -0.0044826022 0.45839727 4278255360
0.062188923 -0.004525336 0.45872325 4278255360
0.06256564 -0.0045680702 0.45904922 4278255360
0.062942356 -0.0046108039 0.4593752 4278255360
0.063319072 -0.0046535376 0.45970118 4278255360
0.063695796 -0.0046962714 0.46002716 4278255360
0.064072512 -0.004739006 0.46035311 4278255360
0.064449228 -0.0047817398 0.46067908 4278255360
0.064825945 -0.0048244735 0.46100506 4278255360
0.065202668 -0.0048672073 0.46133104 4278255360
0.065579385 -0.004909941 0.46165702 4278255360
0.065956101 -0.0049526747 0.46198297 4278255360
0.066332817 -0.0049954094 0.46230894 4278255360
0.066709533 -0.0050381431 0.46263492 4278255360
0.029037789 -0.00076475251 0.43003771 4278190335
0.029414 -0.00079289102 0.42970958 4278190335
0.029790211 -0.00082102959 0.42938143 4278190335
0.030166423 -0.00084916811 0.42905331 4278190335
0.030542634 -0.00087730662 0.42872515 4278190335
0.030918844 -0.00090544519 0.42839703 4278190335
0.031295057 -0.00093358371 0.42806888 4278190335
0.031671267 -0.00096172222 0.42774075 4278190335
0.03204748 -0.00098986074 0.42741263 4278190335
0.03242369 -0.0010179993 0.42708448 4278190335
0.0327999 -0.0010461379 0.42675635 4278190335
0.033176113 -0.0010742764 0.4264282 4278190335
0.033552323 -0.0011024149 0.42610008 4278190335
0.033928536 -0.0011305534 0.42577195 4278190335
0.034304745 -0.0011586919 0.4254438 4278190335
0.034680959 -0.0011868305 0.42511567 4278190335
0.035057168 -0.001214969 0.42478752 4278190335
0.035433382 -0.0012431075 0.4244594 4278190335
0.035809591 -0.001271246 0.42413124 4278190335
0.036185801 -0.0012993845 0.42380312 4278190335
0.036562014 -0.0013275231 0.423475 4278190335
0.036938224 -0.0013556617 0.42314684 4278190335
0.037314437 -0.0013838002 0.42281872 4278190335
0.037690647 -0.0014119388 0.42249057 4278190335
0.038066857 -0.0014400772 0.42216244 4278190335
0.03844307 -0.0014682158 0.42183429 4278190335
0.03881928 -0.0014963544 0.42150617 4278190335
0.039195493 -0.0015244929 0.42117804 4278190335
0.039571702 -0.0015526314 0.42084989 4278190335
0.039947916 -0.0015807699 0.42052177 4278190335
0.040324125 -0.0016089084 0.42019361 4278190335
0.040700339 -0.0016370469 0.41986549 4278190335
0.041076548 -0.0016651854 0.41953737 4278190335
0.041452762 -0.0016933241 0.41920921 4278190335
0.041828971 -0.0017214626 0.41888109 4278190335
0.042205181 -0.0017496011 0.41855294 4278190335
0.042581394 -0.0017777396 0.41822481 4278190335
0.042957604 -0.0018058781 0.41789666 4278190335
0.043333817 -0.0018340166 0.41756853 4278190335
0.043710027 -0.0018621552 0.41724041 4278190335
0.04408624 -0.0018902938 0.41691226 4278190335
0.04446245 -0.0019184323 0.41658413 4278190335
0.044838659 -0.0019465708 0.41625598 4278190335
0.045214873 -0.0019747093 0.41592786 4278190335
0.045591086 -0.0020028478 0.41559973 4278190335
0.045967296 -0.0020309864 0.41527158 4278190335
0.046343505 -0.0020591249 0.41494346 4278190335
0.046719715 -0.0020872634 0.4146153 4278190335
0.047095928 -0.0021154019 0.41428718 4278190335
0.047472142 -0.0021435404 0.41395903 4278190335
0.047848351 -0.0021716789 0.4136309 4278190335
0.048224561 -0.0021998174 0.41330278 4278190335
0.048600771 -0.002227956 0.41297463 4278190335
0.048976984 -0.0022560945 0.4126465 4278190335
0.049353197 -0.0022842332 0.41231835 4278190335
0.049729407 -0.0023123717 0.41199023 4278190335
0.050105616 -0.0023405103 0.4116621 4278190335
0.05048183 -0.0023686488 0.41133395 4278190335
0.050858043 -0.0023967873 0.41100582 4278190335
0.051234253 -0.0024249258 0.41067767 4278190335
0.051610462 -0.0024530645 0.41034955 4278190335
0.051986676 -0.0024812031 0.41002139 4278190335
0.052362889 -0.0025093416 0.40969327 4278190335
0.052739099 -0.0025374801 0.40936515 4278190335
0.053115308 -0.0025656186 0.40903699 4278190335
0.053491518 -0.0025937571 0.40870887 4278190335
0.053867735 -0.0026218956 0.40838072 4278190335
0.054243945 -0.0026500341 0.40805259 4278190335
0.054620154 -0.0026781727 0.40772444 4278190335
0.054996364 -0.0027063112 0.40739632 4278190335
0.055372573 -0.0027344497 0.40706819 4278190335
0.055748787 -0.0027625882 0.40674004 4278190335
0.056125 -0.0027907267 0.40641192 4278190335
0.05650121 -0.0028188652 0.40608376 4278190335
0.056877419 -0.0028470038 0.40575564 4278190335
0.057253633 -0.0028751423 0.40542752 4278190335
0.057629846 -0.0029032808 0.40509936 4278190335
0.058006056 -0.0029314193 0.40477124 4278190335
0.058382265 -0.0029595578 0.40444309 4278190335
0.058758479 -0.0029876966 0.40411496 4278190335
0.059134692 -0.0030158351 0.40378681 4278190335
0.059510902 -0.0030439736 0.40345868 4278190335
0.059887111 -0.0030721121 0.40313056 4278190335
0.060263321 -0.0031002506 0.40280241 4278190335
0.060639534 -0.0031283891 0.40247428 4278190335
0.061015747 -0.0031565276 0.40214613 4278190335
0.061391957 -0.0031846662 0.40181801 4278190335
0.061768167 -0.0032128047 0.40148985 4278190335
0.06214438 -0.0032409432 0.40116173 4278190335
0.062520593 -0.0032690817 0.40083361 4278190335
0.062896803 -0.0032972202 0.40050545 4278190335
0.063273013 -0.003325359 0.40017733 4278190335
0.063649222 -0.0033534975 0.39984918 4278190335
0.064025432 -0.003381636 0.39952105 4278190335
0.064401641 -0.0034097745 0.39919293 4278190335
0.064777859 -0.003437913 0.39886478 4278190335
0.065154068 -0.0034660513 0.39853665 4278190335
0.065530285 -0.0034941901 0.3982085 4278190335
0.065906495 -0.0035223286 0.39788038 4278190335
0.066282704 -0.0035504671 0.39755222 4278190335
0.066658914 -0.0035786056 0.3972241 4278190335
0.029037789 -0.00076475251 0.43003771 4294967295
0.026780521 -0.0005959213 0.43200654 4294967295
0.024523253 -0.00042709016 0.43397534 4294967295
0.022265986 -0.00025825895 0.43594417 4294967295
0.020008717 -8.9427806e-05 0.43791297 4294967295
0.01775145 7.9403399e-05 0.4398818 4294967295
0.015494183 0.0002482346 0.4418506 4294967295
0.013236914 0.00041706581 0.44381943 4294967295
0.010979647 0.00058589689 0.44578823 4294967295
0.0087223779 0.00075472821 0.44775707 4294967295
0.0064651109 0.0009235593 0.44972587 4294967295
0.0042078439 0.0010923905 0.4516947 4294967295
0.0019505769 0.0012612217 0.4536635 4294967295
-0.00030669011 0.0014300528 0.45563233 4294967295
-0.0025639609 0.0015988841 0.45760113 4294967295
-0.0048212297 0.0017677152 0.45956996 4294967295
-0.0070784949 0.0019365463 0.46153879 4294967295
-0.0093357638 0.0021053776 0.46350759 4294967295
-0.011593033 0.0022742089 0.46547642 4294967295
-0.013850298 0.0024430398 0.46744522 4294967295
-0.016107567 0.0026118711 0.46941406 4294967295
-0.018364832 0.0027807022 0.47138286 4294967295
-0.020622101 0.0029495335 0.47335169 4294967295
-0.02287937 0.0031183648 0.47532049 4294967295
-0.025136635 0.0032871959 0.47728932 4294967295
-0.027393904 0.003456027 0.47925812 4294967295
-0.029651169 0.0036248581 0.48122695 4294967295
-0.031908441 0.0037936897 0.48319575 4294967295
-0.03416571 0.0039625205 0.48516458 4294967295
-0.036422975 0.0041313516 0.48713338 4294967295
-0.038680248 0.0043001827 0.48910221 4294967295
-0.040937513 0.0044690138 0.49107105 4294967295
-0.043194778 0.0046378449 0.49303985 4294967295
-0.045452051 0.0048066769 0.49500865 4294967295
-0.047709316 0.004975508 0.49697748 4294967295
-0.049966581 0.0051443391 0.49894631 4294967295
-0.052223854 0.0053131701 0.50091511 4294967295
-0.054481119 0.0054820012 0.50288391 4294967295
-0.056738384 0.0056508323 0.50485277 4294967295
-0.058995649 0.0058196634 0.50682157 4294967295
-0.061252922 0.0059884945 0.50879037 4294967295
-0.063510187 0.0061573256 0.51075917 4294967295
-0.065767452 0.0063261567 0.51272804 4294967295
-0.068024725 0.0064949887 0.51469684 4294967295
-0.07028199 0.0066638198 0.51666564 4294967295
-0.072539255 0.0068326509 0.51863444 4294967295
-0.074796528 0.007001482 0.5206033 4294967295
-0.077053793 0.007170313 0.5225721 4294967295
-0.079311058 0.0073391441 0.5245409 4294967295
-0.081568331 0.0075079752 0.52650976 4294967295
-0.083825596 0.0076768063 0.52847856 4294967295
-0.086082861 0.0078456374 0.53044736 4294967295
-0.088340126 0.0080144685 0.53241616 4294967295
-0.090597391 0.0081832996 0.53438497 4294967295
-0.092854671 0.0083521316 0.53635383 4294967295
-0.095111936 0.0085209627 0.53832263 4294967295
-0.097369209 0.0086897938 0.54029143 4294967295
-0.099626467 0.0088586248 0.54226029 4294967295
-0.10188374 0.009027455 0.54422909 4294967295
-0.104141 0.0091962861 0.54619789 4294967295
-0.10639828 0.0093651181 0.54816675 4294967295
-0.10865554 0.0095339492 0.55013555 4294967295
-0.11091281 0.0097027803 0.55210435 4294967295
-0.11317007 0.0098716114 0.55407315 4294967295
-0.11542735 0.010040442 0.55604196 4294967295
-0.1176846 0.010209274 0.55801082 4294967295
-0.11994189 0.010378106 0.55997962 4294967295
-0.12219915 0.010546937 0.56194842 4294967295
-0.12445642 0.010715768 0.56391728 4294967295
