# .PCD v0.7 - Point Cloud Data file format
VERSION 0.7
FIELDS x y z rgb
SIZE 4 4 4 4
TYPE F F F U
COUNT 1 1 1 1
WIDTH 652
HEIGHT 1
VIEWPOINT 0 0 0 1 0 0 0
POINTS 652
DATA ascii
0.082666621 -0.041587614 0.43800002 4287343510
0.084281228 -0.04168256 0.43900001 4287080340
0.085707098 -0.04168256 0.43900001 4286817427
0.087132975 -0.04168256 0.43900001 4286094987
0.081058502 -0.040072802 0.43700001 4282806873
0.082666621 -0.040164504 0.43800002 4281229126
0.084089242 -0.040164504 0.43800002 4281624395
0.085511871 -0.040164504 0.43800002 4280705090
0.086934499 -0.040164504 0.43800002 4280179514
0.088558845 -0.040256202 0.43900001 4279981365
0.089984715 -0.040256202 0.43900001 4283530344
0.076448888 -0.038476046 0.43500003 4281623110
0.077861771 -0.038476046 0.43500003 4281493577
0.079274647 -0.038476046 0.43500003 4281033280
0.08087302 -0.038564496 0.43600002 4280574526
0.082477883 -0.038652945 0.43700001 4280246074
0.083897255 -0.038652945 0.43700001 4279984184
0.085316636 -0.038652945 0.43700001 4279655732
0.086934499 -0.038741399 0.43800002 4279590709
0.088357121 -0.038741399 0.43800002 4279787318
0.089984715 -0.038829848 0.43900001 4279718197
0.067502834 -0.036807083 0.43200001 4286094474
0.068905964 -0.036807083 0.43200001 4283990895
0.074691013 -0.036892284 0.43300003 4279917877
0.076273143 -0.036977485 0.43400002 4279983924
0.077682778 -0.036977485 0.43400002 4280247094
0.079274647 -0.03706269 0.43500003 4279786543
0.08068753 -0.03706269 0.43500003 4279523885
0.082289152 -0.037147891 0.43600002 4279458605
0.083705276 -0.037147891 0.43600002 4279393582
0.085121401 -0.037147891 0.43600002 4278998824
0.086736016 -0.037233088 0.43700001 4279130410
0.088357121 -0.037318293 0.43800002 4279590963
0.089779742 -0.037318293 0.43800002 4279718193
0.061747022 -0.035321519 0.43100002 4286751375
0.063146912 -0.035321519 0.43100002 4286356617
0.064546801 -0.035321519 0.43100002 4282608212
0.065946691 -0.035321519 0.43100002 4281230409
0.06734658 -0.035321519 0.43100002 4281230921
0.068746462 -0.035321519 0.43100002 4279653683
0.070146352 -0.035321519 0.43100002 4279852086
0.071712241 -0.035403471 0.43200001 4279852852
0.073115379 -0.035403471 0.43200001 4279590191
0.074518517 -0.035403471 0.43200001 4279459373
0.076097399 -0.035485424 0.43300003 4279459373
0.077503785 -0.035485424 0.43300003 4279657006
0.079092406 -0.035567377 0.43400002 4278933283
0.080502041 -0.035567377 0.43400002 4278933283
0.082100414 -0.035649329 0.43500003 4278933283
0.08351329 -0.035649329 0.43500003 4278867490
0.084926173 -0.035649329 0.43500003 4278735904
0.086537533 -0.035731282 0.43600002 4278933029
0.088357121 -0.035895187 0.43800002 4278998054
0.089779742 -0.035895187 0.43800002 4279716400
0.05601719 -0.033842448 0.43000001 4286027398
0.057413835 -0.033842448 0.43000001 4286356363
0.058810472 -0.033842448 0.43000001 4286290824
0.060207114 -0.033842448 0.43000001 4282740308
0.061747022 -0.033921152 0.43100002 4281229124
0.064546801 -0.033921152 0.43100002 4279983670
0.065946691 -0.033921152 0.43100002 4279721012
0.06734658 -0.033921152 0.43100002 4279787572
0.068746462 -0.033921152 0.43100002 4279590191
0.070146352 -0.033921152 0.43100002 4279655984
0.071546242 -0.033921152 0.43100002 4279261224
0.073115379 -0.033999857 0.43200001 4279130662
0.074518517 -0.033999857 0.43200001 4278868003
0.076097399 -0.034078561 0.43300003 4278802210
0.077503785 -0.034078561 0.43300003 4278933796
0.078910165 -0.034078561 0.43300003 4278539038
0.080502041 -0.034157261 0.43400002 4278538271
0.081911676 -0.034157261 0.43400002 4278538271
0.083321303 -0.034157261 0.43400002 4278603294
0.084926173 -0.034235965 0.43500003 4278734367
0.086339056 -0.034235965 0.43500003 4278865955
0.089779742 -0.034472078 0.43800002 4279650094
0.053100135 -0.032369882 0.42900002 4285961605
0.054493528 -0.032369882 0.42900002 4286489232
0.055886921 -0.032369882 0.42900002 4283595621
0.057280317 -0.032369882 0.42900002 4281491778
0.060067099 -0.032369882 0.42900002 4279654959
0.061603755 -0.032445334 0.43000001 4279787572
0.063000396 -0.032445334 0.43000001 4279130925
0.064397037 -0.032445334 0.43000001 4279197486
0.065793678 -0.032445334 0.43000001 4278868521
0.067190319 -0.032445334 0.43000001 4278934312
0.068586953 -0.032445334 0.43000001 4278539806
0.069983602 -0.032445334 0.43000001 4278933794
0.071546242 -0.03252079 0.43100002 4278998304
0.072946131 -0.03252079 0.43100002 4278800927
0.074518517 -0.032596242 0.43200001 4278275353
0.075921655 -0.032596242 0.43200001 4278472478
0.077503785 -0.032671697 0.43300003 4278340122
0.078910165 -0.032671697 0.43300003 4278800673
0.084730938 -0.032747153 0.43400002 4279390504
0.086339056 -0.032822609 0.43500003 4279062822
0.050196074 -0.030903812 0.42800003 4286027652
0.051586218 -0.030903812 0.42800003 4284121711
0.052852582 -0.030831605 0.42700002 4281031747
0.054239478 -0.030831605 0.42700002 4280968262
0.057146799 -0.030903812 0.42800003 4279327019
0.058536936 -0.030903812 0.42800003 4279590191
0.059927084 -0.030903812 0.42800003 4279262509
0.061317232 -0.030903812 0.42800003 4279065130
0.062707379 -0.030903812 0.42800003 4279197486
0.064097516 -0.030903812 0.42800003 4278539556
0.065640673 -0.030976016 0.42900002 4278605863
0.067034066 -0.030976016 0.42900002 4278540068
0.068427451 -0.030976016 0.42900002 4278341659
0.069983602 -0.031048222 0.43000001 4278539036
0.071380243 -0.031048222 0.43000001 4278537755
0.072946131 -0.031120427 0.43100002 4278603548
0.074518517 -0.031192631 0.43200001 4278734367
0.075921655 -0.031192631 0.43200001 4278997025
0.080502041 -0.031337041 0.43400002 4279257381
0.081911676 -0.031337041 0.43400002 4279125795
0.084926173 -0.031409249 0.43500003 4279061800
0.086339056 -0.031409249 0.43500003 4279457326
0.04857786 -0.029375285 0.42600003 4281491524
0.052728806 -0.029375285 0.42600003 4279459125
0.054112453 -0.029375285 0.42600003 4279130925
0.055496104 -0.029375285 0.42600003 4278999339
0.056879755 -0.029375285 0.42600003 4279130921
0.058263399 -0.029375285 0.42600003 4279065382
0.05964705 -0.029375285 0.42600003 4278933796
0.061030701 -0.029375285 0.42600003 4278670624
0.062560864 -0.02944424 0.42700002 4278670624
0.063947752 -0.02944424 0.42700002 4278670111
0.065334655 -0.02944424 0.42700002 4278472478
0.066877812 -0.029513197 0.42800003 4278275099
0.068267949 -0.029513197 0.42800003 4278604064
0.069820851 -0.029582152 0.42900002 4278998306
0.071380243 -0.029651107 0.43000001 4279325220
0.075921655 -0.029789019 0.43200001 4279716902
0.077503785 -0.029857976 0.43300003 4279191842
0.079092406 -0.029926931 0.43400002 4279389221
0.08351329 -0.029995888 0.43500003 4279915565
0.084926173 -0.029995888 0.43500003 4279193125
0.086339056 -0.029995888 0.43500003 4279982900
0.042654008 -0.026874147 0.40900001 4283332449
0.044089977 -0.026939856 0.41000003 4281164864
0.04542166 -0.026939856 0.41000003 4280705594
0.04857786 -0.027991166 0.42600003 4279918131
0.050078791 -0.028056873 0.42700002 4279129640
0.051345158 -0.027991166 0.42600003 4278671140
0.052357472 -0.027794044 0.42300001 4278868519
0.053731378 -0.027794044 0.42300001 4278934312
0.055105284 -0.027794044 0.42300001 4279131691
0.056612715 -0.027859753 0.42400002 4278539554
0.057989862 -0.027859753 0.42400002 4278671140
0.059367016 -0.027859753 0.42400002 4278802210
0.06074417 -0.027859753 0.42400002 4278604831
0.062267836 -0.02792546 0.42500001 4278735134
0.063648231 -0.02792546 0.42500001 4278603548
0.06518165 -0.027991166 0.42600003 4278603035
0.066721551 -0.028056873 0.42700002 4278866207
0.072776876 -0.028253993 0.43000001 4279586084
0.074346021 -0.028319702 0.43100002 4279652391
0.075921655 -0.028385408 0.43200001 4279257633
0.08351329 -0.02858253 0.43500003 4279192355
0.084926173 -0.02858253 0.43500003 4279258916
0.086339056 -0.02858253 0.43500003 4279190054
0.027081402 -0.024670856 0.39500001 4279063847
0.028364362 -0.024670856 0.39500001 4279459888
0.037912354 -0.025045604 0.40100002 4283662180
0.03941039 -0.02517052 0.40300003 4281887052
0.041022457 -0.025357893 0.40600002 4280639549
0.042445432 -0.025420349 0.40700001 4279654705
0.043874905 -0.025482807 0.40800002 4279523885
0.045310874 -0.025545266 0.40900001 4279655982
0.048463825 -0.026544591 0.42500001 4279065128
0.050078791 -0.026669508 0.42700002 4279065128
0.051224627 -0.026544591 0.42500001 4278802980
0.051986147 -0.026232302 0.42000002 4278934564
0.053350307 -0.026232302 0.42000002 4278671392
0.054844745 -0.02629476 0.42100003 4278408220
0.056212153 -0.02629476 0.42100003 4278604831
0.057716325 -0.026357219 0.42200002 4278604318
0.059086982 -0.026357219 0.42200002 4278603548
0.060457643 -0.026357219 0.42200002 4278800927
0.061974812 -0.026419675 0.42300001 4278734367
0.068108447 -0.026669508 0.42700002 4279849770
0.072776876 -0.026856881 0.43000001 4279519521
0.079092406 -0.027106712 0.43400002 4279716648
0.08068753 -0.027169172 0.43500003 4279979820
0.083705276 -0.027231628 0.43600002 4279456297
0.027081402 -0.02338746 0.39500001 4278734882
0.028364362 -0.02338746 0.39500001 4278670372
0.02972238 -0.02344667 0.39600003 4278999337
0.03100859 -0.02344667 0.39600003 4279065130
0.032294799 -0.02344667 0.39600003 4279589939
0.037912354 -0.023742713 0.40100002 4279852336
0.039312594 -0.023801921 0.40200001 4279589678
0.040921416 -0.023979548 0.40500003 4279196203
0.042341143 -0.024038756 0.40600002 4279196203
0.043767367 -0.024097964 0.40700001 4279130923
0.045089304 -0.024097964 0.40700001 4278999335
0.048463825 -0.025163723 0.42500001 4278736933
0.048085023 -0.024275592 0.41000003 4278473761
0.049657758 -0.024394009 0.41200003 4278408222
0.051614817 -0.024690054 0.41700003 4278342429
0.052969232 -0.024690054 0.41700003 4278473243
0.054453921 -0.024749262 0.41800001 4278867490
0.055945113 -0.024808472 0.41900003 4278800927
0.057306021 -0.024808472 0.41900003 4279326758
0.058806948 -0.02486768 0.42000002 4279850022
0.064875633 -0.025104515 0.42400002 4280045863
0.075921655 -0.025578184 0.43200001 4279781928
0.08068753 -0.025755811 0.43500003 4280176434
0.082100414 -0.025755811 0.43500003 4280045615
0.024577547 -0.022160025 0.39600003 4281353517
0.025863754 -0.022160025 0.39600003 4279908635
0.027149964 -0.022160025 0.39600003 4278732574
0.028436171 -0.022160025 0.39600003 4278799648
0.02972238 -0.022160025 0.39600003 4278209564
0.03100859 -0.022160025 0.39600003 4278933544
0.032294799 -0.022160025 0.39600003 4281236819
0.035043314 -0.022271946 0.39800003 4279589939
0.036427312 -0.022327904 0.39900002 4279327537
0.03781781 -0.022383863 0.40000001 4279394093
0.039214805 -0.022439824 0.40100002 4279329324
0.040719334 -0.022551743 0.40300003 4279329324
0.042132568 -0.022607703 0.40400001 4279000359
0.043552294 -0.022663662 0.40500003 4278737187
0.044978522 -0.022719622 0.40600002 4278539808
0.046297207 -0.022719622 0.40600002 4278472991
0.047967739 -0.0228875 0.40900001 4278604577
0.04953723 -0.022999419 0.41100001 4278735650
0.051243488 -0.023167299 0.41400003 4278538271
0.052715182 -0.023223259 0.41500002 4279064615
0.054193377 -0.023279218 0.41600001 4278998052
0.057169247 -0.023391137 0.41800001 4278199301
0.058666933 -0.023447098 0.41900003 4278789650
0.060171112 -0.023503058 0.42000002 4278396175
0.06472262 -0.023670936 0.42300001 4279978278
0.071048245 -0.023950735 0.42800003 4279454500
0.072607629 -0.024006695 0.42900002 4280178223
0.077503785 -0.024230532 0.43300003 4280177453
0.08068753 -0.024342453 0.43500003 4281096768
0.025863754 -0.020873381 0.39600003 4280105500
0.027149964 -0.020873381 0.39600003 4278928670
0.028436171 -0.020873381 0.39600003 4278731804
0.02972238 -0.020873381 0.39600003 4278470683
0.03100859 -0.020873381 0.39600003 4278208281
0.032294799 -0.020873381 0.39600003 4278801958
0.033665806 -0.02092609 0.39700001 4278933546
0.035043314 -0.020978801 0.39800003 4278802730
0.036427312 -0.021031512 0.39900002 4279198002
0.03781781 -0.021084221 0.40000001 4279263791
0.039214805 -0.021136932 0.40100002 4278869285
0.040618293 -0.021189643 0.40200001 4278211355
0.042028278 -0.021242354 0.40300003 4278408734
0.043444756 -0.021295063 0.40400001 4278407452
0.044867739 -0.021347774 0.40500003 4278802210
0.046297207 -0.021400485 0.40600002 4278206995
0.04785046 -0.021505907 0.40800002 4278404118
0.049416702 -0.021611327 0.41000003 4279391013
0.050995935 -0.021716749 0.41200003 4279126562
0.052461132 -0.021769458 0.41300002 4278397710
0.054063104 -0.02187488 0.41500002 4278461453
0.057032481 -0.021980301 0.41700003 4278920211
0.061535276 -0.022138434 0.42000002 4280109358
0.069332592 -0.022454696 0.42600003 4279584803
0.072607629 -0.022612827 0.42900002 4280241709
0.077503785 -0.022823671 0.43300003 4281293886
0.025863754 -0.019586736 0.39600003 4280040221
0.027149964 -0.019586736 0.39600003 4279058972
0.028436171 -0.019586736 0.39600003 4278862363
0.02972238 -0.019586736 0.39600003 4278863388
0.03100859 -0.019586736 0.39600003 4278929951
0.032294799 -0.019586736 0.39600003 4278800927
0.033665806 -0.019636197 0.39700001 4278867490
0.035043314 -0.01968566 0.39800003 4278933283
0.036336016 -0.01968566 0.39800003 4278933283
0.037723266 -0.01973512 0.39900002 4278472991
0.039214805 -0.019834043 0.40100002 4278407968
0.040618293 -0.019883504 0.40200001 4278474013
0.042028278 -0.019932967 0.40300003 4278868001
0.043444756 -0.019982427 0.40400001 4279129892
0.044867739 -0.020031888 0.40500003 4279326758
0.046297207 -0.020081351 0.40600002 4278468119
0.04773318 -0.020130811 0.40700001 4279915563
0.04929617 -0.020229734 0.40900001 4278200844
0.050872158 -0.020328658 0.41100001 4278723855
0.052334111 -0.020378118 0.41200003 4278853648
0.053932834 -0.020477042 0.41400003 4280104485
0.0583869 -0.020625426 0.41700003 4278198025
0.061388765 -0.020724349 0.41900003 4278200336
0.025929065 -0.018346304 0.39700001 4279909918
0.027218524 -0.018346304 0.39700001 4279058718
0.028436171 -0.018300092 0.39600003 4278993695
0.02972238 -0.018300092 0.39600003 4278797084
0.03100859 -0.018300092 0.39600003 4279060767
0.032376349 -0.018346304 0.39700001 4278997025
0.033665806 -0.018346304 0.39700001 4278800414
0.035043314 -0.018392516 0.39800003 4279195685
0.036336016 -0.018392516 0.39800003 4279195685
0.03781781 -0.018484941 0.40000001 4278998306
0.039214805 -0.018531153 0.40100002 4279064099
0.040618293 -0.018577365 0.40200001 4279195685
0.042028278 -0.018623577 0.40300003 4279260965
0.043444756 -0.01866979 0.40400001 4279260711
0.044867739 -0.018716002 0.40500003 4279654955
0.046297207 -0.018762214 0.40600002 4278201862
0.04929617 -0.018900851 0.40900001 4278723855
0.052334111 -0.019039489 0.41200003 4280104998
0.056895711 -0.019224338 0.41600001 4280171555
0.0583869 -0.01927055 0.41700003 4278330380
0.02463961 -0.017056409 0.39700001 4280564253
0.025929065 -0.017056409 0.39700001 4279713307
0.027218524 -0.017056409 0.39700001 4279256097
0.02850798 -0.017056409 0.39700001 4279059742
0.029797435 -0.017056409 0.39700001 4278862359
0.031086894 -0.017056409 0.39700001 4279389217
0.032376349 -0.017056409 0.39700001 4279127841
0.033665806 -0.017056409 0.39700001 4278865953
0.035043314 -0.017099373 0.39800003 4279064099
0.036427312 -0.017142337 0.39900002 4279261478
0.03781781 -0.017185299 0.40000001 4279260965
0.039214805 -0.017228262 0.40100002 4279195170
0.040618293 -0.017271226 0.40200001 4279195170
0.042028278 -0.01731419 0.40300003 4279392549
0.043444756 -0.017357152 0.40400001 4279195172
0.044867739 -0.017400118 0.40500003 4279390500
0.04773318 -0.017486041 0.40700001 4279190041
0.053802561 -0.017743822 0.41300002 4278788623
0.056758944 -0.017829748 0.41500002 4278919439
0.025994379 -0.015806232 0.39800003 4279517727
0.027287085 -0.015806232 0.39800003 4279058972
0.02850798 -0.015766516 0.39700001 4278862363
0.029797435 -0.015766516 0.39700001 4279125785
0.031086894 -0.015766516 0.39700001 4279455264
0.032376349 -0.015766516 0.39700001 4279325474
0.033665806 -0.015766516 0.39700001 4279062818
0.035043314 -0.015806232 0.39800003 4279392551
0.036427312 -0.015845945 0.39900002 4279524137
0.03781781 -0.015885659 0.40000001 4279260449
0.039214805 -0.015925374 0.40100002 4279392035
0.040618293 -0.015965087 0.40200001 4279457828
0.042028278 -0.016004803 0.40300003 4279392037
0.043444756 -0.016044516 0.40400001 4279325990
0.044867739 -0.016084231 0.40500003 4278203403
0.04773318 -0.016163658 0.40700001 4278199553
0.050748382 -0.016282801 0.41000003 4278789136
0.053672288 -0.016362229 0.41200003 4278788623
0.055277511 -0.016441658 0.41400003 4279975459
0.024763739 -0.014549552 0.39900002 4279713309
0.025994379 -0.014513087 0.39800003 4279189275
0.027287085 -0.014513087 0.39800003 4278993177
0.028579788 -0.014513087 0.39800003 4278993947
0.029797435 -0.014476622 0.39700001 4279192351
0.031086894 -0.014476622 0.39700001 4279389730
0.032376349 -0.014476622 0.39700001 4279325220
0.033665806 -0.014476622 0.39700001 4279720748
0.035043314 -0.014513087 0.39800003 4279325990
0.036336016 -0.014513087 0.39800003 4279194918
0.03781781 -0.014586017 0.40000001 4279326758
0.039214805 -0.014622482 0.40100002 4279129379
0.040618293 -0.014658947 0.40200001 4279655209
0.042028278 -0.014695412 0.40300003 4279654439
0.043444756 -0.014731877 0.40400001 4279851305
0.044867739 -0.014768342 0.40500003 4278200321
0.04773318 -0.014841272 0.40700001 4278594576
0.023526601 -0.013286376 0.40000001 4281287206
0.024825802 -0.013286376 0.40000001 4279779613
0.026059691 -0.013253161 0.39900002 4279846690
0.027355645 -0.013253161 0.39900002 4279058970
0.028579788 -0.013219945 0.39800003 4279059740
0.029872492 -0.013219945 0.39800003 4278995742
0.031086894 -0.013186729 0.39700001 4279127328
0.032376349 -0.013186729 0.39700001 4278865953
0.033665806 -0.013186729 0.39700001 4279589676
0.034955263 -0.013186729 0.39700001 4279326504
0.036336016 -0.013219945 0.39800003 4279392551
0.037723266 -0.013253161 0.39900002 4279260965
0.039214805 -0.013319593 0.40100002 4279524137
0.040618293 -0.013352809 0.40200001 4279655209
0.042132568 -0.01341924 0.40400001 4279457576
0.043552294 -0.013452456 0.40500003 4279059742
0.044867739 -0.013452456 0.40500003 4279189021
0.024825802 -0.011986735 0.40000001 4279713818
0.026125003 -0.011986735 0.40000001 4279386137
0.027355645 -0.011956769 0.39900002 4279124761
0.028579788 -0.011926803 0.39800003 4278993945
0.029872492 -0.011926803 0.39800003 4279258914
0.031086894 -0.011896836 0.39700001 4278931232
0.032376349 -0.011896836 0.39700001 4278931746
0.033665806 -0.011896836 0.39700001 4279261226
0.034955263 -0.011896836 0.39700001 4279195433
0.036336016 -0.011926803 0.39800003 4279326504
0.037723266 -0.011956769 0.39900002 4279392551
0.039214805 -0.012016703 0.40100002 4279523883
0.040618293 -0.01204667 0.40200001 4279654955
0.042132568 -0.012106603 0.40400001 4279786541
0.043552294 -0.01213657 0.40500003 4279455014
0.044867739 -0.01213657 0.40500003 4279453730
0.024887869 -0.010713813 0.40100002 4279451932
0.026125003 -0.010687095 0.40000001 4279386652
0.027355645 -0.010660377 0.39900002 4278928154
0.028651597 -0.010660377 0.39900002 4279191840
0.029872492 -0.01063366 0.39800003 4279325222
0.031086894 -0.010606942 0.39700001 4279260199
0.032376349 -0.010606942 0.39700001 4279260199
0.033581007 -0.010580225 0.39600003 4279523371
0.034955263 -0.010606942 0.39700001 4279654955
0.036244716 -0.010606942 0.39700001 4279654955
0.037723266 -0.010660377 0.39900002 4279392297
0.039117008 -0.010687095 0.40000001 4279589678
0.040618293 -0.010740531 0.40200001 4279655471
0.042028278 -0.010767248 0.40300003 4279720750
0.043552294 -0.010820684 0.40500003 4279389221
0.024887869 -0.0094109224 0.40100002 4279584031
0.026125003 -0.009387454 0.40000001 4279190043
0.027424205 -0.009387454 0.40000001 4278993947
0.028651597 -0.0093639856 0.39900002 4279126047
0.029872492 -0.0093405172 0.39800003 4279325222
0.031086894 -0.0093170479 0.39700001 4279456808
0.032376349 -0.0093170479 0.39700001 4279852336
0.033581007 -0.0092935795 0.39600003 4279720748
0.034867216 -0.0092935795 0.39600003 4279720748
0.036244716 -0.0093170479 0.39700001 4279457576
0.037628721 -0.0093405172 0.39800003 4279523369
0.03901922 -0.0093639856 0.39900002 4279392299
0.040618293 -0.0094343908 0.40200001 4279720752
0.042028278 -0.0094578601 0.40300003 4279786545
0.043444756 -0.0094813285 0.40400001 4279652393
0.02358542 -0.0081080329 0.40100002 4279185689
0.024887869 -0.0081080329 0.40100002 4279386400
0.026125003 -0.0080878129 0.40000001 4279255838
0.027424205 -0.0080878129 0.40000001 4279125533
0.028651597 -0.0080675939 0.39900002 4278928668
0.029872492 -0.0080473749 0.39800003 4279456808
0.031086894 -0.008027155 0.39700001 4279260199
0.032376349 -0.008027155 0.39700001 4279852338
0.033581007 -0.0080069359 0.39600003 4279786543
0.034867216 -0.0080069359 0.39600003 4279720750
0.036244716 -0.008027155 0.39700001 4279720750
0.037628721 -0.0080473749 0.39800003 4279391785
0.03901922 -0.0080675939 0.39900002 4279852338
0.041923989 -0.0081282528 0.40200001 4283530598
0.026125003 -0.0067881718 0.40000001 4279384092
0.027424205 -0.0067881718 0.40000001 4279255836
0.028651597 -0.0067712017 0.39900002 4279586084
0.029872492 -0.0067542316 0.39800003 4279587879
0.031086894 -0.0067372606 0.39700001 4280114738
0.032376349 -0.0067372606 0.39700001 4280246326
0.033581007 -0.0067202905 0.39600003 4279325224
0.034867216 -0.0067202905 0.39600003 4280509498
0.036153425 -0.0067202905 0.39600003 4279652906
0.051726278 -0.023174744 0.41414031 4294967295
0.051726278 -0.023174744 0.41414031 4294901760
0.051726278 -0.023174744 0.41464031 4294901760
0.051726278 -0.023174744 0.4151403 4294901760
0.051726278 -0.023174744 0.41564032 4294901760
0.051726278 -0.023174744 0.41614032 4294901760
0.051726278 -0.023174744 0.41664031 4294901760
0.051726278 -0.023174744 0.41714031 4294901760
0.051726278 -0.023174744 0.41764033 4294901760
0.051726278 -0.023174744 0.41814032 4294901760
0.051726278 -0.023174744 0.41864032 4294901760
0.051726278 -0.023174744 0.41914031 4294901760
0.051726278 -0.023174744 0.4196403 4294901760
0.051726278 -0.023174744 0.42014033 4294901760
0.051726278 -0.023174744 0.42064032 4294901760
0.051726278 -0.023174744 0.42114031 4294901760
0.051726278 -0.023174744 0.42164031 4294901760
0.051726278 -0.023174744 0.4221403 4294901760
0.051726278 -0.023174744 0.42264032 4294901760
0.051726278 -0.023174744 0.42314032 4294901760
0.051726278 -0.023174744 0.42364031 4294901760
0.051726278 -0.023174744 0.4241403 4294901760
0.051726278 -0.023174744 0.42464033 4294901760
0.051726278 -0.023174744 0.42514032 4294901760
0.051726278 -0.023174744 0.42564031 4294901760
0.051726278 -0.023174744 0.42614031 4294901760
0.051726278 -0.023174744 0.42664033 4294901760
0.051726278 -0.023174744 0.42714033 4294901760
0.051726278 -0.023174744 0.42764032 4294901760
0.051726278 -0.023174744 0.42814031 4294901760
0.051726278 -0.023174744 0.42864031 4294901760
0.051726278 -0.023174744 0.42914033 4294901760
0.051726278 -0.023174744 0.42964032 4294901760
0.051726278 -0.023174744 0.43014032 4294901760
0.051726278 -0.023174744 0.43064031 4294901760
0.051726278 -0.023174744 0.4311403 4294901760
0.051726278 -0.023174744 0.43164033 4294901760
0.051726278 -0.023174744 0.43214032 4294901760
0.051726278 -0.023174744 0.43264031 4294901760
0.051726278 -0.023174744 0.43314031 4294901760
0.051726278 -0.023174744 0.43364033 4294901760
0.051726278 -0.023174744 0.43414032 4294901760
0.051726278 -0.023174744 0.43464032 4294901760
0.051726278 -0.023174744 0.43514031 4294901760
0.051726278 -0.023174744 0.43564034 4294901760
0.051726278 -0.023174744 0.43614033 4294901760
0.051726278 -0.023174744 0.43664032 4294901760
0.051726278 -0.023174744 0.43714032 4294901760
0.051726278 -0.023174744 0.43764031 4294901760
0.051726278 -0.023174744 0.43814033 4294901760
0.051726278 -0.023174744 0.43864033 4294901760
0.051726278 -0.023174744 0.43914032 4294901760
0.051726278 -0.023174744 0.43964031 4294901760
0.051726278 -0.023174744 0.44014031 4294901760
0.051726278 -0.023174744 0.44064033 4294901760
0.051726278 -0.023174744 0.44114032 4294901760
0.051726278 -0.023174744 0.44164032 4294901760
0.051726278 -0.023174744 0.44214031 4294901760
0.051726278 -0.023174744 0.4426403 4294901760
0.051726278 -0.023174744 0.44314033 4294901760
0.051726278 -0.023174744 0.44364032 4294901760
0.051726278 -0.023174744 0.44414032 4294901760
0.051726278 -0.023174744 0.44464031 4294901760
0.051726278 -0.023174744 0.44514033 4294901760
0.051726278 -0.023174744 0.44564033 4294901760
0.051726278 -0.023174744 0.44614032 4294901760
0.051726278 -0.023174744 0.44664031 4294901760
0.051726278 -0.023174744 0.44714034 4294901760
0.051726278 -0.023174744 0.44764033 4294901760
0.051726278 -0.023174744 0.44814032 4294901760
0.051726278 -0.023174744 0.44864032 4294901760
0.051726278 -0.023174744 0.44914031 4294901760
0.051726278 -0.023174744 0.44964033 4294901760
0.051726278 -0.023174744 0.45014033 4294901760
0.051726278 -0.023174744 0.45064032 4294901760
0.051726278 -0.023174744 0.45114031 4294901760
0.051726278 -0.023174744 0.45164031 4294901760
0.051726278 -0.023174744 0.45214033 4294901760
0.051726278 -0.023174744 0.45264032 4294901760
0.051726278 -0.023174744 0.45314032 4294901760
0.051726278 -0.023174744 0.45364031 4294901760
0.051726278 -0.023174744 0.45414034 4294901760
0.051726278 -0.023174744 0.45464033 4294901760
0.051726278 -0.023174744 0.45514032 4294901760
0.051726278 -0.023174744 0.45564032 4294901760
0.051726278 -0.023174744 0.45614031 4294901760
0.051726278 -0.023174744 0.45664033 4294901760
0.051726278 -0.023174744 0.45714033 4294901760
0.051726278 -0.023174744 0.45764032 4294901760
0.051726278 -0.023174744 0.45814031 4294901760
0.051726278 -0.023174744 0.45864034 4294901760
0.051726278 -0.023174744 0.45914033 4294901760
0.051726278 -0.023174744 0.45964032 4294901760
0.051726278 -0.023174744 0.46014032 4294901760
0.051726278 -0.023174744 0.46064031 4294901760
0.051726278 -0.023174744 0.46114033 4294901760
0.051726278 -0.023174744 0.46164033 4294901760
0.051726278 -0.023174744 0.46214032 4294901760
0.051726278 -0.023174744 0.46264032 4294901760
0.051726278 -0.023174744 0.46314034 4294901760
0.051726278 -0.023174744 0.46364033 4294901760
0.051726278 -0.023174744 0.46414033 4294901760
0.051726278 -0.023174744 0.41414031 4278255360
0.051418647 -0.023119308 0.41453055 4278255360
0.05111102 -0.023063872 0.41492081 4278255360
0.050803389 -0.023008438 0.41531104 4278255360
0.050495759 -0.022953002 0.4157013 4278255360
0.050188128 -0.022897566 0.41609153 4278255360
0.049880501 -0.02284213 0.41648179 4278255360
0.04957287 -0.022786694 0.41687202 4278255360
0.049265239 -0.022731259 0.41726226 4278255360
0.048957609 -0.022675823 0.41765252 4278255360
0.048649982 -0.022620387 0.41804275 4278255360
0.048342351 -0.022564951 0.41843301 4278255360
0.04803472 -0.022509515 0.41882324 4278255360
0.047727089 -0.022454081 0.4192135 4278255360
0.047419462 -0.022398645 0.41960374 4278255360
0.047111832 -0.022343209 0.41999397 4278255360
0.046804201 -0.022287773 0.42038423 4278255360
0.04649657 -0.022232337 0.42077446 4278255360
0.046188943 -0.022176903 0.42116472 4278255360
0.045881312 -0.022121467 0.42155495 4278255360
0.045573682 -0.022066031 0.42194521 4278255360
0.045266051 -0.022010595 0.42233545 4278255360
0.044958424 -0.021955159 0.42272568 4278255360
0.044650793 -0.021899724 0.42311594 4278255360
0.044343162 -0.021844288 0.42350617 4278255360
0.044035532 -0.021788852 0.42389643 4278255360
0.043727905 -0.021733416 0.42428666 4278255360
0.043420274 -0.02167798 0.42467692 4278255360
0.043112643 -0.021622546 0.42506716 4278255360
0.042805016 -0.02156711 0.42545739 4278255360
0.042497382 -0.021511674 0.42584765 4278255360
0.042189755 -0.021456238 0.42623788 4278255360
0.041882124 -0.021400802 0.42662814 4278255360
0.041574493 -0.021345368 0.42701837 4278255360
0.041266866 -0.021289932 0.42740864 4278255360
0.040959235 -0.021234496 0.42779887 4278255360
0.040651605 -0.02117906 0.4281891 4278255360
0.040343978 -0.021123623 0.42857936 4278255360
0.040036347 -0.021068189 0.42896959 4278255360
0.039728716 -0.021012753 0.42935985 4278255360
0.039421085 -0.020957317 0.42975008 4278255360
0.039113455 -0.020901881 0.43014035 4278255360
0.038805827 -0.020846445 0.43053058 4278255360
0.038498197 -0.020791011 0.43092084 4278255360
0.038190566 -0.020735575 0.43131107 4278255360
0.037882939 -0.020680139 0.4317013 4278255360
0.037575308 -0.020624703 0.43209156 4278255360
0.037267677 -0.020569267 0.4324818 4278255360
0.036960047 -0.020513833 0.43287206 4278255360
0.036652416 -0.020458397 0.43326229 4278255360
0.036344789 -0.02040296 0.43365252 4278255360
0.036037158 -0.020347524 0.43404278 4278255360
0.035729527 -0.020292088 0.43443301 4278255360
0.0354219 -0.020236654 0.43482327 4278255360
0.035114266 -0.020181218 0.43521351 4278255360
0.034806639 -0.020125782 0.43560377 4278255360
0.034499012 -0.020070346 0.435994 4278255360
0.034191377 -0.02001491 0.43638426 4278255360
0.03388375 -0.019959476 0.43677449 4278255360
0.033576123 -0.01990404 0.43716472 4278255360
0.033268489 -0.019848604 0.43755499 4278255360
0.032960862 -0.019793168 0.43794522 4278255360
0.032653231 -0.019737732 0.43833548 4278255360
0.0323456 -0.019682297 0.43872571 4278255360
0.032037973 -0.019626861 0.43911594 4278255360
0.031730343 -0.019571425 0.4395062 4278255360
0.031422712 -0.019515989 0.43989643 4278255360
0.031115081 -0.019460553 0.4402867 4278255360
0.030807452 -0.019405119 0.44067693 4278255360
0.030499822 -0.019349683 0.44106719 4278255360
0.030192193 -0.019294247 0.44145742 4278255360
0.029884564 -0.019238811 0.44184768 4278255360
0.029576931 -0.019183375 0.44223791 4278255360
0.029269302 -0.019127939 0.44262815 4278255360
0.028961673 -0.019072505 0.44301841 4278255360
0.028654043 -0.019017069 0.44340864 4278255360
0.028346414 -0.018961633 0.4437989 4278255360
0.028038785 -0.018906198 0.44418913 4278255360
0.027731154 -0.018850762 0.44457936 4278255360
0.027423523 -0.018795326 0.44496962 4278255360
0.027115894 -0.01873989 0.44535986 4278255360
0.026808264 -0.018684454 0.44575012 4278255360
0.026500635 -0.018629018 0.44614035 4278255360
0.026193006 -0.018573584 0.44653061 4278255360
0.025885375 -0.018518148 0.44692084 4278255360
0.025577744 -0.018462712 0.4473111 4278255360
0.025270116 -0.018407276 0.44770133 4278255360
0.024962485 -0.018351842 0.44809157 4278255360
0.024654856 -0.018296406 0.44848183 4278255360
0.024347227 -0.01824097 0.44887206 4278255360
0.024039596 -0.018185534 0.44926232 4278255360
0.023731966 -0.018130098 0.44965255 4278255360
0.023424337 -0.018074661 0.45004281 4278255360
0.023116706 -0.018019225 0.45043305 4278255360
0.022809077 -0.017963791 0.45082328 4278255360
0.022501448 -0.017908355 0.45121354 4278255360
0.022193817 -0.017852919 0.45160377 4278255360
0.021886187 -0.017797483 0.45199403 4278255360
0.021578558 -0.017742049 0.45238426 4278255360
0.021270927 -0.017686613 0.45277452 4278255360
0.020963298 -0.017631177 0.45316476 4278255360
