# .PCD v0.7 - Point Cloud Data file format
VERSION 0.7
FIELDS x y z rgb
SIZE 4 4 4 4
TYPE F F F U
COUNT 1 1 1 1
WIDTH 834
HEIGHT 1
VIEWPOINT 0 0 0 1 0 0 0
POINTS 834
DATA ascii
-0.0029918985 0.032875534 0.48700002 4280961839
-0.0014130172 0.03294304 0.48800004 4280965684
0.00017306513 0.033145558 0.49100003 4280768303
-0.0045079347 0.035522126 0.48000002 4280437039
-0.0029488937 0.035522126 0.48000002 4278928156
-0.0013927486 0.035596132 0.48100004 4278798365
0.00017130275 0.035966154 0.48600003 4278929949
-0.0044797603 0.036849935 0.47700003 4280108328
-0.0029304633 0.036849935 0.47700003 4279124252
-0.0013811664 0.036849935 0.47700003 4278731804
-0.0044515859 0.038158249 0.47400004 4280174119
-0.0029120327 0.038158249 0.47400004 4279190043
-0.0013724798 0.038158249 0.47400004 4278797082
-0.0044328026 0.039530821 0.47200003 4280437291
-0.002893602 0.039447065 0.47100002 4279124250
-0.0013608977 0.039363317 0.47000003 4278993947
0.00016390078 0.038944557 0.46500003 4278862875
0.0016670206 0.038777053 0.46300003 4278797082
0.0060583949 0.038023289 0.45400003 4278533910
0.0075163944 0.037939534 0.45300001 4279190556
0.0089877397 0.037939534 0.45300001 4279189275
-0.0044234111 0.040977392 0.47100002 4280108840
-0.0028874585 0.040890392 0.47000003 4278862363
-0.0013551066 0.040716391 0.46800002 4278928154
0.00016354831 0.040368386 0.46400002 4278797082
0.0016634201 0.040194385 0.46200001 4278665496
0.0031502999 0.040020384 0.46000001 4278731289
0.004614091 0.039759383 0.45700002 4278862875
0.0060583949 0.039498381 0.45400003 4278533910
0.0075163944 0.039411377 0.45300001 4279257119
0.0089877397 0.039411377 0.45300001 4278728211
0.010435997 0.039324377 0.45200002 4278795287
0.011877757 0.03923738 0.45100003 4278598419
0.013342606 0.03923738 0.45100003 4278202378
0.014774622 0.039150376 0.45000002 4278727957
0.016236221 0.039150376 0.45000002 4278991383
-0.0044140196 0.042417474 0.47000003 4279320607
-0.0028751716 0.042236976 0.46800002 4278862877
-0.0013493155 0.042056475 0.46600002 4278863388
0.00016319583 0.041785724 0.46300003 4278797595
0.0016598196 0.041605227 0.46100003 4278797082
0.0031434514 0.041424725 0.45900002 4278928668
0.004603995 0.041153975 0.45600003 4278533910
0.0060583949 0.040973477 0.45400003 4278533910
0.0075163944 0.040883224 0.45300001 4278795033
0.0089678997 0.040792976 0.45200002 4278197508
0.010435997 0.040792976 0.45200002 4278530832
0.011877757 0.040702727 0.45100003 4279058459
0.013342606 0.040702727 0.45100003 4278393865
0.014774622 0.040612474 0.45000002 4278458890
0.016200142 0.040522225 0.44900003 4278655756
0.017579837 0.040341727 0.44700003 4278589963
0.018989118 0.040251475 0.44600001 4278524683
0.020391902 0.040161226 0.44500002 4278196486
0.021788191 0.040070977 0.44400004 4278196224
0.023230303 0.040070977 0.44400004 4278198020
0.024616847 0.039980724 0.44300002 4278595089
0.025996897 0.039890476 0.44200003 4279056922
0.027370447 0.039800227 0.44100001 4278663960
0.028737504 0.039709978 0.44000003 4279124511
0.030098066 0.039619725 0.43900001 4278927384
0.031452131 0.039529476 0.43800002 4278599189
0.032799695 0.039439224 0.43700001 4278402324
0.034140769 0.039348975 0.43600002 4278533910
0.035393793 0.039168477 0.43400002 4278468117
0.036718626 0.039078228 0.43300003 4278533910
0.038036961 0.038987976 0.43200001 4278204174
0.039440095 0.038987976 0.43200001 4278402837
0.040748693 0.038897727 0.43100002 4278666009
0.042050786 0.038807474 0.43000001 4278666009
0.043447427 0.038807474 0.43000001 4278666009
0.044739779 0.038717225 0.42900002 4278666011
0.046133172 0.038717225 0.42900002 4279126310
0.047526564 0.038717225 0.42900002 4278928677
-0.0044046277 0.043851051 0.46900001 4279715365
-0.0028690279 0.043664053 0.46700001 4278862363
-0.00134642 0.043477058 0.46500003 4278797595
0.00016284335 0.043196559 0.46200001 4278797595
0.0016562191 0.043009561 0.46000001 4278666011
0.0031366032 0.042822566 0.45800003 4278797597
0.004603995 0.042635567 0.45600003 4278731289
0.0060583949 0.042448569 0.45400003 4278533910
0.0075163944 0.042355068 0.45300001 4278532626
0.0089678997 0.042261571 0.45200002 4278195456
0.010435997 0.042261571 0.45200002 4278991381
0.011877757 0.04216807 0.45100003 4278267660
0.013313021 0.042074572 0.45000002 4278654984
0.014774622 0.042074572 0.45000002 4278654732
0.016200142 0.041981071 0.44900003 4278720779
0.017579837 0.041794073 0.44700003 4278654732
0.018989118 0.041700576 0.44600001 4278786318
0.020391902 0.041607074 0.44500002 4278785804
0.021788191 0.041513577 0.44400004 4278589193
0.023230303 0.041513577 0.44400004 4278720779
0.024616847 0.041420076 0.44300002 4278523146
0.025996897 0.041326579 0.44200003 4278195718
0.027370447 0.041233078 0.44100001 4279254049
0.028737504 0.04113958 0.44000003 4278266384
0.030098066 0.041046079 0.43900001 4278196224
0.031452131 0.040952582 0.43800002 4278196480
0.032799695 0.040859081 0.43700001 4278198787
0.034140769 0.040765584 0.43600002 4278726673
0.035475347 0.040672086 0.43500003 4278727957
0.036803428 0.040578585 0.43400002 4279320607
0.038125012 0.040485088 0.43300003 4278597908
0.039440095 0.040391587 0.43200001 4278993179
0.040748693 0.040298089 0.43100002 4278533910
0.042148579 0.040298089 0.43100002 4278337044
0.043447427 0.040204588 0.43000001 4278337044
0.044739779 0.040111091 0.42900002 4278468630
0.046133172 0.040111091 0.42900002 4278402837
0.047526564 0.040111091 0.42900002 4278468632
0.048805926 0.040017594 0.42800003 4278666011
0.050078791 0.039924093 0.42700002 4278797597
0.051465686 0.039924093 0.42700002 4279323428
0.052976359 0.040017594 0.42800003 4278862623
0.054366503 0.040017594 0.42800003 4279124513
0.055756651 0.040017594 0.42800003 4280439606
0.05922078 0.040485088 0.43300003 4286229644
0.060627166 0.040485088 0.43300003 4282150224
0.062033553 0.040485088 0.43300003 4279256097
0.063439943 0.040485088 0.43300003 4279848488
-0.0043952363 0.045278132 0.46800002 4279452963
-0.0028628844 0.045084637 0.46600002 4278797084
-0.0013435245 0.044891141 0.46400002 4278928670
0.00016249088 0.044600897 0.46100003 4278797597
0.0016526188 0.044407401 0.45900002 4278731804
0.0031297544 0.044213902 0.45700002 4278797597
0.0045938981 0.044020407 0.45500001 4278665498
0.0060583949 0.043923661 0.45400003 4278533910
0.0075163944 0.043826912 0.45300001 4279190043
0.0089678997 0.043730162 0.45200002 4278196224
0.010412908 0.043633416 0.45100003 4279188758
0.011877757 0.043633416 0.45100003 4278199298
0.013313021 0.043536667 0.45000002 4278195459
0.01474179 0.043439921 0.44900003 4279379992
0.016164061 0.043343168 0.44800001 4278787855
0.017579837 0.043246422 0.44700003 4279445785
0.018989118 0.043149672 0.44600001 4278985234
0.020391902 0.043052927 0.44500002 4279907102
0.021837264 0.043052927 0.44500002 4279379477
0.023230303 0.042956181 0.44400004 4279379477
0.024616847 0.042859428 0.44300002 4278852365
0.025996897 0.042762682 0.44200003 4279116307
0.027370447 0.042665932 0.44100001 4278991644
0.028802816 0.042665932 0.44100001 4278925849
0.030166626 0.042569187 0.44000003 4278794263
0.031523935 0.042472437 0.43900001 4279056922
0.032874752 0.042375688 0.43800002 4278991129
0.034140769 0.042182192 0.43600002 4279188508
0.035475347 0.042085446 0.43500003 4279318812
0.036803428 0.041988697 0.43400002 4278858261
0.038125012 0.041891947 0.43300003 4278199820
0.039531395 0.041891947 0.43300003 4278196736
0.040843233 0.041795198 0.43200001 4278195712
0.042148579 0.041698452 0.43100002 4278197508
0.043447427 0.041601703 0.43000001 4278266638
0.044844069 0.041601703 0.43000001 4279187738
0.046133172 0.041504957 0.42900002 4279386139
0.047526564 0.041504957 0.42900002 4279453215
0.048805926 0.041408207 0.42800003 4278795796
0.050196074 0.041408207 0.42800003 4278993175
0.051586218 0.041408207 0.42800003 4278796568
0.052976359 0.041408207 0.42800003 4278862361
0.054493528 0.041504957 0.42900002 4278731289
0.055886921 0.041504957 0.42900002 4278665496
0.057547357 0.041698452 0.43100002 4278797084
0.05922078 0.041891947 0.43300003 4278731037
0.060627166 0.041891947 0.43300003 4279124511
0.062033553 0.041891947 0.43300003 4279388707
0.063439943 0.041891947 0.43300003 4279455014
0.064696558 0.041795198 0.43200001 4279126049
0.066099696 0.041795198 0.43200001 4279318810
-0.0043858448 0.046698716 0.46700001 4279256097
-0.002856741 0.046498723 0.46500003 4278862877
-0.001340629 0.046298727 0.46300003 4278862877
0.00016249088 0.046098731 0.46100003 4278731804
0.0016526188 0.045898739 0.45900002 4278731804
0.0031297544 0.045698743 0.45700002 4278666011
0.0045938981 0.045498747 0.45500001 4278533912
0.0060583949 0.045398753 0.45400003 4278665496
0.0075163944 0.045298751 0.45300001 4278201356
0.0089678997 0.045198757 0.45200002 4278198026
0.010412908 0.045098759 0.45100003 4279188760
0.011877757 0.045098759 0.45100003 4278200069
0.013313021 0.044998761 0.45000002 4278524681
0.01474179 0.044898767 0.44900003 4278195715
0.016164061 0.044798765 0.44800001 4279314195
0.017579837 0.044698771 0.44700003 4279708953
0.018989118 0.044598773 0.44600001 4278194433
0.020391902 0.044498775 0.44500002 4278590474
0.021837264 0.044498775 0.44500002 4278260998
0.023230303 0.044398781 0.44400004 4279249176
0.024616847 0.044298783 0.44300002 4278524683
0.025996897 0.044198785 0.44200003 4278525451
0.027432514 0.044198785 0.44200003 4278925849
0.028802816 0.044098787 0.44100001 4278202126
0.030166626 0.043998789 0.44000003 4278330121
0.031523935 0.043898791 0.43900001 4278197252
0.032874752 0.043798797 0.43800002 4278727957
0.034219075 0.043698795 0.43700001 4278201356
0.035556898 0.043598801 0.43600002 4278925849
0.036888227 0.043498803 0.43500003 4278992412
0.038213059 0.043398805 0.43400002 4279452193
0.039531395 0.043298811 0.43300003 4279056922
0.040843233 0.043198809 0.43200001 4279254301
0.042246372 0.043198809 0.43200001 4279056922
0.043548469 0.043098815 0.43100002 4279187738
0.044844069 0.042998817 0.43000001 4279056152
0.046240706 0.042998817 0.43000001 4279253019
0.047526564 0.042898819 0.42900002 4278198533
0.048919957 0.042898819 0.42900002 4278198017
0.050196074 0.042798825 0.42800003 4278196224
0.051706742 0.042898819 0.42900002 4278195200
0.053100135 0.042898819 0.42900002 4278199047
0.054493528 0.042898819 0.42900002 4278926103
0.05601719 0.042998817 0.43000001 4278927386
0.057547357 0.043098815 0.43100002 4278665498
0.059084009 0.043198809 0.43200001 4278731289
0.060627166 0.043298811 0.43300003 4278664982
0.062033553 0.043298811 0.43300003 4278665496
0.063439943 0.043298811 0.43300003 4278665496
0.064696558 0.043198809 0.43200001 4278797082
0.066099696 0.043198809 0.43200001 4278992925
-0.0043764533 0.048112798 0.46600002 4279256351
-0.0028505973 0.047906306 0.46400002 4278731291
-0.0013377335 0.047699813 0.46200001 4278862877
0.0001621384 0.04749332 0.46000001 4278665498
0.0016490183 0.047286831 0.45800003 4278797084
0.0031297544 0.047183581 0.45700002 4278797084
0.0045938981 0.046977088 0.45500001 4278665498
0.0060583949 0.046873845 0.45400003 4278533912
0.0075163944 0.046770595 0.45300001 4279582498
0.0089678997 0.046667352 0.45200002 4278527761
0.010412908 0.046564106 0.45100003 4279254555
0.011877757 0.046564106 0.45100003 4278397962
0.013313021 0.046460856 0.45000002 4278786570
0.01474179 0.046357613 0.44900003 4278654986
0.016164061 0.046254363 0.44800001 4278654986
0.017579837 0.04615112 0.44700003 4278589193
0.018989118 0.04604787 0.44600001 4278654986
0.020391902 0.045944627 0.44500002 4278589193
0.021837264 0.045944627 0.44500002 4279116566
0.023230303 0.045841381 0.44400004 4279643932
0.024616847 0.045738135 0.44300002 4278920209
0.025996897 0.045634888 0.44200003 4279315480
0.027432514 0.045634888 0.44200003 4278793750
0.028802816 0.045531642 0.44100001 4278198023
0.030166626 0.045428395 0.44000003 4278590474
0.031523935 0.045325149 0.43900001 4278590476
0.032874752 0.045221902 0.43800002 4278396945
0.034219075 0.045118652 0.43700001 4279318812
0.035556898 0.04501541 0.43600002 4278200074
0.036973029 0.04501541 0.43600002 4278200331
0.038301107 0.044912163 0.43500003 4279187738
0.039622691 0.044808917 0.43400002 4278200071
0.040937781 0.04470567 0.43300003 4279123482
0.042246372 0.044602424 0.43200001 4278926103
0.043548469 0.044499177 0.43100002 4278926103
0.044948358 0.044499177 0.43100002 4278991896
0.046240706 0.044395931 0.43000001 4279123482
0.047637347 0.044395931 0.43000001 4279255068
0.048919957 0.044292685 0.42900002 4279255068
0.050313354 0.044292685 0.42900002 4279188762
0.051706742 0.044292685 0.42900002 4279451934
0.053223912 0.044395931 0.43000001 4279188762
0.054620549 0.044395931 0.43000001 4278594576
0.056147467 0.044499177 0.43100002 4279188510
0.057680875 0.044602424 0.43200001 4278599191
0.059084009 0.044602424 0.43200001 4278796570
0.060487147 0.044602424 0.43200001 4278664982
0.061890285 0.044602424 0.43200001 4278599189
0.063293427 0.044602424 0.43200001 4278599189
0.064696558 0.044602424 0.43200001 4278599189
0.066099696 0.044602424 0.43200001 4278795798
0.06734658 0.044499177 0.43100002 4278202380
-0.0043764533 0.049626879 0.46600002 4279190556
-0.0028505973 0.04941389 0.46400002 4278928154
-0.0013377335 0.0492009 0.46200001 4278731289
0.0001621384 0.048987906 0.46000001 4278731289
0.0016490183 0.04877492 0.45800003 4278731289
0.0031297544 0.048668422 0.45700002 4278731289
0.0045938981 0.048455428 0.45500001 4278731289
0.0060583949 0.048348937 0.45400003 4278533910
0.0075163944 0.048242439 0.45300001 4278201356
0.0089678997 0.048135944 0.45200002 4278529296
0.010435997 0.048135944 0.45200002 4278991642
0.011877757 0.048029449 0.45100003 4279123998
0.013313021 0.047922954 0.45000002 4279118353
0.01474179 0.047816459 0.44900003 4278327302
0.016164061 0.04770996 0.44800001 4278720265
0.017579837 0.047603469 0.44700003 4278786318
0.018989118 0.047496971 0.44600001 4278983183
0.020391902 0.047390476 0.44500002 4278851597
0.021837264 0.047390476 0.44500002 4278851597
0.023230303 0.047283981 0.44400004 4278785804
0.024616847 0.047177486 0.44300002 4278392330
0.025996897 0.047070991 0.44200003 4279776029
0.027370447 0.046964493 0.44100001 4278925336
0.028802816 0.046964493 0.44100001 4278197764
0.030166626 0.046858002 0.44000003 4278786570
0.031523935 0.046751503 0.43900001 4278589963
0.032874752 0.046645008 0.43800002 4278397456
0.034297381 0.046645008 0.43800002 4279779109
0.035638448 0.046538509 0.43700001 4278199817
0.036973029 0.046432018 0.43600002 4278199303
0.038301107 0.046325523 0.43500003 4279188508
0.039622691 0.046219025 0.43400002 4278200071
0.041032325 0.046219025 0.43400002 4278989845
0.042344164 0.04611253 0.43300003 4278989845
0.04364951 0.046006035 0.43200001 4278989845
0.044948358 0.04589954 0.43100002 4278464269
0.046348244 0.04589954 0.43100002 4278197248
0.047637347 0.045793042 0.43000001 4278201097
0.049033988 0.045793042 0.43000001 4278991896
0.050430629 0.045793042 0.43000001 4278531345
0.051827271 0.045793042 0.43000001 4279189271
0.053223912 0.045793042 0.43000001 4278992662
0.054747578 0.04589954 0.43100002 4279318810
0.056147467 0.04589954 0.43100002 4279516191
0.057680875 0.046006035 0.43200001 4278927386
0.059084009 0.046006035 0.43200001 4279058972
0.060487147 0.046006035 0.43200001 4278927384
0.061890285 0.046006035 0.43200001 4278795798
0.063293427 0.046006035 0.43200001 4278730005
0.064696558 0.046006035 0.43200001 4278598419
0.065946691 0.04589954 0.43100002 4278531343
0.06734658 0.04589954 0.43100002 4278200839
-0.0043670619 0.051031221 0.46500003 4278926103
-0.0028505973 0.050921474 0.46400002 4278927384
-0.0013377335 0.050701983 0.46200001 4278928154
0.0001621384 0.050482493 0.46000001 4278862361
0.0016490183 0.050263006 0.45800003 4278533910
0.0031297544 0.050153259 0.45700002 4278336531
0.0045938981 0.049933773 0.45500001 4278402324
0.0060583949 0.049824029 0.45400003 4278402324
0.0075163944 0.049714282 0.45300001 4278860826
0.0089877397 0.049714282 0.45300001 4278728470
0.010435997 0.049604539 0.45200002 4278860826
0.011877757 0.049494796 0.45100003 4278927132
0.013313021 0.049385048 0.45000002 4279058205
0.01474179 0.049275305 0.44900003 4279058205
0.016164061 0.049165558 0.44800001 4279188508
0.017579837 0.049055815 0.44700003 4279385119
0.018989118 0.048946071 0.44600001 4279910695
0.020391902 0.048836328 0.44500002 4279515426
0.021788191 0.048726585 0.44400004 4278920722
0.023177981 0.048616838 0.44300002 4278525453
0.024616847 0.048616838 0.44300002 4278328074
0.025996897 0.048507094 0.44200003 4279448350
0.027370447 0.048397347 0.44100001 4278396945
0.028802816 0.048397347 0.44100001 4278988312
0.030166626 0.048287604 0.44000003 4279183894
0.031523935 0.048177857 0.43900001 4279512859
0.032874752 0.048068114 0.43800002 4279318812
0.034297381 0.048068114 0.43800002 4279318812
0.035638448 0.04795837 0.43700001 4279056154
0.036973029 0.047848627 0.43600002 4279450910
0.038301107 0.047738884 0.43500003 4278199815
0.039713986 0.047738884 0.43500003 4278858513
0.041032325 0.047629137 0.43400002 4279713822
0.042344164 0.047519393 0.43300003 4278266122
0.04364951 0.047409646 0.43200001 4278198280
0.045052644 0.047409646 0.43200001 4278857494
0.046348244 0.047299903 0.43100002 4278989847
0.047748134 0.047299903 0.43100002 4278529296
0.049033988 0.047190156 0.43000001 4278791955
0.050430629 0.047190156 0.43000001 4279318299
0.051827271 0.047190156 0.43000001 4278859025
0.053347688 0.047299903 0.43100002 4279058455
0.054747578 0.047299903 0.43100002 4278198787
0.056147467 0.047299903 0.43100002 4279779363
0.057680875 0.047409646 0.43200001 4278861080
0.059084009 0.047409646 0.43200001 4278927386
0.060487147 0.047409646 0.43200001 4278795800
0.061890285 0.047409646 0.43200001 4278927384
0.063293427 0.047409646 0.43200001 4278598419
0.064546801 0.047299903 0.43100002 4278598419
0.065946691 0.047299903 0.43100002 4278794517
0.06734658 0.047299903 0.43100002 4279320348
-0.0043670619 0.052542049 0.46500003 4279775252
-0.002856741 0.052542049 0.46500003 4279251988
-0.001340629 0.052316062 0.46300003 4279517727
0.00016249088 0.052090075 0.46100003 4278729494
0.0016526188 0.051864088 0.45900002 4278598421
0.0031297544 0.0516381 0.45700002 4278993179
0.004603995 0.051525109 0.45600003 4278796570
0.0060717394 0.051412113 0.45500001 4278664984
0.0075329873 0.051299121 0.45400003 4278533398
0.0089877397 0.051186126 0.45300001 4278599191
0.010435997 0.051073134 0.45200002 4278993949
0.011877757 0.050960138 0.45100003 4278796570
0.013313021 0.050847143 0.45000002 4278927386
0.01474179 0.050734151 0.44900003 4278993179
0.016164061 0.050621156 0.44800001 4278927386
0.017579837 0.050508164 0.44700003 4278795800
0.018989118 0.050395168 0.44600001 4278993179
0.020391902 0.050282177 0.44500002 4278795800
0.021788191 0.050169185 0.44400004 4279124252
0.023177981 0.050056189 0.44300002 4279123228
0.024561279 0.049943198 0.44200003 4278991131
0.025996897 0.049943198 0.44200003 4279056924
0.027370447 0.049830202 0.44100001 4279254303
0.028737504 0.04971721 0.44000003 4279846440
0.030166626 0.04971721 0.44000003 4278858007
0.031523935 0.049604215 0.43900001 4278198536
0.032874752 0.049491223 0.43800002 4278195712
0.034297381 0.049491223 0.43800002 4278195712
0.035638448 0.049378227 0.43700001 4278195968
0.036973029 0.049265232 0.43600002 4278199561
0.038389154 0.049265232 0.43600002 4279318297
0.039713986 0.04915224 0.43500003 4279187224
0.041032325 0.049039245 0.43400002 4279187992
0.042344164 0.048926253 0.43300003 4279188508
0.043750551 0.048926253 0.43300003 4279188508
0.045052644 0.048813257 0.43200001 4279188508
0.046455778 0.048813257 0.43200001 4278991129
0.047748134 0.048700266 0.43100002 4278924566
0.049148023 0.048700266 0.43100002 4279516191
0.050547913 0.048700266 0.43100002 4278265611
0.051947802 0.048700266 0.43100002 4278595087
0.053347688 0.048700266 0.43100002 4279189271
0.054747578 0.048700266 0.43100002 4278199044
0.056277737 0.048813257 0.43200001 4279647777
0.057680875 0.048813257 0.43200001 4278992664
0.059084009 0.048813257 0.43200001 4278927384
0.060487147 0.048813257 0.43200001 4278599189
0.061890285 0.048813257 0.43200001 4278599189
0.063293427 0.048813257 0.43200001 4278467603
0.064546801 0.048700266 0.43100002 4278598419
0.065946691 0.048700266 0.43100002 4278861078
0.06734658 0.048700266 0.43100002 4278926101
0.0031366032 0.053239185 0.45800003 4279053074
0.004603995 0.053006697 0.45600003 4278792466
0.0060717394 0.052890453 0.45500001 4278858773
0.0075329873 0.052774213 0.45400003 4278793750
0.0089877397 0.052657969 0.45300001 4279057176
0.010459085 0.052657969 0.45300001 4279320861
0.011904093 0.052541725 0.45200002 4279386400
0.013313021 0.052309241 0.45000002 4279190304
0.01474179 0.052192997 0.44900003 4279058718
0.016164061 0.052076753 0.44800001 4278795546
0.017579837 0.051960513 0.44700003 4278795546
0.018989118 0.051844269 0.44600001 4278992925
0.020391902 0.051728029 0.44500002 4279058718
0.021788191 0.051611785 0.44400004 4278795546
0.023177981 0.051495541 0.44300002 4278795546
0.024561279 0.051379301 0.44200003 4278927386
0.025938079 0.051263057 0.44100001 4278730007
0.027370447 0.051263057 0.44100001 4278730007
0.028737504 0.051146813 0.44000003 4278795800
0.030098066 0.051030569 0.43900001 4278993179
0.031523935 0.051030569 0.43900001 4278795800
0.032874752 0.050914329 0.43800002 4278795033
0.034219075 0.050798085 0.43700001 4279189021
0.035638448 0.050798085 0.43700001 4279648289
0.036973029 0.050681841 0.43600002 4279582496
0.038301107 0.0505656 0.43500003 4279647262
0.039713986 0.0505656 0.43500003 4278791953
0.041032325 0.050449356 0.43400002 4278331404
0.042441957 0.050449356 0.43400002 4278195200
0.043750551 0.050333116 0.43300003 4278194688
0.045052644 0.050216869 0.43200001 4278198020
0.046455778 0.050216869 0.43200001 4278791955
0.04785892 0.050216869 0.43200001 4278989847
0.049148023 0.050100628 0.43100002 4279318810
0.050547913 0.050100628 0.43100002 4279516703
0.051947802 0.050100628 0.43100002 4279320348
0.053347688 0.050100628 0.43100002 4279254555
0.054874599 0.050216869 0.43200001 4278199301
0.056277737 0.050216869 0.43200001 4279517473
0.057680875 0.050216869 0.43200001 4278993177
0.059084009 0.050216869 0.43200001 4278993177
0.060487147 0.050216869 0.43200001 4278927382
0.061890285 0.050216869 0.43200001 4278795796
0.063146912 0.050100628 0.43100002 4278795798
0.064546801 0.050100628 0.43100002 4278730005
0.065946691 0.050100628 0.43100002 4278728722
0.067190319 0.049984384 0.43000001 4278465039
0.0090075806 0.054249305 0.45400003 4278657287
0.010459085 0.054129809 0.45300001 4283198803
0.011904093 0.05401032 0.45200002 4280764723
0.01474179 0.053651847 0.44900003 4279515939
0.016164061 0.053532351 0.44800001 4279648807
0.017579837 0.053412862 0.44700003 4279386148
0.018946541 0.053173877 0.44500002 4279386148
0.020346079 0.053054389 0.44400004 4279321125
0.021739118 0.052934892 0.44300002 4279058720
0.023125662 0.052815404 0.44200003 4278992927
0.02450571 0.052695908 0.44100001 4278795546
0.025938079 0.052695908 0.44100001 4278927386
0.027308384 0.052576419 0.44000003 4278730007
0.028737504 0.052576419 0.44000003 4278927386
0.030098066 0.052456923 0.43900001 4278795800
0.031452131 0.052337434 0.43800002 4278664214
0.032874752 0.052337434 0.43800002 4278795798
0.034219075 0.052217942 0.43700001 4278796568
0.035556898 0.052098449 0.43600002 4278927384
0.036973029 0.052098449 0.43600002 4278861078
0.038301107 0.051978961 0.43500003 4278992666
0.039713986 0.051978961 0.43500003 4278861080
0.041032325 0.051859464 0.43400002 4278992664
0.042441957 0.051859464 0.43400002 4278794515
0.043750551 0.051739976 0.43300003 4278926103
0.045156933 0.051739976 0.43300003 4279386141
0.046455778 0.051620483 0.43200001 4279517727
0.04785892 0.051620483 0.43200001 4279911715
0.049262054 0.051620483 0.43200001 4278857748
0.050665192 0.051620483 0.43200001 4278198019
0.052068327 0.051620483 0.43200001 4278196224
0.053471465 0.051620483 0.43200001 4278196992
0.054874599 0.051620483 0.43200001 4278200072
0.056277737 0.051620483 0.43200001 4279123482
0.057680875 0.051620483 0.43200001 4278795798
0.059084009 0.051620483 0.43200001 4278993175
0.060487147 0.051620483 0.43200001 4278993429
0.061890285 0.051620483 0.43200001 4278927636
0.063146912 0.051500991 0.43100002 4278664212
0.064546801 0.051500991 0.43100002 4278664212
0.065946691 0.051500991 0.43100002 4278793750
0.067190319 0.051381499 0.43000001 4278265611
0.018946541 0.054619726 0.44500002 4284252524
0.020346079 0.054496989 0.44400004 4281621317
0.021739118 0.054374244 0.44300002 4279713316
0.023073342 0.054128762 0.44100001 4279186972
0.02450571 0.054128762 0.44100001 4279056672
0.025879264 0.054006021 0.44000003 4279648809
0.027308384 0.054006021 0.44000003 4279255332
0.02867219 0.053883281 0.43900001 4279124000
0.030098066 0.053883281 0.43900001 4279123998
0.031452131 0.05376054 0.43800002 4279123998
0.032799695 0.053637799 0.43700001 4278729494
0.034219075 0.053637799 0.43700001 4278992666
0.035556898 0.053515058 0.43600002 4278992666
0.036973029 0.053515058 0.43600002 4278795287
0.038301107 0.053392321 0.43500003 4278664214
0.039713986 0.053392321 0.43500003 4278927386
0.041032325 0.053269576 0.43400002 4278795800
0.042441957 0.053269576 0.43400002 4278730007
0.043750551 0.053146835 0.43300003 4278927386
0.045156933 0.053146835 0.43300003 4278993179
0.04656332 0.053146835 0.43300003 4278730007
0.04785892 0.053024095 0.43200001 4278993179
0.049262054 0.053024095 0.43200001 4279124252
0.050665192 0.053024095 0.43200001 4279058459
0.052068327 0.053024095 0.43200001 4279255068
0.053471465 0.053024095 0.43200001 4278991896
0.054874599 0.053024095 0.43200001 4279123482
0.056277737 0.053024095 0.43200001 4278861080
0.057680875 0.053024095 0.43200001 4278927386
0.059084009 0.053024095 0.43200001 4278993177
0.060487147 0.053024095 0.43200001 4278927382
0.061890285 0.053024095 0.43200001 4278730003
0.063293427 0.053024095 0.43200001 4278730005
0.064546801 0.052901354 0.43100002 4278664214
0.065946691 0.052901354 0.43100002 4278989847
0.067190319 0.052778613 0.43000001 4281356345
0.023073342 0.055561621 0.44100001 4285368438
0.024450142 0.055435631 0.44000003 4285434229
0.025879264 0.055435631 0.44000003 4285565815
0.027246319 0.055309638 0.43900001 4284514413
0.02867219 0.055309638 0.43900001 4282408783
0.030098066 0.055309638 0.43900001 4280369967
0.031452131 0.055183649 0.43800002 4279186461
0.032799695 0.05505766 0.43700001 4278990109
0.034219075 0.05505766 0.43700001 4279384867
0.035556898 0.05493167 0.43600002 4279582244
0.036973029 0.05493167 0.43600002 4279516705
0.038301107 0.054805681 0.43500003 4279451682
0.039713986 0.054805681 0.43500003 4279452195
0.04112687 0.054805681 0.43500003 4279518758
0.042441957 0.054679688 0.43400002 4279124000
0.043851592 0.054679688 0.43400002 4279058205
0.045156933 0.054553702 0.43300003 4279189791
0.04656332 0.054553702 0.43300003 4279189791
0.047969706 0.054553702 0.43300003 4279058205
0.049376089 0.054553702 0.43300003 4279255584
0.050665192 0.054427709 0.43200001 4279058205
0.052068327 0.054427709 0.43200001 4279058459
0.053471465 0.054427709 0.43200001 4279058459
0.054874599 0.054427709 0.43200001 4279124252
0.056277737 0.054427709 0.43200001 4278795287
0.057680875 0.054427709 0.43200001 4278730007
0.059084009 0.054427709 0.43200001 4278795800
0.060487147 0.054427709 0.43200001 4278664212
0.061890285 0.054427709 0.43200001 4278795798
0.063293427 0.054427709 0.43200001 4278730007
0.064546801 0.05430172 0.43100002 4278729240
0.065946691 0.05430172 0.43100002 4278593039
0.023073342 0.056994472 0.44100001 4285367671
0.024450142 0.056865234 0.44000003 4285236339
0.025879264 0.056865234 0.44000003 4284907372
0.027246319 0.056735992 0.43900001 4284775786
0.02867219 0.056735992 0.43900001 4284709993
0.030029505 0.056606755 0.43800002 4284513127
0.031452131 0.056606755 0.43800002 4284842092
0.032799695 0.056477513 0.43700001 4284710506
0.034219075 0.056477513 0.43700001 4285302643
0.035556898 0.056348275 0.43600002 4284907883
0.036973029 0.056348275 0.43600002 4284974190
0.038301107 0.056219038 0.43500003 4284645225
0.039713986 0.056219038 0.43500003 4283921502
0.04112687 0.056219038 0.43500003 4282606666
0.042441957 0.056089796 0.43400002 4281620284
0.043851592 0.056089796 0.43400002 4280698928
0.045261223 0.056089796 0.43400002 4279647012
0.04656332 0.055960558 0.43300003 4279318562
0.047969706 0.055960558 0.43300003 4279121183
0.049376089 0.055960558 0.43300003 4279187486
0.050782476 0.055960558 0.43300003 4279581984
0.052188858 0.055960558 0.43300003 4279976742
0.053595241 0.055960558 0.43300003 4279516705
0.055001624 0.055960558 0.43300003 4279649061
0.056408014 0.055960558 0.43300003 4279517475
0.057814401 0.055960558 0.43300003 4279386402
0.05922078 0.055960558 0.43300003 4279386400
0.060487147 0.055831317 0.43200001 4279584033
0.061890285 0.055831317 0.43200001 4279320861
0.063293427 0.055831317 0.43200001 4278991129
0.064696558 0.055831317 0.43200001 4278923289
0.065946691 0.055702079 0.43100002 4283854945
0.052188858 0.057367422 0.43300003 4286224261
0.053595241 0.057367422 0.43300003 4286026882
0.055001624 0.057367422 0.43300003 4285961857
0.056408014 0.057367422 0.43300003 4285369720
0.057814401 0.057367422 0.43300003 4284383338
0.05922078 0.057367422 0.43300003 4282869586
0.060487147 0.057234932 0.43200001 4282475341
0.061890285 0.057234932 0.43200001 4282014790
0.063293427 0.057234932 0.43200001 4283264092
0.064696558 0.057234932 0.43200001 4284118631
0.032375343 0.047350228 0.44147319 4294967295
0.032375343 0.047350228 0.44147319 4294901760
0.032375343 0.047350228 0.44197318 4294901760
0.032375343 0.047350228 0.44247317 4294901760
0.032375343 0.047350228 0.4429732 4294901760
0.032375343 0.047350228 0.44347319 4294901760
0.032375343 0.047350228 0.44397318 4294901760
0.032375343 0.047350228 0.44447318 4294901760
0.032375343 0.047350228 0.4449732 4294901760
0.032375343 0.047350228 0.44547319 4294901760
0.032375343 0.047350228 0.44597319 4294901760
0.032375343 0.047350228 0.44647318 4294901760
0.032375343 0.047350228 0.44697317 4294901760
0.032375343 0.047350228 0.4474732 4294901760
0.032375343 0.047350228 0.44797319 4294901760
0.032375343 0.047350228 0.44847319 4294901760
0.032375343 0.047350228 0.44897318 4294901760
0.032375343 0.047350228 0.4494732 4294901760
0.032375343 0.047350228 0.4499732 4294901760
0.032375343 0.047350228 0.45047319 4294901760
0.032375343 0.047350228 0.45097318 4294901760
0.032375343 0.047350228 0.45147318 4294901760
0.032375343 0.047350228 0.4519732 4294901760
0.032375343 0.047350228 0.45247319 4294901760
0.032375343 0.047350228 0.45297319 4294901760
0.032375343 0.047350228 0.45347318 4294901760
0.032375343 0.047350228 0.45397317 4294901760
0.032375343 0.047350228 0.4544732 4294901760
0.032375343 0.047350228 0.45497319 4294901760
0.032375343 0.047350228 0.45547318 4294901760
0.032375343 0.047350228 0.45597318 4294901760
0.032375343 0.047350228 0.4564732 4294901760
0.032375343 0.047350228 0.4569732 4294901760
0.032375343 0.047350228 0.45747319 4294901760
0.032375343 0.047350228 0.45797318 4294901760
0.032375343 0.047350228 0.45847321 4294901760
0.032375343 0.047350228 0.4589732 4294901760
0.032375343 0.047350228 0.45947319 4294901760
0.032375343 0.047350228 0.45997319 4294901760
0.032375343 0.047350228 0.46047318 4294901760
0.032375343 0.047350228 0.4609732 4294901760
0.032375343 0.047350228 0.4614732 4294901760
0.032375343 0.047350228 0.46197319 4294901760
0.032375343 0.047350228 0.46247318 4294901760
0.032375343 0.047350228 0.46297318 4294901760
0.032375343 0.047350228 0.4634732 4294901760
0.032375343 0.047350228 0.46397319 4294901760
0.032375343 0.047350228 0.46447319 4294901760
0.032375343 0.047350228 0.46497318 4294901760
0.032375343 0.047350228 0.4654732 4294901760
0.032375343 0.047350228 0.4659732 4294901760
0.032375343 0.047350228 0.46647319 4294901760
0.032375343 0.047350228 0.46697319 4294901760
0.032375343 0.047350228 0.46747318 4294901760
0.032375343 0.047350228 0.4679732 4294901760
0.032375343 0.047350228 0.4684732 4294901760
0.032375343 0.047350228 0.46897319 4294901760
0.032375343 0.047350228 0.46947318 4294901760
0.032375343 0.047350228 0.46997321 4294901760
0.032375343 0.047350228 0.4704732 4294901760
0.032375343 0.047350228 0.47097319 4294901760
0.032375343 0.047350228 0.47147319 4294901760
0.032375343 0.047350228 0.47197318 4294901760
0.032375343 0.047350228 0.4724732 4294901760
0.032375343 0.047350228 0.4729732 4294901760
0.032375343 0.047350228 0.47347319 4294901760
0.032375343 0.047350228 0.47397318 4294901760
0.032375343 0.047350228 0.47447321 4294901760
0.032375343 0.047350228 0.4749732 4294901760
0.032375343 0.047350228 0.4754732 4294901760
0.032375343 0.047350228 0.47597319 4294901760
0.032375343 0.047350228 0.47647318 4294901760
0.032375343 0.047350228 0.47697321 4294901760
0.032375343 0.047350228 0.4774732 4294901760
0.032375343 0.047350228 0.47797319 4294901760
0.032375343 0.047350228 0.47847319 4294901760
0.032375343 0.047350228 0.47897321 4294901760
0.032375343 0.047350228 0.4794732 4294901760
0.032375343 0.047350228 0.4799732 4294901760
0.032375343 0.047350228 0.48047319 4294901760
0.032375343 0.047350228 0.48097318 4294901760
0.032375343 0.047350228 0.48147321 4294901760
0.032375343 0.047350228 0.4819732 4294901760
0.032375343 0.047350228 0.48247319 4294901760
0.032375343 0.047350228 0.48297319 4294901760
0.032375343 0.047350228 0.48347318 4294901760
0.032375343 0.047350228 0.48397321 4294901760
0.032375343 0.047350228 0.4844732 4294901760
0.032375343 0.047350228 0.48497319 4294901760
0.032375343 0.047350228 0.48547319 4294901760
0.032375343 0.047350228 0.48597318 4294901760
0.032375343 0.047350228 0.4864732 4294901760
0.032375343 0.047350228 0.4869732 4294901760
0.032375343 0.047350228 0.48747319 4294901760
0.032375343 0.047350228 0.48797321 4294901760
0.032375343 0.047350228 0.48847321 4294901760
0.032375343 0.047350228 0.4889732 4294901760
0.032375343 0.047350228 0.48947319 4294901760
0.032375343 0.047350228 0.48997319 4294901760
0.032375343 0.047350228 0.49047321 4294901760
0.032375343 0.047350228 0.4909732 4294901760
0.032375343 0.047350228 0.4914732 4294901760
0.032375343 0.047350228 0.44147319 4278255360
0.03262404 0.047361825 0.44190678 4278255360
0.032872736 0.047373425 0.4423404 4278255360
0.033121437 0.047385022 0.442774 4278255360
0.033370133 0.047396623 0.44320762 4278255360
0.03361883 0.047408219 0.44364122 4278255360
0.033867527 0.04741982 0.44407484 4278255360
0.034116227 0.047431417 0.44450843 4278255360
0.034364924 0.047443017 0.44494206 4278255360
0.03461362 0.047454614 0.44537565 4278255360
0.034862317 0.047466215 0.44580925 4278255360
0.035111014 0.047477812 0.44624287 4278255360
0.035359714 0.047489412 0.44667646 4278255360
0.035608411 0.047501009 0.44711009 4278255360
0.035857107 0.04751261 0.44754368 4278255360
0.036105804 0.047524206 0.4479773 4278255360
0.036354505 0.047535807 0.4484109 4278255360
0.036603201 0.047547404 0.44884449 4278255360
0.036851898 0.047559004 0.44927812 4278255360
0.037100594 0.047570601 0.44971171 4278255360
0.037349291 0.047582202 0.45014533 4278255360
0.037597992 0.047593798 0.45057893 4278255360
0.037846688 0.047605399 0.45101255 4278255360
0.038095385 0.047616996 0.45144615 4278255360
0.038344081 0.047628596 0.45187977 4278255360
0.038592778 0.047640193 0.45231336 4278255360
0.038841479 0.04765179 0.45274696 4278255360
0.039090175 0.047663391 0.45318058 4278255360
0.039338872 0.047674987 0.45361418 4278255360
0.039587568 0.047686588 0.4540478 4278255360
0.039836269 0.047698185 0.45448139 4278255360
0.040084966 0.047709785 0.45491502 4278255360
0.040333662 0.047721382 0.45534861 4278255360
0.040582359 0.047732983 0.45578223 4278255360
0.040831059 0.04774458 0.45621583 4278255360
0.041079756 0.04775618 0.45664942 4278255360
0.041328453 0.047767777 0.45708305 4278255360
0.041577149 0.047779378 0.45751664 4278255360
0.041825846 0.047790974 0.45795026 4278255360
0.042074546 0.047802575 0.45838386 4278255360
0.042323243 0.047814172 0.45881748 4278255360
0.04257194 0.047825772 0.45925108 4278255360
0.042820636 0.047837369 0.45968467 4278255360
0.043069333 0.04784897 0.46011829 4278255360
0.043318033 0.047860567 0.46055189 4278255360
0.04356673 0.047872167 0.46098551 4278255360
0.043815427 0.047883764 0.46141911 4278255360
0.044064123 0.047895364 0.46185273 4278255360
0.04431282 0.047906961 0.46228632 4278255360
0.04456152 0.047918562 0.46271995 4278255360
0.044810217 0.047930159 0.46315354 4278255360
0.045058914 0.047941756 0.46358714 4278255360
0.04530761 0.047953356 0.46402076 4278255360
0.045556307 0.047964953 0.46445435 4278255360
0.045805007 0.047976553 0.46488798 4278255360
0.046053704 0.04798815 0.46532157 4278255360
0.046302401 0.047999751 0.46575519 4278255360
0.046551101 0.048011348 0.46618879 4278255360
0.046799798 0.048022948 0.46662241 4278255360
0.047048494 0.048034545 0.46705601 4278255360
0.047297191 0.048046146 0.4674896 4278255360
0.047545888 0.048057742 0.46792322 4278255360
0.047794588 0.048069343 0.46835682 4278255360
0.048043285 0.04808094 0.46879044 4278255360
0.048291981 0.04809254 0.46922404 4278255360
0.048540678 0.048104137 0.46965766 4278255360
0.048789375 0.048115738 0.47009125 4278255360
0.049038075 0.048127335 0.47052485 4278255360
0.049286772 0.048138935 0.47095847 4278255360
0.049535468 0.048150532 0.47139207 4278255360
0.049784169 0.048162133 0.47182569 4278255360
0.050032862 0.048173729 0.47225928 4278255360
0.050281562 0.04818533 0.47269291 4278255360
0.050530259 0.048196927 0.4731265 4278255360
0.050778955 0.048208527 0.47356012 4278255360
0.051027656 0.048220124 0.47399372 4278255360
0.051276349 0.048231721 0.47442731 4278255360
0.051525049 0.048243321 0.47486094 4278255360
0.051773746 0.048254918 0.47529453 4278255360
0.052022442 0.048266519 0.47572815 4278255360
0.052271143 0.048278116 0.47616175 4278255360
0.052519839 0.048289716 0.47659537 4278255360
0.052768536 0.048301313 0.47702897 4278255360
0.053017233 0.048312914 0.47746259 4278255360
0.053265929 0.04832451 0.47789618 4278255360
0.05351463 0.048336111 0.47832978 4278255360
0.053763326 0.048347708 0.4787634 4278255360
0.054012023 0.048359308 0.479197 4278255360
0.054260723 0.048370905 0.47963062 4278255360
0.054509416 0.048382506 0.48006421 4278255360
0.054758117 0.048394103 0.48049784 4278255360
0.055006813 0.048405703 0.48093143 4278255360
0.05525551 0.0484173 0.48136503 4278255360
0.05550421 0.048428901 0.48179865 4278255360
0.055752903 0.048440497 0.48223224 4278255360
0.056001604 0.048452098 0.48266587 4278255360
0.0562503 0.048463695 0.48309946 4278255360
0.056498997 0.048475295 0.48353308 4278255360
0.056747697 0.048486892 0.48396668 4278255360
0.056996394 0.048498493 0.4844003 4278255360
0.057245091 0.04851009 0.4848339 4278255360
