# .PCD v0.7 - Point Cloud Data file format
VERSION 0.7
FIELDS x y z rgb
SIZE 4 4 4 4
TYPE F F F U
COUNT 1 1 1 1
WIDTH 802
HEIGHT 1
VIEWPOINT 0 0 0 1 0 0 0
POINTS 802
DATA ascii
-0.049896237 0.0061306334 0.39500001 4284051811
-0.04861328 0.0061306334 0.39500001 4282802259
-0.047330316 0.0061306334 0.39500001 4282143816
-0.046047356 0.0061306334 0.39500001 4284247907
-0.044764396 0.0061306334 0.39500001 4285303677
-0.043481436 0.0061306334 0.39500001 4283265629
-0.042305309 0.0061461544 0.39600003 4282938461
-0.041019097 0.0061461544 0.39600003 4284057201
-0.039732892 0.0061461544 0.39600003 4286490511
-0.038543768 0.0061616744 0.39700001 4288200613
-0.037254311 0.0061616744 0.39700001 4288332715
-0.049896237 0.007414029 0.39500001 4283590490
-0.04861328 0.007414029 0.39500001 4282143046
-0.047330316 0.007414029 0.39500001 4282208839
-0.046163935 0.0074327989 0.39600003 4282274117
-0.044877723 0.0074327989 0.39600003 4282405955
-0.043591518 0.0074327989 0.39600003 4282340162
-0.042305309 0.0074327989 0.39600003 4281947202
-0.041019097 0.0074327989 0.39600003 4281422142
-0.039833225 0.0074515683 0.39700001 4280108590
-0.038543768 0.0074515683 0.39700001 4281558339
-0.037348151 0.0074703381 0.39800003 4280905026
-0.036055449 0.0074703381 0.39800003 4280115770
-0.034850083 0.0074891075 0.39900002 4281825624
-0.0511792 0.0086974241 0.39500001 4283195984
-0.049896237 0.0086974241 0.39500001 4281287474
-0.04861328 0.0086974241 0.39500001 4281879613
-0.047330316 0.0086974241 0.39500001 4281616439
-0.046163935 0.0087194433 0.39600003 4281813818
-0.044877723 0.0087194433 0.39600003 4281944632
-0.043591518 0.0087194433 0.39600003 4281746739
-0.042305309 0.0087194433 0.39600003 4281616952
-0.041122679 0.0087414617 0.39700001 4282143298
-0.039833225 0.0087414617 0.39700001 4281552440
-0.038640857 0.0087634809 0.39800003 4280568879
-0.037348151 0.0087634809 0.39800003 4278865953
-0.036146037 0.0087854993 0.39900002 4279394093
-0.034850083 0.0087854993 0.39900002 4280185408
-0.024850622 0.008917612 0.40500003 4283994227
-0.023535181 0.008917612 0.40500003 4285046399
-0.0511792 0.0099808192 0.39500001 4282868300
-0.049896237 0.0099808192 0.39500001 4280563751
-0.04861328 0.0099808192 0.39500001 4281484085
-0.047330316 0.0099808192 0.39500001 4281484853
-0.046280507 0.010031355 0.39700001 4281945404
-0.04499105 0.010031355 0.39700001 4281089323
-0.043701593 0.010031355 0.39700001 4282931013
-0.042412139 0.010031355 0.39700001 4281483569
-0.041226264 0.010056623 0.39800003 4281615669
-0.039933562 0.010056623 0.39800003 4281155886
-0.038737942 0.010081891 0.39900002 4280039969
-0.037441991 0.010081891 0.39900002 4279323941
-0.036236629 0.010107159 0.40000001 4279063334
-0.034937426 0.010107159 0.40000001 4278209819
-0.033806417 0.010157694 0.40200001 4279328300
-0.032500722 0.010157694 0.40200001 4278737449
-0.031272627 0.010182963 0.40300003 4279855678
-0.029963681 0.010182963 0.40300003 4282880359
-0.028725838 0.01020823 0.40400001 4280315967
-0.027413648 0.01020823 0.40400001 4280513860
-0.026166065 0.010233498 0.40500003 4280448067
-0.024850622 0.010233498 0.40500003 4280513860
-0.023593292 0.010258766 0.40600002 4280447553
-0.022274604 0.010258766 0.40600002 4280775235
-0.02100753 0.010284034 0.40700001 4280775233
-0.019685593 0.010284034 0.40700001 4279854898
-0.018408775 0.010309302 0.40800002 4280249656
-0.017083593 0.010309302 0.40800002 4280839229
-0.015758408 0.010309302 0.40800002 4280839229
-0.014468597 0.010334569 0.40900001 4280839231
-0.013172292 0.010359838 0.41000003 4281101633
-0.011840613 0.010359838 0.41000003 4281823562
-0.0078838412 0.010410374 0.41200003 4286358923
-0.0065297759 0.010385105 0.41100001 4285963653
-0.046513662 0.011378283 0.39900002 4281221681
-0.045217704 0.011378283 0.39900002 4280694051
-0.043811675 0.011349767 0.39800003 4282997060
-0.042518973 0.011349767 0.39800003 4282404410
-0.04132985 0.011378283 0.39900002 4281351722
-0.040033896 0.011378283 0.39900002 4281286442
-0.038737942 0.011378283 0.39900002 4280565286
-0.037535828 0.0114068 0.40000001 4279586084
-0.036236629 0.0114068 0.40000001 4279323939
-0.035024773 0.011435317 0.40100002 4279062818
-0.033806417 0.011463834 0.40200001 4278932000
-0.032500722 0.011463834 0.40200001 4278999076
-0.031272627 0.011492351 0.40300003 4279263791
-0.029963681 0.011492351 0.40300003 4280119867
-0.028725838 0.011520868 0.40400001 4279132970
-0.027413648 0.011520868 0.40400001 4280383809
-0.026166065 0.011549385 0.40500003 4279594293
-0.024850622 0.011549385 0.40500003 4279200048
-0.023593292 0.011577902 0.40600002 4279462707
-0.022329466 0.011606419 0.40700001 4279790902
-0.021059146 0.011634936 0.40800002 4279659316
-0.019733962 0.011634936 0.40800002 4279461935
-0.018453894 0.011663453 0.40900001 4279593521
-0.017125463 0.011663453 0.40900001 4279659314
-0.015835654 0.01169197 0.41000003 4279264556
-0.014503974 0.01169197 0.41000003 4279462705
-0.01320442 0.011720487 0.41100001 4279264810
-0.011869491 0.011720487 0.41100001 4279724848
-0.010560194 0.011749004 0.41200003 4279790387
-0.009244401 0.011777521 0.41300002 4279460910
-0.0078838412 0.011749004 0.41200003 4279985719
-0.0065456638 0.011749004 0.41200003 4281165378
-0.052474879 0.012865272 0.40500003 4281221931
-0.051159438 0.012865272 0.40500003 4281025585
-0.049843997 0.012865272 0.40500003 4280827436
-0.048408728 0.012833506 0.40400001 4280761643
-0.046746813 0.012738207 0.40100002 4280958507
-0.045331031 0.012706441 0.40000001 4281286702
-0.043921754 0.012674675 0.39900002 4282207544
-0.042625804 0.012674675 0.39900002 4282207794
-0.04132985 0.012674675 0.39900002 4281220386
-0.040134232 0.012706441 0.40000001 4281418280
-0.03883503 0.012706441 0.40000001 4280498721
-0.037629671 0.012738207 0.40100002 4279780897
-0.036327224 0.012738207 0.40100002 4279387935
-0.035024773 0.012738207 0.40100002 4279192351
-0.033806417 0.012769973 0.40200001 4279588133
-0.032500722 0.012769973 0.40200001 4278932000
-0.031272627 0.012801739 0.40300003 4279328554
-0.029963681 0.012801739 0.40300003 4279067177
-0.028725838 0.012833506 0.40400001 4278935591
-0.027413648 0.012833506 0.40400001 4279593521
-0.026166065 0.012865272 0.40500003 4279264556
-0.024911981 0.012897038 0.40600002 4278606626
-0.023651402 0.012928803 0.40700001 4279198765
-0.022384331 0.01296057 0.40800002 4279659316
-0.02111076 0.012992335 0.40900001 4279002156
-0.019782327 0.012992335 0.40900001 4279264556
-0.018499015 0.013024103 0.41000003 4279527728
-0.017209206 0.013055868 0.41100001 4279264556
-0.015874278 0.013055868 0.41100001 4279331119
-0.014574725 0.013087635 0.41200003 4279002408
-0.013268675 0.0131194 0.41300002 4279331373
-0.011927251 0.0131194 0.41300002 4279264810
-0.010611458 0.013151167 0.41400003 4279593775
-0.0092667853 0.013151167 0.41400003 4279988020
-0.007922112 0.013151167 0.41400003 4279066664
-0.0065615512 0.0131194 0.41300002 4279526963
-0.0052327667 0.013151167 0.41400003 4279526963
-0.0038787022 0.0131194 0.41300002 4279459888
-0.051033117 0.014146143 0.40400001 4280038690
-0.049720924 0.014146143 0.40400001 4280826923
-0.048408728 0.014146143 0.40400001 4280694819
-0.046863385 0.014076112 0.40200001 4280957991
-0.045444362 0.014041097 0.40100002 4280234016
-0.044031832 0.014006081 0.40000001 4281352749
-0.042732634 0.014006081 0.40000001 4281812523
-0.041433431 0.014006081 0.40000001 4281286179
-0.040134232 0.014006081 0.40000001 4281089829
-0.03883503 0.014006081 0.40000001 4280565538
-0.037629671 0.014041097 0.40100002 4279846690
-0.036327224 0.014041097 0.40100002 4279651107
-0.035112113 0.014076112 0.40200001 4279389217
-0.033806417 0.014076112 0.40200001 4279653926
-0.032500722 0.014076112 0.40200001 4279722029
-0.031272627 0.014111128 0.40300003 4279196455
-0.029963681 0.014111128 0.40300003 4278934818
-0.028725838 0.014146143 0.40400001 4278869539
-0.027413648 0.014146143 0.40400001 4279790387
-0.026166065 0.014181159 0.40500003 4279329322
-0.024911981 0.014216173 0.40600002 4279527215
-0.023651402 0.014251187 0.40700001 4279132457
-0.022439193 0.014321218 0.40900001 4278604579
-0.021162378 0.014356234 0.41000003 4279459888
-0.019879064 0.014391249 0.41100001 4279067177
-0.018589254 0.014426265 0.41200003 4279264556
-0.017251078 0.014426265 0.41200003 4278934564
-0.015951525 0.01446128 0.41300002 4279132457
-0.014645476 0.014496296 0.41400003 4278607396
-0.01333293 0.01453131 0.41500002 4279133994
-0.01198501 0.01453131 0.41500002 4279001638
-0.01066272 0.014566325 0.41600001 4279067431
-0.0093115512 0.014566325 0.41600001 4279066918
-0.0079603828 0.014566325 0.41600001 4279461676
-0.0065933261 0.01453131 0.41500002 4280711743
-0.0052454062 0.01453131 0.41500002 4279330090
-0.0038880939 0.014496296 0.41400003 4279066918
-0.051033117 0.015458779 0.40400001 4280959020
-0.049720924 0.015458779 0.40400001 4280826923
-0.048408728 0.015458779 0.40400001 4280957739
-0.046979964 0.015420516 0.40300003 4280957739
-0.045557689 0.015382251 0.40200001 4281549874
-0.044031832 0.015305722 0.40000001 4281418026
-0.042732634 0.015305722 0.40000001 4281614374
-0.041433431 0.015305722 0.40000001 4281285407
-0.040134232 0.015305722 0.40000001 4280365852
-0.038932119 0.015343987 0.40100002 4280302625
-0.037629671 0.015343987 0.40100002 4279453217
-0.036327224 0.015343987 0.40100002 4279257635
-0.035112113 0.015382251 0.40200001 4279521570
-0.033806417 0.015382251 0.40200001 4279456547
-0.032500722 0.015382251 0.40200001 4279392551
-0.031272627 0.015420516 0.40300003 4279458857
-0.029963681 0.015420516 0.40300003 4279329322
-0.028725838 0.015458779 0.40400001 4279855666
-0.027413648 0.015458779 0.40400001 4279329836
-0.026166065 0.015497045 0.40500003 4279198250
-0.024973338 0.015573572 0.40700001 4279132457
-0.023709515 0.015611837 0.40800002 4278869287
-0.022439193 0.015650101 0.40900001 4278207252
-0.021213992 0.01572663 0.41100001 4279392297
-0.019927431 0.015764894 0.41200003 4279328554
-0.018634373 0.015803158 0.41300002 4278999589
-0.017334823 0.015841423 0.41400003 4279329324
-0.016067395 0.015917951 0.41600001 4279000873
-0.014751602 0.015956216 0.41700003 4279066918
-0.013397185 0.015956216 0.41700003 4278803746
-0.012071648 0.01599448 0.41800001 4278803746
-0.010739615 0.016032744 0.41900003 4279198504
-0.0093787024 0.016032744 0.41900003 4278868773
-0.0080177896 0.016032744 0.41900003 4278671394
-0.0066251014 0.015956216 0.41700003 4279000871
-0.0052706851 0.015956216 0.41700003 4279461422
-0.0038974853 0.015879687 0.41500002 4279000871
-0.050906796 0.016729904 0.40300003 4281023530
-0.049720924 0.016771417 0.40400001 4280957741
-0.048408728 0.016771417 0.40400001 4281155120
-0.046979964 0.016729904 0.40300003 4280958511
-0.045671016 0.016729904 0.40300003 4281221681
-0.044362072 0.016729904 0.40300003 4281681200
-0.042732634 0.016605362 0.40000001 4281484073
-0.041433431 0.016605362 0.40000001 4281220901
-0.040134232 0.016605362 0.40000001 4280432928
-0.038932119 0.016646877 0.40100002 4280107043
-0.037629671 0.016646877 0.40100002 4279519523
-0.036417812 0.01668839 0.40200001 4279258148
-0.035112113 0.01668839 0.40200001 4279127330
-0.033806417 0.01668839 0.40200001 4278996255
-0.032500722 0.01668839 0.40200001 4279524396
-0.031272627 0.016729904 0.40300003 4279459373
-0.029963681 0.016729904 0.40300003 4279395117
-0.028725838 0.016771417 0.40400001 4279790387
-0.027413648 0.016771417 0.40400001 4279132457
-0.026230671 0.016854443 0.40600002 4279132972
-0.024973338 0.016895955 0.40700001 4279132718
-0.023767626 0.016978983 0.40900001 4279132205
-0.022494059 0.017020497 0.41000003 4278734369
-0.021265609 0.017103525 0.41200003 4280312369
-0.019975798 0.017145038 0.41300002 4278200839
-0.018724613 0.017228065 0.41500002 4278593806
-0.017418563 0.017269578 0.41600001 4278331404
-0.016144643 0.017352603 0.41800001 4278529808
-0.014822354 0.017394118 0.41900003 4278200840
-0.013493568 0.017435631 0.42000002 4278203151
-0.012158288 0.017477145 0.42100003 4278202379
-0.01081651 0.017518658 0.42200002 4278202379
-0.0094458535 0.017518658 0.42200002 4278205207
-0.0080751963 0.017518658 0.42200002 4278205205
-0.0066568768 0.017394118 0.41900003 4278996259
-0.0052833245 0.017352603 0.41800001 4278930466
-0.0039068768 0.017269578 0.41600001 4279391785
-0.052086174 0.017994529 0.40200001 4284182100
-0.050780475 0.017994529 0.40200001 4281549874
-0.049597852 0.018039292 0.40300003 4281549876
-0.048288908 0.018039292 0.40300003 4281747253
-0.046979964 0.018039292 0.40300003 4282207804
-0.045557689 0.017994529 0.40200001 4281747253
-0.044141915 0.017949766 0.40100002 4281484081
-0.042732634 0.017905002 0.40000001 4281418028
-0.041433431 0.017905002 0.40000001 4281023270
-0.040234569 0.017949766 0.40100002 4279709207
-0.038932119 0.017949766 0.40100002 4279976994
-0.037723508 0.017994529 0.40200001 4279455012
-0.036417812 0.017994529 0.40200001 4279258146
-0.035112113 0.017994529 0.40200001 4279522853
-0.033806417 0.017994529 0.40200001 4279260451
-0.032500722 0.017994529 0.40200001 4279458857
-0.031272627 0.018039292 0.40300003 4279854385
-0.029963681 0.018039292 0.40300003 4279198252
-0.028725838 0.018084053 0.40400001 4279658803
-0.027413648 0.018084053 0.40400001 4279198765
-0.026230671 0.018173579 0.40600002 4278737960
-0.024973338 0.01821834 0.40700001 4279001132
-0.023767626 0.018307867 0.40900001 4278803753
-0.022548921 0.018397391 0.41100001 4278202118
-0.021317223 0.018486917 0.41300002 4279849772
-0.020072535 0.018576441 0.41500002 4279249685
-0.018814852 0.018665968 0.41700003 4279379992
-0.017502308 0.018710729 0.41800001 4279313945
-0.01622189 0.018800253 0.42000002 4279183129
-0.01492848 0.018889779 0.42200002 4278331152
-0.01358995 0.01893454 0.42300001 4280046385
-0.012244926 0.018979304 0.42400002 4279785773
-0.010893404 0.019024067 0.42500001 4280114738
-0.0095353872 0.01906883 0.42600003 4280377912
-0.008151738 0.01906883 0.42600003 4280114486
-0.0066727637 0.018800253 0.42000002 4280115256
-0.0053086034 0.018800253 0.42000002 4280181049
-0.0013290469 0.020545991 0.45900002 4278800423
0.00016178592 0.020545991 0.45900002 4279459890
-0.04947478 0.019300669 0.40200001 4281682230
-0.04816908 0.019300669 0.40200001 4282274621
-0.046863385 0.019300669 0.40200001 4282208828
-0.045557689 0.019300669 0.40200001 4281879609
-0.044141915 0.019252658 0.40100002 4281417776
-0.042839468 0.019252658 0.40100002 4280628258
-0.041537017 0.019252658 0.40100002 4281286442
-0.040234569 0.019252658 0.40100002 4279974944
-0.038932119 0.019252658 0.40100002 4279255836
-0.037723508 0.019300669 0.40200001 4279060767
-0.036417812 0.019300669 0.40200001 4279127328
-0.035112113 0.019300669 0.40200001 4279457060
-0.033806417 0.019300669 0.40200001 4279326242
-0.032500722 0.019300669 0.40200001 4279130660
-0.031195026 0.019300669 0.40200001 4279064867
-0.029963681 0.019348681 0.40300003 4279000873
-0.028654736 0.019348681 0.40300003 4279264045
-0.027413648 0.019396693 0.40400001 4278606628
-0.026230671 0.019492716 0.40600002 4279001386
-0.024973338 0.019540727 0.40700001 4279066412
-0.023767626 0.01963675 0.40900001 4279000107
-0.022603786 0.019780785 0.41200003 4279390502
-0.021368841 0.01987681 0.41400003 4278402324
-0.0201209 0.019972831 0.41600001 4278922771
-0.018859971 0.020068854 0.41800001 4280501036
-0.017586051 0.020164877 0.42000002 4280832313
-0.016299138 0.020260902 0.42200002 4280437555
-0.014999231 0.020356925 0.42400002 4278793500
-0.013686333 0.020452948 0.42600003 4280442422
-0.012331564 0.02050096 0.42700002 4278203917
-0.010970299 0.020548971 0.42800003 4278205199
-0.0096025383 0.020596983 0.42900002 4278339097
-0.0082282797 0.020644994 0.43000001 4279523887
-0.0070858398 0.021413179 0.44600001 4279854646
-0.0057130689 0.02170125 0.45200002 4279065130
-0.0042543635 0.02174926 0.45300001 4279394095
-0.0027953056 0.021845285 0.45500001 4279854133
-0.0013261514 0.021989319 0.45800003 4279721779
0.00016178592 0.022037331 0.45900002 4279327537
0.0016526188 0.022037331 0.45900002 4283795816
-0.049228635 0.020504287 0.40000001 4282275134
-0.04804926 0.020555547 0.40100002 4282274621
-0.045444362 0.020555547 0.40100002 4281748277
-0.044141915 0.020555547 0.40100002 4281682230
-0.042839468 0.020555547 0.40100002 4281615667
-0.041537017 0.020555547 0.40100002 4281023530
-0.040234569 0.020555547 0.40100002 4280107297
-0.039029203 0.020606807 0.40200001 4279584801
-0.037723508 0.020606807 0.40200001 4279061535
-0.036417812 0.020606807 0.40200001 4279127841
-0.035112113 0.020606807 0.40200001 4279194658
-0.033806417 0.020606807 0.40200001 4279326758
-0.032500722 0.020606807 0.40200001 4279064869
-0.031195026 0.020606807 0.40200001 4279460140
-0.029963681 0.020658068 0.40300003 4279000873
-0.028654736 0.020658068 0.40300003 4279461424
-0.027413648 0.020709328 0.40400001 4279067179
-0.026230671 0.02081185 0.40600002 4279132972
-0.024973338 0.02086311 0.40700001 4279132459
-0.023825739 0.021016894 0.41000003 4280183096
-0.022603786 0.021119416 0.41200003 4280837948
-0.021368841 0.021221938 0.41400003 4278201604
-0.020169269 0.021375719 0.41700003 4280832565
-0.018905092 0.021478241 0.41900003 4279187226
-0.017669793 0.021632021 0.42200002 4278924314
-0.016376384 0.021734543 0.42400002 4280502834
-0.015069982 0.021837065 0.42600003 4280374067
-0.013750589 0.021939587 0.42800003 4278202124
-0.012389324 0.021990847 0.42900002 4278200583
-0.011047194 0.022093369 0.43100002 4280245043
-0.0096696885 0.022144629 0.43200001 4279719469
-0.0083048223 0.022247151 0.43400002 4278864673
-0.0070858398 0.022862278 0.44600001 4278535454
-0.0056877895 0.023067322 0.45000002 4278864673
-0.0042543635 0.023221103 0.45300001 4278205719
-0.0027953056 0.023323625 0.45500001 4279392049
-0.0013232558 0.023426147 0.45700002 4280313916
0.00016143346 0.023477409 0.45800003 4279458607
0.0016526188 0.023528669 0.45900002 4284517489
-0.051438335 0.021640398 0.39700001 4281551159
-0.050275199 0.021694908 0.39800003 4282339390
-0.049105566 0.021749416 0.39900002 4282273597
-0.047929432 0.021803927 0.40000001 4282406207
-0.046746813 0.021858437 0.40100002 4282208828
-0.045444362 0.021858437 0.40100002 4281879863
-0.044141915 0.021858437 0.40100002 4281418542
-0.042839468 0.021858437 0.40100002 4282076218
-0.041537017 0.021858437 0.40100002 4280761382
-0.040234569 0.021858437 0.40100002 4280043301
-0.038932119 0.021858437 0.40100002 4279519523
-0.037723508 0.021912945 0.40200001 4279127843
-0.036417812 0.021912945 0.40200001 4279194404
-0.035112113 0.021912945 0.40200001 4279063332
-0.033806417 0.021912945 0.40200001 4279260711
-0.032500722 0.021912945 0.40200001 4279064869
-0.031195026 0.021912945 0.40200001 4279394347
-0.02988933 0.021912945 0.40200001 4279264045
-0.028654736 0.021967458 0.40300003 4279461424
-0.027413648 0.022021966 0.40400001 4278935593
-0.026166065 0.022076476 0.40500003 4278935593
-0.024973338 0.022185495 0.40700001 4279263531
-0.023825739 0.022349026 0.41000003 4279590189
-0.022603786 0.022458045 0.41200003 4281099837
-0.021420455 0.022621574 0.41500002 4278201608
-0.020169269 0.022730595 0.41700003 4278660882
-0.018950211 0.022894124 0.42000002 4278725138
-0.017669793 0.023003142 0.42200002 4278396175
-0.016415007 0.023166671 0.42500001 4280897077
-0.015105357 0.023275692 0.42700002 4280900411
-0.013782715 0.023384711 0.42900002 4278333201
-0.012447082 0.023493731 0.43100002 4279320609
-0.011098457 0.023602752 0.43300003 4278927904
-0.0097368397 0.023711771 0.43500003 4279061285
-0.008362229 0.02382079 0.43700001 4278929699
-0.0070699523 0.024256868 0.44500002 4278205976
-0.0056751501 0.024474908 0.44900003 4278205205
-0.004244972 0.024638437 0.45200002 4278469661
-0.0027891621 0.024747457 0.45400003 4278668326
-0.0013232558 0.024910986 0.45700002 4279458607
0.00016143346 0.024965497 0.45800003 4279327021
0.0016490183 0.024965497 0.45800003 4287871650
-0.050275199 0.022988051 0.39800003 4282207290
-0.046630234 0.023103567 0.40000001 4282076988
-0.045331031 0.023103567 0.40000001 4281616437
-0.044141915 0.023161327 0.40100002 4281484081
-0.042839468 0.023161327 0.40100002 4281484081
-0.041537017 0.023161327 0.40100002 4280827434
-0.040234569 0.023161327 0.40100002 4279716137
-0.038932119 0.023161327 0.40100002 4279323428
-0.037629671 0.023161327 0.40100002 4279323937
-0.036327224 0.023161327 0.40100002 4279390500
-0.035112113 0.023219084 0.40200001 4279392037
-0.033806417 0.023219084 0.40200001 4279326244
-0.032500722 0.023219084 0.40200001 4279328293
-0.031195026 0.023219084 0.40200001 4279263013
-0.02988933 0.023219084 0.40200001 4279329838
-0.028654736 0.023276845 0.40300003 4278804007
-0.027413648 0.023334604 0.40400001 4278540835
-0.026166065 0.023392363 0.40500003 4279461424
-0.024973338 0.02350788 0.40700001 4279131945
-0.023825739 0.023681156 0.41000003 4278203654
-0.022603786 0.023796676 0.41200003 4281296450
-0.021420455 0.023969952 0.41500002 4278464533
-0.020217637 0.024143228 0.41800001 4279052824
-0.018950211 0.024258746 0.42000002 4279118103
-0.017711665 0.024432022 0.42300001 4278985750
-0.016415007 0.02454754 0.42500001 4279117590
-0.015140734 0.024720818 0.42800003 4281163581
-0.013814842 0.024836333 0.43000001 4279321377
-0.012475962 0.024951853 0.43200001 4280639034
-0.011124087 0.02506737 0.43400002 4279653676
-0.0097592231 0.025182888 0.43600002 4280115508
-0.0084004998 0.025356164 0.43900001 4279786545
-0.0070699523 0.025702719 0.44500002 4279721012
-0.0056751501 0.025933756 0.44900003 4280181303
-0.004244972 0.026107032 0.45200002 4279983922
-0.0027891621 0.026222549 0.45400003 4278865957
-0.0013203603 0.026338067 0.45600003 4279459123
0.00016108097 0.026395826 0.45700002 4278930982
0.0016490183 0.026453586 0.45800003 4287871652
-0.045331031 0.024403207 0.40000001 4282142783
-0.044031832 0.024403207 0.40000001 4281748025
-0.042732634 0.024403207 0.40000001 4281748023
-0.041537017 0.024464216 0.40100002 4280762924
-0.040234569 0.024464216 0.40100002 4279388455
-0.038932119 0.024464216 0.40100002 4279388967
-0.037629671 0.024464216 0.40100002 4279521320
-0.036327224 0.024464216 0.40100002 4279390502
-0.035024773 0.024464216 0.40100002 4279063584
-0.033722326 0.024464216 0.40100002 4279130660
-0.032419875 0.024464216 0.40100002 4279658287
-0.031195026 0.024525223 0.40200001 4278802978
-0.02988933 0.024525223 0.40200001 4279659062
-0.028654736 0.024586232 0.40300003 4279067179
-0.027413648 0.02464724 0.40400001 4279396144
-0.026166065 0.024708249 0.40500003 4279000873
-0.024973338 0.024830263 0.40700001 4278342429
-0.023825739 0.025013288 0.41000003 4278734884
-0.022603786 0.025135305 0.41200003 4280114486
-0.021420455 0.025318328 0.41500002 4278796832
-0.020169269 0.025440345 0.41700003 4279121693
-0.018950211 0.025623368 0.42000002 4279121179
-0.017711665 0.025806392 0.42300001 4279055388
-0.016453631 0.025989417 0.42600003 4278792216
-0.015140734 0.026111433 0.42800003 4278267667
-0.013814842 0.026233448 0.43000001 4278201357
-0.012475962 0.026355464 0.43200001 4278268689
-0.011124087 0.02647748 0.43400002 4278201863
-0.0097816056 0.026660504 0.43700001 4278201861
-0.0084004998 0.02678252 0.43900001 4278203408
-0.0070540649 0.027087562 0.44400004 4278201354
-0.0056751501 0.027392602 0.44900003 4278201868
-0.004244972 0.027575625 0.45200002 4278201611
-0.0027953056 0.027758649 0.45500001 4279523381
-0.0013203603 0.027819658 0.45600003 4279063849
0.00016108097 0.027880665 0.45700002 4281165632
-0.041433431 0.025702849 0.40000001 4280371760
-0.040134232 0.025702849 0.40000001 4279914029
-0.03883503 0.025702849 0.40000001 4279717420
-0.037629671 0.025767108 0.40100002 4279718186
-0.036327224 0.025767108 0.40100002 4279718697
-0.035024773 0.025767108 0.40100002 4279391783
-0.033722326 0.025767108 0.40100002 4279722029
-0.032419875 0.025767108 0.40100002 4278737187
-0.031117426 0.025767108 0.40100002 4279461424
-0.02988933 0.025831364 0.40200001 4279198765
-0.028583631 0.025831364 0.40200001 4279132972
-0.027413648 0.025959879 0.40400001 4279066664
-0.026166065 0.026024137 0.40500003 4279066664
-0.024973338 0.02615265 0.40700001 4279987002
-0.023767626 0.026281163 0.40900001 4278207773
-0.022603786 0.026473936 0.41200003 4279590193
-0.021368841 0.026602451 0.41400003 4279655986
-0.020169269 0.026795221 0.41700003 4279458607
-0.018950211 0.026987992 0.42000002 4279261228
-0.017711665 0.027180763 0.42300001 4279326767
-0.016453631 0.027373536 0.42600003 4279984697
-0.015140734 0.027502051 0.42800003 4279326767
-0.013814842 0.027630564 0.43000001 4279458353
-0.012475962 0.027759077 0.43200001 4279523887
-0.011124087 0.027887592 0.43400002 4279523369
-0.0097592231 0.028016107 0.43600002 4279523883
-0.0084004998 0.028208878 0.43900001 4279523883
-0.007038177 0.028465906 0.44300002 4279523885
-0.0056877895 0.028915707 0.45000002 4279655471
-0.0042543635 0.029108478 0.45300001 4279787318
-0.0027953056 0.029236991 0.45500001 4279524916
-0.0013203603 0.02930125 0.45600003 4279325224
0.00016108097 0.029365506 0.45700002 4286754964
-0.041433431 0.027002489 0.40000001 4280305971
-0.040134232 0.027002489 0.40000001 4280045363
-0.03883503 0.027002489 0.40000001 4279914799
-0.037535828 0.027002489 0.40000001 4279717932
-0.036236629 0.027002489 0.40000001 4279586859
-0.034937426 0.027002489 0.40000001 4279587883
-0.033722326 0.027069997 0.40100002 4279918129
-0.032419875 0.027069997 0.40100002 4279197738
-0.031117426 0.027069997 0.40100002 4279264045
-0.02988933 0.027137503 0.40200001 4279264304
-0.028583631 0.027137503 0.40200001 4278803753
-0.027345791 0.027205011 0.40300003 4279000873
-0.026166065 0.027340023 0.40500003 4279131945
-0.024973338 0.027475033 0.40700001 4279131175
-0.023767626 0.027610047 0.40900001 4279854644
-0.022603786 0.027812567 0.41200003 4279262509
-0.021368841 0.027947579 0.41400003 4279262509
-0.020169269 0.028150097 0.41700003 4279263277
-0.018950211 0.028352614 0.42000002 4279131693
-0.017711665 0.028555132 0.42300001 4278934314
-0.016415007 0.028690146 0.42500001 4279131693
-0.015140734 0.028892666 0.42800003 4279000107
-0.013782715 0.028960172 0.42900002 4279131693
-0.012475962 0.02916269 0.43200001 4279262509
-0.011124087 0.029297702 0.43400002 4279130923
-0.0097368397 0.02936521 0.43500003 4279328302
-0.0084004998 0.029635234 0.43900001 4279130923
-0.00702229 0.029837754 0.44200003 4279459375
-0.0057130689 0.030512815 0.45200002 4279524400
-0.0042637549 0.030647827 0.45400003 4279524146
-0.0027953056 0.030715333 0.45500001 4279258666
-0.041433431 0.028302131 0.40000001 4284779643
-0.040134232 0.028302131 0.40000001 4281885003
-0.03883503 0.028302131 0.40000001 4280306739
-0.037535828 0.028302131 0.40000001 4279583527
-0.036236629 0.028302131 0.40000001 4280176947
-0.034937426 0.028302131 0.40000001 4280311354
-0.033638228 0.028302131 0.40000001 4280246074
-0.032339025 0.028302131 0.40000001 4280115770
-0.031117426 0.028372888 0.40100002 4279984951
-0.029814979 0.028372888 0.40100002 4279854648
-0.028583631 0.028443642 0.40200001 4279723062
-0.027345791 0.028514398 0.40300003 4279525683
-0.026166065 0.028655909 0.40500003 4279393584
-0.024973338 0.028797418 0.40700001 4279721779
-0.023767626 0.028938929 0.40900001 4279129642
-0.022548921 0.029080439 0.41100001 4279918904
-0.021368841 0.029292706 0.41400003 4279327791
-0.0201209 0.029434215 0.41600001 4279394097
-0.018905092 0.029646484 0.41900003 4279394097
-0.017669793 0.029858749 0.42200002 4279195951
-0.016415007 0.030071015 0.42500001 4279524916
-0.015105357 0.030212525 0.42700002 4279195951
-0.013782715 0.030354036 0.42900002 4279591222
-0.012447082 0.030495547 0.43100002 4279459123
-0.011098457 0.030637057 0.43300003 4279458355
-0.0097368397 0.030778568 0.43500003 4279455791
-0.034937426 0.029601771 0.40000001 4284517493
-0.033638228 0.029601771 0.40000001 4282214736
-0.032339025 0.029601771 0.40000001 4281162561
-0.031117426 0.029675776 0.40100002 4280636987
-0.029814979 0.029675776 0.40100002 4280506686
-0.028583631 0.029749781 0.40200001 4279848756
-0.027345791 0.029823786 0.40300003 4279782959
-0.026166065 0.029971795 0.40500003 4279586094
-0.024973338 0.030119803 0.40700001 4279651637
-0.023767626 0.03026781 0.40900001 4279388719
-0.022548921 0.03041582 0.41100001 4279651891
-0.021317223 0.030563829 0.41300002 4279585844
-0.0201209 0.030785842 0.41600001 4279848756
-0.018905092 0.031007856 0.41900003 4280374328
-0.017669793 0.03122987 0.42200002 4280111156
-0.016415007 0.031451881 0.42500001 4280505914
-0.015105357 0.03159989 0.42700002 4281097538
-0.013750589 0.031673897 0.42800003 4283991149
-0.028583631 0.03105592 0.40200001 4286357900
-0.026700476 0.019225847 0.41154364 4294967295
-0.026700476 0.019225847 0.41154364 4294901760
-0.026700476 0.019225847 0.41204363 4294901760
-0.026700476 0.019225847 0.41254362 4294901760
-0.026700476 0.019225847 0.41304365 4294901760
-0.026700476 0.019225847 0.41354364 4294901760
-0.026700476 0.019225847 0.41404364 4294901760
-0.026700476 0.019225847 0.41454363 4294901760
-0.026700476 0.019225847 0.41504365 4294901760
-0.026700476 0.019225847 0.41554365 4294901760
-0.026700476 0.019225847 0.41604364 4294901760
-0.026700476 0.019225847 0.41654363 4294901760
-0.026700476 0.019225847 0.41704363 4294901760
-0.026700476 0.019225847 0.41754365 4294901760
-0.026700476 0.019225847 0.41804364 4294901760
-0.026700476 0.019225847 0.41854364 4294901760
-0.026700476 0.019225847 0.41904363 4294901760
-0.026700476 0.019225847 0.41954362 4294901760
-0.026700476 0.019225847 0.42004365 4294901760
-0.026700476 0.019225847 0.42054364 4294901760
-0.026700476 0.019225847 0.42104363 4294901760
-0.026700476 0.019225847 0.42154363 4294901760
-0.026700476 0.019225847 0.42204365 4294901760
-0.026700476 0.019225847 0.42254364 4294901760
-0.026700476 0.019225847 0.42304364 4294901760
-0.026700476 0.019225847 0.42354363 4294901760
-0.026700476 0.019225847 0.42404366 4294901760
-0.026700476 0.019225847 0.42454365 4294901760
-0.026700476 0.019225847 0.42504364 4294901760
-0.026700476 0.019225847 0.42554364 4294901760
-0.026700476 0.019225847 0.42604363 4294901760
-0.026700476 0.019225847 0.42654365 4294901760
-0.026700476 0.019225847 0.42704365 4294901760
-0.026700476 0.019225847 0.42754364 4294901760
-0.026700476 0.019225847 0.42804363 4294901760
-0.026700476 0.019225847 0.42854363 4294901760
-0.026700476 0.019225847 0.42904365 4294901760
-0.026700476 0.019225847 0.42954364 4294901760
-0.026700476 0.019225847 0.43004364 4294901760
-0.026700476 0.019225847 0.43054363 4294901760
-0.026700476 0.019225847 0.43104365 4294901760
-0.026700476 0.019225847 0.43154365 4294901760
-0.026700476 0.019225847 0.43204364 4294901760
-0.026700476 0.019225847 0.43254364 4294901760
-0.026700476 0.019225847 0.43304366 4294901760
-0.026700476 0.019225847 0.43354365 4294901760
-0.026700476 0.019225847 0.43404365 4294901760
-0.026700476 0.019225847 0.43454364 4294901760
-0.026700476 0.019225847 0.43504363 4294901760
-0.026700476 0.019225847 0.43554366 4294901760
-0.026700476 0.019225847 0.43604365 4294901760
-0.026700476 0.019225847 0.43654364 4294901760
-0.026700476 0.019225847 0.43704364 4294901760
-0.026700476 0.019225847 0.43754363 4294901760
-0.026700476 0.019225847 0.43804365 4294901760
-0.026700476 0.019225847 0.43854365 4294901760
-0.026700476 0.019225847 0.43904364 4294901760
-0.026700476 0.019225847 0.43954363 4294901760
-0.026700476 0.019225847 0.44004363 4294901760
-0.026700476 0.019225847 0.44054365 4294901760
-0.026700476 0.019225847 0.44104365 4294901760
-0.026700476 0.019225847 0.44154364 4294901760
-0.026700476 0.019225847 0.44204363 4294901760
-0.026700476 0.019225847 0.44254366 4294901760
-0.026700476 0.019225847 0.44304365 4294901760
-0.026700476 0.019225847 0.44354364 4294901760
-0.026700476 0.019225847 0.44404364 4294901760
-0.026700476 0.019225847 0.44454366 4294901760
-0.026700476 0.019225847 0.44504365 4294901760
-0.026700476 0.019225847 0.44554365 4294901760
-0.026700476 0.019225847 0.44604364 4294901760
-0.026700476 0.019225847 0.44654363 4294901760
-0.026700476 0.019225847 0.44704366 4294901760
-0.026700476 0.019225847 0.44754365 4294901760
-0.026700476 0.019225847 0.44804364 4294901760
-0.026700476 0.019225847 0.44854364 4294901760
-0.026700476 0.019225847 0.44904363 4294901760
-0.026700476 0.019225847 0.44954365 4294901760
-0.026700476 0.019225847 0.45004365 4294901760
-0.026700476 0.019225847 0.45054364 4294901760
-0.026700476 0.019225847 0.45104364 4294901760
-0.026700476 0.019225847 0.45154366 4294901760
-0.026700476 0.019225847 0.45204365 4294901760
-0.026700476 0.019225847 0.45254365 4294901760
-0.026700476 0.019225847 0.45304364 4294901760
-0.026700476 0.019225847 0.45354363 4294901760
-0.026700476 0.019225847 0.45404366 4294901760
-0.026700476 0.019225847 0.45454365 4294901760
-0.026700476 0.019225847 0.45504364 4294901760
-0.026700476 0.019225847 0.45554364 4294901760
-0.026700476 0.019225847 0.45604366 4294901760
-0.026700476 0.019225847 0.45654365 4294901760
-0.026700476 0.019225847 0.45704365 4294901760
-0.026700476 0.019225847 0.45754364 4294901760
-0.026700476 0.019225847 0.45804363 4294901760
-0.026700476 0.019225847 0.45854366 4294901760
-0.026700476 0.019225847 0.45904365 4294901760
-0.026700476 0.019225847 0.45954365 4294901760
-0.026700476 0.019225847 0.46004364 4294901760
-0.026700476 0.019225847 0.46054366 4294901760
-0.026700476 0.019225847 0.46104366 4294901760
-0.026700476 0.019225847 0.46154365 4294901760
-0.026700476 0.019225847 0.41154364 4278255360
-0.026894337 0.019214509 0.41200438 4278255360
-0.027088199 0.019203169 0.41246513 4278255360
-0.027282059 0.019191831 0.41292587 4278255360
-0.02747592 0.019180493 0.41338664 4278255360
-0.02766978 0.019169156 0.41384739 4278255360
-0.02786364 0.019157816 0.41430813 4278255360
-0.028057503 0.019146478 0.41476887 4278255360
-0.028251363 0.01913514 0.41522962 4278255360
-0.028445223 0.0191238 0.41569036 4278255360
-0.028639086 0.019112462 0.41615114 4278255360
-0.028832946 0.019101124 0.41661188 4278255360
-0.029026806 0.019089784 0.41707262 4278255360
-0.029220667 0.019078447 0.41753337 4278255360
-0.029414527 0.019067109 0.41799411 4278255360
-0.029608389 0.019055769 0.41845486 4278255360
-0.02980225 0.019044431 0.41891563 4278255360
-0.02999611 0.019033093 0.41937637 4278255360
-0.030189972 0.019021755 0.41983712 4278255360
-0.030383833 0.019010415 0.42029786 4278255360
-0.030577693 0.018999077 0.42075861 4278255360
-0.030771554 0.018987739 0.42121935 4278255360
-0.030965414 0.0189764 0.42168012 4278255360
-0.031159276 0.018965062 0.42214087 4278255360
-0.031353138 0.018953724 0.42260161 4278255360
-0.031546999 0.018942386 0.42306235 4278255360
-0.031740859 0.018931046 0.4235231 4278255360
-0.03193472 0.018919708 0.42398384 4278255360
-0.03212858 0.01890837 0.42444459 4278255360
-0.03232244 0.018897031 0.42490536 4278255360
-0.032516301 0.018885693 0.4253661 4278255360
-0.032710161 0.018874355 0.42582685 4278255360
-0.032904021 0.018863015 0.42628759 4278255360
-0.033097886 0.018851677 0.42674834 4278255360
-0.033291746 0.018840339 0.42720908 4278255360
-0.033485606 0.018828999 0.42766985 4278255360
-0.033679467 0.018817661 0.4281306 4278255360
-0.033873327 0.018806323 0.42859134 4278255360
-0.034067187 0.018794985 0.42905208 4278255360
-0.034261048 0.018783646 0.42951283 4278255360
-0.034454912 0.018772308 0.42997357 4278255360
-0.034648769 0.01876097 0.43043435 4278255360
-0.034842633 0.01874963 0.43089509 4278255360
-0.035036493 0.018738292 0.43135583 4278255360
-0.035230353 0.018726954 0.43181658 4278255360
-0.035424214 0.018715616 0.43227732 4278255360
-0.035618074 0.018704277 0.43273807 4278255360
-0.035811935 0.018692939 0.43319881 4278255360
-0.036005795 0.018681601 0.43365958 4278255360
-0.036199659 0.018670261 0.43412033 4278255360
-0.036393519 0.018658923 0.43458107 4278255360
-0.03658738 0.018647585 0.43504182 4278255360
-0.03678124 0.018636245 0.43550256 4278255360
-0.036975101 0.018624907 0.4359633 4278255360
-0.037168961 0.018613569 0.43642408 4278255360
-0.037362821 0.01860223 0.43688482 4278255360
-0.037556686 0.018590892 0.43734556 4278255360
-0.037750542 0.018579554 0.43780631 4278255360
-0.037944406 0.018568216 0.43826705 4278255360
-0.038138267 0.018556876 0.4387278 4278255360
-0.038332127 0.018545538 0.43918857 4278255360
-0.038525987 0.0185342 0.43964931 4278255360
-0.038719848 0.01852286 0.44011006 4278255360
-0.038913708 0.018511523 0.4405708 4278255360
-0.039107569 0.018500185 0.44103155 4278255360
-0.039301433 0.018488847 0.44149229 4278255360
-0.039495293 0.018477507 0.44195306 4278255360
-0.039689153 0.018466169 0.44241381 4278255360
-0.039883014 0.018454831 0.44287455 4278255360
-0.040076874 0.018443491 0.44333529 4278255360
-0.040270735 0.018432153 0.44379604 4278255360
-0.040464595 0.018420815 0.44425678 4278255360
-0.040658459 0.018409476 0.44471756 4278255360
-0.040852319 0.018398138 0.4451783 4278255360
-0.04104618 0.0183868 0.44563904 4278255360
-0.04124004 0.01837546 0.44609979 4278255360
-0.041433901 0.018364122 0.44656053 4278255360
-0.041627761 0.018352784 0.44702128 4278255360
-0.041821621 0.018341446 0.44748202 4278255360
-0.042015485 0.018330107 0.44794279 4278255360
-0.042209342 0.018318769 0.44840354 4278255360
-0.042403206 0.018307431 0.44886428 4278255360
-0.042597063 0.018296091 0.44932503 4278255360
-0.042790927 0.018284753 0.44978577 4278255360
-0.042984787 0.018273415 0.45024651 4278255360
-0.043178648 0.018262077 0.45070729 4278255360
-0.043372512 0.018250737 0.45116803 4278255360
-0.043566369 0.018239399 0.45162877 4278255360
-0.043760233 0.018228061 0.45208952 4278255360
-0.043954089 0.018216722 0.45255026 4278255360
-0.044147953 0.018205384 0.45301101 4278255360
-0.044341814 0.018194046 0.45347178 4278255360
-0.044535674 0.018182706 0.45393252 4278255360
-0.044729535 0.018171368 0.45439327 4278255360
-0.044923395 0.01816003 0.45485401 4278255360
-0.045117259 0.01814869 0.45531476 4278255360
-0.045311116 0.018137353 0.4557755 4278255360
-0.04550498 0.018126015 0.45623627 4278255360
-0.04569884 0.018114677 0.45669702 4278255360
-0.045892701 0.018103337 0.45715776 4278255360
-0.046086561 0.018091999 0.4576185 4278255360
