# .PCD v0.7 - Point Cloud Data file format
VERSION 0.7
FIELDS x y z rgb
SIZE 4 4 4 4
TYPE F F F U
COUNT 1 1 1 1
WIDTH 1051
HEIGHT 1
VIEWPOINT 0 0 0 1 0 0 0
POINTS 1051
DATA ascii
0.029232109 0.037513893 0.33200002 4279912231
0.030310445 0.037513893 0.33200002 4279385117
0.031294242 0.037400901 0.33100003 4278857494
0.032271534 0.037287906 0.33000001 4278198537
0.033242337 0.037174914 0.32900003 4278197766
0.034206636 0.037061919 0.32800001 4278196481
0.035164446 0.036948927 0.32700002 4278264587
0.036115758 0.036835931 0.32600001 4278331404
0.037060574 0.036722939 0.32500002 4279057176
0.037998892 0.036609944 0.324 4279189273
0.038930718 0.036496952 0.32300001 4278731289
0.039856046 0.036383957 0.32200003 4278665496
0.040901903 0.036383957 0.32200003 4278731289
0.041817486 0.036270961 0.32100001 4278665496
0.042860094 0.036270961 0.32100001 4278666007
0.043902703 0.036270961 0.32100001 4278666007
0.044805296 0.036157969 0.32000002 4278731800
0.045987923 0.036270961 0.32100001 4278731800
0.046884019 0.036157969 0.32000002 4278731800
0.047923379 0.036157969 0.32000002 4278797593
0.048962738 0.036157969 0.32000002 4278995742
0.050002102 0.036157969 0.32000002 4278600984
0.050881952 0.036044974 0.31900001 4278928154
0.051918067 0.036044974 0.31900001 4285835138
0.052954178 0.036044974 0.31900001 4279979559
0.05399029 0.036044974 0.31900001 4279519523
0.055026405 0.036044974 0.31900001 4279651109
-0.0046639876 0.042893577 0.36900002 4279976994
-0.0034560836 0.042777337 0.36800003 4279190556
-0.0022608186 0.042777337 0.36800003 4279059738
-0.001065554 0.042777337 0.36800003 4278862873
0.00012971072 0.042777337 0.36800003 4278994461
0.0013249754 0.042777337 0.36800003 4278797084
0.0024312097 0.041266181 0.35500002 4278994463
0.0035741536 0.041149933 0.354 4278797084
0.0047239466 0.041149933 0.354 4278203148
0.0058571463 0.041033693 0.35300002 4278198025
0.0069838511 0.040917452 0.35200003 4279976488
0.0081040589 0.040801208 0.35100001 4279582496
0.0092177708 0.040684965 0.35000002 4278328585
0.010324988 0.040568721 0.34900001 4279249176
0.011425707 0.04045248 0.34800002 4278854418
0.01251993 0.040336236 0.347 4278394380
0.013607659 0.040219992 0.34600002 4278920724
0.014688892 0.040103752 0.34500003 4278196486
0.015763627 0.039987508 0.34400001 4278196486
0.016831869 0.039871268 0.34300002 4278458377
0.017893611 0.03975502 0.34200001 4279446553
0.01894886 0.03963878 0.34100002 4278722830
0.020056428 0.03963878 0.34100002 4278195718
0.021101933 0.039522536 0.34 4278991129
0.022140941 0.039406296 0.33900002 4278795800
0.023173455 0.039290052 0.33800003 4278200072
0.024271278 0.039290052 0.33800003 4278198278
0.025294045 0.039173808 0.33700001 4278196992
0.026310319 0.039057568 0.33600003 4278860056
0.027320093 0.038941324 0.33500001 4278531861
0.028323375 0.03882508 0.33400002 4278925849
0.029320156 0.038708836 0.333 4278992666
0.030310445 0.038592596 0.33200002 4279124252
0.031294242 0.038476355 0.33100003 4279190045
0.032271534 0.038360108 0.33000001 4279190045
0.033242337 0.038243867 0.32900003 4279190045
0.034206636 0.038127623 0.32800001 4279386654
0.035164446 0.038011383 0.32700002 4279649059
0.036115758 0.037895139 0.32600001 4279516191
0.037060574 0.037778895 0.32500002 4278726162
0.037998892 0.037662651 0.324 4278198793
0.038930718 0.037546411 0.32300001 4278197510
0.039856046 0.037430171 0.32200003 4278196994
0.040901903 0.037430171 0.32200003 4278199561
0.041817486 0.037313923 0.32100001 4278857748
0.042860094 0.037313923 0.32100001 4278793750
0.043902703 0.037313923 0.32100001 4278926103
0.044945311 0.037313923 0.32100001 4278862361
0.045987923 0.037313923 0.32100001 4278731289
0.047030531 0.037313923 0.32100001 4278731287
0.047923379 0.037197683 0.32000002 4278666007
0.048962738 0.037197683 0.32000002 4278797593
0.050002102 0.037197683 0.32000002 4278863386
0.050881952 0.037081439 0.31900001 4279323424
0.051918067 0.037081439 0.31900001 4278731287
0.052954178 0.037081439 0.31900001 4278994459
0.053821042 0.036965199 0.31800002 4279126045
0.054853909 0.036965199 0.31800002 4278862875
0.055886775 0.036965199 0.31800002 4279255838
0.0024312097 0.042419609 0.35500002 4278862875
0.0035741536 0.042300116 0.354 4278993947
0.0047106021 0.042180628 0.35300002 4279257119
0.0058571463 0.042180628 0.35300002 4278197511
0.0069838511 0.042061135 0.35200003 4279252767
0.0081040589 0.041941643 0.35100001 4280371500
0.0092177708 0.04182215 0.35000002 4278525449
0.010324988 0.041702658 0.34900001 4278786572
0.011425707 0.041583166 0.34800002 4278917390
0.01251993 0.041463673 0.347 4278655502
0.013607659 0.041344184 0.34600002 4278589963
0.014688892 0.041224692 0.34500003 4278655756
0.015763627 0.0411052 0.34400001 4278655756
0.016831869 0.040985707 0.34300002 4279379990
0.017893611 0.040866215 0.34200001 4280039717
0.019004429 0.040866215 0.34200001 4280171303
0.020056428 0.040746726 0.34100002 4278195203
0.021101933 0.04062723 0.34 4279188762
0.022140941 0.040507741 0.33900002 4278795287
0.023242014 0.040507741 0.33900002 4278393095
0.024271278 0.040388249 0.33800003 4278851849
0.025294045 0.040268756 0.33700001 4278590474
0.026310319 0.040149264 0.33600003 4279514654
0.027320093 0.040029772 0.33500001 4278990361
0.028323375 0.039910283 0.33400002 4278727957
0.029320156 0.039790787 0.333 4278925849
0.030310445 0.039671298 0.33200002 4278333966
0.031294242 0.039551806 0.33100003 4278198016
0.032271534 0.039432313 0.33000001 4278596371
0.033242337 0.039312821 0.32900003 4278993179
0.034206636 0.039193328 0.32800001 4278993179
0.035164446 0.03907384 0.32700002 4278993179
0.036115758 0.038954344 0.32600001 4279058972
0.037060574 0.038834855 0.32500002 4279058459
0.037998892 0.038715359 0.324 4279124252
0.038930718 0.03859587 0.32300001 4279189791
0.039979823 0.03859587 0.32300001 4279254814
0.040901903 0.038476381 0.32200003 4279779875
0.04194776 0.038476381 0.32200003 4279187224
0.042860094 0.038356885 0.32100001 4279253019
0.043902703 0.038356885 0.32100001 4278198276
0.044945311 0.038356885 0.32100001 4278196736
0.045987923 0.038356885 0.32100001 4278991642
0.047030531 0.038356885 0.32100001 4278665496
0.047923379 0.038237397 0.32000002 4278665496
0.048962738 0.038237397 0.32000002 4278731287
0.049845841 0.0381179 0.31900001 4278665494
0.050881952 0.0381179 0.31900001 4278797080
0.051918067 0.0381179 0.31900001 4278600214
0.052788179 0.037998412 0.31800002 4278600214
0.053821042 0.037998412 0.31800002 4278666007
0.054853909 0.037998412 0.31800002 4278928666
0.055886775 0.037998412 0.31800002 4278993947
0.056919642 0.037998412 0.31800002 4281422142
0.00012477607 0.0434503 0.354 4278994461
0.0012745686 0.0434503 0.354 4278862877
0.0024243612 0.0434503 0.354 4278797084
0.0035741536 0.0434503 0.354 4278994463
0.0047106021 0.043327559 0.35300002 4278201865
0.0058571463 0.043327559 0.35300002 4278595603
0.0069838511 0.043204818 0.35200003 4279320096
0.0081040589 0.043082077 0.35100001 4279386402
0.0092177708 0.042959336 0.35000002 4278198282
0.010324988 0.042836595 0.34900001 4278852111
0.011425707 0.042713854 0.34800002 4278720525
0.01251993 0.04259111 0.347 4278851597
0.013607659 0.042468373 0.34600002 4278851597
0.014688892 0.042345632 0.34500003 4278785804
0.015763627 0.042222891 0.34400001 4278851597
0.016831869 0.04210015 0.34300002 4278851851
0.017893611 0.041977406 0.34200001 4278523398
0.019004429 0.041977406 0.34200001 4278524681
0.020056428 0.041854668 0.34100002 4278392582
0.021101933 0.041731924 0.34 4279320348
0.022140941 0.041609187 0.33900002 4279189275
0.023242014 0.041609187 0.33900002 4278983949
0.024271278 0.041486446 0.33800003 4279312402
0.025294045 0.041363701 0.33700001 4278984721
0.026310319 0.041240964 0.33600003 4278921238
0.027320093 0.041118219 0.33500001 4279254301
0.028323375 0.040995482 0.33400002 4279649826
0.029320156 0.040872738 0.333 4278660882
0.030310445 0.040750001 0.33200002 4279055640
0.031294242 0.04062726 0.33100003 4279451680
0.032271534 0.040504515 0.33000001 4278199300
0.033242337 0.040381778 0.32900003 4279451934
0.034206636 0.040259033 0.32800001 4278991896
0.035164446 0.040136296 0.32700002 4278663701
0.036115758 0.040013552 0.32600001 4279190558
0.037060574 0.039890811 0.32500002 4278927386
0.037998892 0.03976807 0.324 4278993179
0.038930718 0.039645329 0.32300001 4279058972
0.039979823 0.039645329 0.32300001 4279058970
0.040901903 0.039522592 0.32200003 4279058970
0.04194776 0.039522592 0.32200003 4279058970
0.04299362 0.039522592 0.32200003 4278993177
0.043902703 0.039399847 0.32100001 4279190045
0.044945311 0.039399847 0.32100001 4278856978
0.045987923 0.039399847 0.32100001 4278857746
0.047030531 0.039399847 0.32100001 4278862361
0.047923379 0.039277107 0.32000002 4278664982
0.048962738 0.039277107 0.32000002 4278664982
0.049845841 0.039154366 0.31900001 4278796568
0.050881952 0.039154366 0.31900001 4278599187
0.051755317 0.039031625 0.31800002 4278664980
0.052788179 0.039031625 0.31800002 4278862359
0.053821042 0.039031625 0.31800002 4278533394
0.054853909 0.039031625 0.31800002 4278599189
0.055886775 0.039031625 0.31800002 4278598421
0.056740645 0.038908884 0.317 4279448352
0.00012512856 0.044726476 0.35500002 4278928668
0.0012745686 0.044600483 0.354 4278797084
0.0024243612 0.044600483 0.354 4278796830
0.0035741536 0.044600483 0.354 4278862623
0.0047106021 0.044474494 0.35300002 4278268689
0.0058571463 0.044474494 0.35300002 4278858775
0.0069838511 0.044348504 0.35200003 4279385889
0.0081040589 0.044222515 0.35100001 4279190304
0.0092177708 0.044096526 0.35000002 4279124511
0.010295403 0.043844543 0.34800002 4279647775
0.011392875 0.04371855 0.347 4279317529
0.01248385 0.043592565 0.34600002 4278657037
0.013568331 0.043466575 0.34500003 4278262281
0.014646315 0.043340582 0.34400001 4278852365
0.015717804 0.043214593 0.34300002 4278720527
0.016831869 0.043214593 0.34300002 4278851597
0.017893611 0.043088604 0.34200001 4278851597
0.01894886 0.042962614 0.34100002 4278851851
0.020056428 0.042962614 0.34100002 4278326021
0.021101933 0.042836621 0.34 4279188762
0.022140941 0.042710632 0.33900002 4279058457
0.023242014 0.042710632 0.33900002 4278721549
0.024271278 0.042584646 0.33800003 4278720525
0.025294045 0.042458653 0.33700001 4278262281
0.026310319 0.042332664 0.33600003 4279646242
0.027320093 0.042206671 0.33500001 4278660882
0.028323375 0.042080685 0.33400002 4279319324
0.029320156 0.041954692 0.333 4278660882
0.030310445 0.041828703 0.33200002 4278792468
0.031294242 0.041702714 0.33100003 4278992412
0.032271534 0.041576721 0.33000001 4278202128
0.033242337 0.041450735 0.32900003 4279516957
0.034206636 0.041324742 0.32800001 4278990613
0.035164446 0.041198753 0.32700002 4278196992
0.036115758 0.04107276 0.32600001 4278397197
0.037060574 0.040946774 0.32500002 4279385117
0.038116176 0.040946774 0.32500002 4278197504
0.039051246 0.040820781 0.324 4278200325
0.039979823 0.040694792 0.32300001 4279255836
0.041028924 0.040694792 0.32300001 4278730005
0.04194776 0.040568803 0.32200003 4278795798
0.04299362 0.040568803 0.32200003 4278927384
0.043902703 0.040442813 0.32100001 4279058970
0.044945311 0.040442813 0.32100001 4279121431
0.045987923 0.040442813 0.32100001 4278726162
0.047030531 0.040442813 0.32100001 4279058970
0.047923379 0.040316824 0.32000002 4278993947
0.048962738 0.040316824 0.32000002 4278862361
0.049845841 0.040190831 0.31900001 4278862361
0.050881952 0.040190831 0.31900001 4278862359
0.051755317 0.040064842 0.31800002 4278862359
0.052788179 0.040064842 0.31800002 4278664980
0.053821042 0.040064842 0.31800002 4278533394
0.054681409 0.039938848 0.317 4278598421
0.055711027 0.039938848 0.317 4278597654
0.056740645 0.039938848 0.317 4278921238
0.00012512856 0.045879904 0.35500002 4278928154
0.0012745686 0.045750663 0.354 4278797084
0.0024243612 0.045750663 0.354 4278928670
0.0035741536 0.045750663 0.354 4278731037
0.0047106021 0.045621425 0.35300002 4278796830
0.0058405544 0.045492187 0.35200003 4279256097
0.0069838511 0.045492187 0.35200003 4279058205
0.0081040589 0.045362946 0.35100001 4278927902
0.0091914339 0.045104466 0.34900001 4278862363
0.010295403 0.044975229 0.34800002 4278993947
0.011392875 0.044845987 0.347 4279190556
0.01248385 0.044716749 0.34600002 4279321631
0.013568331 0.044587512 0.34500003 4279255068
0.014646315 0.04445827 0.34400001 4279320094
0.015717804 0.044329032 0.34300002 4279977254
0.016831869 0.044329032 0.34300002 4279581471
0.017893611 0.044199791 0.34200001 4278461453
0.01894886 0.044070557 0.34100002 4278458890
0.020056428 0.044070557 0.34100002 4278195718
0.021101933 0.043941315 0.34 4278924566
0.022206252 0.043941315 0.34 4278267406
0.023242014 0.043812077 0.33900002 4279712033
0.024271278 0.04368284 0.33800003 4279711522
0.025294045 0.043553598 0.33700001 4279975459
0.026310319 0.04342436 0.33600003 4279450910
0.027320093 0.043295119 0.33500001 4279254301
0.028323375 0.043165881 0.33400002 4279254301
0.029320156 0.04303664 0.333 4279320094
0.030310445 0.042907402 0.33200002 4278596371
0.031294242 0.042778164 0.33100003 4278200331
0.032271534 0.042648923 0.33000001 4278200331
0.033343375 0.042648923 0.33000001 4279779875
0.034310929 0.042519685 0.32900003 4278199303
0.03527198 0.042390443 0.32800001 4279185691
0.036115758 0.042131964 0.32600001 4278658834
0.037174605 0.042131964 0.32600001 4278856724
0.038116176 0.04200273 0.32500002 4279187226
0.039051246 0.041873489 0.324 4278990361
0.039979823 0.041744251 0.32300001 4278529296
0.041028924 0.041744251 0.32300001 4278595089
0.04194776 0.041615013 0.32200003 4278529296
0.04299362 0.041615013 0.32200003 4278927386
0.044039473 0.041615013 0.32200003 4279058970
0.044945311 0.041485772 0.32100001 4278727189
0.045987923 0.041485772 0.32100001 4279186459
0.047030531 0.041485772 0.32100001 4278928154
0.047923379 0.041356534 0.32000002 4278928152
0.04880973 0.041227292 0.31900001 4278862359
0.049845841 0.041227292 0.31900001 4278796566
0.05072245 0.041098054 0.31800002 4278664980
0.051755317 0.041098054 0.31800002 4278862359
0.052788179 0.041098054 0.31800002 4278664980
0.053651791 0.040968813 0.317 4278336015
0.054681409 0.040968813 0.317 4278663701
0.055711027 0.040968813 0.317 4278991383
0.056740645 0.040968813 0.317 4278593041
0.00012512856 0.047033336 0.35500002 4279255066
0.0012745686 0.046900846 0.354 4279124252
0.0024243612 0.046900846 0.354 4279058972
0.0035741536 0.046900846 0.354 4278862363
0.0047106021 0.04676836 0.35300002 4278796570
0.0058405544 0.046635874 0.35200003 4278862363
0.0069640102 0.046503384 0.35100001 4278993949
0.0080809705 0.046370897 0.35000002 4278993949
0.0091914339 0.046238404 0.34900001 4278796568
0.010295403 0.046105918 0.34800002 4278928154
0.011360043 0.045840941 0.34600002 4278796568
0.012447771 0.045708455 0.34500003 4278862361
0.013529002 0.045575965 0.34400001 4278993947
0.014646315 0.045575965 0.34400001 4278862363
0.015717804 0.045443479 0.34300002 4278993949
0.016782796 0.045310989 0.34200001 4278862363
0.017893611 0.045310989 0.34200001 4278928156
0.01894886 0.045178503 0.34100002 4279124252
0.020056428 0.045178503 0.34100002 4279255068
0.021101933 0.045046009 0.34 4279451680
0.022206252 0.045046009 0.34 4279517473
0.023242014 0.044913523 0.33900002 4278528013
0.024271278 0.044781037 0.33800003 4278196482
0.025294045 0.044648547 0.33700001 4278196484
0.026310319 0.044516061 0.33600003 4278197512
0.027320093 0.044383571 0.33500001 4278528013
0.028323375 0.044251084 0.33400002 4278792468
0.029320156 0.044118594 0.333 4278991129
0.030310445 0.043986108 0.33200002 4279254814
0.031294242 0.043853618 0.33100003 4279320607
0.032271534 0.043721128 0.33000001 4278991642
0.033343375 0.043721128 0.33000001 4279387683
0.034310929 0.043588642 0.32900003 4278927132
0.03527198 0.043456152 0.32800001 4279517475
0.036115758 0.043191176 0.32600001 4279056154
0.037174605 0.043191176 0.32600001 4279515937
0.038116176 0.04305869 0.32500002 4278331150
0.039051246 0.0429262 0.324 4278199049
0.039979823 0.04279371 0.32300001 4279252767
0.041028924 0.04279371 0.32300001 4279055127
0.04194776 0.042661224 0.32200003 4278199818
0.04299362 0.042661224 0.32200003 4278400277
0.044039473 0.042661224 0.32200003 4278796316
0.044945311 0.042528734 0.32100001 4278529556
0.045987923 0.042528734 0.32100001 4279515424
0.047030531 0.042528734 0.32100001 4278993177
0.047923379 0.042396247 0.32000002 4278928152
0.04880973 0.042263757 0.31900001 4278665494
0.049845841 0.042263757 0.31900001 4278665494
0.05072245 0.042131271 0.31800002 4278731287
0.051755317 0.042131271 0.31800002 4278731287
0.052788179 0.042131271 0.31800002 4278664980
0.053651791 0.041998781 0.317 4278730003
0.054681409 0.041998781 0.317 4278795285
0.055711027 0.041998781 0.317 4279386654
0.056740645 0.041998781 0.317 4278725138
0.0024243612 0.048051026 0.354 4279909916
0.0035741536 0.048051026 0.354 4279516441
0.0047106021 0.047915291 0.35300002 4279319576
0.0058405544 0.047779553 0.35200003 4279254553
0.0069640102 0.047643814 0.35100001 4279123480
0.0080809705 0.04750808 0.35000002 4278795798
0.009165098 0.047236603 0.34800002 4278927384
0.010265818 0.047100864 0.347 4278795798
0.011360043 0.04696513 0.34600002 4278862361
0.012447771 0.046829391 0.34500003 4278796570
0.013529002 0.046693653 0.34400001 4278796570
0.014603739 0.046557918 0.34300002 4278928156
0.015717804 0.046557918 0.34300002 4278862363
0.016782796 0.04642218 0.34200001 4278664984
0.017893611 0.04642218 0.34200001 4279059742
0.019004429 0.04642218 0.34200001 4278928156
0.020056428 0.046286441 0.34100002 4279257121
0.021101933 0.046150703 0.34 4279124765
0.022206252 0.046150703 0.34 4279058972
0.023242014 0.046014968 0.33900002 4279190045
0.024271278 0.04587923 0.33800003 4279255068
0.025294045 0.045743492 0.33700001 4279320607
0.026310319 0.045607757 0.33600003 4279056924
0.027320093 0.045472018 0.33500001 4279450398
0.028323375 0.04533628 0.33400002 4278660882
0.029320156 0.045200542 0.333 4278197766
0.030310445 0.045064807 0.33200002 4278197511
0.031294242 0.044929069 0.33100003 4278196738
0.032271534 0.04479333 0.33000001 4278197509
0.033343375 0.04479333 0.33000001 4278792466
0.034310929 0.044657595 0.32900003 4278925336
0.035164446 0.044386119 0.32700002 4279320861
0.036115758 0.04425038 0.32600001 4279255068
0.037060574 0.044114646 0.32500002 4279190045
0.038116176 0.044114646 0.32500002 4279124252
0.039051246 0.043978903 0.324 4279320607
0.039979823 0.043843169 0.32300001 4279320607
0.041028924 0.043843169 0.32300001 4278530580
0.04194776 0.043707434 0.32200003 4278198789
0.04299362 0.043707434 0.32200003 4278860056
0.044039473 0.043707434 0.32200003 4278927132
0.044945311 0.043571692 0.32100001 4278266638
0.045987923 0.043571692 0.32100001 4279121433
0.047030531 0.043571692 0.32100001 4278928156
0.047923379 0.043435957 0.32000002 4278928156
0.04880973 0.043300219 0.31900001 4278928154
0.049845841 0.043300219 0.31900001 4278664982
0.05072245 0.043164484 0.31800002 4278664982
0.051755317 0.043164484 0.31800002 4278796566
0.052788179 0.043164484 0.31800002 4278664980
0.053651791 0.043028742 0.317 4278664210
0.054681409 0.043028742 0.317 4278861078
0.055711027 0.043028742 0.317 4279124250
0.056740645 0.043028742 0.317 4278857748
0.0035741536 0.049201209 0.354 4279641867
0.0047106021 0.049062226 0.35300002 4278984451
0.0058405544 0.048923239 0.35200003 4279184398
0.0069640102 0.048784252 0.35100001 4279580440
0.0080578821 0.048506279 0.34900001 4279582236
0.009165098 0.048367295 0.34800002 4279319576
0.010265818 0.048228305 0.347 4278991894
0.011327211 0.047950335 0.34500003 4278992664
0.012447771 0.047950335 0.34500003 4278795800
0.013529002 0.047811348 0.34400001 4278993179
0.014603739 0.047672361 0.34300002 4278664984
0.015717804 0.047672361 0.34300002 4278664984
0.016831869 0.047672361 0.34300002 4278599191
0.017893611 0.047533374 0.34200001 4278664984
0.019004429 0.047533374 0.34200001 4278731291
0.020056428 0.047394387 0.34100002 4278731291
0.021163998 0.047394387 0.34100002 4278797084
0.022206252 0.047255401 0.34 4279059740
0.023242014 0.047116414 0.33900002 4278993947
0.024271278 0.046977431 0.33800003 4279059740
0.025294045 0.04683844 0.33700001 4278993179
0.026310319 0.046699457 0.33600003 4279124765
0.027320093 0.046560466 0.33500001 4279058972
0.028323375 0.046421483 0.33400002 4279124765
0.029320156 0.046282496 0.333 4279255068
0.030310445 0.046143509 0.33200002 4279255068
0.031294242 0.046004526 0.33100003 4279649313
0.032369327 0.046004526 0.33100003 4279385117
0.033343375 0.045865536 0.33000001 4279252506
0.034310929 0.045726553 0.32900003 4278331404
0.035164446 0.045448579 0.32700002 4278196736
0.036115758 0.045309588 0.32600001 4278195457
0.037060574 0.045170605 0.32500002 4278197510
0.038116176 0.045170605 0.32500002 4278790931
0.039051246 0.045031615 0.324 4279451682
0.039979823 0.044892631 0.32300001 4279254555
0.041028924 0.044892631 0.32300001 4278992664
0.04194776 0.044753648 0.32200003 4278992664
0.04299362 0.044753648 0.32200003 4279190043
0.044039473 0.044753648 0.32200003 4278861080
0.044945311 0.044614658 0.32100001 4278198535
0.045987923 0.044614658 0.32100001 4279516451
0.047030531 0.044614658 0.32100001 4278796570
0.047923379 0.044475675 0.32000002 4278862363
0.048962738 0.044475675 0.32000002 4278993949
0.049845841 0.044336684 0.31900001 4278796570
0.05072245 0.044197701 0.31800002 4278731289
0.051755317 0.044197701 0.31800002 4278665496
0.052788179 0.044197701 0.31800002 4278664980
0.053651791 0.04405871 0.317 4278664210
0.054681409 0.04405871 0.317 4278729494
0.055711027 0.04405871 0.317 4278991896
0.056740645 0.04405871 0.317 4279185941
0.0047106021 0.050209161 0.35300002 4279836682
0.0058405544 0.050066926 0.35200003 4279442953
0.0069640102 0.04992469 0.35100001 4279377162
0.0080578821 0.049640216 0.34900001 4279180812
0.0091387611 0.049355745 0.347 4278720515
0.010236233 0.049213514 0.34600002 4278590724
0.011327211 0.049071278 0.34500003 4279513109
0.012447771 0.049071278 0.34500003 4279384344
0.013529002 0.048929039 0.34400001 4279319578
0.014646315 0.048929039 0.34400001 4279188762
0.015717804 0.048786808 0.34300002 4279057176
0.016831869 0.048786808 0.34300002 4279123482
0.017945932 0.048786808 0.34300002 4279124252
0.019004429 0.048644569 0.34200001 4279058972
0.020115245 0.048644569 0.34200001 4278664984
0.021163998 0.048502333 0.34100002 4278928156
0.022206252 0.048360098 0.34 4278928156
0.023242014 0.048217863 0.33900002 4278928156
0.024271278 0.048075628 0.33800003 4279059742
0.025294045 0.047933392 0.33700001 4278928156
0.026310319 0.047791157 0.33600003 4278928156
0.027320093 0.047648918 0.33500001 4278928156
0.028323375 0.047506686 0.33400002 4278993177
0.029320156 0.047364447 0.333 4279058970
0.030310445 0.047222216 0.33200002 4279058970
0.031388782 0.047222216 0.33200002 4279058970
0.032369327 0.04707998 0.33100003 4279124763
0.033343375 0.046937741 0.33000001 4278927384
0.034310929 0.04679551 0.32900003 4279124252
0.035164446 0.046511035 0.32700002 4279320861
0.036115758 0.0463688 0.32600001 4279452447
0.037060574 0.046226565 0.32500002 4279517473
0.037998892 0.046084326 0.324 4279121947
0.039051246 0.046084326 0.324 4278988310
0.039979823 0.045942094 0.32300001 4278196996
0.041028924 0.045942094 0.32300001 4278195712
0.04194776 0.045799859 0.32200003 4278196997
0.04299362 0.045799859 0.32200003 4278527759
0.044039473 0.045799859 0.32200003 4279252506
0.044945311 0.04565762 0.32100001 4278330380
0.045987923 0.04565762 0.32100001 4279450912
0.047030531 0.04565762 0.32100001 4279124765
0.047923379 0.045515388 0.32000002 4279058970
0.048962738 0.045515388 0.32000002 4278796568
0.049845841 0.045373149 0.31900001 4278862361
0.050881952 0.045373149 0.31900001 4278468117
0.051755317 0.045230918 0.31800002 4278665496
0.052788179 0.045230918 0.31800002 4278664982
0.053651791 0.045088679 0.317 4278795798
0.054681409 0.045088679 0.317 4278663701
0.055711027 0.045088679 0.317 4278925849
0.056740645 0.045088679 0.317 4279447580
0.0091387611 0.050483182 0.347 4279179018
0.010236233 0.050337698 0.34600002 4279244811
0.011327211 0.050192215 0.34500003 4278982152
0.012447771 0.050192215 0.34500003 4278982920
0.013529002 0.050046727 0.34400001 4278852361
0.014646315 0.050046727 0.34400001 4278788105
0.015763627 0.050046727 0.34400001 4279118351
0.016831869 0.049901247 0.34300002 4279448600
0.017945932 0.049901247 0.34300002 4279909664
0.019059997 0.049901247 0.34300002 4279582750
0.020115245 0.04975576 0.34200001 4279386141
0.021163998 0.049610276 0.34100002 4279452447
0.022271566 0.049610276 0.34100002 4279452447
0.023310574 0.049464788 0.34 4279255838
0.024271278 0.049173824 0.33800003 4279255838
0.025294045 0.049028337 0.33700001 4279124765
0.026310319 0.048882853 0.33600003 4279124765
0.027320093 0.048737366 0.33500001 4278993179
0.028323375 0.048591882 0.33400002 4279124763
0.029320156 0.048446395 0.333 4278993177
0.03040174 0.048446395 0.333 4278993177
0.031388782 0.048300914 0.33200002 4279124763
0.032369327 0.048155431 0.33100003 4278993177
0.033343375 0.048009943 0.33000001 4278795798
0.034310929 0.047864459 0.32900003 4279058970
0.035164446 0.047573492 0.32700002 4278993177
0.036115758 0.047428004 0.32600001 4278796568
0.037060574 0.047282521 0.32500002 4278862363
0.037998892 0.047137033 0.324 4278796570
0.039051246 0.047137033 0.324 4279124765
0.039979823 0.046991549 0.32300001 4278992666
0.040901903 0.046846069 0.32200003 4279057176
0.04194776 0.046846069 0.32200003 4279582750
0.04299362 0.046846069 0.32200003 4279384090
0.044039473 0.046846069 0.32200003 4279185689
0.044945311 0.046700582 0.32100001 4278858261
0.045987923 0.046700582 0.32100001 4279254301
0.047030531 0.046700582 0.32100001 4278993177
0.047923379 0.046555098 0.32000002 4278927382
0.048962738 0.046555098 0.32000002 4278862359
0.049845841 0.046409611 0.31900001 4278664980
0.050881952 0.046409611 0.31900001 4278796566
0.051755317 0.046264127 0.31800002 4278862359
0.052788179 0.046264127 0.31800002 4278795796
0.053821042 0.046264127 0.31800002 4278664210
0.054681409 0.046118639 0.317 4278662929
0.055711027 0.046118639 0.317 4278727957
0.056740645 0.046118639 0.317 4281091893
0.011327211 0.051313158 0.34500003 4279309832
0.012447771 0.051313158 0.34500003 4279309834
0.013568331 0.051313158 0.34500003 4279244041
0.014646315 0.051164422 0.34400001 4279113223
0.015763627 0.051164422 0.34400001 4279311115
0.016880941 0.051164422 0.34400001 4279442701
0.017945932 0.05101569 0.34300002 4279904535
0.019059997 0.05101569 0.34300002 4280630309
0.020115245 0.050866954 0.34200001 4283132758
0.021226062 0.050866954 0.34200001 4282212171
0.022271566 0.050718222 0.34100002 4280172588
0.023310574 0.050569486 0.34 4279450148
0.024343086 0.050420754 0.33900002 4279648039
0.025294045 0.050123286 0.33700001 4279845416
0.026310319 0.049974553 0.33600003 4279714600
0.027320093 0.049825817 0.33500001 4279781158
0.028323375 0.049677085 0.33400002 4279386654
0.029408207 0.049677085 0.33400002 4279584033
0.03040174 0.049528349 0.333 4279320861
0.031388782 0.049379617 0.33200002 4279190558
0.032369327 0.049230885 0.33100003 4279124765
0.033343375 0.049082149 0.33000001 4279124765
0.034310929 0.048933417 0.32900003 4279124765
0.035164446 0.048635948 0.32700002 4279058972
0.036115758 0.048487213 0.32600001 4279058970
0.037060574 0.04833848 0.32500002 4278796568
0.037998892 0.048189744 0.324 4278928154
0.038930718 0.048041012 0.32300001 4278862361
0.039979823 0.048041012 0.32300001 4278928154
0.040901903 0.04789228 0.32200003 4278993177
0.04194776 0.04789228 0.32200003 4279058970
0.04299362 0.04789228 0.32200003 4279124250
0.043902703 0.047743544 0.32100001 4279320861
0.044945311 0.047743544 0.32100001 4279320859
0.045987923 0.047743544 0.32100001 4279190041
0.047030531 0.047743544 0.32100001 4278730003
0.047923379 0.047594812 0.32000002 4278927382
0.048962738 0.047594812 0.32000002 4279059738
0.050002102 0.047594812 0.32000002 4278928152
0.050881952 0.047446076 0.31900001 4278599187
0.051918067 0.047446076 0.31900001 4278993175
0.052788179 0.047297344 0.31800002 4278730003
0.053821042 0.047297344 0.31800002 4278466833
0.054853909 0.047297344 0.31800002 4278662931
0.055711027 0.047148608 0.317 4278661396
0.056740645 0.047148608 0.317 4283920479
0.012447771 0.052434094 0.34500003 4279573004
0.013568331 0.052434094 0.34500003 4279244039
0.014688892 0.052434094 0.34500003 4279309832
0.015763627 0.05228211 0.34400001 4279244039
0.016880941 0.05228211 0.34400001 4279770383
0.017998252 0.05228211 0.34400001 4279770383
0.019059997 0.052130129 0.34300002 4281285677
0.020174062 0.052130129 0.34300002 4285367671
0.021226062 0.051978145 0.34200001 4285632640
0.022336878 0.051978145 0.34200001 4286289288
0.023447696 0.051978145 0.34200001 4286157702
0.024558511 0.051978145 0.34200001 4286093191
0.025669327 0.051978145 0.34200001 4285172091
0.026310319 0.05106625 0.33600003 4282803541
0.027320093 0.050914265 0.33500001 4280369965
0.028323375 0.050762285 0.33400002 4279252254
0.029408207 0.050762285 0.33400002 4278990111
0.03040174 0.050610296 0.333 4279582246
0.031388782 0.050458316 0.33200002 4279911463
0.032467119 0.050458316 0.33200002 4279845670
0.033444416 0.050306335 0.33100003 4279517475
0.034415215 0.050154351 0.33000001 4279583781
0.035487056 0.050154351 0.33000001 4279452195
0.036004975 0.049394436 0.32500002 4279649572
0.037060574 0.049394436 0.32500002 4279255584
0.037998892 0.049242452 0.324 4279452963
0.038930718 0.049090471 0.32300001 4279190043
0.039856046 0.04893849 0.32200003 4279256349
0.040901903 0.04893849 0.32200003 4279190556
0.04194776 0.04893849 0.32200003 4279124763
0.04299362 0.04893849 0.32200003 4279190556
0.043902703 0.048786502 0.32100001 4279124250
0.044945311 0.048786502 0.32100001 4279124250
0.045987923 0.048786502 0.32100001 4279124250
0.047030531 0.048786502 0.32100001 4278993175
0.047923379 0.048634522 0.32000002 4279058968
0.048962738 0.048634522 0.32000002 4278862359
0.050002102 0.048634522 0.32000002 4278533394
0.050881952 0.048482537 0.31900001 4278599189
0.051918067 0.048482537 0.31900001 4278599189
0.052954178 0.048482537 0.31900001 4278597906
0.053821042 0.048330557 0.31800002 4278532113
0.054853909 0.048330557 0.31800002 4279056152
0.055886775 0.048330557 0.31800002 4278593552
0.039856046 0.049984701 0.32200003 4279517475
0.040901903 0.049984701 0.32200003 4279649572
0.04194776 0.049984701 0.32200003 4279583779
0.042860094 0.049829468 0.32100001 4279452193
0.043902703 0.049829468 0.32100001 4279583779
0.044945311 0.049829468 0.32100001 4279452963
0.045987923 0.049829468 0.32100001 4279321377
0.047030531 0.049829468 0.32100001 4279124511
0.048073135 0.049829468 0.32100001 4279190304
0.048962738 0.049674239 0.32000002 4279124252
0.050002102 0.049674239 0.32000002 4278795800
0.051041458 0.049674239 0.32000002 4278927386
0.051918067 0.049519002 0.31900001 4279058972
0.052954178 0.049519002 0.31900001 4279123482
0.05399029 0.049519002 0.31900001 4278793750
0.054853909 0.049363773 0.31800002 4279382555
0.055886775 0.049363773 0.31800002 4282605130
0.042860094 0.050872426 0.32100001 4280764212
0.043902703 0.050872426 0.32100001 4279778080
0.044945311 0.050872426 0.32100001 4279252506
0.045987923 0.050872426 0.32100001 4279384092
0.047030531 0.050872426 0.32100001 4279844643
0.048073135 0.050872426 0.32100001 4279581984
0.048962738 0.050713949 0.32000002 4279910947
0.050002102 0.050713949 0.32000002 4279582496
0.051041458 0.050713949 0.32000002 4279450910
0.051918067 0.050555464 0.31900001 4279516703
0.052954178 0.050555464 0.31900001 4279318810
0.05399029 0.050555464 0.31900001 4279055125
0.055026405 0.050555464 0.31900001 4282803023
0.048962738 0.051753663 0.32000002 4284249953
0.050002102 0.051753663 0.32000002 4283329365
0.051041458 0.051753663 0.32000002 4282276679
0.052080821 0.051753663 0.32000002 4282079298
0.052954178 0.051591929 0.31900001 4283855199
0.05399029 0.051591929 0.31900001 4284973426
0.027195835 0.042659622 0.33610192 4294967295
0.027195835 0.042659622 0.33610192 4294901760
0.027183734 0.042162426 0.33605045 4294901760
0.027171632 0.041665226 0.33599898 4294901760
0.027159533 0.04116803 0.33594754 4294901760
0.027147431 0.040670831 0.33589607 4294901760
0.027135329 0.040173635 0.33584461 4294901760
0.027123228 0.039676435 0.33579314 4294901760
0.027111128 0.039179239 0.3357417 4294901760
0.027099026 0.038682044 0.33569023 4294901760
0.027086925 0.038184844 0.33563876 4294901760
0.027074823 0.037687648 0.33558729 4294901760
0.027062722 0.037190448 0.33553585 4294901760
0.027050622 0.036693253 0.33548439 4294901760
0.02703852 0.036196057 0.33543292 4294901760
0.027026419 0.035698857 0.33538145 4294901760
0.027014317 0.035201661 0.33532998 4294901760
0.027002217 0.034704462 0.33527854 4294901760
0.026990116 0.034207266 0.33522707 4294901760
0.026978014 0.033710066 0.3351756 4294901760
0.026965912 0.03321287 0.33512414 4294901760
0.026953811 0.032715671 0.3350727 4294901760
0.026941711 0.032218475 0.33502123 4294901760
0.026929609 0.031721279 0.33496976 4294901760
0.026917508 0.031224079 0.33491829 4294901760
0.026905406 0.030726884 0.33486685 4294901760
0.026893307 0.030229686 0.33481538 4294901760
0.026881205 0.029732488 0.33476391 4294901760
0.026869103 0.02923529 0.33471245 4294901760
0.026857002 0.028738093 0.33466098 4294901760
0.0268449 0.028240897 0.33460954 4294901760
0.0268328 0.027743697 0.33455807 4294901760
0.026820699 0.027246501 0.3345066 4294901760
0.026808597 0.026749304 0.33445513 4294901760
0.026796496 0.026252106 0.33440369 4294901760
0.026784394 0.025754908 0.33435223 4294901760
0.026772294 0.025257712 0.33430076 4294901760
0.026760193 0.024760513 0.33424929 4294901760
0.026748091 0.024263317 0.33419785 4294901760
0.026735989 0.023766119 0.33414638 4294901760
0.02672389 0.023268923 0.33409491 4294901760
0.026711788 0.022771724 0.33404344 4294901760
0.026699686 0.022274528 0.33399197 4294901760
0.026687585 0.02177733 0.33394054 4294901760
0.026675483 0.021280132 0.33388907 4294901760
0.026663383 0.020782935 0.3338376 4294901760
0.026651282 0.020285739 0.33378613 4294901760
0.02663918 0.019788539 0.33373469 4294901760
0.026627079 0.019291343 0.33368322 4294901760
0.026614979 0.018794145 0.33363175 4294901760
0.026602877 0.018296948 0.33358029 4294901760
0.026590776 0.01779975 0.33352882 4294901760
0.026578674 0.017302552 0.33347738 4294901760
0.026566572 0.016805356 0.33342591 4294901760
0.026554473 0.016308159 0.33337444 4294901760
0.026542371 0.015810959 0.33332297 4294901760
0.02653027 0.015313761 0.33327153 4294901760
0.026518168 0.014816565 0.33322006 4294901760
0.026506068 0.014319368 0.3331686 4294901760
0.026493967 0.013822172 0.33311713 4294901760
0.026481865 0.013324974 0.33306569 4294901760
0.026469763 0.012827775 0.33301422 4294901760
0.026457662 0.012330577 0.33296275 4294901760
0.026445562 0.011833381 0.33291128 4294901760
0.02643346 0.011336185 0.33285981 4294901760
0.026421359 0.010838985 0.33280838 4294901760
0.026409257 0.01034179 0.33275691 4294901760
0.026397157 0.00984459 0.33270544 4294901760
0.026385056 0.0093473941 0.33265397 4294901760
0.026372954 0.0088501945 0.33260253 4294901760
0.026360853 0.0083529986 0.33255106 4294901760
0.026348751 0.0078558028 0.33249959 4294901760
0.026336651 0.0073586032 0.33244812 4294901760
0.02632455 0.0068614036 0.33239669 4294901760
0.026312448 0.0063642077 0.33234522 4294901760
0.026300346 0.0058670118 0.33229375 4294901760
0.026288245 0.005369816 0.33224228 4294901760
0.026276145 0.0048726164 0.33219081 4294901760
0.026264044 0.0043754205 0.33213937 4294901760
0.026251942 0.0038782246 0.3320879 4294901760
0.02623984 0.003381025 0.33203644 4294901760
0.026227741 0.0028838255 0.33198497 4294901760
0.026215639 0.0023866296 0.33193353 4294901760
0.026203537 0.0018894337 0.33188206 4294901760
0.026191436 0.0013922341 0.33183059 4294901760
0.026179336 0.00089503825 0.33177912 4294901760
0.026167234 0.00039783865 0.33172768 4294901760
0.026155133 -9.9357218e-05 0.33167621 4294901760
0.026143031 -0.00059655681 0.33162475 4294901760
0.02613093 -0.0010937527 0.33157328 4294901760
0.02611883 -0.0015909486 0.33152181 4294901760
0.026106728 -0.0020881444 0.33147037 4294901760
0.026094627 -0.0025853477 0.3314189 4294901760
0.026082525 -0.0030825436 0.33136743 4294901760
0.026070423 -0.0035797395 0.33131596 4294901760
0.026058324 -0.0040769354 0.33126453 4294901760
0.026046222 -0.0045741349 0.33121306 4294901760
0.02603412 -0.0050713308 0.33116159 4294901760
0.026022019 -0.0055685304 0.33111012 4294901760
0.026009919 -0.0060657263 0.33105868 4294901760
0.025997818 -0.0065629259 0.33100721 4294901760
0.025985716 -0.0070601217 0.33095574 4294901760
0.027195835 0.042659622 0.33610192 4278255360
0.027579002 0.042683452 0.33578157 4278255360
0.027962171 0.042707283 0.33546126 4278255360
0.028345337 0.042731114 0.33514091 4278255360
0.028728504 0.042754941 0.33482057 4278255360
0.02911167 0.042778771 0.33450025 4278255360
0.029494839 0.042802602 0.33417991 4278255360
0.029878005 0.042826433 0.33385956 4278255360
0.030261172 0.042850263 0.33353922 4278255360
0.03064434 0.042874094 0.3332189 4278255360
0.031027507 0.042897925 0.33289856 4278255360
0.031410672 0.042921752 0.33257821 4278255360
0.03179384 0.042945582 0.3322579 4278255360
0.032177009 0.042969413 0.33193755 4278255360
0.032560177 0.042993244 0.33161721 4278255360
0.032943342 0.043017074 0.33129689 4278255360
0.03332651 0.043040905 0.33097655 4278255360
0.033709675 0.043064736 0.3306562 4278255360
0.034092844 0.043088563 0.33033589 4278255360
0.034476012 0.043112393 0.33001554 4278255360
0.034859177 0.043136224 0.32969519 4278255360
0.035242345 0.043160055 0.32937488 4278255360
0.03562551 0.043183886 0.32905453 4278255360
0.036008678 0.043207716 0.32873419 4278255360
0.036391847 0.043231547 0.32841384 4278255360
0.036775015 0.043255374 0.32809353 4278255360
0.03715818 0.043279205 0.32777318 4278255360
0.037541348 0.043303035 0.32745284 4278255360
0.037924513 0.043326866 0.32713252 4278255360
0.038307682 0.043350697 0.32681218 4278255360
0.03869085 0.043374527 0.32649183 4278255360
0.039074015 0.043398358 0.32617152 4278255360
0.039457183 0.043422189 0.32585117 4278255360
0.039840352 0.043446016 0.32553083 4278255360
0.040223517 0.043469846 0.32521051 4278255360
0.040606685 0.043493677 0.32489017 4278255360
0.040989853 0.043517508 0.32456982 4278255360
0.041373018 0.043541338 0.32424948 4278255360
0.041756187 0.043565169 0.32392916 4278255360
0.042139351 0.043589 0.32360882 4278255360
0.04252252 0.043612827 0.32328847 4278255360
0.042905688 0.043636657 0.32296816 4278255360
0.043288853 0.043660488 0.32264781 4278255360
0.043672021 0.043684319 0.32232746 4278255360
0.044055186 0.043708149 0.32200715 4278255360
0.044438355 0.04373198 0.3216868 4278255360
0.044821523 0.043755811 0.32136646 4278255360
0.045204692 0.043779638 0.32104614 4278255360
0.045587856 0.043803468 0.3207258 4278255360
0.045971025 0.043827299 0.32040545 4278255360
0.04635419 0.04385113 0.32008511 4278255360
0.046737358 0.04387496 0.31976479 4278255360
0.047120526 0.043898791 0.31944445 4278255360
0.047503691 0.043922622 0.3191241 4278255360
0.047886863 0.043946449 0.31880379 4278255360
0.048270028 0.043970279 0.31848344 4278255360
0.048653193 0.04399411 0.3181631 4278255360
0.049036361 0.044017941 0.31784278 4278255360
0.04941953 0.044041771 0.31752244 4278255360
0.049802694 0.044065602 0.31720209 4278255360
0.050185863 0.044089433 0.31688178 4278255360
0.050569028 0.04411326 0.31656143 4278255360
0.050952196 0.04413709 0.31624109 4278255360
0.051335365 0.044160921 0.31592077 4278255360
0.051718533 0.044184752 0.31560043 4278255360
0.052101698 0.044208582 0.31528008 4278255360
0.052484866 0.044232413 0.31495973 4278255360
0.052868031 0.044256244 0.31463942 4278255360
0.053251199 0.044280075 0.31431907 4278255360
0.053634368 0.044303901 0.31399873 4278255360
0.054017533 0.044327732 0.31367841 4278255360
0.054400697 0.044351563 0.31335807 4278255360
0.05478387 0.044375394 0.31303772 4278255360
0.055167034 0.044399224 0.31271741 4278255360
0.055550203 0.044423055 0.31239706 4278255360
0.055933371 0.044446886 0.31207672 4278255360
0.056316536 0.044470713 0.3117564 4278255360
0.056699701 0.044494543 0.31143606 4278255360
0.057082869 0.044518374 0.31111571 4278255360
0.057466038 0.044542205 0.31079537 4278255360
0.057849206 0.044566035 0.31047505 4278255360
0.058232374 0.044589866 0.31015471 4278255360
0.058615535 0.044613697 0.30983436 4278255360
0.058998704 0.044637524 0.30951405 4278255360
0.059381872 0.044661354 0.3091937 4278255360
0.059765041 0.044685185 0.30887336 4278255360
0.060148209 0.044709016 0.30855304 4278255360
0.060531378 0.044732846 0.30823269 4278255360
0.060914539 0.044756677 0.30791235 4278255360
0.061297707 0.044780508 0.30759203 4278255360
0.061680876 0.044804335 0.30727169 4278255360
0.062064044 0.044828165 0.30695134 4278255360
0.062447213 0.044851996 0.30663103 4278255360
0.062830381 0.044875827 0.30631068 4278255360
0.063213542 0.044899657 0.30599034 4278255360
0.063596711 0.044923488 0.30566999 4278255360
0.063979879 0.044947319 0.30534968 4278255360
0.064363047 0.044971146 0.30502933 4278255360
0.064746216 0.044994976 0.30470899 4278255360
0.065129377 0.045018807 0.30438867 4278255360
0.065512545 0.045042638 0.30406833 4278255360
0.027195835 0.042659622 0.33610192 4278190335
0.027517464 0.042612471 0.33648184 4278190335
0.027839093 0.04256532 0.33686173 4278190335
0.028160723 0.042518172 0.33724165 4278190335
0.028482351 0.042471021 0.33762157 4278190335
0.02880398 0.04242387 0.33800146 4278190335
0.029125609 0.042376719 0.33838138 4278190335
0.029447237 0.042329568 0.3387613 4278190335
0.029768867 0.042282421 0.33914119 4278190335
0.030090496 0.04223527 0.33952111 4278190335
0.030412124 0.042188119 0.33990103 4278190335
0.030733753 0.042140968 0.34028092 4278190335
0.031055382 0.042093821 0.34066084 4278190335
0.03137701 0.04204667 0.34104076 4278190335
0.03169864 0.041999519 0.34142065 4278190335
0.032020271 0.041952368 0.34180057 4278190335
0.032341897 0.041905217 0.34218049 4278190335
0.032663528 0.04185807 0.34256038 4278190335
0.032985155 0.041810919 0.3429403 4278190335
0.033306785 0.041763768 0.34332022 4278190335
0.033628412 0.041716617 0.34370011 4278190335
0.033950042 0.041669466 0.34408003 4278190335
0.034271672 0.041622318 0.34445995 4278190335
0.034593299 0.041575167 0.34483984 4278190335
0.034914929 0.041528016 0.34521976 4278190335
0.03523656 0.041480865 0.34559968 4278190335
0.035558186 0.041433714 0.34597957 4278190335
0.035879817 0.041386567 0.34635949 4278190335
0.036201444 0.041339416 0.34673941 4278190335
0.036523074 0.041292265 0.3471193 4278190335
0.036844701 0.041245114 0.34749922 4278190335
0.037166331 0.041197963 0.34787914 4278190335
0.037487961 0.041150816 0.34825903 4278190335
0.037809588 0.041103665 0.34863895 4278190335
0.038131218 0.041056514 0.34901887 4278190335
0.038452849 0.041009363 0.34939876 4278190335
0.038774475 0.040962216 0.34977868 4278190335
0.039096106 0.040915065 0.3501586 4278190335
0.039417733 0.040867914 0.35053849 4278190335
0.039739363 0.040820763 0.35091841 4278190335
0.04006099 0.040773612 0.35129833 4278190335
0.04038262 0.040726464 0.35167822 4278190335
0.04070425 0.040679313 0.35205814 4278190335
0.041025877 0.040632162 0.35243806 4278190335
0.041347507 0.040585011 0.35281795 4278190335
0.041669138 0.04053786 0.35319787 4278190335
0.041990764 0.040490713 0.35357779 4278190335
0.042312395 0.040443562 0.35395771 4278190335
0.042634021 0.040396411 0.3543376 4278190335
0.042955652 0.04034926 0.35471752 4278190335
0.043277279 0.040302113 0.35509741 4278190335
0.043598909 0.040254962 0.35547733 4278190335
0.043920539 0.040207811 0.35585725 4278190335
0.044242166 0.04016066 0.35623717 4278190335
0.044563796 0.040113509 0.35661706 4278190335
0.044885427 0.040066361 0.35699698 4278190335
0.045207053 0.04001921 0.35737687 4278190335
0.04552868 0.039972059 0.35775679 4278190335
0.04585031 0.039924908 0.35813671 4278190335
0.046171941 0.039877757 0.35851663 4278190335
0.046493568 0.03983061 0.35889652 4278190335
0.046815198 0.039783459 0.35927644 4278190335
0.047136828 0.039736308 0.35965636 4278190335
0.047458455 0.039689157 0.36003625 4278190335
0.047780085 0.039642006 0.36041617 4278190335
0.048101716 0.039594859 0.36079609 4278190335
0.048423342 0.039547708 0.36117598 4278190335
0.048744973 0.039500557 0.3615559 4278190335
0.049066603 0.039453406 0.36193582 4278190335
0.04938823 0.039406255 0.36231571 4278190335
0.049709857 0.039359108 0.36269563 4278190335
0.050031487 0.039311957 0.36307555 4278190335
0.050353117 0.039264806 0.36345544 4278190335
0.050674744 0.039217655 0.36383536 4278190335
0.050996374 0.039170504 0.36421528 4278190335
0.051318005 0.039123356 0.36459517 4278190335
0.051639631 0.039076205 0.36497509 4278190335
0.051961258 0.039029054 0.36535501 4278190335
0.052282888 0.038981903 0.36573491 4278190335
0.052604519 0.038934756 0.36611483 4278190335
0.052926145 0.038887605 0.36649475 4278190335
0.053247776 0.038840454 0.36687464 4278190335
0.053569406 0.038793303 0.36725456 4278190335
0.053891033 0.038746156 0.36763448 4278190335
0.05421266 0.038699005 0.36801437 4278190335
0.054534294 0.038651854 0.36839429 4278190335
0.05485592 0.038604703 0.36877421 4278190335
0.055177547 0.038557552 0.3691541 4278190335
0.055499181 0.038510405 0.36953402 4278190335
0.055820808 0.038463254 0.36991394 4278190335
0.056142434 0.038416103 0.37029383 4278190335
0.056464069 0.038368952 0.37067375 4278190335
0.056785695 0.038321801 0.37105367 4278190335
0.057107322 0.038274653 0.37143356 4278190335
0.057428952 0.038227502 0.37181348 4278190335
0.057750583 0.038180351 0.3721934 4278190335
0.058072209 0.0381332 0.37257329 4278190335
0.05839384 0.038086049 0.37295321 4278190335
0.05871547 0.038038902 0.37333313 4278190335
0.059037097 0.037991751 0.37371302 4278190335
0.059358723 0.0379446 0.37409294 4278190335
0.027195835 0.042659622 0.33610192 4294967295
0.025266062 0.042942524 0.33382246 4294967295
0.023336289 0.043225426 0.331543 4294967295
0.021406516 0.043508325 0.32926354 4294967295
0.019476743 0.043791227 0.32698408 4294967295
0.01754697 0.044074129 0.32470462 4294967295
0.015617197 0.044357032 0.32242516 4294967295
0.013687423 0.04463993 0.3201457 4294967295
0.011757651 0.044922832 0.31786624 4294967295
0.0098278765 0.045205735 0.31558678 4294967295
0.0078981034 0.045488637 0.31330732 4294967295
0.0059683323 0.045771535 0.31102785 4294967295
0.0040385593 0.046054438 0.30874839 4294967295
0.0021087863 0.04633734 0.30646893 4294967295
0.00017901137 0.046620242 0.30418947 4294967295
-0.0017507616 0.046903145 0.30190998 4294967295
-0.0036805328 0.047186043 0.29963052 4294967295
-0.0056103077 0.047468945 0.29735106 4294967295
-0.0075400826 0.047751848 0.2950716 4294967295
-0.0094698537 0.04803475 0.29279214 4294967295
-0.011399629 0.048317648 0.29051268 4294967295
-0.0133294 0.048600551 0.28823322 4294967295
-0.015259171 0.048883453 0.28595376 4294967295
-0.017188946 0.049166355 0.2836743 4294967295
-0.019118717 0.049449258 0.28139484 4294967295
-0.021048492 0.049732156 0.27911538 4294967295
-0.022978263 0.050015058 0.27683592 4294967295
-0.024908042 0.050297961 0.27455646 4294967295
-0.026837813 0.050580859 0.272277 4294967295
-0.028767584 0.050863761 0.26999754 4294967295
-0.030697359 0.051146664 0.26771808 4294967295
-0.032627128 0.051429566 0.26543862 4294967295
-0.034556903 0.051712468 0.26315916 4294967295
-0.036486678 0.051995367 0.2608797 4294967295
-0.038416453 0.052278269 0.25860023 4294967295
-0.04034622 0.052561171 0.25632077 4294967295
-0.042276002 0.052844074 0.25404131 4294967295
-0.04420577 0.053126976 0.25176185 4294967295
-0.046135545 0.053409874 0.24948239 4294967295
-0.048065312 0.053692777 0.24720293 4294967295
-0.049995095 0.053975679 0.24492347 4294967295
-0.051924862 0.054258578 0.24264401 4294967295
-0.053854637 0.05454148 0.24036455 4294967295
-0.055784412 0.054824382 0.23808509 4294967295
-0.057714179 0.055107284 0.23580563 4294967295
-0.059643954 0.055390187 0.23352617 4294967295
-0.061573729 0.055673085 0.23124669 4294967295
-0.063503504 0.055955987 0.22896723 4294967295
-0.065433271 0.05623889 0.22668779 4294967295
-0.067363046 0.056521792 0.22440831 4294967295
