# .PCD v0.7 - Point Cloud Data file format
VERSION 0.7
FIELDS x y z rgb
SIZE 4 4 4 4
TYPE F F F U
COUNT 1 1 1 1
WIDTH 793
HEIGHT 1
VIEWPOINT 0 0 0 1 0 0 0
POINTS 793
DATA ascii
0.049377073 0.073694497 0.31600001 4281022766
0.054336421 0.074484758 0.31500003 4281420593
0.0533133 0.075508229 0.31500003 4281156653
0.054336421 0.075508229 0.31500003 4280305446
0.050243936 0.076531693 0.31500003 4281218601
0.052290183 0.076531693 0.31500003 4280697385
0.0533133 0.076531693 0.31500003 4280239653
0.054336421 0.076531693 0.31500003 4279911715
0.049220819 0.077555157 0.31500003 4281023018
0.050243936 0.077555157 0.31500003 4281023020
0.051267058 0.077555157 0.31500003 4280498469
0.052290183 0.077555157 0.31500003 4279779100
0.0533133 0.077555157 0.31500003 4279582748
0.054163922 0.077308945 0.31400001 4279649824
0.050243936 0.078578629 0.31500003 4280498471
0.051267058 0.078578629 0.31500003 4279975711
0.052290183 0.078578629 0.31500003 4279255064
0.0533133 0.078578629 0.31500003 4279321627
0.054163922 0.078329168 0.31400001 4279321627
0.050084431 0.079349384 0.31400001 4280370469
0.051104303 0.079349384 0.31400001 4279582748
0.052290183 0.079602093 0.31500003 4279256349
0.049064562 0.080369607 0.31400001 4280826151
0.050084431 0.080369607 0.31400001 4279516955
0.051104303 0.080369607 0.31400001 4279320859
0.052290183 0.080625564 0.31500003 4278993947
0.048908304 0.081130624 0.31300002 4280565545
0.049924929 0.081130624 0.31300002 4279451930
0.051104303 0.081389822 0.31400001 4279255834
0.047738668 0.081885129 0.31200001 4281090858
0.048908304 0.082147583 0.31300002 4280698667
0.049924929 0.082147583 0.31300002 4279386650
0.050941553 0.082147583 0.31300002 4279190554
0.051958181 0.082147583 0.31300002 4279256347
0.047585662 0.082633153 0.31100002 4281685046
0.048752047 0.082898855 0.31200001 4280568616
0.049765419 0.082898855 0.31200001 4279321629
0.050778799 0.082898855 0.31200001 4279453728
0.046425767 0.083374672 0.31 4281090860
0.047585662 0.08364363 0.31100002 4281948988
0.048595794 0.08364363 0.31100002 4280108065
0.049605917 0.08364363 0.31100002 4279190556
0.050616048 0.08364363 0.31100002 4279454500
0.051460173 0.083374672 0.31 4279125795
0.052636303 0.08364363 0.31100002 4279388453
0.04743265 0.084381893 0.31 4280897583
0.048595794 0.0846541 0.31100002 4280042272
0.049605917 0.0846541 0.31100002 4279585312
0.050616048 0.0846541 0.31100002 4279586082
0.051460173 0.084381893 0.31 4279257121
0.044412009 0.085389122 0.31 4282601017
0.045418892 0.085389122 0.31 4281946939
0.046425767 0.085389122 0.31 4280961069
0.04743265 0.085389122 0.31 4280764714
0.048439533 0.085389122 0.31 4280831018
0.049446411 0.085389122 0.31 4279782432
0.05045329 0.085389122 0.31 4279454496
0.051460173 0.085389122 0.31 4279849770
0.052297805 0.085113674 0.30900002 4279257117
0.053301439 0.085113674 0.30900002 4279845920
0.044412009 0.086396337 0.31 4282666297
0.045418892 0.086396337 0.31 4281947450
0.046425767 0.086396337 0.31 4281290034
0.04743265 0.086396337 0.31 4281620536
0.048439533 0.086396337 0.31 4281489720
0.049446411 0.086396337 0.31 4280176938
0.05045329 0.086396337 0.31 4279783977
0.051294174 0.08611764 0.30900002 4284980088
0.052297805 0.08611764 0.30900002 4280505135
0.053301439 0.08611764 0.30900002 4279584031
0.054305073 0.08611764 0.30900002 4279978278
0.044412009 0.087403558 0.31 4282204199
0.045418892 0.087403558 0.31 4281157675
0.046425767 0.087403558 0.31 4281751609
0.04743265 0.087403558 0.31 4281950271
0.048439533 0.087403558 0.31 4281555513
0.049446411 0.087403558 0.31 4280570928
0.05029054 0.087121613 0.30900002 4279717672
0.051294174 0.087121613 0.30900002 4280045867
0.052297805 0.087121613 0.30900002 4284715887
0.053301439 0.087121613 0.30900002 4278992664
0.054305073 0.087121613 0.30900002 4279519521
0.055129718 0.086839668 0.30800003 4280109610
0.044412009 0.08841078 0.31 4282138660
0.045418892 0.08841078 0.31 4281948218
0.046425767 0.08841078 0.31 4281883193
0.04743265 0.08841078 0.31 4281817913
0.048439533 0.08841078 0.31 4282015292
0.049286909 0.088125587 0.30900002 4281687612
0.05029054 0.088125587 0.30900002 4280044584
0.051294174 0.088125587 0.30900002 4279453730
0.052297805 0.088125587 0.30900002 4284651377
0.053128943 0.087840393 0.30800003 4279915051
0.054129332 0.087840393 0.30800003 4278797082
0.055129718 0.087840393 0.30800003 4279651107
0.056130096 0.087840393 0.30800003 4279781410
0.044555277 0.089706458 0.31100002 4281939998
0.045565408 0.089706458 0.31100002 4282079804
0.046575531 0.089706458 0.31100002 4282015292
0.04743265 0.089418001 0.31 4282081085
0.048439533 0.089418001 0.31 4282081085
0.049286909 0.08912956 0.30900002 4282016062
0.05029054 0.08912956 0.30900002 4281359161
0.051294174 0.08912956 0.30900002 4279980074
0.052128557 0.088841125 0.30800003 4279190558
0.053128943 0.088841125 0.30800003 4280310323
0.054129332 0.088841125 0.30800003 4279586600
0.055129718 0.088841125 0.30800003 4279849256
0.056130096 0.088841125 0.30800003 4279453728
0.056944992 0.088552669 0.30700001 4279649824
0.05794213 0.088552669 0.30700001 4280240678
0.046575531 0.090716921 0.31100002 4282146363
0.047585662 0.090716921 0.31100002 4282146878
0.048439533 0.090425216 0.31 4282081085
0.049286909 0.090133525 0.30900002 4281950271
0.05029054 0.090133525 0.30900002 4281687612
0.051294174 0.090133525 0.30900002 4281294138
0.052128557 0.089841835 0.30800003 4281294651
0.053128943 0.089841835 0.30800003 4279783465
0.054129332 0.089841835 0.30800003 4279389221
0.055129718 0.089841835 0.30800003 4279586598
0.055947855 0.089550138 0.30700001 4279191840
0.056944992 0.089550138 0.30700001 4279257119
0.05794213 0.089550138 0.30700001 4279454498
0.05874728 0.089258447 0.30600002 4280111145
0.059741173 0.089258447 0.30600002 4280109864
0.049286909 0.091137506 0.30900002 4281884991
0.05029054 0.091137506 0.30900002 4281621565
0.051294174 0.091137506 0.30900002 4281621819
0.052128557 0.090842567 0.30800003 4281424440
0.053128943 0.090842567 0.30800003 4281031477
0.054129332 0.090842567 0.30800003 4279651107
0.054950722 0.090547614 0.30700001 4279651105
0.055947855 0.090547614 0.30700001 4279651105
0.056944992 0.090547614 0.30700001 4279322910
0.057753395 0.090252675 0.30600002 4279322910
0.05874728 0.090252675 0.30600002 4279059738
0.059741173 0.090252675 0.30600002 4279388705
0.060735062 0.090252675 0.30600002 4280306471
0.061728947 0.090252675 0.30600002 4280830766
0.051294174 0.092141479 0.30900002 4281752892
0.052128557 0.091843292 0.30800003 4281621306
0.053128943 0.091843292 0.30800003 4281292854
0.054129332 0.091843292 0.30800003 4280898610
0.054950722 0.09154509 0.30700001 4279650592
0.055947855 0.09154509 0.30700001 4279453726
0.056944992 0.09154509 0.30700001 4279585312
0.057753395 0.091246903 0.30600002 4279651359
0.05874728 0.091246903 0.30600002 4279453726
0.059741173 0.091246903 0.30600002 4279387933
0.060735062 0.091246903 0.30600002 4279519519
0.061527215 0.090948708 0.30500001 4279650594
0.062517859 0.090948708 0.30500001 4280108580
0.05045329 0.093446888 0.31 4281752890
0.051294174 0.093145452 0.30900002 4281489718
0.052297805 0.093145452 0.30900002 4281424438
0.053128943 0.092844017 0.30800003 4281161266
0.054129332 0.092844017 0.30800003 4281292852
0.054950722 0.092542566 0.30700001 4280767792
0.055947855 0.092542566 0.30700001 4280241961
0.056759506 0.092241131 0.30600002 4279914018
0.057753395 0.092241131 0.30600002 4279585566
0.05874728 0.092241131 0.30600002 4279914531
0.059741173 0.092241131 0.30600002 4279586336
0.060536578 0.091939688 0.30500001 4279192092
0.061527215 0.091939688 0.30500001 4279322910
0.062517859 0.091939688 0.30500001 4279651107
0.063508496 0.091939688 0.30500001 4279716387
0.049765419 0.095063485 0.31200001 4281751607
0.05045329 0.094454102 0.31 4281621304
0.051460173 0.094454102 0.31 4281424440
0.052297805 0.094149418 0.30900002 4281490233
0.053128943 0.093844734 0.30800003 4281489979
0.054129332 0.093844734 0.30800003 4281490233
0.054950722 0.093540035 0.30700001 4281292852
0.055947855 0.093540035 0.30700001 4281029680
0.056944992 0.093540035 0.30700001 4280701227
0.057753395 0.093235351 0.30600002 4280110373
0.05874728 0.093235351 0.30600002 4279781408
0.059741173 0.093235351 0.30600002 4279585053
0.060536578 0.092930652 0.30500001 4279520543
0.061527215 0.092930652 0.30500001 4279454750
0.062517859 0.092930652 0.30500001 4279190554
0.063508496 0.092930652 0.30500001 4279256349
0.06428767 0.092625968 0.30400002 4279715617
0.048908304 0.096385151 0.31300002 4282009902
0.049765419 0.096077211 0.31200001 4282408515
0.050616048 0.095769271 0.31100002 4281948988
0.051460173 0.095461331 0.31 4281424440
0.052297805 0.095153391 0.30900002 4281489979
0.053301439 0.095153391 0.30900002 4281489979
0.054129332 0.094845459 0.30800003 4281424440
0.055129718 0.094845459 0.30800003 4281424438
0.055947855 0.094537511 0.30700001 4281358645
0.056944992 0.094537511 0.30700001 4281358645
0.057753395 0.094229579 0.30600002 4280964401
0.05874728 0.094229579 0.30600002 4281163315
0.059741173 0.094229579 0.30600002 4279715869
0.060536578 0.093921632 0.30500001 4279388957
0.061527215 0.093921632 0.30500001 4279520543
0.062517859 0.093921632 0.30500001 4279520543
0.063508496 0.093921632 0.30500001 4279520543
0.06428767 0.093613699 0.30400002 4279322910
0.065275058 0.093613699 0.30400002 4279453213
0.066262454 0.093613699 0.30400002 4279911713
0.048908304 0.097402126 0.31300002 4283389250
0.049765419 0.09709093 0.31200001 4282800193
0.05045329 0.096468553 0.31 4282539074
0.051460173 0.096468553 0.31 4281817661
0.052297805 0.096157365 0.30900002 4281751868
0.053301439 0.096157365 0.30900002 4281555259
0.054129332 0.095846184 0.30800003 4281424186
0.055129718 0.095846184 0.30800003 4281358647
0.056130096 0.095846184 0.30800003 4281423927
0.056944992 0.095534988 0.30700001 4281423927
0.05794213 0.095534988 0.30700001 4280964401
0.05874728 0.095223807 0.30600002 4280898606
0.059741173 0.095223807 0.30600002 4280701997
0.060735062 0.095223807 0.30600002 4280045604
0.061527215 0.094912611 0.30500001 4279519773
0.062517859 0.094912611 0.30500001 4279651359
0.063300274 0.094601423 0.30400002 4279586336
0.06428767 0.094601423 0.30400002 4279454496
0.065275058 0.094601423 0.30400002 4279453726
0.066262454 0.094601423 0.30400002 4279650592
0.067028627 0.094290234 0.303 4279650592
0.068012767 0.094290234 0.303 4280240680
0.05045329 0.097475775 0.31 4283457098
0.051294174 0.097161345 0.30900002 4283196234
0.052297805 0.097161345 0.30900002 4282210622
0.053301439 0.097161345 0.30900002 4281751355
0.054129332 0.096846908 0.30800003 4281423673
0.055129718 0.096846908 0.30800003 4281423673
0.056130096 0.096846908 0.30800003 4281160501
0.057130482 0.096846908 0.30800003 4281226548
0.05794213 0.096532464 0.30700001 4281029682
0.058939263 0.096532464 0.30700001 4281029167
0.059741173 0.096218035 0.30600002 4280765225
0.060735062 0.096218035 0.30600002 4280503848
0.061527215 0.09590359 0.30500001 4280373286
0.062517859 0.09590359 0.30500001 4279781408
0.063300274 0.095589153 0.30400002 4279519006
0.06428767 0.095589153 0.30400002 4279585312
0.065275058 0.095589153 0.30400002 4279716898
0.066262454 0.095589153 0.30400002 4279519773
0.067028627 0.095274709 0.303 4279519773
0.068012767 0.095274709 0.303 4279256349
0.068996914 0.095274709 0.303 4279716389
0.069981061 0.095274709 0.303 4280239914
0.070965201 0.095274709 0.303 4280105508
0.071949348 0.095274709 0.303 4285431149
0.05045329 0.098483004 0.31 4283982672
0.051294174 0.098165318 0.30900002 4283982672
0.052297805 0.098165318 0.30900002 4283720270
0.053301439 0.098165318 0.30900002 4282473281
0.054305073 0.098165318 0.30900002 4282144829
0.055129718 0.097847633 0.30800003 4281751868
0.056130096 0.097847633 0.30800003 4281686075
0.057130482 0.097847633 0.30800003 4281226548
0.058130872 0.097847633 0.30800003 4281160755
0.058939263 0.09752994 0.30700001 4281225265
0.059936401 0.09752994 0.30700001 4280763944
0.060735062 0.097212255 0.30600002 4281092395
0.061527215 0.09689457 0.30500001 4280896298
0.062517859 0.09689457 0.30500001 4280832815
0.063300274 0.096576884 0.30400002 4280833583
0.06428767 0.096576884 0.30400002 4279715615
0.065275058 0.096576884 0.30400002 4279716385
0.06604448 0.096259192 0.303 4279651105
0.067028627 0.096259192 0.303 4279453980
0.068012767 0.096259192 0.303 4279388187
0.068996914 0.096259192 0.303 4279453726
0.069981061 0.096259192 0.303 4279650855
0.070965201 0.096259192 0.303 4279650342
0.071949348 0.096259192 0.303 4280632622
0.05029054 0.099169284 0.30900002 4284245844
0.051294174 0.099169284 0.30900002 4284443223
0.052297805 0.099169284 0.30900002 4284311637
0.053301439 0.099169284 0.30900002 4284312666
0.054305073 0.099169284 0.30900002 4282866504
0.055308707 0.099169284 0.30900002 4281947964
0.056312338 0.099169284 0.30900002 4281817148
0.057130482 0.09884835 0.30800003 4281094708
0.058130872 0.09884835 0.30800003 4281357880
0.05913125 0.09884835 0.30800003 4280695848
0.059936401 0.098527409 0.30700001 4280169504
0.060735062 0.098206475 0.30600002 4281617974
0.061728947 0.098206475 0.30600002 4281487151
0.062517859 0.097885534 0.30500001 4281226546
0.063300274 0.0975646 0.30400002 4280963887
0.06428767 0.0975646 0.30400002 4280438825
0.065275058 0.0975646 0.30400002 4279847201
0.06604448 0.097243659 0.303 4279256349
0.067028627 0.097243659 0.303 4279585314
0.068012767 0.097243659 0.303 4279519773
0.068996914 0.097243659 0.303 4279257371
0.069981061 0.097243659 0.303 4279190558
0.070965201 0.097243659 0.303 4279585316
0.071949348 0.097243659 0.303 4279716389
0.072933495 0.097243659 0.303 4279912231
0.073917635 0.097243659 0.303 4280697133
0.052297805 0.10017326 0.30900002 4284640089
0.053301439 0.10017326 0.30900002 4284706141
0.054305073 0.10017326 0.30900002 4284508764
0.055308707 0.10017326 0.30900002 4284312920
0.056312338 0.10017326 0.30900002 4282274621
0.057315972 0.10017326 0.30900002 4281157169
0.058130872 0.099849075 0.30800003 4281091376
0.05913125 0.099849075 0.30800003 4280695335
0.059936401 0.099524885 0.30700001 4281748536
0.060933538 0.099524885 0.30700001 4281553978
0.061728947 0.099200703 0.30600002 4281554489
0.062517859 0.098876514 0.30500001 4281488948
0.063508496 0.098876514 0.30500001 4281159983
0.06428767 0.098552331 0.30400002 4281094960
0.065275058 0.098552331 0.30400002 4280767022
0.06604448 0.098228142 0.303 4280176938
0.067028627 0.098228142 0.303 4279585314
0.068012767 0.098228142 0.303 4279388705
0.068996914 0.098228142 0.303 4279454498
0.069981061 0.098228142 0.303 4279125533
0.070965201 0.098228142 0.303 4279256349
0.071949348 0.098228142 0.303 4279256349
0.072692789 0.097903959 0.30200002 4279848488
0.073673688 0.097903959 0.30200002 4280109864
0.074654587 0.097903959 0.30200002 4279976740
0.075635478 0.097903959 0.30200002 4282076218
0.056312338 0.10117723 0.30900002 4284705882
0.057315972 0.10117723 0.30900002 4283588682
0.058319602 0.10117723 0.30900002 4282602302
0.05913125 0.1008498 0.30800003 4281879863
0.060131636 0.1008498 0.30800003 4281946685
0.060933538 0.10052236 0.30700001 4281620284
0.061728947 0.10019493 0.30600002 4281356599
0.062517859 0.099867493 0.30500001 4280038940
0.063508496 0.099867493 0.30500001 4280235036
0.06428767 0.099540062 0.30400002 4280763176
0.065275058 0.099540062 0.30400002 4281225778
0.06604448 0.099212624 0.303 4280701229
0.067028627 0.099212624 0.303 4280438827
0.068012767 0.099212624 0.303 4280045865
0.068996914 0.099212624 0.303 4279454498
0.069981061 0.099212624 0.303 4279520289
0.070965201 0.099212624 0.303 4279388703
0.07171189 0.098885193 0.30200002 4279387935
0.072692789 0.098885193 0.30200002 4279453728
0.073673688 0.098885193 0.30200002 4279584799
0.074654587 0.098885193 0.30200002 4280044580
0.075635478 0.098885193 0.30200002 4280240680
0.076616377 0.098885193 0.30200002 4280631592
0.058319602 0.1021812 0.30900002 4284509786
0.05913125 0.10185052 0.30800003 4282406720
0.060131636 0.10185052 0.30800003 4282144318
0.060933538 0.10151984 0.30700001 4281750839
0.061728947 0.10118916 0.30600002 4280367905
0.062517859 0.10085847 0.30500001 4280562469
0.063508496 0.10085847 0.30500001 4281023016
0.06428767 0.10052779 0.30400002 4280628512
0.065275058 0.10052779 0.30400002 4280432417
0.06604448 0.1001971 0.303 4281291569
0.067028627 0.1001971 0.303 4281029167
0.068012767 0.1001971 0.303 4280373547
0.068996914 0.1001971 0.303 4279979559
0.0697501 0.09986642 0.30200002 4279650594
0.070730999 0.09986642 0.30200002 4279585314
0.07171189 0.09986642 0.30200002 4279519521
0.072692789 0.09986642 0.30200002 4279585314
0.073673688 0.09986642 0.30200002 4279453728
0.074654587 0.09986642 0.30200002 4279321629
0.075635478 0.09986642 0.30200002 4279649824
0.076616377 0.09986642 0.30200002 4279846690
0.077597275 0.09986642 0.30200002 4280633128
0.078578167 0.09986642 0.30200002 4282604099
0.059936401 0.10251731 0.30700001 4284312918
0.060933538 0.10251731 0.30700001 4282473535
0.061728947 0.10218338 0.30600002 4282406718
0.062517859 0.10184944 0.30500001 4281022507
0.063508496 0.10184944 0.30500001 4281482284
0.06428767 0.10151551 0.30400002 4281220649
0.065275058 0.10151551 0.30400002 4280562465
0.066262454 0.10151551 0.30400002 4280431393
0.067028627 0.10118157 0.303 4281221679
0.068012767 0.10118157 0.303 4281095221
0.068996914 0.10118157 0.303 4280898356
0.0697501 0.10084765 0.30200002 4280306989
0.070730999 0.10084765 0.30200002 4279782182
0.07171189 0.10084765 0.30200002 4279387937
0.072692789 0.10084765 0.30200002 4279716900
0.073673688 0.10084765 0.30200002 4279519521
0.074654587 0.10084765 0.30200002 4279519521
0.075635478 0.10084765 0.30200002 4279453215
0.076616377 0.10084765 0.30200002 4279453215
0.077597275 0.10084765 0.30200002 4280044582
0.078578167 0.10084765 0.30200002 4279846690
0.079559065 0.10084765 0.30200002 4281091889
0.061527215 0.10284042 0.30500001 4282800711
0.062517859 0.10284042 0.30500001 4282603332
0.063508496 0.10284042 0.30500001 4281154602
0.06428767 0.10250324 0.30400002 4280694053
0.065275058 0.10250324 0.30400002 4281286704
0.066262454 0.10250324 0.30400002 4280957739
0.067028627 0.10216605 0.303 4280496674
0.068012767 0.10216605 0.303 4280432165
0.068996914 0.10216605 0.303 4281289782
0.0697501 0.10182887 0.30200002 4281357880
0.070730999 0.10182887 0.30200002 4280701231
0.07171189 0.10182887 0.30200002 4279912998
0.072692789 0.10182887 0.30200002 4279519010
0.073673688 0.10182887 0.30200002 4279519521
0.074654587 0.10182887 0.30200002 4279585314
0.075635478 0.10182887 0.30200002 4279585312
0.076616377 0.10182887 0.30200002 4279519519
0.077597275 0.10182887 0.30200002 4279453726
0.078578167 0.10182887 0.30200002 4279716385
0.079559065 0.10182887 0.30200002 4279977506
0.080539964 0.10182887 0.30200002 4280503084
0.061527215 0.1038314 0.30500001 4285035876
0.062517859 0.1038314 0.30500001 4283852629
0.063508496 0.1038314 0.30500001 4282734148
0.06428767 0.10349097 0.30400002 4281549876
0.065275058 0.10349097 0.30400002 4280694315
0.066262454 0.10349097 0.30400002 4281154093
0.067249849 0.10349097 0.30400002 4281417776
0.068012767 0.10315053 0.303 4280628008
0.068996914 0.10315053 0.303 4280562469
0.069981061 0.10315053 0.303 4280894764
0.070730999 0.10281011 0.30200002 4281225011
0.07171189 0.10281011 0.30200002 4280964403
0.072692789 0.10281011 0.30200002 4280307243
0.073673688 0.10281011 0.30200002 4279650594
0.074654587 0.10281011 0.30200002 4279585314
0.075635478 0.10281011 0.30200002 4279520291
0.076616377 0.10281011 0.30200002 4279454498
0.077597275 0.10281011 0.30200002 4279519521
0.078578167 0.10281011 0.30200002 4279519521
0.079559065 0.10281011 0.30200002 4279453215
0.080539964 0.10281011 0.30200002 4279649826
0.081520863 0.10281011 0.30200002 4280240680
0.063508496 0.10482237 0.30500001 4285166946
0.06428767 0.10447869 0.30400002 4282865734
0.065275058 0.10447869 0.30400002 4282603845
0.066262454 0.10447869 0.30400002 4281154602
0.067249849 0.10447869 0.30400002 4280759333
0.068237238 0.10447869 0.30400002 4280561956
0.068996914 0.10413501 0.303 4281614642
0.069981061 0.10413501 0.303 4280694051
0.070965201 0.10413501 0.303 4280562979
0.07171189 0.10379133 0.30200002 4281159218
0.072692789 0.10379133 0.30200002 4280765743
0.073673688 0.10379133 0.30200002 4280701229
0.074654587 0.10379133 0.30200002 4280176168
0.075635478 0.10379133 0.30200002 4279519521
0.076616377 0.10379133 0.30200002 4279585314
0.077597275 0.10379133 0.30200002 4279716900
0.078578167 0.10379133 0.30200002 4279585314
0.079559065 0.10379133 0.30200002 4279716900
0.080539964 0.10379133 0.30200002 4279321629
0.081520863 0.10379133 0.30200002 4279584031
0.082501754 0.10379133 0.30200002 4280109862
0.066262454 0.10546643 0.30400002 4282735170
0.067249849 0.10546643 0.30400002 4282010679
0.068237238 0.10546643 0.30400002 4281023018
0.068996914 0.10511949 0.303 4280890919
0.069981061 0.10511949 0.303 4281022505
0.070965201 0.10511949 0.303 4280890919
0.071949348 0.10511949 0.303 4280234016
0.072692789 0.10477257 0.30200002 4280697133
0.073673688 0.10477257 0.30200002 4281226548
0.074654587 0.10477257 0.30200002 4281094962
0.075635478 0.10477257 0.30200002 4280373036
0.076616377 0.10477257 0.30200002 4280176938
0.077597275 0.10477257 0.30200002 4279650592
0.078578167 0.10477257 0.30200002 4279848484
0.079559065 0.10477257 0.30200002 4279453215
0.080539964 0.10477257 0.30200002 4279584031
0.081520863 0.10477257 0.30200002 4279584031
0.082228571 0.10442565 0.30100003 4279649824
0.083206221 0.10442565 0.30100003 4279978274
0.083904184 0.10407871 0.30000001 4279780897
0.084878586 0.10407871 0.30000001 4280829485
0.068237238 0.10645415 0.30400002 4282602816
0.069224633 0.10645415 0.30400002 4281285675
0.069981061 0.10610396 0.303 4280824356
0.070965201 0.10610396 0.303 4281416493
0.071949348 0.10610396 0.303 4281023530
0.072933495 0.10610396 0.303 4280497188
0.073917635 0.10610396 0.303 4280695337
0.074654587 0.10575379 0.30200002 4280828458
0.075635478 0.10575379 0.30200002 4281159985
0.076616377 0.10575379 0.30200002 4280898094
0.077597275 0.10575379 0.30200002 4280045352
0.078578167 0.10575379 0.30200002 4279848486
0.079559065 0.10575379 0.30200002 4279519521
0.080539964 0.10575379 0.30200002 4279651107
0.081250928 0.10540362 0.30100003 4279585314
0.082228571 0.10540362 0.30100003 4279650594
0.082929783 0.10505343 0.30000001 4279321629
0.083904184 0.10505343 0.30000001 4279519008
0.084595665 0.10470325 0.29900002 4279912746
0.085280634 0.10435308 0.29800001 4280043049
0.068237238 0.10744188 0.30400002 4284444506
0.069224633 0.10744188 0.30400002 4282865988
0.070212021 0.10744188 0.30400002 4282206777
0.070965201 0.10708845 0.303 4281153319
0.071949348 0.10708845 0.303 4280825124
0.072933495 0.10708845 0.303 4281352495
0.073917635 0.10708845 0.303 4280891944
0.074901782 0.10708845 0.303 4280365086
0.075885922 0.10708845 0.303 4280892714
0.076616377 0.10673502 0.30200002 4281290804
0.077597275 0.10673502 0.30200002 4280636208
0.078578167 0.10673502 0.30200002 4280111147
0.079559065 0.10673502 0.30200002 4280111147
0.080539964 0.10673502 0.30200002 4279453217
0.081250928 0.1063816 0.30100003 4279585314
0.082228571 0.1063816 0.30100003 4279585314
0.082929783 0.10602816 0.30000001 4279387935
0.083624512 0.10567474 0.29900002 4279453728
0.084595665 0.10567474 0.29900002 4279256351
0.085280634 0.10532131 0.29800001 4279782182
0.085380271 0.10426103 0.29500002 4280239653
0.086704746 0.10355417 0.29300001 4282538054
0.069224633 0.1084296 0.30400002 4285430888
0.070212021 0.1084296 0.30400002 4282865988
0.071199417 0.1084296 0.30400002 4282471230
0.072186805 0.1084296 0.30400002 4281482284
0.072933495 0.10807292 0.303 4280890147
0.073917635 0.10807292 0.303 4280824354
0.074901782 0.10807292 0.303 4280561182
0.075885922 0.10807292 0.303 4281023270
0.076870069 0.10807292 0.303 4282012214
0.077597275 0.10771625 0.30200002 4280897583
0.078578167 0.10771625 0.30200002 4280963889
0.079559065 0.10771625 0.30200002 4280766770
0.080273278 0.10735958 0.30100003 4280372266
0.081250928 0.10735958 0.30100003 4279519010
0.081955381 0.1070029 0.30000001 4279519010
0.082929783 0.1070029 0.30000001 4279519523
0.083624512 0.10664622 0.29900002 4279585314
0.08431273 0.10628954 0.29800001 4279650594
0.085280634 0.10628954 0.29800001 4279584801
0.085669689 0.10557619 0.296 4279715104
0.086338423 0.10521952 0.29500002 4280109092
0.087000661 0.10486283 0.294 4280305192
0.070212021 0.10941733 0.30400002 4285101669
0.071199417 0.10941733 0.30400002 4284905057
0.072186805 0.10941733 0.30400002 4282470716
0.073174201 0.10941733 0.30400002 4281549360
0.074161589 0.10941733 0.30400002 4280759844
0.074901782 0.1090574 0.303 4281549614
0.075885922 0.1090574 0.303 4281617202
0.076870069 0.1090574 0.303 4281816118
0.077597275 0.10869748 0.30200002 4281486899
0.078578167 0.10869748 0.30200002 4280960555
0.079559065 0.10869748 0.30200002 4281356851
0.080273278 0.10833756 0.30100003 4281094962
0.081250928 0.10833756 0.30100003 4280438059
0.081955381 0.10797763 0.30000001 4280175657
0.082929783 0.10797763 0.30000001 4279584803
0.083624512 0.10761771 0.29900002 4279585316
0.08431273 0.10725778 0.29800001 4279453215
0.084994465 0.10689785 0.29700002 4279519006
0.085669689 0.10653792 0.296 4279519006
0.086338423 0.10617801 0.29500002 4279584801
0.087000661 0.10581807 0.294 4280306471
0.087656409 0.10545816 0.29300001 4279911713
0.089254081 0.10509823 0.29200003 4282734148
0.071199417 0.11040506 0.30400002 4285823593
0.072186805 0.11040506 0.30400002 4285299048
0.073174201 0.11040506 0.30400002 4282799943
0.074161589 0.11040506 0.30400002 4280959274
0.074901782 0.11004187 0.303 4281025835
0.075885922 0.11004187 0.303 4281157934
0.076870069 0.11004187 0.303 4281026862
0.077597275 0.1096787 0.30200002 4280960555
0.078578167 0.1096787 0.30200002 4281617972
0.079559065 0.1096787 0.30200002 4281091628
0.080273278 0.10931554 0.30100003 4281092141
0.081250928 0.10931554 0.30100003 4281160755
0.081955381 0.10895235 0.30000001 4281029169
0.082653359 0.10858919 0.29900002 4280503852
0.083624512 0.10858919 0.29900002 4280110377
0.08431273 0.108226 0.29800001 4279912994
0.084994465 0.10786283 0.29700002 4279715615
0.085669689 0.10749965 0.296 4279715615
0.086338423 0.10713648 0.29500002 4279715617
0.087000661 0.1067733 0.294 4279781408
0.087955572 0.1067733 0.294 4279715102
0.088608071 0.10641013 0.29300001 4280043297
0.089254081 0.10604696 0.29200003 4280305444
0.064169154 0.097160608 0.30541515 4294967295
0.064169154 0.097160608 0.30541515 4294901760
0.064169154 0.097160608 0.30591515 4294901760
0.064169154 0.097160608 0.30641514 4294901760
0.064169154 0.097160608 0.30691516 4294901760
0.064169154 0.097160608 0.30741516 4294901760
0.064169154 0.097160608 0.30791515 4294901760
0.064169154 0.097160608 0.30841514 4294901760
0.064169154 0.097160608 0.30891517 4294901760
0.064169154 0.097160608 0.30941516 4294901760
0.064169154 0.097160608 0.30991516 4294901760
0.064169154 0.097160608 0.31041515 4294901760
0.064169154 0.097160608 0.31091514 4294901760
0.064169154 0.097160608 0.31141517 4294901760
0.064169154 0.097160608 0.31191516 4294901760
0.064169154 0.097160608 0.31241515 4294901760
0.064169154 0.097160608 0.31291515 4294901760
0.064169154 0.097160608 0.31341517 4294901760
0.064169154 0.097160608 0.31391516 4294901760
0.064169154 0.097160608 0.31441516 4294901760
0.064169154 0.097160608 0.31491515 4294901760
0.064169154 0.097160608 0.31541514 4294901760
0.064169154 0.097160608 0.31591517 4294901760
0.064169154 0.097160608 0.31641516 4294901760
0.064169154 0.097160608 0.31691515 4294901760
0.064169154 0.097160608 0.31741515 4294901760
0.064169154 0.097160608 0.31791514 4294901760
0.064169154 0.097160608 0.31841516 4294901760
0.064169154 0.097160608 0.31891516 4294901760
0.064169154 0.097160608 0.31941515 4294901760
0.064169154 0.097160608 0.31991515 4294901760
0.064169154 0.097160608 0.32041517 4294901760
0.064169154 0.097160608 0.32091516 4294901760
0.064169154 0.097160608 0.32141516 4294901760
0.064169154 0.097160608 0.32191515 4294901760
0.064169154 0.097160608 0.32241517 4294901760
0.064169154 0.097160608 0.32291517 4294901760
0.064169154 0.097160608 0.32341516 4294901760
0.064169154 0.097160608 0.32391515 4294901760
0.064169154 0.097160608 0.32441515 4294901760
0.064169154 0.097160608 0.32491517 4294901760
0.064169154 0.097160608 0.32541516 4294901760
0.064169154 0.097160608 0.32591516 4294901760
0.064169154 0.097160608 0.32641515 4294901760
0.064169154 0.097160608 0.32691514 4294901760
0.064169154 0.097160608 0.32741517 4294901760
0.064169154 0.097160608 0.32791516 4294901760
0.064169154 0.097160608 0.32841516 4294901760
0.064169154 0.097160608 0.32891515 4294901760
0.064169154 0.097160608 0.32941517 4294901760
0.064169154 0.097160608 0.32991517 4294901760
0.064169154 0.097160608 0.33041516 4294901760
0.064169154 0.097160608 0.33091515 4294901760
0.064169154 0.097160608 0.33141515 4294901760
0.064169154 0.097160608 0.33191517 4294901760
0.064169154 0.097160608 0.33241516 4294901760
0.064169154 0.097160608 0.33291516 4294901760
0.064169154 0.097160608 0.33341515 4294901760
0.064169154 0.097160608 0.33391517 4294901760
0.064169154 0.097160608 0.33441517 4294901760
0.064169154 0.097160608 0.33491516 4294901760
0.064169154 0.097160608 0.33541515 4294901760
0.064169154 0.097160608 0.33591515 4294901760
0.064169154 0.097160608 0.33641517 4294901760
0.064169154 0.097160608 0.33691517 4294901760
0.064169154 0.097160608 0.33741516 4294901760
0.064169154 0.097160608 0.33791515 4294901760
0.064169154 0.097160608 0.33841518 4294901760
0.064169154 0.097160608 0.33891517 4294901760
0.064169154 0.097160608 0.33941516 4294901760
0.064169154 0.097160608 0.33991516 4294901760
0.064169154 0.097160608 0.34041515 4294901760
0.064169154 0.097160608 0.34091517 4294901760
0.064169154 0.097160608 0.34141517 4294901760
0.064169154 0.097160608 0.34191516 4294901760
0.064169154 0.097160608 0.34241515 4294901760
0.064169154 0.097160608 0.34291518 4294901760
0.064169154 0.097160608 0.34341517 4294901760
0.064169154 0.097160608 0.34391516 4294901760
0.064169154 0.097160608 0.34441516 4294901760
0.064169154 0.097160608 0.34491515 4294901760
0.064169154 0.097160608 0.34541517 4294901760
0.064169154 0.097160608 0.34591517 4294901760
0.064169154 0.097160608 0.34641516 4294901760
0.064169154 0.097160608 0.34691516 4294901760
0.064169154 0.097160608 0.34741515 4294901760
0.064169154 0.097160608 0.34791517 4294901760
0.064169154 0.097160608 0.34841517 4294901760
0.064169154 0.097160608 0.34891516 4294901760
0.064169154 0.097160608 0.34941515 4294901760
0.064169154 0.097160608 0.34991515 4294901760
0.064169154 0.097160608 0.35041517 4294901760
0.064169154 0.097160608 0.35091516 4294901760
0.064169154 0.097160608 0.35141516 4294901760
0.064169154 0.097160608 0.35191518 4294901760
0.064169154 0.097160608 0.35241517 4294901760
0.064169154 0.097160608 0.35291517 4294901760
0.064169154 0.097160608 0.35341516 4294901760
0.064169154 0.097160608 0.35391515 4294901760
0.064169154 0.097160608 0.35441518 4294901760
0.064169154 0.097160608 0.35491517 4294901760
0.064169154 0.097160608 0.35541517 4294901760
0.064169154 0.097160608 0.30541515 4278255360
0.064324357 0.097126298 0.30588922 4278255360
0.064479567 0.097091988 0.30636328 4278255360
0.06463477 0.097057678 0.30683735 4278255360
0.064789981 0.097023368 0.30731139 4278255360
0.064945184 0.096989058 0.30778545 4278255360
0.065100394 0.096954748 0.30825952 4278255360
0.065255597 0.096920438 0.30873358 4278255360
0.065410808 0.096886128 0.30920765 4278255360
0.065566011 0.096851818 0.30968171 4278255360
0.065721221 0.096817508 0.31015575 4278255360
0.065876424 0.096783198 0.31062981 4278255360
0.066031635 0.096748888 0.31110388 4278255360
0.066186838 0.096714579 0.31157795 4278255360
0.066342048 0.096680269 0.31205201 4278255360
0.066497251 0.096645959 0.31252608 4278255360
0.066652462 0.096611649 0.31300011 4278255360
0.066807665 0.096577339 0.31347418 4278255360
0.066962868 0.096543029 0.31394824 4278255360
0.067118078 0.096508719 0.31442231 4278255360
0.067273282 0.096474409 0.31489637 4278255360
0.067428492 0.096440099 0.31537044 4278255360
0.067583695 0.096405789 0.31584448 4278255360
0.067738906 0.096371479 0.31631854 4278255360
0.067894109 0.096337169 0.31679261 4278255360
0.068049319 0.096302859 0.31726667 4278255360
0.068204522 0.09626855 0.31774074 4278255360
0.068359733 0.09623424 0.3182148 4278255360
0.068514936 0.09619993 0.31868887 4278255360
0.068670146 0.09616562 0.31916291 4278255360
0.068825349 0.09613131 0.31963697 4278255360
0.06898056 0.096097 0.32011104 4278255360
0.069135763 0.09606269 0.3205851 4278255360
0.069290973 0.09602838 0.32105917 4278255360
0.069446176 0.09599407 0.32153323 4278255360
0.069601379 0.09595976 0.32200727 4278255360
0.06975659 0.09592545 0.32248133 4278255360
0.069911793 0.09589114 0.3229554 4278255360
0.070067003 0.09585683 0.32342947 4278255360
0.070222206 0.095822521 0.32390353 4278255360
0.070377417 0.095788211 0.3243776 4278255360
0.07053262 0.095753901 0.32485163 4278255360
0.07068783 0.095719591 0.3253257 4278255360
0.070843033 0.095685281 0.32579976 4278255360
0.070998244 0.095650971 0.32627383 4278255360
0.071153447 0.095616661 0.32674789 4278255360
0.071308658 0.095582351 0.32722196 4278255360
0.071463861 0.095548041 0.32769603 4278255360
0.071619071 0.095513731 0.32817006 4278255360
0.071774274 0.095479421 0.32864413 4278255360
0.071929485 0.095445111 0.32911819 4278255360
0.072084688 0.095410809 0.32959226 4278255360
0.072239891 0.095376499 0.33006632 4278255360
0.072395101 0.095342189 0.33054036 4278255360
0.072550304 0.095307879 0.33101442 4278255360
0.072705515 0.095273569 0.33148849 4278255360
0.072860718 0.095239259 0.33196256 4278255360
0.073015928 0.095204949 0.33243662 4278255360
0.073171131 0.095170639 0.33291069 4278255360
0.073326342 0.09513633 0.33338475 4278255360
0.073481545 0.09510202 0.33385879 4278255360
0.073636755 0.09506771 0.33433285 4278255360
0.073791958 0.0950334 0.33480692 4278255360
0.073947169 0.09499909 0.33528098 4278255360
0.074102372 0.09496478 0.33575505 4278255360
0.074257582 0.09493047 0.33622912 4278255360
0.074412785 0.09489616 0.33670318 4278255360
0.074567989 0.09486185 0.33717722 4278255360
0.074723199 0.09482754 0.33765128 4278255360
0.074878402 0.09479323 0.33812535 4278255360
0.075033613 0.09475892 0.33859941 4278255360
0.075188816 0.09472461 0.33907348 4278255360
0.075344026 0.094690301 0.33954751 4278255360
0.075499229 0.094655991 0.34002158 4278255360
0.07565444 0.094621681 0.34049565 4278255360
0.075809643 0.094587371 0.34096971 4278255360
0.075964853 0.094553061 0.34144378 4278255360
0.076120056 0.094518751 0.34191784 4278255360
0.076275267 0.094484441 0.34239191 4278255360
0.07643047 0.094450131 0.34286594 4278255360
0.07658568 0.094415821 0.34334001 4278255360
0.076740883 0.094381511 0.34381407 4278255360
0.076896086 0.094347201 0.34428814 4278255360
0.077051297 0.094312891 0.34476221 4278255360
0.0772065 0.094278581 0.34523624 4278255360
0.07736171 0.094244272 0.34571034 4278255360
0.077516913 0.094209962 0.34618437 4278255360
0.077672124 0.094175652 0.34665844 4278255360
0.077827327 0.094141342 0.3471325 4278255360
0.077982537 0.094107032 0.34760657 4278255360
0.07813774 0.094072722 0.34808064 4278255360
0.078292951 0.094038412 0.34855467 4278255360
0.078448154 0.094004102 0.34902874 4278255360
0.078603365 0.093969792 0.3495028 4278255360
0.078758568 0.093935482 0.34997687 4278255360
0.078913778 0.093901172 0.35045093 4278255360
0.079068981 0.093866862 0.350925 4278255360
0.079224192 0.093832552 0.35139906 4278255360
0.079379395 0.093798243 0.3518731 4278255360
0.079534605 0.093763933 0.35234717 4278255360
0.079689808 0.093729623 0.35282123 4278255360
