# .PCD v0.7 - Point Cloud Data file format
VERSION 0.7
FIELDS x y z rgb
SIZE 4 4 4 4
TYPE F F F U
COUNT 1 1 1 1
WIDTH 1005
HEIGHT 1
VIEWPOINT 0 0 0 1 0 0 0
POINTS 1005
DATA ascii
-0.011811732 -0.0228875 0.40900001 4282604878
-0.010534562 -0.022999419 0.41100001 4282210120
-0.0092220176 -0.02305538 0.41200003 4282276429
-0.0079029761 -0.02311134 0.41300002 4282869334
-0.0065774391 -0.023167299 0.41400003 4283394910
-0.0052454062 -0.023223259 0.41500002 4282341708
-0.0038974853 -0.023223259 0.41500002 4282012490
-0.0025557079 -0.023279218 0.41600001 4282934106
-0.0012045392 -0.023279218 0.41600001 4282344527
0.041294757 -0.02624508 0.46900001 4279132972
0.042818066 -0.02624508 0.46900001 4278343456
0.044341382 -0.02624508 0.46900001 4278606115
0.045962486 -0.026301039 0.47000003 4278277150
0.047489051 -0.026301039 0.47000003 4278540322
0.049015611 -0.026301039 0.47000003 4278737187
0.050649706 -0.026356999 0.47100002 4278539554
0.052179515 -0.026356999 0.47100002 4278801958
0.053823359 -0.02641296 0.47200003 4279782963
-0.01307591 -0.021453194 0.40700001 4280959540
-0.010508931 -0.021611327 0.41000003 4280959540
-0.0092220176 -0.021716749 0.41200003 4280762161
-0.0065774391 -0.021822169 0.41400003 4282802257
-0.0039068768 -0.02192759 0.41600001 4281353528
-0.0025557079 -0.02192759 0.41600001 4281156919
-0.0012074348 -0.021980301 0.41700003 4281222966
0.0015013987 -0.021980301 0.41700003 4281223477
0.0028626637 -0.022033012 0.41800001 4280303659
0.0042203283 -0.022033012 0.41800001 4279254562
0.0055779936 -0.022033012 0.41800001 4280638268
0.0069356579 -0.022033012 0.41800001 4280772166
0.0096278992 -0.021980301 0.41700003 4285964939
0.039432243 -0.024510408 0.46500003 4278606113
0.041118659 -0.024615828 0.46700001 4278408734
0.04272677 -0.024668539 0.46800002 4278211355
0.044246837 -0.024668539 0.46800002 4278539806
0.045864694 -0.02472125 0.46900001 4278539036
0.04738801 -0.02472125 0.46900001 4278604318
0.049015611 -0.024773961 0.47000003 4278471195
0.050542168 -0.024773961 0.47000003 4278931746
0.052179515 -0.02482667 0.47100002 4278800160
0.053709324 -0.02482667 0.47100002 4283202914
-0.015603913 -0.019982427 0.40400001 4283327822
-0.013043782 -0.020081351 0.40600002 4281024304
-0.011753973 -0.020130811 0.40700001 4281155890
-0.010508931 -0.020279195 0.41000003 4280761132
-0.0092220176 -0.020378118 0.41200003 4280695339
-0.0065774391 -0.020477042 0.41400003 4283657305
-0.0052454062 -0.020526502 0.41500002 4280366372
-0.0039068768 -0.020575963 0.41600001 4280761645
-0.0025618516 -0.020625426 0.41700003 4280037922
-0.0012074348 -0.020625426 0.41700003 4280695852
0.00014733446 -0.020674886 0.41800001 4281287987
0.0015049991 -0.020674886 0.41800001 4281222446
0.0028626637 -0.020674886 0.41800001 4281353519
0.0042203283 -0.020674886 0.41800001 4281091630
0.0055779936 -0.020674886 0.41800001 4280173608
0.0069356579 -0.020674886 0.41800001 4279130412
0.0082933232 -0.020674886 0.41800001 4279065130
0.0096509876 -0.020674886 0.41800001 4279393843
0.011008652 -0.020674886 0.41800001 4280576582
0.012366317 -0.020674886 0.41800001 4280377408
0.013756815 -0.020724349 0.41900003 4281297997
0.015153807 -0.020773809 0.42000002 4282218329
0.016557297 -0.020823272 0.42100003 4281429581
0.017967282 -0.020872733 0.42200002 4281101129
0.019383764 -0.020922193 0.42300001 4280443453
0.020806741 -0.020971656 0.42400002 4279919928
0.022288535 -0.021070579 0.42600003 4280052027
0.02372775 -0.02112004 0.42700002 4279395894
0.037677262 -0.022851191 0.46200001 4278540320
0.039262641 -0.022900652 0.46300003 4278474013
0.040942565 -0.022999575 0.46500003 4278539290
0.042635474 -0.023098499 0.46700001 4278341911
0.044152293 -0.023098499 0.46700001 4278668828
0.045766901 -0.023147959 0.46800002 4278200064
0.04738801 -0.02319742 0.46900001 4278200320
0.048911318 -0.02319742 0.46900001 4279783463
0.050542168 -0.023246882 0.47000003 4278798367
0.052179515 -0.023296343 0.47100002 4279456297
0.053709324 -0.023296343 0.47100002 4284912249
-0.010483299 -0.018900851 0.40900001 4282669642
-0.0065933261 -0.019178126 0.41500002 4283788373
-0.0052580452 -0.019224338 0.41600001 4280957737
-0.0039068768 -0.019224338 0.41600001 4280431395
-0.0025618516 -0.01927055 0.41700003 4280431395
-0.0012103303 -0.019316763 0.41800001 4280497190
0.00014733446 -0.019316763 0.41800001 4280695337
0.0015049991 -0.019316763 0.41800001 4280498210
0.0028626637 -0.019316763 0.41800001 4281155370
0.0042203283 -0.019316763 0.41800001 4281155370
0.0055779936 -0.019316763 0.41800001 4280958759
0.0069356579 -0.019316763 0.41800001 4278995744
0.0082933232 -0.019316763 0.41800001 4278866466
0.0096509876 -0.019316763 0.41800001 4278801956
0.011008652 -0.019316763 0.41800001 4279197486
0.012366317 -0.019316763 0.41800001 4282157151
0.013756815 -0.019362975 0.41900003 4282353763
0.015153807 -0.019409187 0.42000002 4280051773
0.016557297 -0.019455401 0.42100003 4279592508
0.017967282 -0.019501612 0.42200002 4279593273
0.019383764 -0.019547824 0.42300001 4279592756
0.020855812 -0.019640248 0.42500001 4279132718
0.022288535 -0.019686462 0.42600003 4279067695
0.023783321 -0.019778887 0.42800003 4279001902
0.025291096 -0.019871311 0.43000001 4278475558
0.026873933 -0.020009948 0.43300003 4278212383
0.037432604 -0.02121147 0.45900002 4278802210
0.039177842 -0.021350106 0.46200001 4278537755
0.040854514 -0.021442531 0.46400002 4278201602
0.042452883 -0.021488745 0.46500003 4278201345
0.044057749 -0.021534955 0.46600002 4279520291
0.045669109 -0.021581167 0.46700001 4279718184
0.047286969 -0.02162738 0.46800002 4279193123
0.048911318 -0.021673592 0.46900001 4278995744
0.050542168 -0.021719806 0.47000003 4279258664
0.052068733 -0.021719806 0.47000003 4279456045
0.053709324 -0.021766016 0.47100002 4285963655
-0.010483299 -0.017571969 0.40900001 4283723611
-0.0092220176 -0.01770086 0.41200003 4282341958
-0.0065933261 -0.017829748 0.41500002 4282604615
-0.0052580452 -0.017872712 0.41600001 4280497188
-0.0039162682 -0.017915675 0.41700003 4280694055
-0.0025679951 -0.017958637 0.41800001 4280365604
-0.0012103303 -0.017958637 0.41800001 4280431395
0.00014768694 -0.018001603 0.41900003 4281155118
0.0015085997 -0.018001603 0.41900003 4280168475
0.0028695124 -0.018001603 0.41900003 4281088550
0.0042304252 -0.018001603 0.41900003 4281286694
0.005591338 -0.018001603 0.41900003 4281155622
0.0069522504 -0.018001603 0.41900003 4279058972
0.0082933232 -0.017958637 0.41800001 4278732572
0.0096509876 -0.017958637 0.41800001 4278602781
0.011008652 -0.017958637 0.41800001 4278867236
0.012395903 -0.018001603 0.41900003 4278803242
0.013756815 -0.018001603 0.41900003 4278737197
0.015153807 -0.018044565 0.42000002 4278410282
0.016557297 -0.018087529 0.42100003 4279068212
0.017967282 -0.018130491 0.42200002 4279594552
0.019383764 -0.018173454 0.42300001 4279002669
0.020855812 -0.01825938 0.42500001 4278673191
0.022340855 -0.018345308 0.42700002 4278344226
0.023783321 -0.018388271 0.42800003 4278540322
0.025349915 -0.018517161 0.43100002 4278342943
0.026935996 -0.01864605 0.43400002 4278408222
0.028476253 -0.018731976 0.43600002 4278999589
0.035471946 -0.019462351 0.45300001 4278203656
0.037269499 -0.019634206 0.45700002 4278203919
0.039008241 -0.019763093 0.46000001 4280178737
0.040678415 -0.019849021 0.46200001 4279849768
0.042361584 -0.019934949 0.46400002 4279784488
0.044057749 -0.020020874 0.46600002 4279324191
0.045669109 -0.020063836 0.46700001 4278205710
0.047286969 -0.020106802 0.46800002 4278205453
0.048911318 -0.020149764 0.46900001 4278204427
0.050542168 -0.020192727 0.47000003 4279653422
0.052068733 -0.020192727 0.47000003 4278797345
-0.011609576 -0.015965087 0.40200001 4285236339
-0.010483299 -0.016243087 0.40900001 4280827436
-0.009244401 -0.016401943 0.41300002 4280697133
-0.0066092135 -0.016521085 0.41600001 4281091378
-0.0052706851 -0.0165608 0.41700003 4280498471
-0.0039256597 -0.016600514 0.41800001 4279905051
-0.0025741386 -0.016640229 0.41900003 4280365604
-0.0012132258 -0.016640229 0.41900003 4280365604
0.00014768694 -0.016640229 0.41900003 4280694055
0.0015122001 -0.016679943 0.42000002 4280957991
0.0028763607 -0.016679943 0.42000002 4281286181
0.0042405212 -0.016679943 0.42000002 4281154595
0.0056046825 -0.016679943 0.42000002 4281155108
0.0069522504 -0.016640229 0.41900003 4279320861
0.0083131632 -0.016640229 0.41900003 4278797082
0.0096740769 -0.016640229 0.41900003 4278929949
0.011034989 -0.016640229 0.41900003 4278931232
0.012395903 -0.016640229 0.41900003 4278669857
0.013789647 -0.016679943 0.42000002 4278802726
0.015153807 -0.016679943 0.42000002 4278540068
0.016557297 -0.016719656 0.42100003 4278606374
0.017967282 -0.016759371 0.42200002 4278541351
0.019429589 -0.016838798 0.42400002 4278607144
0.020855812 -0.016878514 0.42500001 4278869033
0.022340855 -0.016957941 0.42700002 4279263277
0.023838889 -0.017037369 0.42900002 4278206482
0.02540873 -0.017156512 0.43200001 4279129127
0.026935996 -0.01723594 0.43400002 4279655982
0.028541565 -0.017355083 0.43700001 4279391783
0.030166626 -0.017474225 0.44000003 4278202126
0.032026596 -0.017712509 0.44600001 4278200331
0.033700373 -0.017831653 0.44900003 4278199555
0.03539364 -0.017950796 0.45200002 4279521318
0.037187949 -0.018109651 0.45600003 4279258916
0.038923439 -0.018228794 0.45900002 4278204429
0.040590368 -0.018308222 0.46100003 4278402835
0.042361584 -0.018427365 0.46400002 4278402835
0.043963205 -0.01846708 0.46500003 4278401810
0.045669109 -0.018546507 0.46700001 4279190556
0.047286969 -0.018586222 0.46800002 4279586086
0.048911318 -0.018625936 0.46900001 4278928670
0.050542168 -0.018665651 0.47000003 4279258918
0.052068733 -0.018665651 0.47000003 4282085968
-0.020491375 -0.014476622 0.39700001 4282735953
-0.017957581 -0.014513087 0.39800003 4282538321
-0.016664878 -0.014513087 0.39800003 4282999888
-0.011551816 -0.014586017 0.40000001 4280958511
-0.010483299 -0.014914203 0.40900001 4281155890
-0.0092667853 -0.015096528 0.41400003 4281288239
-0.0079603828 -0.015169458 0.41600001 4281092403
-0.0066251014 -0.015205923 0.41700003 4281025583
-0.0052833245 -0.015242388 0.41800001 4280432676
-0.0039350516 -0.015278853 0.41900003 4280365602
-0.0025741386 -0.015278853 0.41900003 4280365602
-0.0012161214 -0.015315318 0.42000002 4280365088
0.00014803941 -0.015315318 0.42000002 4281154604
0.0015158006 -0.015351783 0.42100003 4281089063
0.0028832094 -0.015351783 0.42100003 4281285927
0.0042506182 -0.015351783 0.42100003 4281286181
0.0056046825 -0.015315318 0.42000002 4280234520
0.0069688428 -0.015315318 0.42000002 4279386652
0.0083330041 -0.015315318 0.42000002 4278928152
0.0096740769 -0.015278853 0.41900003 4278863386
0.011034989 -0.015278853 0.41900003 4279127328
0.012425486 -0.015315318 0.42000002 4278931232
0.013789647 -0.015315318 0.42000002 4278734880
0.015189888 -0.015351783 0.42100003 4278670624
0.016596625 -0.015388248 0.42200002 4278802980
0.018009858 -0.015424713 0.42300001 4278539808
0.019429589 -0.015461178 0.42400002 4278934566
0.020904887 -0.015534109 0.42600003 4279394093
0.022340855 -0.015570574 0.42700002 4279130921
0.023838889 -0.015643504 0.42900002 4278404890
0.02540873 -0.015752899 0.43200001 4280246326
0.026998062 -0.015862294 0.43500003 4278200588
0.028606879 -0.015971689 0.43800002 4278527248
0.030235186 -0.016081084 0.44100001 4279117590
0.031954788 -0.016226944 0.44500002 4278920724
0.033625316 -0.016336339 0.44800001 4279649059
0.035315339 -0.016445735 0.45100003 4278202893
0.037106395 -0.016591594 0.45500001 4279256869
0.03883864 -0.01670099 0.45800003 4278993695
0.040502317 -0.016773919 0.46000001 4279718186
0.042270292 -0.016883316 0.46300003 4278336533
0.043963205 -0.016956246 0.46500003 4279849256
0.045571316 -0.016992711 0.46600002 4280046637
0.047185928 -0.017029174 0.46700001 4280047410
0.048911318 -0.017102106 0.46900001 4279587113
0.05043463 -0.017102106 0.46900001 4279850033
0.052068733 -0.017138571 0.47000003 4285307009
-0.0094010858 -0.013950695 0.42000002 4283259967
-0.0079795187 -0.013851047 0.41700003 4283260994
-0.0066409889 -0.013884263 0.41800001 4281025837
-0.0052959644 -0.01391748 0.41900003 4280695848
-0.0039444431 -0.013950695 0.42000002 4280826153
-0.002580282 -0.013950695 0.42000002 4281286704
-0.0012190168 -0.013983912 0.42100003 4281286702
0.0015194011 -0.014017127 0.42200002 4281089061
0.0028900579 -0.014017127 0.42200002 4281154595
0.0042607146 -0.014017127 0.42200002 4281351972
0.0056313714 -0.014017127 0.42200002 4280366874
0.0069854357 -0.013983912 0.42100003 4279124250
0.008352845 -0.013983912 0.42100003 4279059738
0.0096971644 -0.013950695 0.42000002 4278928666
0.011061325 -0.013950695 0.42000002 4279126558
0.012425486 -0.013950695 0.42000002 4279391013
0.01382248 -0.013983912 0.42100003 4278865953
0.015189888 -0.013983912 0.42100003 4278604318
0.016596625 -0.014017127 0.42200002 4278868003
0.018009858 -0.014050343 0.42300001 4278868003
0.019429589 -0.01408356 0.42400002 4279262761
0.020904887 -0.014149992 0.42600003 4279394093
0.022393174 -0.014216423 0.42800003 4279130923
0.023894455 -0.014282854 0.43000001 4278201864
0.02540873 -0.014349286 0.43200001 4278928418
0.026998062 -0.014448935 0.43500003 4278658836
0.028606879 -0.014548583 0.43800002 4278920984
0.030235186 -0.01464823 0.44100001 4280830005
0.031954788 -0.014781094 0.44500002 4279843110
0.033625316 -0.014880742 0.44800001 4280898874
0.035315339 -0.01498039 0.45100003 4278200076
0.037024844 -0.015080038 0.45400003 4278728988
0.038753837 -0.015179685 0.45700002 4279125283
0.040502317 -0.015279333 0.46000001 4279322914
0.042178992 -0.015345764 0.46200001 4279980842
0.043868661 -0.015412197 0.46400002 4278202120
0.045571316 -0.015478629 0.46600002 4278204176
0.047185928 -0.015511844 0.46700001 4279981617
0.048911318 -0.015578276 0.46900001 4279784238
0.05043463 -0.015578276 0.46900001 4281294145
-0.014079467 -0.011926803 0.39800003 4284972915
-0.012786762 -0.011926803 0.39800003 4282799691
-0.0094010858 -0.012586073 0.42000002 4282204962
-0.0079986537 -0.012526139 0.41800001 4281483038
-0.0066409889 -0.012526139 0.41800001 4281222185
-0.0052959644 -0.012556106 0.41900003 4281024554
-0.0039444431 -0.012586073 0.42000002 4281155886
-0.0025864257 -0.01261604 0.42100003 4281221679
-0.0012219123 -0.012646006 0.42200002 4281353265
0.00014874437 -0.012646006 0.42200002 4281221679
0.0015230015 -0.012675973 0.42300001 4281089575
0.0028969061 -0.012675973 0.42300001 4281155108
0.0042708106 -0.012675973 0.42300001 4281220897
0.0056447159 -0.012675973 0.42300001 4280039190
0.0070020277 -0.012646006 0.42200002 4279190041
0.0083726849 -0.012646006 0.42200002 4279059738
0.0097202538 -0.01261604 0.42100003 4279258144
0.011087662 -0.01261604 0.42100003 4278929179
0.012455071 -0.01261604 0.42100003 4279194404
0.01382248 -0.01261604 0.42100003 4278866466
0.015225968 -0.012646006 0.42200002 4278670622
0.016635953 -0.012675973 0.42300001 4278802978
0.018052435 -0.012705941 0.42400002 4279131945
0.019475412 -0.012735907 0.42500001 4279262507
0.020904887 -0.012765874 0.42600003 4279394095
0.022393174 -0.012825808 0.42800003 4279919926
0.023894455 -0.012885741 0.43000001 4279980592
0.025467549 -0.012975642 0.43300003 4278201103
0.027060125 -0.013065542 0.43600002 4278725140
0.028606879 -0.013125476 0.43800002 4278198283
0.030235186 -0.013215376 0.44100001 4279317277
0.031882979 -0.013305278 0.44400004 4280174121
0.033550262 -0.013395178 0.44700003 4281227839
0.035237033 -0.013485078 0.45000002 4278199820
0.03694329 -0.013574978 0.45300001 4280703032
0.038669039 -0.013664879 0.45600003 4278795548
0.04041427 -0.013754779 0.45900002 4278200840
0.042178992 -0.01384468 0.46200001 4280176940
0.043868661 -0.013904613 0.46400002 4280376114
0.045473527 -0.013934581 0.46500003 4280113457
0.047185928 -0.013994514 0.46700001 4279586348
-0.012786762 -0.01063366 0.39800003 4281681452
-0.0093787024 -0.011194733 0.41900003 4283455027
-0.0079795187 -0.011141297 0.41700003 4281745697
-0.0066409889 -0.011168014 0.41800001 4282009900
-0.0052959644 -0.011194733 0.41900003 4281418280
-0.0039444431 -0.01122145 0.42000002 4281550128
-0.0025864257 -0.011248169 0.42100003 4281484335
-0.0012219123 -0.011274885 0.42200002 4281221933
0.00014909683 -0.011301603 0.42300001 4280958761
0.0015266021 -0.011328321 0.42400002 4281023782
0.0029037548 -0.011328321 0.42400002 4281286694
0.0042809076 -0.011328321 0.42400002 4280893218
0.0056580603 -0.011328321 0.42400002 4280040219
0.0070186201 -0.011301603 0.42300001 4279320857
0.0083925249 -0.011301603 0.42300001 4279190554
0.0097433422 -0.011274885 0.42200002 4278797593
0.011113998 -0.011274885 0.42200002 4279127328
0.012484656 -0.011274885 0.42200002 4279062818
0.013855312 -0.011274885 0.42200002 4278865953
0.015262048 -0.011301603 0.42300001 4278735904
0.016635953 -0.011301603 0.42300001 4278670622
0.018052435 -0.011328321 0.42400002 4279065380
0.019521238 -0.011381757 0.42600003 4279262761
0.020953959 -0.011408474 0.42700002 4279393582
0.022445494 -0.01146191 0.42900002 4279656754
0.023950025 -0.011515345 0.43100002 4280835901
0.025467549 -0.011568781 0.43300003 4278465300
0.027060125 -0.011648934 0.43600002 4280437293
0.028606879 -0.01170237 0.43800002 4278790418
0.030235186 -0.011782522 0.44100001 4278854929
0.031882979 -0.011862677 0.44400004 4278197255
0.033550262 -0.011942829 0.44700003 4279978026
0.035237033 -0.012022982 0.45000002 4278199302
0.036861736 -0.012076418 0.45200002 4278796318
0.038584236 -0.012156571 0.45500001 4279849518
0.040326223 -0.012236725 0.45800003 4280047151
0.042178992 -0.012343595 0.46200001 4279915563
0.043868661 -0.01239703 0.46400002 4279783465
0.045473527 -0.012423749 0.46500003 4281819976
-0.0091100996 -0.0095517347 0.40700001 4282073626
-0.007941247 -0.0097394837 0.41500002 4281811742
-0.0066251014 -0.0097864214 0.41700003 4282141486
-0.0052833245 -0.0098098889 0.41800001 4281483558
-0.0039350516 -0.0098333582 0.41900003 4280957477
-0.0025864257 -0.009880296 0.42100003 4281023270
-0.0012219123 -0.0099037644 0.42200002 4281089577
0.00014909683 -0.0099272327 0.42300001 4281089577
0.0015266021 -0.0099507011 0.42400002 4281155368
0.0029106031 -0.0099741695 0.42500001 4281484073
0.0042910036 -0.0099741695 0.42500001 4280301594
0.0056714048 -0.0099741695 0.42500001 4279844123
0.0070352126 -0.0099507011 0.42400002 4279124250
0.0084123658 -0.0099507011 0.42400002 4279124761
0.0097664297 -0.0099272327 0.42300001 4279126299
0.011140334 -0.0099272327 0.42300001 4279259168
0.012514239 -0.0099272327 0.42300001 4279326244
0.013888145 -0.0099272327 0.42300001 4278932000
0.015298129 -0.0099507011 0.42400002 4278999589
0.016675282 -0.0099507011 0.42400002 4278999589
0.018095011 -0.0099741695 0.42500001 4278933796
0.019521238 -0.0099976389 0.42600003 4279525166
0.021003032 -0.010044577 0.42800003 4279590189
0.022445494 -0.010068044 0.42900002 4278930466
0.023950025 -0.010114982 0.43100002 4281361473
0.025467549 -0.01016192 0.43300003 4278397456
0.026998062 -0.010208856 0.43500003 4278985750
0.028606879 -0.010279262 0.43800002 4279183129
0.030235186 -0.010349668 0.44100001 4278196744
0.03181117 -0.010396605 0.44300002 4280173867
0.033475202 -0.010467011 0.44600001 4279849772
0.035158731 -0.010537418 0.44900003 4279981871
0.036780186 -0.010584354 0.45100003 4279522603
0.038414635 -0.010631291 0.45300001 4279523373
-0.01281889 -0.0080675939 0.39900002 4282010417
-0.010303878 -0.0081282528 0.40200001 4282074144
-0.0091100996 -0.0082293497 0.40700001 4282008353
-0.0079029761 -0.0083506675 0.41300002 4282272041
-0.0065933261 -0.0083911065 0.41500002 4281286177
-0.0052706851 -0.0084315455 0.41700003 4281680937
-0.0039350516 -0.0084719844 0.41900003 4281680685
-0.002580282 -0.0084922044 0.42000002 4281418028
-0.0012219123 -0.0085326433 0.42200002 4281023270
0.00014909683 -0.0085528623 0.42300001 4281418028
0.0015302025 -0.0085933013 0.42500001 4281418026
0.0029106031 -0.0085933013 0.42500001 4281418280
0.0043011005 -0.0086135212 0.42600003 4280104985
0.0056714048 -0.0085933013 0.42500001 4279909916
0.007051805 -0.0085933013 0.42500001 4279255836
0.0084322058 -0.0085933013 0.42500001 4279256347
0.009789519 -0.0085730823 0.42400002 4279126812
0.011166671 -0.0085730823 0.42400002 4279062302
0.012543825 -0.0085730823 0.42400002 4278998306
0.013920978 -0.0085730823 0.42400002 4278998306
0.015334209 -0.0085933013 0.42500001 4279130921
0.01671461 -0.0085933013 0.42500001 4278999335
0.018137589 -0.0086135212 0.42600003 4278934312
0.019567061 -0.0086337412 0.42700002 4279394093
0.021003032 -0.0086539611 0.42800003 4279589678
0.022445494 -0.0086741801 0.42900002 4278203921
0.023950025 -0.0087146191 0.43100002 4281556288
0.025467549 -0.0087550581 0.43300003 4278199311
0.026998062 -0.008795497 0.43500003 4279909416
0.028541565 -0.008835936 0.43700001 4281424448
0.030166626 -0.0088965949 0.44000003 4280112692
0.03181117 -0.0089572538 0.44300002 4279719215
0.033400148 -0.0089976927 0.44500002 4279720748
0.035080422 -0.0090583507 0.44800001 4279391783
0.036780186 -0.0091190096 0.45100003 4278995746
0.038329836 -0.0091392295 0.45200002 4281099587
-0.014114843 -0.0067712017 0.39900002 4282669127
-0.0091100996 -0.0069069648 0.40700001 4283458627
-0.0078838412 -0.0069918176 0.41200003 4282209080
-0.0065933261 -0.0070427288 0.41500002 4281550126
-0.0052580452 -0.0070596989 0.41600001 4281615659
-0.0039256597 -0.0070936396 0.41800001 4281484073
-0.002580282 -0.0071275807 0.42000002 4281154854
-0.0012190168 -0.0071445513 0.42100003 4281483821
0.00014909683 -0.0071784919 0.42300001 4281483819
0.0015302025 -0.0072124326 0.42500001 4281615405
0.0029174518 -0.0072294036 0.42600003 4281286694
0.0043011005 -0.0072294036 0.42600003 4279710740
0.0056847497 -0.0072294036 0.42600003 4279648027
0.0070683979 -0.0072294036 0.42600003 4279190043
0.0084322058 -0.0072124326 0.42500001 4279124763
0.0098126074 -0.0072124326 0.42500001 4279061789
0.011193007 -0.0072124326 0.42500001 4278996509
0.012573409 -0.0072124326 0.42500001 4278933283
0.01395381 -0.0072124326 0.42500001 4278867490
0.01537029 -0.0072294036 0.42600003 4278933542
0.01675394 -0.0072294036 0.42600003 4278999335
0.018180164 -0.0072463737 0.42700002 4279263277
0.019612886 -0.0072633442 0.42800003 4279328300
0.021003032 -0.0072633442 0.42800003 4279786543
0.022497814 -0.0072972849 0.43000001 4280245041
0.023950025 -0.0073142555 0.43100002 4280178483
0.025467549 -0.0073481966 0.43300003 4280112692
0.026935996 -0.0073651667 0.43400002 4279850803
0.028476253 -0.0073991078 0.43600002 4279851314
0.030098066 -0.0074500185 0.43900001 4279654957
0.031739365 -0.0075009302 0.44200003 4279325994
0.033325091 -0.0075348713 0.44400004 4279652652
0.035080422 -0.0076027527 0.44800001 4281163583
0.036780186 -0.0076536643 0.45100003 4286424202
-0.0091100996 -0.0055845808 0.40700001 4281420595
-0.0078647053 -0.005639466 0.41100001 4281683513
-0.0065933261 -0.0056943516 0.41500002 4281945402
-0.0052580452 -0.0057080728 0.41600001 4282339390
-0.0039256597 -0.0057355152 0.41800001 4282339130
-0.0025741386 -0.0057492368 0.41900003 4281549614
-0.0012190168 -0.0057766796 0.42100003 4281615405
0.00014909683 -0.005804122 0.42300001 4281681452
0.0015302025 -0.0058315648 0.42500001 4281746732
0.0029174518 -0.0058452864 0.42600003 4281220901
0.0043011005 -0.0058452864 0.42600003 4280173090
0.0056847497 -0.0058452864 0.42600003 4279386141
0.0070683979 -0.0058452864 0.42600003 4279255836
0.0084520467 -0.0058452864 0.42600003 4279519521
0.0098356958 -0.0058452864 0.42600003 4279126560
0.011219344 -0.0058452864 0.42600003 4279127843
0.012602993 -0.0058452864 0.42600003 4278867238
0.013986642 -0.0058452864 0.42600003 4278933542
0.01540637 -0.0058590076 0.42700002 4279788851
0.016793268 -0.0058590076 0.42700002 4279130921
0.018180164 -0.0058590076 0.42700002 4279723060
0.019612886 -0.0058727288 0.42800003 4279394095
0.021052103 -0.0058864499 0.42900002 4279654957
0.022497814 -0.0059001711 0.43000001 4279126560
0.023950025 -0.0059138928 0.43100002 4279917107
0.02540873 -0.0059276139 0.43200001 4279785521
0.026873933 -0.0059413356 0.43300003 4279785521
0.028410941 -0.0059687784 0.43500003 4279522349
0.030029505 -0.0060099419 0.43800002 4279388715
0.031739365 -0.0060648276 0.44200003 4282939742
0.033325091 -0.0060922704 0.44400004 4286752917
0.035080422 -0.0061471551 0.44800001 4286291853
-0.014150217 -0.0041888906 0.40000001 4285038188
-0.012883144 -0.0041993628 0.40100002 4282406218
-0.0078647053 -0.0043040849 0.41100001 4287014806
-0.0065933261 -0.004345974 0.41500002 4287211926
-0.0052706851 -0.0043669185 0.41700003 4287802777
-0.0039256597 -0.0043773907 0.41800001 4284315235
-0.0025741386 -0.004387863 0.41900003 4282209087
-0.0012161214 -0.0043983352 0.42000002 4282734402
0.00014874437 -0.0044192798 0.42200002 4282339128
0.0015302025 -0.0044506961 0.42500001 4282207542
0.0029106031 -0.0044506961 0.42500001 4280695587
0.0043011005 -0.0044611688 0.42600003 4279715106
0.0056847497 -0.0044611688 0.42600003 4279124252
0.0070683979 -0.0044611688 0.42600003 4279256351
0.0084520467 -0.0044611688 0.42600003 4279388705
0.0098356958 -0.0044611688 0.42600003 4279193121
0.011245681 -0.0044716406 0.42700002 4279391013
0.012632578 -0.0044716406 0.42700002 4278933029
0.014019474 -0.0044716406 0.42700002 4278867749
0.01540637 -0.0044716406 0.42700002 4278868519
0.016832596 -0.0044821128 0.42800003 4278934312
0.018222742 -0.0044821128 0.42800003 4279459886
0.019612886 -0.0044821128 0.42800003 4279393580
0.021052103 -0.0044925851 0.42900002 4279523883
0.022497814 -0.0045030573 0.43000001 4279654955
0.023894455 -0.0045030573 0.43000001 4279654187
0.02540873 -0.0045240019 0.43200001 4279060515
0.026873933 -0.0045344741 0.43300003 4281294147
0.028345628 -0.0045449464 0.43400002 4286162316
0.030029505 -0.0045868354 0.43800002 4286753169
-0.018138058 -0.0029036959 0.40200001 4281813300
-0.015488042 -0.002896473 0.40100002 4285038440
-0.014185593 -0.002896473 0.40100002 4285170026
-0.011609576 -0.0029036959 0.40200001 4282801228
-0.01032951 -0.0029109193 0.40300003 4282407240
-0.0090877162 -0.0029325886 0.40600002 4287015060
-0.0078647053 -0.0029687041 0.41100001 4286883474
-0.0066251014 -0.003012043 0.41700003 4287015060
-0.0052833245 -0.0030192661 0.41800001 4286817681
-0.0039256597 -0.0030192661 0.41800001 4286751888
-0.0025741386 -0.0030264892 0.41900003 4286949265
-0.0012161214 -0.0030337123 0.42000002 4284645227
0.00014839189 -0.0030409356 0.42100003 4280301862
0.0015302025 -0.0030698278 0.42500001 4280696618
0.0029106031 -0.0030698278 0.42500001 4280369704
0.0043011005 -0.0030770511 0.42600003 4279255068
0.0056847497 -0.0030770511 0.42600003 4279453217
0.0070683979 -0.0030770511 0.42600003 4279125533
0.0084718876 -0.0030842742 0.42700002 4279389217
0.0098587843 -0.0030842742 0.42700002 4279193634
0.011245681 -0.0030842742 0.42700002 4279194404
0.012632578 -0.0030842742 0.42700002 4279063845
0.014052308 -0.0030914973 0.42800003 4279196201
0.015442451 -0.0030914973 0.42800003 4279065128
0.016832596 -0.0030914973 0.42800003 4278999335
0.018265318 -0.0030987205 0.42900002 4279130921
0.019658711 -0.0030987205 0.42900002 4279327789
0.021052103 -0.0030987205 0.42900002 4279193125
0.022497814 -0.0031059433 0.43000001 4279980592
0.023894455 -0.0031059433 0.43000001 4285371778
0.025349915 -0.0031131667 0.43100002 4287016603
0.026811868 -0.0031203898 0.43200001 4286556306
-0.014185593 -0.001593583 0.40100002 4288066461
-0.012915271 -0.001597557 0.40200001 4288133024
-0.011609576 -0.001597557 0.40200001 4287672475
-0.01032951 -0.0016015311 0.40300003 4287278230
-0.0090877162 -0.0016134531 0.40600002 4286686863
-0.0078647053 -0.0016333233 0.41100001 4286621070
-0.0066409889 -0.0016611414 0.41800001 4286949265
-0.0052833245 -0.0016611414 0.41800001 4286883470
-0.0039256597 -0.0016611414 0.41800001 4286686091
-0.0025741386 -0.0016651155 0.41900003 4286422919
-0.0012132258 -0.0016651155 0.41900003 4286291333
0.00014803941 -0.0016690894 0.42000002 4286883470
0.0015302025 -0.0016889595 0.42500001 4286751886
0.0029174518 -0.0016929336 0.42600003 4282475341
0.0043011005 -0.0016929336 0.42600003 4279318558
0.0056847497 -0.0016929336 0.42600003 4279385119
0.0070683979 -0.0016929336 0.42600003 4279321377
0.0084718876 -0.0016969076 0.42700002 4279124765
0.0098587843 -0.0016969076 0.42700002 4279786545
0.011245681 -0.0016969076 0.42700002 4279852338
0.012662163 -0.0017008816 0.42800003 4279063847
0.014052308 -0.0017008816 0.42800003 4279196203
0.015442451 -0.0017008816 0.42800003 4278998824
0.016871924 -0.0017048557 0.42900002 4278735654
0.018265318 -0.0017048557 0.42900002 4279585580
0.019658711 -0.0017048557 0.42900002 4284386420
-0.015603913 -0.00029286777 0.40400001 4287737234
-0.01429172 -0.00029286777 0.40400001 4287212437
-0.012979527 -0.00029286777 0.40400001 4287344023
-0.011667334 -0.00029286777 0.40400001 4287212437
-0.010355142 -0.00029286777 0.40400001 4286883472
-0.0090877162 -0.00029431761 0.40600002 4286686865
-0.0078647053 -0.0002979422 0.41100001 4286555279
-0.0066409889 -0.00030301666 0.41800001 4286555277
-0.0052833245 -0.00030301666 0.41800001 4286357898
-0.0039256597 -0.00030301666 0.41800001 4286620300
-0.0025741386 -0.00030374157 0.41900003 4286422921
-0.0012132258 -0.00030374157 0.41900003 4286488714
0.00014803941 -0.00030446649 0.42000002 4286422921
0.0029174518 -0.00030881603 0.42600003 4286226312
0.0043011005 -0.00030881603 0.42600003 4286489484
0.0056847497 -0.00030881603 0.42600003 4287015828
0.0070683979 -0.00030881603 0.42600003 4284976243
0.0084520467 -0.00030881603 0.42600003 4282476622
0.0098587843 -0.00030954092 0.42700002 4280109871
0.011272018 -0.00031026587 0.42800003 4280110641
0.012662163 -0.00031026587 0.42800003 4279717420
0.014052308 -0.00031026587 0.42800003 4281033026
0.015478531 -0.00031099078 0.42900002 4284122733
0.016871924 -0.00031099078 0.42900002 4287411099
0.018265318 -0.00031099078 0.42900002 4287016343
-0.017125463 0.0010323904 0.40900001 4287145613
-0.01579703 0.0010323904 0.40900001 4287277969
-0.014468597 0.0010323904 0.40900001 4287278230
-0.013140164 0.0010323904 0.40900001 4287146646
-0.011811732 0.0010323904 0.40900001 4287015060
-0.010483299 0.0010323904 0.40900001 4286949267
-0.0091548664 0.0010323904 0.40900001 4286621072
-0.0078647053 0.0010374389 0.41100001 4286621072
-0.0066409889 0.0010551082 0.41800001 4286357900
-0.0052833245 0.0010551082 0.41800001 4286357900
-0.0039256597 0.0010551082 0.41800001 4286488716
-0.0025741386 0.0010576323 0.41900003 4286292107
-0.0012132258 0.0010576323 0.41900003 4286226314
0.0056847497 0.0010753016 0.42600003 4286818451
0.0070683979 0.0010753016 0.42600003 4287015828
0.0084520467 0.0010753016 0.42600003 4287147414
-0.018499015 0.0023670467 0.41000003 4287474324
-0.017167335 0.0023670467 0.41000003 4286884242
-0.015835654 0.0023670467 0.41000003 4287015828
-0.014503974 0.0023670467 0.41000003 4287081623
-0.013172292 0.0023670467 0.41000003 4286884244
-0.011840613 0.0023670467 0.41000003 4286620818
-0.010508931 0.0023670467 0.41000003 4286621072
-0.0091772508 0.0023670467 0.41000003 4286159751
-0.0078647053 0.0023728197 0.41100001 4286620302
-0.0066409889 0.0024132328 0.41800001 4286489486
-0.0052833245 0.0024132328 0.41800001 4286555279
-0.0039256597 0.0024132328 0.41800001 4286292107
-0.0025741386 0.0024190061 0.41900003 4286357900
-0.0012132258 0.0024190061 0.41900003 4286422921
-0.020024167 0.003735268 0.41400003 4287407758
-0.018724613 0.0037442902 0.41500002 4287146642
-0.017376693 0.0037442902 0.41500002 4287147414
-0.016028773 0.0037442902 0.41500002 4287015828
-0.014680851 0.0037442902 0.41500002 4286883990
-0.01333293 0.0037442902 0.41500002 4286818197
-0.01198501 0.0037442902 0.41500002 4286620818
-0.020072535 0.0050926679 0.41500002 4286947466
-0.018814852 0.005117211 0.41700003 4286884242
-0.017460436 0.005117211 0.41700003 4287015828
-0.016106019 0.005117211 0.41700003 4286621070
-0.014751602 0.005117211 0.41700003 4286489486
-0.013397185 0.005117211 0.41700003 4286884244
-0.020169269 0.0064720865 0.41700003 4288065688
-0.018814852 0.0064720865 0.41700003 4286949263
-0.020169269 0.0078269625 0.41700003 4287671703
0.013337387 -0.012108018 0.42966053 4294967295
0.013337387 -0.012108018 0.42966053 4294901760
0.013454749 -0.012541076 0.42943987 4294901760
0.013572112 -0.012974135 0.42921922 4294901760
0.013689474 -0.013407193 0.42899859 4294901760
0.013806837 -0.013840252 0.42877793 4294901760
0.0139242 -0.01427331 0.42855728 4294901760
0.014041563 -0.014706369 0.42833662 4294901760
0.014158925 -0.015139427 0.42811599 4294901760
0.014276288 -0.015572485 0.42789534 4294901760
0.01439365 -0.016005544 0.42767468 4294901760
0.014511012 -0.016438602 0.42745402 4294901760
0.014628375 -0.016871661 0.42723337 4294901760
0.014745737 -0.017304718 0.42701274 4294901760
0.0148631 -0.017737778 0.42679209 4294901760
0.014980463 -0.018170835 0.42657143 4294901760
0.015097826 -0.018603895 0.42635077 4294901760
0.015215188 -0.019036952 0.42613015 4294901760
0.015332551 -0.019470012 0.42590949 4294901760
0.015449913 -0.019903069 0.42568883 4294901760
0.015567276 -0.020336129 0.42546818 4294901760
0.015684638 -0.020769186 0.42524752 4294901760
0.015802002 -0.021202244 0.42502689 4294901760
0.015919363 -0.021635303 0.42480624 4294901760
0.016036727 -0.022068363 0.42458558 4294901760
0.016154088 -0.02250142 0.42436492 4294901760
0.016271451 -0.022934478 0.42414427 4294901760
0.016388815 -0.023367537 0.42392364 4294901760
0.016506176 -0.023800597 0.42370299 4294901760
0.01662354 -0.024233654 0.42348233 4294901760
0.016740901 -0.024666712 0.42326167 4294901760
0.016858265 -0.025099771 0.42304105 4294901760
0.016975626 -0.025532831 0.42282039 4294901760
0.01709299 -0.025965888 0.42259973 4294901760
0.017210353 -0.026398946 0.42237908 4294901760
0.017327715 -0.026832005 0.42215842 4294901760
0.017445076 -0.027265063 0.42193779 4294901760
0.01756244 -0.027698122 0.42171714 4294901760
0.017679803 -0.02813118 0.42149648 4294901760
0.017797165 -0.028564237 0.42127582 4294901760
0.017914528 -0.028997295 0.4210552 4294901760
0.018031891 -0.029430356 0.42083454 4294901760
0.018149253 -0.029863413 0.42061388 4294901760
0.018266615 -0.030296471 0.42039323 4294901760
0.018383978 -0.030729532 0.42017257 4294901760
0.018501341 -0.03116259 0.41995195 4294901760
0.018618703 -0.031595647 0.41973129 4294901760
0.018736066 -0.032028705 0.41951063 4294901760
0.018853428 -0.032461766 0.41928998 4294901760
0.018970791 -0.032894824 0.41906935 4294901760
0.019088153 -0.033327881 0.41884869 4294901760
0.019205516 -0.033760939 0.41862804 4294901760
0.01932288 -0.034193996 0.41840738 4294901760
0.019440241 -0.034627058 0.41818672 4294901760
0.019557603 -0.035060115 0.4179661 4294901760
0.019674968 -0.035493173 0.41774544 4294901760
0.01979233 -0.035926234 0.41752478 4294901760
0.019909691 -0.036359292 0.41730413 4294901760
0.020027054 -0.036792349 0.4170835 4294901760
0.020144416 -0.037225407 0.41686285 4294901760
0.020261779 -0.037658464 0.41664219 4294901760
0.020379143 -0.038091525 0.41642153 4294901760
0.020496504 -0.038524583 0.41620088 4294901760
0.020613868 -0.038957641 0.41598025 4294901760
0.020731229 -0.039390698 0.41575959 4294901760
0.020848593 -0.039823756 0.41553894 4294901760
0.020965954 -0.040256817 0.41531828 4294901760
0.021083318 -0.040689874 0.41509765 4294901760
0.021200679 -0.041122936 0.414877 4294901760
0.021318043 -0.041555993 0.41465634 4294901760
0.021435406 -0.041989051 0.41443568 4294901760
0.021552768 -0.042422108 0.41421503 4294901760
0.021670129 -0.042855166 0.4139944 4294901760
0.021787494 -0.043288227 0.41377375 4294901760
0.021904856 -0.043721285 0.41355309 4294901760
0.022022218 -0.044154342 0.41333243 4294901760
0.022139581 -0.0445874 0.41311181 4294901760
0.022256944 -0.045020457 0.41289115 4294901760
0.022374306 -0.045453515 0.41267049 4294901760
0.022491667 -0.045886572 0.41244984 4294901760
0.022609033 -0.046319634 0.41222918 4294901760
0.022726394 -0.046752691 0.41200855 4294901760
0.022843756 -0.047185749 0.4117879 4294901760
0.022961119 -0.04761881 0.41156724 4294901760
0.023078483 -0.048051868 0.41134658 4294901760
0.023195844 -0.048484925 0.41112596 4294901760
0.023313208 -0.048917986 0.4109053 4294901760
0.023430571 -0.049351044 0.41068465 4294901760
0.023547933 -0.049784102 0.41046399 4294901760
0.023665294 -0.050217159 0.41024333 4294901760
0.023782656 -0.050650217 0.41002271 4294901760
0.023900019 -0.051083274 0.40980205 4294901760
0.024017382 -0.051516335 0.40958139 4294901760
0.024134744 -0.051949393 0.40936074 4294901760
0.024252107 -0.052382451 0.40914008 4294901760
0.024369471 -0.052815512 0.40891945 4294901760
0.024486832 -0.053248569 0.4086988 4294901760
0.024604194 -0.053681627 0.40847814 4294901760
0.024721559 -0.054114688 0.40825748 4294901760
0.024838921 -0.054547746 0.40803686 4294901760
0.024956282 -0.054980803 0.4078162 4294901760
0.025073646 -0.055413861 0.40759555 4294901760
0.013337387 -0.012108018 0.42966053 4278255360
0.013691789 -0.012187103 0.43000424 4278255360
0.014046192 -0.012266188 0.43034798 4278255360
0.014400595 -0.012345273 0.43069169 4278255360
0.014754998 -0.012424358 0.4310354 4278255360
0.0151094 -0.012503443 0.43137914 4278255360
0.015463803 -0.012582528 0.43172285 4278255360
0.015818207 -0.012661614 0.43206659 4278255360
0.016172608 -0.012740699 0.4324103 4278255360
0.016527012 -0.012819784 0.43275401 4278255360
0.016881414 -0.012898869 0.43309775 4278255360
0.017235817 -0.012977954 0.43344146 4278255360
0.017590219 -0.013057039 0.43378517 4278255360
0.017944623 -0.013136124 0.43412891 4278255360
0.018299025 -0.013215209 0.43447262 4278255360
0.018653428 -0.013294294 0.43481636 4278255360
0.01900783 -0.013373379 0.43516007 4278255360
0.019362234 -0.013452465 0.43550378 4278255360
0.019716635 -0.013531549 0.43584752 4278255360
0.020071039 -0.013610634 0.43619123 4278255360
0.020425443 -0.013689719 0.43653494 4278255360
0.020779844 -0.013768804 0.43687868 4278255360
0.021134246 -0.013847889 0.43722239 4278255360
0.02148865 -0.013926974 0.4375661 4278255360
0.021843053 -0.01400606 0.43790984 4278255360
0.022197455 -0.014085145 0.43825355 4278255360
0.022551857 -0.01416423 0.43859729 4278255360
0.022906261 -0.014243315 0.438941 4278255360
0.023260664 -0.0143224 0.43928471 4278255360
0.023615066 -0.014401485 0.43962845 4278255360
0.02396947 -0.01448057 0.43997216 4278255360
0.024323871 -0.014559655 0.44031587 4278255360
0.024678275 -0.014638741 0.44065961 4278255360
0.025032677 -0.014717826 0.44100332 4278255360
0.025387079 -0.014796911 0.44134706 4278255360
0.025741482 -0.014875996 0.44169077 4278255360
0.026095886 -0.014955081 0.44203448 4278255360
0.026450288 -0.015034166 0.44237822 4278255360
0.026804689 -0.015113251 0.44272193 4278255360
0.027159093 -0.015192336 0.44306564 4278255360
0.027513497 -0.015271422 0.44340938 4278255360
0.027867898 -0.015350507 0.44375309 4278255360
0.0282223 -0.015429592 0.44409683 4278255360
0.028576706 -0.015508677 0.44444054 4278255360
0.028931107 -0.015587762 0.44478425 4278255360
0.029285509 -0.015666846 0.44512799 4278255360
0.029639913 -0.015745932 0.4454717 4278255360
0.029994315 -0.015825016 0.44581541 4278255360
0.030348718 -0.015904102 0.44615915 4278255360
0.030703122 -0.015983187 0.44650286 4278255360
0.031057524 -0.016062273 0.4468466 4278255360
0.031411923 -0.016141357 0.44719031 4278255360
0.031766329 -0.016220443 0.44753402 4278255360
0.032120731 -0.016299527 0.44787776 4278255360
0.032475136 -0.016378613 0.44822147 4278255360
0.032829538 -0.016457697 0.44856519 4278255360
0.03318394 -0.016536783 0.44890893 4278255360
0.033538342 -0.016615868 0.44925264 4278255360
0.033892743 -0.016694952 0.44959635 4278255360
0.034247145 -0.016774038 0.44994009 4278255360
0.034601554 -0.016853124 0.4502838 4278255360
0.034955956 -0.016932208 0.45062754 4278255360
0.035310358 -0.017011292 0.45097125 4278255360
0.03566476 -0.017090378 0.45131496 4278255360
0.036019161 -0.017169464 0.4516587 4278255360
0.036373563 -0.017248549 0.45200241 4278255360
0.036727969 -0.017327633 0.45234612 4278255360
0.03708237 -0.017406719 0.45268986 4278255360
0.037436772 -0.017485805 0.45303357 4278255360
0.037791178 -0.017564889 0.45337731 4278255360
0.038145579 -0.017643973 0.45372102 4278255360
0.038499981 -0.017723059 0.45406473 4278255360
0.038854383 -0.017802145 0.45440847 4278255360
0.039208785 -0.01788123 0.45475218 4278255360
0.03956319 -0.017960314 0.45509589 4278255360
0.039917592 -0.0180394 0.45543963 4278255360
0.040271994 -0.018118484 0.45578334 4278255360
0.040626399 -0.01819757 0.45612705 4278255360
0.040980801 -0.018276654 0.45647079 4278255360
0.041335203 -0.01835574 0.4568145 4278255360
0.041689605 -0.018434824 0.45715824 4278255360
0.042044006 -0.01851391 0.45750195 4278255360
0.042398412 -0.018592995 0.45784566 4278255360
0.042752814 -0.018672081 0.4581894 4278255360
0.043107215 -0.018751165 0.45853311 4278255360
0.043461621 -0.018830251 0.45887685 4278255360
0.043816023 -0.018909335 0.45922056 4278255360
0.044170424 -0.018988421 0.45956427 4278255360
0.044524826 -0.019067505 0.45990801 4278255360
0.044879228 -0.019146591 0.46025172 4278255360
0.04523363 -0.019225676 0.46059543 4278255360
0.045588039 -0.019304762 0.46093917 4278255360
0.045942441 -0.019383846 0.46128288 4278255360
0.046296842 -0.019462932 0.46162659 4278255360
0.046651244 -0.019542016 0.46197033 4278255360
0.047005646 -0.0196211 0.46231404 4278255360
0.047360048 -0.019700186 0.46265775 4278255360
0.047714449 -0.019779272 0.46300149 4278255360
0.048068859 -0.019858357 0.4633452 4278255360
0.04842326 -0.019937441 0.46368894 4278255360
0.048777662 -0.020016527 0.46403265 4278255360
0.013337387 -0.012108018 0.42966053 4278190335
0.013283785 -0.012345158 0.43009743 4278190335
0.013230185 -0.012582297 0.43053436 4278190335
0.013176584 -0.012819436 0.43097126 4278190335
0.013122982 -0.013056576 0.43140817 4278190335
0.013069382 -0.013293715 0.4318451 4278190335
0.013015781 -0.013530855 0.432282 4278190335
0.01296218 -0.013767995 0.4327189 4278190335
0.012908579 -0.014005134 0.43315583 4278190335
0.012854978 -0.014242274 0.43359274 4278190335
0.012801377 -0.014479414 0.43402964 4278190335
0.012747776 -0.014716553 0.43446657 4278190335
0.012694174 -0.014953692 0.43490347 4278190335
0.012640574 -0.015190832 0.43534037 4278190335
0.012586973 -0.015427971 0.43577728 4278190335
0.012533371 -0.015665112 0.43621421 4278190335
0.012479771 -0.015902251 0.43665111 4278190335
0.01242617 -0.01613939 0.43708801 4278190335
0.012372568 -0.016376531 0.43752494 4278190335
0.012318968 -0.01661367 0.43796185 4278190335
0.012265367 -0.016850809 0.43839875 4278190335
0.012211766 -0.017087948 0.43883568 4278190335
0.012158165 -0.017325088 0.43927258 4278190335
0.012104563 -0.017562227 0.43970948 4278190335
0.012050963 -0.017799366 0.44014642 4278190335
0.011997362 -0.018036507 0.44058332 4278190335
0.01194376 -0.018273646 0.44102022 4278190335
0.01189016 -0.018510787 0.44145715 4278190335
0.011836559 -0.018747926 0.44189405 4278190335
0.011782957 -0.018985065 0.44233096 4278190335
0.011729357 -0.019222206 0.44276789 4278190335
0.011675755 -0.019459344 0.44320479 4278190335
0.011622155 -0.019696483 0.44364169 4278190335
0.011568554 -0.019933624 0.44407862 4278190335
0.011514952 -0.020170763 0.44451553 4278190335
0.011461352 -0.020407904 0.44495243 4278190335
0.011407751 -0.020645043 0.44538936 4278190335
0.011354149 -0.020882182 0.44582626 4278190335
0.011300549 -0.021119323 0.44626316 4278190335
0.011246948 -0.02135646 0.44670007 4278190335
0.011193346 -0.021593601 0.447137 4278190335
0.011139746 -0.021830741 0.4475739 4278190335
0.011086144 -0.022067878 0.4480108 4278190335
0.011032544 -0.022305019 0.44844773 4278190335
0.010978943 -0.02254216 0.44888464 4278190335
0.010925341 -0.022779297 0.44932154 4278190335
0.01087174 -0.023016438 0.44975847 4278190335
0.01081814 -0.023253579 0.45019537 4278190335
0.010764538 -0.023490716 0.45063227 4278190335
0.010710938 -0.023727857 0.45106921 4278190335
0.010657337 -0.023964997 0.45150611 4278190335
0.010603735 -0.024202134 0.45194301 4278190335
0.010550135 -0.024439275 0.45237994 4278190335
0.010496533 -0.024676414 0.45281684 4278190335
0.010442932 -0.024913555 0.45325375 4278190335
0.010389332 -0.025150694 0.45369068 4278190335
0.01033573 -0.025387835 0.45412758 4278190335
0.010282129 -0.025624974 0.45456448 4278190335
0.010228529 -0.025862113 0.45500141 4278190335
0.010174928 -0.026099252 0.45543832 4278190335
0.010121327 -0.026336392 0.45587522 4278190335
0.010067726 -0.026573531 0.45631215 4278190335
0.010014124 -0.026810672 0.45674905 4278190335
0.0099605238 -0.027047811 0.45718595 4278190335
0.0099069225 -0.02728495 0.45762286 4278190335
0.0098533221 -0.027522091 0.45805979 4278190335
0.0097997207 -0.027759232 0.45849669 4278190335
0.0097461194 -0.027996369 0.45893359 4278190335
0.009692518 -0.02823351 0.45937052 4278190335
0.0096389176 -0.028470647 0.45980743 4278190335
0.0095853163 -0.028707787 0.46024433 4278190335
0.0095317159 -0.028944928 0.46068126 4278190335
0.0094781145 -0.029182069 0.46111816 4278190335
0.0094245132 -0.029419206 0.46155506 4278190335
0.0093709119 -0.029656347 0.461992 4278190335
0.0093173115 -0.029893484 0.4624289 4278190335
0.0092637111 -0.030130625 0.4628658 4278190335
0.0092101097 -0.030367766 0.46330273 4278190335
0.0091565084 -0.030604903 0.46373963 4278190335
0.009102907 -0.030842043 0.46417654 4278190335
0.0090493057 -0.031079184 0.46461347 4278190335
0.0089957053 -0.031316325 0.46505037 4278190335
0.0089421049 -0.031553462 0.46548727 4278190335
0.0088885035 -0.031790603 0.4659242 4278190335
0.0088349022 -0.03202774 0.46636111 4278190335
0.0087813009 -0.032264881 0.46679801 4278190335
0.0087277004 -0.032502022 0.46723491 4278190335
0.0086741 -0.032739162 0.46767184 4278190335
0.0086204987 -0.0329763 0.46810874 4278190335
0.0085668974 -0.03321344 0.46854568 4278190335
0.008513296 -0.033450577 0.46898258 4278190335
0.0084596947 -0.033687718 0.46941948 4278190335
0.0084060943 -0.033924859 0.46985638 4278190335
0.0083524939 -0.034162 0.47029331 4278190335
0.0082988925 -0.034399137 0.47073022 4278190335
0.0082452912 -0.034636278 0.47116712 4278190335
0.0081916898 -0.034873415 0.47160405 4278190335
0.0081380894 -0.035110556 0.47204095 4278190335
0.0080844881 -0.035347696 0.47247785 4278190335
0.0080308877 -0.035584837 0.47291479 4278190335
0.0079772864 -0.035821974 0.47335169 4278190335
0.013337387 -0.012108018 0.42966053 4294967295
0.013658993 -0.01068518 0.42703906 4294967295
0.013980599 -0.0092623429 0.42441759 4294967295
0.014302205 -0.0078395046 0.42179611 4294967295
0.014623811 -0.0064166677 0.41917464 4294967295
0.014945417 -0.0049938299 0.41655317 4294967295
0.015267023 -0.0035709925 0.4139317 4294967295
0.015588629 -0.0021481551 0.41131026 4294967295
0.015910234 -0.00072531775 0.40868878 4294967295
0.01623184 0.00069752056 0.40606731 4294967295
0.016553447 0.0021203579 0.40344584 4294967295
0.016875053 0.0035431953 0.40082437 4294967295
0.017196659 0.0049660327 0.3982029 4294967295
0.017518265 0.0063888701 0.39558142 4294967295
0.017839871 0.0078117074 0.39295995 4294967295
0.018161478 0.0092345467 0.39033848 4294967295
0.018483084 0.010657382 0.38771701 4294967295
0.01880469 0.01208022 0.38509554 4294967295
0.019126296 0.013503059 0.38247406 4294967295
0.0194479 0.014925894 0.37985259 4294967295
0.019769508 0.016348734 0.37723112 4294967295
0.020091113 0.017771568 0.37460965 4294967295
0.020412719 0.019194409 0.37198818 4294967295
0.020734325 0.020617247 0.36936674 4294967295
0.021055931 0.022040084 0.36674526 4294967295
0.021377537 0.023462921 0.36412379 4294967295
0.021699144 0.024885759 0.36150232 4294967295
0.02202075 0.026308596 0.35888085 4294967295
0.022342356 0.027731434 0.35625938 4294967295
0.022663962 0.029154271 0.3536379 4294967295
0.022985568 0.030577112 0.35101643 4294967295
0.023307174 0.031999946 0.34839496 4294967295
0.023628779 0.033422783 0.34577349 4294967295
0.023950387 0.034845624 0.34315202 4294967295
0.024271991 0.036268458 0.34053054 4294967295
0.024593597 0.037691295 0.3379091 4294967295
0.024915203 0.039114136 0.33528763 4294967295
0.02523681 0.040536974 0.33266616 4294967295
0.025558416 0.041959807 0.33004469 4294967295
0.02588002 0.043382645 0.32742321 4294967295
