# .PCD v0.7 - Point Cloud Data file format
VERSION 0.7
FIELDS x y z rgb
SIZE 4 4 4 4
TYPE F F F U
COUNT 1 1 1 1
WIDTH 933
HEIGHT 1
VIEWPOINT 0 0 0 1 0 0 0
POINTS 933
DATA ascii
-0.11067768 0.023323625 0.45500001 4280569391
-0.10943984 0.023374887 0.45600003 4279848486
-0.10795876 0.023374887 0.45600003 4279848738
-0.10717817 0.023528669 0.45900002 4279980324
-0.1059176 0.023579929 0.46000001 4279520543
-0.10465053 0.023631191 0.46100003 4279915301
-0.10337695 0.023682451 0.46200001 4279849256
-0.1023174 0.023784973 0.46400002 4279849256
-0.1010276 0.023836233 0.46500003 4279848486
-0.095285207 0.02429758 0.47400004 4279843612
-0.09278968 0.024451362 0.47700003 4279117068
-0.091622941 0.024553884 0.47900003 4279379727
-0.10994794 0.024638437 0.45200002 4280044582
-0.10847984 0.024638437 0.45200002 4279519519
-0.1072485 0.024692947 0.45300001 4279388957
-0.10671116 0.024910986 0.45700002 4279388957
-0.10545709 0.024965497 0.45800003 4279192092
-0.10442352 0.025074515 0.46000001 4279323678
-0.1031532 0.025129026 0.46100003 4279126812
-0.10209689 0.025238046 0.46300003 4279126812
-0.10081033 0.025292555 0.46400002 4279324191
-0.099731289 0.025401575 0.46600002 4279126812
-0.098639257 0.025510594 0.46800002 4279258398
-0.097534224 0.025619615 0.47000003 4279389984
-0.096416213 0.025728634 0.47200003 4279324191
-0.095285207 0.025837654 0.47400004 4279521570
-0.093943425 0.025892163 0.47500002 4279586850
-0.09278968 0.026001183 0.47700003 4279652643
-0.091622941 0.026110204 0.47900003 4279980324
-0.090631239 0.026273731 0.48200002 4279848484
-0.11435223 0.026107032 0.45200002 4280497190
-0.11238465 0.025991512 0.45000002 4280825639
-0.11067656 0.025933756 0.44900003 4280366883
-0.1092182 0.025933756 0.44900003 4279715617
-0.10647767 0.026338067 0.45600003 4279059992
-0.10522683 0.026395826 0.45700002 4279323164
-0.10419651 0.026511343 0.45900002 4279126299
-0.10292944 0.026569102 0.46000001 4279126299
-0.10187638 0.026684619 0.46200001 4278994713
-0.10059307 0.02674238 0.46300003 4278928920
-0.099517278 0.026857898 0.46500003 4279126299
-0.098639257 0.027031174 0.46800002 4278994713
-0.097534224 0.027146691 0.47000003 4278994713
-0.096416213 0.027262211 0.47200003 4278863640
-0.095084175 0.027319968 0.47300002 4279061019
-0.093943425 0.027435487 0.47500002 4279061019
-0.09278968 0.027551005 0.47700003 4279061019
-0.091622941 0.027666522 0.47900003 4279192605
-0.090631239 0.027839798 0.48200002 4279258398
-0.11188516 0.027331593 0.44800001 4280825641
-0.10993706 0.027209576 0.44600001 4280498471
-0.10824521 0.027148569 0.44500002 4279715617
-0.10655985 0.027087562 0.44400004 4279452443
-0.10419651 0.028002681 0.45900002 4279059992
-0.10292944 0.028063688 0.46000001 4278928406
-0.10165587 0.028124698 0.46100003 4278467601
-0.1003758 0.028185705 0.46200001 4278730005
-0.09930326 0.028307721 0.46400002 4279124763
-0.098639257 0.028551754 0.46800002 4279059740
-0.097534224 0.02867377 0.47000003 4278928668
-0.096416213 0.028795786 0.47200003 4278929179
-0.095084175 0.028856793 0.47300002 4278797847
-0.093943425 0.02897881 0.47500002 4278863640
-0.09278968 0.029100826 0.47700003 4279060765
-0.091622941 0.029222842 0.47900003 4279258398
-0.090631239 0.029405866 0.48200002 4279126812
-0.11113593 0.028594421 0.44500002 4280825641
-0.10944407 0.028530166 0.44400004 4280630057
-0.10751547 0.02840165 0.44200003 4279452445
-0.10583984 0.028337391 0.44100001 4279190043
-0.10417073 0.028273135 0.44000003 4279321627
-0.10180759 0.028016107 0.43600002 4279387933
-0.099240184 0.027694821 0.43100002 4279387933
-0.097386286 0.027566306 0.42900002 4279387933
-0.09576913 0.027502051 0.42800003 4279125015
-0.093937963 0.027373536 0.42600003 4278201607
-0.092554316 0.027373536 0.42600003 4278199043
-0.090956643 0.027309278 0.42500001 4279124765
-0.098639257 0.030072335 0.46800002 4278993949
-0.097534224 0.03020085 0.47000003 4278533910
-0.096416213 0.030329363 0.47200003 4278731287
-0.095084175 0.030393621 0.47300002 4278862873
-0.093943425 0.030522134 0.47500002 4278797080
-0.09278968 0.030650649 0.47700003 4278862873
-0.091622941 0.030779164 0.47900003 4278928666
-0.11063644 0.029905258 0.44300002 4280694053
-0.10702897 0.02970274 0.44000003 4279584031
-0.10535984 0.029635234 0.43900001 4279453215
-0.10346047 0.02950022 0.43700001 4279453213
-0.10134058 0.029297702 0.43400002 4279519006
-0.099240184 0.029095184 0.43100002 4279256347
-0.097386286 0.028960172 0.42900002 4279256347
-0.095545366 0.028825158 0.42700002 4279190295
-0.093937963 0.028757654 0.42600003 4279584283
-0.09233705 0.028690146 0.42500001 4279715619
-0.090956643 0.028690146 0.42500001 4278993179
-0.089154705 0.028555132 0.42300001 4278400529
-0.087780803 0.028555132 0.42300001 4278728211
-0.086202629 0.028487628 0.42200002 4279057174
-0.084630951 0.028420122 0.42100003 4279452445
-0.093943425 0.032065459 0.47500002 4278993175
-0.09278968 0.032200471 0.47700003 4278993175
-0.091622941 0.032335483 0.47900003 4278993945
-0.068101794 0.027812567 0.41200003 4278862875
-0.061530661 0.027272515 0.40400001 4278929179
-0.058760464 0.027205011 0.40300003 4278929181
-0.057451516 0.027205011 0.40300003 4279060767
-0.056142576 0.027205011 0.40300003 4279192353
-0.054833632 0.027205011 0.40300003 4279323939
-0.053524684 0.027205011 0.40300003 4279389732
-0.052215744 0.027205011 0.40300003 4278798365
-0.050906796 0.027205011 0.40300003 4280048434
-0.049597852 0.027205011 0.40300003 4279851055
-0.048288908 0.027205011 0.40300003 4280113203
-0.11013696 0.031203099 0.44100001 4280759848
-0.10678571 0.031061588 0.43900001 4279715619
-0.10487984 0.030920077 0.43700001 4279453215
-0.10298698 0.030778568 0.43500003 4279321629
-0.10110708 0.030637057 0.43300003 4279716385
-0.099009924 0.03042479 0.43000001 4279256601
-0.097159281 0.030283282 0.42800003 4279453980
-0.095545366 0.030212525 0.42700002 4279190295
-0.093937963 0.030141771 0.42600003 4278199555
-0.09233705 0.030071015 0.42500001 4278200845
-0.090742633 0.03000026 0.42400002 4279716135
-0.089154705 0.029929504 0.42300001 4278657550
-0.087573282 0.029858749 0.42200002 4278656267
-0.086202629 0.029858749 0.42200002 4278655754
-0.084630951 0.029787995 0.42100003 4278590474
-0.082867987 0.029646484 0.41900003 4278394378
-0.081312552 0.029575726 0.41800001 4278394378
-0.079763606 0.029504972 0.41700003 4278263304
-0.078409187 0.029504972 0.41700003 4278198281
-0.076869987 0.029434215 0.41600001 4278922769
-0.075518817 0.029434215 0.41600001 4279582750
-0.073989362 0.029363461 0.41500002 4279320861
-0.07264144 0.029363461 0.41500002 4279190043
-0.071121737 0.029292706 0.41400003 4279453728
-0.068101794 0.029151196 0.41200003 4278993947
-0.06463144 0.028797418 0.40700001 4278928154
-0.063153952 0.028726663 0.40600002 4279125533
-0.061682966 0.028655909 0.40500003 4278993945
-0.060367521 0.028655909 0.40500003 4279257117
-0.058906268 0.028585153 0.40400001 4279257119
-0.057451516 0.028514398 0.40300003 4279125533
-0.056142576 0.028514398 0.40300003 4279257119
-0.054833632 0.028514398 0.40300003 4279126047
-0.053524684 0.028514398 0.40300003 4278928668
-0.052215744 0.028514398 0.40300003 4278928668
-0.050906796 0.028514398 0.40300003 4279060767
-0.049597852 0.028514398 0.40300003 4279126560
-0.048288908 0.028514398 0.40300003 4279389732
-0.046979964 0.028514398 0.40300003 4279587113
-0.045671016 0.028514398 0.40300003 4279981871
-0.044362072 0.028514398 0.40300003 4280047664
-0.043053132 0.028514398 0.40300003 4280178998
-0.11182231 0.03270996 0.44200003 4280693542
-0.10629922 0.032339934 0.43700001 4279453217
-0.10463984 0.032265931 0.43600002 4279255836
-0.10275022 0.032117922 0.43400002 4279190556
-0.10087357 0.031969912 0.43200001 4279256349
-0.099009924 0.031821903 0.43000001 4279387933
-0.097159281 0.031673897 0.42800003 4279453726
-0.095545366 0.03159989 0.42700002 4279256088
-0.093937963 0.031525888 0.42600003 4278199555
-0.09233705 0.031451881 0.42500001 4280043047
-0.090742633 0.031377878 0.42400002 4279911461
-0.089154705 0.031303871 0.42300001 4279049744
-0.087573282 0.03122987 0.42200002 4278983951
-0.085998364 0.031155866 0.42100003 4278983183
-0.084429927 0.031081861 0.42000002 4278983437
-0.082867987 0.031007856 0.41900003 4278852111
-0.081312552 0.030933851 0.41800001 4278786572
-0.079763606 0.030859848 0.41700003 4278852111
-0.078409187 0.030859848 0.41700003 4278786318
-0.076869987 0.030785842 0.41600001 4278983951
-0.075518817 0.030785842 0.41600001 4279379988
-0.073989362 0.030711839 0.41500002 4279647775
-0.07264144 0.030711839 0.41500002 4278529294
-0.071121737 0.030637836 0.41400003 4278198019
-0.06943997 0.030489827 0.41200003 4278196992
-0.067936495 0.03041582 0.41100001 4278196480
-0.066439524 0.030341817 0.41000003 4278197762
-0.064790241 0.030193808 0.40800002 4278529808
-0.063309498 0.030119803 0.40700001 4279121945
-0.061835267 0.030045798 0.40600002 4279386652
-0.060367521 0.029971795 0.40500003 4279649822
-0.058906268 0.029897789 0.40400001 4279321629
-0.057594076 0.029897789 0.40400001 4279321629
-0.056142576 0.029823786 0.40300003 4279059740
-0.054833632 0.029823786 0.40300003 4278993947
-0.053524684 0.029823786 0.40300003 4279191840
-0.052215744 0.029823786 0.40300003 4279191840
-0.050906796 0.029823786 0.40300003 4279126045
-0.049597852 0.029823786 0.40300003 4278994459
-0.048288908 0.029823786 0.40300003 4279126045
-0.046979964 0.029823786 0.40300003 4279060765
-0.045671016 0.029823786 0.40300003 4279126558
-0.044362072 0.029823786 0.40300003 4278929951
-0.043053132 0.029823786 0.40300003 4278930212
-0.041847765 0.029897789 0.40400001 4279324970
-0.040535573 0.029897789 0.40400001 4285307005
-0.03922338 0.029897789 0.40400001 4279911979
-0.037911188 0.029897789 0.40400001 4279584297
-0.11505161 0.034686837 0.44900003 4280823845
-0.11207531 0.034223314 0.44300002 4280561186
-0.10629922 0.033759791 0.43700001 4279781410
-0.10439985 0.033605289 0.43500003 4279256349
-0.10251347 0.033450779 0.43300003 4279190556
-0.10064007 0.033296272 0.43100002 4279453728
-0.098779671 0.033141766 0.42900002 4279256349
-0.09693227 0.032987259 0.42700002 4278993177
-0.095321611 0.032910004 0.42600003 4279256349
-0.093717448 0.032832749 0.42500001 4278197248
-0.092119791 0.032755498 0.42400002 4279845922
-0.090742633 0.032755498 0.42400002 4280108840
-0.089154705 0.032678243 0.42300001 4278194690
-0.087573282 0.032600991 0.42200002 4279116053
-0.085998364 0.032523736 0.42100003 4279642397
-0.084429927 0.032446481 0.42000002 4280300579
-0.082867987 0.03236923 0.41900003 4279511063
-0.081312552 0.032291975 0.41800001 4280498471
-0.079763606 0.032214724 0.41700003 4279642649
-0.078409187 0.032214724 0.41700003 4279182100
-0.076869987 0.032137468 0.41600001 4278918928
-0.075518817 0.032137468 0.41600001 4280104481
-0.073989362 0.032060217 0.41500002 4279320859
-0.072466403 0.031982962 0.41400003 4279320859
-0.071121737 0.031982962 0.41400003 4279715106
-0.06943997 0.031828456 0.41200003 4279649313
-0.067936495 0.031751201 0.41100001 4279451934
-0.066439524 0.031673949 0.41000003 4279516703
-0.064790241 0.031519443 0.40800002 4279582498
-0.063309498 0.031442188 0.40700001 4279911463
-0.061835267 0.031364933 0.40600002 4279121947
-0.060516577 0.031364933 0.40600002 4278792468
-0.05905208 0.031287681 0.40500003 4278199818
-0.057594076 0.031210426 0.40400001 4278198019
-0.056281887 0.031210426 0.40400001 4278198274
-0.054833632 0.031133173 0.40300003 4278199045
-0.053524684 0.031133173 0.40300003 4278792720
-0.052215744 0.031133173 0.40300003 4279516443
-0.050906796 0.031133173 0.40300003 4279649311
-0.049597852 0.031133173 0.40300003 4279255066
-0.048288908 0.031133173 0.40300003 4279058970
-0.046979964 0.031133173 0.40300003 4278862875
-0.045671016 0.031133173 0.40300003 4278928668
-0.044362072 0.031133173 0.40300003 4279126047
-0.043053132 0.031133173 0.40300003 4278798365
-0.041744184 0.031133173 0.40300003 4278929951
-0.040535573 0.031210426 0.40400001 4279258148
-0.03922338 0.031210426 0.40400001 4278928416
-0.037911188 0.031210426 0.40400001 4279323176
-0.036598995 0.031210426 0.40400001 4279059490
-0.10605597 0.035099149 0.43600002 4279584029
-0.10415985 0.034938142 0.43400002 4279452697
-0.10251347 0.034857642 0.43300003 4279321627
-0.10064007 0.034696635 0.43100002 4279453213
-0.098779671 0.034535628 0.42900002 4279257117
-0.09693227 0.034374624 0.42700002 4278928152
-0.095321611 0.034294121 0.42600003 4279124763
-0.093717448 0.034213617 0.42500001 4278196480
-0.092119791 0.034133118 0.42400002 4279780129
-0.090742633 0.034133118 0.42400002 4279779875
-0.089154705 0.034052614 0.42300001 4278195718
-0.087573282 0.033972111 0.42200002 4278327304
-0.085998364 0.033891611 0.42100003 4279446555
-0.084429927 0.033811107 0.42000002 4280038690
-0.082867987 0.033730604 0.41900003 4278194688
-0.081312552 0.0336501 0.41800001 4278393865
-0.079763606 0.033569597 0.41700003 4278985232
-0.078409187 0.033569597 0.41700003 4280104481
-0.076869987 0.033489093 0.41600001 4278655756
-0.075518817 0.033489093 0.41600001 4280368934
-0.073989362 0.033408593 0.41500002 4279058459
-0.072466403 0.03332809 0.41400003 4278199046
-0.070949942 0.033247586 0.41300002 4278657550
-0.06943997 0.033167087 0.41200003 4279712287
-0.067936495 0.033086583 0.41100001 4278266122
-0.066439524 0.033006079 0.41000003 4278200843
-0.064949036 0.032925576 0.40900001 4279320607
-0.063465059 0.032845076 0.40800002 4279320607
-0.061987568 0.032764569 0.40700001 4279320607
-0.060516577 0.032684069 0.40600002 4279320607
-0.05905208 0.032603566 0.40500003 4279386400
-0.057594076 0.032523062 0.40400001 4279386400
-0.056281887 0.032523062 0.40400001 4279517727
-0.054969691 0.032523062 0.40400001 4279516957
-0.053524684 0.032442562 0.40300003 4280109094
-0.052215744 0.032442562 0.40300003 4279911201
-0.050906796 0.032442562 0.40300003 4279187226
-0.049597852 0.032442562 0.40300003 4278397197
-0.048288908 0.032442562 0.40300003 4278198022
-0.046979964 0.032442562 0.40300003 4278529042
-0.045671016 0.032442562 0.40300003 4278993949
-0.044362072 0.032442562 0.40300003 4278928156
-0.043053132 0.032442562 0.40300003 4278797084
-0.041744184 0.032442562 0.40300003 4278797082
-0.04043524 0.032442562 0.40300003 4278666011
-0.039126292 0.032442562 0.40300003 4278731804
-0.037817348 0.032442562 0.40300003 4279060769
-0.036508407 0.032442562 0.40300003 4278731291
-0.03519946 0.032442562 0.40300003 4280172075
-0.10581274 0.036432005 0.43500003 4279519006
-0.10415985 0.036348253 0.43400002 4279321627
-0.10227671 0.03618075 0.43200001 4279453213
-0.10040656 0.036013246 0.43000001 4279519519
-0.098549418 0.035845742 0.42800003 4279125531
-0.09693227 0.03576199 0.42700002 4279125533
-0.095321611 0.035678241 0.42600003 4279386652
-0.093717448 0.035594486 0.42500001 4278199561
-0.092119791 0.035510737 0.42400002 4279121431
-0.090528615 0.035426982 0.42300001 4279581982
-0.088943943 0.035343233 0.42200002 4278853135
-0.087573282 0.035343233 0.42200002 4278853135
-0.085998364 0.035259482 0.42100003 4278721549
-0.084429927 0.03517573 0.42000002 4278787855
-0.082867987 0.035091978 0.41900003 4278458123
-0.081312552 0.035008226 0.41800001 4278852363
-0.079763606 0.034924474 0.41700003 4280235297
-0.078409187 0.034924474 0.41700003 4280499752
-0.076869987 0.034840722 0.41600001 4278195464
-0.075337283 0.03475697 0.41500002 4280105762
-0.073989362 0.03475697 0.41500002 4279385887
-0.072466403 0.034673218 0.41400003 4278461455
-0.070949942 0.034589466 0.41300002 4279050514
-0.06943997 0.034505714 0.41200003 4279314967
-0.068101794 0.034505714 0.41200003 4280568879
-0.066439524 0.034338214 0.41000003 4279911463
-0.064949036 0.034254458 0.40900001 4280174119
-0.063465059 0.03417071 0.40800002 4279713570
-0.061987568 0.034086954 0.40700001 4278266638
-0.060516577 0.034003206 0.40600002 4279254049
-0.059197884 0.034003206 0.40600002 4279255068
-0.057736639 0.033919454 0.40500003 4279255068
-0.056281887 0.033835702 0.40400001 4279452447
-0.054969691 0.033835702 0.40400001 4279320861
-0.053524684 0.03375195 0.40300003 4279255838
-0.052215744 0.03375195 0.40300003 4279190045
-0.050906796 0.03375195 0.40300003 4279190045
-0.049597852 0.03375195 0.40300003 4279321631
-0.048288908 0.03375195 0.40300003 4279123228
-0.046979964 0.03375195 0.40300003 4278195968
-0.045671016 0.03375195 0.40300003 4279190045
-0.044362072 0.03375195 0.40300003 4278993949
-0.043053132 0.03375195 0.40300003 4278928156
-0.041744184 0.03375195 0.40300003 4278797084
-0.04043524 0.03375195 0.40300003 4278928670
-0.039126292 0.03375195 0.40300003 4278862623
-0.037817348 0.03375195 0.40300003 4278467865
-0.036508407 0.03375195 0.40300003 4278729753
-0.03519946 0.03375195 0.40300003 4278658836
-0.10581274 0.037845366 0.43500003 4279321881
-0.10391985 0.037671361 0.43300003 4279256601
-0.10227671 0.037584361 0.43200001 4279387933
-0.10040656 0.03741036 0.43000001 4279124761
-0.098549418 0.037236359 0.42800003 4279387933
-0.09693227 0.037149355 0.42700002 4279190554
-0.095321611 0.037062358 0.42600003 4279190043
-0.093717448 0.036975354 0.42500001 4279320094
-0.092119791 0.036888354 0.42400002 4279451164
-0.090528615 0.036801353 0.42300001 4279386141
-0.088943943 0.036714353 0.42200002 4278721549
-0.087365769 0.036627352 0.42100003 4279114769
-0.085794091 0.036540352 0.42000002 4279180562
-0.084429927 0.036540352 0.42000002 4278983183
-0.082867987 0.036453351 0.41900003 4278983183
-0.081312552 0.036366347 0.41800001 4278917390
-0.079763606 0.036279351 0.41700003 4279311635
-0.078409187 0.036279351 0.41700003 4278983951
-0.076869987 0.036192346 0.41600001 4278590474
-0.075337283 0.036105346 0.41500002 4280172325
-0.073989362 0.036105346 0.41500002 4279911201
-0.072466403 0.036018349 0.41400003 4278592269
-0.070949942 0.035931345 0.41300002 4278984721
-0.06943997 0.035844345 0.41200003 4280236069
-0.067936495 0.035757344 0.41100001 4279121179
-0.066439524 0.035670344 0.41000003 4279648291
-0.064949036 0.03558334 0.40900001 4279976742
-0.063465059 0.035496343 0.40800002 4280174121
-0.062139876 0.035496343 0.40800002 4280240428
-0.06066563 0.035409339 0.40700001 4280568879
-0.059197884 0.035322338 0.40600002 4279976229
-0.057736639 0.035235338 0.40500003 4278726162
-0.056281887 0.035148337 0.40400001 4279187224
-0.054969691 0.035148337 0.40400001 4278331915
-0.053657498 0.035148337 0.40400001 4278199301
-0.052215744 0.035061337 0.40300003 4279450910
-0.050906796 0.035061337 0.40300003 4278201353
-0.049597852 0.035061337 0.40300003 4279124252
-0.048288908 0.035061337 0.40300003 4279124252
-0.046979964 0.035061337 0.40300003 4278196736
-0.045671016 0.035061337 0.40300003 4279190045
-0.044362072 0.035061337 0.40300003 4278993949
-0.043053132 0.035061337 0.40300003 4278928156
-0.041744184 0.035061337 0.40300003 4278928156
-0.04043524 0.035061337 0.40300003 4278862363
-0.039126292 0.035061337 0.40300003 4278862363
-0.037817348 0.035061337 0.40300003 4278730007
-0.036508407 0.035061337 0.40300003 4279058459
-0.03519946 0.035061337 0.40300003 4278593554
-0.10556948 0.039168477 0.43400002 4279256088
-0.10391985 0.039078228 0.43300003 4279321881
-0.10203996 0.038897727 0.43100002 4279256347
-0.10040656 0.038807474 0.43000001 4279256347
-0.098549418 0.038626976 0.42800003 4279124761
-0.09693227 0.038536727 0.42700002 4279190554
-0.095321611 0.038446479 0.42600003 4279123482
-0.093717448 0.038356226 0.42500001 4279187226
-0.092119791 0.038265977 0.42400002 4279451934
-0.090528615 0.038175724 0.42300001 4279386139
-0.088943943 0.038085476 0.42200002 4279779615
-0.087365769 0.037995227 0.42100003 4280173606
-0.085794091 0.037904978 0.42000002 4279317275
-0.084228903 0.037814729 0.41900003 4279579166
-0.082867987 0.037814729 0.41900003 4278788623
-0.081312552 0.037724476 0.41800001 4278590474
-0.079763606 0.037634227 0.41700003 4278852365
-0.078409187 0.037634227 0.41700003 4278983697
-0.076869987 0.037543975 0.41600001 4278655756
-0.075337283 0.037453726 0.41500002 4280238118
-0.073989362 0.037453726 0.41500002 4279713568
-0.072466403 0.037363477 0.41400003 4279449115
-0.070949942 0.037273228 0.41300002 4280039969
-0.06943997 0.037182979 0.41200003 4279778850
-0.067936495 0.037092727 0.41100001 4279516705
-0.066439524 0.037002478 0.41000003 4280108842
-0.064949036 0.036912225 0.40900001 4279516703
-0.063465059 0.036821976 0.40800002 4278199301
-0.062139876 0.036821976 0.40800002 4278660882
-0.06066563 0.036731727 0.40700001 4280042535
-0.059197884 0.036641479 0.40600002 4278197765
-0.057736639 0.03655123 0.40500003 4278461966
-0.056421202 0.03655123 0.40500003 4280633135
-0.054969691 0.036460977 0.40400001 4280567596
-0.053657498 0.036460977 0.40400001 4278330632
-0.052345309 0.036460977 0.40400001 4278197506
-0.051033117 0.036460977 0.40400001 4278791955
-0.049720924 0.036460977 0.40400001 4279516703
-0.048408728 0.036460977 0.40400001 4279189275
-0.047096539 0.036460977 0.40400001 4278198275
-0.045784343 0.036460977 0.40400001 4279254814
-0.044472151 0.036460977 0.40400001 4278993949
-0.043053132 0.036370728 0.40300003 4278862363
-0.041744184 0.036370728 0.40300003 4278928156
-0.04043524 0.036370728 0.40300003 4279257121
-0.039126292 0.036370728 0.40300003 4278796570
-0.037817348 0.036370728 0.40300003 4278927386
-0.036508407 0.036370728 0.40300003 4279255838
-0.03519946 0.036370728 0.40300003 4278331150
-0.10556948 0.040578585 0.43400002 4279320344
-0.10391985 0.040485088 0.43300003 4279255064
-0.10203996 0.040298089 0.43100002 4279190041
-0.10040656 0.040204588 0.43000001 4279190041
-0.098549418 0.040017594 0.42800003 4278993175
-0.09693227 0.039924093 0.42700002 4279190554
-0.095321611 0.039830595 0.42600003 4279256349
-0.093717448 0.039737094 0.42500001 4279255838
-0.092119791 0.039643597 0.42400002 4279255836
-0.090528615 0.039550096 0.42300001 4279124250
-0.088943943 0.039456598 0.42200002 4279124248
-0.087365769 0.039363101 0.42100003 4279190043
-0.085794091 0.0392696 0.42000002 4279058457
-0.084228903 0.039176103 0.41900003 4279189275
-0.082867987 0.039176103 0.41900003 4279320861
-0.081312552 0.039082602 0.41800001 4279584033
-0.079763606 0.038989104 0.41700003 4279451934
-0.078409187 0.038989104 0.41700003 4279516703
-0.076869987 0.038895603 0.41600001 4279911463
-0.075337283 0.038802106 0.41500002 4279581984
-0.073989362 0.038802106 0.41500002 4279317527
-0.072466403 0.038708605 0.41400003 4278462220
-0.070949942 0.038615108 0.41300002 4278197507
-0.06943997 0.038521606 0.41200003 4278196736
-0.067936495 0.038428109 0.41100001 4278196736
-0.066439524 0.038334608 0.41000003 4278791955
-0.064949036 0.038241111 0.40900001 4279253017
-0.063465059 0.03814761 0.40800002 4279581982
-0.061987568 0.038054112 0.40700001 4280174119
-0.06066563 0.038054112 0.40700001 4279780129
-0.059197884 0.037960611 0.40600002 4279517727
-0.057736639 0.037867114 0.40500003 4279846692
-0.056421202 0.037867114 0.40500003 4279451934
-0.054969691 0.037773613 0.40400001 4279648289
-0.053657498 0.037773613 0.40400001 4279582750
-0.052345309 0.037773613 0.40400001 4279516443
-0.051033117 0.037773613 0.40400001 4278199561
-0.049720924 0.037773613 0.40400001 4279582496
-0.048408728 0.037773613 0.40400001 4279386141
-0.047096539 0.037773613 0.40400001 4278200331
-0.045784343 0.037773613 0.40400001 4279189275
-0.044472151 0.037773613 0.40400001 4279059742
-0.043159962 0.037773613 0.40400001 4278928156
-0.041847765 0.037773613 0.40400001 4278862363
-0.040535573 0.037773613 0.40400001 4278862877
-0.03922338 0.037773613 0.40400001 4278731291
-0.037911188 0.037773613 0.40400001 4278796570
-0.036508407 0.037680116 0.40300003 4278993949
-0.03519946 0.037680116 0.40300003 4278462738
-0.10556948 0.041988697 0.43400002 4280301844
-0.10391985 0.041891947 0.43300003 4279383311
-0.10203996 0.041698452 0.43100002 4279648025
-0.10040656 0.041601703 0.43000001 4279385367
-0.098549418 0.041408207 0.42800003 4279188758
-0.09693227 0.041311458 0.42700002 4279188758
-0.095321611 0.041214712 0.42600003 4279124250
-0.093717448 0.041117962 0.42500001 4278927384
-0.092119791 0.041021217 0.42400002 4279058970
-0.090528615 0.040924467 0.42300001 4278927384
-0.088943943 0.040827718 0.42200002 4279058970
-0.087365769 0.040730972 0.42100003 4279058970
-0.085794091 0.040634222 0.42000002 4279124763
-0.084228903 0.040537477 0.41900003 4278927384
-0.082867987 0.040537477 0.41900003 4278927384
-0.081312552 0.040440727 0.41800001 4279124763
-0.079763606 0.040343978 0.41700003 4279124763
-0.078409187 0.040343978 0.41700003 4279124763
-0.076869987 0.040247228 0.41600001 4279124765
-0.075337283 0.040150482 0.41500002 4279190558
-0.073989362 0.040150482 0.41500002 4279255838
-0.072466403 0.040053736 0.41400003 4279584033
-0.070949942 0.039956983 0.41300002 4279452447
-0.06943997 0.039860237 0.41200003 4279452193
-0.067936495 0.039763488 0.41100001 4279911715
-0.066439524 0.039666742 0.41000003 4279911715
-0.064949036 0.039569993 0.40900001 4279647775
-0.063465059 0.039473243 0.40800002 4279187224
-0.061987568 0.039376494 0.40700001 4278923541
-0.06066563 0.039376494 0.40700001 4278331404
-0.059197884 0.039279748 0.40600002 4278197252
-0.057736639 0.039183002 0.40500003 4278196738
-0.056421202 0.039183002 0.40500003 4278199818
-0.054969691 0.039086252 0.40400001 4278594574
-0.053657498 0.039086252 0.40400001 4279121431
-0.052345309 0.039086252 0.40400001 4279450910
-0.051033117 0.039086252 0.40400001 4279450910
-0.049720924 0.039086252 0.40400001 4279057176
-0.048408728 0.039086252 0.40400001 4280240680
-0.047096539 0.039086252 0.40400001 4278199815
-0.045784343 0.039086252 0.40400001 4279124252
-0.044472151 0.039086252 0.40400001 4279059742
-0.043159962 0.039086252 0.40400001 4278993949
-0.041847765 0.039086252 0.40400001 4278928156
-0.040535573 0.039086252 0.40400001 4278797084
-0.03922338 0.039086252 0.40400001 4278797084
-0.037911188 0.039086252 0.40400001 4278599191
-0.036598995 0.039086252 0.40400001 4278862363
-0.03519946 0.038989503 0.40300003 4278725140
-0.098549418 0.042798825 0.42800003 4279248904
-0.096705265 0.042598829 0.42600003 4280368155
-0.095097847 0.042498831 0.42500001 4280304161
-0.093717448 0.042498831 0.42500001 4279384342
-0.091902524 0.042298835 0.42300001 4278925588
-0.090314604 0.042198841 0.42200002 4279189273
-0.088943943 0.042198841 0.42200002 4278991894
-0.087365769 0.042098843 0.42100003 4279123480
-0.085794091 0.041998845 0.42000002 4279189273
-0.084228903 0.04189885 0.41900003 4279255066
-0.082867987 0.04189885 0.41900003 4278992664
-0.081312552 0.041798849 0.41800001 4278993177
-0.079763606 0.041698854 0.41700003 4279058970
-0.078409187 0.041698854 0.41700003 4278927384
-0.076869987 0.041598856 0.41600001 4278795798
-0.075337283 0.041498858 0.41500002 4279058970
-0.073989362 0.041498858 0.41500002 4279124763
-0.072466403 0.041398864 0.41400003 4279059740
-0.070949942 0.041298863 0.41300002 4278993949
-0.06943997 0.041198868 0.41200003 4279125535
-0.067936495 0.04109887 0.41100001 4279124765
-0.066439524 0.040998872 0.41000003 4279387937
-0.064949036 0.040898874 0.40900001 4279124511
-0.063465059 0.040798876 0.40800002 4279255584
-0.061987568 0.040698878 0.40700001 4279255584
-0.060516577 0.040598884 0.40600002 4279189791
-0.059197884 0.040598884 0.40600002 4279386400
-0.057736639 0.040498886 0.40500003 4279517473
-0.056421202 0.040498886 0.40500003 4279451680
-0.055105757 0.040498886 0.40500003 4279845668
-0.053657498 0.040398888 0.40400001 4280372014
-0.052345309 0.040398888 0.40400001 4279318812
-0.051033117 0.040398888 0.40400001 4278264841
-0.049720924 0.040398888 0.40400001 4278330121
-0.048408728 0.040398888 0.40400001 4278198537
-0.047213115 0.040498886 0.40500003 4279187226
-0.045897674 0.040498886 0.40500003 4279190045
-0.044472151 0.040398888 0.40400001 4279190558
-0.043159962 0.040398888 0.40400001 4278862363
-0.041847765 0.040398888 0.40400001 4278731291
-0.040535573 0.040398888 0.40400001 4278862877
-0.03922338 0.040398888 0.40400001 4278797084
-0.037911188 0.040398888 0.40400001 4278598939
-0.036598995 0.040398888 0.40400001 4278663449
-0.096705265 0.043982945 0.42600003 4280099852
-0.095097847 0.043879699 0.42500001 4279770889
-0.093496934 0.043776453 0.42400002 4279442953
-0.091902524 0.043673206 0.42300001 4278720515
-0.090314604 0.04356996 0.42200002 4278984199
-0.088733181 0.043466717 0.42100003 4279051529
-0.087365769 0.043466717 0.42100003 4279710229
-0.085794091 0.043363467 0.42000002 4279184912
-0.084228903 0.04326022 0.41900003 4279317268
-0.082867987 0.04326022 0.41900003 4279516957
-0.081312552 0.043156974 0.41800001 4279057176
-0.079763606 0.043053728 0.41700003 4279254553
-0.078409187 0.043053728 0.41700003 4279254553
-0.076869987 0.042950481 0.41600001 4279320859
-0.075518817 0.042950481 0.41600001 4279255068
-0.073989362 0.042847235 0.41500002 4279321631
-0.072466403 0.042743992 0.41400003 4279190045
-0.070949942 0.042640742 0.41300002 4279190045
-0.06943997 0.042537499 0.41200003 4279190045
-0.067936495 0.042434249 0.41100001 4279255838
-0.066439524 0.042331006 0.41000003 4279255838
-0.064949036 0.042227756 0.40900001 4279256097
-0.063465059 0.04212451 0.40800002 4279124511
-0.061987568 0.042021263 0.40700001 4279124511
-0.060516577 0.041918017 0.40600002 4279256351
-0.059197884 0.041918017 0.40600002 4279321631
-0.057736639 0.041814774 0.40500003 4279519010
-0.056421202 0.041814774 0.40500003 4279321631
-0.055105757 0.041814774 0.40500003 4279321631
-0.053790316 0.041814774 0.40500003 4279452963
-0.052474879 0.041814774 0.40500003 4279321377
-0.051159438 0.041814774 0.40500003 4279452963
-0.049843997 0.041814774 0.40500003 4279452193
-0.048528556 0.041814774 0.40500003 4279649059
-0.047213115 0.041814774 0.40500003 4279452193
-0.045897674 0.041814774 0.40500003 4279453217
-0.044582233 0.041814774 0.40500003 4279190558
-0.043266792 0.041814774 0.40500003 4278993949
-0.041951351 0.041814774 0.40500003 4278993949
-0.040535573 0.041711524 0.40400001 4279059742
-0.03922338 0.041711524 0.40400001 4278796570
-0.037911188 0.041711524 0.40400001 4278663960
-0.036598995 0.041711524 0.40400001 4278661396
-0.091902524 0.045047574 0.42300001 4279375879
-0.090314604 0.044941083 0.42200002 4279310086
-0.088733181 0.044834588 0.42100003 4279442442
-0.087158248 0.044728089 0.42000002 4279179529
-0.085794091 0.044728089 0.42000002 4279376908
-0.084228903 0.044621594 0.41900003 4279377932
-0.082867987 0.044621594 0.41900003 4279444752
-0.081312552 0.044515099 0.41800001 4279642899
-0.079763606 0.044408605 0.41700003 4279775252
-0.078409187 0.044408605 0.41700003 4279644436
-0.076869987 0.044302106 0.41600001 4280040739
-0.075518817 0.044302106 0.41600001 4279514393
-0.073989362 0.044195615 0.41500002 4279712285
-0.072466403 0.04408912 0.41400003 4280042535
-0.070949942 0.043982621 0.41300002 4279846440
-0.06943997 0.043876126 0.41200003 4279780645
-0.067936495 0.043769632 0.41100001 4279714852
-0.066439524 0.043663137 0.41000003 4279846438
-0.064949036 0.043556638 0.40900001 4279649572
-0.063465059 0.043450143 0.40800002 4279781158
-0.061987568 0.043343648 0.40700001 4279452195
-0.060516577 0.043237153 0.40600002 4279583781
-0.059197884 0.043237153 0.40600002 4279649572
-0.057879195 0.043237153 0.40600002 4279649572
-0.056421202 0.043130659 0.40500003 4279321377
-0.055105757 0.043130659 0.40500003 4279518758
-0.053790316 0.043130659 0.40500003 4279518756
-0.052474879 0.043130659 0.40500003 4279452963
-0.051159438 0.043130659 0.40500003 4279452963
-0.049843997 0.043130659 0.40500003 4279452963
-0.048528556 0.043130659 0.40500003 4279452963
-0.047213115 0.043130659 0.40500003 4279321377
-0.045897674 0.043130659 0.40500003 4279190304
-0.044582233 0.043130659 0.40500003 4279256097
-0.043266792 0.043130659 0.40500003 4279124765
-0.041951351 0.043130659 0.40500003 4279124765
-0.04063591 0.043130659 0.40500003 4279058972
-0.03922338 0.043024164 0.40400001 4279058205
-0.037911188 0.043024164 0.40400001 4278991131
-0.036598995 0.043024164 0.40400001 4279579936
-0.067771204 0.044995267 0.41000003 4284185448
-0.066439524 0.044995267 0.41000003 4282672722
-0.064949036 0.04488552 0.40900001 4281620032
-0.063465059 0.044775777 0.40800002 4280633137
-0.061987568 0.044666033 0.40700001 4280237866
-0.060516577 0.04455629 0.40600002 4279579934
-0.059197884 0.04455629 0.40600002 4279777313
-0.057879195 0.04455629 0.40600002 4279646240
-0.056421202 0.044446547 0.40500003 4279713318
-0.055105757 0.044446547 0.40500003 4279516455
-0.053790316 0.044446547 0.40500003 4279648039
-0.052474879 0.044446547 0.40500003 4279845418
-0.051159438 0.044446547 0.40500003 4279845670
-0.049843997 0.044446547 0.40500003 4279977254
-0.048528556 0.044446547 0.40500003 4279845668
-0.047213115 0.044446547 0.40500003 4279649059
-0.045897674 0.044446547 0.40500003 4279715367
-0.044582233 0.044446547 0.40500003 4279649574
-0.043266792 0.044446547 0.40500003 4279452195
-0.041951351 0.044446547 0.40500003 4279583781
-0.04063591 0.044446547 0.40500003 4279714854
-0.039320469 0.044446547 0.40500003 4278991131
-0.037911188 0.0443368 0.40400001 4279710752
-0.060516577 0.045875423 0.40600002 4285631610
-0.059197884 0.045875423 0.40600002 4285697401
-0.057879195 0.045875423 0.40600002 4285763194
-0.056560513 0.045875423 0.40600002 4285697915
-0.055105757 0.045762431 0.40500003 4286289538
-0.053790316 0.045762431 0.40500003 4286157952
-0.052474879 0.045762431 0.40500003 4286157952
-0.051159438 0.045762431 0.40500003 4285894780
-0.049843997 0.045762431 0.40500003 4285303157
-0.048528556 0.045762431 0.40500003 4285040755
-0.047213115 0.045762431 0.40500003 4284448618
-0.045897674 0.045762431 0.40500003 4283790688
-0.044582233 0.045762431 0.40500003 4283264342
-0.043266792 0.045762431 0.40500003 4282211138
-0.041951351 0.045762431 0.40500003 4282211138
-0.04063591 0.045762431 0.40500003 4282080322
-0.039320469 0.045762431 0.40500003 4284513127
-0.059197884 0.047194559 0.40600002 4285959292
-0.057879195 0.047194559 0.40600002 4286025085
-0.056560513 0.047194559 0.40600002 4285959808
-0.055105757 0.047078319 0.40500003 4285828222
-0.053790316 0.047078319 0.40500003 4285828476
-0.052474879 0.047078319 0.40500003 4285631097
-0.051159438 0.047078319 0.40500003 4285631095
-0.049843997 0.047078319 0.40500003 4285960060
-0.048528556 0.047078319 0.40500003 4285236337
-0.047213115 0.047078319 0.40500003 4285236850
-0.045897674 0.047078319 0.40500003 4284907885
-0.044582233 0.047078319 0.40500003 4284907885
-0.043266792 0.047078319 0.40500003 4284842092
-0.041951351 0.047078319 0.40500003 4284776299
-0.04063591 0.047078319 0.40500003 4284710504
-0.071573615 0.035731163 0.41861689 4294967295
-0.071573615 0.035731163 0.41861689 4294901760
-0.071573615 0.035731163 0.41911688 4294901760
-0.071573615 0.035731163 0.41961688 4294901760
-0.071573615 0.035731163 0.4201169 4294901760
-0.071573615 0.035731163 0.42061689 4294901760
-0.071573615 0.035731163 0.42111689 4294901760
-0.071573615 0.035731163 0.42161688 4294901760
-0.071573615 0.035731163 0.42211691 4294901760
-0.071573615 0.035731163 0.4226169 4294901760
-0.071573615 0.035731163 0.42311689 4294901760
-0.071573615 0.035731163 0.42361689 4294901760
-0.071573615 0.035731163 0.42411688 4294901760
-0.071573615 0.035731163 0.4246169 4294901760
-0.071573615 0.035731163 0.4251169 4294901760
-0.071573615 0.035731163 0.42561689 4294901760
-0.071573615 0.035731163 0.42611688 4294901760
-0.071573615 0.035731163 0.42661691 4294901760
-0.071573615 0.035731163 0.4271169 4294901760
-0.071573615 0.035731163 0.42761689 4294901760
-0.071573615 0.035731163 0.42811689 4294901760
-0.071573615 0.035731163 0.42861688 4294901760
-0.071573615 0.035731163 0.4291169 4294901760
-0.071573615 0.035731163 0.4296169 4294901760
-0.071573615 0.035731163 0.43011689 4294901760
-0.071573615 0.035731163 0.43061689 4294901760
-0.071573615 0.035731163 0.43111688 4294901760
-0.071573615 0.035731163 0.4316169 4294901760
-0.071573615 0.035731163 0.4321169 4294901760
-0.071573615 0.035731163 0.43261689 4294901760
-0.071573615 0.035731163 0.43311688 4294901760
-0.071573615 0.035731163 0.43361691 4294901760
-0.071573615 0.035731163 0.4341169 4294901760
-0.071573615 0.035731163 0.43461689 4294901760
-0.071573615 0.035731163 0.43511689 4294901760
-0.071573615 0.035731163 0.43561691 4294901760
-0.071573615 0.035731163 0.4361169 4294901760
-0.071573615 0.035731163 0.4366169 4294901760
-0.071573615 0.035731163 0.43711689 4294901760
-0.071573615 0.035731163 0.43761688 4294901760
-0.071573615 0.035731163 0.43811691 4294901760
-0.071573615 0.035731163 0.4386169 4294901760
-0.071573615 0.035731163 0.4391169 4294901760
-0.071573615 0.035731163 0.43961689 4294901760
-0.071573615 0.035731163 0.44011688 4294901760
-0.071573615 0.035731163 0.44061691 4294901760
-0.071573615 0.035731163 0.4411169 4294901760
-0.071573615 0.035731163 0.44161689 4294901760
-0.071573615 0.035731163 0.44211689 4294901760
-0.071573615 0.035731163 0.44261691 4294901760
-0.071573615 0.035731163 0.4431169 4294901760
-0.071573615 0.035731163 0.4436169 4294901760
-0.071573615 0.035731163 0.44411689 4294901760
-0.071573615 0.035731163 0.44461688 4294901760
-0.071573615 0.035731163 0.44511691 4294901760
-0.071573615 0.035731163 0.4456169 4294901760
-0.071573615 0.035731163 0.44611689 4294901760
-0.071573615 0.035731163 0.44661689 4294901760
-0.071573615 0.035731163 0.44711691 4294901760
-0.071573615 0.035731163 0.4476169 4294901760
-0.071573615 0.035731163 0.4481169 4294901760
-0.071573615 0.035731163 0.44861689 4294901760
-0.071573615 0.035731163 0.44911689 4294901760
-0.071573615 0.035731163 0.44961691 4294901760
-0.071573615 0.035731163 0.4501169 4294901760
-0.071573615 0.035731163 0.4506169 4294901760
-0.071573615 0.035731163 0.45111689 4294901760
-0.071573615 0.035731163 0.45161691 4294901760
-0.071573615 0.035731163 0.45211691 4294901760
-0.071573615 0.035731163 0.4526169 4294901760
-0.071573615 0.035731163 0.45311689 4294901760
-0.071573615 0.035731163 0.45361689 4294901760
-0.071573615 0.035731163 0.45411691 4294901760
-0.071573615 0.035731163 0.4546169 4294901760
-0.071573615 0.035731163 0.4551169 4294901760
-0.071573615 0.035731163 0.45561689 4294901760
-0.071573615 0.035731163 0.45611691 4294901760
-0.071573615 0.035731163 0.45661691 4294901760
-0.071573615 0.035731163 0.4571169 4294901760
-0.071573615 0.035731163 0.4576169 4294901760
-0.071573615 0.035731163 0.45811689 4294901760
-0.071573615 0.035731163 0.45861691 4294901760
-0.071573615 0.035731163 0.45911691 4294901760
-0.071573615 0.035731163 0.4596169 4294901760
-0.071573615 0.035731163 0.46011689 4294901760
-0.071573615 0.035731163 0.46061689 4294901760
-0.071573615 0.035731163 0.46111691 4294901760
-0.071573615 0.035731163 0.4616169 4294901760
-0.071573615 0.035731163 0.4621169 4294901760
-0.071573615 0.035731163 0.46261689 4294901760
-0.071573615 0.035731163 0.46311688 4294901760
-0.071573615 0.035731163 0.46361691 4294901760
-0.071573615 0.035731163 0.4641169 4294901760
-0.071573615 0.035731163 0.46461689 4294901760
-0.071573615 0.035731163 0.46511692 4294901760
-0.071573615 0.035731163 0.46561691 4294901760
-0.071573615 0.035731163 0.46611691 4294901760
-0.071573615 0.035731163 0.4666169 4294901760
-0.071573615 0.035731163 0.46711689 4294901760
-0.071573615 0.035731163 0.46761692 4294901760
-0.071573615 0.035731163 0.46811691 4294901760
-0.071573615 0.035731163 0.4686169 4294901760
-0.071573615 0.035731163 0.41861689 4278255360
-0.071336992 0.035751812 0.41905686 4278255360
-0.071100369 0.035772461 0.41949686 4278255360
-0.070863746 0.035793111 0.41993684 4278255360
-0.070627123 0.03581376 0.42037681 4278255360
-0.070390493 0.035834409 0.42081678 4278255360
-0.07015387 0.035855059 0.42125678 4278255360
-0.069917247 0.035875708 0.42169675 4278255360
-0.069680624 0.035896357 0.42213672 4278255360
-0.069444001 0.035917006 0.42257673 4278255360
-0.069207378 0.035937656 0.4230167 4278255360
-0.068970755 0.035958305 0.42345667 4278255360
-0.068734132 0.035978954 0.42389664 4278255360
-0.068497501 0.035999604 0.42433664 4278255360
-0.068260878 0.036020253 0.42477661 4278255360
-0.068024255 0.036040902 0.42521659 4278255360
-0.067787632 0.036061551 0.42565659 4278255360
-0.067551009 0.036082201 0.42609656 4278255360
-0.067314386 0.03610285 0.42653653 4278255360
-0.067077763 0.036123499 0.4269765 4278255360
-0.06684114 0.036144149 0.4274165 4278255360
-0.06660451 0.036164798 0.42785648 4278255360
-0.066367887 0.036185447 0.42829645 4278255360
-0.066131264 0.036206096 0.42873645 4278255360
-0.065894641 0.036226746 0.42917642 4278255360
-0.065658018 0.036247395 0.42961639 4278255360
-0.065421395 0.036268044 0.43005639 4278255360
-0.065184772 0.036288694 0.43049636 4278255360
-0.064948149 0.036309343 0.43093634 4278255360
-0.064711526 0.036329992 0.43137631 4278255360
-0.064474896 0.036350641 0.43181631 4278255360
-0.064238273 0.036371291 0.43225628 4278255360
-0.06400165 0.03639194 0.43269625 4278255360
-0.063765027 0.036412589 0.43313625 4278255360
-0.063528404 0.036433239 0.43357623 4278255360
-0.063291781 0.036453888 0.4340162 4278255360
-0.063055158 0.036474537 0.43445617 4278255360
-0.062818527 0.036495186 0.43489617 4278255360
-0.062581912 0.036515836 0.43533614 4278255360
-0.062345285 0.036536485 0.43577611 4278255360
-0.062108658 0.036557134 0.43621612 4278255360
-0.061872035 0.036577784 0.43665609 4278255360
-0.061635412 0.036598433 0.43709606 4278255360
-0.061398789 0.036619082 0.43753606 4278255360
-0.061162166 0.036639731 0.43797603 4278255360
-0.06092554 0.036660381 0.438416 4278255360
-0.060688917 0.03668103 0.43885598 4278255360
-0.060452294 0.036701679 0.43929598 4278255360
-0.060215667 0.036722329 0.43973595 4278255360
-0.059979044 0.036742978 0.44017592 4278255360
-0.059742421 0.036763631 0.44061589 4278255360
-0.059505798 0.036784276 0.44105589 4278255360
-0.059269175 0.036804929 0.44149587 4278255360
-0.059032552 0.036825575 0.44193584 4278255360
-0.058795925 0.036846228 0.44237584 4278255360
-0.058559302 0.036866877 0.44281581 4278255360
-0.058322676 0.036887527 0.44325578 4278255360
-0.058086053 0.036908176 0.44369578 4278255360
-0.05784943 0.036928825 0.44413576 4278255360
-0.057612807 0.036949474 0.44457573 4278255360
-0.057376184 0.036970124 0.4450157 4278255360
-0.057139557 0.036990773 0.4454557 4278255360
-0.056902934 0.037011422 0.44589567 4278255360
-0.056666311 0.037032072 0.44633564 4278255360
-0.056429688 0.037052721 0.44677565 4278255360
-0.056193061 0.03707337 0.44721562 4278255360
-0.055956438 0.037094019 0.44765559 4278255360
-0.055719815 0.037114669 0.44809556 4278255360
-0.055483192 0.037135318 0.44853556 4278255360
-0.055246569 0.037155967 0.44897553 4278255360
-0.055009946 0.037176616 0.4494155 4278255360
-0.05477332 0.037197266 0.44985551 4278255360
-0.054536693 0.037217915 0.45029548 4278255360
-0.05430007 0.037238564 0.45073545 4278255360
-0.054063447 0.037259214 0.45117545 4278255360
-0.053826824 0.037279863 0.45161542 4278255360
-0.053590201 0.037300512 0.45205539 4278255360
-0.053353578 0.037321161 0.45249537 4278255360
-0.053116955 0.037341811 0.45293537 4278255360
-0.052880328 0.03736246 0.45337534 4278255360
-0.052643701 0.037383109 0.45381531 4278255360
-0.052407078 0.037403759 0.45425528 4278255360
-0.052170455 0.037424408 0.45469528 4278255360
-0.051933832 0.037445057 0.45513526 4278255360
-0.051697209 0.037465706 0.45557523 4278255360
-0.051460586 0.037486356 0.45601523 4278255360
-0.051223963 0.037507005 0.4564552 4278255360
-0.050987337 0.037527654 0.45689517 4278255360
-0.050750714 0.037548304 0.45733517 4278255360
-0.050514087 0.037568953 0.45777515 4278255360
-0.050277464 0.037589602 0.45821512 4278255360
-0.050040841 0.037610251 0.45865509 4278255360
-0.049804218 0.037630901 0.45909509 4278255360
-0.049567595 0.03765155 0.45953506 4278255360
-0.049330972 0.037672199 0.45997503 4278255360
-0.049094349 0.037692849 0.46041501 4278255360
-0.048857722 0.037713498 0.46085501 4278255360
-0.048621096 0.037734147 0.46129498 4278255360
-0.048384473 0.037754796 0.46173495 4278255360
-0.04814785 0.037775446 0.46217495 4278255360
-0.047911227 0.037796095 0.46261492 4278255360
