# .PCD v0.7 - Point Cloud Data file format
VERSION 0.7
FIELDS x y z rgb
SIZE 4 4 4 4
TYPE F F F U
COUNT 1 1 1 1
WIDTH 1067
HEIGHT 1
VIEWPOINT 0 0 0 1 0 0 0
POINTS 1067
DATA ascii
0.062565066 0.014778772 0.35600001 4280561954
0.061581276 0.015980216 0.35700002 4280363805
0.062565066 0.015935453 0.35600001 4279968536
0.060421735 0.017140146 0.35700002 4280496672
0.061581276 0.017140146 0.35700002 4280101403
0.062565066 0.017092135 0.35600001 4279838233
0.060590982 0.018351335 0.35800001 4280101914
0.061581276 0.018300075 0.35700002 4280034840
0.062565066 0.018248815 0.35600001 4280100635
0.063721359 0.018248815 0.35600001 4279772953
0.060590982 0.019514514 0.35800001 4280233502
0.061581276 0.019460006 0.35700002 4280034842
0.062565066 0.019405494 0.35600001 4280495393
0.063721359 0.019405494 0.35600001 4279904539
0.060590982 0.020677693 0.35800001 4280101405
0.061581276 0.020619934 0.35700002 4280232221
0.06274081 0.020619934 0.35700002 4280495393
0.063721359 0.020562174 0.35600001 4280692772
0.059594207 0.021901879 0.35900003 4280430116
0.060760234 0.021901879 0.35900003 4279969565
0.061753768 0.02184087 0.35800001 4280167196
0.06274081 0.021779863 0.35700002 4280561954
0.063721359 0.021718854 0.35600001 4280627747
0.064695403 0.021657847 0.35500002 4280101916
0.067962535 0.021596838 0.354 4279515678
0.059594207 0.023068309 0.35900003 4280429600
0.060760234 0.023068309 0.35900003 4280034842
0.061753768 0.023004051 0.35800001 4280363805
0.06274081 0.022939794 0.35700002 4280298012
0.063721359 0.022875536 0.35600001 4279903254
0.064695403 0.022811281 0.35500002 4279772951
0.065848447 0.022811281 0.35500002 4279712285
0.066812746 0.022747021 0.354 4279320094
0.053913798 0.024302242 0.36000001 4279706645
0.05523609 0.024369748 0.36100003 4279838744
0.059760205 0.024302242 0.36000001 4280429596
0.060760234 0.024234736 0.35900003 4279705360
0.061753768 0.024167228 0.35800001 4279705362
0.06274081 0.024099724 0.35700002 4279705362
0.063721359 0.024032217 0.35600001 4279903254
0.064877644 0.024032217 0.35600001 4279772438
0.06566295 0.023897203 0.354 4279384090
0.066812746 0.023897203 0.354 4279385887
0.067962535 0.023897203 0.354 4279386654
0.052744523 0.025471918 0.36000001 4280363803
0.053913798 0.025471918 0.36000001 4280363803
0.055083081 0.025471918 0.36000001 4280167711
0.056408621 0.025542675 0.36100003 4283656024
0.057581145 0.025542675 0.36100003 4283657307
0.058590923 0.025471918 0.36000001 4283656535
0.059760205 0.025471918 0.36000001 4279376908
0.060760234 0.025401164 0.35900003 4279705360
0.061753768 0.025330408 0.35800001 4279836948
0.06274081 0.025259653 0.35700002 4279902741
0.063721359 0.025188897 0.35600001 4279902741
0.064695403 0.025118142 0.35500002 4279443473
0.06566295 0.025047386 0.354 4279253017
0.066624016 0.024976632 0.35300002 4279320094
0.067770556 0.024976632 0.35300002 4279386141
0.050265942 0.026567591 0.35900003 4280167446
0.051431976 0.026567591 0.35900003 4279970067
0.052744523 0.026641594 0.36000001 4280298010
0.053913798 0.026641594 0.36000001 4280363803
0.056408621 0.026715601 0.36100003 4283787869
0.057581145 0.026715601 0.36100003 4283722076
0.058753677 0.026715601 0.36100003 4283788123
0.060760234 0.026567591 0.35900003 4279836950
0.061753768 0.026493585 0.35800001 4279836948
0.06274081 0.026419582 0.35700002 4279968534
0.063721359 0.026345577 0.35600001 4279705362
0.064695403 0.026271572 0.35500002 4279969815
0.065477468 0.026123563 0.35300002 4279251734
0.066435277 0.02604956 0.35200003 4278728211
0.067578569 0.02604956 0.35200003 4279320861
0.049099907 0.027734019 0.35900003 4280035092
0.050265942 0.027734019 0.35900003 4279837713
0.051431976 0.027734019 0.35900003 4279969815
0.052744523 0.027811272 0.36000001 4279904022
0.053913798 0.027811272 0.36000001 4280232989
0.055083081 0.027811272 0.36000001 4281484603
0.056408621 0.027888525 0.36100003 4283787869
0.057581145 0.027888525 0.36100003 4283985248
0.058753677 0.027888525 0.36100003 4283919455
0.059926208 0.027888525 0.36100003 4284839526
0.061098732 0.027888525 0.36100003 4279442703
0.062271263 0.027888525 0.36100003 4279967764
0.063443795 0.027888525 0.36100003 4280099350
0.064616323 0.027888525 0.36100003 4279837459
0.063601956 0.026961481 0.34900001 4279838483
0.065106489 0.027115989 0.35100001 4279317781
0.066246539 0.027115989 0.35100001 4279056406
0.067386582 0.027115989 0.35100001 4278860310
0.068136171 0.026961481 0.34900001 4279452447
0.045474783 0.028819943 0.35800001 4280034831
0.049099907 0.028900446 0.35900003 4280230416
0.050265942 0.028900446 0.35900003 4279836946
0.051431976 0.028900446 0.35900003 4280034838
0.052744523 0.028980948 0.36000001 4279838231
0.053913798 0.028980948 0.36000001 4279640084
0.056408621 0.029061452 0.36100003 4283787618
0.057581145 0.029061452 0.36100003 4283657053
0.058753677 0.029061452 0.36100003 4283854432
0.059926208 0.029061452 0.36100003 4284182368
0.061098732 0.029061452 0.36100003 4279377680
0.062271263 0.029061452 0.36100003 4280033555
0.061334852 0.028095419 0.34900001 4280165141
0.062647402 0.028175922 0.35000002 4279772438
0.063784197 0.028175922 0.35000002 4279905303
0.064920999 0.028175922 0.35000002 4279515930
0.066057809 0.028175922 0.35000002 4278859797
0.067194603 0.028175922 0.35000002 4278795287
0.068136171 0.028095419 0.34900001 4279190045
0.069269724 0.028095419 0.34900001 4279452193
0.061334852 0.029229354 0.34900001 4280033557
0.062647402 0.029313108 0.35000002 4279641365
0.063784197 0.029313108 0.35000002 4279906332
0.064920999 0.029313108 0.35000002 4279318810
0.066057809 0.029313108 0.35000002 4278925590
0.067194603 0.029313108 0.35000002 4278729494
0.068136171 0.029229354 0.34900001 4278730007
0.069269724 0.029229354 0.34900001 4278795546
0.070201546 0.029145604 0.34800002 4279189791
0.071331851 0.029145604 0.34800002 4279976229
0.072253928 0.02906185 0.347 4280763438
0.073380984 0.02906185 0.347 4283526234
0.062647402 0.030450294 0.35000002 4279379475
0.063784197 0.030450294 0.35000002 4280499752
0.065106489 0.030537292 0.35100001 4279646746
0.066057809 0.030450294 0.35000002 4278924818
0.067194603 0.030450294 0.35000002 4278794515
0.068331406 0.030450294 0.35000002 4279123482
0.069269724 0.030363292 0.34900001 4279979307
0.07040327 0.030363292 0.34900001 4278400529
0.071331851 0.030276291 0.34800002 4279254553
0.072253928 0.030189289 0.347 4279254553
0.073380984 0.030189289 0.347 4279582750
0.074293323 0.030102288 0.34600002 4279779875
0.075199164 0.03001529 0.34500003 4279976742
0.076098509 0.029928287 0.34400001 4279976488
0.076991357 0.029841287 0.34300002 4279581217
0.061686344 0.03167773 0.35100001 4279640852
0.062826395 0.03167773 0.35100001 4279249939
0.063966438 0.03167773 0.35100001 4280303139
0.065106489 0.03167773 0.35100001 4279712539
0.066246539 0.03167773 0.35100001 4279252758
0.067386582 0.03167773 0.35100001 4279320348
0.068331406 0.031587481 0.35000002 4279123482
0.069468208 0.031587481 0.35000002 4278794517
0.07040327 0.031497229 0.34900001 4282215240
0.071331851 0.03140698 0.34800002 4279386652
0.072462156 0.03140698 0.34800002 4278992664
0.073380984 0.031316731 0.347 4278729494
0.074293323 0.03122648 0.34600002 4278663701
0.075199164 0.031136231 0.34500003 4278794263
0.076098509 0.031045981 0.34400001 4278925849
0.076991357 0.030955732 0.34300002 4279189021
0.077649996 0.030775232 0.34100002 4279254814
0.078526601 0.03068498 0.34 4279451680
0.079396717 0.030594731 0.33900002 4279779875
0.080260336 0.030504482 0.33800003 4279516703
0.061686344 0.032818165 0.35100001 4279511063
0.063005388 0.032911666 0.35200003 4279184406
0.064148679 0.032911666 0.35200003 4279974174
0.065291978 0.032911666 0.35200003 4279778332
0.066435277 0.032911666 0.35200003 4279384344
0.067386582 0.032818165 0.35100001 4279122199
0.068526633 0.032818165 0.35100001 4279386141
0.069468208 0.032724667 0.35000002 4279320348
0.070605002 0.032724667 0.35000002 4278991383
0.071536824 0.032631166 0.34900001 4278532626
0.072462156 0.032537669 0.34800002 4278795798
0.073380984 0.032444168 0.347 4278664212
0.074293323 0.032350671 0.34600002 4278730005
0.075199164 0.032257173 0.34500003 4278729492
0.076098509 0.032163672 0.34400001 4278663699
0.076991357 0.032070175 0.34300002 4278663701
0.077649996 0.031883176 0.34100002 4278861080
0.078526601 0.031789675 0.34 4278795287
0.079396717 0.031696178 0.33900002 4278795287
0.080497786 0.031696178 0.33900002 4278861080
0.081598863 0.031696178 0.33900002 4278860310
0.082455985 0.031602681 0.33800003 4278794517
0.083553806 0.031602681 0.33800003 4278860310
0.063184381 0.034152094 0.35300002 4280040739
0.064330921 0.034152094 0.35300002 4279843358
0.065477468 0.034152094 0.35300002 4279844123
0.066624016 0.034152094 0.35300002 4279121683
0.067578569 0.034055348 0.35200003 4279188760
0.068721868 0.034055348 0.35200003 4279386139
0.069666684 0.033958599 0.35100001 4279254555
0.070806727 0.033958599 0.35100001 4279386141
0.071741804 0.033861853 0.35000002 4279386654
0.072670378 0.033765104 0.34900001 4278399757
0.073592462 0.033668354 0.34800002 4278662929
0.074508041 0.033571605 0.347 4278728722
0.075417131 0.033474859 0.34600002 4278860308
0.076098509 0.033281364 0.34400001 4278728722
0.076991357 0.033184614 0.34300002 4278728724
0.077877708 0.033087865 0.34200001 4278794517
0.078757569 0.032991119 0.34100002 4278794517
0.079630919 0.032894369 0.34 4278728724
0.080735244 0.032894369 0.34 4278728724
0.081598863 0.032797623 0.33900002 4278926103
0.082699932 0.032797623 0.33900002 4278991383
0.083801009 0.032797623 0.33900002 4278925590
0.084902078 0.032797623 0.33900002 4278859795
0.086003147 0.032797623 0.33900002 4279057174
0.087104224 0.032797623 0.33900002 4278991894
0.0882053 0.032797623 0.33900002 4278794515
0.089042932 0.032700874 0.33800003 4278794002
0.09014076 0.032700874 0.33800003 4278925588
0.062565066 0.035599019 0.35600001 4279907102
0.063542366 0.035499025 0.35500002 4279974174
0.064513162 0.035399023 0.354 4279909405
0.06566295 0.035399023 0.354 4279647514
0.066812746 0.035399023 0.354 4279450648
0.067962535 0.035399023 0.354 4279451162
0.068917103 0.035299029 0.35300002 4279386141
0.070063643 0.035299029 0.35300002 4279451934
0.071008459 0.035199031 0.35200003 4279846690
0.071946777 0.035099033 0.35100001 4279649824
0.072878607 0.034999039 0.35000002 4279386652
0.073803931 0.034899037 0.34900001 4279123480
0.074508041 0.034699045 0.347 4279189273
0.075417131 0.034599047 0.34600002 4279320859
0.076319732 0.034499053 0.34500003 4278926101
0.077215821 0.034399055 0.34400001 4279057174
0.07810542 0.034299057 0.34300002 4278728722
0.078988522 0.034199059 0.34200001 4278794002
0.079865135 0.034099061 0.34100002 4278333451
0.080972701 0.034099061 0.34100002 4278596625
0.081839561 0.033999063 0.34 4278859797
0.082943879 0.033999063 0.34 4278728211
0.084048204 0.033999063 0.34 4278859797
0.085152522 0.033999063 0.34 4278925588
0.086003147 0.033899069 0.33900002 4278859795
0.087104224 0.033899069 0.33900002 4278860308
0.0882053 0.033899069 0.33900002 4278728722
0.089306369 0.033899069 0.33900002 4278794515
0.090407446 0.033899069 0.33900002 4278728722
0.091508523 0.033899069 0.33900002 4278794002
0.06274081 0.03685895 0.35700002 4279644184
0.063721359 0.0367557 0.35600001 4279777819
0.064877644 0.0367557 0.35600001 4279909916
0.065848447 0.036652453 0.35500002 4279384342
0.067001484 0.036652453 0.35500002 4279648027
0.068154521 0.036652453 0.35500002 4279582748
0.069112331 0.036549207 0.354 4279320346
0.070262127 0.036549207 0.354 4279517727
0.071210191 0.03644596 0.35300002 4279846692
0.072151758 0.036342718 0.35200003 4279649313
0.073086828 0.036239468 0.35100001 4279188762
0.074015409 0.036136225 0.35000002 4279254555
0.074722767 0.035929732 0.34800002 4279254555
0.075635098 0.035826482 0.347 4279057176
0.076540947 0.035723239 0.34600002 4279188762
0.077440284 0.035619993 0.34500003 4279188762
0.078333132 0.035516743 0.34400001 4279057176
0.07921949 0.0354135 0.34300002 4279057174
0.080333553 0.0354135 0.34300002 4279057174
0.081210159 0.03531025 0.34200001 4278991383
0.082320973 0.03531025 0.34200001 4279057176
0.083187841 0.035207007 0.34100002 4279057176
0.084295407 0.035207007 0.34100002 4278991383
0.085152522 0.035103757 0.34 4278991381
0.086256839 0.035103757 0.34 4278991381
0.087361164 0.035103757 0.34 4278794004
0.088465489 0.035103757 0.34 4278399246
0.089306369 0.035000514 0.33900002 4278596625
0.090407446 0.035000514 0.33900002 4278728211
0.091508523 0.035000514 0.33900002 4278794002
0.092609584 0.035000514 0.33900002 4278991381
0.10472139 0.035000514 0.33900002 4279122197
0.10582246 0.035000514 0.33900002 4278859025
0.061753768 0.03812537 0.35800001 4284972143
0.06274081 0.038018879 0.35700002 4279841822
0.063900352 0.038018879 0.35700002 4279778330
0.065059885 0.038018879 0.35700002 4279713307
0.066219419 0.038018879 0.35700002 4279713307
0.067190222 0.03791238 0.35600001 4279713820
0.068346508 0.03791238 0.35600001 4279451162
0.069502793 0.03791238 0.35600001 4279516955
0.07046061 0.037805885 0.35500002 4280241450
0.071411915 0.03769939 0.354 4279846692
0.072356731 0.037592895 0.35300002 4279386141
0.073295057 0.0374864 0.35200003 4279451164
0.074226879 0.037379902 0.35100001 4279451164
0.074937485 0.037166912 0.34900001 4279187992
0.075853072 0.037060417 0.34800002 4279319578
0.076762155 0.036953922 0.347 4279122199
0.077664748 0.036847427 0.34600002 4279187992
0.078560852 0.036740933 0.34500003 4279187992
0.079450443 0.036634434 0.34400001 4279187992
0.080567755 0.036634434 0.34400001 4278595855
0.081447616 0.036527943 0.34300002 4278396425
0.082561679 0.036527943 0.34300002 4278725392
0.083431788 0.036421444 0.34200001 4279187992
0.084542602 0.036421444 0.34200001 4279187992
0.085653417 0.036421444 0.34200001 4279057176
0.086510539 0.036314949 0.34100002 4279385369
0.087618113 0.036314949 0.34100002 4279187990
0.088465489 0.036208451 0.34 4279057174
0.089569807 0.036208451 0.34 4278991381
0.090674132 0.036208451 0.34 4278991381
0.09177845 0.036208451 0.34 4279122197
0.092882767 0.036208451 0.34 4279122197
0.094263524 0.036314949 0.34100002 4278990611
0.095371097 0.036314949 0.34100002 4279122197
0.10312407 0.036314949 0.34100002 4278925590
0.10423165 0.036314949 0.34100002 4278991381
0.1050303 0.036208451 0.34 4279057174
0.10613462 0.036208451 0.34 4279254553
0.10723893 0.036208451 0.34 4278859795
0.061926268 0.039398298 0.35900003 4284380008
0.062916555 0.039288551 0.35800001 4280959794
0.064079344 0.039288551 0.35800001 4279843871
0.065242119 0.039288551 0.35800001 4279648029
0.066404909 0.039288551 0.35800001 4279516441
0.067378961 0.039178807 0.35700002 4279648027
0.068538494 0.039178807 0.35700002 4279451162
0.069698036 0.039178807 0.35700002 4279715104
0.070659086 0.03906906 0.35600001 4279978276
0.071613647 0.038959317 0.35500002 4279846690
0.072561711 0.03884957 0.354 4279386141
0.073503278 0.038739827 0.35300002 4279188762
0.074438356 0.038630083 0.35200003 4279385371
0.075152203 0.038410597 0.35000002 4279451164
0.076071039 0.038300849 0.34900001 4279319578
0.076983377 0.038191106 0.34800002 4279122199
0.077889211 0.038081359 0.347 4279187992
0.078788556 0.037971616 0.34600002 4279319578
0.079912372 0.037971616 0.34600002 4279187992
0.080801971 0.037861872 0.34500003 4279187224
0.081922531 0.037861872 0.34500003 4279118867
0.082802385 0.037752125 0.34400001 4279448602
0.083919697 0.037752125 0.34400001 4279581723
0.084789813 0.037642382 0.34300002 4279318551
0.085903868 0.037642382 0.34300002 4279252758
0.086764239 0.037532635 0.34200001 4279384342
0.087875053 0.037532635 0.34200001 4279384342
0.088985875 0.037532635 0.34200001 4279318549
0.089833252 0.037422892 0.34100002 4279384342
0.090940826 0.037422892 0.34100002 4279252756
0.092048392 0.037422892 0.34100002 4279319576
0.09315595 0.037422892 0.34100002 4279122197
0.094539955 0.037532635 0.34200001 4279056404
0.09565077 0.037532635 0.34200001 4279450648
0.09704452 0.037642382 0.34300002 4279319062
0.09815859 0.037642382 0.34300002 4279319064
0.099272653 0.037642382 0.34300002 4279187478
0.10038671 0.037642382 0.34300002 4279122199
0.10150078 0.037642382 0.34300002 4279187992
0.10261484 0.037642382 0.34300002 4279122199
0.10342649 0.037532635 0.34200001 4278990613
0.10453731 0.037532635 0.34200001 4279122199
0.10533921 0.037422892 0.34100002 4279187992
0.10644679 0.037422892 0.34100002 4279056406
0.10755435 0.037422892 0.34100002 4278924820
0.10976949 0.037422892 0.34100002 4278859025
0.11087705 0.037422892 0.34100002 4279516953
0.061926268 0.040564723 0.35900003 4284511081
0.063092306 0.040564723 0.35900003 4284248420
0.064258337 0.040564723 0.35900003 4280172836
0.065424368 0.040564723 0.35900003 4279713568
0.066590399 0.040564723 0.35900003 4279516957
0.067567699 0.040451728 0.35800001 4279780127
0.068730474 0.040451728 0.35800001 4279582748
0.069893263 0.040451728 0.35800001 4279780897
0.07085757 0.040338736 0.35700002 4279649313
0.071815372 0.040225741 0.35600001 4279517727
0.072766684 0.040112749 0.35500002 4279451934
0.0737115 0.039999753 0.354 4279320348
0.074438356 0.03977377 0.35200003 4279188762
0.075366922 0.039660774 0.35100001 4279254555
0.076289006 0.039547779 0.35000002 4279057176
0.077204593 0.039434783 0.34900001 4279188762
0.078113675 0.039321791 0.34800002 4279319578
0.079016268 0.039208796 0.347 4279187992
0.080143325 0.039208796 0.347 4279252504
0.081036173 0.039095804 0.34600002 4278329351
0.082159981 0.039095804 0.34600002 4278197251
0.083283797 0.039095804 0.34600002 4279449115
0.084163651 0.038982812 0.34500003 4279186711
0.085284211 0.038982812 0.34500003 4278329349
0.086154319 0.038869817 0.34400001 4278852615
0.087271631 0.038869817 0.34400001 4278524166
0.088132001 0.038756825 0.34300002 4278392580
0.089246072 0.038756825 0.34300002 4278590213
0.090360135 0.038756825 0.34300002 4278919689
0.091474198 0.038756825 0.34300002 4279249424
0.092318326 0.03864383 0.34200001 4279447830
0.093702324 0.038756825 0.34300002 4279251734
0.094816387 0.038756825 0.34300002 4279515160
0.095930457 0.038756825 0.34300002 4279384344
0.097327448 0.038869817 0.34400001 4279187478
0.09844476 0.038869817 0.34400001 4279253271
0.099562079 0.038869817 0.34400001 4279384344
0.10067938 0.038869817 0.34400001 4279253271
0.10179669 0.038869817 0.34400001 4279450650
0.10261484 0.038756825 0.34300002 4279516443
0.10372891 0.038756825 0.34300002 4279252758
0.10453731 0.03864383 0.34200001 4279055379
0.10564812 0.03864383 0.34200001 4279450650
0.10675894 0.03864383 0.34200001 4279319064
0.10786975 0.03864383 0.34200001 4279450650
0.10898057 0.03864383 0.34200001 4279187992
0.11009139 0.03864383 0.34200001 4279385371
0.1112022 0.03864383 0.34200001 4278990613
0.11408714 0.038869817 0.34400001 4279121683
0.13158052 0.038756825 0.34300002 4279056404
0.13269459 0.038756825 0.34300002 4279187990
0.13635112 0.038530838 0.34100002 4279844125
0.1374587 0.038530838 0.34100002 4279712539
0.062098764 0.041847393 0.36000001 4284511592
0.063268043 0.041847393 0.36000001 4284511592
0.064258337 0.041731153 0.35900003 4281223989
0.065424368 0.041731153 0.35900003 4280172836
0.066590399 0.041731153 0.35900003 4279648543
0.067756437 0.041731153 0.35900003 4279582750
0.06892246 0.041731153 0.35900003 4279516957
0.069893263 0.041614905 0.35800001 4280109094
0.07085757 0.041498665 0.35700002 4279911715
0.071815372 0.041382421 0.35600001 4279648289
0.072766684 0.041266181 0.35500002 4279648543
0.0737115 0.041149933 0.354 4279319578
0.074649826 0.041033693 0.35300002 4279319324
0.075581647 0.040917452 0.35200003 4279121945
0.076289006 0.040684965 0.35000002 4279385117
0.077425815 0.040684965 0.35000002 4279385117
0.078338139 0.040568721 0.34900001 4279385117
0.079243988 0.04045248 0.34800002 4279516189
0.080374293 0.04045248 0.34800002 4279251223
0.081270382 0.040336236 0.347 4278854414
0.082397439 0.040336236 0.347 4280172838
0.083524495 0.040336236 0.347 4279450396
0.084407598 0.040219992 0.34600002 4279317016
0.085531406 0.040219992 0.34600002 4278721545
0.086404771 0.040103752 0.34500003 4279246096
0.08752533 0.040103752 0.34500003 4279048717
0.08864589 0.040103752 0.34500003 4278851336
0.089506261 0.039987508 0.34400001 4279113738
0.090623572 0.039987508 0.34400001 4279179531
0.091740884 0.039987508 0.34400001 4279113738
0.092858203 0.039987508 0.34400001 4279180301
0.093975507 0.039987508 0.34400001 4278917642
0.095092818 0.039987508 0.34400001 4278720777
0.09621013 0.039987508 0.34400001 4278918926
0.097610384 0.040103752 0.34500003 4278458888
0.098730944 0.040103752 0.34500003 4278722830
0.099851504 0.040103752 0.34500003 4279643930
0.10097206 0.040103752 0.34500003 4279382039
0.10209262 0.040103752 0.34500003 4279514647
0.10291401 0.039987508 0.34400001 4279777819
0.10403132 0.039987508 0.34400001 4279383061
0.10484298 0.039871268 0.34300002 4279712024
0.10595704 0.039871268 0.34300002 4279646744
0.10707111 0.039871268 0.34300002 4279515158
0.10818516 0.039871268 0.34300002 4279712537
0.10929923 0.039871268 0.34300002 4279252756
0.1104133 0.039871268 0.34300002 4279515928
0.11152736 0.039871268 0.34300002 4279318549
0.11296982 0.039987508 0.34400001 4279582234
0.11408714 0.039987508 0.34400001 4279450648
0.11553934 0.040103752 0.34500003 4279450646
0.11665991 0.040103752 0.34500003 4279385367
0.12823834 0.039871268 0.34300002 4279122197
0.12935241 0.039871268 0.34300002 4279516957
0.13046646 0.039871268 0.34300002 4279122199
0.13158052 0.039871268 0.34300002 4278924820
0.13269459 0.039871268 0.34300002 4278859027
0.13380866 0.039871268 0.34300002 4278924820
0.13492273 0.039871268 0.34300002 4279121683
0.13603678 0.039871268 0.34300002 4278726925
0.13675098 0.03975502 0.34200001 4279186963
0.1378618 0.03975502 0.34200001 4278923789
0.13978532 0.039987508 0.34400001 4279186961
0.14090264 0.039987508 0.34400001 4279384340
0.14201996 0.039987508 0.34400001 4280500770
0.062098764 0.043017067 0.36000001 4284248420
0.063268043 0.043017067 0.36000001 4284445799
0.06443733 0.043017067 0.36000001 4283920479
0.065606602 0.043017067 0.36000001 4280302375
0.066775888 0.043017067 0.36000001 4280239399
0.067756437 0.042897578 0.35900003 4279910947
0.06892246 0.042897578 0.35900003 4279976740
0.069893263 0.042778086 0.35800001 4280371498
0.07085757 0.042658594 0.35700002 4280042533
0.071815372 0.042539101 0.35600001 4279647775
0.072766684 0.042419609 0.35500002 4279647775
0.0737115 0.042300116 0.354 4279581982
0.074649826 0.042180628 0.35300002 4279582496
0.075581647 0.042061135 0.35200003 4279319324
0.076506972 0.041941643 0.35100001 4279385117
0.077425815 0.04182215 0.35000002 4279056152
0.078338139 0.041702658 0.34900001 4279187738
0.079471692 0.041702658 0.34900001 4279384090
0.080374293 0.041583166 0.34800002 4278985232
0.081504591 0.041583166 0.34800002 4278984719
0.082634896 0.041583166 0.34800002 4279580186
0.083524495 0.041463673 0.347 4279515160
0.084651552 0.041463673 0.347 4278590472
0.085778609 0.041463673 0.347 4279115021
0.086655214 0.041344184 0.34600002 4279904799
0.087779023 0.041344184 0.34600002 4280036385
0.088902831 0.041344184 0.34600002 4279312400
0.090026647 0.041344184 0.34600002 4279575572
0.090887018 0.041224692 0.34500003 4279640852
0.092007577 0.041224692 0.34500003 4279640852
0.093128145 0.041224692 0.34500003 4280365602
0.094248697 0.041224692 0.34500003 4279773465
0.095369257 0.041224692 0.34500003 4279246609
0.096489817 0.041224692 0.34500003 4279246609
0.097893305 0.041344184 0.34600002 4279312402
0.099017113 0.041344184 0.34600002 4279115023
0.10014093 0.041344184 0.34600002 4278983437
0.10126472 0.041344184 0.34600002 4279708955
0.10209262 0.041224692 0.34500003 4279908381
0.10321318 0.041224692 0.34500003 4279973914
0.10433374 0.041224692 0.34500003 4279710229
0.1054543 0.041224692 0.34500003 4278657541
0.10626595 0.0411052 0.34400001 4278394628
0.10738327 0.0411052 0.34400001 4278196224
0.10850057 0.0411052 0.34400001 4279052558
0.10961788 0.0411052 0.34400001 4279118351
0.11073519 0.0411052 0.34400001 4279908381
0.11185251 0.0411052 0.34400001 4279974944
0.11329823 0.041224692 0.34500003 4279383061
0.11441879 0.041224692 0.34500003 4279515158
0.11587424 0.041344184 0.34600002 4279383572
0.11699805 0.041344184 0.34600002 4279252756
0.12712426 0.040985707 0.34300002 4279252754
0.12823834 0.040985707 0.34300002 4279186961
0.12935241 0.040985707 0.34300002 4279121170
0.13046646 0.040985707 0.34300002 4278990099
0.13158052 0.040985707 0.34300002 4279187478
0.13269459 0.040985707 0.34300002 4279319576
0.13380866 0.040985707 0.34300002 4279582748
0.13492273 0.040985707 0.34300002 4279450648
0.13603678 0.040985707 0.34300002 4279516441
0.13715084 0.040985707 0.34300002 4279187476
0.13826491 0.040985707 0.34300002 4279384340
0.13978532 0.0411052 0.34400001 4279121168
0.14131224 0.041224692 0.34500003 4279121168
0.14243281 0.041224692 0.34500003 4279317777
0.14396946 0.041344184 0.34600002 4279909401
0.062271263 0.044309489 0.36100003 4284380008
0.063268043 0.044186745 0.36000001 4284248422
0.06443733 0.044186745 0.36000001 4283986018
0.065606602 0.044186745 0.36000001 4283788639
0.066775888 0.044186745 0.36000001 4282802509
0.067756437 0.044064008 0.35900003 4280368934
0.06892246 0.044064008 0.35900003 4280436778
0.069893263 0.043941263 0.35800001 4280371498
0.070659086 0.043695781 0.35600001 4280174119
0.071613647 0.043573041 0.35500002 4279713568
0.072766684 0.043573041 0.35500002 4279713568
0.0737115 0.0434503 0.354 4279647775
0.074649826 0.043327559 0.35300002 4279581982
0.075581647 0.043204818 0.35200003 4279647775
0.076506972 0.043082077 0.35100001 4279647775
0.077425815 0.042959336 0.35000002 4279647775
0.07856261 0.042959336 0.35000002 4279516189
0.079471692 0.042836595 0.34900001 4279318297
0.080605246 0.042836595 0.34900001 4278986000
0.081504591 0.042713854 0.34800002 4279841309
0.082634896 0.042713854 0.34800002 4279711772
0.083765201 0.042713854 0.34800002 4279580186
0.084895507 0.042713854 0.34800002 4278984719
0.085778609 0.04259111 0.347 4279115023
0.086905658 0.04259111 0.347 4279115023
0.088032715 0.04259111 0.347 4279246096
0.089159779 0.04259111 0.347 4279115023
0.090026647 0.042468373 0.34600002 4279641367
0.091150455 0.042468373 0.34600002 4279180814
0.092274264 0.042468373 0.34600002 4278983435
0.093398072 0.042468373 0.34600002 4279640852
0.094521873 0.042468373 0.34600002 4278982922
0.095645688 0.042468373 0.34600002 4279180814
0.096769497 0.042468373 0.34600002 4279773465
0.098176233 0.04259111 0.347 4279576086
0.09930329 0.04259111 0.347 4279115535
0.10043035 0.04259111 0.347 4279115537
0.10126472 0.042468373 0.34600002 4279973408
0.10238854 0.042468373 0.34600002 4279842842
0.10351235 0.042468373 0.34600002 4279645461
0.10463616 0.042468373 0.34600002 4279315469
0.10575996 0.042468373 0.34600002 4279709459
0.10688378 0.042468373 0.34600002 4280170780
0.10769543 0.042345632 0.34500003 4279776535
0.10881598 0.042345632 0.34500003 4279776535
0.10993654 0.042345632 0.34500003 4279710488
0.1110571 0.042345632 0.34500003 4280236319
0.11250281 0.042468373 0.34600002 4279907354
0.11362663 0.042468373 0.34600002 4279578389
0.11475044 0.042468373 0.34600002 4279117838
0.11620913 0.04259111 0.347 4278723080
0.11733619 0.04259111 0.347 4278920459
0.12637757 0.042222891 0.34400001 4279712024
0.12749489 0.042222891 0.34400001 4279448850
0.12861221 0.042222891 0.34400001 4279514643
0.12972951 0.042222891 0.34400001 4279449363
0.13084681 0.042222891 0.34400001 4279515158
0.13196413 0.042222891 0.34400001 4279449367
0.13308145 0.042222891 0.34400001 4279449365
0.13419876 0.042222891 0.34400001 4279186963
0.13531607 0.042222891 0.34400001 4279121170
0.13643339 0.042222891 0.34400001 4279186963
0.1375507 0.042222891 0.34400001 4279252756
0.13866802 0.042222891 0.34400001 4279515928
0.14019169 0.042345632 0.34500003 4279581721
0.14172184 0.042468373 0.34600002 4279515926
0.14284565 0.042468373 0.34600002 4279318031
0.14396946 0.042468373 0.34600002 4279186445
0.14551261 0.04259111 0.347 4279315217
0.063268043 0.045356423 0.36000001 4284116836
0.06443733 0.045356423 0.36000001 4284116834
0.065606602 0.045356423 0.36000001 4283919455
0.066775888 0.045356423 0.36000001 4283985248
0.067756437 0.045230437 0.35900003 4284248420
0.06892246 0.045230437 0.35900003 4284249953
0.069893263 0.045104444 0.35800001 4281487161
0.07046061 0.044726476 0.35500002 4279909412
0.071411915 0.044600483 0.354 4280042022
0.072356731 0.044474494 0.35300002 4280042022
0.073503278 0.044474494 0.35300002 4279713570
0.074438356 0.044348504 0.35200003 4279779361
0.075366922 0.044222515 0.35100001 4279647775
0.076506972 0.044222515 0.35100001 4279647775
0.077425815 0.044096526 0.35000002 4279516703
0.07856261 0.044096526 0.35000002 4279385117
0.079471692 0.043970533 0.34900001 4279054873
0.080605246 0.043970533 0.34900001 4279842336
0.0817388 0.043970533 0.34900001 4279842336
0.082872353 0.043970533 0.34900001 4279712285
0.083765201 0.043844543 0.34800002 4279581469
0.084895507 0.043844543 0.34800002 4279513371
0.086025812 0.043844543 0.34800002 4278657035
0.08715611 0.043844543 0.34800002 4278983949
0.088032715 0.04371855 0.347 4278654986
0.089159779 0.04371855 0.347 4279180816
0.090286836 0.04371855 0.347 4279180816
0.091413893 0.04371855 0.347 4279180303
0.09254095 0.04371855 0.347 4279311889
0.093668006 0.04371855 0.347 4279442703
0.094795056 0.04371855 0.347 4279442703
0.095922112 0.04371855 0.347 4279180301
0.097049169 0.04371855 0.347 4279312398
0.098176233 0.04371855 0.347 4279444498
0.09930329 0.04371855 0.347 4279115535
0.10043035 0.04371855 0.347 4279907104
0.1015574 0.04371855 0.347 4279842590
0.10268445 0.04371855 0.347 4278723595
0.10381151 0.04371855 0.347 4278853898
0.10493857 0.04371855 0.347 4279180812
0.10606562 0.04371855 0.347 4279311885
0.10719269 0.04371855 0.347 4279247371
0.10831974 0.04371855 0.347 4279446033
0.10944679 0.04371855 0.347 4279381777
0.11057385 0.04371855 0.347 4279381777
0.11170091 0.04371855 0.347 4278592007
0.11282796 0.04371855 0.347 4279579416
0.11395502 0.04371855 0.347 4278789900
0.11508209 0.04371855 0.347 4279513109
0.11620913 0.04371855 0.347 4280105246
0.11767434 0.043844543 0.34800002 4279973660
0.11880464 0.043844543 0.34800002 4279776281
0.12027959 0.043970533 0.34900001 4279842074
0.12674496 0.043466575 0.34500003 4278920461
0.12786552 0.043466575 0.34500003 4279381010
0.12898608 0.043466575 0.34500003 4279644182
0.13010664 0.043466575 0.34500003 4279513109
0.1312272 0.043466575 0.34500003 4279382037
0.13234776 0.043466575 0.34500003 4279448600
0.13346832 0.043466575 0.34500003 4279515160
0.13458888 0.043466575 0.34500003 4279383572
0.13570945 0.043466575 0.34500003 4279712535
0.13683 0.043466575 0.34500003 4279646744
0.13795055 0.043466575 0.34500003 4279646744
0.13907112 0.043466575 0.34500003 4279646744
0.14059803 0.043592565 0.34600002 4279515158
0.14172184 0.043592565 0.34600002 4279317779
0.1432585 0.04371855 0.347 4279251471
0.14438555 0.04371855 0.347 4279383057
0.06443733 0.046526097 0.36000001 4284051041
0.065606602 0.046526097 0.36000001 4283985248
0.066775888 0.046526097 0.36000001 4284116834
0.067945167 0.046526097 0.36000001 4284511592
0.067194603 0.045233708 0.35000002 4284380776
0.068331406 0.045233708 0.35000002 4284380776
0.070063643 0.045621425 0.35300002 4284775534
0.071210191 0.045621425 0.35300002 4284973426
0.072151758 0.045492187 0.35200003 4285170805
0.073295057 0.045492187 0.35200003 4284907885
0.074226879 0.045362946 0.35100001 4283592023
0.075366922 0.045362946 0.35100001 4281947712
0.076289006 0.045233708 0.35000002 4280435758
0.077425815 0.045233708 0.35000002 4279843621
0.07856261 0.045233708 0.35000002 4279711774
0.079471692 0.045104466 0.34900001 4280368934
0.080605246 0.045104466 0.34900001 4279843360
0.0817388 0.045104466 0.34900001 4280172325
0.082872353 0.045104466 0.34900001 4279909666
0.084005907 0.045104466 0.34900001 4280238629
0.084895507 0.044975229 0.34800002 4279844895
0.086025812 0.044975229 0.34800002 4279647516
0.08715611 0.044975229 0.34800002 4279909664
0.088286422 0.044975229 0.34800002 4279712287
0.089416727 0.044975229 0.34800002 4279908383
0.090286836 0.044845987 0.347 4280302627
0.091413893 0.044845987 0.347 4280171041
0.09254095 0.044845987 0.347 4280236321
0.093668006 0.044845987 0.347 4280037918
0.095068246 0.044975229 0.34800002 4279511061
0.096198551 0.044975229 0.34800002 4279115533
0.097328857 0.044975229 0.34800002 4279180812
0.098459162 0.044975229 0.34800002 4278851849
0.099589467 0.044975229 0.34800002 4279247121
0.10071978 0.044975229 0.34800002 4279710750
0.10185007 0.044975229 0.34800002 4279842336
0.10298038 0.044975229 0.34800002 4280171041
0.10411069 0.044975229 0.34800002 4278918924
0.10524099 0.044975229 0.34800002 4279115021
0.1063713 0.044975229 0.34800002 4279115021
0.1075016 0.044975229 0.34800002 4280169758
0.10831974 0.044845987 0.347 4279183633
0.10944679 0.044845987 0.347 4279513363
0.11057385 0.044845987 0.347 4279579156
0.11170091 0.044845987 0.347 4279052560
0.11315312 0.044975229 0.34800002 4279249939
0.11428343 0.044975229 0.34800002 4279973660
0.11541373 0.044975229 0.34800002 4279973914
0.11654403 0.044975229 0.34800002 4279446033
0.11767434 0.044975229 0.34800002 4279840791
0.11914603 0.045104466 0.34900001 4279447057
0.12027959 0.045104466 0.34900001 4279447057
0.12522559 0.044845987 0.347 4279776281
0.12635264 0.044845987 0.347 4279776283
0.12711233 0.044716749 0.34600002 4279842076
0.12823614 0.044716749 0.34600002 4279842076
0.12935995 0.044716749 0.34600002 4280236319
0.13048376 0.044716749 0.34600002 4279841561
0.13160756 0.044716749 0.34600002 4280170526
0.13273136 0.044716749 0.34600002 4279775768
0.13385518 0.044716749 0.34600002 4278788873
0.13458888 0.044587512 0.34500003 4279448082
0.1361028 0.044716749 0.34600002 4279448852
0.13722661 0.044716749 0.34600002 4279777817
0.13835041 0.044716749 0.34600002 4279843608
0.13947421 0.044716749 0.34600002 4279777815
0.14100438 0.044845987 0.347 4279646742
0.14213143 0.044845987 0.347 4279646742
0.1432585 0.044845987 0.347 4279974426
0.14438555 0.044845987 0.347 4279908633
0.067194603 0.046370897 0.35000002 4284380778
0.068331406 0.046370897 0.35000002 4284578157
0.069666684 0.046503384 0.35100001 4284512362
0.071008459 0.046635874 0.35200003 4284775536
0.072151758 0.046635874 0.35200003 4284644463
0.073086828 0.046503384 0.35100001 4284710256
0.074226879 0.046503384 0.35100001 4284775534
0.075366922 0.046503384 0.35100001 4284840811
0.076289006 0.046370897 0.35000002 4284775534
0.077425815 0.046370897 0.35000002 4284907120
0.07856261 0.046370897 0.35000002 4284709995
0.079471692 0.046238404 0.34900001 4284776301
0.080605246 0.046238404 0.34900001 4285369722
0.0817388 0.046238404 0.34900001 4284580206
0.082872353 0.046238404 0.34900001 4284250471
0.084005907 0.046238404 0.34900001 4282408013
0.084895507 0.046105918 0.34800002 4280829233
0.086025812 0.046105918 0.34800002 4279513625
0.08715611 0.046105918 0.34800002 4279447830
0.088286422 0.046105918 0.34800002 4280171555
0.089416727 0.046105918 0.34800002 4280303909
0.090547033 0.046105918 0.34800002 4279975198
0.091677338 0.046105918 0.34800002 4279975198
0.092807643 0.046105918 0.34800002 4279975198
0.093937948 0.046105918 0.34800002 4279974944
0.095068246 0.046105918 0.34800002 4279909664
0.096198551 0.046105918 0.34800002 4279778078
0.097328857 0.046105918 0.34800002 4279909151
0.098459162 0.046105918 0.34800002 4279909151
0.099589467 0.046105918 0.34800002 4279843871
0.10071978 0.046105918 0.34800002 4279778080
0.10185007 0.046105918 0.34800002 4279711774
0.10298038 0.046105918 0.34800002 4279711004
0.10411069 0.046105918 0.34800002 4278789388
0.10524099 0.046105918 0.34800002 4279249172
0.1063713 0.046105918 0.34800002 4278328070
0.1075016 0.046105918 0.34800002 4279052306
0.10863191 0.046105918 0.34800002 4279315478
0.10976221 0.046105918 0.34800002 4279973662
0.11089251 0.046105918 0.34800002 4280302625
0.11202282 0.046105918 0.34800002 4279842588
0.11315312 0.046105918 0.34800002 4279513623
0.11428343 0.046105918 0.34800002 4279381523
0.11541373 0.046105918 0.34800002 4279446803
0.11654403 0.046105918 0.34800002 4279775768
0.11767434 0.046105918 0.34800002 4279841815
0.11914603 0.046238404 0.34900001 4278723080
0.12027959 0.046238404 0.34900001 4280235803
0.12558647 0.046105918 0.34800002 4279249172
0.12635264 0.045973428 0.347 4280038688
0.1274797 0.045973428 0.347 4278986000
0.12860675 0.045973428 0.347 4279380758
0.12973382 0.045973428 0.347 4279842328
0.13086088 0.045973428 0.347 4280039703
0.13198793 0.045973428 0.347 4279579668
0.13273136 0.045840941 0.34600002 4279183631
0.13385518 0.045840941 0.34600002 4279774485
0.13497899 0.045840941 0.34600002 4279907608
0.1361028 0.045840941 0.34600002 4279580186
0.13722661 0.045840941 0.34600002 4279711772
0.13875026 0.045973428 0.347 4279908633
0.13987732 0.045973428 0.347 4279711254
0.14100438 0.045973428 0.347 4279843608
0.14213143 0.045973428 0.347 4279712022
0.1432585 0.045973428 0.347 4280171291
0.14438555 0.045973428 0.347 4280434463
0.069468208 0.04750808 0.35000002 4284906352
0.077425815 0.04750808 0.35000002 4285301110
0.078338139 0.047372341 0.34900001 4285103729
0.079471692 0.047372341 0.34900001 4285170292
0.080605246 0.047372341 0.34900001 4285038706
0.0817388 0.047372341 0.34900001 4285038706
0.082872353 0.047372341 0.34900001 4285170292
0.084005907 0.047372341 0.34900001 4285170292
0.084895507 0.047236603 0.34800002 4285301108
0.086025812 0.047236603 0.34800002 4285038190
0.08715611 0.047236603 0.34800002 4285366901
0.088286422 0.047236603 0.34800002 4285499257
0.089416727 0.047236603 0.34800002 4285302645
0.090547033 0.047236603 0.34800002 4285302643
0.091677338 0.047236603 0.34800002 4283658332
0.092807643 0.047236603 0.34800002 4282276679
0.093937948 0.047236603 0.34800002 4280236580
0.095068246 0.047236603 0.34800002 4279776029
0.096198551 0.047236603 0.34800002 4279842336
0.097328857 0.047236603 0.34800002 4280105508
0.098459162 0.047236603 0.34800002 4280172325
0.099589467 0.047236603 0.34800002 4280172325
0.10071978 0.047236603 0.34800002 4280040739
0.10214274 0.047372341 0.34900001 4279909664
0.1032763 0.047372341 0.34900001 4279843871
0.10440985 0.047372341 0.34900001 4279843871
0.1055434 0.047372341 0.34900001 4279974944
0.1063713 0.047236603 0.34800002 4279974944
0.1075016 0.047236603 0.34800002 4280040737
0.10863191 0.047236603 0.34800002 4279843358
0.10976221 0.047236603 0.34800002 4280171553
0.11089251 0.047236603 0.34800002 4279710490
0.11202282 0.047236603 0.34800002 4279381525
0.11315312 0.047236603 0.34800002 4279118353
0.11428343 0.047236603 0.34800002 4279183379
0.11574538 0.047372341 0.34900001 4279051023
0.11687893 0.047372341 0.34900001 4279248656
0.11801248 0.047372341 0.34900001 4279577619
0.11914603 0.047372341 0.34900001 4279775768
0.12027959 0.047372341 0.34900001 4279907354
0.12558647 0.047236603 0.34800002 4280170274
0.12671678 0.047236603 0.34800002 4279578137
0.12784709 0.047236603 0.34800002 4279578137
0.12860675 0.047100864 0.347 4279314965
0.12973382 0.047100864 0.347 4279841563
0.13086088 0.047100864 0.347 4280038940
0.13198793 0.047100864 0.347 4279315217
0.13311498 0.047100864 0.347 4278853898
0.13424204 0.047100864 0.347 4280038940
0.13536909 0.047100864 0.347 4279842074
0.13649616 0.047100864 0.347 4279908381
0.13762322 0.047100864 0.347 4279842588
0.13875026 0.047100864 0.347 4279514393
0.13987732 0.047100864 0.347 4279712026
0.14100438 0.047100864 0.347 4279843610
0.14213143 0.047100864 0.347 4279909405
0.1432585 0.047100864 0.347 4280499745
0.14480166 0.047236603 0.34800002 4280564253
0.077425815 0.048645265 0.35000002 4285301880
0.07856261 0.048645265 0.35000002 4285366901
0.079699412 0.048645265 0.35000002 4285169522
0.080836214 0.048645265 0.35000002 4285366903
0.081973009 0.048645265 0.35000002 4285432696
0.083109811 0.048645265 0.35000002 4285301880
0.084246613 0.048645265 0.35000002 4285433464
0.085383408 0.048645265 0.35000002 4285498487
0.08652021 0.048645265 0.35000002 4285301108
0.087657012 0.048645265 0.35000002 4285498487
0.088793814 0.048645265 0.35000002 4285432181
0.089930616 0.048645265 0.35000002 4285366901
0.091067418 0.048645265 0.35000002 4285366901
0.092204221 0.048645265 0.35000002 4285432948
0.093341023 0.048645265 0.35000002 4285367155
0.094477825 0.048645265 0.35000002 4285432948
0.095614612 0.048645265 0.35000002 4285301362
0.096198551 0.048367295 0.34800002 4285367155
0.097328857 0.048367295 0.34800002 4285827704
0.098459162 0.048367295 0.34800002 4285763194
0.099589467 0.048367295 0.34800002 4284513129
0.1010092 0.048506279 0.34900001 4283592025
0.10214274 0.048506279 0.34900001 4281880892
0.1032763 0.048506279 0.34900001 4280566313
0.10440985 0.048506279 0.34900001 4279513625
0.1055434 0.048506279 0.34900001 4279711522
0.10667696 0.048506279 0.34900001 4279843106
0.10781051 0.048506279 0.34900001 4280105762
0.10894407 0.048506279 0.34900001 4280105762
0.11007761 0.048506279 0.34900001 4280238118
0.11121117 0.048506279 0.34900001 4279974944
0.11234472 0.048506279 0.34900001 4280040737
0.11347827 0.048506279 0.34900001 4279974944
0.11461183 0.048506279 0.34900001 4280171553
0.11574538 0.048506279 0.34900001 4280105760
0.11687893 0.048506279 0.34900001 4280105760
0.11801248 0.048506279 0.34900001 4280039453
0.11914603 0.048506279 0.34900001 4279973662
0.12027959 0.048506279 0.34900001 4280039455
0.12558647 0.048367295 0.34800002 4278262277
0.12671678 0.048367295 0.34800002 4279183379
0.12784709 0.048367295 0.34800002 4279643930
0.12897739 0.048367295 0.34800002 4279644184
0.1301077 0.048367295 0.34800002 4280631079
0.131238 0.048367295 0.34800002 4280038942
0.1323683 0.048367295 0.34800002 4279051275
0.13349861 0.048367295 0.34800002 4280169756
0.13462891 0.048367295 0.34800002 4279973914
0.13575922 0.048367295 0.34800002 4279842328
0.13688952 0.048367295 0.34800002 4279514393
0.13801983 0.048367295 0.34800002 4279777565
0.13915013 0.048367295 0.34800002 4279711772
0.14028043 0.048367295 0.34800002 4279777565
0.14141074 0.048367295 0.34800002 4279975196
0.14254104 0.048367295 0.34800002 4280040219
0.10214274 0.049640216 0.34900001 4285564021
0.1032763 0.049640216 0.34900001 4285367155
0.10440985 0.049640216 0.34900001 4285169776
0.1055434 0.049640216 0.34900001 4285564534
0.10667696 0.049640216 0.34900001 4285761913
0.10781051 0.049640216 0.34900001 4285894269
0.10894407 0.049640216 0.34900001 4285630327
0.11007761 0.049640216 0.34900001 4285367153
0.11121117 0.049640216 0.34900001 4284446049
0.11234472 0.049640216 0.34900001 4283525971
0.11347827 0.049640216 0.34900001 4282275904
0.11461183 0.049640216 0.34900001 4281617974
0.11574538 0.049640216 0.34900001 4280236067
0.11687893 0.049640216 0.34900001 4279709977
0.11801248 0.049640216 0.34900001 4280038942
0.11914603 0.049640216 0.34900001 4280170528
0.12027959 0.049640216 0.34900001 4280038942
0.12558647 0.049497984 0.34800002 4280302112
0.12671678 0.049497984 0.34800002 4280302112
0.12784709 0.049497984 0.34800002 4280893479
0.12897739 0.049497984 0.34800002 4280498721
0.1301077 0.049497984 0.34800002 4280301342
0.13161512 0.049640216 0.34900001 4280301342
0.1323683 0.049497984 0.34800002 4280367135
0.13349861 0.049497984 0.34800002 4280039194
0.13462891 0.049497984 0.34800002 4280236573
0.13575922 0.049497984 0.34800002 4280170780
0.13688952 0.049497984 0.34800002 4280040221
0.13801983 0.049497984 0.34800002 4279908635
0.13915013 0.049497984 0.34800002 4279975198
0.14028043 0.049497984 0.34800002 4280040991
0.14141074 0.049497984 0.34800002 4280565538
0.12821445 0.05077415 0.34900001 4282604097
0.12934801 0.05077415 0.34900001 4281814581
0.13048157 0.05077415 0.34900001 4280367135
0.13161512 0.05077415 0.34900001 4279972377
0.13274866 0.05077415 0.34900001 4280235036
0.13388221 0.05077415 0.34900001 4280103704
0.13501577 0.05077415 0.34900001 4280366874
0.13614932 0.05077415 0.34900001 4280564253
0.13688952 0.05062867 0.34800002 4280170008
0.13801983 0.05062867 0.34800002 4280301594
0.13915013 0.05062867 0.34800002 4280103702
0.14028043 0.05062867 0.34800002 4281155620
0.14141074 0.05062867 0.34800002 4285628526
0.13048157 0.051908091 0.34900001 4285497708
0.13161512 0.051908091 0.34900001 4285629294
0.13274866 0.051908091 0.34900001 4286023798
0.13388221 0.051908091 0.34900001 4285760628
0.13501577 0.051908091 0.34900001 4285958007
0.13614932 0.051908091 0.34900001 4285958777
0.13728288 0.051908091 0.34900001 4285827191
0.13841644 0.051908091 0.34900001 4286023798
0.13954997 0.051908091 0.34900001 4286155384
0.14028043 0.051759358 0.34800002 4285957491
0.13388221 0.053042024 0.34900001 4286089079
0.13501577 0.053042024 0.34900001 4285891700
0.13614932 0.053042024 0.34900001 4285957493
0.13728288 0.053042024 0.34900001 4286089079
0.13841644 0.053042024 0.34900001 4286154872
0.13954997 0.053042024 0.34900001 4286220665
0.092712604 0.039777253 0.34880367 4294967295
0.092712604 0.039777253 0.34880367 4294901760
0.092712604 0.039777253 0.34930366 4294901760
0.092712604 0.039777253 0.34980366 4294901760
0.092712604 0.039777253 0.35030368 4294901760
0.092712604 0.039777253 0.35080367 4294901760
0.092712604 0.039777253 0.35130367 4294901760
0.092712604 0.039777253 0.35180366 4294901760
0.092712604 0.039777253 0.35230368 4294901760
0.092712604 0.039777253 0.35280368 4294901760
0.092712604 0.039777253 0.35330367 4294901760
0.092712604 0.039777253 0.35380366 4294901760
0.092712604 0.039777253 0.35430366 4294901760
0.092712604 0.039777253 0.35480368 4294901760
0.092712604 0.039777253 0.35530367 4294901760
0.092712604 0.039777253 0.35580367 4294901760
0.092712604 0.039777253 0.35630366 4294901760
0.092712604 0.039777253 0.35680366 4294901760
0.092712604 0.039777253 0.35730368 4294901760
0.092712604 0.039777253 0.35780367 4294901760
0.092712604 0.039777253 0.35830367 4294901760
0.092712604 0.039777253 0.35880366 4294901760
0.092712604 0.039777253 0.35930368 4294901760
0.092712604 0.039777253 0.35980368 4294901760
0.092712604 0.039777253 0.36030367 4294901760
0.092712604 0.039777253 0.36080366 4294901760
0.092712604 0.039777253 0.36130369 4294901760
0.092712604 0.039777253 0.36180368 4294901760
0.092712604 0.039777253 0.36230367 4294901760
0.092712604 0.039777253 0.36280367 4294901760
0.092712604 0.039777253 0.36330366 4294901760
0.092712604 0.039777253 0.36380368 4294901760
0.092712604 0.039777253 0.36430368 4294901760
0.092712604 0.039777253 0.36480367 4294901760
0.092712604 0.039777253 0.36530367 4294901760
0.092712604 0.039777253 0.36580366 4294901760
0.092712604 0.039777253 0.36630368 4294901760
0.092712604 0.039777253 0.36680368 4294901760
0.092712604 0.039777253 0.36730367 4294901760
0.092712604 0.039777253 0.36780366 4294901760
0.092712604 0.039777253 0.36830369 4294901760
0.092712604 0.039777253 0.36880368 4294901760
0.092712604 0.039777253 0.36930367 4294901760
0.092712604 0.039777253 0.36980367 4294901760
0.092712604 0.039777253 0.37030369 4294901760
0.092712604 0.039777253 0.37080368 4294901760
0.092712604 0.039777253 0.37130368 4294901760
0.092712604 0.039777253 0.37180367 4294901760
0.092712604 0.039777253 0.37230366 4294901760
0.092712604 0.039777253 0.37280369 4294901760
0.092712604 0.039777253 0.37330368 4294901760
0.092712604 0.039777253 0.37380368 4294901760
0.092712604 0.039777253 0.37430367 4294901760
0.092712604 0.039777253 0.37480366 4294901760
0.092712604 0.039777253 0.37530369 4294901760
0.092712604 0.039777253 0.37580368 4294901760
0.092712604 0.039777253 0.37630367 4294901760
0.092712604 0.039777253 0.37680367 4294901760
0.092712604 0.039777253 0.37730366 4294901760
0.092712604 0.039777253 0.37780368 4294901760
0.092712604 0.039777253 0.37830368 4294901760
0.092712604 0.039777253 0.37880367 4294901760
0.092712604 0.039777253 0.37930366 4294901760
0.092712604 0.039777253 0.37980369 4294901760
0.092712604 0.039777253 0.38030368 4294901760
0.092712604 0.039777253 0.38080367 4294901760
0.092712604 0.039777253 0.38130367 4294901760
0.092712604 0.039777253 0.38180369 4294901760
0.092712604 0.039777253 0.38230368 4294901760
0.092712604 0.039777253 0.38280368 4294901760
0.092712604 0.039777253 0.38330367 4294901760
0.092712604 0.039777253 0.38380367 4294901760
0.092712604 0.039777253 0.38430369 4294901760
0.092712604 0.039777253 0.38480368 4294901760
