# .PCD v0.7 - Point Cloud Data file format
VERSION 0.7
FIELDS x y z rgb
SIZE 4 4 4 4
TYPE F F F U
COUNT 1 1 1 1
WIDTH 1044
HEIGHT 1
VIEWPOINT 0 0 0 1 0 0 0
POINTS 1044
DATA ascii
0.034601379 0.023122039 0.37900001 4278335245
0.035926919 0.023183048 0.38000003 4278532111
0.03716116 0.023183048 0.38000003 4278400525
0.038395401 0.023183048 0.38000003 4278532111
0.039629642 0.023183048 0.38000003 4278597906
0.040863883 0.023183048 0.38000003 4278730005
0.041987337 0.023122039 0.37900001 4278467603
0.04321833 0.023122039 0.37900001 4278468117
0.044449326 0.023122039 0.37900001 4278468117
0.045680314 0.023122039 0.37900001 4278533910
0.046911307 0.023122039 0.37900001 4278797082
0.048142299 0.023122039 0.37900001 4278468630
-0.028014803 0.025317308 0.39400002 4279377941
-0.019105183 0.025381563 0.39500001 4279443221
-0.017822221 0.025381563 0.39500001 4279903002
-0.016539263 0.025381563 0.39500001 4279510295
-0.014715571 0.024481965 0.38100001 4279445783
-0.013478083 0.024481965 0.38100001 4279121431
-0.012240593 0.024481965 0.38100001 4278859797
-0.011003105 0.024481965 0.38100001 4278664214
-0.0097656166 0.024481965 0.38100001 4278664214
-0.0085281283 0.024481965 0.38100001 4278401812
-0.007290639 0.024481965 0.38100001 4278401812
-0.0060531502 0.024481965 0.38100001 4278335249
-0.0048156618 0.024481965 0.38100001 4278400529
-0.0035781732 0.024481965 0.38100001 4278334736
-0.0023345409 0.024417708 0.38000003 4278597906
-0.0011003002 0.024417708 0.38000003 4278532113
0.00013394043 0.024417708 0.38000003 4278400527
0.0013645806 0.02435345 0.37900001 4278795285
0.0025955732 0.02435345 0.37900001 4278400529
0.0038265658 0.02435345 0.37900001 4278789648
0.0050575584 0.02435345 0.37900001 4278392584
0.0062885508 0.02435345 0.37900001 4278857748
0.0075195436 0.02435345 0.37900001 4278726673
0.0087505365 0.02435345 0.37900001 4278262792
0.0099815289 0.02435345 0.37900001 4278393097
0.011212522 0.02435345 0.37900001 4278588939
0.012443515 0.02435345 0.37900001 4278654218
0.013674506 0.02435345 0.37900001 4278654218
0.014905499 0.02435345 0.37900001 4278654218
0.016136492 0.02435345 0.37900001 4278588939
0.017367486 0.02435345 0.37900001 4278588939
0.018598478 0.02435345 0.37900001 4278523146
0.019829469 0.02435345 0.37900001 4278523400
0.021060463 0.02435345 0.37900001 4278195716
0.022291455 0.02435345 0.37900001 4278195459
0.023522448 0.02435345 0.37900001 4278196738
0.02475344 0.02435345 0.37900001 4278199820
0.025984434 0.02435345 0.37900001 4278196224
0.027215425 0.02435345 0.37900001 4278197508
0.028446417 0.02435345 0.37900001 4278198279
0.029677412 0.02435345 0.37900001 4278265611
0.030908404 0.02435345 0.37900001 4278660882
0.032139398 0.02435345 0.37900001 4278595601
0.033458438 0.024417708 0.38000003 4278595601
0.034692679 0.024417708 0.38000003 4278727957
0.035926919 0.024417708 0.38000003 4278793750
0.03716116 0.024417708 0.38000003 4278399246
0.038395401 0.024417708 0.38000003 4278794004
0.039629642 0.024417708 0.38000003 4278596625
0.040863883 0.024417708 0.38000003 4278662931
0.042098124 0.024417708 0.38000003 4278662931
0.043332364 0.024417708 0.38000003 4278597908
0.044566605 0.024417708 0.38000003 4278334736
0.045800846 0.024417708 0.38000003 4278532628
0.047035087 0.024417708 0.38000003 4279058970
0.048269324 0.024417708 0.38000003 4278204174
0.049633838 0.024481965 0.38100001 4278204431
0.050871328 0.024481965 0.38100001 4278599189
0.052108813 0.024481965 0.38100001 4278599189
0.053486321 0.024546223 0.38200003 4278928154
0.054727063 0.024546223 0.38200003 4278928156
0.0559678 0.024546223 0.38200003 4278731291
0.057208531 0.024546223 0.38200003 4278797084
-0.029294519 0.026597453 0.39400002 4279180564
-0.028085906 0.026664959 0.39500001 4279509014
-0.020388143 0.026664959 0.39500001 4279115285
-0.019105183 0.026664959 0.39500001 4279574037
-0.017822221 0.026664959 0.39500001 4279968795
-0.016539263 0.026664959 0.39500001 4279838744
-0.014715571 0.025719872 0.38100001 4279445781
-0.013478083 0.025719872 0.38100001 4279713822
-0.012240593 0.025719872 0.38100001 4278925590
-0.011003105 0.025719872 0.38100001 4278664214
-0.0097656166 0.025719872 0.38100001 4278795800
-0.0085281283 0.025719872 0.38100001 4278533398
-0.007290639 0.025719872 0.38100001 4278401812
-0.0060531502 0.025719872 0.38100001 4278466835
-0.0048156618 0.025719872 0.38100001 4278598421
-0.0035781732 0.025719872 0.38100001 4278400529
-0.0023345409 0.025652368 0.38000003 4278400529
-0.0011003002 0.025652368 0.38000003 4278597906
0.00013394043 0.025652368 0.38000003 4278663699
0.0013645806 0.02558486 0.37900001 4278400527
0.0025955732 0.02558486 0.37900001 4278532113
0.0038265658 0.02558486 0.37900001 4279053074
0.0050575584 0.02558486 0.37900001 4278525451
0.0062885508 0.02558486 0.37900001 4278858261
0.0075195436 0.02558486 0.37900001 4279055640
0.0087505365 0.02558486 0.37900001 4278392330
0.0099815289 0.02558486 0.37900001 4278786572
0.011212522 0.02558486 0.37900001 4278654220
0.012443515 0.02558486 0.37900001 4278720011
0.013674506 0.02558486 0.37900001 4278719500
0.014905499 0.02558486 0.37900001 4278719500
0.016136492 0.02558486 0.37900001 4278654220
0.017367486 0.02558486 0.37900001 4278654220
0.018598478 0.02558486 0.37900001 4278720013
0.019829469 0.02558486 0.37900001 4278654220
0.021060463 0.02558486 0.37900001 4278522119
0.022291455 0.02558486 0.37900001 4278719498
0.023522448 0.02558486 0.37900001 4278393865
0.02475344 0.02558486 0.37900001 4279055127
0.025984434 0.02558486 0.37900001 4278858261
0.027215425 0.02558486 0.37900001 4278923541
0.028446417 0.02558486 0.37900001 4279251482
0.029677412 0.02558486 0.37900001 4279185689
0.030908404 0.02558486 0.37900001 4279251482
0.032224201 0.025652368 0.38000003 4278790418
0.033458438 0.025652368 0.38000003 4278658834
0.034692679 0.025652368 0.38000003 4278195973
0.035926919 0.025652368 0.38000003 4278197513
0.03716116 0.025652368 0.38000003 4278193920
0.038395401 0.025652368 0.38000003 4278195456
0.039733931 0.025719872 0.38100001 4278195200
0.040971417 0.025719872 0.38100001 4278195456
0.042208906 0.025719872 0.38100001 4278197764
0.043446396 0.025719872 0.38100001 4278264841
0.044683885 0.025719872 0.38100001 4278594576
0.045921374 0.025719872 0.38100001 4278529548
0.04715886 0.025719872 0.38100001 4278990613
0.048396349 0.025719872 0.38100001 4278333199
0.049633838 0.025719872 0.38100001 4278662677
0.051004853 0.02578738 0.38200003 4278465298
0.052245583 0.02578738 0.38200003 4278531091
0.053486321 0.02578738 0.38200003 4279123998
0.054727063 0.02578738 0.38200003 4278597654
0.0559678 0.02578738 0.38200003 4278664984
0.057208531 0.02578738 0.38200003 4278336019
0.058602277 0.025854886 0.38300002 4278599189
0.059846263 0.025854886 0.38300002 4278664982
0.061090246 0.025854886 0.38300002 4278665496
0.062334232 0.025854886 0.38300002 4278928668
-0.03177309 0.027806843 0.39300001 4279247123
-0.030574229 0.027877599 0.39400002 4279312402
-0.029368868 0.027948353 0.39500001 4279508244
-0.028085906 0.027948353 0.39500001 4279574037
-0.020388143 0.027948353 0.39500001 4280035871
-0.019105183 0.027948353 0.39500001 4279705110
-0.017822221 0.027948353 0.39500001 4279903002
-0.015994933 0.027028536 0.38200003 4279904537
-0.014754196 0.027028536 0.38200003 4279577367
-0.013513459 0.027028536 0.38200003 4279253271
-0.012240593 0.02695778 0.38100001 4278728211
-0.011003105 0.02695778 0.38100001 4278663701
-0.0097656166 0.02695778 0.38100001 4278795798
-0.0085281283 0.02695778 0.38100001 4278533396
-0.007290639 0.02695778 0.38100001 4278533396
-0.0060531502 0.02695778 0.38100001 4278401810
-0.0048156618 0.02695778 0.38100001 4278401810
-0.0035781732 0.02695778 0.38100001 4278269454
-0.0023345409 0.026887026 0.38000003 4278466835
-0.0011003002 0.026887026 0.38000003 4278400529
0.00013358794 0.026816269 0.37900001 4278532115
0.0013645806 0.026816269 0.37900001 4278532115
0.0025955732 0.026816269 0.37900001 4278795287
0.0038265658 0.026816269 0.37900001 4278526476
0.0050575584 0.026816269 0.37900001 4278854414
0.0062885508 0.026816269 0.37900001 4278858261
0.0075195436 0.026816269 0.37900001 4278858261
0.0087505365 0.026816269 0.37900001 4278654732
0.0099815289 0.026816269 0.37900001 4279707420
0.011212522 0.026816269 0.37900001 4278852881
0.012443515 0.026816269 0.37900001 4278721295
0.013674506 0.026816269 0.37900001 4279445018
0.014905499 0.026816269 0.37900001 4278918674
0.016136492 0.026816269 0.37900001 4279379225
0.017367486 0.026816269 0.37900001 4279708703
0.018598478 0.026816269 0.37900001 4278721295
0.019829469 0.026816269 0.37900001 4279313432
0.021060463 0.026816269 0.37900001 4279510295
0.022291455 0.026816269 0.37900001 4278654986
0.023522448 0.026816269 0.37900001 4278920209
0.02475344 0.026816269 0.37900001 4279186713
0.025984434 0.026816269 0.37900001 4278727187
0.027215425 0.026816269 0.37900001 4278529808
0.028521474 0.026887026 0.38000003 4278594576
0.029755717 0.026887026 0.38000003 4279055127
0.030989956 0.026887026 0.38000003 4279121433
0.032224201 0.026887026 0.38000003 4278858261
0.033458438 0.026887026 0.38000003 4278989845
0.034692679 0.026887026 0.38000003 4278924566
0.035926919 0.026887026 0.38000003 4278924566
0.037258953 0.02695778 0.38100001 4278858773
0.038496442 0.02695778 0.38100001 4278989845
0.039733931 0.02695778 0.38100001 4279253019
0.040971417 0.02695778 0.38100001 4279515678
0.042208906 0.02695778 0.38100001 4279055127
0.043446396 0.02695778 0.38100001 4279120666
0.044683885 0.02695778 0.38100001 4279318045
0.045921374 0.02695778 0.38100001 4278658832
0.04715886 0.02695778 0.38100001 4278461453
0.048523374 0.027028536 0.38200003 4278197511
0.049764112 0.027028536 0.38200003 4278195456
0.051004853 0.027028536 0.38200003 4278194432
0.052245583 0.027028536 0.38200003 4278195200
0.053486321 0.027028536 0.38200003 4278195200
0.054870322 0.027099291 0.38300002 4278198025
0.056114309 0.027099291 0.38300002 4278727957
0.057358291 0.027099291 0.38300002 4278662677
0.058602277 0.027099291 0.38300002 4278662931
0.059846263 0.027099291 0.38300002 4278597906
0.061090246 0.027099291 0.38300002 4278466833
0.062334232 0.027099291 0.38300002 4278664212
0.063744217 0.027170045 0.384 4278795798
-0.033133656 0.029157747 0.39400002 4279575574
-0.03185394 0.029157747 0.39400002 4279377682
-0.030651828 0.029231749 0.39500001 4279246096
-0.029368868 0.029231749 0.39500001 4279376912
-0.028157011 0.029305754 0.39600003 4279574291
-0.019105183 0.029231749 0.39500001 4279836696
-0.017280787 0.028343696 0.38300002 4280100381
-0.015994933 0.028269693 0.38200003 4279840028
-0.014754196 0.028269693 0.38200003 4279578137
-0.013513459 0.028269693 0.38200003 4279253271
-0.012272721 0.028269693 0.38200003 4278794004
-0.011031985 0.028269693 0.38200003 4278597908
-0.0097656166 0.028195687 0.38100001 4278729492
-0.0085281283 0.028195687 0.38100001 4278730005
-0.007290639 0.028195687 0.38100001 4278466833
-0.0060531502 0.028195687 0.38100001 4278466833
-0.0048156618 0.028195687 0.38100001 4278532626
-0.0035781732 0.028195687 0.38100001 4278335249
-0.0023345409 0.028121684 0.38000003 4278466835
-0.0011003002 0.028121684 0.38000003 4278400529
0.00013358794 0.028047679 0.37900001 4278532115
0.0013645806 0.028047679 0.37900001 4278728724
0.0025955732 0.028047679 0.37900001 4278596625
0.0038265658 0.028047679 0.37900001 4278196228
0.0050575584 0.028047679 0.37900001 4279183381
0.0062885508 0.028047679 0.37900001 4278727189
0.0075195436 0.028047679 0.37900001 4278923541
0.0087505365 0.028047679 0.37900001 4278588939
0.0099815289 0.028047679 0.37900001 4280234788
0.011212522 0.028047679 0.37900001 4278722832
0.012443515 0.028047679 0.37900001 4278920211
0.013674506 0.028047679 0.37900001 4279774496
0.014905499 0.028047679 0.37900001 4278392330
0.016136492 0.028047679 0.37900001 4279248152
0.017367486 0.028047679 0.37900001 4278392843
0.018598478 0.028047679 0.37900001 4278458123
0.019881791 0.028121684 0.38000003 4279117336
0.021116031 0.028121684 0.38000003 4278525453
0.022350272 0.028121684 0.38000003 4278392584
0.023584513 0.028121684 0.38000003 4278987027
0.024818754 0.028121684 0.38000003 4278726675
0.026052997 0.028121684 0.38000003 4278595087
0.027287235 0.028121684 0.38000003 4278197254
0.028521474 0.028121684 0.38000003 4278260998
0.029755717 0.028121684 0.38000003 4278195202
0.030989956 0.028121684 0.38000003 4278594574
0.032224201 0.028121684 0.38000003 4278331402
0.033458438 0.028121684 0.38000003 4278199046
0.034692679 0.028121684 0.38000003 4278660882
0.036021464 0.028195687 0.38100001 4278398222
0.037258953 0.028195687 0.38100001 4278197504
0.038496442 0.028195687 0.38100001 4278595603
0.039733931 0.028195687 0.38100001 4278661394
0.040971417 0.028195687 0.38100001 4278858773
0.042319693 0.028269693 0.38200003 4278727187
0.04356043 0.028269693 0.38200003 4278793750
0.044801168 0.028269693 0.38200003 4278793750
0.046041902 0.028269693 0.38200003 4278596371
0.04728264 0.028269693 0.38200003 4278661394
0.048523374 0.028269693 0.38200003 4278858773
0.049764112 0.028269693 0.38200003 4278727187
0.051138371 0.028343696 0.38300002 4278858773
0.05238235 0.028343696 0.38300002 4278989845
0.053626336 0.028343696 0.38300002 4279055127
0.054870322 0.028343696 0.38300002 4278329869
0.056114309 0.028343696 0.38300002 4278529296
0.057358291 0.028343696 0.38300002 4278727957
0.058602277 0.028343696 0.38300002 4278728724
0.059846263 0.028343696 0.38300002 4278662931
0.061090246 0.028343696 0.38300002 4278531343
0.062334232 0.028343696 0.38300002 4278400527
0.063744217 0.028417701 0.384 4278663699
0.064991444 0.028417701 0.384 4278268943
0.066238679 0.028417701 0.384 4278726425
-0.021725969 0.030592399 0.39600003 4281286190
-0.020388143 0.030515144 0.39500001 4279706393
-0.019105183 0.030515144 0.39500001 4279968795
-0.017280787 0.029588103 0.38300002 4280166944
-0.015994933 0.02951085 0.38200003 4279774748
-0.014754196 0.02951085 0.38200003 4279578650
-0.013513459 0.02951085 0.38200003 4279582236
-0.012272721 0.02951085 0.38200003 4278925588
-0.011031985 0.02951085 0.38200003 4278860308
-0.0097912485 0.02951085 0.38200003 4278861078
-0.0085505117 0.02951085 0.38200003 4278795285
-0.007290639 0.029433595 0.38100001 4278598419
-0.0060531502 0.029433595 0.38100001 4278664212
-0.0048156618 0.029433595 0.38100001 4278532626
-0.0035687818 0.029356342 0.38000003 4278466833
-0.0023345409 0.029356342 0.38000003 4278400527
-0.0011003002 0.029356342 0.38000003 4278532113
0.00013358794 0.029279089 0.37900001 4278597906
0.0013645806 0.029279089 0.37900001 4278597906
0.0025955732 0.029279089 0.37900001 4278333453
0.0038265658 0.029279089 0.37900001 4278393865
0.0050575584 0.029279089 0.37900001 4278195461
0.0062885508 0.029279089 0.37900001 4278858259
0.0075195436 0.029279089 0.37900001 4278660369
0.0087505365 0.029279089 0.37900001 4278589193
0.0099815289 0.029279089 0.37900001 4278391814
0.011212522 0.029279089 0.37900001 4278523146
0.012443515 0.029279089 0.37900001 4278523146
0.013674506 0.029279089 0.37900001 4278523146
0.014905499 0.029279089 0.37900001 4278391560
0.016136492 0.029279089 0.37900001 4278786318
0.017367486 0.029279089 0.37900001 4278391560
0.018598478 0.029279089 0.37900001 4278919441
0.019881791 0.029356342 0.38000003 4279512859
0.021116031 0.029356342 0.38000003 4279841822
0.022350272 0.029356342 0.38000003 4278458377
0.023584513 0.029356342 0.38000003 4279053844
0.024818754 0.029356342 0.38000003 4278990359
0.026052997 0.029356342 0.38000003 4278196742
0.027287235 0.029356342 0.38000003 4278392584
0.028521474 0.029356342 0.38000003 4278588939
0.029755717 0.029356342 0.38000003 4278194948
0.030989956 0.029356342 0.38000003 4278197510
0.032224201 0.029356342 0.38000003 4278858261
0.033458438 0.029356342 0.38000003 4279253017
0.034692679 0.029356342 0.38000003 4278397197
0.036021464 0.029433595 0.38100001 4278594576
0.037258953 0.029433595 0.38100001 4278858261
0.038496442 0.029433595 0.38100001 4278198533
0.039733931 0.029433595 0.38100001 4279120920
0.041078955 0.02951085 0.38200003 4278660369
0.042319693 0.02951085 0.38200003 4278198533
0.04356043 0.02951085 0.38200003 4278660882
0.044801168 0.02951085 0.38200003 4278398224
0.046041902 0.02951085 0.38200003 4278200845
0.04728264 0.02951085 0.38200003 4278397710
0.048650399 0.029588103 0.38300002 4278596371
0.049894385 0.029588103 0.38300002 4278596371
0.051138371 0.029588103 0.38300002 4278530578
0.05238235 0.029588103 0.38300002 4278793750
0.053626336 0.029588103 0.38300002 4278924566
0.054870322 0.029588103 0.38300002 4278198277
0.056114309 0.029588103 0.38300002 4279253019
0.057358291 0.029588103 0.38300002 4278794263
0.058602277 0.029588103 0.38300002 4278531345
0.059846263 0.029588103 0.38300002 4278662931
0.061090246 0.029588103 0.38300002 4278662931
0.062334232 0.029588103 0.38300002 4278728724
0.063744217 0.029665355 0.384 4278728724
0.064991444 0.029665355 0.384 4278662677
0.066238679 0.029665355 0.384 4278265874
-0.027074369 0.032120552 0.39900002 4280166165
-0.02318651 0.032120552 0.39900002 4280035092
-0.021725969 0.031879045 0.39600003 4280298010
-0.017280787 0.030832509 0.38300002 4279903774
-0.015994933 0.030752007 0.38200003 4279708955
-0.014754196 0.030752007 0.38200003 4279776283
-0.013513459 0.030752007 0.38200003 4279057174
-0.012272721 0.030752007 0.38200003 4278925588
-0.011031985 0.030752007 0.38200003 4278795285
-0.0097912485 0.030752007 0.38200003 4278992664
-0.0085505117 0.030752007 0.38200003 4278861078
-0.007290639 0.030671503 0.38100001 4278729490
-0.0060531502 0.030671503 0.38100001 4278400525
-0.0048156618 0.030671503 0.38100001 4278597904
-0.0035687818 0.030591002 0.38000003 4278597906
-0.0023345409 0.030591002 0.38000003 4278597906
-0.0010974046 0.030510496 0.37900001 4278532113
0.00013358794 0.030510496 0.37900001 4278334734
0.0013645806 0.030510496 0.37900001 4278334734
0.0025955732 0.030510496 0.37900001 4278662931
0.0038265658 0.030510496 0.37900001 4278593039
0.0050575584 0.030510496 0.37900001 4279250201
0.0062885508 0.030510496 0.37900001 4278989845
0.0075195436 0.030510496 0.37900001 4278660369
0.0087505365 0.030510496 0.37900001 4278588939
0.0099815289 0.030510496 0.37900001 4278720011
0.011212522 0.030510496 0.37900001 4278851084
0.012443515 0.030510496 0.37900001 4278785291
0.013674506 0.030510496 0.37900001 4278719498
0.014905499 0.030510496 0.37900001 4278719500
0.016136492 0.030510496 0.37900001 4278720013
0.017367486 0.030510496 0.37900001 4278654220
0.018598478 0.030510496 0.37900001 4278522632
0.019829469 0.030510496 0.37900001 4278325767
0.021116031 0.030591002 0.38000003 4278260998
0.022350272 0.030591002 0.38000003 4278392330
0.023584513 0.030591002 0.38000003 4279646494
0.024818754 0.030591002 0.38000003 4278595855
0.026052997 0.030591002 0.38000003 4278394376
0.027287235 0.030591002 0.38000003 4278523400
0.028521474 0.030591002 0.38000003 4278588939
0.029755717 0.030591002 0.38000003 4278720779
0.030989956 0.030591002 0.38000003 4278921488
0.032224201 0.030591002 0.38000003 4278856465
0.033458438 0.030591002 0.38000003 4278199818
0.034692679 0.030591002 0.38000003 4278791955
0.036021464 0.030671503 0.38100001 4278265611
0.037258953 0.030671503 0.38100001 4278989847
0.038496442 0.030671503 0.38100001 4278200331
0.039733931 0.030671503 0.38100001 4278857748
0.041078955 0.030752007 0.38200003 4278329869
0.042319693 0.030752007 0.38200003 4278526478
0.04356043 0.030752007 0.38200003 4278460685
0.044801168 0.030752007 0.38200003 4278461455
0.04616243 0.030832509 0.38300002 4279251482
0.047406413 0.030832509 0.38300002 4278790931
0.048650399 0.030832509 0.38300002 4278988310
0.049894385 0.030832509 0.38300002 4278264587
0.051138371 0.030832509 0.38300002 4278265357
0.052519117 0.03091301 0.384 4278595601
0.053766351 0.03091301 0.384 4278727187
0.055013586 0.03091301 0.384 4278196481
0.05626082 0.03091301 0.384 4278989847
0.057358291 0.030832509 0.38300002 4278727957
0.058602277 0.030832509 0.38300002 4278728470
0.059846263 0.030832509 0.38300002 4278662931
0.061090246 0.030832509 0.38300002 4278465552
0.062334232 0.030832509 0.38300002 4278728724
0.063744217 0.03091301 0.384 4278465298
0.064991444 0.03091301 0.384 4278267919
0.066238679 0.03091301 0.384 4278858521
0.067485914 0.03091301 0.384 4284712821
-0.017280787 0.032076914 0.38300002 4283327572
-0.015994933 0.031993162 0.38200003 4279314967
-0.014754196 0.031993162 0.38200003 4279118867
-0.013513459 0.031993162 0.38200003 4279057176
-0.012272721 0.031993162 0.38200003 4278860310
-0.011031985 0.031993162 0.38200003 4278861080
-0.0097912485 0.031993162 0.38200003 4278729492
-0.0085505117 0.031993162 0.38200003 4278795285
-0.007290639 0.03190941 0.38100001 4278597906
-0.0060531502 0.03190941 0.38100001 4278663699
-0.0048156618 0.03190941 0.38100001 4278532113
-0.0035687818 0.031825658 0.38000003 4278532113
-0.0023345409 0.031825658 0.38000003 4278597906
-0.0010974046 0.031741906 0.37900001 4278400527
0.00013358794 0.031741906 0.37900001 4278400527
0.0013645806 0.031741906 0.37900001 4278532115
0.0025955732 0.031741906 0.37900001 4278199557
0.0038265658 0.031741906 0.37900001 4278527500
0.0050575584 0.031741906 0.37900001 4278198535
0.0062885508 0.031741906 0.37900001 4278792466
0.0075195436 0.031741906 0.37900001 4278989845
0.0087505365 0.031741906 0.37900001 4279119637
0.0099815289 0.031741906 0.37900001 4278921234
0.011212522 0.031741906 0.37900001 4278788623
0.012443515 0.031741906 0.37900001 4278721549
0.013674506 0.031741906 0.37900001 4278589193
0.014905499 0.031741906 0.37900001 4278523146
0.016136492 0.031741906 0.37900001 4278654218
0.017367486 0.031741906 0.37900001 4278456841
0.018598478 0.031741906 0.37900001 4278720013
0.019829469 0.031741906 0.37900001 4278654220
0.021116031 0.031825658 0.38000003 4278654220
0.022350272 0.031825658 0.38000003 4278654220
0.023584513 0.031825658 0.38000003 4279382809
0.024818754 0.031825658 0.38000003 4278726160
0.026052997 0.031825658 0.38000003 4279513625
0.027287235 0.031825658 0.38000003 4279117588
0.028521474 0.031825658 0.38000003 4279445783
0.029755717 0.031825658 0.38000003 4279578650
0.030989956 0.031825658 0.38000003 4278923541
0.032224201 0.031825658 0.38000003 4279055127
0.033458438 0.031825658 0.38000003 4279055640
0.034692679 0.031825658 0.38000003 4278727189
0.036021464 0.03190941 0.38100001 4278858775
0.037258953 0.03190941 0.38100001 4278660369
0.038496442 0.03190941 0.38100001 4278923541
0.039733931 0.03190941 0.38100001 4278989593
0.041078955 0.031993162 0.38200003 4278857494
0.042319693 0.031993162 0.38200003 4279054873
0.04356043 0.031993162 0.38200003 4278790420
0.044918448 0.032076914 0.38300002 4278922006
0.04616243 0.032076914 0.38300002 4278197254
0.047406413 0.032076914 0.38300002 4278330382
0.048650399 0.032076914 0.38300002 4278988312
0.049894385 0.032076914 0.38300002 4278856726
0.051271889 0.032160666 0.384 4278197769
0.052519117 0.032160666 0.384 4278792468
0.053766351 0.032160666 0.384 4278661394
0.055013586 0.032160666 0.384 4278197254
0.05626082 0.032160666 0.384 4278661394
0.057508048 0.032160666 0.384 4278531345
0.058755282 0.032160666 0.384 4278662931
0.060002517 0.032160666 0.384 4278728724
0.061249748 0.032160666 0.384 4278532115
0.062496983 0.032160666 0.384 4278597908
0.063744217 0.032160666 0.384 4278662677
0.065160699 0.032244418 0.38500002 4278728470
0.066411175 0.032244418 0.38500002 4279253019
0.067485914 0.032160666 0.384 4285107063
-0.015994933 0.033234321 0.38200003 4279709727
-0.014754196 0.033234321 0.38200003 4279249689
-0.013513459 0.033234321 0.38200003 4279188508
-0.012272721 0.033234321 0.38200003 4278991642
-0.011031985 0.033234321 0.38200003 4278795033
-0.0097912485 0.033234321 0.38200003 4278861080
-0.0085505117 0.033234321 0.38200003 4278729492
-0.007290639 0.033147316 0.38100001 4278729492
-0.0060531502 0.033147316 0.38100001 4278992664
-0.0048156618 0.033147316 0.38100001 4278663699
-0.0035687818 0.03306032 0.38000003 4278532113
-0.0023345409 0.03306032 0.38000003 4278334734
-0.0010974046 0.032973316 0.37900001 4278400527
0.00013358794 0.032973316 0.37900001 4278466833
0.0013645806 0.032973316 0.37900001 4278597906
0.0025955732 0.032973316 0.37900001 4278794515
0.0038265658 0.032973316 0.37900001 4279055638
0.0050575584 0.032973316 0.37900001 4278726673
0.0062885508 0.032973316 0.37900001 4278858773
0.0075195436 0.032973316 0.37900001 4278596625
0.0087505365 0.032973316 0.37900001 4278596625
0.0099815289 0.032973316 0.37900001 4278596625
0.011212522 0.032973316 0.37900001 4278924820
0.012443515 0.032973316 0.37900001 4278858259
0.013674506 0.032973316 0.37900001 4278989845
0.014905499 0.032973316 0.37900001 4278989845
0.016136492 0.032973316 0.37900001 4279121431
0.017367486 0.032973316 0.37900001 4279055125
0.018598478 0.032973316 0.37900001 4279185943
0.019829469 0.032973316 0.37900001 4279579934
0.021116031 0.03306032 0.38000003 4279579164
0.022350272 0.03306032 0.38000003 4279381785
0.023584513 0.03306032 0.38000003 4279383322
0.024818754 0.03306032 0.38000003 4278528013
0.026052997 0.03306032 0.38000003 4278197510
0.027287235 0.03306032 0.38000003 4278194432
0.028521474 0.03306032 0.38000003 4278194944
0.029755717 0.03306032 0.38000003 4278193920
0.030989956 0.03306032 0.38000003 4278195971
0.032224201 0.03306032 0.38000003 4278195714
0.033458438 0.03306032 0.38000003 4278195713
0.034692679 0.03306032 0.38000003 4278197767
0.036021464 0.033147316 0.38100001 4278395660
0.037258953 0.033147316 0.38100001 4278527759
0.038496442 0.033147316 0.38100001 4278725138
0.039733931 0.033147316 0.38100001 4279054873
0.041078955 0.033234321 0.38200003 4279120920
0.042319693 0.033234321 0.38200003 4279581984
0.04356043 0.033234321 0.38200003 4279581984
0.044918448 0.033321321 0.38300002 4278858261
0.04616243 0.033321321 0.38300002 4278989847
0.047406413 0.033321321 0.38300002 4278792468
0.048650399 0.033321321 0.38300002 4278989847
0.050024655 0.033408321 0.384 4279055640
0.051271889 0.033408321 0.384 4278857748
0.052519117 0.033408321 0.384 4278858773
0.053766351 0.033408321 0.384 4278792466
0.055013586 0.033408321 0.384 4278195200
0.05626082 0.033408321 0.384 4279056152
0.057508048 0.033408321 0.384 4278728724
0.058755282 0.033408321 0.384 4278400529
0.060002517 0.033408321 0.384 4278532115
0.061249748 0.033408321 0.384 4278202893
0.062659733 0.033495322 0.38500002 4278532115
0.063910216 0.033495322 0.38500002 4278728724
0.065160699 0.033495322 0.38500002 4278859797
0.066411175 0.033495322 0.38500002 4278594322
-0.014792819 0.034565728 0.38300002 4283065683
-0.013513459 0.034475479 0.38200003 4278988312
-0.012272721 0.034475479 0.38200003 4279318558
-0.011031985 0.034475479 0.38200003 4279056924
-0.0097912485 0.034475479 0.38200003 4279189023
-0.0085505117 0.034475479 0.38200003 4279189021
-0.0073097749 0.034475479 0.38200003 4278925849
-0.0060531502 0.034385227 0.38100001 4278860826
-0.0048156618 0.034385227 0.38100001 4278663447
-0.0035687818 0.034294982 0.38000003 4278991642
-0.0023345409 0.034294982 0.38000003 4278794263
-0.0010974046 0.034204729 0.37900001 4278728470
0.00013358794 0.034204729 0.37900001 4278794517
0.0013645806 0.034204729 0.37900001 4278728724
0.0025955732 0.034204729 0.37900001 4278794517
0.0038265658 0.034204729 0.37900001 4278728724
0.0050575584 0.034204729 0.37900001 4278794517
0.0062885508 0.034204729 0.37900001 4278531345
0.0075195436 0.034204729 0.37900001 4278794517
0.0087505365 0.034204729 0.37900001 4278202380
0.0099815289 0.034204729 0.37900001 4278859795
0.011212522 0.034204729 0.37900001 4278794002
0.012476347 0.034294982 0.38000003 4278794002
0.013710587 0.034294982 0.38000003 4278728209
0.014944828 0.034294982 0.38000003 4278859795
0.01617907 0.034294982 0.38000003 4278859795
0.017413311 0.034294982 0.38000003 4278794002
0.018647552 0.034294982 0.38000003 4278924820
0.019881791 0.034294982 0.38000003 4278859027
0.021116031 0.034294982 0.38000003 4278924820
0.022350272 0.034294982 0.38000003 4278990613
0.023584513 0.034294982 0.38000003 4278859027
0.024818754 0.034294982 0.38000003 4278924820
0.026052997 0.034294982 0.38000003 4278727187
0.027287235 0.034294982 0.38000003 4278858773
0.028521474 0.034294982 0.38000003 4279055638
0.029755717 0.034294982 0.38000003 4278989845
0.030989956 0.034294982 0.38000003 4279055127
0.032224201 0.034294982 0.38000003 4279186459
0.033458438 0.034294982 0.38000003 4279186459
0.034692679 0.034294982 0.38000003 4279120666
0.036021464 0.034385227 0.38100001 4279448861
0.037258953 0.034385227 0.38100001 4279317275
0.038496442 0.034385227 0.38100001 4278988312
0.039733931 0.034385227 0.38100001 4278723857
0.041078955 0.034475479 0.38200003 4278591757
0.042319693 0.034475479 0.38200003 4278195714
0.04356043 0.034475479 0.38200003 4278195971
0.044918448 0.034565728 0.38300002 4278195200
0.04616243 0.034565728 0.38300002 4278194176
0.047406413 0.034565728 0.38300002 4278195969
0.048650399 0.034565728 0.38300002 4278196740
0.050024655 0.034655977 0.384 4278263304
0.051271889 0.034655977 0.384 4278329867
0.052519117 0.034655977 0.384 4278725138
0.05390637 0.03474623 0.38500002 4278593552
0.055156853 0.03474623 0.38500002 4278198023
0.056407336 0.03474623 0.38500002 4278727957
0.057657812 0.03474623 0.38500002 4278531091
0.058908295 0.03474623 0.38500002 4278663701
0.060158778 0.03474623 0.38500002 4278663701
0.061409254 0.03474623 0.38500002 4278663701
0.062659733 0.03474623 0.38500002 4278663701
0.063910216 0.03474623 0.38500002 4278663701
0.065329939 0.034836479 0.38600001 4278860056
0.066411175 0.03474623 0.38500002 4282013507
-0.014792819 0.035810135 0.38300002 4284380260
-0.013548833 0.035810135 0.38300002 4284249444
-0.012304849 0.035810135 0.38300002 4284841840
-0.011031985 0.035716638 0.38200003 4282540884
-0.0097912485 0.035716638 0.38200003 4279318308
-0.0085505117 0.035716638 0.38200003 4278792216
-0.0073097749 0.035716638 0.38200003 4278857494
-0.0060531502 0.035623137 0.38100001 4279056154
-0.0048156618 0.035623137 0.38100001 4279188256
-0.0035687818 0.03552964 0.38000003 4279188258
-0.0023345409 0.03552964 0.38000003 4278990879
-0.0010974046 0.035436139 0.37900001 4279188256
0.00013358794 0.035436139 0.37900001 4278990877
0.0013645806 0.035436139 0.37900001 4278991131
0.0025955732 0.035436139 0.37900001 4279056922
0.0038265658 0.035436139 0.37900001 4278925336
0.0050575584 0.035436139 0.37900001 4279056922
0.0062885508 0.035436139 0.37900001 4279254301
0.0075195436 0.035436139 0.37900001 4278859543
0.0087505365 0.035436139 0.37900001 4278794004
0.0099815289 0.035436139 0.37900001 4278794004
0.011242107 0.03552964 0.38000003 4278728211
0.012476347 0.03552964 0.38000003 4278859797
0.013710587 0.03552964 0.38000003 4278925590
0.014944828 0.03552964 0.38000003 4278596625
0.01617907 0.03552964 0.38000003 4278926101
0.017413311 0.03552964 0.38000003 4278860308
0.018647552 0.03552964 0.38000003 4278728724
0.019881791 0.03552964 0.38000003 4278728724
0.021116031 0.03552964 0.38000003 4278465039
0.022350272 0.03552964 0.38000003 4278728211
0.023584513 0.03552964 0.38000003 4278728211
0.024818754 0.03552964 0.38000003 4278596625
0.026052997 0.03552964 0.38000003 4278859543
0.027287235 0.03552964 0.38000003 4278793750
0.028521474 0.03552964 0.38000003 4278727957
0.029755717 0.03552964 0.38000003 4278727957
0.030989956 0.03552964 0.38000003 4278596371
0.032224201 0.03552964 0.38000003 4278727957
0.033458438 0.03552964 0.38000003 4278793750
0.034783974 0.035623137 0.38100001 4278596371
0.036021464 0.035623137 0.38100001 4278860056
0.037258953 0.035623137 0.38100001 4278727957
0.038496442 0.035623137 0.38100001 4278793750
0.039733931 0.035623137 0.38100001 4278727957
0.041078955 0.035716638 0.38200003 4279187224
0.042319693 0.035716638 0.38200003 4278989845
0.04356043 0.035716638 0.38200003 4278726675
0.044918448 0.035810135 0.38300002 4278989847
0.04616243 0.035810135 0.38300002 4278792468
0.047406413 0.035810135 0.38300002 4278858261
0.04877742 0.035903633 0.384 4278923541
0.050024655 0.035903633 0.384 4279252506
0.051271889 0.035903633 0.384 4279449115
0.052655887 0.035997134 0.38500002 4278987797
0.05390637 0.035997134 0.38500002 4279185689
0.055156853 0.035997134 0.38500002 4278923287
0.056407336 0.035997134 0.38500002 4278727957
0.057657812 0.035997134 0.38500002 4278728470
0.0590613 0.036090631 0.38600001 4278663447
0.060315032 0.036090631 0.38600001 4278663447
0.061568756 0.036090631 0.38600001 4278597908
0.062822483 0.036090631 0.38600001 4278663701
0.064076215 0.036090631 0.38600001 4278663447
0.065329939 0.036090631 0.38600001 4278464787
0.066583671 0.036090631 0.38600001 4285434491
-0.012304849 0.037054539 0.38300002 4284380776
-0.011060865 0.037054539 0.38300002 4284512875
-0.0097912485 0.036957793 0.38200003 4284776047
-0.0085505117 0.036957793 0.38200003 4284907633
-0.0073097749 0.036957793 0.38200003 4284973426
-0.0060531502 0.036861043 0.38100001 4284974712
-0.0048156618 0.036861043 0.38100001 4284974710
-0.0035687818 0.036764298 0.38000003 4285039733
-0.0023345409 0.036764298 0.38000003 4284184424
-0.0010974046 0.036667548 0.37900001 4282738263
0.00013358794 0.036667548 0.37900001 4281423173
0.0013645806 0.036667548 0.37900001 4280107311
0.0025955732 0.036667548 0.37900001 4279119133
0.0038265658 0.036667548 0.37900001 4278462486
0.0050575584 0.036667548 0.37900001 4278659865
0.0062885508 0.036667548 0.37900001 4278726425
0.0075195436 0.036667548 0.37900001 4278792216
0.0087505365 0.036667548 0.37900001 4279121179
0.010007866 0.036764298 0.38000003 4279121433
0.011242107 0.036764298 0.38000003 4279121433
0.012476347 0.036764298 0.38000003 4278924568
0.013710587 0.036764298 0.38000003 4278990877
0.014944828 0.036764298 0.38000003 4279056924
0.01617907 0.036764298 0.38000003 4278925336
0.017413311 0.036764298 0.38000003 4278925336
0.018647552 0.036764298 0.38000003 4278859543
0.019881791 0.036764298 0.38000003 4278859543
0.021116031 0.036764298 0.38000003 4278991129
0.022350272 0.036764298 0.38000003 4278793750
0.023584513 0.036764298 0.38000003 4278596371
0.024818754 0.036764298 0.38000003 4278859543
0.026052997 0.036764298 0.38000003 4278793750
0.027287235 0.036764298 0.38000003 4278727957
0.02859653 0.036861043 0.38100001 4278727957
0.029834021 0.036861043 0.38100001 4278727957
0.031071508 0.036861043 0.38100001 4278596371
0.032308999 0.036861043 0.38100001 4278727957
0.033546485 0.036861043 0.38100001 4278662677
0.034783974 0.036861043 0.38100001 4278531091
0.036021464 0.036861043 0.38100001 4278531091
0.037258953 0.036861043 0.38100001 4278662677
0.038496442 0.036861043 0.38100001 4278728470
0.039733931 0.036861043 0.38100001 4278728470
0.041078955 0.036957793 0.38200003 4278531091
0.042319693 0.036957793 0.38200003 4278728470
0.04356043 0.036957793 0.38200003 4278727957
0.044918448 0.037054539 0.38300002 4278727957
0.04616243 0.037054539 0.38300002 4278793750
0.047406413 0.037054539 0.38300002 4278793750
0.04877742 0.037151288 0.384 4278596371
0.050024655 0.037151288 0.384 4278596371
0.051271889 0.037151288 0.384 4278793750
0.052655887 0.037248038 0.38500002 4278727957
0.05390637 0.037248038 0.38500002 4278924566
0.055156853 0.037248038 0.38500002 4278858773
0.056407336 0.037248038 0.38500002 4278727957
0.057807572 0.037344784 0.38600001 4278728470
0.0590613 0.037344784 0.38600001 4278662677
0.060315032 0.037344784 0.38600001 4278729240
0.061568756 0.037344784 0.38600001 4278729494
0.062822483 0.037344784 0.38600001 4278663701
0.064242221 0.037441533 0.38700002 4279056922
0.065329939 0.037344784 0.38600001 4281620804
-0.012304849 0.038298946 0.38300002 4284380776
-0.011060865 0.038298946 0.38300002 4284841329
-0.0097912485 0.038198952 0.38200003 4284841329
-0.0085505117 0.038198952 0.38200003 4284972913
-0.0073097749 0.038198952 0.38200003 4285301878
-0.0060531502 0.03809895 0.38100001 4284907633
-0.0048156618 0.03809895 0.38100001 4284776047
-0.0035687818 0.037998956 0.38000003 4284841840
-0.0023345409 0.037998956 0.38000003 4284776047
-0.0011003002 0.037998956 0.38000003 4284776047
0.00013358794 0.037898958 0.37900001 4284447082
0.01617907 0.037998956 0.38000003 4279448865
0.017413311 0.037998956 0.38000003 4278790933
0.018647552 0.037998956 0.38000003 4278594837
0.019881791 0.037998956 0.38000003 4278594837
0.021116031 0.037998956 0.38000003 4278792216
0.022350272 0.037998956 0.38000003 4279121181
0.023584513 0.037998956 0.38000003 4278726421
0.024818754 0.037998956 0.38000003 4279187486
0.026052997 0.037998956 0.38000003 4279055900
0.027287235 0.037998956 0.38000003 4279055900
0.02859653 0.03809895 0.38100001 4279055900
0.029834021 0.03809895 0.38100001 4279121693
0.031071508 0.03809895 0.38100001 4279055900
0.032308999 0.03809895 0.38100001 4279055900
0.033546485 0.03809895 0.38100001 4278794011
0.034783974 0.03809895 0.38100001 4278925597
0.036021464 0.03809895 0.38100001 4278925851
0.037258953 0.03809895 0.38100001 4278794265
0.038496442 0.03809895 0.38100001 4278991644
0.039838221 0.038198952 0.38200003 4278925338
0.041078955 0.038198952 0.38200003 4278859543
0.042319693 0.038198952 0.38200003 4278991129
0.04356043 0.038198952 0.38200003 4278991129
0.044918448 0.038298946 0.38300002 4279188508
0.04616243 0.038298946 0.38300002 4278991129
0.047406413 0.038298946 0.38300002 4278925338
0.04877742 0.038398944 0.384 4279451682
0.050024655 0.038398944 0.384 4278991131
0.051271889 0.038398944 0.384 4278925338
0.052519117 0.038398944 0.384 4279056924
0.05390637 0.038498942 0.38500002 4278727959
0.055156853 0.038498942 0.38500002 4278925338
0.056407336 0.038498942 0.38500002 4278859543
0.057657812 0.038498942 0.38500002 4278859543
0.0590613 0.038598936 0.38600001 4278859543
0.060315032 0.038598936 0.38600001 4278925336
0.061568756 0.038598936 0.38600001 4279254301
0.062822483 0.038598936 0.38600001 4278925336
0.064242221 0.038698938 0.38700002 4280961591
0.02859653 0.03933686 0.38100001 4281685573
0.029834021 0.03933686 0.38100001 4280896057
0.031071508 0.03933686 0.38100001 4280501040
0.032308999 0.03933686 0.38100001 4280040489
0.033546485 0.03933686 0.38100001 4279646244
0.034783974 0.03933686 0.38100001 4279581221
0.036021464 0.03933686 0.38100001 4279120668
0.037258953 0.03933686 0.38100001 4279054875
0.038496442 0.03933686 0.38100001 4279054877
0.039838221 0.039440107 0.38200003 4278791451
0.041078955 0.039440107 0.38200003 4278791451
0.042319693 0.039440107 0.38200003 4278857244
0.04356043 0.039440107 0.38200003 4278791705
0.044918448 0.039543353 0.38300002 4278594326
0.04616243 0.039543353 0.38300002 4278857498
0.047406413 0.039543353 0.38300002 4278857498
0.04877742 0.039646596 0.384 4279186461
0.050024655 0.039646596 0.384 4278660117
0.051271889 0.039646596 0.384 4278594324
0.052519117 0.039646596 0.384 4278725910
0.053766351 0.039646596 0.384 4278790933
0.055013586 0.039646596 0.384 4278725140
0.056407336 0.039749846 0.38500002 4279185689
0.057657812 0.039749846 0.38500002 4278856978
0.058908295 0.039749846 0.38500002 4278725908
0.060158778 0.039749846 0.38500002 4279186459
0.061568756 0.039853089 0.38600001 4281158970
0.062822483 0.039853089 0.38600001 4284513643
0.064242221 0.039956339 0.38700002 4284907887
0.065499194 0.039956339 0.38700002 4284907120
0.041078955 0.040681265 0.38200003 4284645745
0.042319693 0.040681265 0.38200003 4284908917
0.043674462 0.040787756 0.38300002 4284645745
0.044918448 0.040787756 0.38300002 4284514159
0.04616243 0.040787756 0.38300002 4285039987
0.047406413 0.040787756 0.38300002 4284776815
0.04877742 0.040894251 0.384 4284711022
0.050024655 0.040894251 0.384 4284645229
0.051271889 0.040894251 0.384 4284579436
0.05238235 0.040787756 0.38300002 4285171573
0.053766351 0.040894251 0.384 4284842608
0.055013586 0.040894251 0.384 4284645229
0.05626082 0.040894251 0.384 4284842608
0.057508048 0.040894251 0.384 4284842092
0.058755282 0.040894251 0.384 4285105264
0.060158778 0.04100075 0.38500002 4284842092
0.061409254 0.04100075 0.38500002 4284842092
0.062822483 0.041107245 0.38600001 4284907887
0.051138371 0.042032164 0.38300002 4284710768
0.05238235 0.042032164 0.38300002 4284776561
0.053626336 0.042032164 0.38300002 4284776561
0.054870322 0.042032164 0.38300002 4284776561
0.056114309 0.042032164 0.38300002 4284842354
0.057358291 0.042032164 0.38300002 4284907633
0.058755282 0.042141907 0.384 4284842094
0.060002517 0.042141907 0.384 4284842094
0.061249748 0.042141907 0.384 4284842094
0.05238235 0.043276571 0.38300002 4285105012
0.053486321 0.043163579 0.38200003 4284973426
0.054727063 0.043163579 0.38200003 4284907633
0.056114309 0.043276571 0.38300002 4284776561
0.057358291 0.043276571 0.38300002 4284776561
0.020889301 0.029385177 0.3817417 4294967295
0.020889301 0.029385177 0.3817417 4294901760
0.020889301 0.029385177 0.3822417 4294901760
0.020889301 0.029385177 0.38274169 4294901760
0.020889301 0.029385177 0.38324171 4294901760
0.020889301 0.029385177 0.38374171 4294901760
0.020889301 0.029385177 0.3842417 4294901760
0.020889301 0.029385177 0.38474169 4294901760
0.020889301 0.029385177 0.38524172 4294901760
0.020889301 0.029385177 0.38574171 4294901760
0.020889301 0.029385177 0.3862417 4294901760
0.020889301 0.029385177 0.3867417 4294901760
0.020889301 0.029385177 0.38724169 4294901760
0.020889301 0.029385177 0.38774171 4294901760
0.020889301 0.029385177 0.38824171 4294901760
0.020889301 0.029385177 0.3887417 4294901760
0.020889301 0.029385177 0.3892417 4294901760
0.020889301 0.029385177 0.38974172 4294901760
0.020889301 0.029385177 0.39024171 4294901760
0.020889301 0.029385177 0.39074171 4294901760
0.020889301 0.029385177 0.3912417 4294901760
0.020889301 0.029385177 0.39174169 4294901760
0.020889301 0.029385177 0.39224172 4294901760
0.020889301 0.029385177 0.39274171 4294901760
0.020889301 0.029385177 0.3932417 4294901760
0.020889301 0.029385177 0.3937417 4294901760
0.020889301 0.029385177 0.39424169 4294901760
0.020889301 0.029385177 0.39474171 4294901760
0.020889301 0.029385177 0.39524171 4294901760
0.020889301 0.029385177 0.3957417 4294901760
0.020889301 0.029385177 0.39624169 4294901760
0.020889301 0.029385177 0.39674172 4294901760
0.020889301 0.029385177 0.39724171 4294901760
0.020889301 0.029385177 0.39774171 4294901760
0.020889301 0.029385177 0.3982417 4294901760
0.020889301 0.029385177 0.39874172 4294901760
0.020889301 0.029385177 0.39924172 4294901760
0.020889301 0.029385177 0.39974171 4294901760
0.020889301 0.029385177 0.4002417 4294901760
0.020889301 0.029385177 0.4007417 4294901760
0.020889301 0.029385177 0.40124172 4294901760
0.020889301 0.029385177 0.40174171 4294901760
0.020889301 0.029385177 0.40224171 4294901760
0.020889301 0.029385177 0.4027417 4294901760
0.020889301 0.029385177 0.40324169 4294901760
0.020889301 0.029385177 0.40374172 4294901760
0.020889301 0.029385177 0.40424171 4294901760
0.020889301 0.029385177 0.4047417 4294901760
0.020889301 0.029385177 0.4052417 4294901760
0.020889301 0.029385177 0.40574172 4294901760
0.020889301 0.029385177 0.40624171 4294901760
0.020889301 0.029385177 0.40674171 4294901760
0.020889301 0.029385177 0.4072417 4294901760
0.020889301 0.029385177 0.4077417 4294901760
0.020889301 0.029385177 0.40824172 4294901760
0.020889301 0.029385177 0.40874171 4294901760
0.020889301 0.029385177 0.40924171 4294901760
0.020889301 0.029385177 0.4097417 4294901760
0.020889301 0.029385177 0.41024172 4294901760
0.020889301 0.029385177 0.41074172 4294901760
0.020889301 0.029385177 0.41124171 4294901760
0.020889301 0.029385177 0.4117417 4294901760
0.020889301 0.029385177 0.4122417 4294901760
0.020889301 0.029385177 0.41274172 4294901760
0.020889301 0.029385177 0.41324171 4294901760
0.020889301 0.029385177 0.41374171 4294901760
0.020889301 0.029385177 0.4142417 4294901760
0.020889301 0.029385177 0.41474172 4294901760
0.020889301 0.029385177 0.41524172 4294901760
0.020889301 0.029385177 0.41574171 4294901760
0.020889301 0.029385177 0.41624171 4294901760
0.020889301 0.029385177 0.4167417 4294901760
0.020889301 0.029385177 0.41724172 4294901760
0.020889301 0.029385177 0.41774172 4294901760
0.020889301 0.029385177 0.41824171 4294901760
0.020889301 0.029385177 0.4187417 4294901760
0.020889301 0.029385177 0.41924173 4294901760
0.020889301 0.029385177 0.41974172 4294901760
0.020889301 0.029385177 0.42024171 4294901760
0.020889301 0.029385177 0.42074171 4294901760
0.020889301 0.029385177 0.4212417 4294901760
0.020889301 0.029385177 0.42174172 4294901760
0.020889301 0.029385177 0.42224172 4294901760
0.020889301 0.029385177 0.42274171 4294901760
0.020889301 0.029385177 0.4232417 4294901760
0.020889301 0.029385177 0.4237417 4294901760
0.020889301 0.029385177 0.42424172 4294901760
0.020889301 0.029385177 0.42474172 4294901760
0.020889301 0.029385177 0.42524171 4294901760
0.020889301 0.029385177 0.4257417 4294901760
0.020889301 0.029385177 0.4262417 4294901760
0.020889301 0.029385177 0.42674172 4294901760
0.020889301 0.029385177 0.42724171 4294901760
0.020889301 0.029385177 0.42774171 4294901760
0.020889301 0.029385177 0.42824173 4294901760
0.020889301 0.029385177 0.42874172 4294901760
0.020889301 0.029385177 0.42924172 4294901760
0.020889301 0.029385177 0.42974171 4294901760
0.020889301 0.029385177 0.4302417 4294901760
0.020889301 0.029385177 0.43074173 4294901760
0.020889301 0.029385177 0.43124172 4294901760
0.020889301 0.029385177 0.43174171 4294901760
0.020889301 0.029385177 0.3817417 4278255360
0.020851912 0.02932727 0.38223693 4278255360
0.020814525 0.029269362 0.38273215 4278255360
0.020777136 0.029211452 0.38322738 4278255360
0.020739749 0.029153544 0.3837226 4278255360
0.02070236 0.029095637 0.38421783 4278255360
0.020664973 0.029037729 0.38471305 4278255360
0.020627584 0.028979819 0.38520828 4278255360
0.020590197 0.028921911 0.3857035 4278255360
0.020552808 0.028864004 0.38619873 4278255360
0.020515421 0.028806096 0.38669395 4278255360
0.020478033 0.028748186 0.38718918 4278255360
0.020440646 0.028690279 0.3876844 4278255360
0.020403257 0.028632371 0.38817963 4278255360
0.02036587 0.028574463 0.38867486 4278255360
0.020328481 0.028516555 0.38917008 4278255360
0.020291094 0.028458646 0.38966531 4278255360
0.020253705 0.028400738 0.39016056 4278255360
0.020216316 0.02834283 0.39065579 4278255360
0.020178929 0.028284922 0.39115101 4278255360
0.02014154 0.028227013 0.39164624 4278255360
0.020104153 0.028169105 0.39214146 4278255360
0.020066764 0.028111197 0.39263669 4278255360
0.020029377 0.028053289 0.39313191 4278255360
0.019991988 0.027995382 0.39362714 4278255360
0.019954601 0.027937472 0.39412236 4278255360
0.019917212 0.027879564 0.39461759 4278255360
0.019879825 0.027821656 0.39511281 4278255360
0.019842437 0.027763749 0.39560804 4278255360
0.01980505 0.027705839 0.39610326 4278255360
0.019767661 0.027647931 0.39659849 4278255360
0.019730274 0.027590023 0.39709371 4278255360
0.019692885 0.027532116 0.39758894 4278255360
0.019655496 0.027474206 0.39808416 4278255360
0.019618109 0.027416298 0.39857939 4278255360
0.01958072 0.02735839 0.39907461 4278255360
0.019543333 0.027300483 0.39956984 4278255360
0.019505944 0.027242575 0.40006506 4278255360
0.019468557 0.027184665 0.40056029 4278255360
0.019431168 0.027126757 0.40105551 4278255360
0.019393781 0.02706885 0.40155074 4278255360
0.019356392 0.027010942 0.40204597 4278255360
0.019319005 0.026953032 0.40254119 4278255360
0.019281616 0.026895124 0.40303642 4278255360
0.019244229 0.026837217 0.40353164 4278255360
0.019206841 0.026779309 0.40402687 4278255360
0.019169454 0.026721399 0.40452209 4278255360
0.019132065 0.026663492 0.40501732 4278255360
0.019094678 0.026605584 0.40551254 4278255360
0.019057289 0.026547676 0.40600777 4278255360
0.019019902 0.026489768 0.40650302 4278255360
0.018982513 0.026431859 0.40699822 4278255360
0.018945124 0.026373951 0.40749347 4278255360
0.018907737 0.026316043 0.4079887 4278255360
0.018870348 0.026258133 0.40848392 4278255360
0.018832961 0.026200226 0.40897915 4278255360
0.018795572 0.026142318 0.40947437 4278255360
0.018758185 0.02608441 0.4099696 4278255360
0.018720796 0.026026502 0.41046482 4278255360
0.018683409 0.025968593 0.41096005 4278255360
0.01864602 0.025910685 0.41145527 4278255360
0.018608633 0.025852777 0.4119505 4278255360
0.018571245 0.025794869 0.41244572 4278255360
0.018533858 0.025736962 0.41294095 4278255360
0.018496469 0.025679052 0.41343617 4278255360
0.018459082 0.025621144 0.4139314 4278255360
