# .PCD v0.7 - Point Cloud Data file format
VERSION 0.7
FIELDS x y z rgb
SIZE 4 4 4 4
TYPE F F F U
COUNT 1 1 1 1
WIDTH 984
HEIGHT 1
VIEWPOINT 0 0 0 1 0 0 0
POINTS 984
DATA ascii
0.10945841 -0.0086135212 0.42600003 4280833081
0.11084206 -0.0086135212 0.42600003 4280306737
0.11248914 -0.0086337412 0.42700002 4280635954
0.11387604 -0.0086337412 0.42700002 4280636721
0.11526294 -0.0086337412 0.42700002 4279519523
0.11664983 -0.0086337412 0.42700002 4279453476
0.11803672 -0.0086337412 0.42700002 4280636215
0.032457903 -0.0067542316 0.39800003 4280892466
0.036336016 -0.0067542316 0.39800003 4280893231
0.090182647 -0.0071275807 0.42000002 4286751375
0.091546811 -0.0071275807 0.42000002 4285567614
0.10481305 -0.0071954625 0.42400002 4279980590
0.10644065 -0.0072124326 0.42500001 4279783465
0.10782105 -0.0072124326 0.42500001 4279652391
0.10945841 -0.0072294036 0.42600003 4279652391
0.11084206 -0.0072294036 0.42600003 4279389732
0.1122257 -0.0072294036 0.42600003 4279389732
0.11387604 -0.0072463737 0.42700002 4279389730
0.11526294 -0.0072463737 0.42700002 4279456547
0.11664983 -0.0072463737 0.42700002 4278930203
0.11803672 -0.0072463737 0.42700002 4279456293
0.036244716 -0.0054473677 0.39700001 4280036639
0.037534177 -0.0054473677 0.39700001 4280826671
0.078905657 -0.005639466 0.41100001 4285895296
0.080435827 -0.0056531876 0.41200003 4286421640
0.081774004 -0.0056531876 0.41200003 4286291337
0.083515637 -0.0056806304 0.41400003 4285304958
0.085065283 -0.0056943516 0.41500002 4282938461
0.086621426 -0.0057080728 0.41600001 4281162050
0.088184074 -0.0057217944 0.41700003 4280635956
0.089967929 -0.0057492368 0.41900003 4280701747
0.091328844 -0.0057492368 0.41900003 4280506164
0.09268976 -0.0057492368 0.41900003 4279849006
0.094275124 -0.005762958 0.42000002 4279323174
0.095639288 -0.005762958 0.42000002 4279717932
0.09723442 -0.0057766796 0.42100003 4279389734
0.098601818 -0.0057766796 0.42100003 4279258918
0.10020669 -0.0057904008 0.42200002 4279258916
0.10157734 -0.0057904008 0.42200002 4279258914
0.10319195 -0.005804122 0.42300001 4278996255
0.10481305 -0.0058178436 0.42400002 4279456806
0.1061902 -0.0058178436 0.42400002 4279325220
0.10782105 -0.0058315648 0.42500001 4279127841
0.10920145 -0.0058315648 0.42500001 4278930462
0.11084206 -0.0058452864 0.42600003 4278864669
0.1122257 -0.0058452864 0.42600003 4279128095
0.11360936 -0.0058452864 0.42600003 4278864923
0.11526294 -0.0058590076 0.42700002 4278864923
0.11664983 -0.0058590076 0.42700002 4278995996
0.11803672 -0.0058590076 0.42700002 4279193123
0.11942363 -0.0058590076 0.42700002 4279586859
0.034955263 -0.0041574738 0.39700001 4280299295
0.036153425 -0.0041470015 0.39600003 4279838744
0.037439633 -0.0041470015 0.39600003 4279641113
0.038628045 -0.0041365293 0.39500001 4279772953
0.04215432 -0.004105113 0.39200002 4279647014
0.043427538 -0.004105113 0.39200002 4280635965
0.07700453 -0.0042726686 0.40800002 4283529312
0.078713678 -0.0042936131 0.41000003 4280767801
0.080240592 -0.0043040849 0.41100001 4280373043
0.081774004 -0.0043145572 0.41200003 4280374578
0.083313905 -0.0043250294 0.41300002 4280112690
0.08486031 -0.0043355017 0.41400003 4279653422
0.086413205 -0.004345974 0.41500002 4279127078
0.088184074 -0.0043669185 0.41700003 4279456295
0.089753203 -0.0043773907 0.41800001 4279193121
0.091328844 -0.004387863 0.41900003 4279193121
0.09268976 -0.004387863 0.41900003 4279390500
0.094050668 -0.004387863 0.41900003 4279325220
0.095639288 -0.0043983352 0.42000002 4279127841
0.097003452 -0.0043983352 0.42000002 4278996255
0.098601818 -0.0044088075 0.42100003 4278930462
0.099969231 -0.0044088075 0.42100003 4278865693
0.10157734 -0.0044192798 0.42200002 4278734107
0.10319195 -0.0044297515 0.42300001 4278602521
0.10456585 -0.0044297515 0.42300001 4278536728
0.1061902 -0.0044402243 0.42400002 4278536728
0.10756736 -0.0044402243 0.42400002 4278405142
0.10920145 -0.0044506961 0.42500001 4278601751
0.11058186 -0.0044506961 0.42500001 4278272786
0.1122257 -0.0044611688 0.42600003 4278732824
0.11360936 -0.0044611688 0.42600003 4278797847
0.11499301 -0.0044611688 0.42600003 4278929179
0.11664983 -0.0044716406 0.42700002 4278797593
0.11803672 -0.0044716406 0.42700002 4278929181
0.11942363 -0.0044716406 0.42700002 4279717682
0.036153425 -0.0028603573 0.39600003 4279772953
0.037345089 -0.0028531342 0.39500001 4279772699
0.038628045 -0.0028531342 0.39500001 4279838492
0.039809968 -0.0028459111 0.39400002 4279707160
0.04215432 -0.0028314649 0.39200002 4280106793
0.043427538 -0.0028314649 0.39200002 4280241459
0.044472687 -0.0028170184 0.39000002 4279783475
0.045739412 -0.0028170184 0.39000002 4282084948
0.04700613 -0.0028170184 0.39000002 4286686611
0.071176551 -0.0029253655 0.40500003 4282081353
0.072491996 -0.0029253655 0.40500003 4280702012
0.073989674 -0.0029325886 0.40600002 4280176436
0.07530836 -0.0029325886 0.40600002 4280243764
0.07700453 -0.0029470348 0.40800002 4279587113
0.078521691 -0.0029542579 0.40900001 4279193636
0.080045357 -0.002961481 0.41000003 4279127843
0.08157552 -0.0029687041 0.41100001 4278667292
0.083112173 -0.0029759274 0.41200003 4278997027
0.08465533 -0.0029831503 0.41300002 4278734369
0.086413205 -0.0029975967 0.41500002 4278800162
0.087972596 -0.0030048196 0.41600001 4278865953
0.089538485 -0.003012043 0.41700003 4278800160
0.09111087 -0.0030192661 0.41800001 4278865693
0.092468537 -0.0030192661 0.41800001 4278865693
0.094050668 -0.0030264892 0.41900003 4278602521
0.095411584 -0.0030264892 0.41900003 4278602521
0.097003452 -0.0030337123 0.42000002 4278470935
0.098367609 -0.0030337123 0.42000002 4278470935
0.099969231 -0.0030409356 0.42100003 4278470165
0.10157734 -0.0030481585 0.42200002 4278469911
0.102948 -0.0030481585 0.42200002 4278469911
0.10456585 -0.0030553816 0.42300001 4278535704
0.10593975 -0.0030553816 0.42300001 4278798363
0.10756736 -0.0030626049 0.42400002 4278930203
0.10894451 -0.0030626049 0.42400002 4279126812
0.11058186 -0.0030698278 0.42500001 4279257885
0.11196226 -0.0030698278 0.42500001 4279257117
0.11360936 -0.0030770511 0.42600003 4279520289
0.11499301 -0.0030770511 0.42600003 4279257631
0.11637665 -0.0030770511 0.42600003 4279455010
0.11803672 -0.0030842742 0.42700002 4279191840
0.11942363 -0.0030842742 0.42700002 4279190306
0.034867216 -0.0015737129 0.39600003 4280101918
0.036062125 -0.0015697388 0.39500001 4279772440
0.037345089 -0.0015697388 0.39500001 4279707160
0.038530257 -0.0015657649 0.39400002 4280036125
0.039708927 -0.0015617908 0.39300001 4279772699
0.040985391 -0.0015617908 0.39300001 4279904285
0.04215432 -0.0015578169 0.39200002 4279249174
0.043316755 -0.0015538429 0.39100003 4279581471
0.044586722 -0.0015538429 0.39100003 4279456043
0.045739412 -0.0015498687 0.39000002 4279916594
0.04700613 -0.0015498687 0.39000002 4279782963
0.048396628 -0.0015538429 0.39100003 4285372802
0.058751538 -0.001593583 0.40100002 4286027398
0.064439841 -0.0016055051 0.40400001 4283266140
0.065752037 -0.0016055051 0.40400001 4281030462
0.067064226 -0.0016055051 0.40400001 4280506164
0.068376414 -0.0016055051 0.40400001 4280506164
0.069861114 -0.0016094792 0.40500003 4280046383
0.071176551 -0.0016094792 0.40500003 4279257381
0.072491996 -0.0016094792 0.40500003 4278995492
0.073807433 -0.0016094792 0.40500003 4279061285
0.07530836 -0.0016134531 0.40600002 4279127845
0.076815784 -0.0016174271 0.40700001 4279062820
0.078329705 -0.0016214012 0.40800002 4278734367
0.079850122 -0.0016253751 0.40900001 4279063332
0.081377044 -0.0016293493 0.41000003 4278998052
0.082910441 -0.0016333233 0.41100001 4278998052
0.08465533 -0.0016412713 0.41300002 4278800927
0.086204983 -0.0016452454 0.41400003 4278603035
0.087761126 -0.0016492193 0.41500002 4278471449
0.089323759 -0.0016531934 0.41600001 4278470935
0.090892904 -0.0016571674 0.41700003 4278733337
0.092247322 -0.0016571674 0.41700003 4278535958
0.093826197 -0.0016611414 0.41800001 4278798617
0.095183864 -0.0016611414 0.41800001 4278930203
0.096772492 -0.0016651155 0.41900003 4279126812
0.098367609 -0.0016690894 0.42000002 4279192605
0.099731773 -0.0016690894 0.42000002 4279323678
0.10133664 -0.0016730635 0.42100003 4279126045
0.102948 -0.0016770376 0.42200002 4279126045
0.10431866 -0.0016770376 0.42200002 4279586596
0.10593975 -0.0016810115 0.42300001 4279848486
0.10756736 -0.0016849856 0.42400002 4278199297
0.10894451 -0.0016849856 0.42400002 4278199041
0.11032167 -0.0016849856 0.42400002 4278990613
0.11196226 -0.0016889595 0.42500001 4279452447
0.11334267 -0.0016889595 0.42500001 4279585314
0.11499301 -0.0016929336 0.42600003 4279257119
0.11637665 -0.0016929336 0.42600003 4279586084
0.11803672 -0.0016969076 0.42700002 4279256351
0.11942363 -0.0016969076 0.42700002 4279121947
0.034867216 -0.00028706843 0.39600003 4280036123
0.036062125 -0.00028634348 0.39500001 4279838233
0.037345089 -0.00028634348 0.39500001 4279772186
0.038530257 -0.00028561856 0.39400002 4279969819
0.039708927 -0.00028489364 0.39300001 4279904026
0.040985391 -0.00028489364 0.39300001 4279838746
0.04215432 -0.00028416872 0.39200002 4279707674
0.043427538 -0.00028416872 0.39200002 4279446551
0.044586722 -0.00028344381 0.39100003 4278665498
0.045856692 -0.00028344381 0.39100003 4279127845
0.047126662 -0.00028344381 0.39100003 4279391015
0.048520405 -0.00028416872 0.39200002 4280048695
0.049920641 -0.00028489364 0.39300001 4280439869
0.051327381 -0.00028561856 0.39400002 4284911997
0.052740615 -0.00028634348 0.39500001 4286094987
0.054160345 -0.00028706843 0.39600003 4286357900
0.055586569 -0.00028779331 0.39700001 4286159751
0.057162557 -0.00028924318 0.39900002 4284713075
0.058751538 -0.00029069302 0.40100002 4282279759
0.060053982 -0.00029069302 0.40100002 4280569141
0.061509438 -0.00029141793 0.40200001 4280176947
0.062815137 -0.00029141793 0.40200001 4279783727
0.064280339 -0.00029214285 0.40300003 4279586859
0.065752037 -0.00029286777 0.40400001 4279456043
0.067064226 -0.00029286777 0.40400001 4279062048
0.068376414 -0.00029286777 0.40400001 4279193634
0.069688611 -0.00029286777 0.40400001 4279193634
0.071000807 -0.00029286777 0.40400001 4279325220
0.072491996 -0.00029359269 0.40500003 4279456806
0.073807433 -0.00029359269 0.40500003 4279260197
0.07530836 -0.00029431761 0.40600002 4279325990
0.076815784 -0.00029504253 0.40700001 4279655209
0.078329705 -0.00029576744 0.40800002 4278800414
0.079850122 -0.00029649236 0.40900001 4278405656
0.081377044 -0.00029721731 0.41000003 4278274070
0.082910441 -0.0002979422 0.41100001 4278471449
0.084450357 -0.00029866715 0.41200003 4278274070
0.085996754 -0.00029939206 0.41300002 4278536728
0.087549657 -0.00030011698 0.41400003 4278930716
0.089109041 -0.0003008419 0.41500002 4278930462
0.090674929 -0.00030156682 0.41600001 4278995742
0.0920261 -0.00030156682 0.41600001 4278995996
0.093601733 -0.00030229174 0.41700003 4279324191
0.095183864 -0.00030301666 0.41800001 4279192092
0.096541531 -0.00030301666 0.41800001 4279455264
0.0981334 -0.00030374157 0.41900003 4279519773
0.099731773 -0.00030446649 0.42000002 4278860308
0.10133664 -0.00030519141 0.42100003 4278199296
0.102948 -0.00030591633 0.42200002 4278990613
0.10431866 -0.00030591633 0.42200002 4279451934
0.10593975 -0.00030664125 0.42300001 4280110377
0.10731366 -0.00030664125 0.42300001 4279715619
0.10894451 -0.00030736616 0.42400002 4279649826
0.11032167 -0.00030736616 0.42400002 4279715106
0.11196226 -0.00030809108 0.42500001 4280438829
0.11334267 -0.00030809108 0.42500001 4279584803
0.11499301 -0.00030881603 0.42600003 4279716902
0.11637665 -0.00030881603 0.42600003 4279520293
0.1177603 -0.00030881603 0.42600003 4279650342
0.11942363 -0.00030954092 0.42700002 4284186727
0.034867216 0.00099957618 0.39600003 4280232989
0.036062125 0.00099705195 0.39500001 4279969817
0.037345089 0.00099705195 0.39500001 4279838233
0.038530257 0.00099452771 0.39400002 4280232991
0.04215432 0.00098947936 0.39200002 4280826151
0.043427538 0.00098947936 0.39200002 4280038172
0.044700753 0.00098947936 0.39200002 4278532113
0.045973971 0.00098947936 0.39200002 4278863386
0.047247186 0.00098947936 0.39200002 4278469911
0.048520405 0.00098947936 0.39200002 4278997025
0.049920641 0.00099200348 0.39300001 4279194408
0.051327381 0.00099452771 0.39400002 4279062568
0.052740615 0.00099705195 0.39500001 4279521068
0.054160345 0.00099957618 0.39600003 4280047412
0.055586569 0.0010021003 0.39700001 4279980590
0.057019293 0.0010046245 0.39800003 4279980590
0.058605023 0.0010096728 0.40000001 4279652652
0.059904218 0.0010096728 0.40000001 4279061285
0.061356433 0.001012197 0.40100002 4279193638
0.062815137 0.0010147212 0.40200001 4279194408
0.064280339 0.0010172453 0.40300003 4279062818
0.065589286 0.0010172453 0.40300003 4278931232
0.066898227 0.0010172453 0.40300003 4279325990
0.068207167 0.0010172453 0.40300003 4279260197
0.069688611 0.0010197696 0.40400001 4278931746
0.071000807 0.0010197696 0.40400001 4278800160
0.072491996 0.0010222938 0.40500003 4278602781
0.073807433 0.0010222938 0.40500003 4278206992
0.07530836 0.0010248179 0.40600002 4278734107
0.076815784 0.001027342 0.40700001 4278536728
0.078137718 0.001027342 0.40700001 4278799646
0.079654895 0.0010298663 0.40800002 4278799646
0.081178561 0.0010323904 0.40900001 4278996255
0.082708716 0.0010349146 0.41000003 4278733083
0.084245376 0.0010374389 0.41100001 4278930462
0.085788533 0.0010399631 0.41200003 4278996255
0.087338179 0.0010424872 0.41300002 4278929179
0.08889433 0.0010450114 0.41400003 4279060765
0.09045697 0.0010475356 0.41500002 4279322910
0.091804892 0.0010475356 0.41500002 4279256347
0.09337727 0.0010500597 0.41600001 4278200067
0.094956152 0.0010525839 0.41700003 4278198528
0.096541531 0.0010551082 0.41800001 4279319324
0.0981334 0.0010576323 0.41900003 4280437805
0.099731773 0.0010601565 0.42000002 4280109094
0.10133664 0.0010626807 0.42100003 4279846690
0.10270405 0.0010626807 0.42100003 4279715617
0.10431866 0.0010652049 0.42200002 4279649824
0.10593975 0.001067729 0.42300001 4279321631
0.10731366 0.001067729 0.42300001 4278532115
0.10894451 0.0010702532 0.42400002 4279519008
0.11032167 0.0010702532 0.42400002 4278200837
0.11169882 0.0010702532 0.42400002 4279650596
0.11334267 0.0010727773 0.42500001 4279519523
0.11472306 0.0010727773 0.42500001 4279716902
0.11637665 0.0010753016 0.42600003 4279585316
0.1177603 0.0010753016 0.42600003 4279779109
0.034867216 0.0022862207 0.39600003 4280561184
0.036153425 0.0022862207 0.39600003 4280034840
0.037345089 0.0022804472 0.39500001 4280363807
0.044700753 0.0022631274 0.39200002 4278794004
0.045973971 0.0022631274 0.39200002 4278796568
0.047367714 0.0022689006 0.39300001 4278535191
0.048644178 0.0022689006 0.39300001 4278864669
0.05004767 0.0022746741 0.39400002 4279063332
0.051327381 0.0022746741 0.39400002 4282945121
0.052740615 0.0022804472 0.39500001 4281232967
0.054160345 0.0022862207 0.39600003 4279654189
0.055586569 0.0022919939 0.39700001 4279194408
0.057019293 0.0022977672 0.39800003 4279194406
0.058458511 0.0023035405 0.39900002 4279194406
0.059904218 0.0023093137 0.40000001 4279194406
0.061356433 0.002315087 0.40100002 4279260199
0.062658884 0.002315087 0.40100002 4278931746
0.064120829 0.0023208603 0.40200001 4278668828
0.065426528 0.0023208603 0.40200001 4278274070
0.066898227 0.0023266335 0.40300003 4278470935
0.068207167 0.0023266335 0.40300003 4278273556
0.069516115 0.0023266335 0.40300003 4278799900
0.071000807 0.0023324068 0.40400001 4278734107
0.072313003 0.0023324068 0.40400001 4278996255
0.073807433 0.0023381801 0.40500003 4278864923
0.07530836 0.0023439534 0.40600002 4278864923
0.076627053 0.0023439534 0.40600002 4278864669
0.078137718 0.0023497266 0.40700001 4278929949
0.079654895 0.0023554999 0.40800002 4278929949
0.081178561 0.0023612732 0.40900001 4278929179
0.082708716 0.0023670467 0.41000003 4279126558
0.084040403 0.0023670467 0.41000003 4279191838
0.085580304 0.0023728197 0.41100001 4278202119
0.08712671 0.0023785932 0.41200003 4278197760
0.088679604 0.0023843665 0.41300002 4278200329
0.090239003 0.0023901397 0.41400003 4279780129
0.091804892 0.002395913 0.41500002 4280438059
0.09337727 0.0024016863 0.41600001 4279846690
0.094956152 0.0024074595 0.41700003 4279780897
0.096541531 0.0024132328 0.41800001 4279780899
0.0981334 0.0024190061 0.41900003 4279715106
0.099731773 0.0024247793 0.42000002 4279451934
0.10133664 0.0024305528 0.42100003 4279057176
0.10270405 0.0024305528 0.42100003 4278859797
0.10431866 0.0024363259 0.42200002 4278398476
0.10593975 0.0024420992 0.42300001 4279647775
0.10731366 0.0024420992 0.42300001 4278199298
0.10894451 0.0024478727 0.42400002 4279911713
0.11032167 0.0024478727 0.42400002 4278398476
0.11169882 0.0024478727 0.42400002 4279651109
0.11334267 0.0024536457 0.42500001 4279651109
0.11472306 0.0024536457 0.42500001 4279716902
0.11637665 0.0024594192 0.42600003 4279848488
0.033665806 0.0035818873 0.39700001 4280233502
0.034955263 0.0035818873 0.39700001 4280495389
0.036244716 0.0035818873 0.39700001 4280232217
0.037439633 0.0035728649 0.39600003 4280495391
0.043538321 0.0035457977 0.39300001 4279381523
0.044814784 0.0035457977 0.39300001 4279122197
0.046091251 0.0035457977 0.39300001 4278861078
0.047367714 0.0035457977 0.39300001 4278468115
0.048767958 0.0035548203 0.39400002 4278666007
0.05004767 0.0035548203 0.39400002 4278470681
0.051327381 0.0035548203 0.39400002 4278273816
0.052740615 0.0035638425 0.39500001 4278208024
0.054160345 0.0035728649 0.39600003 4278669859
0.055586569 0.0035818873 0.39700001 4278669087
0.057019293 0.0035909098 0.39800003 4278800673
0.058458511 0.0035999322 0.39900002 4278602781
0.059754461 0.0035999322 0.39900002 4278800160
0.06120342 0.0036089544 0.40000001 4278339609
0.062502623 0.0036089544 0.40000001 4278339609
0.063961327 0.003617977 0.40100002 4278602267
0.065263778 0.003617977 0.40100002 4278930716
0.066732228 0.0036269992 0.40200001 4278798617
0.06803792 0.0036269992 0.40200001 4279127582
0.069516115 0.0036360216 0.40300003 4279061789
0.071000807 0.0036450441 0.40400001 4279126812
0.072313003 0.0036450441 0.40400001 4279061019
0.073807433 0.0036540665 0.40500003 4279126299
0.07530836 0.0036630889 0.40600002 4279389471
0.076627053 0.0036630889 0.40600002 4278994459
0.078137718 0.0036721111 0.40700001 4279123480
0.079654895 0.0036811335 0.40800002 4278199811
0.080980077 0.0036811335 0.40800002 4278198791
0.082506984 0.0036901559 0.40900001 4278660880
0.084040403 0.0036991783 0.41000003 4279519008
0.085580304 0.0037082008 0.41100001 4279519008
0.08712671 0.0037172232 0.41200003 4279912485
0.088679604 0.0037262456 0.41300002 4280175655
0.090239003 0.003735268 0.41400003 4279255066
0.091583677 0.003735268 0.41400003 4278201351
0.093152806 0.0037442902 0.41500002 4278794004
0.09472844 0.0037533126 0.41600001 4279978024
0.096310571 0.0037623351 0.41700003 4278398994
0.0981334 0.0037803799 0.41900003 4278595603
0.099731773 0.0037894021 0.42000002 4278199818
0.10133664 0.0037984247 0.42100003 4280239914
0.102948 0.0038074469 0.42200002 4278200586
0.10431866 0.0038074469 0.42200002 4280240680
0.10593975 0.0038164693 0.42300001 4279845920
0.10731366 0.0038164693 0.42300001 4280372264
0.10894451 0.0038254918 0.42400002 4279319064
0.11032167 0.0038254918 0.42400002 4280503852
0.11196226 0.0038345142 0.42500001 4279716902
0.11334267 0.0038345142 0.42500001 4279848488
0.11472306 0.0038345142 0.42500001 4280373295
0.11610346 0.0038345142 0.42500001 4283331935
0.033750609 0.0048840526 0.39800003 4280167707
0.035043314 0.0048840526 0.39800003 4280495391
0.036336016 0.0048840526 0.39800003 4280363805
0.037534177 0.004871781 0.39700001 4280561186
0.043649107 0.0048349667 0.39400002 4279381525
0.044928819 0.0048349667 0.39400002 4279319578
0.046208534 0.0048349667 0.39400002 4278926101
0.047488246 0.0048349667 0.39400002 4278795798
0.048767958 0.0048349667 0.39400002 4278796566
0.05004767 0.0048349667 0.39400002 4278732570
0.051457655 0.0048472378 0.39500001 4278929949
0.052740615 0.0048472378 0.39500001 4278864669
0.054160345 0.0048595094 0.39600003 4278536474
0.055446554 0.0048595094 0.39600003 4278733853
0.056876026 0.004871781 0.39700001 4278602267
0.058312003 0.0048840526 0.39800003 4278930462
0.059754461 0.0048963241 0.39900002 4279061537
0.061050415 0.0048963241 0.39900002 4278995744
0.062502623 0.0049085952 0.40000001 4278995744
0.063801818 0.0049085952 0.40000001 4278798365
0.065263778 0.0049208668 0.40100002 4278204174
0.066566229 0.0049208668 0.40100002 4278333964
0.06803792 0.0049331384 0.40200001 4278862359
0.069516115 0.0049454099 0.40300003 4279586082
0.070825063 0.0049454099 0.40300003 4279255834
0.072313003 0.0049576815 0.40400001 4278726925
0.073807433 0.0049699531 0.40500003 4278198786
0.07530836 0.0049822242 0.40600002 4278657035
0.076627053 0.0049822242 0.40600002 4278853644
0.078137718 0.0049944958 0.40700001 4278984719
0.079654895 0.0050067673 0.40800002 4279049742
0.080980077 0.0050067673 0.40800002 4278918926
0.082506984 0.0050190389 0.40900001 4280699180
0.084040403 0.0050313105 0.41000003 4279781410
0.085580304 0.0050435816 0.41100001 4278661648
0.08712671 0.0050558536 0.41200003 4278527500
0.088464886 0.0050558536 0.41200003 4279253017
0.090021029 0.0050681247 0.41300002 4279780899
0.091583677 0.0050803963 0.41400003 4278398992
0.093152806 0.0050926679 0.41500002 4278990361
0.09472844 0.005104939 0.41600001 4279319324
0.096541531 0.0051294821 0.41800001 4279977254
0.0981334 0.0051417537 0.41900003 4279516703
0.099731773 0.0051540253 0.42000002 4280568877
0.10133664 0.0051662968 0.42100003 4280108840
0.102948 0.0051785684 0.42200002 4279319324
0.10456585 0.0051908395 0.42300001 4278397708
0.10593975 0.0051908395 0.42300001 4278198787
0.10756736 0.0052031111 0.42400002 4279253019
0.10894451 0.0052031111 0.42400002 4280109612
0.11032167 0.0052031111 0.42400002 4280241709
0.11196226 0.0052153827 0.42500001 4280570928
0.11334267 0.0052153827 0.42500001 4280438575
0.033835407 0.0061927158 0.39900002 4280562465
0.035131361 0.0061927158 0.39900002 4280758561
0.036427312 0.0061927158 0.39900002 4280298010
0.037628721 0.0061771953 0.39800003 4279706393
0.04375989 0.0061306334 0.39500001 4279645209
0.04504285 0.0061306334 0.39500001 4279319578
0.046325814 0.0061306334 0.39500001 4278991894
0.04760877 0.0061306334 0.39500001 4278664212
0.048891731 0.0061306334 0.39500001 4278796568
0.050174691 0.0061306334 0.39500001 4278863388
0.051457655 0.0061306334 0.39500001 4278863388
0.05287414 0.0061461544 0.39600003 4279126558
0.054160345 0.0061461544 0.39600003 4279127328
0.055446554 0.0061461544 0.39600003 4279061535
0.056876026 0.0061616744 0.39700001 4279061535
0.058312003 0.0061771953 0.39800003 4279127328
0.059604701 0.0061771953 0.39800003 4278929949
0.061050415 0.0061927158 0.39900002 4279060765
0.062346369 0.0061927158 0.39900002 4278929179
0.063801818 0.0062082363 0.40000001 4279126045
0.06510102 0.0062082363 0.40000001 4278268939
0.066566229 0.0062237573 0.40100002 4279584801
0.06803792 0.0062392773 0.40200001 4279584801
0.069343619 0.0062392773 0.40200001 4278395912
0.070825063 0.0062547983 0.40300003 4278656267
0.072313003 0.0062703188 0.40400001 4278655756
0.073807433 0.0062858397 0.40500003 4278853135
0.07530836 0.0063013597 0.40600002 4278853135
0.076627053 0.0063013597 0.40600002 4279511065
0.078137718 0.0063168802 0.40700001 4279840028
0.079654895 0.0063324012 0.40800002 4280235299
0.080980077 0.0063324012 0.40800002 4278657035
0.082506984 0.0063479217 0.40900001 4280172836
0.084040403 0.0063634426 0.41000003 4278726162
0.085580304 0.0063789627 0.41100001 4278329097
0.086915232 0.0063789627 0.41100001 4278592269
0.088464886 0.0063944836 0.41200003 4278660369
0.090021029 0.0064100041 0.41300002 4278859543
0.091583677 0.0064255251 0.41400003 4279912485
0.093152806 0.0064410456 0.41500002 4280438829
0.094956152 0.0064720865 0.41700003 4280175657
0.096541531 0.006487607 0.41800001 4279188508
0.0981334 0.006503128 0.41900003 4278198018
0.099731773 0.006518648 0.42000002 4278199817
0.10133664 0.006534169 0.42100003 4280372014
0.102948 0.0065496895 0.42200002 4280438323
0.10456585 0.0065652099 0.42300001 4279911979
0.1061902 0.0065807309 0.42400002 4280109612
0.10756736 0.0065807309 0.42400002 4280306991
0.10894451 0.0065807309 0.42400002 4280108074
0.035219409 0.007507877 0.40000001 4280692768
0.036518607 0.007507877 0.40000001 4280560669
0.043870676 0.0074327989 0.39600003 4279777565
0.045156885 0.0074327989 0.39600003 4279188762
0.046443094 0.0074327989 0.39600003 4278991894
0.047729302 0.0074327989 0.39600003 4278795285
0.049015511 0.0074327989 0.39600003 4278862361
0.050301719 0.0074327989 0.39600003 4278863388
0.051587928 0.0074327989 0.39600003 4278929181
0.05287414 0.0074327989 0.39600003 4279323937
0.054160345 0.0074327989 0.39600003 4279126558
0.055586569 0.0074515683 0.39700001 4279126558
0.056876026 0.0074515683 0.39700001 4279192351
0.058312003 0.0074703381 0.39800003 4279060767
0.059604701 0.0074703381 0.39800003 4279258144
0.061050415 0.0074891075 0.39900002 4279126558
0.062346369 0.0074891075 0.39900002 4279258144
0.063801818 0.007507877 0.40000001 4279257117
0.06510102 0.007507877 0.40000001 4278201099
0.066566229 0.0075266473 0.40100002 4278992412
0.06803792 0.0075454167 0.40200001 4278925849
0.069343619 0.0075454167 0.40200001 4278590472
0.070825063 0.0075641866 0.40300003 4278853646
0.072313003 0.007582956 0.40400001 4279774748
0.073807433 0.0076017259 0.40500003 4279577371
0.075122878 0.0076017259 0.40500003 4279776031
0.076627053 0.0076204957 0.40600002 4278393865
0.078137718 0.0076392652 0.40700001 4280302887
0.07945966 0.0076392652 0.40700001 4279908129
0.080980077 0.007658035 0.40800002 4278724109
0.082506984 0.0076768044 0.40900001 4279910947
0.084040403 0.0076955743 0.41000003 4278197506
0.085580304 0.0077143437 0.41100001 4278789648
0.08712671 0.0077331141 0.41200003 4280897331
0.088679604 0.0077518835 0.41300002 4280240428
0.090239003 0.0077706533 0.41400003 4278398224
0.091583677 0.0077706533 0.41400003 4278198275
0.09337727 0.0078081922 0.41600001 4278924566
0.094956152 0.0078269625 0.41700003 4280240426
0.096541531 0.0078457315 0.41800001 4280437805
0.0981334 0.0078645013 0.41900003 4279912485
0.099731773 0.0078832712 0.42000002 4279846692
0.10133664 0.0079020411 0.42100003 4280175657
0.102948 0.007920811 0.42200002 4280372782
0.10456585 0.0079395799 0.42300001 4279977256
0.035307456 0.0088295368 0.40100002 4280429085
0.036609907 0.0088295368 0.40100002 4280758048
0.04279954 0.0087634809 0.39800003 4279249939
0.043981459 0.0087414617 0.39700001 4279777565
0.045270916 0.0087414617 0.39700001 4279319576
0.046560373 0.0087414617 0.39700001 4279188760
0.04784983 0.0087414617 0.39700001 4278795798
0.049015511 0.0087194433 0.39600003 4278928154
0.050301719 0.0087194433 0.39600003 4278797595
0.051587928 0.0087194433 0.39600003 4279060767
0.05287414 0.0087194433 0.39600003 4279323937
0.054297112 0.0087414617 0.39700001 4279323937
0.055586569 0.0087414617 0.39700001 4279192351
0.056876026 0.0087414617 0.39700001 4279126558
0.058312003 0.0087634809 0.39800003 4279258144
0.059604701 0.0087634809 0.39800003 4279192351
0.061050415 0.0087854993 0.39900002 4279258144
0.062346369 0.0087854993 0.39900002 4279060765
0.063801818 0.0088075176 0.40000001 4279189791
0.06510102 0.0088075176 0.40000001 4278197504
0.066566229 0.0088295368 0.40100002 4279583779
0.06803792 0.0088515552 0.40200001 4278199044
0.069343619 0.0088515552 0.40200001 4280433959
0.070825063 0.0088735744 0.40300003 4281026096
0.072313003 0.0088955928 0.40400001 4279118101
0.073807433 0.008917612 0.40500003 4278920209
0.075122878 0.008917612 0.40500003 4279249176
0.076627053 0.0089396304 0.40600002 4278656269
0.078137718 0.0089616496 0.40700001 4278328074
0.07945966 0.0089616496 0.40700001 4278722832
0.080980077 0.0089836689 0.40800002 4280238631
0.082506984 0.0090056872 0.40900001 4279516703
0.084040403 0.0090277065 0.41000003 4278462988
0.085580304 0.0090497248 0.41100001 4278198788
0.08712671 0.009071744 0.41200003 4279515678
0.088679604 0.0090937624 0.41300002 4280568877
0.090239003 0.0091157816 0.41400003 4279780899
0.091804892 0.0091378 0.41500002 4279978278
0.09337727 0.0091598183 0.41600001 4279912998
0.094956152 0.0091818376 0.41700003 4280110377
0.096541531 0.0092038559 0.41800001 4280241961
0.098367609 0.0092478935 0.42000002 4279912996
0.099969231 0.0092699127 0.42100003 4280305194
0.036609907 0.010132426 0.40100002 4280364573
0.042907074 0.010081891 0.39900002 4279447830
0.044092245 0.010056623 0.39800003 4279646746
0.045384951 0.010056623 0.39800003 4279187992
0.046677656 0.010056623 0.39800003 4278794002
0.04784983 0.010031355 0.39700001 4278795285
0.049139284 0.010031355 0.39700001 4278862875
0.050428741 0.010031355 0.39700001 4279126560
0.051718198 0.010031355 0.39700001 4279060767
0.053007659 0.010031355 0.39700001 4279258146
0.054297112 0.010031355 0.39700001 4279126558
0.055586569 0.010031355 0.39700001 4279323937
0.057019293 0.010056623 0.39800003 4279192351
0.058312003 0.010056623 0.39800003 4279192351
0.059754461 0.010081891 0.39900002 4279126558
0.061050415 0.010081891 0.39900002 4279126558
0.062502623 0.010107159 0.40000001 4279192353
0.063801818 0.010107159 0.40000001 4279716135
0.065263778 0.010132426 0.40100002 4278990107
0.066566229 0.010132426 0.40100002 4279714852
0.06803792 0.010157694 0.40200001 4278198791
0.069343619 0.010157694 0.40200001 4278854416
0.070825063 0.010182963 0.40300003 4278787855
0.072313003 0.01020823 0.40400001 4278590476
0.073807433 0.010233498 0.40500003 4278787855
0.075122878 0.010233498 0.40500003 4278984721
0.076627053 0.010258766 0.40600002 4278786572
0.077945739 0.010258766 0.40600002 4278195718
0.07945966 0.010284034 0.40700001 4279315480
0.080980077 0.010309302 0.40800002 4280306219
0.082506984 0.010334569 0.40900001 4279845668
0.084040403 0.010359838 0.41000003 4279912231
0.085580304 0.010385105 0.41100001 4279912485
0.08712671 0.010410374 0.41200003 4279782182
0.088679604 0.010435641 0.41300002 4279650596
0.090239003 0.010460909 0.41400003 4279782182
0.091804892 0.010486177 0.41500002 4279782182
0.09337727 0.010511445 0.41600001 4279649061
0.094956152 0.010536713 0.41700003 4281094969
0.096772492 0.010587249 0.41900003 4284909169
0.042907074 0.011378283 0.39900002 4278988049
0.044203028 0.011378283 0.39900002 4279515930
0.045498982 0.011378283 0.39900002 4279122199
0.046677656 0.011349767 0.39800003 4278925590
0.047970362 0.011349767 0.39800003 4278927384
0.049263064 0.011349767 0.39800003 4279126047
0.050555769 0.011349767 0.39800003 4279192353
0.051848475 0.011349767 0.39800003 4279389732
0.05314118 0.011349767 0.39800003 4279258146
0.054433882 0.011349767 0.39800003 4279192353
0.055726588 0.011349767 0.39800003 4279258146
0.057019293 0.011349767 0.39800003 4279192353
0.058458511 0.011378283 0.39900002 4279323937
0.059754461 0.011378283 0.39900002 4279258144
0.06120342 0.0114068 0.40000001 4279192353
0.062502623 0.0114068 0.40000001 4278929181
0.063801818 0.0114068 0.40000001 4278529810
0.065263778 0.011435317 0.40100002 4279649061
0.066566229 0.011435317 0.40100002 4279517475
0.06803792 0.011463834 0.40200001 4278526476
0.069343619 0.011463834 0.40200001 4278918928
0.070825063 0.011492351 0.40300003 4278721549
0.072313003 0.011520868 0.40400001 4278393867
0.073625192 0.011520868 0.40400001 4279973410
0.075122878 0.011549385 0.40500003 4281159220
0.076438315 0.011549385 0.40500003 4280568366
0.077945739 0.011577902 0.40600002 4279911715
0.07945966 0.011606419 0.40700001 4279781412
0.080781594 0.011606419 0.40700001 4279651107
0.082506984 0.011663453 0.40900001 4279848486
0.084040403 0.01169197 0.41000003 4279848486
0.085580304 0.011720487 0.41100001 4279914279
0.08712671 0.011749004 0.41200003 4279782180
0.088679604 0.011777521 0.41300002 4279912485
0.090239003 0.011806038 0.41400003 4282936660
0.043014612 0.012706441 0.40000001 4279647264
0.044313814 0.012706441 0.40000001 4279319324
0.045613013 0.012706441 0.40000001 4278991896
0.046794936 0.012674675 0.39900002 4278795287
0.048090886 0.012674675 0.39900002 4278928670
0.04938684 0.012674675 0.39900002 4278994461
0.050555769 0.01264291 0.39800003 4278994461
0.051848475 0.01264291 0.39800003 4279323939
0.05314118 0.01264291 0.39800003 4279389732
0.054433882 0.01264291 0.39800003 4279192353
0.055866603 0.012674675 0.39900002 4279192353
0.057162557 0.012674675 0.39900002 4279323939
0.058458511 0.012674675 0.39900002 4279060767
0.059904218 0.012706441 0.40000001 4279191840
0.06120342 0.012706441 0.40000001 4279191838
0.062502623 0.012706441 0.40000001 4279322910
0.063961327 0.012738207 0.40100002 4278200072
0.065263778 0.012738207 0.40100002 4279977256
0.066566229 0.012738207 0.40100002 4279781412
0.06803792 0.012769973 0.40200001 4280109864
0.069343619 0.012769973 0.40200001 4280437805
0.070825063 0.012801739 0.40300003 4280109610
0.07213401 0.012801739 0.40300003 4279715365
0.073625192 0.012833506 0.40400001 4279650342
0.074937381 0.012833506 0.40400001 4279716389
0.076438315 0.012865272 0.40500003 4279913768
0.077753752 0.012865272 0.40500003 4279716389
0.079264425 0.012897038 0.40600002 4280045354
0.080781594 0.012928803 0.40700001 4279190045
0.082506984 0.012992335 0.40900001 4279780645
0.040618293 0.014076112 0.40200001 4279381271
0.041819703 0.014041097 0.40100002 4279514395
0.04312215 0.014041097 0.40100002 4279319326
0.044313814 0.014006081 0.40000001 4279188510
0.045613013 0.014006081 0.40000001 4279058205
0.046912216 0.014006081 0.40000001 4278795800
0.048211414 0.014006081 0.40000001 4278533910
0.04938684 0.013971067 0.39900002 4279126047
0.050682791 0.013971067 0.39900002 4279060765
0.051978745 0.013971067 0.39900002 4279258144
0.053274699 0.013971067 0.39900002 4279258144
0.054570649 0.013971067 0.39900002 4279192351
0.055866603 0.013971067 0.39900002 4279390500
0.057162557 0.013971067 0.39900002 4279061535
0.058605023 0.014006081 0.40000001 4279126558
0.059904218 0.014006081 0.40000001 4279323937
0.06120342 0.014006081 0.40000001 4279258144
0.062658884 0.014041097 0.40100002 4278994461
0.063961327 0.014041097 0.40100002 4278924820
0.065263778 0.014041097 0.40100002 4279912485
0.066566229 0.014041097 0.40100002 4279716900
0.06803792 0.014076112 0.40200001 4279585314
0.069343619 0.014076112 0.40200001 4279651107
0.070825063 0.014111128 0.40300003 4279651109
0.07213401 0.014111128 0.40300003 4279651109
0.073442951 0.014111128 0.40300003 4279585316
0.074937381 0.014146143 0.40400001 4279781928
0.076249577 0.014146143 0.40400001 4279452193
0.077561766 0.014146143 0.40400001 4282344523
0.04312215 0.015343987 0.40100002 4279450398
0.044424601 0.015343987 0.40100002 4279254301
0.045727048 0.015343987 0.40100002 4278927132
0.046912216 0.015305722 0.40000001 4278598937
0.048211414 0.015305722 0.40000001 4278928668
0.049510613 0.015305722 0.40000001 4279257633
0.050809812 0.015305722 0.40000001 4279258146
0.052109014 0.015305722 0.40000001 4279389732
0.053408217 0.015305722 0.40000001 4279258146
0.054707415 0.015305722 0.40000001 4279258146
0.056006618 0.015305722 0.40000001 4279061537
0.05730582 0.015305722 0.40000001 4279258914
0.058605023 0.015305722 0.40000001 4279193121
0.059904218 0.015305722 0.40000001 4279323937
0.061356433 0.015343987 0.40100002 4279389732
0.062658884 0.015343987 0.40100002 4279455012
0.063961327 0.015343987 0.40100002 4279256351
0.065263778 0.015343987 0.40100002 4279716902
0.066566229 0.015343987 0.40100002 4279585062
0.06803792 0.015382251 0.40200001 4279585062
0.069343619 0.015382251 0.40200001 4279911979
0.070649318 0.015382251 0.40200001 4280832311
0.044424601 0.016646877 0.40100002 4279054103
0.045727048 0.016646877 0.40100002 4279123998
0.047029499 0.016646877 0.40100002 4278796316
0.048331946 0.016646877 0.40100002 4278797084
0.049510613 0.016605362 0.40000001 4279257633
0.050809812 0.016605362 0.40000001 4279258146
0.052109014 0.016605362 0.40000001 4279323939
0.053408217 0.016605362 0.40000001 4279389732
0.054707415 0.016605362 0.40000001 4279323939
0.056006618 0.016605362 0.40000001 4279258146
0.05730582 0.016605362 0.40000001 4279652904
0.058751538 0.016646877 0.40100002 4279258146
0.060053982 0.016646877 0.40100002 4279389732
0.061356433 0.016646877 0.40100002 4279455014
0.062658884 0.016646877 0.40100002 4279783979
0.063961327 0.016646877 0.40100002 4279780395
0.065263778 0.016646877 0.40100002 4281424450
0.047029499 0.017949766 0.40100002 4279252765
0.048331946 0.017949766 0.40100002 4279585062
0.049634393 0.017949766 0.40100002 4279454500
0.05093684 0.017949766 0.40100002 4279915565
0.052109014 0.017905002 0.40000001 4279652393
0.053408217 0.017905002 0.40000001 4279323428
0.054707415 0.017905002 0.40000001 4279454760
0.056146637 0.017949766 0.40100002 4279454760
0.057449088 0.017949766 0.40100002 4279388453
0.058751538 0.017949766 0.40100002 4280175405
0.060053982 0.017949766 0.40100002 4282806103
0.05093684 0.019252658 0.40100002 4280108590
0.052239291 0.019252658 0.40100002 4280042797
0.074178442 0.0043975431 0.40744784 4294967295
0.074178442 0.0043975431 0.40744784 4294901760
0.074178442 0.0043975431 0.40794784 4294901760
0.074178442 0.0043975431 0.40844783 4294901760
0.074178442 0.0043975431 0.40894786 4294901760
0.074178442 0.0043975431 0.40944785 4294901760
0.074178442 0.0043975431 0.40994784 4294901760
0.074178442 0.0043975431 0.41044784 4294901760
0.074178442 0.0043975431 0.41094786 4294901760
0.074178442 0.0043975431 0.41144785 4294901760
0.074178442 0.0043975431 0.41194785 4294901760
0.074178442 0.0043975431 0.41244784 4294901760
0.074178442 0.0043975431 0.41294783 4294901760
0.074178442 0.0043975431 0.41344786 4294901760
0.074178442 0.0043975431 0.41394785 4294901760
0.074178442 0.0043975431 0.41444784 4294901760
0.074178442 0.0043975431 0.41494784 4294901760
0.074178442 0.0043975431 0.41544783 4294901760
0.074178442 0.0043975431 0.41594785 4294901760
0.074178442 0.0043975431 0.41644785 4294901760
0.074178442 0.0043975431 0.41694784 4294901760
0.074178442 0.0043975431 0.41744784 4294901760
0.074178442 0.0043975431 0.41794786 4294901760
0.074178442 0.0043975431 0.41844785 4294901760
0.074178442 0.0043975431 0.41894785 4294901760
0.074178442 0.0043975431 0.41944784 4294901760
0.074178442 0.0043975431 0.41994786 4294901760
0.074178442 0.0043975431 0.42044786 4294901760
0.074178442 0.0043975431 0.42094785 4294901760
0.074178442 0.0043975431 0.42144784 4294901760
0.074178442 0.0043975431 0.42194784 4294901760
0.074178442 0.0043975431 0.42244786 4294901760
0.074178442 0.0043975431 0.42294785 4294901760
0.074178442 0.0043975431 0.42344785 4294901760
0.074178442 0.0043975431 0.42394784 4294901760
0.074178442 0.0043975431 0.42444783 4294901760
0.074178442 0.0043975431 0.42494786 4294901760
0.074178442 0.0043975431 0.42544785 4294901760
0.074178442 0.0043975431 0.42594784 4294901760
0.074178442 0.0043975431 0.42644784 4294901760
0.074178442 0.0043975431 0.42694786 4294901760
0.074178442 0.0043975431 0.42744786 4294901760
0.074178442 0.0043975431 0.42794785 4294901760
0.074178442 0.0043975431 0.42844784 4294901760
0.074178442 0.0043975431 0.42894787 4294901760
0.074178442 0.0043975431 0.42944786 4294901760
0.074178442 0.0043975431 0.42994785 4294901760
0.074178442 0.0043975431 0.43044785 4294901760
0.074178442 0.0043975431 0.43094784 4294901760
0.074178442 0.0043975431 0.43144786 4294901760
0.074178442 0.0043975431 0.43194786 4294901760
0.074178442 0.0043975431 0.43244785 4294901760
0.074178442 0.0043975431 0.43294784 4294901760
0.074178442 0.0043975431 0.43344784 4294901760
0.074178442 0.0043975431 0.43394786 4294901760
0.074178442 0.0043975431 0.43444785 4294901760
0.074178442 0.0043975431 0.43494785 4294901760
0.074178442 0.0043975431 0.43544784 4294901760
0.074178442 0.0043975431 0.43594784 4294901760
0.074178442 0.0043975431 0.43644786 4294901760
0.074178442 0.0043975431 0.43694785 4294901760
0.074178442 0.0043975431 0.43744785 4294901760
0.074178442 0.0043975431 0.43794784 4294901760
0.074178442 0.0043975431 0.43844786 4294901760
0.074178442 0.0043975431 0.43894786 4294901760
0.074178442 0.0043975431 0.43944785 4294901760
0.074178442 0.0043975431 0.43994784 4294901760
0.074178442 0.0043975431 0.44044787 4294901760
0.074178442 0.0043975431 0.44094786 4294901760
0.074178442 0.0043975431 0.44144785 4294901760
0.074178442 0.0043975431 0.44194785 4294901760
0.074178442 0.0043975431 0.44244784 4294901760
0.074178442 0.0043975431 0.44294786 4294901760
0.074178442 0.0043975431 0.44344786 4294901760
0.074178442 0.0043975431 0.44394785 4294901760
0.074178442 0.0043975431 0.44444785 4294901760
0.074178442 0.0043975431 0.44494784 4294901760
0.074178442 0.0043975431 0.44544786 4294901760
0.074178442 0.0043975431 0.44594786 4294901760
0.074178442 0.0043975431 0.44644785 4294901760
0.074178442 0.0043975431 0.44694784 4294901760
0.074178442 0.0043975431 0.44744787 4294901760
0.074178442 0.0043975431 0.44794786 4294901760
0.074178442 0.0043975431 0.44844785 4294901760
0.074178442 0.0043975431 0.44894785 4294901760
0.074178442 0.0043975431 0.44944784 4294901760
0.074178442 0.0043975431 0.44994786 4294901760
0.074178442 0.0043975431 0.45044786 4294901760
0.074178442 0.0043975431 0.45094785 4294901760
0.074178442 0.0043975431 0.45144784 4294901760
0.074178442 0.0043975431 0.45194787 4294901760
0.074178442 0.0043975431 0.45244786 4294901760
0.074178442 0.0043975431 0.45294785 4294901760
0.074178442 0.0043975431 0.45344785 4294901760
0.074178442 0.0043975431 0.45394784 4294901760
0.074178442 0.0043975431 0.45444787 4294901760
0.074178442 0.0043975431 0.45494786 4294901760
0.074178442 0.0043975431 0.45544785 4294901760
0.074178442 0.0043975431 0.45594785 4294901760
0.074178442 0.0043975431 0.45644787 4294901760
0.074178442 0.0043975431 0.45694786 4294901760
0.074178442 0.0043975431 0.45744786 4294901760
0.074178442 0.0043975431 0.40744784 4278255360
0.07396441 0.0045011984 0.40788767 4278255360
0.073750369 0.0046048542 0.40832749 4278255360
0.073536336 0.0047085094 0.40876731 4278255360
0.073322296 0.0048121647 0.40920714 4278255360
0.073108263 0.0049158204 0.40964696 4278255360
0.072894223 0.0050194757 0.41008678 4278255360
0.07268019 0.005123131 0.4105266 4278255360
0.07246615 0.0052267862 0.41096643 4278255360
0.072252117 0.005330442 0.41140625 4278255360
0.072038077 0.0054340973 0.41184607 4278255360
0.071824044 0.005537753 0.41228589 4278255360
0.071610004 0.0056414083 0.41272572 4278255360
0.071395971 0.0057450635 0.41316554 4278255360
0.071181938 0.0058487188 0.41360536 4278255360
0.070967898 0.0059523745 0.41404518 4278255360
0.070753865 0.0060560298 0.41448501 4278255360
0.070539825 0.0061596856 0.41492483 4278255360
0.070325792 0.0062633408 0.41536465 4278255360
0.070111752 0.0063669961 0.41580448 4278255360
0.069897719 0.0064706514 0.4162443 4278255360
0.069683678 0.0065743066 0.41668412 4278255360
0.069469646 0.0066779624 0.41712394 4278255360
0.069255605 0.0067816181 0.41756377 4278255360
0.069041573 0.0068852734 0.41800359 4278255360
0.06882754 0.0069889287 0.41844341 4278255360
0.068613499 0.0070925839 0.41888323 4278255360
0.068399467 0.0071962397 0.41932306 4278255360
0.068185426 0.0072998949 0.41976288 4278255360
0.067971393 0.0074035502 0.4202027 4278255360
0.067757353 0.0075072059 0.42064252 4278255360
0.06754332 0.0076108612 0.42108235 4278255360
0.06732928 0.0077145165 0.42152217 4278255360
0.067115247 0.0078181718 0.42196199 4278255360
0.066901207 0.007921828 0.42240182 4278255360
0.066687174 0.0080254823 0.42284164 4278255360
0.066473134 0.0081291385 0.42328146 4278255360
0.066259101 0.0082327938 0.42372128 4278255360
0.066045061 0.008336449 0.42416111 4278255360
0.065831028 0.0084401043 0.42460093 4278255360
0.065616995 0.0085437596 0.42504075 4278255360
0.065402955 0.0086474158 0.42548057 4278255360
0.065188922 0.0087510701 0.4259204 4278255360
0.064974882 0.0088547263 0.42636022 4278255360
0.064760849 0.0089583816 0.42680004 4278255360
0.064546809 0.0090620369 0.42723987 4278255360
0.064332776 0.0091656931 0.42767969 4278255360
0.064118735 0.0092693474 0.42811951 4278255360
0.063904703 0.0093730036 0.42855933 4278255360
0.063690662 0.0094766589 0.42899916 4278255360
0.06347663 0.0095803142 0.42943898 4278255360
0.063262597 0.0096839694 0.4298788 4278255360
0.063048556 0.0097876247 0.43031862 4278255360
0.062834524 0.00989128 0.43075845 4278255360
0.062620483 0.0099949362 0.43119827 4278255360
0.062406447 0.010098591 0.43163809 4278255360
0.06219241 0.010202247 0.43207791 4278255360
0.061978377 0.010305902 0.43251774 4278255360
0.061764341 0.010409557 0.43295756 4278255360
0.061550304 0.010513213 0.43339738 4278255360
0.061336268 0.010616869 0.43383721 4278255360
0.061122231 0.010720524 0.43427703 4278255360
0.060908195 0.010824179 0.43471685 4278255360
0.060694158 0.010927835 0.43515667 4278255360
0.060480122 0.01103149 0.4355965 4278255360
0.060266085 0.011135145 0.43603632 4278255360
0.060052048 0.011238801 0.43647614 4278255360
0.059838012 0.011342457 0.43691596 4278255360
0.059623979 0.011446112 0.43735579 4278255360
0.059409939 0.011549767 0.43779561 4278255360
0.059195906 0.011653422 0.43823543 4278255360
0.058981869 0.011757078 0.43867525 4278255360
0.058767833 0.011860734 0.43911508 4278255360
0.058553796 0.011964389 0.4395549 4278255360
0.05833976 0.012068044 0.43999472 4278255360
0.058125723 0.0121717 0.44043455 4278255360
0.057911687 0.012275355 0.44087437 4278255360
0.057697654 0.01237901 0.44131419 4278255360
0.057483613 0.012482665 0.44175401 4278255360
0.057269577 0.012586322 0.44219384 4278255360
0.05705554 0.012689977 0.44263366 4278255360
0.056841508 0.012793632 0.44307348 4278255360
0.056627467 0.012897287 0.4435133 4278255360
0.056413434 0.013000943 0.44395313 4278255360
0.056199398 0.013104598 0.44439295 4278255360
0.055985361 0.013208254 0.44483277 4278255360
0.055771325 0.01331191 0.44527259 4278255360
0.055557288 0.013415565 0.44571242 4278255360
0.055343252 0.01351922 0.44615224 4278255360
0.055129215 0.013622875 0.44659206 4278255360
0.054915182 0.013726531 0.44703189 4278255360
0.054701142 0.013830187 0.44747171 4278255360
0.054487109 0.013933842 0.44791153 4278255360
0.054273069 0.014037497 0.44835135 4278255360
0.054059036 0.014141153 0.44879118 4278255360
0.053844996 0.014244808 0.449231 4278255360
0.053630963 0.014348463 0.44967082 4278255360
0.053416923 0.014452119 0.45011064 4278255360
0.05320289 0.014555775 0.45055047 4278255360
0.052988853 0.01465943 0.45099029 4278255360
0.052774817 0.014763085 0.45143011 4278255360
