# .PCD v0.7 - Point Cloud Data file format
VERSION 0.7
FIELDS x y z rgb
SIZE 4 4 4 4
TYPE F F F U
COUNT 1 1 1 1
WIDTH 1032
HEIGHT 1
VIEWPOINT 0 0 0 1 0 0 0
POINTS 1032
DATA ascii
-0.01266198 0.033348076 0.49400002 4278731800
-0.032977805 0.034387089 0.48600003 4281549874
-0.031399276 0.034387089 0.48600003 4282799945
-0.029882105 0.034457844 0.48700002 4280693801
-0.028300326 0.034457844 0.48700002 4280759083
-0.026718551 0.034457844 0.48700002 4281352245
-0.02518839 0.034528602 0.48800004 4281352245
-0.023603365 0.034528602 0.48800004 4281287222
-0.022018339 0.034528602 0.48800004 4280957487
-0.020433316 0.034528602 0.48800004 4279315478
-0.018886914 0.034599356 0.48900002 4279582496
-0.017334016 0.034670111 0.49000001 4278993175
-0.015742496 0.034670111 0.49000001 4278862359
-0.014179855 0.034740865 0.49100003 4278862359
-0.012585086 0.034740865 0.49100003 4278796566
-0.004348279 0.032759719 0.46300003 4278928154
-0.0028444538 0.032759719 0.46300003 4279059740
-0.001340629 0.032759719 0.46300003 4278599189
0.00016319583 0.032759719 0.46300003 4278993947
-0.031399276 0.035966154 0.48600003 4281615669
-0.029882105 0.036040157 0.48700002 4279904539
-0.028300326 0.036040157 0.48700002 4280561702
-0.026718551 0.036040157 0.48700002 4281483831
-0.025136774 0.036040157 0.48700002 4281221429
-0.023554998 0.036040157 0.48700002 4281287222
-0.021973221 0.036040157 0.48700002 4281024050
-0.020391444 0.036040157 0.48700002 4279381271
-0.018809667 0.036040157 0.48700002 4279779615
-0.017263265 0.036114164 0.48800004 4279058455
-0.015678242 0.036114164 0.48800004 4279058968
-0.014093217 0.036114164 0.48800004 4278862359
-0.012508191 0.036114164 0.48800004 4278796566
-0.0058521037 0.03426405 0.46300003 4278862361
-0.004348279 0.03426405 0.46300003 4279058970
-0.0028444538 0.03426405 0.46300003 4278199808
-0.001340629 0.03426405 0.46300003 4278198529
0.00016284335 0.034190048 0.46200001 4278795546
0.0016634201 0.034190048 0.46200001 4278862363
0.0031639969 0.034190048 0.46200001 4278796568
-0.032909948 0.037467964 0.48500001 4281155118
-0.031399276 0.037545215 0.48600003 4280102432
-0.029820746 0.037545215 0.48600003 4280299297
-0.028300326 0.03762247 0.48700002 4280759081
-0.026718551 0.03762247 0.48700002 4281417524
-0.025085159 0.037545215 0.48600003 4281549110
-0.02350663 0.037545215 0.48600003 4281747003
-0.021928102 0.037545215 0.48600003 4280825901
-0.020349573 0.037545215 0.48600003 4279513371
-0.018771045 0.037545215 0.48600003 4279516957
-0.017192515 0.037545215 0.48600003 4279058968
-0.015613986 0.037545215 0.48600003 4278928152
-0.014006577 0.037467964 0.48500001 4278796568
-0.012431297 0.037467964 0.48500001 4278862359
-0.010833632 0.037390709 0.48400003 4278928152
-0.0058647431 0.035845637 0.46400002 4278928154
-0.004348279 0.035768386 0.46300003 4279058970
-0.0028444538 0.035768386 0.46300003 4278201352
-0.001340629 0.035768386 0.46300003 4278199046
0.00016284335 0.035691131 0.46200001 4279189021
0.0016634201 0.035691131 0.46200001 4278993177
0.0031639969 0.035691131 0.46200001 4278927384
0.0046544774 0.03561388 0.46100003 4278795798
0.0061518066 0.03561388 0.46100003 4278664982
0.0091067832 0.035459369 0.45900002 4278665498
0.010574528 0.035382118 0.45800003 4278797082
-0.032977805 0.03912428 0.48600003 4283063117
-0.031399276 0.03912428 0.48600003 4281418292
-0.029882105 0.039204784 0.48700002 4280167198
-0.028300326 0.039204784 0.48700002 4281022253
-0.026663689 0.03912428 0.48600003 4281614903
-0.025085159 0.03912428 0.48600003 4281483317
-0.023458261 0.039043777 0.48500001 4281417524
-0.021882981 0.039043777 0.48500001 4281089073
-0.020307701 0.039043777 0.48500001 4279579934
-0.018693797 0.038963273 0.48400003 4279386141
-0.017121764 0.038963273 0.48400003 4278664982
-0.015549731 0.038963273 0.48400003 4279059738
-0.013948818 0.03888277 0.48300001 4278664982
-0.012354402 0.03880227 0.48200002 4278862361
-0.010766482 0.038721766 0.48100004 4278928154
-0.0089554312 0.037675232 0.46800002 4278796568
-0.0074035903 0.037514228 0.46600002 4278862361
-0.0058773826 0.037433725 0.46500003 4278796568
-0.0043576704 0.037353221 0.46400002 4279058970
-0.0028444538 0.037272722 0.46300003 4278198530
-0.001340629 0.037272722 0.46300003 4279121433
0.00016284335 0.037192214 0.46200001 4279189021
0.0016634201 0.037192214 0.46200001 4278199303
0.0031639969 0.037192214 0.46200001 4278196226
0.0046544774 0.037111714 0.46100003 4278197254
0.0061518066 0.037111714 0.46100003 4278197766
0.0076325419 0.037031211 0.46000001 4278595089
0.0091067832 0.036950707 0.45900002 4279385117
0.010597616 0.036950707 0.45900002 4279386654
0.012088448 0.036950707 0.45900002 4279320861
0.015037282 0.036870208 0.45800003 4278992664
0.016524866 0.036870208 0.45800003 4278993177
-0.032977805 0.040703345 0.48600003 4280761128
-0.031463884 0.040787093 0.48700002 4280497190
-0.029882105 0.040787093 0.48700002 4280759335
-0.028242216 0.040703345 0.48600003 4281022507
-0.026663689 0.040703345 0.48600003 4281352245
-0.025033543 0.040619589 0.48500001 4281352245
-0.023458261 0.040619589 0.48500001 4281549624
-0.021837862 0.040535841 0.48400003 4281418038
-0.020265831 0.040535841 0.48400003 4279777826
-0.018655173 0.040452085 0.48300001 4279320607
-0.017086387 0.040452085 0.48300001 4278862363
-0.015485475 0.040368337 0.48200002 4278862363
-0.01389106 0.040284585 0.48100004 4278599189
-0.012303138 0.040200833 0.48000002 4278796568
-0.010676947 0.039949577 0.47700003 4278928154
-0.0089745661 0.039279561 0.46900001 4278796568
-0.0074194777 0.039112058 0.46700001 4278862361
-0.0058773826 0.038944557 0.46500003 4278862361
-0.0043576704 0.038860805 0.46400002 4278993177
-0.0028444538 0.038777053 0.46300003 4278199561
-0.001340629 0.038777053 0.46300003 4279450398
0.00016284335 0.038693301 0.46200001 4279452195
0.0016634201 0.038693301 0.46200001 4278328074
0.0031571484 0.038609549 0.46100003 4278720525
0.0046544774 0.038609549 0.46100003 4278720525
0.0061384616 0.038525797 0.46000001 4278720525
0.0076325419 0.038525797 0.46000001 4278589709
0.0091067832 0.038442045 0.45900002 4278589709
0.010597616 0.038442045 0.45900002 4278589709
0.012088448 0.038442045 0.45900002 4278590222
0.013549698 0.038358297 0.45800003 4278328074
0.015037282 0.038358297 0.45800003 4278195715
0.016524866 0.038358297 0.45800003 4278726673
0.018012451 0.038358297 0.45800003 4278198787
0.019500036 0.038358297 0.45800003 4278595601
0.020987622 0.038358297 0.45800003 4278858773
0.022426134 0.038274541 0.45700002 4279649826
0.025061397 0.037772033 0.45100003 4278729490
0.026467428 0.037688281 0.45000002 4278663697
0.027866965 0.037604529 0.44900003 4278730003
0.029260004 0.037520777 0.44800001 4278730003
0.03071511 0.037520777 0.44800001 4278664980
0.032098405 0.037437025 0.44700003 4278599187
0.033550262 0.037437025 0.44700003 4278468117
0.03500212 0.037437025 0.44700003 4278533910
0.036453977 0.037437025 0.44700003 4278468117
0.037905835 0.037437025 0.44700003 4278665496
0.039445736 0.037520777 0.44800001 4278533910
0.040900841 0.037520777 0.44800001 4278666011
0.042450495 0.037604529 0.44900003 4278797597
0.043908846 0.037604529 0.44900003 4279060769
0.045468237 0.037688281 0.45000002 4279192355
0.04703413 0.037772033 0.45100003 4279390504
0.048498977 0.037772033 0.45100003 4279127332
0.049963828 0.037772033 0.45100003 4279390250
0.051542707 0.037855785 0.45200002 4279192103
0.053010803 0.037855785 0.45200002 4278796578
-0.036209214 0.042369407 0.48700002 4283194439
-0.034627434 0.042369407 0.48700002 4281417774
-0.033045657 0.042369407 0.48700002 4280694053
-0.031463884 0.042369407 0.48700002 4280628260
-0.029882105 0.042369407 0.48700002 4280825641
-0.028300326 0.042369407 0.48700002 4281088813
-0.026663689 0.042282406 0.48600003 4281352499
-0.025033543 0.042195406 0.48500001 4281352499
-0.023409896 0.042108405 0.48400003 4281418292
-0.021837862 0.042108405 0.48400003 4280102432
-0.020223958 0.042021401 0.48300001 4279844643
-0.018655173 0.042021401 0.48300001 4279254814
-0.017051013 0.041934405 0.48200002 4278862363
-0.015453348 0.041847404 0.48100004 4278928156
-0.01386218 0.0417604 0.48000002 4278862361
-0.012251875 0.041586399 0.47800002 4278731289
-0.010632181 0.041325398 0.47500002 4278797082
-0.0089745661 0.040803391 0.46900001 4278797082
-0.0074194777 0.040629391 0.46700001 4278862875
-0.0058773826 0.04045539 0.46500003 4278928154
-0.0043576704 0.040368386 0.46400002 4278993177
-0.0028444538 0.040281389 0.46300003 4278196736
-0.001340629 0.040281389 0.46300003 4278990359
0.00016284335 0.040194385 0.46200001 4279583779
0.0016634201 0.040194385 0.46200001 4278590224
0.0031571484 0.040107384 0.46100003 4280366120
0.0046544774 0.040107384 0.46100003 4278852881
0.0061384616 0.040020384 0.46000001 4278918674
0.0076325419 0.040020384 0.46000001 4278984467
0.0091067832 0.039933383 0.45900002 4278721295
0.010597616 0.039933383 0.45900002 4278588939
0.012088448 0.039933383 0.45900002 4278523146
0.013549698 0.039846383 0.45800003 4278786318
0.015037282 0.039846383 0.45800003 4278786318
0.016524866 0.039846383 0.45800003 4278856211
0.018012451 0.039846383 0.45800003 4279647777
0.019500036 0.039846383 0.45800003 4279516705
0.020941796 0.039759383 0.45700002 4279582496
0.022426134 0.039759383 0.45700002 4279253019
0.023805827 0.039585378 0.45500001 4278200331
0.025116963 0.039324377 0.45200002 4278198276
0.026526244 0.03923738 0.45100003 4278196736
0.027929028 0.039150376 0.45000002 4278195968
0.029325316 0.039063375 0.44900003 4278199816
0.030783672 0.039063375 0.44900003 4278595087
0.032170214 0.038976375 0.44800001 4279450910
0.033625316 0.038976375 0.44800001 4278991896
0.035080422 0.038976375 0.44800001 4279124252
0.036535528 0.038976375 0.44800001 4278795798
0.037990633 0.038976375 0.44800001 4278730005
0.039445736 0.038976375 0.44800001 4278533396
0.040992137 0.039063375 0.44900003 4278402324
0.042450495 0.039063375 0.44900003 4278468117
0.044006635 0.039150376 0.45000002 4278468117
0.045468237 0.039150376 0.45000002 4278402835
0.04703413 0.03923738 0.45100003 4278468628
0.048606511 0.039324377 0.45200002 4278468628
0.050074611 0.039324377 0.45200002 4278797593
0.051542707 0.039324377 0.45200002 4278535195
0.053010803 0.039324377 0.45200002 4279061539
0.054599427 0.039411377 0.45300001 4278995746
0.056070771 0.039411377 0.45300001 4279192355
0.057542115 0.039411377 0.45300001 4279648807
-0.034698538 0.044041973 0.48800004 4281286188
-0.033113517 0.044041973 0.48800004 4280693540
-0.031528492 0.044041973 0.48800004 4280298782
-0.029882105 0.043951724 0.48700002 4280693540
-0.028300326 0.043951724 0.48700002 4280365090
-0.026663689 0.043861475 0.48600003 4281023534
-0.025033543 0.043771222 0.48500001 4281089327
-0.023409896 0.043680973 0.48400003 4281155120
-0.021792741 0.043590721 0.48300001 4280036639
-0.020223958 0.043590721 0.48300001 4279713057
-0.01861655 0.043500472 0.48200002 4279058205
-0.017015638 0.043410223 0.48100004 4278927902
-0.01542122 0.043319974 0.48000002 4278993695
-0.013804421 0.043139473 0.47800002 4278796570
-0.012200613 0.042958971 0.47600001 4278928156
-0.010609797 0.042778477 0.47400004 4278862361
-0.0089745661 0.042327221 0.46900001 4278862361
-0.0074194777 0.042146724 0.46700001 4278928154
-0.0058773826 0.041966226 0.46500003 4278796568
-0.0043576704 0.041875973 0.46400002 4278927384
-0.0028444538 0.041785724 0.46300003 4278196224
-0.001340629 0.041785724 0.46300003 4279385887
0.00016284335 0.041695476 0.46200001 4279123228
0.0016634201 0.041695476 0.46200001 4278524429
0.0031571484 0.041605227 0.46100003 4279380508
0.0046544774 0.041605227 0.46100003 4279315482
0.0061384616 0.041514974 0.46000001 4278591759
0.0076325419 0.041514974 0.46000001 4278195717
0.0091067832 0.041424725 0.45900002 4279643934
0.010597616 0.041424725 0.45900002 4278393095
0.012088448 0.041424725 0.45900002 4278918926
0.013579281 0.041424725 0.45900002 4279708955
0.015037282 0.041334476 0.45800003 4279050514
0.016524866 0.041334476 0.45800003 4279974692
0.018012451 0.041334476 0.45800003 4279385119
0.019500036 0.041334476 0.45800003 4278793752
0.020941796 0.041244224 0.45700002 4278199817
0.022426134 0.041244224 0.45700002 4279450910
0.023805827 0.041063726 0.45500001 4279188508
0.025172532 0.040883224 0.45300001 4279254301
0.026585061 0.040792976 0.45200002 4279320094
0.027991094 0.040702727 0.45100003 4279386141
0.029455941 0.040702727 0.45100003 4279319578
0.03085223 0.040612474 0.45000002 4279582236
0.032242022 0.040522225 0.44900003 4279253271
0.033700373 0.040522225 0.44900003 4278858261
0.035158731 0.040522225 0.44900003 4278529296
0.036617082 0.040522225 0.44900003 4278197248
0.038075436 0.040522225 0.44900003 4278195456
0.039533786 0.040522225 0.44900003 4278195968
0.040992137 0.040522225 0.44900003 4278196992
0.042545035 0.040612474 0.45000002 4278660882
0.044104431 0.040702727 0.45100003 4278661396
0.045569282 0.040702727 0.45100003 4279123482
0.047138415 0.040792976 0.45200002 4279058459
0.048606511 0.040792976 0.45200002 4278533910
0.050074611 0.040792976 0.45200002 4278533910
0.051656738 0.040883224 0.45300001 4278665496
0.053128082 0.040883224 0.45300001 4278665496
0.054599427 0.040883224 0.45300001 4278600216
0.056194548 0.040973477 0.45400003 4279126560
0.05766914 0.040973477 0.45400003 4279126049
0.059143737 0.040973477 0.45400003 4280110125
-0.036357917 0.045721035 0.48900002 4279769867
-0.034769643 0.045721035 0.48900002 4279770383
-0.033181369 0.045721035 0.48900002 4279968016
-0.031593099 0.045721035 0.48900002 4279704072
-0.029943464 0.045627534 0.48800004 4279837198
-0.028300326 0.045534037 0.48700002 4281745710
-0.026663689 0.045440536 0.48600003 4283457098
-0.025033543 0.045347035 0.48500001 4283391818
-0.023409896 0.045253538 0.48400003 4282866758
-0.021792741 0.045160037 0.48300001 4279905051
-0.020182086 0.045066539 0.48200002 4280502571
-0.01861655 0.045066539 0.48200002 4279058205
-0.017015638 0.044973042 0.48100004 4278467351
-0.015389093 0.044786043 0.47900003 4278927902
-0.013775541 0.044599045 0.47700003 4278664984
-0.012174981 0.044412047 0.47500002 4278928156
-0.01056503 0.044131551 0.47200003 4278862363
-0.0089745661 0.043851051 0.46900001 4278928154
-0.0074194777 0.043664053 0.46700001 4278862363
-0.0058773826 0.043477058 0.46500003 4278993949
-0.0043576704 0.043383557 0.46400002 4278727957
-0.0028444538 0.04329006 0.46300003 4278197510
-0.001340629 0.04329006 0.46300003 4279450912
0.00016284335 0.043196559 0.46200001 4279254303
0.0016634201 0.043196559 0.46200001 4278589963
0.0031571484 0.043103062 0.46100003 4278721295
0.0046544774 0.043103062 0.46100003 4278195204
0.0061384616 0.043009561 0.46000001 4278787853
0.0076325419 0.043009561 0.46000001 4278589963
0.0091067832 0.042916063 0.45900002 4280103202
0.010597616 0.042916063 0.45900002 4278589963
0.012088448 0.042916063 0.45900002 4280037920
0.013579281 0.042916063 0.45900002 4279052822
0.015037282 0.042822566 0.45800003 4278393867
0.016524866 0.042822566 0.45800003 4279712803
0.018012451 0.042822566 0.45800003 4279254301
0.019500036 0.042822566 0.45800003 4278263558
0.020941796 0.042729065 0.45700002 4278459656
0.022426134 0.042729065 0.45700002 4278196226
0.023858149 0.042635567 0.45600003 4278265870
0.025228102 0.042448569 0.45400003 4279319072
0.026643876 0.042355068 0.45300001 4278198789
0.028053159 0.042261571 0.45200002 4278661648
0.029521253 0.042261571 0.45200002 4278198784
0.030920792 0.04216807 0.45100003 4278464269
0.032313831 0.042074572 0.45000002 4278991383
0.03377543 0.042074572 0.45000002 4278926103
0.035237033 0.042074572 0.45000002 4278926103
0.036698632 0.042074572 0.45000002 4278860310
0.038160235 0.042074572 0.45000002 4279057176
0.039621834 0.042074572 0.45000002 4279187992
0.041083433 0.042074572 0.45000002 4279122199
0.042639583 0.04216807 0.45100003 4279319578
0.044104431 0.04216807 0.45100003 4279582496
0.045670319 0.042261571 0.45200002 4279055127
0.047138415 0.042261571 0.45200002 4278197762
0.048714045 0.042355068 0.45300001 4278531861
0.050185394 0.042355068 0.45300001 4278664214
0.051656738 0.042355068 0.45300001 4278730005
0.053245366 0.042448569 0.45400003 4278927384
0.054719958 0.042448569 0.45400003 4278468117
0.056194548 0.042448569 0.45400003 4278533910
0.05766914 0.042448569 0.45400003 4278928154
0.059143737 0.042448569 0.45400003 4278532628
-0.036506619 0.047503341 0.49100003 4280953364
-0.034840744 0.047406591 0.49000001 4280888341
-0.033249225 0.047406591 0.49000001 4280822548
-0.031593099 0.047309846 0.48900002 4280822550
-0.028358439 0.047213096 0.48800004 4280888600
-0.026718551 0.047116347 0.48700002 4280428565
-0.025033543 0.046922851 0.48500001 4279837200
-0.023409896 0.046826106 0.48400003 4279113736
-0.021792741 0.046729356 0.48300001 4279311885
-0.020223958 0.046729356 0.48300001 4280305192
-0.018577926 0.046535861 0.48100004 4279124252
-0.016980261 0.046439111 0.48000002 4278862363
-0.015389093 0.046342365 0.47900003 4278664984
-0.013775541 0.046148866 0.47700003 4278862363
-0.01214935 0.045858625 0.47400004 4278928156
-0.01056503 0.045665126 0.47200003 4278796570
-0.0089745661 0.045374881 0.46900001 4278796570
-0.0074035903 0.045084637 0.46600002 4278928156
-0.0058773826 0.044987891 0.46500003 4278862363
-0.0043576704 0.044891141 0.46400002 4278663447
-0.0028444538 0.044794392 0.46300003 4278792214
-0.001340629 0.044794392 0.46300003 4279187740
0.00016284335 0.044697642 0.46200001 4279451680
0.0016634201 0.044697642 0.46200001 4278392330
0.0031571484 0.044600897 0.46100003 4278852111
0.0046544774 0.044600897 0.46100003 4278851597
0.0061384616 0.044504147 0.46000001 4278785804
0.0076325419 0.044504147 0.46000001 4278851597
0.0091067832 0.044407401 0.45900002 4278785804
0.010597616 0.044407401 0.45900002 4278654732
0.012088448 0.044407401 0.45900002 4278260744
0.013549698 0.044310652 0.45800003 4278393097
0.015037282 0.044310652 0.45800003 4278524429
0.016524866 0.044310652 0.45800003 4280042020
0.018012451 0.044310652 0.45800003 4279187738
0.019500036 0.044310652 0.45800003 4278590474
0.020941796 0.044213902 0.45700002 4278853135
0.022426134 0.044213902 0.45700002 4278196486
0.023858149 0.044117156 0.45600003 4278329867
0.025283668 0.044020407 0.45500001 4279056154
0.026702695 0.043923661 0.45400003 4278199817
0.028115222 0.043826912 0.45300001 4278198532
0.029586565 0.043826912 0.45300001 4279450396
0.030989353 0.043730162 0.45200002 4278529296
0.03238564 0.043633416 0.45100003 4278726421
0.033850487 0.043633416 0.45100003 4278661396
0.035315339 0.043633416 0.45100003 4278858773
0.036780186 0.043633416 0.45100003 4278200326
0.038245037 0.043633416 0.45100003 4278530062
0.039709885 0.043633416 0.45100003 4278925590
0.041174732 0.043633416 0.45100003 4278925590
0.042639583 0.043633416 0.45100003 4279386654
0.044202223 0.043730162 0.45200002 4278926103
0.045670319 0.043730162 0.45200002 4278926103
0.047242705 0.043826912 0.45300001 4278529294
0.048714045 0.043826912 0.45300001 4278596371
0.05029618 0.043923661 0.45400003 4278400275
0.051770773 0.043923661 0.45400003 4278795800
0.053245366 0.043923661 0.45400003 4278795800
0.054719958 0.043923661 0.45400003 4278795798
0.056194548 0.043923661 0.45400003 4278664212
0.05766914 0.043923661 0.45400003 4278796568
0.059143737 0.043923661 0.45400003 4278927386
0.06061833 0.043923661 0.45400003 4285304188
-0.038178984 0.049198646 0.49200001 4281084948
-0.036580972 0.049198646 0.49200001 4280953364
-0.034911849 0.049098648 0.49100003 4280887571
-0.033317082 0.049098648 0.49100003 4280822548
-0.031657707 0.04899865 0.49000001 4280822548
-0.030004824 0.048898656 0.48900002 4281085718
-0.028358439 0.048798658 0.48800004 4280690962
-0.026718551 0.04869866 0.48700002 4280099600
-0.025085159 0.048598666 0.48600003 4279704842
-0.023458261 0.048498664 0.48500001 4279375625
-0.021837862 0.04839867 0.48400003 4279442701
-0.020223958 0.048298672 0.48300001 4280239651
-0.018577926 0.04809868 0.48100004 4278991894
-0.016980261 0.047998678 0.48000002 4278993947
-0.015356964 0.047798686 0.47800002 4278928154
-0.013746661 0.04759869 0.47600001 4278599189
-0.01214935 0.047398698 0.47400004 4278796568
-0.010542646 0.047098704 0.47100002 4278796568
-0.0089554312 0.046798714 0.46800002 4278664982
-0.0074035903 0.046598718 0.46600002 4278796568
-0.0058773826 0.046498723 0.46500003 4278664982
-0.0043576704 0.046398722 0.46400002 4278201358
-0.0028444538 0.046298727 0.46300003 4278726421
-0.0013377335 0.046198729 0.46200001 4279056922
0.00016284335 0.046198729 0.46200001 4279058205
0.0016598196 0.046098731 0.46100003 4279582496
0.0031571484 0.046098731 0.46100003 4280305192
0.0046443804 0.045998733 0.46000001 4280237864
0.0061384616 0.045998733 0.46000001 4279579164
0.0076159495 0.045898739 0.45900002 4278920209
0.0091067832 0.045898739 0.45900002 4278590474
0.010597616 0.045898739 0.45900002 4278392584
0.012062112 0.045798741 0.45800003 4278786320
0.013549698 0.045798741 0.45800003 4278851597
0.015037282 0.045798741 0.45800003 4278588939
0.016524866 0.045798741 0.45800003 4279581471
0.018012451 0.045798741 0.45800003 4279648289
0.019457459 0.045698743 0.45700002 4279315480
0.020941796 0.045698743 0.45700002 4278657039
0.022377061 0.045598745 0.45600003 4279448348
0.023858149 0.045598745 0.45600003 4279581469
0.025283668 0.045498747 0.45500001 4278198787
0.026702695 0.045398753 0.45400003 4278923539
0.028177287 0.045398753 0.45400003 4278792468
0.029586565 0.045298751 0.45300001 4278792468
0.031057913 0.045298751 0.45300001 4278397710
0.032457449 0.045198757 0.45200002 4279713316
0.033925544 0.045198757 0.45200002 4278527246
0.035315339 0.045098759 0.45100003 4278461453
0.036780186 0.045098759 0.45100003 4279317529
0.038245037 0.045098759 0.45100003 4279318297
0.039709885 0.045098759 0.45100003 4278529294
0.041266028 0.045198757 0.45200002 4278660369
0.042734127 0.045198757 0.45200002 4279185943
0.044202223 0.045198757 0.45200002 4278726673
0.04577136 0.045298751 0.45300001 4278991896
0.047242705 0.045298751 0.45300001 4278199044
0.048821583 0.045398753 0.45400003 4279846438
0.05029618 0.045398753 0.45400003 4278795287
0.051770773 0.045398753 0.45400003 4278730007
0.053362645 0.045498747 0.45500001 4278795800
0.054840483 0.045498747 0.45500001 4278795798
0.056318324 0.045498747 0.45500001 4278664212
0.057796162 0.045498747 0.45500001 4278993179
0.059143737 0.045398753 0.45400003 4279124511
0.06061833 0.045398753 0.45400003 4284843637
-0.036655322 0.050900452 0.49300003 4281084689
-0.034982953 0.050797205 0.49200001 4280755983
-0.033384938 0.050797205 0.49200001 4280953362
-0.031722315 0.050693959 0.49100003 4280625169
-0.030066183 0.050590709 0.49000001 4280625428
-0.028474661 0.050590709 0.49000001 4280427795
-0.026773416 0.05038422 0.48800004 4280362002
-0.025136774 0.050280973 0.48700002 4279704074
-0.02350663 0.050177727 0.48600003 4279375625
-0.021928102 0.050177727 0.48600003 4279376395
-0.020307701 0.05007448 0.48500001 4278853896
-0.01861655 0.049764741 0.48200002 4279449367
-0.016980261 0.049558248 0.48000002 4278860310
-0.015356964 0.049351756 0.47800002 4279124252
-0.013746661 0.049145263 0.47600001 4278861080
-0.012123718 0.048835523 0.47300002 4278927132
-0.010542646 0.048629031 0.47100002 4278927132
-0.0089554312 0.048319291 0.46800002 4278927132
-0.0074035903 0.048112798 0.46600002 4278927132
-0.0058647431 0.047906306 0.46400002 4278795546
-0.0043576704 0.047906306 0.46400002 4278927132
-0.0028444538 0.047803063 0.46300003 4278992925
-0.0013377335 0.047699813 0.46200001 4278795033
0.00016284335 0.047699813 0.46200001 4278927132
0.0016598196 0.047596566 0.46100003 4278795546
0.0031571484 0.047596566 0.46100003 4278992925
0.0046443804 0.04749332 0.46000001 4278860826
0.0061384616 0.04749332 0.46000001 4279123998
0.0076159495 0.047390074 0.45900002 4279189021
0.0091067832 0.047390074 0.45900002 4279123228
0.010574528 0.047286831 0.45800003 4279385887
0.012062112 0.047286831 0.45800003 4279450912
0.013549698 0.047286831 0.45800003 4279713570
0.015037282 0.047286831 0.45800003 4279384092
0.016524866 0.047286831 0.45800003 4279647010
0.017973121 0.047183581 0.45700002 4278396943
0.019457459 0.047183581 0.45700002 4278198281
0.020941796 0.047183581 0.45700002 4278196740
0.022377061 0.047080338 0.45600003 4278196227
0.023858149 0.047080338 0.45600003 4278197253
0.025283668 0.046977088 0.45500001 4278330634
0.026702695 0.046873845 0.45400003 4279317529
0.028177287 0.046873845 0.45400003 4279252506
0.029586565 0.046770595 0.45300001 4279581982
0.031057913 0.046770595 0.45300001 4278990359
0.032457449 0.046667352 0.45200002 4279056152
0.033925544 0.046667352 0.45200002 4279056154
0.03539364 0.046667352 0.45200002 4279319324
0.036861736 0.046667352 0.45200002 4279450396
0.038329836 0.046667352 0.45200002 4278331917
0.039797932 0.046667352 0.45200002 4278397710
0.041266028 0.046667352 0.45200002 4279186713
0.042828668 0.046770595 0.45300001 4278791701
0.044300012 0.046770595 0.45300001 4278462990
0.04577136 0.046770595 0.45300001 4279057176
0.047346994 0.046873845 0.45400003 4278198273
0.048821583 0.046873845 0.45400003 4279714852
0.05029618 0.046873845 0.45400003 4278991896
0.051884804 0.046977088 0.45500001 4278598421
0.053362645 0.046977088 0.45500001 4278795800
0.054840483 0.046977088 0.45500001 4278927386
0.056318324 0.046977088 0.45500001 4278795800
0.057796162 0.046977088 0.45500001 4278993179
0.059274007 0.046977088 0.45500001 4279518756
0.060751848 0.046977088 0.45500001 4282936925
-0.036729675 0.052608754 0.49400002 4281019407
-0.028532773 0.052289266 0.49100003 4280362256
-0.026883142 0.052182771 0.49000001 4280230670
-0.025240006 0.052076276 0.48900002 4279769865
-0.023603365 0.051969782 0.48800004 4279573258
-0.022018339 0.051969782 0.48800004 4279507211
-0.020391444 0.051863287 0.48700002 4279442701
-0.018655173 0.051437303 0.48300001 4279377678
-0.017015638 0.051224314 0.48100004 4279445520
-0.015389093 0.051011324 0.47900003 4282144831
-0.013746661 0.050691836 0.47600001 4279515937
-0.010542646 0.050159357 0.47100002 4279385635
-0.0089554312 0.049839873 0.46800002 4279517221
-0.0073877033 0.049520388 0.46500003 4279649061
-0.0058647431 0.04941389 0.46400002 4279649061
-0.004348279 0.049307395 0.46300003 4279715367
-0.0028444538 0.049307395 0.46300003 4279386400
-0.0013377335 0.0492009 0.46200001 4279189791
0.00016249088 0.049094405 0.46100003 4278927134
0.0016598196 0.049094405 0.46100003 4278598169
0.0031502999 0.048987906 0.46000001 4278795548
0.0046443804 0.048987906 0.46000001 4278598167
0.0061251172 0.048881412 0.45900002 4278927132
0.0076159495 0.048881412 0.45900002 4278927132
0.0090869423 0.04877492 0.45800003 4278927132
0.010574528 0.04877492 0.45800003 4278992925
0.012062112 0.04877492 0.45800003 4278729753
0.013549698 0.04877492 0.45800003 4278927132
0.01500445 0.048668422 0.45700002 4278795033
0.016488785 0.048668422 0.45700002 4278992412
0.017973121 0.048668422 0.45700002 4279058205
0.019457459 0.048668422 0.45700002 4278729240
0.020895973 0.048561927 0.45600003 4278992412
0.022377061 0.048561927 0.45600003 4279123228
0.023805827 0.048455428 0.45500001 4279254301
0.025283668 0.048455428 0.45500001 4279319324
0.026702695 0.048348937 0.45400003 4279385117
0.028177287 0.048348937 0.45400003 4279253017
0.029586565 0.048242439 0.45300001 4278660369
0.031057913 0.048242439 0.45300001 4278199564
0.032529257 0.048242439 0.45300001 4278195456
0.033925544 0.048135944 0.45200002 4278196224
0.03539364 0.048135944 0.45200002 4278196738
0.036861736 0.048135944 0.45200002 4278594576
0.038329836 0.048135944 0.45200002 4279055640
0.039797932 0.048135944 0.45200002 4279055640
0.041357324 0.048242439 0.45300001 4279385119
0.042828668 0.048242439 0.45300001 4279121945
0.044300012 0.048242439 0.45300001 4279319578
0.045872401 0.048348937 0.45400003 4278728211
0.047346994 0.048348937 0.45400003 4278196736
0.048821583 0.048348937 0.45400003 4279056922
0.050406963 0.048455428 0.45500001 4278861080
0.051884804 0.048455428 0.45500001 4278730007
0.053479929 0.048561927 0.45600003 4278795800
0.054961015 0.048561927 0.45600003 4278795800
0.056442104 0.048561927 0.45600003 4278795800
0.057796162 0.048455428 0.45500001 4278927386
0.059274007 0.048455428 0.45500001 4279321377
0.060751848 0.048455428 0.45500001 4283989100
-0.028590884 0.05399432 0.49200001 4280427790
-0.026992869 0.05399432 0.49200001 4280164623
-0.025343237 0.053884577 0.49100003 4279769865
-0.023748469 0.053884577 0.49100003 4279375879
-0.022153698 0.053884577 0.49100003 4279573258
-0.020558931 0.053884577 0.49100003 4279507981
-0.019118655 0.054323554 0.49500003 4279508494
-0.0073877033 0.051031221 0.46500003 4284711022
-0.0058647431 0.050921474 0.46400002 4283527518
-0.004348279 0.05081173 0.46300003 4281290815
-0.0028383103 0.050701983 0.46200001 4279843619
-0.0013377335 0.050701983 0.46200001 4279186459
0.00016249088 0.05059224 0.46100003 4279121179
0.0016598196 0.05059224 0.46100003 4279516453
0.0031502999 0.050482493 0.46000001 4279648039
0.0046443804 0.050482493 0.46000001 4279649320
0.0061251172 0.05037275 0.45900002 4279451941
0.0076159495 0.05037275 0.45900002 4279320355
0.0090869423 0.050263006 0.45800003 4279452195
0.010574528 0.050263006 0.45800003 4279386400
0.012062112 0.050263006 0.45800003 4279320607
0.013520112 0.050153259 0.45700002 4278992412
0.01500445 0.050153259 0.45700002 4278860826
0.016488785 0.050153259 0.45700002 4278860826
0.017973121 0.050153259 0.45700002 4279058205
0.019414883 0.050043516 0.45600003 4278795546
0.020895973 0.050043516 0.45600003 4278795546
0.022377061 0.050043516 0.45600003 4278598937
0.023805827 0.049933773 0.45500001 4278663960
0.025283668 0.049933773 0.45500001 4278795033
0.026702695 0.049824029 0.45400003 4278729240
0.028177287 0.049824029 0.45400003 4278597654
0.029586565 0.049714282 0.45300001 4278860826
0.031057913 0.049714282 0.45300001 4278925849
0.032529257 0.049714282 0.45300001 4279056922
0.033925544 0.049604539 0.45200002 4279121945
0.03539364 0.049604539 0.45200002 4279319324
0.036861736 0.049604539 0.45200002 4279581982
0.038329836 0.049604539 0.45200002 4279318810
0.039885979 0.049714282 0.45300001 4278791955
0.041357324 0.049714282 0.45300001 4278396943
0.042828668 0.049714282 0.45300001 4278195968
0.044397809 0.049824029 0.45400003 4278195200
0.045872401 0.049824029 0.45400003 4278195968
0.047346994 0.049824029 0.45400003 4278331150
0.048929121 0.049933773 0.45500001 4278992412
0.050406963 0.049933773 0.45500001 4278861080
0.051998835 0.050043516 0.45600003 4278795800
0.053479929 0.050043516 0.45600003 4278927386
0.054961015 0.050043516 0.45600003 4278993179
0.056442104 0.050043516 0.45600003 4278795800
0.05792319 0.050043516 0.45600003 4278927132
0.059274007 0.049933773 0.45500001 4278465300
0.060751848 0.049933773 0.45500001 4286027398
-0.028648997 0.055705871 0.49300003 4280493585
-0.027047733 0.055705871 0.49300003 4280361745
-0.025446469 0.055705871 0.49300003 4280164366
-0.023845203 0.055705871 0.49300003 4279769865
-0.022243937 0.055705871 0.49300003 4279573258
-0.020684546 0.055818867 0.49400002 4279573774
-0.019195903 0.056157846 0.49700001 4279639567
-0.017687771 0.056496825 0.5 4280034325
-0.016128026 0.056722816 0.50200003 4279904024
0.0046342839 0.051864088 0.45900002 4284185448
0.0061251172 0.051864088 0.45900002 4282146378
0.0076159495 0.051864088 0.45900002 4280106793
0.0090869423 0.051751096 0.45800003 4279055386
0.010574528 0.051751096 0.45800003 4278859041
0.012035775 0.0516381 0.45700002 4279451178
0.013520112 0.0516381 0.45700002 4279517223
0.01500445 0.0516381 0.45700002 4279648807
0.016488785 0.0516381 0.45700002 4279452711
0.017933793 0.051525109 0.45600003 4279518758
0.019414883 0.051525109 0.45600003 4279452963
0.020895973 0.051525109 0.45600003 4279189791
0.022327987 0.051412113 0.45500001 4279123998
0.023805827 0.051412113 0.45500001 4278860826
0.025228102 0.051299121 0.45400003 4278992412
0.026702695 0.051299121 0.45400003 4278860826
0.028115222 0.051186126 0.45300001 4278992412
0.029586565 0.051186126 0.45300001 4278860826
0.031057913 0.051186126 0.45300001 4278795033
0.032457449 0.051073134 0.45200002 4278795033
0.033925544 0.051073134 0.45200002 4278663447
0.03539364 0.051073134 0.45200002 4278860826
0.036861736 0.051073134 0.45200002 4278860826
0.038414635 0.051186126 0.45300001 4278992412
0.039885979 0.051186126 0.45300001 4278992412
0.041357324 0.051186126 0.45300001 4278795033
0.042828668 0.051186126 0.45300001 4279188508
0.044397809 0.051299121 0.45400003 4278925336
0.045872401 0.051299121 0.45400003 4279121945
0.047346994 0.051299121 0.45400003 4279056922
0.048929121 0.051412113 0.45500001 4279058459
0.050406963 0.051412113 0.45500001 4278992666
0.051998835 0.051525109 0.45600003 4278730007
0.053479929 0.051525109 0.45600003 4278993179
0.055081543 0.0516381 0.45700002 4278993179
0.056565877 0.0516381 0.45700002 4278927386
0.05792319 0.051525109 0.45600003 4279124000
0.05940428 0.051525109 0.45600003 4281094973
-0.028707108 0.057423919 0.49400002 4280427790
-0.027102597 0.057423919 0.49400002 4280164366
-0.025498083 0.057423919 0.49400002 4279901196
-0.023893571 0.057423919 0.49400002 4279704844
-0.022334177 0.057540167 0.49500003 4279704590
-0.020768289 0.057656407 0.49600002 4279638797
-0.019234527 0.057888892 0.49800003 4279573774
-0.017723149 0.058237623 0.50100005 4279639567
-0.016160153 0.058470108 0.50300002 4279442192
0.016452705 0.053006697 0.45600003 4283987817
0.017933793 0.053006697 0.45600003 4281619782
0.019414883 0.053006697 0.45600003 4280173106
0.020895973 0.053006697 0.45600003 4279120929
0.022327987 0.052890453 0.45500001 4279055904
0.023805827 0.052890453 0.45500001 4278990111
0.025228102 0.052774213 0.45400003 4279187488
0.026702695 0.052774213 0.45400003 4279516453
0.028115222 0.052657969 0.45300001 4279451428
0.029586565 0.052657969 0.45300001 4279451682
0.031057913 0.052657969 0.45300001 4279385887
0.032457449 0.052541725 0.45200002 4279451680
0.033925544 0.052541725 0.45200002 4279385887
0.03539364 0.052541725 0.45200002 4279451680
0.036861736 0.052541725 0.45200002 4279255584
0.038414635 0.052657969 0.45300001 4279189793
0.039885979 0.052657969 0.45300001 4279255586
0.041357324 0.052657969 0.45300001 4279124000
0.042923216 0.052774213 0.45400003 4279452965
0.044397809 0.052774213 0.45400003 4279189793
0.045872401 0.052774213 0.45400003 4279123998
0.04745128 0.052890453 0.45500001 4279058205
0.048929121 0.052890453 0.45500001 4279189275
0.050517749 0.053006697 0.45600003 4279124252
0.051998835 0.053006697 0.45600003 4279058459
0.053597208 0.053122938 0.45700002 4279058205
0.055081543 0.053122938 0.45700002 4279058205
0.056565877 0.053122938 0.45700002 4279321377
0.058050212 0.053122938 0.45700002 4279120670
-0.02876522 0.059148472 0.49500003 4280164620
-0.027157461 0.059148472 0.49500003 4280032782
-0.0255497 0.059148472 0.49500003 4279966735
-0.023990305 0.05926796 0.49600002 4279770383
-0.022379296 0.05926796 0.49600002 4279573006
-0.020810159 0.059387453 0.49700001 4279442190
-0.019273149 0.059626438 0.49900001 4279507983
-0.017758524 0.059984915 0.50200003 4279639569
-0.016192282 0.060223896 0.50400001 4279179020
0.028115222 0.054129809 0.45300001 4284185448
0.029586565 0.054129809 0.45300001 4283460953
0.030989353 0.05401032 0.45200002 4282343755
0.032457449 0.05401032 0.45200002 4281291067
0.033925544 0.05401032 0.45200002 4280897081
0.03539364 0.05401032 0.45200002 4280436530
0.036861736 0.05401032 0.45200002 4279976238
0.038414635 0.054129809 0.45300001 4279713066
0.039885979 0.054129809 0.45300001 4279187490
0.041357324 0.054129809 0.45300001 4278990109
0.042923216 0.054249305 0.45400003 4279121179
0.044397809 0.054249305 0.45400003 4279515424
0.045872401 0.054249305 0.45400003 4279186972
0.04745128 0.054368794 0.45500001 4279450144
0.048929121 0.054368794 0.45500001 4279582244
0.050517749 0.05448829 0.45600003 4279384865
0.051998835 0.05448829 0.45600003 4279385889
0.053597208 0.054607779 0.45700002 4279254303
0.055081543 0.054607779 0.45700002 4278726935
0.056565877 0.054607779 0.45700002 4281356608
-0.027212324 0.060879517 0.49600002 4279835149
-0.025601314 0.060879517 0.49600002 4279835406
-0.024038672 0.061002254 0.49700001 4279704590
-0.022424415 0.061002254 0.49700001 4279704590
-0.020893903 0.061247736 0.49900001 4279638799
-0.019350398 0.061493225 0.50100005 4279573006
-0.017793899 0.061738703 0.50300002 4279573776
-0.016224409 0.061984181 0.505 4278850568
-0.028881442 0.062617064 0.49700001 4280295952
-0.027267186 0.062617064 0.49700001 4279966992
-0.02565293 0.062617064 0.49700001 4279638797
-0.02408704 0.062743053 0.49800003 4279704592
-0.022514654 0.062869042 0.49900001 4279638799
-0.020935774 0.062995031 0.5 4279638799
-0.01938902 0.063247018 0.50200003 4279770385
-0.017829275 0.063498996 0.50400001 4279836178
-0.016256537 0.063750975 0.50600004 4278981641
-0.028881442 0.064231865 0.49700001 4280032780
-0.02732205 0.064361103 0.49800003 4279901199
-0.025704546 0.064361103 0.49800003 4279638799
-0.024135407 0.064490341 0.49900001 4279770385
-0.022559773 0.064619578 0.5 4279704592
-0.021019518 0.064878061 0.50200003 4279704592
-0.019427644 0.065007299 0.50300002 4279705362
-0.017864648 0.065265775 0.505 4279836948
-0.016288664 0.065524258 0.50700003 4280034329
-0.028939554 0.06597916 0.49800003 4280033034
-0.027376914 0.066111647 0.49900001 4279836176
-0.02575616 0.066111647 0.49900001 4279704590
-0.024183774 0.066244133 0.5 4279573004
-0.022650015 0.066509113 0.50200003 4279638797
-0.021061389 0.066641599 0.50300002 4279704590
-0.01950489 0.066906571 0.505 4279836176
-0.017935401 0.067171551 0.50700003 4279705362
-0.028997665 0.067732945 0.49900001 4280164620
-0.027431777 0.06786868 0.5 4279770637
-0.025859393 0.068004422 0.50100005 4279704844
-0.024280511 0.068140157 0.50200003 4279638797
-0.022740252 0.068411633 0.50400001 4279770383
-0.021145131 0.068547368 0.505 4279704590
-0.019582139 0.068818845 0.50700003 4279967764
-0.018006152 0.069090314 0.509 4280099350
-0.04883505 0.069910198 0.50300002 4279639569
-0.029113891 0.069632225 0.50100005 4280164366
-0.027541505 0.069771215 0.50200003 4279639051
-0.025962623 0.069910198 0.50300002 4279638797
-0.024377245 0.070049182 0.50400001 4279770385
-0.022830492 0.070327155 0.50600004 4279770385
-0.021270746 0.070605129 0.50800002 4279902741
-0.019698011 0.070883103 0.51000005 4279968534
-0.047201306 0.071544498 0.50300002 4279573526
-0.045476973 0.071402267 0.50200003 4279376399
-0.043846473 0.071402267 0.50200003 4279244041
-0.042131882 0.071260028 0.50100005 4279244041
-0.040504631 0.071260028 0.50100005 4279639051
-0.038877383 0.071260028 0.50100005 4279310086
-0.037250139 0.071260028 0.50100005 4279968016
-0.035622887 0.071260028 0.50100005 4279770637
-0.03399564 0.071260028 0.50100005 4280033807
-0.032368392 0.071260028 0.50100005 4279770635
-0.030802498 0.071402267 0.50200003 4279638279
-0.029172001 0.071402267 0.50200003 4279835660
-0.027596369 0.071544498 0.50300002 4279638027
-0.026065852 0.071828969 0.505 4279638797
-0.024473982 0.071971208 0.50600004 4279704592
-0.02292073 0.072255678 0.50800002 4279704592
-0.045567561 0.073178791 0.50300002 4279640602
-0.043846473 0.07303331 0.50200003 4279443221
-0.042215977 0.07303331 0.50200003 4279509014
-0.040585477 0.07303331 0.50200003 4279772186
-0.038954984 0.07303331 0.50200003 4280298530
-0.037324488 0.07303331 0.50200003 4279574037
-0.035693988 0.07303331 0.50200003 4279442451
-0.034063492 0.07303331 0.50200003 4279442192
-0.032432999 0.07303331 0.50200003 4279376399
-0.030863857 0.073178791 0.50300002 4279507215
-0.029288223 0.073324278 0.50400001 4279507215
-0.027706094 0.073469758 0.505 4279179020
-0.026169086 0.073760733 0.50700003 4279244559
-0.024570715 0.073906213 0.50800002 4279442192
-0.035765093 0.074813098 0.50300002 4279640862
-0.034131348 0.074813098 0.50300002 4279509016
-0.032562211 0.074961826 0.50400001 4279245844
-0.030925216 0.074961826 0.50400001 4279113488
-0.029346334 0.075110555 0.505 4279047693
-0.027815823 0.075408034 0.50700003 4279244559
-0.026220702 0.075556763 0.50800002 4279178766
-0.024667453 0.075854234 0.51000005 4279376658
-0.032562211 0.076599367 0.50400001 4279641376
-0.029404448 0.076903343 0.50600004 4279509016
-0.027815823 0.07705532 0.50700003 4279443223
-0.026272316 0.077359281 0.509 4279311637
0.0053318976 0.04652499 0.47046438 4294967295
0.0053318976 0.04652499 0.47046438 4294901760
0.0053318976 0.04652499 0.47096437 4294901760
0.0053318976 0.04652499 0.47146437 4294901760
0.0053318976 0.04652499 0.47196439 4294901760
0.0053318976 0.04652499 0.47246438 4294901760
0.0053318976 0.04652499 0.47296438 4294901760
0.0053318976 0.04652499 0.47346437 4294901760
0.0053318976 0.04652499 0.47396436 4294901760
0.0053318976 0.04652499 0.47446439 4294901760
0.0053318976 0.04652499 0.47496438 4294901760
0.0053318976 0.04652499 0.47546437 4294901760
0.0053318976 0.04652499 0.47596437 4294901760
0.0053318976 0.04652499 0.47646439 4294901760
0.0053318976 0.04652499 0.47696438 4294901760
0.0053318976 0.04652499 0.47746438 4294901760
0.0053318976 0.04652499 0.47796437 4294901760
0.0053318976 0.04652499 0.47846437 4294901760
0.0053318976 0.04652499 0.47896439 4294901760
0.0053318976 0.04652499 0.47946438 4294901760
0.0053318976 0.04652499 0.47996438 4294901760
0.0053318976 0.04652499 0.48046437 4294901760
0.0053318976 0.04652499 0.48096436 4294901760
0.0053318976 0.04652499 0.48146439 4294901760
0.0053318976 0.04652499 0.48196438 4294901760
0.0053318976 0.04652499 0.48246437 4294901760
0.0053318976 0.04652499 0.48296437 4294901760
0.0053318976 0.04652499 0.48346436 4294901760
0.0053318976 0.04652499 0.48396438 4294901760
0.0053318976 0.04652499 0.48446438 4294901760
0.0053318976 0.04652499 0.48496437 4294901760
0.0053318976 0.04652499 0.48546436 4294901760
0.0053318976 0.04652499 0.48596436 4294901760
0.0053318976 0.04652499 0.48646438 4294901760
0.0053318976 0.04652499 0.48696437 4294901760
0.0053318976 0.04652499 0.48746437 4294901760
0.0053318976 0.04652499 0.48796436 4294901760
0.0053318976 0.04652499 0.48846439 4294901760
0.0053318976 0.04652499 0.48896438 4294901760
0.0053318976 0.04652499 0.48946437 4294901760
0.0053318976 0.04652499 0.48996437 4294901760
0.0053318976 0.04652499 0.49046436 4294901760
0.0053318976 0.04652499 0.49096438 4294901760
0.0053318976 0.04652499 0.49146438 4294901760
0.0053318976 0.04652499 0.49196437 4294901760
0.0053318976 0.04652499 0.49246436 4294901760
0.0053318976 0.04652499 0.49296436 4294901760
0.0053318976 0.04652499 0.49346438 4294901760
0.0053318976 0.04652499 0.49396437 4294901760
0.0053318976 0.04652499 0.49446437 4294901760
0.0053318976 0.04652499 0.49496436 4294901760
0.0053318976 0.04652499 0.49546438 4294901760
0.0053318976 0.04652499 0.49596438 4294901760
0.0053318976 0.04652499 0.49646437 4294901760
0.0053318976 0.04652499 0.49696437 4294901760
0.0053318976 0.04652499 0.49746436 4294901760
0.0053318976 0.04652499 0.49796438 4294901760
0.0053318976 0.04652499 0.49846438 4294901760
0.0053318976 0.04652499 0.49896437 4294901760
0.0053318976 0.04652499 0.49946436 4294901760
0.0053318976 0.04652499 0.49996436 4294901760
0.0053318976 0.04652499 0.50046438 4294901760
0.0053318976 0.04652499 0.50096434 4294901760
0.0053318976 0.04652499 0.50146437 4294901760
0.0053318976 0.04652499 0.50196439 4294901760
0.0053318976 0.04652499 0.50246435 4294901760
0.0053318976 0.04652499 0.50296438 4294901760
0.0053318976 0.04652499 0.50346434 4294901760
0.0053318976 0.04652499 0.50396436 4294901760
0.0053318976 0.04652499 0.50446439 4294901760
0.0053318976 0.04652499 0.50496435 4294901760
0.0053318976 0.04652499 0.50546438 4294901760
0.0053318976 0.04652499 0.50596434 4294901760
0.0053318976 0.04652499 0.50646436 4294901760
0.0053318976 0.04652499 0.50696439 4294901760
0.0053318976 0.04652499 0.50746435 4294901760
0.0053318976 0.04652499 0.50796437 4294901760
0.0053318976 0.04652499 0.50846434 4294901760
0.0053318976 0.04652499 0.50896436 4294901760
0.0053318976 0.04652499 0.50946438 4294901760
0.0053318976 0.04652499 0.50996435 4294901760
0.0053318976 0.04652499 0.51046437 4294901760
0.0053318976 0.04652499 0.51096439 4294901760
0.0053318976 0.04652499 0.51146436 4294901760
0.0053318976 0.04652499 0.51196438 4294901760
0.0053318976 0.04652499 0.51246434 4294901760
0.0053318976 0.04652499 0.51296437 4294901760
0.0053318976 0.04652499 0.51346439 4294901760
0.0053318976 0.04652499 0.51396435 4294901760
0.0053318976 0.04652499 0.51446438 4294901760
0.0053318976 0.04652499 0.51496434 4294901760
0.0053318976 0.04652499 0.51546437 4294901760
0.0053318976 0.04652499 0.51596439 4294901760
0.0053318976 0.04652499 0.51646435 4294901760
0.0053318976 0.04652499 0.51696438 4294901760
0.0053318976 0.04652499 0.51746434 4294901760
0.0053318976 0.04652499 0.51796436 4294901760
0.0053318976 0.04652499 0.51846439 4294901760
0.0053318976 0.04652499 0.51896435 4294901760
0.0053318976 0.04652499 0.51946437 4294901760
0.0053318976 0.04652499 0.51996434 4294901760
0.0053318976 0.04652499 0.52046436 4294901760
0.0053318976 0.04652499 0.47046438 4278255360
0.0054645767 0.04656446 0.47094482 4278255360
0.0055972557 0.046603929 0.47142529 4278255360
0.0057299347 0.046643395 0.47190574 4278255360
0.0058626137 0.046682864 0.47238621 4278255360
0.0059952927 0.046722334 0.47286665 4278255360
0.0061279717 0.046761803 0.47334713 4278255360
0.0062606507 0.046801269 0.47382757 4278255360
0.0063933297 0.046840739 0.47430804 4278255360
0.0065260092 0.046880208 0.47478849 4278255360
0.0066586882 0.046919677 0.47526896 4278255360
0.0067913672 0.046959143 0.4757494 4278255360
0.0069240462 0.046998613 0.47622985 4278255360
0.0070567252 0.047038082 0.47671032 4278255360
0.0071894042 0.047077551 0.47719076 4278255360
0.0073220832 0.047117017 0.47767124 4278255360
0.0074547622 0.047156487 0.47815168 4278255360
0.0075874412 0.047195956 0.47863215 4278255360
0.0077201203 0.047235426 0.4791126 4278255360
0.0078527993 0.047274891 0.47959307 4278255360
0.0079854783 0.047314361 0.48007351 4278255360
0.0081181573 0.04735383 0.48055395 4278255360
0.0082508363 0.0473933 0.48103443 4278255360
0.0083835153 0.047432765 0.48151487 4278255360
0.0085161943 0.047472235 0.48199534 4278255360
0.0086488733 0.047511704 0.48247579 4278255360
0.0087815523 0.047551174 0.48295626 4278255360
0.0089142313 0.047590643 0.4834367 4278255360
0.0090469103 0.047630109 0.48391718 4278255360
0.0091795893 0.047669578 0.48439762 4278255360
0.0093122683 0.047709048 0.48487809 4278255360
0.0094449474 0.047748517 0.48535854 4278255360
0.0095776264 0.047787983 0.48583898 4278255360
0.0097103063 0.047827452 0.48631945 4278255360
0.0098429844 0.047866922 0.4867999 4278255360
0.0099756634 0.047906391 0.48728037 4278255360
0.010108342 0.047945857 0.48776081 4278255360
0.010241022 0.047985326 0.48824129 4278255360
0.0103737 0.048024796 0.48872173 4278255360
0.010506379 0.048064265 0.4892022 4278255360
0.010639058 0.048103731 0.48968264 4278255360
0.010771738 0.048143201 0.49016309 4278255360
0.010904416 0.04818267 0.49064356 4278255360
0.011037096 0.048222139 0.491124 4278255360
0.011169774 0.048261605 0.49160448 4278255360
0.011302453 0.048301075 0.49208492 4278255360
0.011435132 0.048340544 0.49256539 4278255360
0.011567812 0.048380014 0.49304584 4278255360
0.01170049 0.048419479 0.49352631 4278255360
0.01183317 0.048458949 0.49400675 4278255360
0.011965849 0.048498418 0.49448723 4278255360
0.012098528 0.048537888 0.49496767 4278255360
0.012231207 0.048577353 0.49544811 4278255360
0.012363886 0.048616823 0.49592859 4278255360
0.012496565 0.048656292 0.49640903 4278255360
0.012629244 0.048695762 0.4968895 4278255360
0.012761923 0.048735231 0.49736995 4278255360
0.012894602 0.048774697 0.49785042 4278255360
0.013027281 0.048814166 0.49833086 4278255360
0.013159961 0.048853636 0.4988113 4278255360
0.01329264 0.048893105 0.49929178 4278255360
0.013425319 0.048932571 0.49977225 4278255360
0.013557997 0.04897204 0.50025266 4278255360
0.013690677 0.04901151 0.50073314 4278255360
0.013823355 0.049050979 0.50121361 4278255360
0.013956035 0.049090445 0.50169408 4278255360
0.014088714 0.049129914 0.5021745 4278255360
0.014221393 0.049169384 0.50265497 4278255360
0.014354071 0.049208853 0.50313544 4278255360
0.014486751 0.049248319 0.50361586 4278255360
0.014619429 0.049287789 0.50409633 4278255360
