# .PCD v0.7 - Point Cloud Data file format
VERSION 0.7
FIELDS x y z rgb
SIZE 4 4 4 4
TYPE F F F U
COUNT 1 1 1 1
WIDTH 907
HEIGHT 1
VIEWPOINT 0 0 0 1 0 0 0
POINTS 907
DATA ascii
-0.046630234 0.0088075176 0.40000001 4281352495
-0.045217704 0.0087854993 0.39900002 4281549874
-0.042518973 0.0087634809 0.39800003 4281155116
-0.038640857 0.0087634809 0.39800003 4280436262
-0.037348151 0.0087634809 0.39800003 4279261224
-0.036055449 0.0087634809 0.39800003 4279525679
-0.034850083 0.0087854993 0.39900002 4279591472
-0.033554133 0.0087854993 0.39900002 4280118586
-0.050654158 0.010132426 0.40100002 4280826923
-0.049351711 0.010132426 0.40100002 4281549876
-0.046746813 0.010132426 0.40100002 4281549874
-0.045331031 0.010107159 0.40000001 4281155116
-0.042625804 0.010081891 0.39900002 4281023532
-0.041226264 0.010056623 0.39800003 4281615669
-0.039933562 0.010056623 0.39800003 4281352749
-0.038640857 0.010056623 0.39800003 4280828710
-0.037348151 0.010056623 0.39800003 4279456295
-0.036055449 0.010056623 0.39800003 4279261224
-0.034850083 0.010081891 0.39900002 4278998822
-0.033554133 0.010081891 0.39900002 4279130921
-0.032419875 0.010132426 0.40100002 4278933796
-0.031195026 0.010157694 0.40200001 4280250426
-0.029963681 0.010182963 0.40300003 4283735922
-0.028654736 0.010182963 0.40300003 4280381762
-0.027413648 0.01020823 0.40400001 4280382789
-0.026166065 0.010233498 0.40500003 4280120387
-0.024850622 0.010233498 0.40500003 4279988031
-0.023593292 0.010258766 0.40600002 4280447555
-0.022274604 0.010258766 0.40600002 4280314686
-0.020955915 0.010258766 0.40600002 4280708674
-0.019637225 0.010258766 0.40600002 4280576834
-0.018318536 0.010258766 0.40600002 4280182078
-0.01699985 0.010258766 0.40600002 4280773440
-0.015681161 0.010258766 0.40600002 4280641084
-0.050906796 0.011492351 0.40300003 4281287474
-0.049597852 0.011492351 0.40300003 4281155890
-0.04816908 0.011463834 0.40200001 4281287472
-0.046863385 0.011463834 0.40200001 4281089323
-0.045444362 0.011435317 0.40100002 4281023530
-0.041226264 0.011349767 0.39800003 4281022757
-0.039933562 0.011349767 0.39800003 4281418542
-0.038640857 0.011349767 0.39800003 4280630561
-0.037348151 0.011349767 0.39800003 4279913766
-0.036055449 0.011349767 0.39800003 4279061537
-0.034850083 0.011378283 0.39900002 4278931748
-0.033638228 0.0114068 0.40000001 4279195433
-0.032419875 0.011435317 0.40100002 4279065128
-0.031195026 0.011463834 0.40200001 4278802726
-0.029963681 0.011492351 0.40300003 4278607398
-0.028654736 0.011492351 0.40300003 4279463220
-0.027413648 0.011520868 0.40400001 4280318275
-0.026166065 0.011549385 0.40500003 4279200564
-0.024911981 0.011577902 0.40600002 4279396914
-0.023593292 0.011577902 0.40600002 4279593523
-0.022329466 0.011606419 0.40700001 4279461937
-0.02100753 0.011606419 0.40700001 4279658803
-0.019685593 0.011606419 0.40700001 4279592756
-0.018363656 0.011606419 0.40700001 4279659062
-0.01704172 0.011606419 0.40700001 4279461683
-0.015681161 0.011577902 0.40600002 4279461937
-0.014362471 0.011577902 0.40600002 4279855666
-0.053790316 0.012865272 0.40500003 4282731054
-0.051033117 0.012833506 0.40400001 4281353517
-0.049720924 0.012833506 0.40400001 4281287472
-0.048288908 0.012801739 0.40300003 4280958509
-0.046979964 0.012801739 0.40300003 4280958509
-0.045444362 0.012738207 0.40100002 4281024300
-0.041226264 0.01264291 0.39800003 4281351204
-0.039933562 0.01264291 0.39800003 4281351974
-0.038640857 0.01264291 0.39800003 4280235549
-0.037348151 0.01264291 0.39800003 4279650594
-0.036055449 0.01264291 0.39800003 4279257633
-0.034850083 0.012674675 0.39900002 4278996257
-0.033638228 0.012706441 0.40000001 4279194406
-0.032419875 0.012738207 0.40100002 4278933029
-0.031195026 0.012769973 0.40200001 4279329070
-0.029963681 0.012801739 0.40300003 4279132718
-0.028654736 0.012801739 0.40300003 4279067695
-0.027413648 0.012833506 0.40400001 4279397427
-0.026166065 0.012865272 0.40500003 4278871081
-0.024911981 0.012897038 0.40600002 4278870568
-0.023651402 0.012928803 0.40700001 4279593521
-0.022329466 0.012928803 0.40700001 4279659314
-0.02100753 0.012928803 0.40700001 4279264556
-0.019733962 0.01296057 0.40800002 4279331121
-0.018408775 0.01296057 0.40800002 4279265328
-0.017083593 0.01296057 0.40800002 4279528500
-0.015719783 0.012928803 0.40700001 4279133742
-0.014362471 0.012897038 0.40600002 4279527728
-0.01307591 0.012928803 0.40700001 4278804005
-0.011753973 0.012928803 0.40700001 4279527730
-0.010457668 0.01296057 0.40800002 4279527476
-0.009132484 0.01296057 0.40800002 4279395892
-0.0078264335 0.012992335 0.40900001 4279395892
-0.053790316 0.014181159 0.40500003 4282665513
-0.052345309 0.014146143 0.40400001 4281943076
-0.051033117 0.014146143 0.40400001 4281220647
-0.049720924 0.014146143 0.40400001 4280826921
-0.048288908 0.014111128 0.40300003 4280761130
-0.046979964 0.014111128 0.40300003 4280826923
-0.045444362 0.014041097 0.40100002 4280563749
-0.041226264 0.013936052 0.39800003 4281022239
-0.039933562 0.013936052 0.39800003 4281089575
-0.038640857 0.013936052 0.39800003 4280302625
-0.037348151 0.013936052 0.39800003 4279322914
-0.036055449 0.013936052 0.39800003 4279258146
-0.034850083 0.013971067 0.39900002 4279325222
-0.033638228 0.014006081 0.40000001 4279129127
-0.032419875 0.014041097 0.40100002 4279130408
-0.031195026 0.014076112 0.40200001 4279000105
-0.029963681 0.014111128 0.40300003 4279066666
-0.028654736 0.014111128 0.40300003 4279264043
-0.027413648 0.014146143 0.40400001 4279461935
-0.026166065 0.014181159 0.40500003 4279067177
-0.024911981 0.014216173 0.40600002 4279132972
-0.023651402 0.014251187 0.40700001 4278936363
-0.022384331 0.014286203 0.40800002 4278737447
-0.021059146 0.014286203 0.40800002 4279000105
-0.019782327 0.014321218 0.40900001 4279132970
-0.018453894 0.014321218 0.40900001 4279067177
-0.017125463 0.014321218 0.40900001 4278344224
-0.015719783 0.014251187 0.40700001 4279002154
-0.014397847 0.014251187 0.40700001 4278277661
-0.01307591 0.014251187 0.40700001 4279198763
-0.011782853 0.014286203 0.40800002 4278804007
-0.010457668 0.014286203 0.40800002 4279527730
-0.009132484 0.014286203 0.40800002 4279461683
-0.0078264335 0.014321218 0.40900001 4279922234
-0.05392313 0.015535308 0.40600002 4282468902
-0.052345309 0.015458779 0.40400001 4282272808
-0.051033117 0.015458779 0.40400001 4280957475
-0.049720924 0.015458779 0.40400001 4280761382
-0.048288908 0.015420516 0.40300003 4280761128
-0.046863385 0.015382251 0.40200001 4280826921
-0.043921754 0.015267458 0.39900002 4281483308
-0.042518973 0.015229194 0.39800003 4281745708
-0.041226264 0.015229194 0.39800003 4281154595
-0.039833225 0.015190929 0.39700001 4280893220
-0.038543768 0.015190929 0.39700001 4280040221
-0.037348151 0.015229194 0.39800003 4279322914
-0.036055449 0.015229194 0.39800003 4279323939
-0.034850083 0.015267458 0.39900002 4279391013
-0.033638228 0.015305722 0.40000001 4279325220
-0.032419875 0.015343987 0.40100002 4279327787
-0.031195026 0.015382251 0.40200001 4279131175
-0.02988933 0.015382251 0.40200001 4279592494
-0.028654736 0.015420516 0.40300003 4279592494
-0.027413648 0.015458779 0.40400001 4279396142
-0.026166065 0.015497045 0.40500003 4279067179
-0.024911981 0.015535308 0.40600002 4278803753
-0.023651402 0.015573572 0.40700001 4278803753
-0.022384331 0.015611837 0.40800002 4278207253
-0.02111076 0.015650101 0.40900001 4278472995
-0.019830696 0.015688365 0.41000003 4279131691
-0.018544134 0.01572663 0.41100001 4278934312
-0.017209206 0.01572663 0.41100001 4279263529
-0.016453631 0.016300594 0.42600003 4279460908
-0.015105357 0.016338859 0.42700002 4279461422
-0.013750589 0.016377123 0.42800003 4278803492
-0.012389324 0.016415387 0.42900002 4278606115
-0.011021561 0.016453652 0.43000001 4278606115
-0.0096473051 0.016491916 0.43100002 4278804007
-0.0078264335 0.015650101 0.40900001 4278935593
-0.052215744 0.016729904 0.40300003 4282797615
-0.050906796 0.016729904 0.40300003 4281089577
-0.049597852 0.016729904 0.40300003 4280958507
-0.04816908 0.01668839 0.40200001 4281024300
-0.046863385 0.01668839 0.40200001 4280958507
-0.045331031 0.016605362 0.40000001 4281550128
-0.043921754 0.01656385 0.39900002 4281615405
-0.041226264 0.016522337 0.39800003 4281350950
-0.039833225 0.016480822 0.39700001 4280498208
-0.038640857 0.016522337 0.39800003 4280173090
-0.037348151 0.016522337 0.39800003 4279717668
-0.036055449 0.016522337 0.39800003 4279323678
-0.034850083 0.01656385 0.39900002 4280114990
-0.033638228 0.016605362 0.40000001 4279260451
-0.032419875 0.016646877 0.40100002 4279458857
-0.031195026 0.01668839 0.40200001 4279328041
-0.02988933 0.01668839 0.40200001 4279263531
-0.028654736 0.016729904 0.40300003 4279264556
-0.027413648 0.016771417 0.40400001 4279067177
-0.026166065 0.01681293 0.40500003 4279132970
-0.024973338 0.016895955 0.40700001 4278737960
-0.023709515 0.01693747 0.40800002 4278935339
-0.022439193 0.016978983 0.40900001 4279261226
-0.021162378 0.017020497 0.41000003 4279787057
-0.019927431 0.017103525 0.41200003 4278200064
-0.018589254 0.017103525 0.41200003 4278201358
-0.01729295 0.017145038 0.41300002 4278200330
-0.016453631 0.017684711 0.42600003 4278596371
-0.015105357 0.017726226 0.42700002 4278200064
-0.013750589 0.017767739 0.42800003 4278930466
-0.012389324 0.017809251 0.42900002 4278204947
-0.011021561 0.017850764 0.43000001 4278733857
-0.0096473051 0.017892279 0.43100002 4279062822
-0.0082091447 0.017809251 0.42900002 4279260201
-0.04947478 0.017994529 0.40200001 4281155888
-0.043921754 0.017860241 0.39900002 4281484335
-0.042518973 0.01781548 0.39800003 4281615407
-0.041226264 0.01781548 0.39800003 4281286442
-0.039933562 0.01781548 0.39800003 4280104733
-0.038640857 0.01781548 0.39800003 4280372264
-0.037348151 0.01781548 0.39800003 4279848484
-0.036146037 0.017860241 0.39900002 4279520289
-0.034850083 0.017860241 0.39900002 4279062048
-0.033638228 0.017905002 0.40000001 4279260965
-0.032419875 0.017949766 0.40100002 4278735904
-0.031195026 0.017994529 0.40200001 4279394347
-0.02988933 0.017994529 0.40200001 4279198250
-0.028654736 0.018039292 0.40300003 4279658801
-0.027413648 0.018084053 0.40400001 4279067177
-0.026230671 0.018173579 0.40600002 4279067179
-0.024973338 0.01821834 0.40700001 4279198765
-0.023767626 0.018307867 0.40900001 4279066666
-0.022494059 0.01835263 0.41000003 4278201347
-0.021265609 0.018442154 0.41200003 4280639286
-0.019975798 0.018486917 0.41300002 4278922517
-0.018679494 0.01853168 0.41400003 4278920722
-0.017418563 0.018621203 0.41600001 4279183129
-0.016453631 0.01906883 0.42600003 4279117336
-0.015105357 0.019113591 0.42700002 4278198280
-0.013782715 0.019203117 0.42900002 4280440625
-0.012418202 0.019247878 0.43000001 4280047664
-0.011047194 0.019292641 0.43100002 4280574008
-0.0096696885 0.019337403 0.43200001 4280442422
-0.0082091447 0.019203117 0.42900002 4280507961
-0.0028075927 0.020456467 0.45700002 4280443192
-0.0013261514 0.02050123 0.45800003 4279260715
-0.043921754 0.019156635 0.39900002 4281352749
-0.042625804 0.019156635 0.39900002 4281220649
-0.04132985 0.019156635 0.39900002 4281023784
-0.039933562 0.019108623 0.39800003 4280303141
-0.038737942 0.019156635 0.39900002 4279846692
-0.037441991 0.019156635 0.39900002 4279257633
-0.036146037 0.019156635 0.39900002 4279389217
-0.034937426 0.019204644 0.40000001 4279456547
-0.033638228 0.019204644 0.40000001 4279326244
-0.032419875 0.019252658 0.40100002 4279196455
-0.031195026 0.019300669 0.40200001 4279065382
-0.02988933 0.019300669 0.40200001 4278540581
-0.028654736 0.019348681 0.40300003 4279790902
-0.027413648 0.019396693 0.40400001 4278935593
-0.026230671 0.019492716 0.40600002 4278804007
-0.024973338 0.019540727 0.40700001 4279067177
-0.023767626 0.01963675 0.40900001 4279001384
-0.022548921 0.019732773 0.41100001 4278204432
-0.021317223 0.019828796 0.41300002 4279455014
-0.020024167 0.01987681 0.41400003 4278988310
-0.018769732 0.019972831 0.41600001 4280830003
-0.017502308 0.020068854 0.41800001 4281160253
-0.016415007 0.020404935 0.42500001 4280568116
-0.015105357 0.02050096 0.42700002 4278199046
-0.013782715 0.020596983 0.42900002 4280639284
-0.012447082 0.020693006 0.43100002 4278201860
-0.011098457 0.020789029 0.43300003 4278535193
-0.0097368397 0.020885052 0.43500003 4279851053
-0.0056751501 0.021557216 0.44900003 4279459886
-0.0042543635 0.02174926 0.45300001 4278998822
-0.0028014493 0.021893296 0.45600003 4279656752
-0.0013261514 0.021989319 0.45800003 4279985721
0.00016178592 0.022037331 0.45900002 4279130923
0.0016526188 0.022037331 0.45900002 4281625931
-0.045331031 0.020504287 0.40000001 4281485103
-0.043921754 0.020453027 0.39900002 4281418026
-0.042625804 0.020453027 0.39900002 4280825891
-0.04132985 0.020453027 0.39900002 4281286442
-0.040033896 0.020453027 0.39900002 4280304422
-0.038737942 0.020453027 0.39900002 4279649824
-0.037441991 0.020453027 0.39900002 4279192353
-0.036236629 0.020504287 0.40000001 4279258916
-0.034937426 0.020504287 0.40000001 4279654955
-0.033722326 0.020555547 0.40100002 4279260711
-0.032419875 0.020555547 0.40100002 4279327787
-0.031195026 0.020606807 0.40200001 4279065128
-0.029963681 0.020658068 0.40300003 4279197998
-0.028654736 0.020658068 0.40300003 4279659062
-0.027481504 0.02076059 0.40500003 4279198765
-0.026230671 0.02081185 0.40600002 4278804007
-0.0250347 0.020914372 0.40800002 4279067179
-0.023825739 0.021016894 0.41000003 4279264045
-0.022603786 0.021119416 0.41200003 4280705594
-0.021368841 0.021221938 0.41400003 4278203149
-0.0201209 0.021324458 0.41600001 4280568625
-0.018859971 0.021426979 0.41800001 4279975975
-0.017586051 0.021529501 0.42000002 4278265872
-0.016415007 0.021785803 0.42500001 4280042281
-0.015140734 0.021939587 0.42800003 4278202639
-0.013814842 0.022042107 0.43000001 4278203148
-0.012475962 0.022144629 0.43200001 4278202640
-0.011149719 0.022298412 0.43500003 4280244276
-0.0098039899 0.022452194 0.43800002 4278929183
-0.0070858398 0.022862278 0.44600001 4278995492
-0.0056877895 0.023067322 0.45000002 4278469402
-0.0042543635 0.023221103 0.45300001 4278535193
-0.0028014493 0.023374887 0.45600003 4280377910
-0.0013232558 0.023426147 0.45700002 4279129640
0.00016143346 0.023477409 0.45800003 4279590191
0.0016526188 0.023528669 0.45900002 4283531879
-0.044031832 0.021803927 0.40000001 4281483567
-0.042732634 0.021803927 0.40000001 4281483054
-0.041433431 0.021803927 0.40000001 4281089323
-0.040134232 0.021803927 0.40000001 4280634411
-0.03883503 0.021803927 0.40000001 4279979557
-0.037535828 0.021803927 0.40000001 4279192351
-0.036236629 0.021803927 0.40000001 4279521316
-0.035024773 0.021858437 0.40100002 4279457060
-0.033722326 0.021858437 0.40100002 4279457828
-0.032419875 0.021858437 0.40100002 4279524648
-0.031195026 0.021912945 0.40200001 4279328552
-0.029963681 0.021967458 0.40300003 4279198250
-0.028725838 0.022021966 0.40400001 4279395890
-0.027481504 0.022076476 0.40500003 4279132718
-0.026230671 0.022130987 0.40600002 4279132205
-0.0250347 0.022240005 0.40800002 4279132459
-0.023825739 0.022349026 0.41000003 4280051510
-0.022603786 0.022458045 0.41200003 4281034044
-0.021368841 0.022567065 0.41400003 4278200840
-0.0201209 0.022676084 0.41600001 4278264587
-0.018859971 0.022785103 0.41800001 4279053592
-0.017627923 0.022948634 0.42100003 4278461707
-0.016415007 0.023166671 0.42500001 4281094708
-0.015140734 0.023330202 0.42800003 4280834870
-0.013846971 0.023493731 0.43100002 4278201355
-0.012533721 0.02365726 0.43400002 4278992414
-0.011200982 0.02382079 0.43700001 4279125795
-0.0098487567 0.02398432 0.44000003 4279981871
-0.0084961783 0.02420236 0.44400004 4280113455
-0.0071017272 0.024365889 0.44700003 4278731291
-0.0057004294 0.024583928 0.45100003 4279191842
-0.0042543635 0.024692947 0.45300001 4279192355
-0.0028014493 0.024856478 0.45600003 4279127078
-0.0013232558 0.024910986 0.45700002 4279590191
0.00016143346 0.024965497 0.45800003 4278998054
0.0016526188 0.025020007 0.45900002 4287411613
-0.041433431 0.023103567 0.40000001 4281155370
-0.040134232 0.023103567 0.40000001 4280963376
-0.03883503 0.023103567 0.40000001 4280110375
-0.037629671 0.023161327 0.40100002 4279521318
-0.036327224 0.023161327 0.40100002 4279652904
-0.035024773 0.023161327 0.40100002 4279457576
-0.033722326 0.023161327 0.40100002 4279655209
-0.032500722 0.023219084 0.40200001 4279459627
-0.031195026 0.023219084 0.40200001 4279328554
-0.029963681 0.023276845 0.40300003 4279461424
-0.028725838 0.023334604 0.40400001 4279329584
-0.027481504 0.023392363 0.40500003 4279066412
-0.026295278 0.02350788 0.40700001 4278803240
-0.0250347 0.023565639 0.40800002 4279329324
-0.023825739 0.023681156 0.41000003 4278206224
-0.022603786 0.023796676 0.41200003 4281164864
-0.021368841 0.023912193 0.41400003 4278333201
-0.0201209 0.024027709 0.41600001 4279314969
-0.018859971 0.024143228 0.41800001 4279183129
-0.017627923 0.024316506 0.42100003 4279248406
-0.016415007 0.02454754 0.42500001 4279118099
-0.015176109 0.024778577 0.42900002 4280966454
-0.013846971 0.024894094 0.43100002 4278334736
-0.012533721 0.02506737 0.43400002 4280309555
-0.011252245 0.025356164 0.43900001 4280047664
-0.0098935245 0.025529442 0.44200003 4279983154
-0.0085153133 0.025702719 0.44500002 4279654187
-0.0071335025 0.025933756 0.44900003 4279852334
-0.0057130689 0.026107032 0.45200002 4279983920
-0.0042637549 0.026222549 0.45400003 4279457578
-0.0028014493 0.026338067 0.45600003 4278602271
-0.0013232558 0.026395826 0.45700002 4279261228
0.00016143346 0.026453586 0.45800003 4278800164
0.0016526188 0.026511343 0.45900002 4287937959
-0.041537017 0.024464216 0.40100002 4280762663
-0.040234569 0.024464216 0.40100002 4280241196
-0.038932119 0.024464216 0.40100002 4279651109
-0.037629671 0.024464216 0.40100002 4279652391
-0.036327224 0.024464216 0.40100002 4279718697
-0.035024773 0.024464216 0.40100002 4279260199
-0.033806417 0.024525223 0.40200001 4279458603
-0.032500722 0.024525223 0.40200001 4279394347
-0.031272627 0.024586232 0.40300003 4279197738
-0.029963681 0.024586232 0.40300003 4279002669
-0.028725838 0.02464724 0.40400001 4278870318
-0.027481504 0.024708249 0.40500003 4279066925
-0.026295278 0.024830263 0.40700001 4279066925
-0.025096059 0.024952279 0.40900001 4278869287
-0.023825739 0.025013288 0.41000003 4279327017
-0.022603786 0.025135305 0.41200003 4280311606
-0.021368841 0.025257321 0.41400003 4278202124
-0.0201209 0.025379336 0.41600001 4278199822
-0.018859971 0.025501352 0.41800001 4278331665
-0.017586051 0.025623368 0.42000002 4278198539
-0.016415007 0.025928408 0.42500001 4278199307
-0.015176109 0.02617244 0.42900002 4278200841
-0.013879098 0.026355464 0.43200001 4278199815
-0.012562601 0.026538489 0.43500003 4278200585
-0.011277878 0.026843529 0.44000003 4278199043
-0.0099159069 0.027026553 0.44300002 4278201100
-0.0085535841 0.027270585 0.44700003 4278201356
-0.0071493899 0.027453609 0.45000002 4278200071
-0.0057257079 0.027636632 0.45300001 4278200328
-0.0042731464 0.027758649 0.45500001 4278200585
-0.0028014493 0.027819658 0.45600003 4279061800
-0.0013261514 0.027941674 0.45800003 4279721525
0.00016143346 0.027941674 0.45800003 4279720498
-0.041537017 0.025767108 0.40100002 4280830253
-0.040234569 0.025767108 0.40100002 4279914027
-0.038932119 0.025767108 0.40100002 4279849258
-0.037629671 0.025767108 0.40100002 4279126560
-0.036417812 0.025831364 0.40200001 4279522088
-0.035112113 0.025831364 0.40200001 4279391785
-0.033806417 0.025831364 0.40200001 4279327019
-0.032500722 0.025831364 0.40200001 4279132205
-0.031272627 0.025895622 0.40300003 4279066925
-0.029963681 0.025895622 0.40300003 4278936624
-0.028725838 0.025959879 0.40400001 4278936624
-0.027549358 0.026088392 0.40600002 4278737962
-0.026295278 0.02615265 0.40700001 4278935339
-0.025096059 0.026281163 0.40900001 4279854644
-0.023825739 0.026345422 0.41000003 4278865443
-0.022603786 0.026473936 0.41200003 4279458607
-0.021317223 0.026538193 0.41300002 4279524398
-0.020072535 0.026666706 0.41500002 4278998054
-0.018814852 0.026795221 0.41700003 4279458607
-0.01754418 0.026923737 0.41900003 4279327021
-0.016415007 0.027309278 0.42500001 4279655986
-0.015176109 0.027566306 0.42900002 4279458605
-0.013879098 0.027759077 0.43200001 4279589678
-0.012562601 0.02795185 0.43500003 4279720750
-0.011329141 0.02840165 0.44200003 4279523371
-0.0099606747 0.028594421 0.44500002 4279458607
-0.00857272 0.028787192 0.44800001 4279130158
-0.0071652778 0.028979965 0.45100003 4279064367
-0.0057257079 0.029108478 0.45300001 4279195951
-0.0042731464 0.029236991 0.45500001 4279589939
-0.0028075927 0.029365506 0.45700002 4279524916
-0.0013261514 0.029429764 0.45800003 4279523633
0.00016143346 0.029429764 0.45800003 4285571975
-0.041537017 0.027069997 0.40100002 4280173869
-0.040234569 0.027069997 0.40100002 4279912494
-0.038932119 0.027069997 0.40100002 4279979309
-0.037723508 0.027137503 0.40200001 4279783465
-0.036417812 0.027137503 0.40200001 4279323428
-0.035112113 0.027137503 0.40200001 4279851568
-0.033806417 0.027137503 0.40200001 4280116537
-0.032581568 0.027205011 0.40300003 4279000107
-0.031272627 0.027205011 0.40300003 4279329586
-0.030038033 0.027272515 0.40400001 4279133490
-0.028796943 0.027340023 0.40500003 4279001904
-0.027549358 0.027407529 0.40600002 4278936111
-0.026295278 0.027475033 0.40700001 4278935341
-0.025096059 0.027610047 0.40900001 4279066414
-0.023825739 0.027677553 0.41000003 4279591474
-0.022548921 0.027745059 0.41100001 4279262509
-0.021317223 0.027880071 0.41300002 4279262509
-0.020024167 0.027947579 0.41400003 4279262509
-0.018724613 0.028015085 0.41500002 4278868521
-0.017460436 0.028150097 0.41700003 4279131693
-0.015990149 0.027947579 0.41400003 4279131693
-0.015211483 0.029027676 0.43000001 4278934312
-0.013879098 0.02916269 0.43200001 4279065128
-0.012533721 0.029297702 0.43400002 4279394093
-0.010005441 0.030175284 0.44700003 4279130921
-0.0086109908 0.030377802 0.45000002 4279197488
-0.0071811648 0.030512815 0.45200002 4279131443
-0.0057383478 0.030647827 0.45400003 4279263029
-0.0042825383 0.030782839 0.45600003 4279721779
-0.0028075927 0.030850345 0.45700002 4279391017
-0.0013261514 0.030917853 0.45800003 4282938461
-0.039029203 0.028443642 0.40200001 4280371510
-0.037723508 0.028443642 0.40200001 4280242229
-0.036417812 0.028443642 0.40200001 4279979822
-0.035112113 0.028443642 0.40200001 4280311354
-0.033806417 0.028443642 0.40200001 4280377660
-0.032581568 0.028514398 0.40300003 4280246842
-0.031272627 0.028514398 0.40300003 4279918904
-0.030038033 0.028585153 0.40400001 4279722808
-0.028796943 0.028655909 0.40500003 4279657785
-0.027549358 0.028726663 0.40600002 4279591992
-0.026295278 0.028797418 0.40700001 4279000109
-0.0250347 0.028868174 0.40800002 4280052027
-0.023825739 0.029009685 0.41000003 4278933546
-0.022548921 0.029080439 0.41100001 4279656754
-0.021265609 0.029151196 0.41200003 4279459375
-0.019975798 0.02922195 0.41300002 4279393582
-0.018679494 0.029292706 0.41400003 4280051512
-0.017376693 0.029363461 0.41500002 4279130410
-0.015990149 0.029292706 0.41400003 4279327789
-0.0146101 0.02922195 0.41300002 4279196205
-0.0086301267 0.031910654 0.45100003 4279586607
-0.0071970522 0.032052163 0.45300001 4280111158
-0.0057383478 0.032122921 0.45400003 4282282327
-0.030038033 0.029897789 0.40400001 4280507196
-0.028796943 0.029971795 0.40500003 4279323435
-0.027549358 0.030045798 0.40600002 4279455795
-0.026295278 0.030119803 0.40700001 4279455795
-0.0250347 0.030193808 0.40800002 4279258416
-0.023825739 0.030341817 0.41000003 4279389230
-0.022548921 0.03041582 0.41100001 4280112440
-0.021265609 0.030489827 0.41200003 4279980340
-0.019975798 0.030563829 0.41300002 4279651887
-0.018679494 0.030637836 0.41400003 4279783473
-0.017376693 0.030711839 0.41500002 4279651887
-0.015990149 0.030637836 0.41400003 4279651887
-0.0146101 0.030563829 0.41300002 4280373817
-0.025613407 0.020042516 0.41319329 4294967295
-0.025613407 0.020042516 0.41319329 4294901760
-0.025498277 0.019556014 0.41320103 4294901760
-0.025383146 0.019069511 0.41320881 4294901760
-0.025268016 0.018583007 0.41321656 4294901760
-0.025152888 0.018096505 0.41322431 4294901760
-0.025037758 0.017610002 0.41323209 4294901760
-0.024922628 0.0171235 0.41323984 4294901760
-0.024807498 0.016636997 0.41324759 4294901760
-0.024692368 0.016150495 0.41325536 4294901760
-0.024577238 0.015663991 0.41326311 4294901760
-0.024462108 0.015177488 0.41327089 4294901760
-0.024346979 0.014690986 0.41327864 4294901760
-0.024231849 0.014204483 0.41328639 4294901760
-0.024116719 0.013717981 0.41329417 4294901760
-0.024001589 0.013231478 0.41330191 4294901760
-0.023886459 0.012744974 0.41330966 4294901760
-0.023771329 0.012258472 0.41331744 4294901760
-0.023656201 0.011771969 0.41332519 4294901760
-0.023541071 0.011285466 0.41333294 4294901760
-0.02342594 0.010798964 0.41334072 4294901760
-0.02331081 0.010312461 0.41334847 4294901760
-0.02319568 0.0098259589 0.41335621 4294901760
-0.02308055 0.0093394555 0.41336399 4294901760
-0.02296542 0.0088529531 0.41337174 4294901760
-0.02285029 0.0083664507 0.41337949 4294901760
-0.022735162 0.0078799473 0.41338727 4294901760
-0.022620032 0.0073934449 0.41339502 4294901760
-0.022504902 0.0069069415 0.41340277 4294901760
-0.022389771 0.0064204391 0.41341054 4294901760
-0.022274641 0.0059339367 0.41341829 4294901760
-0.022159511 0.0054474333 0.41342607 4294901760
-0.022044383 0.0049609309 0.41343382 4294901760
-0.021929253 0.0044744285 0.41344157 4294901760
-0.021814123 0.0039879251 0.41344935 4294901760
-0.021698993 0.0035014227 0.4134571 4294901760
-0.021583863 0.0030149203 0.41346484 4294901760
-0.021468733 0.002528416 0.41347262 4294901760
-0.021353602 0.0020419136 0.41348037 4294901760
-0.021238472 0.0015554111 0.41348812 4294901760
-0.021123344 0.0010689087 0.4134959 4294901760
-0.021008214 0.0005824063 0.41350365 4294901760
-0.020893084 9.5903873e-05 0.4135114 4294901760
-0.020777954 -0.00039059855 0.41351917 4294901760
-0.020662824 -0.00087710284 0.41352692 4294901760
-0.020547695 -0.0013636053 0.41353467 4294901760
-0.020432565 -0.0018501077 0.41354245 4294901760
-0.020317435 -0.0023366101 0.4135502 4294901760
-0.020202305 -0.0028231125 0.41355795 4294901760
-0.020087175 -0.003309615 0.41356573 4294901760
-0.019972045 -0.0037961192 0.41357347 4294901760
-0.019856915 -0.0042826217 0.41358125 4294901760
-0.019741785 -0.0047691241 0.413589 4294901760
-0.019626657 -0.0052556265 0.41359675 4294901760
-0.019511526 -0.0057421289 0.41360453 4294901760
-0.019396396 -0.0062286332 0.41361228 4294901760
-0.019281266 -0.0067151356 0.41362002 4294901760
-0.019166136 -0.0072016381 0.4136278 4294901760
-0.019051006 -0.0076881405 0.41363555 4294901760
-0.018935878 -0.0081746429 0.4136433 4294901760
-0.018820748 -0.0086611453 0.41365108 4294901760
-0.018705618 -0.0091476496 0.41365883 4294901760
-0.018590488 -0.0096341521 0.41366658 4294901760
-0.018475357 -0.010120654 0.41367435 4294901760
-0.018360227 -0.010607157 0.4136821 4294901760
-0.018245097 -0.011093659 0.41368985 4294901760
-0.018129967 -0.011580162 0.41369763 4294901760
-0.018014837 -0.012066666 0.41370538 4294901760
-0.017899707 -0.01255317 0.41371313 4294901760
-0.017784579 -0.013039671 0.41372091 4294901760
-0.017669449 -0.013526175 0.41372865 4294901760
-0.017554319 -0.014012676 0.4137364 4294901760
-0.01743919 -0.01449918 0.41374418 4294901760
-0.01732406 -0.014985684 0.41375193 4294901760
-0.01720893 -0.015472185 0.41375971 4294901760
-0.0170938 -0.015958689 0.41376746 4294901760
-0.01697867 -0.01644519 0.41377521 4294901760
-0.01686354 -0.016931694 0.41378298 4294901760
-0.01674841 -0.017418195 0.41379073 4294901760
-0.01663328 -0.017904699 0.41379848 4294901760
-0.01651815 -0.018391203 0.41380626 4294901760
-0.016403019 -0.018877704 0.41381401 4294901760
-0.016287889 -0.019364208 0.41382176 4294901760
-0.016172761 -0.019850709 0.41382954 4294901760
-0.016057631 -0.020337213 0.41383728 4294901760
-0.015942503 -0.020823713 0.41384503 4294901760
-0.015827371 -0.021310218 0.41385281 4294901760
-0.015712243 -0.021796722 0.41386056 4294901760
-0.015597112 -0.022283223 0.41386831 4294901760
-0.015481982 -0.022769727 0.41387609 4294901760
-0.015366852 -0.023256227 0.41388384 4294901760
-0.015251722 -0.023742732 0.41389161 4294901760
-0.015136592 -0.024229236 0.41389936 4294901760
-0.015021462 -0.024715737 0.41390711 4294901760
-0.014906333 -0.025202241 0.41391489 4294901760
-0.014791203 -0.025688741 0.41392264 4294901760
-0.014676074 -0.026175246 0.41393039 4294901760
-0.014560943 -0.026661746 0.41393816 4294901760
-0.014445813 -0.027148254 0.41394591 4294901760
-0.014330683 -0.027634755 0.41395366 4294901760
-0.014215554 -0.028121259 0.41396144 4294901760
-0.014100424 -0.02860776 0.41396919 4294901760
-0.025613407 0.020042516 0.41319329 4278255360
-0.025328506 0.020116383 0.41359749 4278255360
-0.025043605 0.020190252 0.41400167 4278255360
-0.024758706 0.020264119 0.41440588 4278255360
-0.024473805 0.020337986 0.41481006 4278255360
-0.024188904 0.020411855 0.41521427 4278255360
-0.023904003 0.020485722 0.41561848 4278255360
-0.023619104 0.020559588 0.41602266 4278255360
-0.023334203 0.020633455 0.41642687 4278255360
-0.023049302 0.020707324 0.41683105 4278255360
-0.022764402 0.020781191 0.41723526 4278255360
-0.022479501 0.020855058 0.41763946 4278255360
-0.022194602 0.020928927 0.41804364 4278255360
-0.021909701 0.021002794 0.41844785 4278255360
-0.0216248 0.021076661 0.41885206 4278255360
-0.021339899 0.021150529 0.41925624 4278255360
-0.021055 0.021224396 0.41966045 4278255360
-0.020770099 0.021298263 0.42006463 4278255360
-0.020485198 0.021372132 0.42046884 4278255360
-0.020200297 0.021445999 0.42087305 4278255360
-0.019915398 0.021519866 0.42127723 4278255360
-0.019630497 0.021593735 0.42168143 4278255360
-0.019345596 0.021667602 0.42208561 4278255360
-0.019060696 0.021741468 0.42248982 4278255360
-0.018775795 0.021815335 0.42289403 4278255360
-0.018490896 0.021889204 0.42329821 4278255360
-0.018205995 0.021963071 0.42370242 4278255360
-0.017921094 0.022036938 0.4241066 4278255360
-0.017636195 0.022110807 0.42451081 4278255360
-0.017351294 0.022184674 0.42491502 4278255360
-0.017066393 0.022258541 0.42531919 4278255360
-0.016781492 0.022332409 0.4257234 4278255360
-0.016496591 0.022406276 0.42612761 4278255360
-0.016211692 0.022480143 0.42653179 4278255360
-0.015926791 0.02255401 0.426936 4278255360
-0.01564189 0.022627879 0.42734018 4278255360
-0.01535699 0.022701746 0.42774439 4278255360
-0.01507209 0.022775613 0.4281486 4278255360
-0.01478719 0.022849482 0.42855278 4278255360
-0.014502289 0.022923348 0.42895699 4278255360
-0.014217388 0.022997215 0.42936116 4278255360
-0.013932488 0.023071084 0.42976537 4278255360
-0.013647588 0.023144951 0.43016958 4278255360
-0.013362687 0.023218818 0.43057376 4278255360
-0.013077786 0.023292687 0.43097797 4278255360
-0.012792886 0.023366554 0.43138215 4278255360
-0.012507985 0.023440421 0.43178636 4278255360
-0.012223085 0.023514289 0.43219057 4278255360
-0.011938184 0.023588156 0.43259475 4278255360
-0.011653284 0.023662023 0.43299896 4278255360
-0.011368384 0.023735892 0.43340313 4278255360
-0.011083484 0.023809759 0.43380734 4278255360
-0.010798584 0.023883626 0.43421155 4278255360
-0.010513683 0.023957493 0.43461573 4278255360
-0.010228781 0.024031362 0.43501994 4278255360
-0.0099438801 0.024105228 0.43542415 4278255360
-0.0096589811 0.024179095 0.43582833 4278255360
-0.0093740802 0.024252964 0.43623254 4278255360
-0.0090891812 0.024326831 0.43663672 4278255360
-0.0088042803 0.024400698 0.43704093 4278255360
-0.0085193776 0.024474567 0.43744513 4278255360
-0.0082344785 0.024548434 0.43784931 4278255360
-0.0079495776 0.024622301 0.43825352 4278255360
-0.0076646786 0.024696168 0.4386577 4278255360
-0.0073797777 0.024770036 0.43906191 4278255360
-0.0070948768 0.024843903 0.43946612 4278255360
-0.006809976 0.02491777 0.4398703 4278255360
-0.0065250751 0.024991639 0.44027451 4278255360
-0.006240176 0.025065506 0.44067872 4278255360
-0.0059552751 0.025139373 0.44108289 4278255360
-0.0056703743 0.025213242 0.4414871 4278255360
-0.0053854752 0.025287108 0.44189128 4278255360
-0.0051005725 0.025360975 0.44229549 4278255360
-0.0048156716 0.025434844 0.4426997 4278255360
-0.0045307726 0.025508711 0.44310388 4278255360
-0.0042458717 0.025582578 0.44350809 4278255360
-0.0039609727 0.025656447 0.44391227 4278255360
-0.0036760718 0.025730314 0.44431648 4278255360
-0.0033911709 0.025804181 0.44472069 4278255360
-0.00310627 0.025878049 0.44512486 4278255360
-0.0028213691 0.025951916 0.44552907 4278255360
-0.0025364701 0.026025783 0.44593325 4278255360
-0.0022515692 0.026099652 0.44633746 4278255360
-0.0019666683 0.026173519 0.44674167 4278255360
-0.0016817693 0.026247386 0.44714585 4278255360
-0.0013968665 0.026321255 0.44755006 4278255360
-0.0011119675 0.026395122 0.44795424 4278255360
-0.0008270666 0.026468989 0.44835845 4278255360
-0.00054216571 0.026542855 0.44876266 4278255360
-0.00025726669 0.026616722 0.44916683 4278255360
2.7634203e-05 0.026690591 0.44957104 4278255360
0.00031253509 0.026764458 0.44997525 4278255360
0.00059743598 0.026838325 0.45037943 4278255360
0.00088233687 0.026912194 0.45078364 4278255360
0.0011672359 0.026986061 0.45118782 4278255360
0.0014521368 0.027059928 0.45159203 4278255360
0.0017370377 0.027133796 0.45199621 4278255360
0.0020219386 0.027207663 0.45240042 4278255360
0.0023068395 0.02728153 0.45280463 4278255360
0.0025917385 0.027355399 0.4532088 4278255360
0.0028766394 0.027429266 0.45361301 4278255360
-0.025613407 0.020042516 0.41319329 4278190335
-0.02584522 0.019994682 0.4136337 4278190335
-0.026077034 0.019946849 0.41407412 4278190335
-0.026308846 0.019899014 0.41451457 4278190335
-0.026540659 0.019851182 0.41495499 4278190335
-0.026772473 0.019803347 0.41539541 4278190335
-0.027004287 0.019755512 0.41583583 4278190335
-0.0272361 0.01970768 0.41627628 4278190335
-0.027467912 0.019659845 0.41671669 4278190335
-0.027699726 0.019612011 0.41715711 4278190335
-0.027931539 0.019564178 0.41759753 4278190335
-0.028163353 0.019516343 0.41803795 4278190335
-0.028395165 0.019468511 0.4184784 4278190335
-0.028626978 0.019420676 0.41891882 4278190335
-0.028858792 0.019372841 0.41935924 4278190335
-0.029090606 0.019325009 0.41979966 4278190335
-0.029322419 0.019277174 0.4202401 4278190335
-0.029554233 0.019229339 0.42068052 4278190335
-0.029786045 0.019181507 0.42112094 4278190335
-0.030017858 0.019133672 0.42156136 4278190335
-0.030249672 0.019085839 0.42200178 4278190335
-0.030481484 0.019038005 0.42244223 4278190335
-0.030713297 0.01899017 0.42288265 4278190335
-0.030945111 0.018942337 0.42332307 4278190335
-0.031176925 0.018894503 0.42376348 4278190335
-0.031408738 0.018846668 0.42420393 4278190335
-0.031640552 0.018798836 0.42464435 4278190335
-0.031872366 0.018751001 0.42508477 4278190335
-0.032104179 0.018703168 0.42552519 4278190335
-0.032335989 0.018655334 0.42596561 4278190335
-0.032567803 0.018607499 0.42640606 4278190335
-0.032799616 0.018559666 0.42684647 4278190335
-0.03303143 0.018511832 0.42728689 4278190335
-0.033263244 0.018463999 0.42772731 4278190335
-0.033495057 0.018416164 0.42816776 4278190335
-0.033726871 0.01836833 0.42860818 4278190335
-0.033958685 0.018320497 0.4290486 4278190335
-0.034190498 0.018272663 0.42948902 4278190335
-0.034422308 0.018224828 0.42992944 4278190335
-0.034654122 0.018176995 0.43036988 4278190335
-0.034885935 0.018129161 0.4308103 4278190335
-0.035117749 0.018081328 0.43125072 4278190335
-0.035349563 0.018033493 0.43169114 4278190335
-0.035581376 0.017985659 0.43213159 4278190335
-0.03581319 0.017937826 0.43257201 4278190335
-0.036045004 0.017889991 0.43301243 4278190335
-0.036276817 0.017842159 0.43345284 4278190335
-0.036508627 0.017794324 0.43389326 4278190335
-0.036740445 0.017746489 0.43433371 4278190335
-0.036972255 0.017698657 0.43477413 4278190335
-0.037204068 0.017650822 0.43521455 4278190335
-0.037435882 0.017602988 0.43565497 4278190335
-0.037667695 0.017555155 0.43609539 4278190335
-0.037899509 0.01750732 0.43653584 4278190335
-0.038131323 0.017459486 0.43697625 4278190335
-0.038363136 0.017411653 0.43741667 4278190335
-0.03859495 0.017363818 0.43785709 4278190335
-0.038826764 0.017315986 0.43829751 4278190335
-0.039058574 0.017268151 0.43873796 4278190335
-0.039290387 0.017220318 0.43917838 4278190335
-0.039522201 0.017172484 0.4396188 4278190335
-0.039754014 0.017124649 0.44005921 4278190335
-0.039985828 0.017076816 0.44049966 4278190335
-0.040217642 0.017028982 0.44094008 4278190335
-0.040449455 0.016981147 0.4413805 4278190335
-0.040681265 0.016933315 0.44182092 4278190335
-0.040913083 0.01688548 0.44226137 4278190335
-0.041144893 0.016837645 0.44270179 4278190335
-0.04137671 0.016789813 0.44314221 4278190335
-0.04160852 0.016741978 0.44358262 4278190335
-0.041840333 0.016694145 0.44402304 4278190335
-0.042072147 0.016646311 0.44446349 4278190335
-0.042303961 0.016598476 0.44490391 4278190335
-0.042535774 0.016550643 0.44534433 4278190335
-0.042767588 0.016502809 0.44578475 4278190335
-0.042999402 0.016454976 0.44622517 4278190335
-0.043231212 0.016407141 0.44666561 4278190335
-0.043463029 0.016359307 0.44710603 4278190335
-0.043694839 0.016311474 0.44754645 4278190335
-0.043926656 0.01626364 0.44798687 4278190335
-0.044158466 0.016215805 0.44842732 4278190335
-0.04439028 0.016167972 0.44886774 4278190335
-0.044622093 0.016120138 0.44930816 4278190335
-0.044853903 0.016072303 0.44974858 4278190335
-0.045085721 0.01602447 0.45018899 4278190335
-0.045317531 0.015976636 0.45062944 4278190335
-0.045549348 0.015928803 0.45106986 4278190335
-0.045781158 0.015880968 0.45151028 4278190335
-0.046012972 0.015833136 0.4519507 4278190335
-0.046244785 0.015785301 0.45239115 4278190335
-0.046476599 0.015737467 0.45283157 4278190335
-0.046708412 0.015689634 0.45327199 4278190335
-0.046940226 0.015641799 0.4537124 4278190335
-0.04717204 0.015593965 0.45415282 4278190335
-0.04740385 0.015546132 0.45459327 4278190335
-0.047635667 0.015498297 0.45503369 4278190335
-0.047867477 0.015450464 0.45547411 4278190335
-0.048099294 0.01540263 0.45591453 4278190335
-0.048331104 0.015354795 0.45635498 4278190335
-0.048562918 0.015306962 0.45679539 4278190335
-0.048794731 0.015259128 0.45723581 4278190335
-0.025613407 0.020042516 0.41319329 4294967295
-0.024222527 0.02032952 0.41055074 4294967295
-0.022831647 0.020616522 0.40790817 4294967295
-0.021440769 0.020903526 0.40526563 4294967295
-0.020049889 0.02119053 0.40262309 4294967295
-0.018659009 0.021477534 0.39998052 4294967295
-0.017268129 0.021764535 0.39733797 4294967295
-0.015877251 0.022051539 0.39469543 4294967295
-0.01448637 0.022338543 0.39205286 4294967295
-0.01309549 0.022625547 0.38941032 4294967295
-0.011704611 0.022912549 0.38676775 4294967295
-0.010313731 0.023199553 0.3841252 4294967295
-0.0089228526 0.023486556 0.38148266 4294967295
-0.0075319726 0.023773558 0.37884009 4294967295
-0.0061410926 0.024060562 0.37619755 4294967295
-0.0047502127 0.024347566 0.373555 4294967295
-0.0033593327 0.02463457 0.37091243 4294967295
-0.0019684527 0.024921574 0.36826989 4294967295
-0.00057757273 0.025208578 0.36562735 4294967295
0.00081330538 0.025495579 0.36298478 4294967295
0.0022041854 0.025782583 0.36034223 4294967295
0.0035950635 0.026069585 0.35769969 4294967295
0.0049859453 0.026356589 0.35505712 4294967295
0.0063768234 0.026643593 0.35241458 4294967295
0.0077677015 0.026930597 0.34977204 4294967295
0.0091585834 0.0272176 0.34712946 4294967295
0.010549461 0.027504602 0.34448692 4294967295
0.011940343 0.027791606 0.34184438 4294967295
0.013331221 0.028078608 0.33920181 4294967295
0.0147221 0.028365612 0.33655927 4294967295
0.016112981 0.028652616 0.33391672 4294967295
0.017503859 0.02893962 0.33127415 4294967295
0.018894741 0.029226623 0.32863161 4294967295
0.020285623 0.029513627 0.32598904 4294967295
0.021676501 0.029800629 0.3233465 4294967295
0.023067379 0.030087633 0.32070395 4294967295
0.024458261 0.030374637 0.31806138 4294967295
0.025849139 0.030661639 0.31541884 4294967295
0.027240017 0.030948643 0.3127763 4294967295
0.028630896 0.031235646 0.31013376 4294967295
0.030021777 0.03152265 0.30749118 4294967295
0.031412654 0.031809654 0.30484864 4294967295
0.032803535 0.032096654 0.3022061 4294967295
0.034194417 0.032383658 0.29956353 4294967295
0.035585299 0.032670662 0.29692096 4294967295
0.036976174 0.032957666 0.29427841 4294967295
0.038367055 0.033244669 0.29163587 4294967295
0.039757937 0.033531673 0.2889933 4294967295
0.041148812 0.033818677 0.28635079 4294967295
0.042539693 0.034105681 0.28370821 4294967295
0.043930575 0.034392685 0.28106564 4294967295
0.045321457 0.034679685 0.2784231 4294967295
0.046712331 0.034966689 0.27578056 4294967295
0.048103213 0.035253692 0.27313799 4294967295
0.049494095 0.035540696 0.27049544 4294967295
0.050884977 0.0358277 0.2678529 4294967295
0.052275851 0.0361147 0.26521033 4294967295
0.053666733 0.036401704 0.26256779 4294967295
0.055057608 0.036688708 0.25992525 4294967295
0.056448489 0.036975712 0.25728267 4294967295
0.057839371 0.037262715 0.25464013 4294967295
0.059230253 0.037549719 0.25199759 4294967295
0.060621127 0.037836723 0.24935503 4294967295
0.062012009 0.038123727 0.24671248 4294967295
0.063402891 0.038410731 0.24406992 4294967295
0.064793766 0.038697734 0.24142738 4294967295
0.066184655 0.038984738 0.2387848 4294967295
0.067575529 0.039271742 0.23614226 4294967295
0.068966411 0.039558742 0.23349971 4294967295
0.070357285 0.039845746 0.23085716 4294967295
0.071748167 0.04013275 0.22821461 4294967295
0.073139042 0.04041975 0.22557206 4294967295
0.074529931 0.040706757 0.22292949 4294967295
0.075920805 0.040993758 0.22028695 4294967295
0.077311687 0.041280761 0.21764439 4294967295
0.078702562 0.041567765 0.21500185 4294967295
0.080093443 0.041854769 0.21235929 4294967295
0.081484325 0.042141773 0.20971674 4294967295
0.0828752 0.042428777 0.2070742 4294967295
0.084266089 0.04271578 0.20443162 4294967295
0.085656963 0.043002784 0.20178908 4294967295
0.087047845 0.043289788 0.19914652 4294967295
0.08843872 0.043576792 0.19650398 4294967295
0.089829601 0.043863792 0.19386142 4294967295
0.091220476 0.044150796 0.19121888 4294967295
0.092611365 0.0444378 0.18857631 4294967295
0.094002239 0.044724803 0.18593377 4294967295
0.095393121 0.045011804 0.18329121 4294967295
0.096784003 0.045298807 0.18064865 4294967295
0.098174877 0.045585811 0.17800611 4294967295
0.099565752 0.045872815 0.17536356 4294967295
0.10095664 0.046159819 0.172721 4294967295
0.10234752 0.046446823 0.17007844 4294967295
0.1037384 0.046733826 0.1674359 4294967295
0.10512928 0.04702083 0.16479334 4294967295
0.10652015 0.047307834 0.1621508 4294967295
0.10791103 0.047594838 0.15950826 4294967295
0.10930192 0.047881842 0.15686569 4294967295
0.11069279 0.048168845 0.15422314 4294967295
0.11208368 0.048455846 0.15158057 4294967295
0.11347456 0.048742849 0.14893803 4294967295
