# .PCD v0.7 - Point Cloud Data file format
VERSION 0.7
FIELDS x y z rgb
SIZE 4 4 4 4
TYPE F F F U
COUNT 1 1 1 1
WIDTH 1042
HEIGHT 1
VIEWPOINT 0 0 0 1 0 0 0
POINTS 1042
DATA ascii
0.061236281 0.03203873 0.35500002 4278270736
0.062389322 0.03203873 0.35500002 4278665494
0.063542366 0.03203873 0.35500002 4278731287
0.064513162 0.031948481 0.354 4278928666
0.06566295 0.031948481 0.354 4278862873
0.066812746 0.031948481 0.354 4278994459
0.067962535 0.031948481 0.354 4279453726
0.068917103 0.031858232 0.35300002 4279190554
0.070063643 0.031858232 0.35300002 4279715365
0.071411915 0.031948481 0.354 4280503600
0.072561711 0.031948481 0.354 4284645229
-0.0049041384 0.036277629 0.38800001 4279772699
-0.0036345224 0.036184132 0.38700002 4279119637
-0.0024021198 0.036558129 0.39100003 4279319578
-0.0010974046 0.035436139 0.37900001 4278729492
0.00013958002 0.037025623 0.39600003 4278730005
0.0052844151 0.037025623 0.39600003 4278532626
0.0065706233 0.037025623 0.39600003 4278795285
0.0073211393 0.034501147 0.36900002 4278663699
0.0085196523 0.034501147 0.36900002 4278728722
0.0096918279 0.034407649 0.36800003 4278794515
0.010887093 0.034407649 0.36800003 4278662929
0.012082358 0.034407649 0.36800003 4278728722
0.013277622 0.034407649 0.36800003 4278194945
0.014472887 0.034407649 0.36800003 4279578139
0.015625574 0.034314148 0.36700001 4278990613
0.016817592 0.034314148 0.36700001 4278331402
0.018009609 0.034314148 0.36700001 4278720011
0.019201623 0.034314148 0.36700001 4280103202
0.020393642 0.034314148 0.36700001 4278326021
0.021526841 0.034220651 0.36600003 4279115537
0.022715611 0.034220651 0.36600003 4279246869
0.023904378 0.034220651 0.36600003 4279312662
0.025024587 0.03412715 0.36500001 4279773213
0.026210107 0.03412715 0.36500001 4278786318
0.027395627 0.03412715 0.36500001 4278522632
0.028581148 0.03412715 0.36500001 4278522632
0.029685117 0.034033652 0.36400002 4278720011
0.03086739 0.034033652 0.36400002 4278719498
0.032049663 0.034033652 0.36400002 4278195718
0.033140637 0.033940151 0.36300001 4279054357
0.034319662 0.033940151 0.36300001 4278858261
0.035400894 0.033846654 0.36200002 4278792468
0.036576673 0.033846654 0.36200002 4278857748
0.03764816 0.033753157 0.36100003 4279186713
0.038820688 0.033753157 0.36100003 4279185943
0.039882433 0.033659656 0.36000001 4278988051
0.041051712 0.033659656 0.36000001 4278790418
0.042103715 0.033566158 0.35900003 4278196997
0.043269746 0.033566158 0.35900003 4278195459
0.044312 0.033472657 0.35800001 4278195969
0.045347761 0.03337916 0.35700002 4278195457
0.046507299 0.03337916 0.35700002 4278196742
0.047533315 0.033285659 0.35600001 4278396427
0.0486896 0.033285659 0.35600001 4278791183
0.049845889 0.033285659 0.35600001 4278726673
0.051002178 0.033285659 0.35600001 4278726927
0.052158471 0.033285659 0.35600001 4278727439
0.053314753 0.033285659 0.35600001 4278728209
0.054471046 0.033285659 0.35600001 4278531345
0.055471081 0.033192161 0.35500002 4278465552
0.056624118 0.033192161 0.35500002 4278333966
0.057777159 0.033192161 0.35500002 4278465552
0.058930203 0.033192161 0.35500002 4278399759
0.06008324 0.033192161 0.35500002 4278268943
0.061236281 0.033192161 0.35500002 4278269454
0.062389322 0.033192161 0.35500002 4278335247
0.063542366 0.033192161 0.35500002 4278204431
0.064695403 0.033192161 0.35500002 4278336017
0.065848447 0.033192161 0.35500002 4278467603
0.067001484 0.033192161 0.35500002 4278533396
0.067962535 0.03309866 0.354 4278862359
0.069112331 0.03309866 0.354 4278862359
0.070262127 0.03309866 0.354 4278862359
0.071613647 0.033192161 0.35500002 4279059738
0.072766684 0.033192161 0.35500002 4279189023
-0.010021932 0.037828527 0.39100003 4279838492
-0.0087071965 0.037635032 0.38900003 4279970592
-0.0048788595 0.037344784 0.38600001 4279773213
-0.0036063476 0.037151288 0.384 4279515678
-0.0023345409 0.036764298 0.38000003 4278991642
-0.0010974046 0.036667548 0.37900001 4278532115
0.00013323547 0.036570799 0.37800002 4278795285
0.0013609801 0.036570799 0.37800002 4278730005
0.0025887247 0.036570799 0.37800002 4278466833
0.0038366623 0.036764298 0.38000003 4278664212
0.0052844151 0.038312268 0.39600003 4278400527
0.0073409793 0.035796814 0.37 4278333964
0.0085196523 0.035700068 0.36900002 4278662929
0.0096918279 0.035603318 0.36800003 4278728722
0.010887093 0.035603318 0.36800003 4278794515
0.012082358 0.035603318 0.36800003 4278596625
0.013277622 0.035603318 0.36800003 4278195457
0.014433557 0.035506569 0.36700001 4279513371
0.015625574 0.035506569 0.36700001 4278858773
0.016817592 0.035506569 0.36700001 4278199818
0.018009609 0.035506569 0.36700001 4278589193
0.019201623 0.035506569 0.36700001 4279445270
0.020338073 0.035409823 0.36600003 4279248404
0.021526841 0.035409823 0.36600003 4278195716
0.022715611 0.035409823 0.36600003 4279511578
0.023904378 0.035409823 0.36600003 4278524429
0.025024587 0.035313074 0.36500001 4279051025
0.026210107 0.035313074 0.36500001 4278524681
0.027395627 0.035313074 0.36500001 4278260998
0.028581148 0.035313074 0.36500001 4278721549
0.029766668 0.035313074 0.36500001 4278721549
0.03086739 0.035216328 0.36400002 4279181330
0.032049663 0.035216328 0.36400002 4278327304
0.033231933 0.035216328 0.36400002 4278922771
0.034319662 0.035119578 0.36300001 4278858261
0.035498686 0.035119578 0.36300001 4278792468
0.036576673 0.035022829 0.36200002 4278199561
0.03775245 0.035022829 0.36200002 4278593806
0.038820688 0.034926083 0.36100003 4278726675
0.039993219 0.034926083 0.36100003 4278989847
0.041051712 0.034829333 0.36000001 4278989847
0.042220995 0.034829333 0.36000001 4279055640
0.043269746 0.034732588 0.35900003 4278923541
0.044435777 0.034732588 0.35900003 4278923541
0.045474783 0.034635838 0.35800001 4279054357
0.046637569 0.034635838 0.35800001 4279251736
0.047666837 0.034539089 0.35700002 4279251736
0.04882637 0.034539089 0.35700002 4278922258
0.049985908 0.034539089 0.35700002 4279052820
0.051145446 0.034539089 0.35700002 4278197511
0.052304983 0.034539089 0.35700002 4278195201
0.053314753 0.034442339 0.35600001 4278194432
0.054471046 0.034442339 0.35600001 4278195200
0.055627335 0.034442339 0.35600001 4278196996
0.05678362 0.034442339 0.35600001 4278197510
0.057939909 0.034442339 0.35600001 4278791185
0.059096199 0.034442339 0.35600001 4278857748
0.060252484 0.034442339 0.35600001 4278792466
0.061408777 0.034442339 0.35600001 4278924820
0.062565066 0.034442339 0.35600001 4278596625
0.063721359 0.034442339 0.35600001 4278531343
0.064877644 0.034442339 0.35600001 4278334734
0.06603393 0.034442339 0.35600001 4278532113
0.067190222 0.034442339 0.35600001 4278597906
0.068154521 0.034345593 0.35500002 4278466833
0.069307566 0.034345593 0.35500002 4278532626
0.070659086 0.034442339 0.35600001 4278730005
0.071815372 0.034442339 0.35600001 4279059738
0.072971664 0.034442339 0.35600001 4279124763
0.0745444 0.034635838 0.35800001 4278597654
-0.01132078 0.03919892 0.39200002 4278851588
-0.0048662201 0.038498942 0.38500002 4279510295
-0.0035875649 0.038198952 0.38200003 4279318812
-0.0023283972 0.037898958 0.37900001 4278991896
-0.0010945091 0.03779896 0.37800002 4278598421
0.00013323547 0.03779896 0.37800002 4278795800
0.0013609801 0.03779896 0.37800002 4278532628
0.0025818762 0.037698962 0.377 4278532628
0.0038164693 0.03779896 0.37800002 4278664212
0.0049908361 0.037398972 0.37400001 4278730005
0.0061889961 0.037298974 0.37300003 4278730005
0.0073409793 0.03699898 0.37 4278466833
0.0085196523 0.036898986 0.36900002 4278664212
0.0097181639 0.036898986 0.36900002 4278597908
0.010887093 0.036798988 0.36800003 4278860310
0.012082358 0.036798988 0.36800003 4278198532
0.013277622 0.036798988 0.36800003 4278393865
0.014433557 0.03669899 0.36700001 4278394376
0.015625574 0.03669899 0.36700001 4278858259
0.016817592 0.03669899 0.36700001 4278197506
0.018009609 0.03669899 0.36700001 4278523146
0.019201623 0.03669899 0.36700001 4278654732
0.020338073 0.036598995 0.36600003 4278195205
0.021526841 0.036598995 0.36600003 4279116818
0.022715611 0.036598995 0.36600003 4279379990
0.023904378 0.036598995 0.36600003 4278391814
0.025024587 0.036498994 0.36500001 4279445783
0.026210107 0.036498994 0.36500001 4278195203
0.027395627 0.036498994 0.36500001 4278195205
0.028581148 0.036498994 0.36500001 4279511578
0.029766668 0.036498994 0.36500001 4278328074
0.03086739 0.036398999 0.36400002 4278195718
0.032049663 0.036398999 0.36400002 4278195201
0.033231933 0.036398999 0.36400002 4278988564
0.034319662 0.036299001 0.36300001 4278727189
0.035498686 0.036299001 0.36300001 4278197767
0.036677711 0.036299001 0.36300001 4278458375
0.03775245 0.036199003 0.36200002 4278524170
0.038928226 0.036199003 0.36200002 4278923287
0.039993219 0.036099009 0.36100003 4278198278
0.041165747 0.036099009 0.36100003 4278196480
0.042220995 0.035999011 0.36000001 4278196224
0.043390274 0.035999011 0.36000001 4278660880
0.044435777 0.035899013 0.35900003 4279055638
0.045601811 0.035899013 0.35900003 4278397708
0.046637569 0.035799015 0.35800001 4278989845
0.047800355 0.035799015 0.35800001 4278858773
0.048963137 0.035799015 0.35800001 4278858773
0.050125923 0.035799015 0.35800001 4278924566
0.051145446 0.035699017 0.35700002 4278858773
0.052304983 0.035699017 0.35700002 4278923539
0.053464517 0.035699017 0.35700002 4279120918
0.054624055 0.035699017 0.35700002 4278923541
0.055783596 0.035699017 0.35700002 4279054357
0.056943126 0.035699017 0.35700002 4279579418
0.058102667 0.035699017 0.35700002 4279579418
0.059262205 0.035699017 0.35700002 4278460683
0.060421735 0.035699017 0.35700002 4278196740
0.061581276 0.035699017 0.35700002 4278195200
0.06274081 0.035699017 0.35700002 4278194176
0.063900352 0.035699017 0.35700002 4278594574
0.065059885 0.035699017 0.35700002 4278728211
0.066219419 0.035699017 0.35700002 4278663701
0.067378961 0.035699017 0.35700002 4278532115
0.068346508 0.035599019 0.35600001 4278532113
0.069698036 0.035699017 0.35700002 4278400527
0.07085757 0.035699017 0.35700002 4278597906
0.072017103 0.035699017 0.35700002 4278532113
0.073176645 0.035699017 0.35700002 4278795285
0.0745444 0.035799015 0.35800001 4278860310
0.075918667 0.035899013 0.35900003 4280239151
-0.0073671811 0.039749846 0.38500002 4279179018
-0.0061008125 0.039646596 0.384 4279113223
-0.0048283017 0.039440107 0.38200003 4278982150
-0.0035687818 0.039233614 0.38000003 4279713568
-0.0023283972 0.039130367 0.37900001 4278925849
-0.0010945091 0.039027121 0.37800002 4278598421
0.000132883 0.038923874 0.377 4278730007
0.0013573796 0.038923874 0.377 4278664214
0.0025818762 0.038923874 0.377 4278598421
0.0038063726 0.038923874 0.377 4278664214
0.0049908361 0.038614135 0.37400001 4278598419
0.0061889961 0.038510889 0.37300003 4278532626
0.0073608202 0.038304396 0.37100002 4278466835
0.0085196523 0.038097903 0.36900002 4278532628
0.0097181639 0.038097903 0.36900002 4278532115
0.010887093 0.037994657 0.36800003 4278662931
0.012082358 0.037994657 0.36800003 4278794004
0.013241541 0.03789141 0.36700001 4278460169
0.014433557 0.03789141 0.36700001 4279119383
0.015625574 0.03789141 0.36700001 4279055638
0.016817592 0.03789141 0.36700001 4278198534
0.018009609 0.03789141 0.36700001 4278785804
0.019149303 0.037788164 0.36600003 4278654218
0.020338073 0.037788164 0.36600003 4278587912
0.021526841 0.037788164 0.36600003 4278522119
0.022715611 0.037788164 0.36600003 4278719498
0.023904378 0.037788164 0.36600003 4278587912
0.025024587 0.037684917 0.36500001 4278522119
0.026210107 0.037684917 0.36500001 4278654218
0.027395627 0.037684917 0.36500001 4278391814
0.028581148 0.037684917 0.36500001 4278787853
0.029766668 0.037684917 0.36500001 4278920722
0.03086739 0.037581671 0.36400002 4278524681
0.032049663 0.037581671 0.36400002 4278328070
0.033231933 0.037581671 0.36400002 4278857748
0.034319662 0.037478425 0.36300001 4278265611
0.035498686 0.037478425 0.36300001 4278327302
0.036677711 0.037478425 0.36300001 4278588939
0.03775245 0.037375178 0.36200002 4278785804
0.038928226 0.037375178 0.36200002 4278854931
0.040104002 0.037375178 0.36200002 4278593039
0.041165747 0.037271935 0.36100003 4278923541
0.042338278 0.037271935 0.36100003 4279581471
0.043390274 0.037168685 0.36000001 4278593552
0.044559553 0.037168685 0.36000001 4278198537
0.045728832 0.037168685 0.36000001 4279318299
0.046767846 0.037065443 0.35900003 4278331404
0.04793388 0.037065443 0.35900003 4278791955
0.049099907 0.037065443 0.35900003 4278661394
0.050125923 0.036962193 0.35800001 4278530832
0.051288709 0.036962193 0.35800001 4278728211
0.052451495 0.036962193 0.35800001 4278596625
0.053614277 0.036962193 0.35800001 4278596625
0.054777063 0.036962193 0.35800001 4278728211
0.055939849 0.036962193 0.35800001 4278728211
0.057102628 0.036962193 0.35800001 4279056406
0.058265414 0.036962193 0.35800001 4278924820
0.059428204 0.036962193 0.35800001 4279055638
0.060590982 0.036962193 0.35800001 4278989845
0.061753768 0.036962193 0.35800001 4279055638
0.062916555 0.036962193 0.35800001 4279185941
0.064079344 0.036962193 0.35800001 4278196226
0.065059885 0.03685895 0.35700002 4278989845
0.066219419 0.03685895 0.35700002 4278596625
0.067378961 0.03685895 0.35700002 4278859797
0.068538494 0.03685895 0.35700002 4278531345
0.069698036 0.03685895 0.35700002 4278662931
0.071056046 0.036962193 0.35800001 4278531343
0.072218828 0.036962193 0.35800001 4278728722
0.073381618 0.036962193 0.35800001 4278860310
0.074752629 0.037065443 0.35900003 4278991383
0.075918667 0.037065443 0.35900003 4278790935
-0.0086400453 0.041107245 0.38600001 4279507465
-0.0073480452 0.040894251 0.384 4279046660
-0.0060690381 0.040681265 0.38200003 4279112453
-0.0048156618 0.040574767 0.38100001 4278981637
-0.0035593901 0.040361777 0.37900001 4279844641
-0.002322254 0.040255282 0.37800002 4278794263
-0.0010945091 0.040255282 0.37800002 4278597908
0.000132883 0.040148783 0.377 4278861080
0.0013573796 0.040148783 0.377 4278664214
0.0025818762 0.040148783 0.377 4278466833
0.0037962764 0.040042289 0.37600002 4278663699
0.0049908361 0.039829299 0.37400001 4278729492
0.0061889961 0.039722804 0.37300003 4278597906
0.0073608202 0.039509814 0.37100002 4278597908
0.0085196523 0.039296821 0.36900002 4278663701
0.0097181639 0.039296821 0.36900002 4278400529
0.010887093 0.03919033 0.36800003 4278662931
0.012082358 0.03919033 0.36800003 4278199559
0.013241541 0.039083831 0.36700001 4278198280
0.014433557 0.039083831 0.36700001 4279054103
0.015625574 0.039083831 0.36700001 4278924566
0.016817592 0.039083831 0.36700001 4278924568
0.017960537 0.038977336 0.36600003 4278391814
0.019149303 0.038977336 0.36600003 4278786058
0.020338073 0.038977336 0.36600003 4278522119
0.021526841 0.038977336 0.36600003 4278785804
0.022715611 0.038977336 0.36600003 4278719498
0.023904378 0.038977336 0.36600003 4278719498
0.025024587 0.038870838 0.36500001 4278785293
0.026210107 0.038870838 0.36500001 4278785293
0.027395627 0.038870838 0.36500001 4278719500
0.028581148 0.038870838 0.36500001 4278587912
0.029685117 0.038764346 0.36400002 4278522632
0.03086739 0.038764346 0.36400002 4278654472
0.032049663 0.038764346 0.36400002 4278788621
0.033231933 0.038764346 0.36400002 4278923539
0.034319662 0.038657848 0.36300001 4278857748
0.035498686 0.038657848 0.36300001 4278458375
0.036677711 0.038657848 0.36300001 4278720265
0.03775245 0.038551353 0.36200002 4278720265
0.038928226 0.038551353 0.36200002 4278854931
0.040104002 0.038551353 0.36200002 4278197769
0.041165747 0.038444858 0.36100003 4279186711
0.042338278 0.038444858 0.36100003 4278331402
0.043510806 0.038444858 0.36100003 4278988310
0.044559553 0.038338363 0.36000001 4278725138
0.045728832 0.038338363 0.36000001 4278858261
0.046898115 0.038338363 0.36000001 4279253017
0.04793388 0.038231868 0.35900003 4278988564
0.049099907 0.038231868 0.35900003 4278197506
0.050265942 0.038231868 0.35900003 4278198534
0.051431976 0.038231868 0.35900003 4278396427
0.052598011 0.038231868 0.35900003 4278197506
0.053764038 0.038231868 0.35900003 4278462220
0.054777063 0.03812537 0.35800001 4278195968
0.055939849 0.03812537 0.35800001 4278528013
0.057102628 0.03812537 0.35800001 4278924566
0.058265414 0.03812537 0.35800001 4278661394
0.059428204 0.03812537 0.35800001 4278727187
0.060590982 0.03812537 0.35800001 4278859027
0.061753768 0.03812537 0.35800001 4278925590
0.062916555 0.03812537 0.35800001 4278726673
0.064079344 0.03812537 0.35800001 4278198278
0.065242119 0.03812537 0.35800001 4278989845
0.066404909 0.03812537 0.35800001 4278925336
0.067567699 0.03812537 0.35800001 4278728211
0.068730474 0.03812537 0.35800001 4278531345
0.069893263 0.03812537 0.35800001 4278662931
0.071056046 0.03812537 0.35800001 4278662931
0.072218828 0.03812537 0.35800001 4278465552
0.073586598 0.038231868 0.35900003 4278728211
0.074752629 0.038231868 0.35900003 4278596371
0.075918667 0.038231868 0.35900003 4278593039
-0.0073289103 0.042032164 0.38300002 4279309062
-0.0060531502 0.041812673 0.38100001 4279178246
-0.0048030224 0.04170293 0.38000003 4279113223
-0.0035593901 0.041593187 0.37900001 4279250451
-0.002322254 0.041483443 0.37800002 4278990099
-0.0010945091 0.041483443 0.37800002 4278662931
0.000132883 0.041373696 0.377 4278597908
0.0013573796 0.041373696 0.377 4278597908
0.0025750278 0.041263953 0.37600002 4278597908
0.0037962764 0.041263953 0.37600002 4278597908
0.0049908361 0.041044462 0.37400001 4278203150
0.0061889961 0.040934719 0.37300003 4278663701
0.0073608202 0.040715229 0.37100002 4278532115
0.0085196523 0.040495742 0.36900002 4278532115
0.0096918279 0.040385999 0.36800003 4278532115
0.010887093 0.040385999 0.36800003 4278728724
0.012049525 0.040276252 0.36700001 4278200843
0.013241541 0.040276252 0.36700001 4278594322
0.014433557 0.040276252 0.36700001 4278660628
0.015582998 0.040166508 0.36600003 4278859543
0.016771767 0.040166508 0.36600003 4278662677
0.017960537 0.040166508 0.36600003 4278858773
0.019149303 0.040166508 0.36600003 4279055640
0.020338073 0.040166508 0.36600003 4279448861
0.021526841 0.040166508 0.36600003 4279316762
0.022715611 0.040166508 0.36600003 4279710752
0.023904378 0.040166508 0.36600003 4278987031
0.025024587 0.040056761 0.36500001 4278920211
0.026210107 0.040056761 0.36500001 4278393097
0.027395627 0.040056761 0.36500001 4278391046
0.028581148 0.040056761 0.36500001 4278522632
0.029685117 0.039947018 0.36400002 4278719498
0.03086739 0.039947018 0.36400002 4278719498
0.032049663 0.039947018 0.36400002 4279118099
0.033140637 0.039837271 0.36300001 4278923541
0.034319662 0.039837271 0.36300001 4278923541
0.035498686 0.039837271 0.36300001 4279118867
0.036677711 0.039837271 0.36300001 4278853646
0.03775245 0.039727528 0.36200002 4278985234
0.038928226 0.039727528 0.36200002 4278988312
0.040104002 0.039727528 0.36200002 4278923287
0.041165747 0.039617784 0.36100003 4278397197
0.042338278 0.039617784 0.36100003 4278725392
0.043510806 0.039617784 0.36100003 4279055127
0.044559553 0.039508041 0.36000001 4278197508
0.045728832 0.039508041 0.36000001 4278198277
0.046898115 0.039508041 0.36000001 4278198020
0.04793388 0.039398298 0.35900003 4278923541
0.049099907 0.039398298 0.35900003 4278198280
0.050265942 0.039398298 0.35900003 4278789648
0.051431976 0.039398298 0.35900003 4278460683
0.052598011 0.039398298 0.35900003 4278592269
0.053764038 0.039398298 0.35900003 4278194944
0.054930072 0.039398298 0.35900003 4278988564
0.056096107 0.039398298 0.35900003 4278198790
0.057262138 0.039398298 0.35900003 4278856724
0.058428172 0.039398298 0.35900003 4278330380
0.059594207 0.039398298 0.35900003 4278922771
0.060760234 0.039398298 0.35900003 4278791953
0.061926268 0.039398298 0.35900003 4278727441
0.063092306 0.039398298 0.35900003 4278989845
0.064258337 0.039398298 0.35900003 4278196482
0.065424368 0.039398298 0.35900003 4278858773
0.066590399 0.039398298 0.35900003 4278794004
0.067756437 0.039398298 0.35900003 4278794004
0.06892246 0.039398298 0.35900003 4278596625
0.070088498 0.039398298 0.35900003 4278596625
0.071254529 0.039398298 0.35900003 4278728211
0.07242056 0.039398298 0.35900003 4278596625
0.073586598 0.039398298 0.35900003 4278530832
0.074752629 0.039398298 0.35900003 4278596371
0.075918667 0.039398298 0.35900003 4279317529
-0.0073097749 0.043163579 0.38200003 4279243269
-0.0060531502 0.043050583 0.38100001 4279309064
-0.0048030224 0.042937592 0.38000003 4279244041
-0.0035593901 0.042824596 0.37900001 4279048967
-0.002322254 0.042711601 0.37800002 4279183631
-0.0010945091 0.042711601 0.37800002 4278726927
0.000132883 0.042598605 0.377 4278728211
0.0013573796 0.042598605 0.377 4278729240
0.0025750278 0.042485613 0.37600002 4278663447
0.0037962764 0.042485613 0.37600002 4278597654
0.0049908361 0.042259626 0.37400001 4278597654
0.0061889961 0.042146634 0.37300003 4278663701
0.0073608202 0.041920647 0.37100002 4278597908
0.0085196523 0.04169466 0.36900002 4278465552
0.0096918279 0.041581668 0.36800003 4278662931
0.010887093 0.041581668 0.36800003 4278662677
0.012049525 0.041468672 0.36700001 4278728470
0.013241541 0.041468672 0.36700001 4278859543
0.014394229 0.041355681 0.36600003 4278793750
0.015582998 0.041355681 0.36600003 4278531091
0.016771767 0.041355681 0.36600003 4278531091
0.017960537 0.041355681 0.36600003 4278728470
0.019149303 0.041355681 0.36600003 4278531091
0.020338073 0.041355681 0.36600003 4278662677
0.021526841 0.041355681 0.36600003 4278727957
0.022715611 0.041355681 0.36600003 4278793752
0.023839064 0.041242685 0.36500001 4278727959
0.025024587 0.041242685 0.36500001 4278858775
0.026210107 0.041242685 0.36500001 4278924568
0.027395627 0.041242685 0.36500001 4278792468
0.028502844 0.04112969 0.36400002 4279055127
0.029685117 0.04112969 0.36400002 4279317529
0.03086739 0.04112969 0.36400002 4279053590
0.032049663 0.04112969 0.36400002 4279054873
0.033140637 0.041016694 0.36300001 4278660628
0.034319662 0.041016694 0.36300001 4278328070
0.035498686 0.041016694 0.36300001 4278195200
0.036576673 0.040903702 0.36200002 4278193921
0.03775245 0.040903702 0.36200002 4278195459
0.038928226 0.040903702 0.36200002 4278195459
0.039993219 0.040790711 0.36100003 4278263306
0.041165747 0.040790711 0.36100003 4279119637
0.042338278 0.040790711 0.36100003 4278988564
0.043390274 0.040677715 0.36000001 4278791955
0.044559553 0.040677715 0.36000001 4278726675
0.045728832 0.040677715 0.36000001 4278792468
0.046898115 0.040677715 0.36000001 4278858259
0.04793388 0.040564723 0.35900003 4278858259
0.049099907 0.040564723 0.35900003 4278989845
0.050265942 0.040564723 0.35900003 4278989845
0.051431976 0.040564723 0.35900003 4278858259
0.052598011 0.040564723 0.35900003 4278792468
0.053764038 0.040564723 0.35900003 4278396943
0.054930072 0.040564723 0.35900003 4278195712
0.056096107 0.040564723 0.35900003 4278196740
0.057262138 0.040564723 0.35900003 4278922006
0.058428172 0.040564723 0.35900003 4278856213
0.059594207 0.040564723 0.35900003 4278658832
0.060760234 0.040564723 0.35900003 4279185943
0.061926268 0.040564723 0.35900003 4278924566
0.063092306 0.040564723 0.35900003 4278923541
0.064258337 0.040564723 0.35900003 4278790931
0.065424368 0.040564723 0.35900003 4278858775
0.066590399 0.040564723 0.35900003 4278531345
0.067756437 0.040564723 0.35900003 4278662931
0.06892246 0.040564723 0.35900003 4278662931
0.070088498 0.040564723 0.35900003 4278794517
0.071254529 0.040564723 0.35900003 4278530832
0.07242056 0.040564723 0.35900003 4278530832
0.073586598 0.040564723 0.35900003 4278530578
0.074752629 0.040564723 0.35900003 4279188508
0.075918667 0.040564723 0.35900003 4279450910
0.07708469 0.040564723 0.35900003 4285040757
-0.0060372627 0.04417225 0.38000003 4279309062
-0.0047903825 0.044056002 0.37900001 4279506443
-0.0035593901 0.044056002 0.37900001 4279507211
-0.002322254 0.043939762 0.37800002 4279376908
-0.0010945091 0.043939762 0.37800002 4279247373
0.000132883 0.043823518 0.377 4281946939
0.0013573796 0.043823518 0.377 4279448863
0.0025818762 0.043823518 0.377 4278790933
0.0037962764 0.043707278 0.37600002 4278857494
0.0050041811 0.043591034 0.37500003 4279515937
0.0061889961 0.043358549 0.37300003 4279385119
0.0073409793 0.043009818 0.37 4279385119
0.0085196523 0.042893577 0.36900002 4279254301
0.0096918279 0.042777337 0.36800003 4279254301
0.010887093 0.042777337 0.36800003 4278991129
0.012049525 0.042661093 0.36700001 4279056922
0.01320546 0.042544849 0.36600003 4278925336
0.014394229 0.042544849 0.36600003 4278991129
0.015582998 0.042544849 0.36600003 4278859543
0.016771767 0.042544849 0.36600003 4278727957
0.017960537 0.042544849 0.36600003 4278662677
0.019149303 0.042544849 0.36600003 4278662677
0.020338073 0.042544849 0.36600003 4278531091
0.021526841 0.042544849 0.36600003 4278531091
0.022715611 0.042544849 0.36600003 4278465298
0.023839064 0.042428605 0.36500001 4278531091
0.025024587 0.042428605 0.36500001 4278531091
0.026210107 0.042428605 0.36500001 4278662677
0.027320571 0.042312365 0.36400002 4278728470
0.028502844 0.042312365 0.36400002 4278662677
0.029685117 0.042312365 0.36400002 4278596371
0.03086739 0.042312365 0.36400002 4278793750
0.031961612 0.042196121 0.36300001 4278596371
0.033140637 0.042196121 0.36300001 4278596371
0.034319662 0.042196121 0.36300001 4278924566
0.035400894 0.042079877 0.36200002 4278924566
0.036576673 0.042079877 0.36200002 4279055640
0.03775245 0.042079877 0.36200002 4278923541
0.038928226 0.042079877 0.36200002 4279185689
0.039993219 0.041963637 0.36100003 4279185689
0.041165747 0.041963637 0.36100003 4278987797
0.042338278 0.041963637 0.36100003 4278987027
0.043390274 0.041847393 0.36000001 4278196997
0.044559553 0.041847393 0.36000001 4278195456
0.045728832 0.041847393 0.36000001 4278194944
0.046767846 0.041731153 0.35900003 4278195457
0.04793388 0.041731153 0.35900003 4278196740
0.049099907 0.041731153 0.35900003 4278263304
0.050265942 0.041731153 0.35900003 4278988564
0.051431976 0.041731153 0.35900003 4278923541
0.052598011 0.041731153 0.35900003 4278923541
0.053764038 0.041731153 0.35900003 4279121433
0.054930072 0.041731153 0.35900003 4278858261
0.056096107 0.041731153 0.35900003 4279055640
0.057262138 0.041731153 0.35900003 4279121433
0.058428172 0.041731153 0.35900003 4278858261
0.059594207 0.041731153 0.35900003 4279055127
0.060760234 0.041731153 0.35900003 4278792466
0.061926268 0.041731153 0.35900003 4278595601
0.063092306 0.041731153 0.35900003 4278199818
0.064258337 0.041731153 0.35900003 4278988051
0.065424368 0.041731153 0.35900003 4278858775
0.066590399 0.041731153 0.35900003 4278662677
0.067756437 0.041731153 0.35900003 4278531091
0.06892246 0.041731153 0.35900003 4278662677
0.070088498 0.041731153 0.35900003 4278728724
0.071254529 0.041731153 0.35900003 4278662931
0.07242056 0.041731153 0.35900003 4278596625
0.073586598 0.041731153 0.35900003 4278596371
0.074752629 0.041731153 0.35900003 4278793750
0.075918667 0.041731153 0.35900003 4279054105
0.07708469 0.041731153 0.35900003 4285171319
-0.002322254 0.045167923 0.37800002 4279573774
-0.0010945091 0.045167923 0.37800002 4279771666
0.0073409793 0.044211987 0.37 4282342470
0.0085196523 0.044092495 0.36900002 4279975205
0.0096918279 0.043973006 0.36800003 4278856724
0.010857509 0.04385351 0.36700001 4278593552
0.012049525 0.04385351 0.36700001 4279252252
0.01320546 0.043734021 0.36600003 4279252765
0.014394229 0.043734021 0.36600003 4279252765
0.015582998 0.043734021 0.36600003 4279450398
0.016771767 0.043734021 0.36600003 4279187738
0.017960537 0.043734021 0.36600003 4279385117
0.019149303 0.043734021 0.36600003 4279319324
0.020338073 0.043734021 0.36600003 4279385117
0.021526841 0.043734021 0.36600003 4279056922
0.022715611 0.043734021 0.36600003 4278727957
0.023839064 0.043614529 0.36500001 4278793750
0.025024587 0.043614529 0.36500001 4279056922
0.026210107 0.043614529 0.36500001 4278531091
0.027320571 0.043495037 0.36400002 4278728470
0.028502844 0.043495037 0.36400002 4278531091
0.029603563 0.043375544 0.36300001 4278531091
0.03078259 0.043375544 0.36300001 4278399505
0.031961612 0.043375544 0.36300001 4278465298
0.033140637 0.043375544 0.36300001 4278662677
0.034319662 0.043375544 0.36300001 4278465298
0.035400894 0.043256052 0.36200002 4278662931
0.036576673 0.043256052 0.36200002 4278728724
0.03775245 0.043256052 0.36200002 4278531345
0.038820688 0.043136563 0.36100003 4278794004
0.039993219 0.043136563 0.36100003 4278596625
0.041165747 0.043136563 0.36100003 4278596625
0.042220995 0.043017067 0.36000001 4278596625
0.043390274 0.043017067 0.36000001 4278661394
0.044559553 0.043017067 0.36000001 4278989845
0.045601811 0.042897578 0.35900003 4278989847
0.046767846 0.042897578 0.35900003 4278857748
0.04793388 0.042897578 0.35900003 4279185943
0.049099907 0.042897578 0.35900003 4279580188
0.050125923 0.042778086 0.35800001 4279251223
0.051288709 0.042778086 0.35800001 4278394630
0.052451495 0.042778086 0.35800001 4278195457
0.053764038 0.042897578 0.35900003 4278194176
0.054930072 0.042897578 0.35900003 4278195200
0.056096107 0.042897578 0.35900003 4278195200
0.057262138 0.042897578 0.35900003 4278195970
0.058428172 0.042897578 0.35900003 4278790418
0.059594207 0.042897578 0.35900003 4279317529
0.060760234 0.042897578 0.35900003 4278922769
0.061926268 0.042897578 0.35900003 4279187224
0.063092306 0.042897578 0.35900003 4278198535
0.064258337 0.042897578 0.35900003 4279185943
0.065424368 0.042897578 0.35900003 4278858261
0.066590399 0.042897578 0.35900003 4278794263
0.067756437 0.042897578 0.35900003 4278794263
0.06892246 0.042897578 0.35900003 4278728724
0.070088498 0.042897578 0.35900003 4278531345
0.071254529 0.042897578 0.35900003 4278662931
0.07242056 0.042897578 0.35900003 4278728724
0.073586598 0.042897578 0.35900003 4278530832
0.074752629 0.042897578 0.35900003 4278859027
0.075918667 0.042897578 0.35900003 4278856215
0.07708469 0.042897578 0.35900003 4285762942
0.01320546 0.044923194 0.36600003 4284053092
0.014394229 0.044923194 0.36600003 4283329367
0.015582998 0.044923194 0.36600003 4281751105
0.016771767 0.044923194 0.36600003 4280238381
0.017960537 0.044923194 0.36600003 4279251484
0.019149303 0.044923194 0.36600003 4278725908
0.020338073 0.044923194 0.36600003 4279055386
0.021526841 0.044923194 0.36600003 4279252765
0.022653546 0.044800449 0.36500001 4279450144
0.023839064 0.044800449 0.36500001 4279581730
0.025024587 0.044800449 0.36500001 4279384865
0.026138298 0.044677708 0.36400002 4279254049
0.027320571 0.044677708 0.36400002 4279188510
0.028502844 0.044677708 0.36400002 4279188508
0.029603563 0.044554967 0.36300001 4279714852
0.03078259 0.044554967 0.36300001 4279123228
0.031961612 0.044554967 0.36300001 4278465298
0.033140637 0.044554967 0.36300001 4278728470
0.034225117 0.044432227 0.36200002 4278662677
0.035400894 0.044432227 0.36200002 4278662931
0.036576673 0.044432227 0.36200002 4278662931
0.03775245 0.044432227 0.36200002 4278662931
0.038820688 0.044309489 0.36100003 4278531345
0.039993219 0.044309489 0.36100003 4278531345
0.041051712 0.044186745 0.36000001 4278465298
0.042220995 0.044186745 0.36000001 4278465298
0.043390274 0.044186745 0.36000001 4278531091
0.044435777 0.044064008 0.35900003 4278596371
0.045601811 0.044064008 0.35900003 4278596371
0.046767846 0.044064008 0.35900003 4278530578
0.047800355 0.043941263 0.35800001 4278596371
0.048963137 0.043941263 0.35800001 4278858773
0.050125923 0.043941263 0.35800001 4278727187
0.051288709 0.043941263 0.35800001 4278858773
0.052451495 0.043941263 0.35800001 4278661394
0.053614277 0.043941263 0.35800001 4278990359
0.054777063 0.043941263 0.35800001 4278989847
0.055939849 0.043941263 0.35800001 4279055386
0.057102628 0.043941263 0.35800001 4279251482
0.058428172 0.044064008 0.35900003 4279053590
0.059594207 0.044064008 0.35900003 4278986002
0.060760234 0.044064008 0.35900003 4278591757
0.061926268 0.044064008 0.35900003 4278194688
0.063092306 0.044064008 0.35900003 4278525449
0.064258337 0.044064008 0.35900003 4279121431
0.065424368 0.044064008 0.35900003 4279056152
0.066590399 0.044064008 0.35900003 4278662677
0.067567699 0.043941263 0.35800001 4278794263
0.068730474 0.043941263 0.35800001 4278662931
0.069893263 0.043941263 0.35800001 4278794517
0.071254529 0.044064008 0.35900003 4278662931
0.07242056 0.044064008 0.35900003 4278531345
0.073586598 0.044064008 0.35900003 4278661648
0.074752629 0.044064008 0.35900003 4279055892
0.075918667 0.044064008 0.35900003 4281750083
0.07708469 0.044064008 0.35900003 4284907633
0.015582998 0.046112366 0.36600003 4283657307
0.016771767 0.046112366 0.36600003 4283591514
0.017960537 0.046112366 0.36600003 4283855197
0.019149303 0.046112366 0.36600003 4283986783
0.020338073 0.046112366 0.36600003 4284973678
0.021526841 0.046112366 0.36600003 4284711020
0.022653546 0.045986373 0.36500001 4284513389
0.023839064 0.045986373 0.36500001 4283131736
0.025024587 0.045986373 0.36500001 4280764212
0.026138298 0.045860387 0.36400002 4279316766
0.027320571 0.045860387 0.36400002 4278790681
0.028424539 0.045734394 0.36300001 4278791451
0.029603563 0.045734394 0.36300001 4279515424
0.03078259 0.045734394 0.36300001 4279515424
0.031961612 0.045734394 0.36300001 4279318558
0.033049341 0.045608405 0.36200002 4279450658
0.034225117 0.045608405 0.36200002 4279450912
0.035400894 0.045608405 0.36200002 4279516703
0.036576673 0.045608405 0.36200002 4279123228
0.03775245 0.045608405 0.36200002 4278860056
0.038820688 0.045482416 0.36100003 4278925849
0.039993219 0.045482416 0.36100003 4278860056
0.041051712 0.045356423 0.36000001 4278860056
0.042220995 0.045356423 0.36000001 4278860056
0.043390274 0.045356423 0.36000001 4278793750
0.044435777 0.045230437 0.35900003 4278727957
0.045601811 0.045230437 0.35900003 4278793750
0.046637569 0.045104444 0.35800001 4278596371
0.047800355 0.045104444 0.35800001 4278859543
0.048963137 0.045104444 0.35800001 4278793750
0.050125923 0.045104444 0.35800001 4278859543
0.051288709 0.045104444 0.35800001 4278596371
0.052451495 0.045104444 0.35800001 4278596371
0.053614277 0.045104444 0.35800001 4278727957
0.054777063 0.045104444 0.35800001 4278727957
0.055939849 0.045104444 0.35800001 4278596371
0.057102628 0.045104444 0.35800001 4278727957
0.058265414 0.045104444 0.35800001 4278727957
0.059428204 0.045104444 0.35800001 4278727187
0.060590982 0.045104444 0.35800001 4278989845
0.061753768 0.045104444 0.35800001 4278989845
0.062916555 0.045104444 0.35800001 4278989845
0.064079344 0.045104444 0.35800001 4278858773
0.065242119 0.045104444 0.35800001 4278859543
0.066404909 0.045104444 0.35800001 4278728470
0.067567699 0.045104444 0.35800001 4278662677
0.068730474 0.045104444 0.35800001 4278794517
0.069893263 0.045104444 0.35800001 4278728724
0.071056046 0.045104444 0.35800001 4278728211
0.072218828 0.045104444 0.35800001 4278727441
0.073586598 0.045230437 0.35900003 4278792466
0.074752629 0.045230437 0.35900003 4278594576
0.075918667 0.045230437 0.35900003 4285631358
0.016771767 0.047301535 0.36600003 4284117088
0.017960537 0.047301535 0.36600003 4284051295
0.019149303 0.047301535 0.36600003 4284117088
0.020338073 0.047301535 0.36600003 4284380006
0.021526841 0.047301535 0.36600003 4284446569
0.022653546 0.047172293 0.36500001 4284578155
0.023839064 0.047172293 0.36500001 4284841327
0.025024587 0.047172293 0.36500001 4284972913
0.026138298 0.047043055 0.36400002 4284972913
0.027320571 0.047043055 0.36400002 4285170292
0.028424539 0.046913814 0.36300001 4285368184
0.029603563 0.046913814 0.36300001 4285302393
0.03078259 0.046913814 0.36300001 4284973942
0.031873565 0.046784576 0.36200002 4283394908
0.033049341 0.046784576 0.36200002 4281751107
0.034225117 0.046784576 0.36200002 4279382818
0.035400894 0.046784576 0.36200002 4278856728
0.036576673 0.046784576 0.36200002 4278331150
0.03775245 0.046784576 0.36200002 4279055386
0.038820688 0.046655338 0.36100003 4279252765
0.039993219 0.046655338 0.36100003 4279186972
0.041051712 0.046526097 0.36000001 4279121433
0.042220995 0.046526097 0.36000001 4279055640
0.043269746 0.046396859 0.35900003 4279318810
0.044435777 0.046396859 0.35900003 4279121431
0.045601811 0.046396859 0.35900003 4279450396
0.046637569 0.046267621 0.35800001 4279187738
0.047800355 0.046267621 0.35800001 4279319324
0.048963137 0.046267621 0.35800001 4279319324
0.050125923 0.046267621 0.35800001 4279582496
0.051288709 0.046267621 0.35800001 4279056152
0.052451495 0.046267621 0.35800001 4278925338
0.053614277 0.046267621 0.35800001 4278991129
0.054777063 0.046267621 0.35800001 4279121945
0.055939849 0.046267621 0.35800001 4279056152
0.057102628 0.046267621 0.35800001 4278925336
0.058265414 0.046267621 0.35800001 4278793750
0.059428204 0.046267621 0.35800001 4278924566
0.060590982 0.046267621 0.35800001 4278924566
0.061753768 0.046267621 0.35800001 4278530578
0.062916555 0.046267621 0.35800001 4278793750
0.064079344 0.046267621 0.35800001 4278596625
0.065242119 0.046267621 0.35800001 4278794004
0.066404909 0.046267621 0.35800001 4278728211
0.067567699 0.046267621 0.35800001 4278728211
0.068730474 0.046267621 0.35800001 4278728211
0.069893263 0.046267621 0.35800001 4278794004
0.071056046 0.046267621 0.35800001 4278728211
0.072218828 0.046267621 0.35800001 4278924566
0.073586598 0.046396859 0.35900003 4279120666
0.074752629 0.046396859 0.35900003 4281421888
0.021526841 0.048490711 0.36600003 4284511592
0.022653546 0.048358217 0.36500001 4284841327
0.023839064 0.048358217 0.36500001 4284907120
0.025024587 0.048358217 0.36500001 4284907122
0.026138298 0.048225731 0.36400002 4285170294
0.027320571 0.048225731 0.36400002 4285170294
0.028424539 0.048093241 0.36300001 4285038708
0.029603563 0.048093241 0.36300001 4285170292
0.03078259 0.048093241 0.36300001 4284841327
0.031873565 0.047960754 0.36200002 4284775534
0.033049341 0.047960754 0.36200002 4284512875
0.034225117 0.047960754 0.36200002 4284052838
0.035400894 0.047960754 0.36200002 4284183910
0.036576673 0.047960754 0.36200002 4283920992
0.03775245 0.047960754 0.36200002 4283197783
0.038820688 0.047828268 0.36100003 4283658334
0.039993219 0.047828268 0.36100003 4283395160
0.041051712 0.047695778 0.36000001 4282474056
0.042220995 0.047695778 0.36000001 4281420856
0.043269746 0.047563292 0.35900003 4280303659
0.044435777 0.047563292 0.35900003 4280501040
0.045474783 0.047430802 0.35800001 4279777830
0.046637569 0.047430802 0.35800001 4279317279
0.047800355 0.047430802 0.35800001 4278790933
0.048963137 0.047430802 0.35800001 4279185691
0.050125923 0.047430802 0.35800001 4279053590
0.051288709 0.047430802 0.35800001 4279316762
0.052451495 0.047430802 0.35800001 4279185689
0.053614277 0.047430802 0.35800001 4279251482
0.054777063 0.047430802 0.35800001 4279514908
0.055939849 0.047430802 0.35800001 4279515678
0.057102628 0.047430802 0.35800001 4279252506
0.058265414 0.047430802 0.35800001 4279384092
0.059428204 0.047430802 0.35800001 4279384090
0.060590982 0.047430802 0.35800001 4279384090
0.061753768 0.047430802 0.35800001 4279253017
0.062916555 0.047430802 0.35800001 4279318810
0.064079344 0.047430802 0.35800001 4279121945
0.065242119 0.047430802 0.35800001 4279121945
0.066404909 0.047430802 0.35800001 4278990359
0.067567699 0.047430802 0.35800001 4278990359
0.068730474 0.047430802 0.35800001 4279121945
0.069893263 0.047430802 0.35800001 4279056152
0.071056046 0.047430802 0.35800001 4279121945
0.072218828 0.047430802 0.35800001 4279318297
0.073586598 0.047563292 0.35900003 4281815878
0.074752629 0.047563292 0.35900003 4285565565
0.064079344 0.048593976 0.35800001 4280500266
0.065242119 0.048593976 0.35800001 4279842336
0.066404909 0.048593976 0.35800001 4279251484
0.067567699 0.048593976 0.35800001 4279317277
0.068730474 0.048593976 0.35800001 4279185689
0.069893263 0.048593976 0.35800001 4279448348
0.071056046 0.048593976 0.35800001 4282078786
0.072218828 0.048593976 0.35800001 4285565563
0.071056046 0.049757157 0.35800001 4285170546
0.034028653 0.038442988 0.36652976 4294967295
0.034028653 0.038442988 0.36652976 4294901760
0.034028653 0.038442988 0.36702976 4294901760
0.034028653 0.038442988 0.36752975 4294901760
0.034028653 0.038442988 0.36802977 4294901760
0.034028653 0.038442988 0.36852977 4294901760
0.034028653 0.038442988 0.36902976 4294901760
0.034028653 0.038442988 0.36952975 4294901760
0.034028653 0.038442988 0.37002978 4294901760
0.034028653 0.038442988 0.37052977 4294901760
0.034028653 0.038442988 0.37102976 4294901760
0.034028653 0.038442988 0.37152976 4294901760
0.034028653 0.038442988 0.37202975 4294901760
0.034028653 0.038442988 0.37252977 4294901760
0.034028653 0.038442988 0.37302977 4294901760
0.034028653 0.038442988 0.37352976 4294901760
0.034028653 0.038442988 0.37402976 4294901760
0.034028653 0.038442988 0.37452978 4294901760
0.034028653 0.038442988 0.37502977 4294901760
0.034028653 0.038442988 0.37552977 4294901760
0.034028653 0.038442988 0.37602976 4294901760
0.034028653 0.038442988 0.37652975 4294901760
0.034028653 0.038442988 0.37702978 4294901760
0.034028653 0.038442988 0.37752977 4294901760
0.034028653 0.038442988 0.37802976 4294901760
0.034028653 0.038442988 0.37852976 4294901760
0.034028653 0.038442988 0.37902975 4294901760
0.034028653 0.038442988 0.37952977 4294901760
0.034028653 0.038442988 0.38002977 4294901760
0.034028653 0.038442988 0.38052976 4294901760
0.034028653 0.038442988 0.38102975 4294901760
0.034028653 0.038442988 0.38152978 4294901760
0.034028653 0.038442988 0.38202977 4294901760
0.034028653 0.038442988 0.38252977 4294901760
0.034028653 0.038442988 0.38302976 4294901760
0.034028653 0.038442988 0.38352978 4294901760
0.034028653 0.038442988 0.38402978 4294901760
0.034028653 0.038442988 0.38452977 4294901760
0.034028653 0.038442988 0.38502976 4294901760
0.034028653 0.038442988 0.38552976 4294901760
0.034028653 0.038442988 0.38602978 4294901760
0.034028653 0.038442988 0.38652977 4294901760
0.034028653 0.038442988 0.38702977 4294901760
0.034028653 0.038442988 0.38752976 4294901760
0.034028653 0.038442988 0.38802975 4294901760
0.034028653 0.038442988 0.38852978 4294901760
0.034028653 0.038442988 0.38902977 4294901760
0.034028653 0.038442988 0.38952976 4294901760
0.034028653 0.038442988 0.39002976 4294901760
0.034028653 0.038442988 0.39052978 4294901760
0.034028653 0.038442988 0.39102978 4294901760
0.034028653 0.038442988 0.39152977 4294901760
0.034028653 0.038442988 0.39202976 4294901760
0.034028653 0.038442988 0.39252976 4294901760
0.034028653 0.038442988 0.39302978 4294901760
0.034028653 0.038442988 0.39352977 4294901760
0.034028653 0.038442988 0.39402977 4294901760
0.034028653 0.038442988 0.39452976 4294901760
0.034028653 0.038442988 0.39502978 4294901760
0.034028653 0.038442988 0.39552978 4294901760
0.034028653 0.038442988 0.39602977 4294901760
0.034028653 0.038442988 0.39652976 4294901760
0.034028653 0.038442988 0.39702976 4294901760
0.034028653 0.038442988 0.39752978 4294901760
0.034028653 0.038442988 0.39802977 4294901760
0.034028653 0.038442988 0.39852977 4294901760
0.034028653 0.038442988 0.39902976 4294901760
0.034028653 0.038442988 0.39952978 4294901760
0.034028653 0.038442988 0.40002978 4294901760
0.034028653 0.038442988 0.40052977 4294901760
0.034028653 0.038442988 0.40102977 4294901760
0.034028653 0.038442988 0.40152976 4294901760
0.034028653 0.038442988 0.40202978 4294901760
0.034028653 0.038442988 0.40252978 4294901760
0.034028653 0.038442988 0.40302977 4294901760
0.034028653 0.038442988 0.40352976 4294901760
0.034028653 0.038442988 0.40402979 4294901760
0.034028653 0.038442988 0.40452978 4294901760
0.034028653 0.038442988 0.40502977 4294901760
0.034028653 0.038442988 0.40552977 4294901760
0.034028653 0.038442988 0.40602976 4294901760
0.034028653 0.038442988 0.40652978 4294901760
0.034028653 0.038442988 0.40702978 4294901760
0.034028653 0.038442988 0.40752977 4294901760
0.034028653 0.038442988 0.40802976 4294901760
0.034028653 0.038442988 0.40852976 4294901760
0.034028653 0.038442988 0.40902978 4294901760
0.034028653 0.038442988 0.40952978 4294901760
0.034028653 0.038442988 0.41002977 4294901760
0.034028653 0.038442988 0.41052976 4294901760
0.034028653 0.038442988 0.41102976 4294901760
0.034028653 0.038442988 0.41152978 4294901760
0.034028653 0.038442988 0.41202977 4294901760
0.034028653 0.038442988 0.41252977 4294901760
0.034028653 0.038442988 0.41302979 4294901760
0.034028653 0.038442988 0.41352978 4294901760
0.034028653 0.038442988 0.41402978 4294901760
0.034028653 0.038442988 0.41452977 4294901760
0.034028653 0.038442988 0.41502976 4294901760
0.034028653 0.038442988 0.41552979 4294901760
0.034028653 0.038442988 0.41602978 4294901760
0.034028653 0.038442988 0.41652977 4294901760
0.034028653 0.038442988 0.36652976 4278255360
0.034155689 0.038452551 0.36701328 4278255360
0.034282725 0.038462114 0.36749676 4278255360
0.034409758 0.038471676 0.36798027 4278255360
0.034536794 0.038481236 0.36846375 4278255360
0.03466383 0.038490798 0.36894727 4278255360
0.034790866 0.038500361 0.36943075 4278255360
0.034917902 0.038509924 0.36991426 4278255360
0.035044935 0.038519487 0.37039775 4278255360
0.035171971 0.03852905 0.37088126 4278255360
0.035299007 0.038538612 0.37136474 4278255360
0.035426043 0.038548175 0.37184826 4278255360
0.035553079 0.038557734 0.37233174 4278255360
0.035680115 0.038567297 0.37281525 4278255360
0.035807148 0.03857686 0.37329873 4278255360
0.035934184 0.038586423 0.37378225 4278255360
0.03606122 0.038595986 0.37426573 4278255360
0.036188256 0.038605548 0.37474924 4278255360
0.036315292 0.038615111 0.37523273 4278255360
0.036442325 0.038624674 0.37571624 4278255360
0.036569361 0.038634233 0.37619972 4278255360
0.036696397 0.038643796 0.37668324 4278255360
0.036823433 0.038653359 0.37716672 4278255360
0.036950469 0.038662922 0.37765023 4278255360
0.037077501 0.038672484 0.37813371 4278255360
0.037204538 0.038682047 0.37861723 4278255360
0.037331574 0.03869161 0.37910071 4278255360
0.03745861 0.038701169 0.37958422 4278255360
0.037585646 0.038710732 0.38006771 4278255360
0.037712678 0.038720295 0.38055122 4278255360
0.037839714 0.038729858 0.3810347 4278255360
0.037966751 0.03873942 0.38151821 4278255360
0.038093787 0.038748983 0.3820017 4278255360
0.038220823 0.038758546 0.38248521 4278255360
0.038347855 0.038768109 0.38296869 4278255360
0.038474891 0.038777668 0.38345221 4278255360
0.038601927 0.038787231 0.38393569 4278255360
0.038728964 0.038796794 0.3844192 4278255360
0.038856 0.038806356 0.38490269 4278255360
0.038983032 0.038815919 0.3853862 4278255360
0.039110068 0.038825482 0.38586968 4278255360
0.039237104 0.038835045 0.38635319 4278255360
0.03936414 0.038844608 0.38683668 4278255360
0.039491177 0.038854167 0.38732019 4278255360
0.039618213 0.03886373 0.38780367 4278255360
0.039745245 0.038873293 0.38828719 4278255360
0.039872281 0.038882855 0.3887707 4278255360
0.039999317 0.038892418 0.38925418 4278255360
0.040126354 0.038901981 0.38973767 4278255360
0.04025339 0.038911544 0.39022118 4278255360
0.040380426 0.038921103 0.39070469 4278255360
0.040507458 0.038930666 0.39118817 4278255360
0.040634494 0.038940229 0.39167166 4278255360
0.04076153 0.038949791 0.39215517 4278255360
0.040888567 0.038959354 0.39263868 4278255360
0.041015603 0.038968917 0.39312217 4278255360
0.041142635 0.03897848 0.39360568 4278255360
0.041269671 0.038988043 0.39408916 4278255360
0.041396707 0.038997602 0.39457268 4278255360
0.041523743 0.039007165 0.39505616 4278255360
0.04165078 0.039016727 0.39553967 4278255360
0.041777812 0.03902629 0.39602315 4278255360
0.041904848 0.039035853 0.39650667 4278255360
0.042031884 0.039045416 0.39699015 4278255360
0.04215892 0.039054979 0.39747366 4278255360
0.042285956 0.039064541 0.39795715 4278255360
0.042412989 0.039074101 0.39844066 4278255360
0.042540025 0.039083663 0.39892414 4278255360
0.042667061 0.039093226 0.39940766 4278255360
0.042794097 0.039102789 0.39989114 4278255360
0.042921133 0.039112352 0.40037465 4278255360
0.043048166 0.039121915 0.40085813 4278255360
0.043175206 0.039131477 0.40134165 4278255360
0.043302238 0.03914104 0.40182513 4278255360
0.043429274 0.039150599 0.40230864 4278255360
0.04355631 0.039160162 0.40279213 4278255360
0.043683343 0.039169725 0.40327564 4278255360
0.043810379 0.039179288 0.40375912 4278255360
0.043937415 0.039188851 0.40424263 4278255360
0.044064451 0.039198413 0.40472612 4278255360
0.044191487 0.039207976 0.40520963 4278255360
0.04431852 0.039217535 0.40569311 4278255360
