# .PCD v0.7 - Point Cloud Data file format
VERSION 0.7
FIELDS x y z rgb
SIZE 4 4 4 4
TYPE F F F U
COUNT 1 1 1 1
WIDTH 1056
HEIGHT 1
VIEWPOINT 0 0 0 1 0 0 0
POINTS 1056
DATA ascii
0.067086443 0.034897268 0.33800003 4280636208
0.068184264 0.034897268 0.33800003 4280503852
-0.019975219 0.04121374 0.38700002 4286091396
-0.018718243 0.04121374 0.38700002 4286091396
-0.017461266 0.04121374 0.38700002 4286222980
-0.01620429 0.04121374 0.38700002 4283129680
-0.014947313 0.04121374 0.38700002 4283524436
-0.013725711 0.041320235 0.38800001 4282865736
-0.012465486 0.041320235 0.38800001 4282865736
-0.011205262 0.041320235 0.38800001 4284050780
-0.0099194059 0.04121374 0.38700002 4283984987
-0.0086624296 0.04121374 0.38700002 4279904537
-0.0073863165 0.041107245 0.38600001 4281484083
-0.0061167004 0.04100075 0.38500002 4280826155
-0.0048409407 0.040787756 0.38300002 4280102432
-0.0035687818 0.040468272 0.38000003 4280364836
-0.0022853927 0.039616309 0.37200001 4280759594
-0.0010742405 0.039509814 0.37100002 4280694315
0.00013041566 0.039403316 0.37 4281286452
0.0013285758 0.039296821 0.36900002 4280500266
0.0025202399 0.03919033 0.36800003 4279648289
0.0037155047 0.03919033 0.36800003 4278928152
0.004897425 0.039083831 0.36700001 4278796566
0.006072849 0.038977336 0.36600003 4278862873
0.0072417771 0.038870838 0.36500001 4278797082
0.0084042093 0.038764346 0.36400002 4278665498
0.0095338086 0.038551353 0.36200002 4278731291
0.010680002 0.038444858 0.36100003 4278796568
0.011786866 0.038231868 0.35900003 4278664982
0.012916816 0.03812537 0.35800001 4278467603
0.014040273 0.038018879 0.35700002 4278533396
0.015157233 0.03791238 0.35600001 4278197764
0.016267698 0.037805885 0.35500002 4278920974
0.017420739 0.037805885 0.35500002 4278860310
0.018521456 0.03769939 0.354 4278991896
0.01967125 0.03769939 0.354 4278654986
0.020762227 0.037592895 0.35300002 4278851851
0.021908771 0.037592895 0.35300002 4278851338
0.022990003 0.0374864 0.35200003 4278719498
0.02406474 0.037379902 0.35100001 4278720011
0.02513298 0.037273411 0.35000002 4278785804
0.02626978 0.037273411 0.35000002 4278851597
0.027328275 0.037166912 0.34900001 4278654218
0.028380277 0.037060417 0.34800002 4278719752
0.029425781 0.036953922 0.347 4278785545
0.030552836 0.036953922 0.347 4278785545
0.031588595 0.036847427 0.34600002 4278786058
0.032712407 0.036847427 0.34600002 4278195969
0.033738423 0.036740933 0.34500003 4279253017
0.034757942 0.036634434 0.34400001 4278331917
0.035875253 0.036634434 0.34400001 4278197248
0.036885031 0.036527943 0.34300002 4278195456
0.037999097 0.036527943 0.34300002 4278197509
0.038999125 0.036421444 0.34200001 4278196994
0.039992664 0.036314949 0.34100002 4278397197
0.041100234 0.036314949 0.34100002 4279056406
0.0422078 0.036314949 0.34100002 4279188760
0.04331537 0.036314949 0.34100002 4278795285
0.044292662 0.036208451 0.34 4278861076
0.045396984 0.036208451 0.34 4278927382
0.046501301 0.036208451 0.34 4278664980
0.047605623 0.036208451 0.34 4278664980
0.048566684 0.03610196 0.33900002 4278862359
0.049667757 0.03610196 0.33900002 4278862359
0.050619069 0.035995465 0.33800003 4278599187
0.051563885 0.035888966 0.33700001 4278796566
0.052658461 0.035888966 0.33700001 4278599187
0.053593531 0.035782471 0.33600003 4278796566
0.054684862 0.035782471 0.33600003 4278533908
0.055610187 0.035675976 0.33500001 4278797080
0.056529019 0.035569482 0.33400002 4278731287
0.057613853 0.035569482 0.33400002 4278599189
0.058698688 0.035569482 0.33400002 4279256351
0.059962511 0.035675976 0.33500001 4279124252
0.06105059 0.035675976 0.33500001 4279716135
0.062324163 0.035782471 0.33600003 4280636467
0.06341549 0.035782471 0.33600003 4284584047
0.0646988 0.035888966 0.33700001 4286294152
0.06579338 0.035888966 0.33700001 4283006046
0.06688796 0.035888966 0.33700001 4279913768
0.067982532 0.035888966 0.33700001 4279782182
0.069077104 0.035888966 0.33700001 4279716389
0.069963463 0.035782471 0.33600003 4279913768
0.071054794 0.035782471 0.33600003 4281096759
-0.017461266 0.042471144 0.38700002 4286222464
-0.01620429 0.042471144 0.38700002 4282009652
-0.014985936 0.042580888 0.38800001 4281745708
-0.013761087 0.042690631 0.38900003 4282667832
-0.012497614 0.042690631 0.38900003 4284510551
-0.011234142 0.042690631 0.38900003 4283786576
-0.008684813 0.042580888 0.38800001 4280627999
-0.0074054524 0.042471144 0.38700002 4280365086
-0.0061325878 0.042361397 0.38600001 4280167711
-0.0048662201 0.042251654 0.38500002 4280233250
-0.0035781732 0.041812673 0.38100001 4280496422
-0.0022792493 0.040715229 0.37100002 4280496422
-0.0010713449 0.040605485 0.37 4280167457
0.0001300632 0.040495742 0.36900002 4280891694
0.0013285758 0.040495742 0.36900002 4280697131
0.0025202399 0.040385999 0.36800003 4279517473
0.003705408 0.040276252 0.36700001 4278796570
0.004897425 0.040276252 0.36700001 4278928156
0.006072849 0.040166508 0.36600003 4278533912
0.0072417771 0.040056761 0.36500001 4278533912
0.0083811209 0.039837271 0.36300001 4278665498
0.0095338086 0.039727528 0.36200002 4278731291
0.010650417 0.039508041 0.36000001 4278533912
0.011786866 0.039398298 0.35900003 4278665496
0.012916816 0.039288551 0.35800001 4278665496
0.014040273 0.039178807 0.35700002 4278599189
0.015157233 0.03906906 0.35600001 4278198021
0.016267698 0.038959317 0.35500002 4279118867
0.017420739 0.038959317 0.35500002 4278926103
0.018521456 0.03884957 0.354 4278728211
0.01967125 0.03884957 0.354 4278524170
0.020762227 0.038739827 0.35300002 4280300581
0.021908771 0.038739827 0.35300002 4278984721
0.022990003 0.038630083 0.35200003 4279248406
0.02406474 0.038520336 0.35100001 4280037922
0.02513298 0.038410597 0.35000002 4279379992
0.02626978 0.038410597 0.35000002 4279379992
0.027328275 0.038300849 0.34900001 4279445785
0.028380277 0.038191106 0.34800002 4278654472
0.029510582 0.038191106 0.34800002 4278917644
0.030552836 0.038081359 0.347 4278457093
0.031588595 0.037971616 0.34600002 4278851851
0.032712407 0.037971616 0.34600002 4278328070
0.033738423 0.037861872 0.34500003 4279450396
0.034858983 0.037861872 0.34500003 4278860056
0.035875253 0.037752125 0.34400001 4278794263
0.036992565 0.037752125 0.34400001 4278859543
0.037999097 0.037642382 0.34300002 4279187738
0.038999125 0.037532635 0.34200001 4279581982
0.040109944 0.037532635 0.34200001 4279318810
0.041100234 0.037422892 0.34100002 4278726162
0.0422078 0.037422892 0.34100002 4278264841
0.04331537 0.037422892 0.34100002 4278196740
0.044422939 0.037422892 0.34100002 4278195968
0.045396984 0.037313148 0.34 4278195456
0.046501301 0.037313148 0.34 4278198024
0.047465611 0.037203405 0.33900002 4278199303
0.048566684 0.037203405 0.33900002 4278990359
0.049521249 0.037093662 0.33800003 4278991896
0.050619069 0.037093662 0.33800003 4278926101
0.051563885 0.036983915 0.33700001 4278861078
0.052658461 0.036983915 0.33700001 4278861078
0.053593531 0.036874171 0.33600003 4278927384
0.054684862 0.036874171 0.33600003 4278795798
0.055610187 0.036764424 0.33500001 4278927382
0.056529019 0.036654681 0.33400002 4278664980
0.057613853 0.036654681 0.33400002 4278796566
0.058698688 0.036654681 0.33400002 4278796566
0.059962511 0.036764424 0.33500001 4278664982
0.06105059 0.036764424 0.33500001 4278664982
0.062324163 0.036874171 0.33600003 4278928154
0.06341549 0.036874171 0.33600003 4279190556
0.064506821 0.036874171 0.33600003 4278927384
0.06579338 0.036983915 0.33700001 4278664982
0.06688796 0.036983915 0.33700001 4278665498
0.067982532 0.036983915 0.33700001 4280376116
0.068872131 0.036874171 0.33600003 4279915051
0.069963463 0.036874171 0.33600003 4279322912
0.071054794 0.036874171 0.33600003 4279322912
-0.014985936 0.043841537 0.38800001 4281809702
-0.0061643627 0.043841537 0.38800001 4282140214
-0.0049041384 0.043841537 0.38800001 4282930500
-0.003662697 0.044067524 0.39000002 4283193672
-0.0022731056 0.041807652 0.37 4281680946
-0.0010684495 0.04169466 0.36900002 4281286704
0.0001300632 0.04169466 0.36900002 4280891946
0.0013249754 0.041581668 0.36800003 4280764208
0.0025202399 0.041581668 0.36800003 4279255838
0.003705408 0.041468672 0.36700001 4278731291
0.0048840805 0.041355681 0.36600003 4278731291
0.0060562561 0.041242685 0.36500001 4278731291
0.0072219367 0.04112969 0.36400002 4278731291
0.0083811209 0.041016694 0.36300001 4278468119
0.0095338086 0.040903702 0.36200002 4278731291
0.010650417 0.040677715 0.36000001 4278468119
0.011786866 0.040564723 0.35900003 4278336533
0.012880736 0.040338736 0.35700002 4278731289
0.014000944 0.040225741 0.35600001 4278401810
0.015157233 0.040225741 0.35600001 4278196744
0.016267698 0.040112749 0.35500002 4279711522
0.017420739 0.040112749 0.35500002 4278925590
0.018521456 0.039999753 0.354 4278859027
0.01967125 0.039999753 0.354 4278720777
0.020762227 0.039886761 0.35300002 4279445785
0.021846708 0.03977377 0.35200003 4279512861
0.022990003 0.03977377 0.35200003 4278196742
0.02406474 0.039660774 0.35100001 4279578654
0.02513298 0.039547779 0.35000002 4278262027
0.02626978 0.039547779 0.35000002 4279643932
0.027328275 0.039434783 0.34900001 4278262279
0.028380277 0.039321791 0.34800002 4278392582
0.029510582 0.039321791 0.34800002 4278721547
0.030552836 0.039208796 0.347 4279379990
0.031679891 0.039208796 0.347 4278853133
0.032712407 0.039095804 0.34600002 4278788621
0.033836212 0.039095804 0.34600002 4279187224
0.034858983 0.038982812 0.34500003 4278729492
0.035979543 0.038982812 0.34500003 4278532113
0.036992565 0.038869817 0.34400001 4278200329
0.037999097 0.038756825 0.34300002 4278726673
0.03911316 0.038756825 0.34300002 4278728724
0.040109944 0.03864383 0.34200001 4278991896
0.041220758 0.03864383 0.34200001 4278926103
0.0422078 0.038530838 0.34100002 4279123482
0.04331537 0.038530838 0.34100002 4278926103
0.044422939 0.038530838 0.34100002 4279057176
0.045396984 0.038417842 0.34 4279450650
0.046501301 0.038417842 0.34 4279187224
0.047465611 0.03830485 0.33900002 4279581469
0.048566684 0.03830485 0.33900002 4278660369
0.049521249 0.038191859 0.33800003 4278396427
0.050619069 0.038191859 0.33800003 4278195712
0.051563885 0.038078863 0.33700001 4278194432
0.052658461 0.038078863 0.33700001 4278195969
0.053593531 0.037965868 0.33600003 4278196738
0.054522108 0.037852872 0.33500001 4278397197
0.055610187 0.037852872 0.33500001 4278661134
0.056529019 0.03773988 0.33400002 4279187992
0.057613853 0.03773988 0.33400002 4278728722
0.058698688 0.03773988 0.33400002 4278861078
0.059962511 0.037852872 0.33500001 4278992664
0.06105059 0.037852872 0.33500001 4278927384
0.062138673 0.037852872 0.33500001 4278664982
0.063226752 0.037852872 0.33500001 4278862361
0.064506821 0.037965868 0.33600003 4278796568
0.065598145 0.037965868 0.33600003 4278862361
0.066689476 0.037965868 0.33600003 4278402324
0.0677808 0.037965868 0.33600003 4278731289
0.068667151 0.037852872 0.33500001 4278468117
0.069755234 0.037852872 0.33500001 4278797082
0.070843317 0.037852872 0.33500001 4278928920
0.071501955 0.037626885 0.333 4278928920
0.072583541 0.037626885 0.333 4278991642
-0.0022731056 0.043009818 0.37 4280098832
-0.0010684495 0.042893577 0.36900002 4280955933
0.00012971072 0.042777337 0.36800003 4279574793
0.0013249754 0.042777337 0.36800003 4281291317
0.0025133914 0.042661093 0.36700001 4279255068
0.0036953117 0.042544849 0.36600003 4278599189
0.0048840805 0.042544849 0.36600003 4278797082
0.0060562561 0.042428605 0.36500001 4278533910
0.0072219367 0.042312365 0.36400002 4278731289
0.0083811209 0.042196121 0.36300001 4278665496
0.0095074726 0.041963637 0.36100003 4278533910
0.010620832 0.041731153 0.35900003 4278467603
0.011754032 0.041614905 0.35800001 4278599189
0.012880736 0.041498665 0.35700002 4278467603
0.014000944 0.041382421 0.35600001 4278664982
0.015157233 0.041382421 0.35600001 4278459658
0.016267698 0.041266181 0.35500002 4278196742
0.017420739 0.041266181 0.35500002 4278793750
0.018521456 0.041149933 0.354 4278397710
0.019615682 0.041033693 0.35300002 4278720777
0.020762227 0.041033693 0.35300002 4278917644
0.021846708 0.040917452 0.35200003 4278589193
0.022990003 0.040917452 0.35200003 4278985234
0.02406474 0.040801208 0.35100001 4279183381
0.02513298 0.040684965 0.35000002 4278524170
0.02626978 0.040684965 0.35000002 4279774750
0.027328275 0.040568721 0.34900001 4278524683
0.028380277 0.04045248 0.34800002 4278589963
0.029510582 0.04045248 0.34800002 4279249685
0.030552836 0.040336236 0.347 4278195201
0.031679891 0.040336236 0.347 4278589193
0.032712407 0.040219992 0.34600002 4278920720
0.033836212 0.040219992 0.34600002 4278924566
0.034858983 0.040103752 0.34500003 4278859027
0.035979543 0.040103752 0.34500003 4278198019
0.036992565 0.039987508 0.34400001 4278524683
0.03810988 0.039987508 0.34400001 4278393867
0.03911316 0.039871268 0.34300002 4279055638
0.040227227 0.039871268 0.34300002 4278266122
0.041220758 0.03975502 0.34200001 4278331915
0.042331576 0.03975502 0.34200001 4278200326
0.04331537 0.03963878 0.34100002 4278992666
0.044422939 0.03963878 0.34100002 4278663701
0.045396984 0.039522536 0.34 4279122199
0.046501301 0.039522536 0.34 4278596625
0.047465611 0.039406296 0.33900002 4278991896
0.048566684 0.039406296 0.33900002 4278794517
0.049521249 0.039290052 0.33800003 4278860310
0.050619069 0.039290052 0.33800003 4278926103
0.051563885 0.039173808 0.33700001 4279056152
0.052658461 0.039173808 0.33700001 4279385117
0.053593531 0.039057568 0.33600003 4279318810
0.054684862 0.039057568 0.33600003 4279581471
0.055610187 0.038941324 0.33500001 4279119383
0.056698266 0.038941324 0.33500001 4278460683
0.057613853 0.03882508 0.33400002 4278196996
0.058698688 0.03882508 0.33400002 4278195712
0.059783522 0.03882508 0.33400002 4278195969
0.06105059 0.038941324 0.33500001 4278197508
0.062138673 0.038941324 0.33500001 4278728470
0.063226752 0.038941324 0.33500001 4278466581
0.064314827 0.038941324 0.33500001 4278599191
0.06540291 0.038941324 0.33500001 4278862361
0.066490993 0.038941324 0.33500001 4278862361
0.067579068 0.038941324 0.33500001 4278664982
0.068462178 0.03882508 0.33400002 4278599189
0.069547012 0.03882508 0.33400002 4278664982
0.070631847 0.03882508 0.33400002 4278599441
0.071501955 0.038708836 0.333 4278994199
0.072583541 0.038708836 0.333 4279124763
-0.012690379 0.047199283 0.39500001 4282071582
-0.0010684495 0.044092495 0.36900002 4280889368
0.00012971072 0.043973006 0.36800003 4280428817
0.0013213749 0.04385351 0.36700001 4281291317
0.002506543 0.043734021 0.36600003 4279386654
0.0036953117 0.043734021 0.36600003 4278599189
0.004870736 0.043614529 0.36500001 4279520291
0.0060396637 0.043495037 0.36400002 4278796568
0.0072020958 0.043375544 0.36300001 4278862361
0.0083580324 0.043256052 0.36200002 4278664982
0.0095074726 0.043136563 0.36100003 4278467603
0.010620832 0.042897578 0.35900003 4278599189
0.011754032 0.042778086 0.35800001 4278599189
0.012880736 0.042658594 0.35700002 4278599189
0.014000944 0.042539101 0.35600001 4278467603
0.015157233 0.042539101 0.35600001 4278396427
0.016267698 0.042419609 0.35500002 4279185943
0.017371666 0.042300116 0.354 4278860310
0.018521456 0.042300116 0.354 4278464015
0.019615682 0.042180628 0.35300002 4278851851
0.020762227 0.042180628 0.35300002 4278851084
0.021846708 0.042061135 0.35200003 4278851084
0.02292469 0.041941643 0.35100001 4278916877
0.02406474 0.041941643 0.35100001 4278786058
0.02513298 0.04182215 0.35000002 4278785545
0.026194721 0.041702658 0.34900001 4278654472
0.027328275 0.041702658 0.34900001 4278720265
0.028380277 0.041583166 0.34800002 4278589193
0.029510582 0.041583166 0.34800002 4278853644
0.030552836 0.041463673 0.347 4279512857
0.031679891 0.041463673 0.347 4278721549
0.032712407 0.041344184 0.34600002 4278921234
0.033836212 0.041344184 0.34600002 4278990359
0.034858983 0.041224692 0.34500003 4278527500
0.035979543 0.041224692 0.34500003 4278458886
0.036992565 0.0411052 0.34400001 4278786572
0.03810988 0.0411052 0.34400001 4278786572
0.03911316 0.040985707 0.34300002 4279710750
0.040227227 0.040985707 0.34300002 4278791185
0.041220758 0.040866215 0.34200001 4278925336
0.042331576 0.040866215 0.34200001 4278398222
0.04331537 0.040746726 0.34100002 4278792720
0.044422939 0.040746726 0.34100002 4278199555
0.045530509 0.040746726 0.34100002 4279384090
0.046501301 0.04062723 0.34 4278198276
0.047465611 0.040507741 0.33900002 4278860056
0.048566684 0.040507741 0.33900002 4278729494
0.049521249 0.040388249 0.33800003 4278795285
0.050619069 0.040388249 0.33800003 4278729492
0.051563885 0.040268756 0.33700001 4278992664
0.052658461 0.040268756 0.33700001 4278861078
0.053593531 0.040149264 0.33600003 4278860310
0.054684862 0.040149264 0.33600003 4278991896
0.055610187 0.040029772 0.33500001 4278991896
0.056698266 0.040029772 0.33500001 4278991383
0.057786349 0.040029772 0.33500001 4278991129
0.058698688 0.039910283 0.33400002 4278991129
0.059783522 0.039910283 0.33400002 4279253017
0.060868353 0.039910283 0.33400002 4279252504
0.061953187 0.039910283 0.33400002 4278194432
0.063226752 0.040029772 0.33500001 4279188508
0.064314827 0.040029772 0.33500001 4278533398
0.065207683 0.039910283 0.33400002 4278599191
0.066292517 0.039910283 0.33400002 4278597906
0.067377344 0.039910283 0.33400002 4278663699
0.068462178 0.039910283 0.33400002 4278663699
0.069547012 0.039910283 0.33400002 4278795285
0.07042037 0.039790787 0.333 4278663699
0.071501955 0.039790787 0.333 4278729490
0.072365575 0.039671298 0.33200002 4278861078
0.073443912 0.039671298 0.33200002 4278926101
0.00012935825 0.045045931 0.36700001 4280230668
0.0013177744 0.044923194 0.36600003 4281488950
0.002506543 0.044923194 0.36600003 4279189275
0.003685215 0.044800449 0.36500001 4278862361
0.004870736 0.044800449 0.36500001 4278862361
0.0060396637 0.044677708 0.36400002 4278862361
0.0072020958 0.044554967 0.36300001 4278664982
0.0083580324 0.044432227 0.36200002 4278599189
0.0095074726 0.044309489 0.36100003 4278599189
0.010620832 0.044064008 0.35900003 4278599189
0.011754032 0.043941263 0.35800001 4278401810
0.012880736 0.043818522 0.35700002 4278401810
0.014000944 0.043695781 0.35600001 4278201351
0.015157233 0.043695781 0.35600001 4278199561
0.016267698 0.043573041 0.35500002 4278200331
0.017420739 0.043573041 0.35500002 4278597906
0.018521456 0.0434503 0.354 4278795285
0.019615682 0.043327559 0.35300002 4278526478
0.020762227 0.043327559 0.35300002 4278458890
0.021846708 0.043204818 0.35200003 4278785804
0.02292469 0.043082077 0.35100001 4278851597
0.02406474 0.043082077 0.35100001 4278785804
0.02513298 0.042959336 0.35000002 4278851084
0.026194721 0.042836595 0.34900001 4278785291
0.027328275 0.042836595 0.34900001 4278851084
0.028380277 0.042713854 0.34800002 4278785545
0.029510582 0.042713854 0.34800002 4278785545
0.030552836 0.04259111 0.347 4278589193
0.031679891 0.04259111 0.347 4278589193
0.032712407 0.042468373 0.34600002 4279251482
0.033836212 0.042468373 0.34600002 4278793750
0.034960024 0.042468373 0.34600002 4279251736
0.035979543 0.042345632 0.34500003 4278589963
0.037100103 0.042345632 0.34500003 4278851597
0.03810988 0.042222891 0.34400001 4278720525
0.03911316 0.04210015 0.34300002 4279710752
0.040227227 0.04210015 0.34300002 4278725908
0.041220758 0.041977406 0.34200001 4278991383
0.042331576 0.041977406 0.34200001 4278727187
0.043442391 0.041977406 0.34200001 4278528011
0.044422939 0.041854668 0.34100002 4279055125
0.045530509 0.041854668 0.34100002 4279516705
0.046501301 0.041731924 0.34 4279450398
0.047605623 0.041731924 0.34 4278923541
0.048566684 0.041609187 0.33900002 4278200074
0.049521249 0.041486446 0.33800003 4278331915
0.050619069 0.041486446 0.33800003 4278660880
0.051563885 0.041363701 0.33700001 4278267660
0.052658461 0.041363701 0.33700001 4278530832
0.053593531 0.041240964 0.33600003 4278530062
0.054684862 0.041240964 0.33600003 4278661394
0.055610187 0.041118219 0.33500001 4278860310
0.056698266 0.041118219 0.33500001 4278794517
0.057786349 0.041118219 0.33500001 4278926103
0.058874432 0.041118219 0.33500001 4278926103
0.059783522 0.040995482 0.33400002 4279123482
0.060868353 0.040995482 0.33400002 4278925590
0.061953187 0.040995482 0.33400002 4278197767
0.063038021 0.040995482 0.33400002 4279055127
0.064122848 0.040995482 0.33400002 4278730005
0.065207683 0.040995482 0.33400002 4278466833
0.066292517 0.040995482 0.33400002 4278730005
0.067377344 0.040995482 0.33400002 4278664212
0.068257198 0.040872738 0.333 4278598419
0.069338784 0.040872738 0.333 4278598419
0.07042037 0.040872738 0.333 4278466833
0.071287237 0.040750001 0.33200002 4278664212
0.072365575 0.040750001 0.33200002 4278728722
0.073443912 0.040750001 0.33200002 4278926103
0.0013177744 0.046112366 0.36600003 4280302879
0.0024996945 0.045986373 0.36500001 4279319578
0.003685215 0.045986373 0.36500001 4278795798
0.0048573916 0.045860387 0.36400002 4278796568
0.0060396637 0.045860387 0.36400002 4278796568
0.0072020958 0.045734394 0.36300001 4278599189
0.0083580324 0.045608405 0.36200002 4278599189
0.0095338086 0.045608405 0.36200002 4278599189
0.010591248 0.045104444 0.35800001 4278533396
0.011754032 0.045104444 0.35800001 4278599189
0.012880736 0.044978455 0.35700002 4278599189
0.014000944 0.044852462 0.35600001 4278664212
0.015157233 0.044852462 0.35600001 4278595855
0.016267698 0.044726476 0.35500002 4278660880
0.017420739 0.044726476 0.35500002 4278729492
0.018521456 0.044600483 0.354 4278730005
0.019615682 0.044474494 0.35300002 4278730007
0.020762227 0.044474494 0.35300002 4278860056
0.021846708 0.044348504 0.35200003 4278990361
0.02292469 0.044222515 0.35100001 4279319072
0.02399618 0.044096526 0.35000002 4279581217
0.02513298 0.044096526 0.35000002 4279382555
0.026194721 0.043970533 0.34900001 4278854416
0.027328275 0.043970533 0.34900001 4278524170
0.028380277 0.043844543 0.34800002 4278851851
0.029510582 0.043844543 0.34800002 4278786058
0.030552836 0.04371855 0.347 4278720013
0.031679891 0.04371855 0.347 4278851599
0.032712407 0.043592565 0.34600002 4278988310
0.033836212 0.043592565 0.34600002 4278924566
0.034960024 0.043592565 0.34600002 4278858259
0.035979543 0.043466575 0.34500003 4278527500
0.037100103 0.043466575 0.34500003 4278918674
0.03810988 0.043340582 0.34400001 4279051025
0.03911316 0.043214593 0.34300002 4279121433
0.040227227 0.043214593 0.34300002 4278726673
0.041220758 0.043088604 0.34200001 4278198533
0.042331576 0.043088604 0.34200001 4278923541
0.04331537 0.042962614 0.34100002 4279516189
0.044422939 0.042962614 0.34100002 4278199047
0.045530509 0.042962614 0.34100002 4278792468
0.046501301 0.042836621 0.34 4278199815
0.047605623 0.042836621 0.34 4279253017
0.048566684 0.042710632 0.33900002 4278198274
0.049521249 0.042584646 0.33800003 4278527500
0.050619069 0.042584646 0.33800003 4278461707
0.051563885 0.042458653 0.33700001 4278198791
0.052658461 0.042458653 0.33700001 4278330380
0.053593531 0.042332664 0.33600003 4279253019
0.054684862 0.042332664 0.33600003 4278397708
0.055776194 0.042332664 0.33600003 4278858773
0.056698266 0.042206671 0.33500001 4278199044
0.057786349 0.042206671 0.33500001 4278196736
0.058874432 0.042206671 0.33500001 4278661648
0.059962511 0.042206671 0.33500001 4278860310
0.060868353 0.042080685 0.33400002 4278728724
0.061953187 0.042080685 0.33400002 4278195969
0.063038021 0.042080685 0.33400002 4279515676
0.064122848 0.042080685 0.33400002 4278992664
0.065207683 0.042080685 0.33400002 4278598419
0.066292517 0.042080685 0.33400002 4278598419
0.067175612 0.041954692 0.333 4278466833
0.068257198 0.041954692 0.333 4278861078
0.069338784 0.041954692 0.333 4278663699
0.0702089 0.041828703 0.33200002 4278532113
0.071287237 0.041828703 0.33200002 4278400527
0.072365575 0.041828703 0.33200002 4278531345
0.073443912 0.041828703 0.33200002 4278860310
0.074297786 0.041702714 0.33100003 4279054105
0.0013141739 0.047172293 0.36500001 4279772940
0.0024996945 0.047172293 0.36500001 4279775252
0.0036751186 0.047043055 0.36400002 4279055892
0.0048573916 0.047043055 0.36400002 4279188760
0.0060230712 0.046913814 0.36300001 4278861078
0.0071822559 0.046784576 0.36200002 4278795285
0.008334944 0.046655338 0.36100003 4278663699
0.0094811358 0.046526097 0.36000001 4278532113
0.010591248 0.046267621 0.35800001 4278532113
0.011754032 0.046267621 0.35800001 4278663699
0.012880736 0.046138383 0.35700002 4278532113
0.014000944 0.046009142 0.35600001 4278795285
0.015157233 0.046009142 0.35600001 4278991894
0.016267698 0.045879904 0.35500002 4278860308
0.017420739 0.045879904 0.35500002 4279255066
0.018521456 0.045750663 0.354 4278729492
0.019615682 0.045621425 0.35300002 4278730005
0.020762227 0.045621425 0.35300002 4278730007
0.021846708 0.045492187 0.35200003 4278730007
0.02292469 0.045362946 0.35100001 4278729494
0.02399618 0.045233708 0.35000002 4278663701
0.02513298 0.045233708 0.35000002 4278729494
0.026194721 0.045104466 0.34900001 4278728724
0.027328275 0.045104466 0.34900001 4278991129
0.028380277 0.044975229 0.34800002 4279188508
0.029510582 0.044975229 0.34800002 4279055638
0.030552836 0.044845987 0.347 4278923539
0.031679891 0.044845987 0.347 4279185943
0.032712407 0.044716749 0.34600002 4279186713
0.033836212 0.044716749 0.34600002 4278197506
0.034858983 0.044587512 0.34500003 4278195968
0.035979543 0.044587512 0.34500003 4278195714
0.036992565 0.04445827 0.34400001 4278196999
0.03810988 0.04445827 0.34400001 4278723343
0.03911316 0.044329032 0.34300002 4278988051
0.040227227 0.044329032 0.34300002 4279383320
0.041220758 0.044199791 0.34200001 4279253017
0.042331576 0.044199791 0.34200001 4279055638
0.04331537 0.044070557 0.34100002 4278925336
0.044422939 0.044070557 0.34100002 4278859543
0.045396984 0.043941315 0.34 4279385117
0.046501301 0.043941315 0.34 4278858259
0.047465611 0.043812077 0.33900002 4278859797
0.048566684 0.043812077 0.33900002 4279056406
0.049521249 0.04368284 0.33800003 4279252504
0.050619069 0.04368284 0.33800003 4278264841
0.051563885 0.043553598 0.33700001 4279646240
0.052658461 0.043553598 0.33700001 4278198022
0.053753033 0.043553598 0.33700001 4279318299
0.054684862 0.04342436 0.33600003 4278857748
0.055776194 0.04342436 0.33600003 4279054357
0.056698266 0.043295119 0.33500001 4279054357
0.057786349 0.043295119 0.33500001 4278198277
0.058874432 0.043295119 0.33500001 4278462988
0.059962511 0.043295119 0.33500001 4278794004
0.060868353 0.043165881 0.33400002 4278991383
0.061953187 0.043165881 0.33400002 4278197253
0.063038021 0.043165881 0.33400002 4279186713
0.064122848 0.043165881 0.33400002 4278992664
0.065207683 0.043165881 0.33400002 4278729492
0.066094033 0.04303664 0.333 4278795285
0.067175612 0.04303664 0.333 4278861078
0.068257198 0.04303664 0.333 4278663699
0.069130562 0.042907402 0.33200002 4278729492
0.0702089 0.042907402 0.33200002 4278663699
0.071287237 0.042907402 0.33200002 4278400527
0.072365575 0.042907402 0.33200002 4278465039
0.073222697 0.042778164 0.33100003 4279122199
0.074297786 0.042778164 0.33100003 4279053590
0.0013141739 0.048358217 0.36500001 4280230670
0.0024996945 0.048358217 0.36500001 4279640073
0.0036751186 0.048225731 0.36400002 4278983685
0.0048440467 0.048093241 0.36300001 4278721797
0.0060230712 0.048093241 0.36300001 4278790924
0.0071822559 0.047960754 0.36200002 4278792207
0.008334944 0.047828268 0.36100003 4279055890
0.0094811358 0.047695778 0.36000001 4278727439
0.010620832 0.047563292 0.35900003 4278859025
0.011754032 0.047430802 0.35800001 4278859795
0.012880736 0.047298312 0.35700002 4278926101
0.014040273 0.047298312 0.35700002 4278794515
0.015157233 0.047165822 0.35600001 4278860308
0.016313521 0.047165822 0.35600001 4278860308
0.017420739 0.047033336 0.35500002 4278991894
0.018521456 0.046900846 0.354 4278729492
0.019615682 0.04676836 0.35300002 4278993177
0.020762227 0.04676836 0.35300002 4278795798
0.021846708 0.046635874 0.35200003 4278993177
0.02292469 0.046503384 0.35100001 4278664214
0.02399618 0.046370897 0.35000002 4278795800
0.02513298 0.046370897 0.35000002 4278664214
0.026194721 0.046238404 0.34900001 4278927386
0.027328275 0.046238404 0.34900001 4278598421
0.028380277 0.046105918 0.34800002 4278795798
0.029510582 0.046105918 0.34800002 4278729492
0.030552836 0.045973428 0.347 4278663699
0.031679891 0.045973428 0.347 4278991894
0.032712407 0.045840941 0.34600002 4278991894
0.033836212 0.045840941 0.34600002 4278860308
0.034858983 0.045708455 0.34500003 4278991383
0.035979543 0.045708455 0.34500003 4279056406
0.036992565 0.045575965 0.34400001 4279581982
0.03810988 0.045575965 0.34400001 4279055127
0.03911316 0.045443479 0.34300002 4278988051
0.040227227 0.045443479 0.34300002 4278198278
0.041220758 0.045310989 0.34200001 4278194945
0.042331576 0.045310989 0.34200001 4278194944
0.04331537 0.045178503 0.34100002 4278195456
0.044422939 0.045178503 0.34100002 4278197253
0.045396984 0.045046009 0.34 4278462990
0.046501301 0.045046009 0.34 4279120920
0.047465611 0.044913523 0.33900002 4279056152
0.048566684 0.044913523 0.33900002 4278990613
0.049521249 0.044781037 0.33800003 4278794004
0.050619069 0.044781037 0.33800003 4278859797
0.051563885 0.044648547 0.33700001 4278925590
0.052658461 0.044648547 0.33700001 4278925590
0.053753033 0.044648547 0.33700001 4279056152
0.054684862 0.044516061 0.33600003 4279385117
0.055776194 0.044516061 0.33600003 4279253017
0.056698266 0.044383571 0.33500001 4278198787
0.057786349 0.044383571 0.33500001 4278198020
0.058874432 0.044383571 0.33500001 4278331402
0.059783522 0.044251084 0.33400002 4278859797
0.060868353 0.044251084 0.33400002 4278794004
0.061953187 0.044251084 0.33400002 4278197250
0.063038021 0.044251084 0.33400002 4278989845
0.064122848 0.044251084 0.33400002 4278861078
0.065012448 0.044118594 0.333 4278795285
0.066094033 0.044118594 0.333 4278663699
0.067175612 0.044118594 0.333 4278795285
0.068052225 0.043986108 0.33200002 4278729492
0.069130562 0.043986108 0.33200002 4278729492
0.0702089 0.043986108 0.33200002 4278663699
0.071287237 0.043986108 0.33200002 4278663699
0.072147608 0.043853618 0.33100003 4278794002
0.073222697 0.043853618 0.33100003 4279188760
0.074297786 0.043853618 0.33100003 4278988564
0.0048440467 0.049272664 0.36300001 4279376649
0.0060230712 0.049272664 0.36300001 4279048197
0.0071822559 0.049136925 0.36200002 4278917127
0.008334944 0.049001191 0.36100003 4278720515
0.0094811358 0.048865452 0.36000001 4278721029
0.010620832 0.048729714 0.35900003 4278854668
0.011754032 0.048593976 0.35800001 4279117840
0.012880736 0.048458241 0.35700002 4279317268
0.014040273 0.048458241 0.35700002 4279252758
0.015157233 0.048322503 0.35600001 4279319064
0.016313521 0.048322503 0.35600001 4279320348
0.017420739 0.048186764 0.35500002 4279254814
0.018521456 0.048051026 0.354 4279320607
0.019615682 0.047915291 0.35300002 4279386400
0.020762227 0.047915291 0.35300002 4279254814
0.021846708 0.047779553 0.35200003 4279189021
0.02292469 0.047643814 0.35100001 4278729240
0.02399618 0.04750808 0.35000002 4278729753
0.02513298 0.04750808 0.35000002 4278334995
0.026194721 0.047372341 0.34900001 4278466581
0.027328275 0.047372341 0.34900001 4278664214
0.028380277 0.047236603 0.34800002 4278730007
0.029510582 0.047236603 0.34800002 4278795800
0.030552836 0.047100864 0.347 4278795798
0.031679891 0.047100864 0.347 4278795798
0.032712407 0.04696513 0.34600002 4278730005
0.033836212 0.04696513 0.34600002 4278532626
0.034858983 0.046829391 0.34500003 4278795285
0.035875253 0.046693653 0.34400001 4278795285
0.036992565 0.046693653 0.34400001 4278532113
0.037999097 0.046557918 0.34300002 4278795285
0.03911316 0.046557918 0.34300002 4278860310
0.040109944 0.04642218 0.34200001 4278991896
0.041220758 0.04642218 0.34200001 4278991383
0.0422078 0.046286441 0.34100002 4278925336
0.04331537 0.046286441 0.34100002 4279253019
0.044292662 0.046150703 0.34 4279516191
0.045396984 0.046150703 0.34 4278988564
0.046501301 0.046150703 0.34 4278593293
0.047465611 0.046014968 0.33900002 4278196226
0.048566684 0.046014968 0.33900002 4278195456
0.049521249 0.04587923 0.33800003 4278195200
0.050619069 0.04587923 0.33800003 4278196997
0.051563885 0.045743492 0.33700001 4278264841
0.052658461 0.045743492 0.33700001 4278726162
0.053593531 0.045607757 0.33600003 4279187224
0.054684862 0.045607757 0.33600003 4279187992
0.055776194 0.045607757 0.33600003 4279451164
0.056698266 0.045472018 0.33500001 4278991381
0.057786349 0.045472018 0.33500001 4278859795
0.058874432 0.045472018 0.33500001 4279056404
0.059783522 0.04533628 0.33400002 4278859795
0.060868353 0.04533628 0.33400002 4278794002
0.061953187 0.04533628 0.33400002 4278195969
0.063038021 0.04533628 0.33400002 4279121431
0.063930862 0.045200542 0.333 4278663699
0.065012448 0.045200542 0.333 4278795285
0.066094033 0.045200542 0.333 4278992664
0.067175612 0.045200542 0.333 4278663699
0.068052225 0.045064807 0.33200002 4278861078
0.069130562 0.045064807 0.33200002 4278729492
0.0702089 0.045064807 0.33200002 4278663699
0.071287237 0.045064807 0.33200002 4278400527
0.072147608 0.044929069 0.33100003 4278729492
0.073222697 0.044929069 0.33100003 4278794515
0.074297786 0.044929069 0.33100003 4278857498
0.0071624154 0.050174121 0.36100003 4279506441
0.008334944 0.050174121 0.36100003 4279244039
0.0094811358 0.05003513 0.36000001 4279179016
0.010620832 0.049896147 0.35900003 4279179529
0.011754032 0.049757157 0.35800001 4279376908
0.012880736 0.049618173 0.35700002 4279707410
0.014040273 0.049618173 0.35700002 4280036887
0.015157233 0.049479183 0.35600001 4279643930
0.016313521 0.049479183 0.35600001 4284909169
0.01746981 0.049479183 0.35600001 4282672722
0.018626098 0.049479183 0.35600001 4280107563
0.019782387 0.049479183 0.35600001 4278989595
0.020938676 0.049479183 0.35600001 4279647527
0.022094965 0.049479183 0.35600001 4279582244
0.02292469 0.048784252 0.35100001 4279188769
0.02399618 0.048645265 0.35000002 4279189539
0.02506117 0.048506279 0.34900001 4279124000
0.026194721 0.048506279 0.34900001 4278992412
0.027328275 0.048506279 0.34900001 4279058459
0.028380277 0.048367295 0.34800002 4278795287
0.029510582 0.048367295 0.34800002 4278663701
0.030552836 0.048228305 0.347 4278663701
0.031588595 0.048089322 0.34600002 4278729494
0.032712407 0.048089322 0.34600002 4278795800
0.033738423 0.047950335 0.34500003 4278598421
0.034858983 0.047950335 0.34500003 4278664212
0.035875253 0.047811348 0.34400001 4278664212
0.036885031 0.047672361 0.34300002 4278795798
0.037999097 0.047672361 0.34300002 4278664212
0.038999125 0.047533374 0.34200001 4278730005
0.040109944 0.047533374 0.34200001 4278664212
0.041100234 0.047394387 0.34100002 4278664212
0.0422078 0.047394387 0.34100002 4278730005
0.04331537 0.047394387 0.34100002 4278663699
0.044292662 0.047255401 0.34 4278795285
0.045396984 0.047255401 0.34 4278992664
0.046364535 0.047116414 0.33900002 4278860308
0.047465611 0.047116414 0.33900002 4278794002
0.048566684 0.047116414 0.33900002 4278925590
0.049521249 0.046977431 0.33800003 4279187738
0.050619069 0.046977431 0.33800003 4279318810
0.051563885 0.04683844 0.33700001 4279909664
0.052658461 0.04683844 0.33700001 4278856465
0.053593531 0.046699457 0.33600003 4278197511
0.054684862 0.046699457 0.33600003 4278194432
0.055610187 0.046560466 0.33500001 4278194944
0.056698266 0.046560466 0.33500001 4278194944
0.057786349 0.046560466 0.33500001 4278197507
0.058698688 0.046421483 0.33400002 4278593806
0.059783522 0.046421483 0.33400002 4278726160
0.060868353 0.046421483 0.33400002 4279120918
0.061953187 0.046421483 0.33400002 4278460169
0.062849283 0.046282496 0.333 4278990359
0.063930862 0.046282496 0.333 4278729492
0.065012448 0.046282496 0.333 4278795285
0.066094033 0.046282496 0.333 4278795285
0.066973887 0.046143509 0.33200002 4278861078
0.068052225 0.046143509 0.33200002 4278729492
0.069130562 0.046143509 0.33200002 4278598419
0.0702089 0.046143509 0.33200002 4278795285
0.071287237 0.046143509 0.33200002 4278268941
0.072147608 0.046004526 0.33100003 4278728722
0.073222697 0.046004526 0.33100003 4279123480
0.074297786 0.046004526 0.33100003 4279777576
0.02506117 0.049640216 0.34900001 4280829751
0.026194721 0.049640216 0.34900001 4279252254
0.027328275 0.049640216 0.34900001 4278989593
0.028380277 0.049497984 0.34800002 4278991131
0.029510582 0.049497984 0.34800002 4279451682
0.030552836 0.049355745 0.347 4279320094
0.031588595 0.049213514 0.34600002 4279189021
0.032712407 0.049213514 0.34600002 4278860826
0.033738423 0.049071278 0.34500003 4278860826
0.034757942 0.048929039 0.34400001 4278795033
0.035875253 0.048929039 0.34400001 4278663447
0.036885031 0.048786808 0.34300002 4278795287
0.037999097 0.048786808 0.34300002 4278729494
0.038999125 0.048644569 0.34200001 4278795287
0.040109944 0.048644569 0.34200001 4278598421
0.041100234 0.048502333 0.34100002 4278466833
0.0422078 0.048502333 0.34100002 4278664212
0.043188341 0.048360098 0.34 4278664212
0.044292662 0.048360098 0.34 4278664212
0.045396984 0.048360098 0.34 4278664212
0.046364535 0.048217863 0.33900002 4278795798
0.047465611 0.048217863 0.33900002 4278795285
0.048423421 0.048075628 0.33800003 4278795285
0.049521249 0.048075628 0.33800003 4278926101
0.050619069 0.048075628 0.33800003 4278860308
0.051563885 0.047933392 0.33700001 4278926101
0.052658461 0.047933392 0.33700001 4278728209
0.053593531 0.047791157 0.33600003 4278859795
0.054684862 0.047791157 0.33600003 4278991383
0.055610187 0.047648918 0.33500001 4278924568
0.056698266 0.047648918 0.33500001 4279516191
0.057786349 0.047648918 0.33500001 4279515678
0.058698688 0.047506686 0.33400002 4278856724
0.059783522 0.047506686 0.33400002 4278526476
0.060868353 0.047506686 0.33400002 4278723855
0.061767694 0.047364447 0.333 4279318810
0.062849283 0.047364447 0.333 4279189275
0.063930862 0.047364447 0.333 4278729492
0.065012448 0.047364447 0.333 4278795285
0.066094033 0.047364447 0.333 4278795285
0.066973887 0.047222216 0.33200002 4278861078
0.068052225 0.047222216 0.33200002 4278861078
0.069130562 0.047222216 0.33200002 4278729492
0.0702089 0.047222216 0.33200002 4278729492
0.071072519 0.04707998 0.33100003 4278531343
0.072147608 0.04707998 0.33100003 4278728209
0.073222697 0.04707998 0.33100003 4278859025
0.074297786 0.04707998 0.33100003 4283789920
0.031588595 0.050337698 0.34600002 4280435758
0.032712407 0.050337698 0.34600002 4279120668
0.033738423 0.050192215 0.34500003 4278923287
0.034757942 0.050046727 0.34400001 4279450912
0.035770968 0.049901247 0.34300002 4279582498
0.036885031 0.049901247 0.34300002 4279451164
0.037888311 0.04975576 0.34200001 4279057176
0.038999125 0.04975576 0.34200001 4279189275
0.040109944 0.04975576 0.34200001 4278991896
0.041100234 0.049610276 0.34100002 4278663701
0.042084023 0.049464788 0.34 4278992666
0.04331537 0.049610276 0.34100002 4278992666
0.044292662 0.049464788 0.34 4278795287
0.045396984 0.049464788 0.34 4278795287
0.046364535 0.049319305 0.33900002 4279124252
0.047465611 0.049319305 0.33900002 4278861080
0.048423421 0.049173824 0.33800003 4278729494
0.049521249 0.049173824 0.33800003 4278795287
0.050469305 0.049028337 0.33700001 4278992664
0.051563885 0.049028337 0.33700001 4278795285
0.052658461 0.049028337 0.33700001 4278795285
0.053593531 0.048882853 0.33600003 4278597906
0.054684862 0.048882853 0.33600003 4278861078
0.055610187 0.048737366 0.33500001 4278795285
0.056698266 0.048737366 0.33500001 4278795287
0.057613853 0.048591882 0.33400002 4278860310
0.058698688 0.048591882 0.33400002 4278926103
0.059783522 0.048591882 0.33400002 4278860310
0.060686108 0.048446395 0.333 4278794517
0.061767694 0.048446395 0.333 4279188762
0.062849283 0.048446395 0.333 4278794515
0.063930862 0.048446395 0.333 4278729492
0.065012448 0.048446395 0.333 4278861078
0.066094033 0.048446395 0.333 4278663697
0.066973887 0.048300914 0.33200002 4278729490
0.068052225 0.048300914 0.33200002 4278795283
0.069130562 0.048300914 0.33200002 4278597904
0.0702089 0.048300914 0.33200002 4278729490
0.071287237 0.048300914 0.33200002 4278531343
0.072147608 0.048155431 0.33100003 4278596625
0.073222697 0.048155431 0.33100003 4278528265
0.035770968 0.05101569 0.34300002 4284381539
0.036885031 0.05101569 0.34300002 4282672720
0.037999097 0.05101569 0.34300002 4280567344
0.038999125 0.050866954 0.34200001 4279514141
0.040109944 0.050866954 0.34200001 4279185689
0.041220758 0.050866954 0.34200001 4279121433
0.042084023 0.050569486 0.34 4279318812
0.04331537 0.050718222 0.34100002 4279516703
0.044292662 0.050569486 0.34 4279582496
0.045396984 0.050569486 0.34 4279516703
0.046364535 0.050420754 0.33900002 4279450910
0.047465611 0.050420754 0.33900002 4279516703
0.048423421 0.050272021 0.33800003 4279516703
0.049521249 0.050272021 0.33800003 4279386141
0.050469305 0.050123286 0.33700001 4279517727
0.051563885 0.050123286 0.33700001 4279320859
0.052658461 0.050123286 0.33700001 4279320859
0.053593531 0.049974553 0.33600003 4279255066
0.054684862 0.049974553 0.33600003 4279255066
0.055610187 0.049825817 0.33500001 4278794515
0.056698266 0.049825817 0.33500001 4278860310
0.057613853 0.049677085 0.33400002 4278926103
0.058698688 0.049677085 0.33400002 4278991896
0.059604526 0.049528349 0.333 4278861080
0.060686108 0.049528349 0.333 4278795287
0.061767694 0.049528349 0.333 4278729492
0.062849283 0.049528349 0.333 4278663699
0.063930862 0.049528349 0.333 4278663699
0.065012448 0.049528349 0.333 4278663699
0.065895557 0.049379617 0.33200002 4278729492
0.066973887 0.049379617 0.33200002 4278597906
0.068052225 0.049379617 0.33200002 4278597906
0.069130562 0.049379617 0.33200002 4278597906
0.0702089 0.049379617 0.33200002 4278597906
0.071287237 0.049379617 0.33200002 4278662929
0.072147608 0.049230885 0.33100003 4279120918
0.073222697 0.049230885 0.33100003 4281552954
0.036885031 0.052130129 0.34300002 4284249442
0.037999097 0.052130129 0.34300002 4284249442
0.03911316 0.052130129 0.34300002 4284117854
0.040227227 0.052130129 0.34300002 4284775784
0.04134129 0.052130129 0.34300002 4284512612
0.042579129 0.05228211 0.34400001 4284512612
0.043442391 0.051978145 0.34200001 4284382053
0.044422939 0.051826164 0.34100002 4284118883
0.045396984 0.051674176 0.34 4283395160
0.046364535 0.051522195 0.33900002 4281947712
0.047465611 0.051522195 0.33900002 4280764462
0.048423421 0.051370215 0.33800003 4279777567
0.049521249 0.051370215 0.33800003 4279382809
0.050469305 0.05121823 0.33700001 4279054103
0.051563885 0.05121823 0.33700001 4279186972
0.052658461 0.05121823 0.33700001 4279647777
0.053593531 0.05106625 0.33600003 4279450396
0.054684862 0.05106625 0.33600003 4279582498
0.055610187 0.050914265 0.33500001 4279121945
0.056529019 0.050762285 0.33400002 4279648289
0.057613853 0.050762285 0.33400002 4279450910
0.058698688 0.050762285 0.33400002 4279385117
0.059604526 0.050610296 0.333 4279254555
0.060686108 0.050610296 0.333 4279189275
0.061767694 0.050610296 0.333 4279255066
0.062849283 0.050610296 0.333 4279386139
0.063930862 0.050610296 0.333 4279254553
0.06481722 0.050458316 0.33200002 4279254553
0.065895557 0.050458316 0.33200002 4279320346
0.066973887 0.050458316 0.33200002 4279320346
0.068052225 0.050458316 0.33200002 4279386139
0.069130562 0.050458316 0.33200002 4278925590
0.0702089 0.050458316 0.33200002 4278859797
0.071287237 0.050458316 0.33200002 4278858773
0.072147608 0.050306335 0.33100003 4280105508
0.036885031 0.053244572 0.34300002 4284446051
0.037999097 0.053244572 0.34300002 4284511844
0.03911316 0.053244572 0.34300002 4284511844
0.040227227 0.053244572 0.34300002 4284446051
0.04134129 0.053244572 0.34300002 4284511844
0.042579129 0.053399805 0.34400001 4284446051
0.043569416 0.053244572 0.34300002 4284446821
0.044422939 0.05293411 0.34100002 4284381028
0.045530509 0.05293411 0.34100002 4284512614
0.046638072 0.05293411 0.34100002 4284775786
0.047745645 0.05293411 0.34100002 4284973165
0.048853215 0.05293411 0.34100002 4285236850
0.049960785 0.05293411 0.34100002 4285302643
0.051068347 0.05293411 0.34100002 4285631608
0.055610187 0.052002717 0.33500001 4284119655
0.056529019 0.051847484 0.33400002 4283460953
0.057613853 0.051847484 0.33400002 4282012993
0.05852294 0.051692251 0.333 4280764212
0.059604526 0.051692251 0.333 4279843108
0.060686108 0.051692251 0.333 4279382555
0.061767694 0.051692251 0.333 4278922517
0.062849283 0.051692251 0.333 4278922771
0.063930862 0.051692251 0.333 4279185941
0.06481722 0.051537022 0.33200002 4279514906
0.065895557 0.051537022 0.33200002 4279581469
0.066973887 0.051537022 0.33200002 4279581982
0.068052225 0.051537022 0.33200002 4279187224
0.069130562 0.051537022 0.33200002 4278989845
0.0702089 0.051537022 0.33200002 4278725138
0.071287237 0.051537022 0.33200002 4280895796
0.039227191 0.054517493 0.34400001 4284248672
0.040344507 0.054517493 0.34400001 4284248672
0.041461818 0.054517493 0.34400001 4284511844
0.042579129 0.054517493 0.34400001 4284248672
0.043569416 0.054359011 0.34300002 4284380258
0.044683482 0.054359011 0.34300002 4284446051
0.045797549 0.054359011 0.34300002 4284709223
0.046911612 0.054359011 0.34300002 4284840809
0.048025675 0.054359011 0.34300002 4284972395
0.05852294 0.052774198 0.333 4285170805
0.059604526 0.052774198 0.333 4284710508
0.029266834 0.040712498 0.35421458 4294967295
0.029266834 0.040712498 0.35421458 4294901760
0.029320624 0.040215809 0.35419443 4294901760
0.029374413 0.03971912 0.35417426 4294901760
0.029428203 0.03922243 0.35415411 4294901760
0.02948199 0.038725741 0.35413393 4294901760
0.02953578 0.038229052 0.35411379 4294901760
0.029589569 0.037732363 0.35409361 4294901760
0.029643359 0.037235674 0.35407346 4294901760
0.029697148 0.036738984 0.35405332 4294901760
0.029750938 0.036242295 0.35403314 4294901760
0.029804725 0.035745606 0.354013 4294901760
0.029858515 0.035248917 0.35399282 4294901760
0.029912304 0.034752227 0.35397267 4294901760
0.029966094 0.034255534 0.3539525 4294901760
0.030019883 0.033758845 0.35393235 4294901760
0.030073673 0.033262156 0.3539122 4294901760
0.03012746 0.03276547 0.35389203 4294901760
0.03018125 0.032268777 0.35387188 4294901760
0.030235039 0.031772088 0.35385171 4294901760
0.030288829 0.031275399 0.35383156 4294901760
0.030342618 0.03077871 0.35381138 4294901760
0.030396407 0.030282021 0.35379124 4294901760
0.030450195 0.029785331 0.35377109 4294901760
0.030503985 0.029288642 0.35375091 4294901760
0.030557774 0.028791953 0.35373077 4294901760
0.030611563 0.028295264 0.35371059 4294901760
0.030665353 0.027798574 0.35369045 4294901760
0.030719142 0.027301885 0.35367027 4294901760
0.030772932 0.026805196 0.35365012 4294901760
0.030826719 0.026308507 0.35362998 4294901760
0.030880509 0.025811817 0.3536098 4294901760
0.030934298 0.025315128 0.35358965 4294901760
0.030988088 0.024818439 0.35356948 4294901760
0.031041877 0.024321748 0.35354933 4294901760
0.031095667 0.023825059 0.35352916 4294901760
0.031149454 0.023328369 0.35350901 4294901760
0.031203244 0.02283168 0.35348886 4294901760
0.031257033 0.022334991 0.35346869 4294901760
0.031310823 0.021838302 0.35344854 4294901760
0.031364612 0.021341613 0.35342836 4294901760
0.031418402 0.020844923 0.35340822 4294901760
0.031472191 0.020348234 0.35338804 4294901760
0.031525981 0.019851545 0.35336789 4294901760
0.03157977 0.019354854 0.35334775 4294901760
0.031633556 0.018858166 0.35332757 4294901760
0.031687345 0.018361477 0.35330743 4294901760
0.031741135 0.017864786 0.35328725 4294901760
0.031794924 0.017368097 0.3532671 4294901760
0.031848714 0.016871408 0.35324693 4294901760
0.031902503 0.016374718 0.35322678 4294901760
0.031956293 0.015878029 0.35320663 4294901760
0.032010082 0.01538134 0.35318646 4294901760
0.032063872 0.014884651 0.35316631 4294901760
0.032117661 0.014387963 0.35314614 4294901760
0.032171451 0.01389127 0.35312599 4294901760
0.03222524 0.013394581 0.35310581 4294901760
0.032279029 0.012897892 0.35308567 4294901760
0.032332815 0.012401205 0.35306549 4294901760
0.032386605 0.011904515 0.35304534 4294901760
0.032440394 0.011407826 0.3530252 4294901760
0.032494184 0.010911135 0.35300502 4294901760
0.032547973 0.010414446 0.35298488 4294901760
0.032601763 0.0099177565 0.3529647 4294901760
0.032655552 0.0094210692 0.35294455 4294901760
0.032709341 0.0089243799 0.35292438 4294901760
0.032763131 0.0084276907 0.35290423 4294901760
0.03281692 0.0079309978 0.35288408 4294901760
0.03287071 0.0074343085 0.35286391 4294901760
0.032924499 0.0069376193 0.35284376 4294901760
