# .PCD v0.7 - Point Cloud Data file format
VERSION 0.7
FIELDS x y z rgb
SIZE 4 4 4 4
TYPE F F F U
COUNT 1 1 1 1
WIDTH 877
HEIGHT 1
VIEWPOINT 0 0 0 1 0 0 0
POINTS 877
DATA ascii
-0.02824665 0.031833734 0.58400005 4279519269
-0.026349816 0.031833734 0.58400005 4278797597
-0.024411112 0.031779222 0.583 4279257381
-0.022478905 0.031724714 0.58200002 4283795301
-0.020588567 0.031724714 0.58200002 4280967487
-0.018666102 0.031670205 0.58100003 4279718193
-0.016750135 0.031615693 0.58000004 4279718963
-0.014866293 0.031615693 0.58000004 4279390252
-0.02824665 0.033731211 0.58400005 4279190045
-0.026304696 0.033673447 0.583 4278862875
-0.024411112 0.033673447 0.583 4278994461
-0.022478905 0.03361569 0.58200002 4278929181
-0.020553192 0.033557933 0.58100003 4278731804
-0.018666102 0.033557933 0.58100003 4278666781
-0.016750135 0.033500172 0.58000004 4278666781
-0.014840662 0.033442415 0.57900006 4278929953
-0.012915301 0.033326894 0.57700002 4278929953
-0.011022069 0.033269137 0.57600003 4279127332
-0.0091512194 0.033269137 0.57600003 4278929953
-0.0072803707 0.033269137 0.57600003 4279193125
-0.02824665 0.035628684 0.58400005 4279124252
-0.026304696 0.035567675 0.583 4278862359
-0.024369242 0.035506666 0.58200002 4278994459
-0.022478905 0.035506666 0.58200002 4278731287
-0.020553192 0.03544566 0.58100003 4278731289
-0.018633975 0.035384651 0.58000004 4278665496
-0.016721256 0.035323646 0.57900006 4278862875
-0.014815029 0.035262633 0.57800001 4278665496
-0.012915301 0.035201628 0.57700002 4278731289
-0.011022069 0.035140619 0.57600003 4278468117
-0.0091512194 0.035140619 0.57600003 4278600216
-0.0072677312 0.035079613 0.57500005 4278666009
-0.0054001305 0.035079613 0.57500005 4278666009
-0.0035325291 0.035079613 0.57500005 4278666009
-0.02824665 0.037526164 0.58400005 4279189273
-0.026304696 0.037461903 0.583 4279124761
-0.024369242 0.037397645 0.58200002 4278993945
-0.022440281 0.037333392 0.58100003 4278731287
-0.020517817 0.037269134 0.58000004 4278797082
-0.018633975 0.037269134 0.58000004 4278665496
-0.016721256 0.037204877 0.57900006 4278665496
-0.014815029 0.037140619 0.57800001 4278731289
-0.012915301 0.037076361 0.57700002 4278796568
-0.011022069 0.037012104 0.57600003 4278663447
-0.0091512194 0.037012104 0.57600003 4278599191
-0.0072677312 0.03694785 0.57500005 4278468119
-0.0054001305 0.03694785 0.57500005 4278468117
-0.0035325291 0.03694785 0.57500005 4278665496
-0.001664928 0.03694785 0.57500005 4278468117
0.00020267301 0.03694785 0.57500005 4278533910
0.002070274 0.03694785 0.57500005 4278535193
0.0039378749 0.03694785 0.57500005 4278469400
0.0058054761 0.03694785 0.57500005 4278535193
0.0076730778 0.03694785 0.57500005 4278337044
0.013252791 0.036883589 0.574 4278797595
0.018878685 0.03694785 0.57500005 4278995744
0.020746283 0.03694785 0.57500005 4278929951
0.022613885 0.03694785 0.57500005 4278929951
0.026257439 0.036819331 0.57300001 4279389480
0.028118543 0.036819331 0.57300001 4279192103
-0.028198281 0.039356127 0.583 4279189273
-0.026259577 0.039288625 0.58200002 4279124761
-0.024369242 0.039288625 0.58200002 4278797080
-0.022440281 0.039221119 0.58100003 4278665494
-0.020517817 0.039153613 0.58000004 4278665496
-0.018601848 0.039086107 0.57900006 4278533910
-0.016692374 0.039018597 0.57800001 4278731289
-0.014789398 0.038951091 0.57700002 4278797082
-0.012915301 0.038951091 0.57700002 4279519523
-0.011022069 0.038883585 0.57600003 4278200071
-0.0091512194 0.038883585 0.57600003 4278664984
-0.0072677312 0.038816083 0.57500005 4278201350
-0.0054001305 0.038816083 0.57500005 4278198020
-0.0035325291 0.038816083 0.57500005 4278264841
-0.001664928 0.038816083 0.57500005 4278397197
0.00020267301 0.038816083 0.57500005 4278924566
0.002070274 0.038816083 0.57500005 4278991896
0.0039378749 0.038816083 0.57500005 4278861080
0.0058054761 0.038816083 0.57500005 4279058972
0.0076730778 0.038816083 0.57500005 4278993949
0.009540678 0.038816083 0.57500005 4278796570
0.01140828 0.038816083 0.57500005 4278862363
0.013275881 0.038816083 0.57500005 4278468119
0.015143481 0.038816083 0.57500005 4278468119
0.017011084 0.038816083 0.57500005 4278666009
0.018878685 0.038816083 0.57500005 4278402837
0.020746283 0.038816083 0.57500005 4278468630
0.022613885 0.038816083 0.57500005 4278600216
0.024438908 0.038748574 0.574 4278600984
0.026303262 0.038748574 0.574 4278600986
0.028118543 0.038681068 0.57300001 4278732572
0.029979646 0.038681068 0.57300001 4278929951
0.031840753 0.038681068 0.57300001 4278995744
0.033701856 0.038681068 0.57300001 4279258918
0.035562962 0.038681068 0.57300001 4279389480
0.037489377 0.038748574 0.574 4279126308
0.039353732 0.038748574 0.574 4279192103
-0.028198281 0.041250356 0.583 4279058972
-0.026259577 0.041179601 0.58200002 4278993947
-0.024327371 0.041108847 0.58100003 4278731289
-0.022401659 0.041038092 0.58000004 4278665496
-0.020517817 0.041038092 0.58000004 4278665496
-0.018601848 0.040967338 0.57900006 4278731289
-0.016692374 0.04089658 0.57800001 4278797082
-0.014789398 0.040825825 0.57700002 4278665496
-0.012892918 0.040755071 0.57600003 4279123482
-0.011022069 0.040755071 0.57600003 4278265870
-0.009135332 0.040684316 0.57500005 4279189021
-0.0072677312 0.040684316 0.57500005 4278198276
-0.0054001305 0.040684316 0.57500005 4278655504
-0.0035325291 0.040684316 0.57500005 4278589709
-0.001664928 0.040684316 0.57500005 4278786318
0.00020267301 0.040684316 0.57500005 4278786318
0.002070274 0.040684316 0.57500005 4278589709
0.0039378749 0.040684316 0.57500005 4278589709
0.0058054761 0.040684316 0.57500005 4278393613
0.0076730778 0.040684316 0.57500005 4278790420
0.009540678 0.040684316 0.57500005 4278199043
0.01140828 0.040684316 0.57500005 4278196480
0.013275881 0.040684316 0.57500005 4278198018
0.015143481 0.040684316 0.57500005 4278198789
0.017011084 0.040684316 0.57500005 4278201356
0.018878685 0.040684316 0.57500005 4278794263
0.020746283 0.040684316 0.57500005 4279190045
0.022613885 0.040684316 0.57500005 4278993177
0.024438908 0.040613558 0.574 4278993947
0.026303262 0.040613558 0.574 4278533396
0.028167615 0.040613558 0.574 4278862361
0.029979646 0.040542804 0.57300001 4278797082
0.031840753 0.040542804 0.57300001 4278533910
0.033701856 0.040542804 0.57300001 4278731289
0.035625026 0.040613558 0.574 4278928668
0.037489377 0.040613558 0.574 4278797595
0.039422296 0.040684316 0.57500005 4278929181
0.041433513 0.040825825 0.57700002 4279060769
0.043382663 0.04089658 0.57800001 4278995492
0.045260008 0.04089658 0.57800001 4279258666
0.047218911 0.040967338 0.57900006 4279125543
-0.028198281 0.04314458 0.583 4278862109
-0.026259577 0.043070577 0.58200002 4278862877
-0.024327371 0.042996574 0.58100003 4278731291
-0.022401659 0.042922571 0.58000004 4278731291
-0.020482441 0.042848568 0.57900006 4278533910
-0.018569719 0.042774558 0.57800001 4278533910
-0.016663495 0.042700555 0.57700002 4278797080
-0.014789398 0.042700555 0.57700002 4278797082
-0.012892918 0.042626552 0.57600003 4279649572
-0.011022069 0.042626552 0.57600003 4279186713
-0.009135332 0.042552549 0.57500005 4279779875
-0.0072677312 0.042552549 0.57500005 4278195714
-0.0054001305 0.042552549 0.57500005 4279183129
-0.0035325291 0.042552549 0.57500005 4279051027
-0.001664928 0.042552549 0.57500005 4279905821
0.00020267301 0.042552549 0.57500005 4279840028
0.002070274 0.042552549 0.57500005 4279708957
0.0039378749 0.042552549 0.57500005 4279182100
0.0058054761 0.042552549 0.57500005 4279181076
0.0076730778 0.042552549 0.57500005 4280236069
0.009540678 0.042552549 0.57500005 4278992412
0.01140828 0.042552549 0.57500005 4279255584
0.013275881 0.042552549 0.57500005 4279714852
0.015143481 0.042552549 0.57500005 4279386141
0.017011084 0.042552549 0.57500005 4279517725
0.018878685 0.042552549 0.57500005 4279846690
0.020746283 0.042552549 0.57500005 4279912485
0.022613885 0.042552549 0.57500005 4279517727
0.024481487 0.042552549 0.57500005 4278727441
0.026303262 0.042478543 0.574 4278198273
0.028167615 0.042478543 0.574 4278197248
0.030031966 0.042478543 0.574 4278196224
0.031896319 0.042478543 0.574 4278196480
0.033760674 0.042478543 0.574 4278199046
0.035687093 0.042552549 0.57500005 4278464785
0.037554692 0.042552549 0.57500005 4278662931
0.039490856 0.042626552 0.57600003 4278533910
0.041433513 0.042700555 0.57700002 4278731289
0.043382663 0.042774558 0.57800001 4278731802
0.045260008 0.042774558 0.57800001 4278797597
0.047218911 0.042848568 0.57900006 4279258148
0.049184304 0.042922571 0.58000004 4278862371
-0.028149914 0.044961553 0.58200002 4279124511
-0.026214458 0.044884302 0.58100003 4279125535
-0.024285499 0.04480705 0.58000004 4278862877
-0.022363035 0.044729795 0.57900006 4278797084
-0.020482441 0.044729795 0.57900006 4278665498
-0.018569719 0.04465254 0.57800001 4278731291
-0.016663495 0.044575289 0.57700002 4278731291
-0.014763767 0.044498034 0.57600003 4278665498
-0.012892918 0.044498034 0.57600003 4278200074
-0.011022069 0.044498034 0.57600003 4278660882
-0.009135332 0.044420782 0.57500005 4279845670
-0.0072677312 0.044420782 0.57500005 4278460687
-0.0054001305 0.044420782 0.57500005 4278459660
-0.0035325291 0.044420782 0.57500005 4279445783
-0.001664928 0.044420782 0.57500005 4278590476
0.00020267301 0.044420782 0.57500005 4279840289
0.002070274 0.044420782 0.57500005 4278656015
0.0039378749 0.044420782 0.57500005 4280038692
0.0058054761 0.044420782 0.57500005 4278656269
0.0076730778 0.044420782 0.57500005 4280236580
0.009540678 0.044420782 0.57500005 4279319324
0.01140828 0.044420782 0.57500005 4278198791
0.013275881 0.044420782 0.57500005 4278198283
0.015143481 0.044420782 0.57500005 4278396943
0.017011084 0.044420782 0.57500005 4279187738
0.018878685 0.044420782 0.57500005 4278858773
0.020746283 0.044420782 0.57500005 4278200843
0.022613885 0.044420782 0.57500005 4278398992
0.024481487 0.044420782 0.57500005 4279386654
0.026303262 0.044343524 0.574 4279123482
0.028167615 0.044343524 0.574 4279189275
0.030031966 0.044343524 0.574 4279320861
0.031951889 0.044420782 0.57500005 4279189275
0.033819493 0.044420782 0.57500005 4278991896
0.035687093 0.044420782 0.57500005 4279254301
0.037620004 0.044498034 0.57600003 4279516703
0.039490856 0.044498034 0.57600003 4278200582
0.041433513 0.044575289 0.57700002 4278927384
0.043382663 0.04465254 0.57800001 4278533910
0.045338318 0.044729795 0.57900006 4278797084
0.047218911 0.044729795 0.57900006 4278797084
0.049184304 0.04480705 0.58000004 4278796830
0.051068146 0.04480705 0.58000004 4285042299
-0.030091867 0.046933033 0.583 4279648807
-0.028149914 0.046852533 0.58200002 4279190306
-0.026214458 0.046772029 0.58100003 4279059488
-0.024285499 0.046691529 0.58000004 4278862877
-0.022363035 0.046611026 0.57900006 4278731291
-0.020447064 0.046530519 0.57800001 4278665498
-0.018537592 0.046450019 0.57700002 4278862877
-0.016663495 0.046450019 0.57700002 4278797084
-0.014763767 0.046369519 0.57600003 4278665498
-0.012892918 0.046369519 0.57600003 4279715365
-0.011002934 0.046289016 0.57500005 4279056154
-0.009135332 0.046289016 0.57500005 4279779877
-0.0072677312 0.046289016 0.57500005 4278196230
-0.0054001305 0.046289016 0.57500005 4278721295
-0.0035325291 0.046289016 0.57500005 4278655502
-0.001664928 0.046289016 0.57500005 4278852111
0.00020267301 0.046289016 0.57500005 4278721295
0.002070274 0.046289016 0.57500005 4278589711
0.0039378749 0.046289016 0.57500005 4278327050
0.0058054761 0.046289016 0.57500005 4278393613
0.0076730778 0.046289016 0.57500005 4279579936
0.009540678 0.046289016 0.57500005 4278989847
0.01140828 0.046289016 0.57500005 4278525453
0.013275881 0.046289016 0.57500005 4278196999
0.015143481 0.046289016 0.57500005 4279054873
0.017011084 0.046289016 0.57500005 4278990359
0.018878685 0.046289016 0.57500005 4278595601
0.020746283 0.046289016 0.57500005 4279450910
0.022613885 0.046289016 0.57500005 4278198787
0.024481487 0.046289016 0.57500005 4278198273
0.026349088 0.046289016 0.57500005 4278199044
0.02821669 0.046289016 0.57500005 4278661394
0.03008429 0.046289016 0.57500005 4278200072
0.031951889 0.046289016 0.57500005 4279517473
0.033819493 0.046289016 0.57500005 4278200328
0.035749156 0.046369519 0.57600003 4278795033
0.037620004 0.046369519 0.57600003 4279452963
0.039559416 0.046450019 0.57700002 4279121947
0.041505318 0.046530519 0.57800001 4278927386
0.043382663 0.046530519 0.57800001 4278797084
0.045338318 0.046611026 0.57900006 4278533912
0.047218911 0.046611026 0.57900006 4278665244
0.049184304 0.046691529 0.58000004 4278927902
0.051068146 0.046691529 0.58000004 4283858279
-0.03620214 0.049413525 0.59000003 4285565563
-0.034111481 0.049162269 0.58700001 4285894528
-0.032095183 0.048994765 0.58500004 4279251232
-0.030091867 0.048827261 0.583 4279845418
-0.028149914 0.048743509 0.58200002 4279519271
-0.026214458 0.048659757 0.58100003 4279387685
-0.024285499 0.048576009 0.58000004 4278928418
-0.022363035 0.048492257 0.57900006 4278796832
-0.020447064 0.048408501 0.57800001 4278796832
-0.018537592 0.048324749 0.57700002 4278731039
-0.016634615 0.048241001 0.57600003 4278796830
-0.014763767 0.048241001 0.57600003 4278928416
-0.012892918 0.048241001 0.57600003 4278531093
-0.011002934 0.048157249 0.57500005 4278793752
-0.009135332 0.048157249 0.57500005 4279320607
-0.0072677312 0.048157249 0.57500005 4279386402
-0.0054001305 0.048157249 0.57500005 4279516451
-0.0035325291 0.048157249 0.57500005 4280042281
-0.001664928 0.048157249 0.57500005 4279712033
0.00020267301 0.048157249 0.57500005 4279185689
0.002070274 0.048157249 0.57500005 4278658834
0.0039378749 0.048157249 0.57500005 4278329099
0.0058054761 0.048157249 0.57500005 4278195973
0.0076730778 0.048157249 0.57500005 4279383840
0.009540678 0.048157249 0.57500005 4278199564
0.01140828 0.048157249 0.57500005 4279383070
0.013275881 0.048157249 0.57500005 4280106793
0.015117144 0.048073493 0.574 4279844389
0.016981497 0.048073493 0.574 4279779877
0.018845851 0.048073493 0.574 4279911463
0.020710202 0.048073493 0.574 4279187738
0.022574555 0.048073493 0.574 4279254301
0.024438908 0.048073493 0.574 4279320094
0.026303262 0.048073493 0.574 4279254301
0.02821669 0.048157249 0.57500005 4279516705
0.03008429 0.048157249 0.57500005 4278266638
0.031951889 0.048157249 0.57500005 4279253019
0.033878308 0.048241001 0.57600003 4279187226
0.035749156 0.048241001 0.57600003 4278793750
0.037685316 0.048324749 0.57700002 4278991642
0.039559416 0.048324749 0.57700002 4278793750
0.041505318 0.048408501 0.57800001 4278927386
0.043382663 0.048408501 0.57800001 4278664984
0.045338318 0.048492257 0.57900006 4278796570
0.047218911 0.048492257 0.57900006 4278928156
0.049184304 0.048576009 0.58000004 4279190304
0.051068146 0.048576009 0.58000004 4282279247
-0.036324855 0.051504493 0.59200001 4285433464
-0.034169592 0.051156487 0.588 4284841840
-0.032150045 0.05098249 0.58600003 4285039987
-0.030143484 0.050808489 0.58400005 4281290554
-0.028149914 0.050634485 0.58200002 4278859043
-0.026214458 0.050547484 0.58100003 4279650094
-0.024243629 0.050373487 0.57900006 4279979568
-0.022324409 0.050286483 0.57800001 4279256615
-0.020447064 0.050286483 0.57800001 4279256617
-0.018537592 0.050199483 0.57700002 4279125029
-0.016634615 0.050112482 0.57600003 4279059236
-0.014763767 0.050112482 0.57600003 4278993697
-0.012870535 0.050025482 0.57500005 4279125283
-0.011002934 0.050025482 0.57500005 4278993695
-0.009135332 0.050025482 0.57500005 4279058718
-0.0072677312 0.050025482 0.57500005 4278729753
-0.0054001305 0.050025482 0.57500005 4279058718
-0.0035325291 0.050025482 0.57500005 4278992925
-0.001664928 0.050025482 0.57500005 4279124511
0.00020267301 0.050025482 0.57500005 4279058718
0.002070274 0.050025482 0.57500005 4278992925
0.0039378749 0.050025482 0.57500005 4278992925
0.0058054761 0.050025482 0.57500005 4279058205
0.0076730778 0.050025482 0.57500005 4279189021
0.009540678 0.050025482 0.57500005 4279452195
0.01140828 0.050025482 0.57500005 4279452195
0.013252791 0.049938478 0.574 4279912233
0.015117144 0.049938478 0.574 4279187740
0.016981497 0.049938478 0.574 4279121947
0.018845851 0.049938478 0.574 4278727189
0.020710202 0.049938478 0.574 4278198792
0.022574555 0.049938478 0.574 4278196480
0.024438908 0.049938478 0.574 4278196224
0.026303262 0.049938478 0.574 4278196224
0.028167615 0.049938478 0.574 4278265870
0.03008429 0.050025482 0.57500005 4279121179
0.031951889 0.050025482 0.57500005 4279450912
0.033878308 0.050112482 0.57600003 4279845670
0.035749156 0.050112482 0.57600003 4279451680
0.037620004 0.050112482 0.57600003 4279385887
0.039559416 0.050199483 0.57700002 4278925849
0.041433513 0.050199483 0.57700002 4278664984
0.043382663 0.050286483 0.57800001 4278664984
0.045260008 0.050286483 0.57800001 4278993949
0.047218911 0.050373487 0.57900006 4278796570
0.049099505 0.050373487 0.57900006 4278992927
0.051068146 0.050460488 0.58000004 4284975223
-0.036447577 0.05360847 0.59400004 4284841327
-0.034227706 0.053157218 0.58900005 4284907120
-0.032204907 0.052976716 0.58700001 4284841840
-0.030143484 0.05270597 0.58400005 4285105266
-0.028149914 0.052525468 0.58200002 4285302645
-0.026214458 0.052435219 0.58100003 4285895296
-0.024243629 0.052254722 0.57900006 4285567360
-0.022324409 0.052164465 0.57800001 4284448879
-0.020411689 0.052074216 0.57700002 4282870617
-0.018537592 0.052074216 0.57700002 4281225792
-0.016634615 0.051983967 0.57600003 4279713066
-0.014763767 0.051983967 0.57600003 4278989857
-0.012870535 0.051893719 0.57500005 4278858525
-0.011002934 0.051893719 0.57500005 4279319846
-0.009135332 0.051893719 0.57500005 4279122978
-0.0072677312 0.051893719 0.57500005 4279321127
-0.0054001305 0.051893719 0.57500005 4279123746
-0.0035325291 0.051893719 0.57500005 4279057953
-0.001664928 0.051893719 0.57500005 4279123746
0.00020267301 0.051893719 0.57500005 4278927134
0.002070274 0.051893719 0.57500005 4279124513
0.0039378749 0.051893719 0.57500005 4278927134
0.0058054761 0.051893719 0.57500005 4278992927
0.0076730778 0.051893719 0.57500005 4279058720
0.009540678 0.051893719 0.57500005 4278992927
0.011388438 0.051803466 0.574 4279058720
0.013252791 0.051803466 0.574 4278927134
0.015117144 0.051803466 0.574 4278927134
0.016981497 0.051803466 0.574 4278992925
0.018845851 0.051803466 0.574 4279123998
0.020674122 0.051713217 0.57300001 4279189791
0.022535227 0.051713217 0.57300001 4279058207
0.024438908 0.051803466 0.574 4279189793
0.026303262 0.051803466 0.574 4279189023
0.028167615 0.051803466 0.574 4279386402
0.03008429 0.051893719 0.57500005 4279715367
0.031951889 0.051893719 0.57500005 4279254049
0.033878308 0.051983967 0.57600003 4279451428
0.035749156 0.051983967 0.57600003 4278990107
0.037620004 0.051983967 0.57600003 4279121693
0.039559416 0.052074216 0.57700002 4278927134
0.041433513 0.052074216 0.57700002 4278927902
0.043382663 0.052164465 0.57800001 4278927902
0.045260008 0.052164465 0.57800001 4278927902
0.047137354 0.052164465 0.57800001 4278993695
0.049099505 0.052254722 0.57900006 4278399253
0.051068146 0.05234497 0.58000004 4285304190
-0.034285817 0.055164438 0.59000003 4284644715
-0.032204907 0.054883938 0.58700001 4284776047
-0.0301951 0.054696944 0.58500004 4284841840
-0.028198281 0.054509941 0.583 4285367671
-0.026214458 0.054322947 0.58100003 4285368184
-0.024243629 0.054135952 0.57900006 4285565563
-0.022324409 0.054042447 0.57800001 4285697149
-0.020411689 0.05394895 0.57700002 4285566077
-0.018537592 0.05394895 0.57700002 4285171319
-0.016634615 0.053855453 0.57600003 4285434491
-0.014763767 0.053855453 0.57600003 4285171319
-0.012870535 0.053761955 0.57500005 4285434491
-0.011002934 0.053761955 0.57500005 4284908919
-0.009135332 0.053761955 0.57500005 4284645745
-0.0072677312 0.053761955 0.57500005 4284251241
-0.0054001305 0.053761955 0.57500005 4283593311
-0.0035325291 0.053761955 0.57500005 4281291069
-0.001664928 0.053761955 0.57500005 4279976492
0.00020267301 0.053761955 0.57500005 4279450662
0.002070274 0.053761955 0.57500005 4278990627
0.0039378749 0.053761955 0.57500005 4278530076
0.0058054761 0.053761955 0.57500005 4279123748
0.0076730778 0.053761955 0.57500005 4279321127
0.0095240846 0.053668451 0.574 4279124261
0.011388438 0.053668451 0.574 4279057953
0.013252791 0.053668451 0.574 4279255332
0.015117144 0.053668451 0.574 4279189539
0.016981497 0.053668451 0.574 4279255586
0.018813018 0.053574953 0.57300001 4279190306
0.020674122 0.053574953 0.57300001 4279058720
0.022535227 0.053574953 0.57300001 4279124259
0.024396332 0.053574953 0.57300001 4279124259
0.026303262 0.053668451 0.574 4279058466
0.028167615 0.053668451 0.574 4278992673
0.030031966 0.053668451 0.574 4279124259
0.031951889 0.053761955 0.57500005 4279124513
0.033819493 0.053761955 0.57500005 4279190306
0.035749156 0.053855453 0.57600003 4279255584
0.037620004 0.053855453 0.57600003 4279255584
0.039490856 0.053855453 0.57600003 4278992414
0.041433513 0.05394895 0.57700002 4279058720
0.043307606 0.05394895 0.57700002 4279059490
0.045260008 0.054042447 0.57800001 4278993697
0.047137354 0.054042447 0.57800001 4278925601
0.049014702 0.054042447 0.57800001 4283462756
-0.0301951 0.056597669 0.58500004 4284841581
-0.028198281 0.05640417 0.583 4285038706
-0.026259577 0.05630742 0.58200002 4285367671
0.020674122 0.055436686 0.57300001 4281424198
0.022535227 0.055436686 0.57300001 4280437303
0.024396332 0.055436686 0.57300001 4280437043
0.026257439 0.055436686 0.57300001 4279976492
0.028167615 0.055533435 0.574 4279581221
0.030031966 0.055533435 0.574 4279515428
0.031951889 0.055630188 0.57500005 4279318562
0.033819493 0.055630188 0.57500005 4279055904
0.035749156 0.055726934 0.57600003 4279384869
0.037620004 0.055726934 0.57600003 4279121697
0.039490856 0.055726934 0.57600003 4278726939
0.041433513 0.05582368 0.57700002 4279319076
0.043307606 0.05582368 0.57700002 4279318560
0.045181707 0.05582368 0.57700002 4279778598
0.047137354 0.05592043 0.57800001 4284711538
0.045181707 0.057698414 0.57700002 4285303675
0.0067810835 0.045627154 0.57678115 4294967295
0.0067810835 0.045627154 0.57678115 4294901760
0.0068104556 0.045128554 0.57680428 4294901760
0.0068398281 0.044629954 0.57682741 4294901760
0.0068692002 0.044131353 0.57685053 4294901760
0.0068985727 0.043632749 0.5768736 4294901760
0.0069279447 0.043134149 0.57689673 4294901760
0.0069573168 0.042635549 0.57691985 4294901760
0.0069866893 0.042136949 0.57694298 4294901760
0.0070160613 0.041638348 0.57696611 4294901760
0.0070454339 0.041139748 0.57698923 4294901760
0.0070748059 0.040641144 0.57701236 4294901760
0.007104178 0.040142544 0.57703543 4294901760
0.0071335505 0.039643943 0.57705855 4294901760
0.0071629225 0.039145343 0.57708168 4294901760
0.007192295 0.038646743 0.57710481 4294901760
0.0072216671 0.038148142 0.57712793 4294901760
0.0072510391 0.037649542 0.57715106 4294901760
0.0072804117 0.037150942 0.57717419 4294901760
0.0073097837 0.036652338 0.57719725 4294901760
0.0073391562 0.036153737 0.57722038 4294901760
0.0073685283 0.035655137 0.57724351 4294901760
0.0073979003 0.035156537 0.57726663 4294901760
0.0074272729 0.034657937 0.57728976 4294901760
0.0074566449 0.034159333 0.57731289 4294901760
0.0074860174 0.033660732 0.57733601 4294901760
0.0075153895 0.033162132 0.57735908 4294901760
0.0075447615 0.032663532 0.57738221 4294901760
0.007574134 0.032164931 0.57740533 4294901760
0.0076035061 0.031666331 0.57742846 4294901760
0.0076328786 0.031167731 0.57745159 4294901760
0.0076622507 0.030669127 0.57747471 4294901760
0.0076916227 0.030170526 0.57749784 4294901760
0.0077209952 0.029671928 0.57752097 4294901760
0.0077503673 0.029173326 0.57754403 4294901760
0.0077797398 0.028674725 0.57756716 4294901760
0.0078091118 0.028176125 0.57759029 4294901760
0.0078384839 0.027677523 0.57761341 4294901760
0.007867856 0.027178923 0.57763654 4294901760
0.0078972289 0.026680322 0.57765967 4294901760
0.007926601 0.026181722 0.57768279 4294901760
0.007955973 0.02568312 0.57770586 4294901760
0.0079853451 0.02518452 0.57772899 4294901760
0.0080147171 0.024685919 0.57775211 4294901760
0.0080440901 0.024187317 0.57777524 4294901760
0.0080734622 0.023688717 0.57779837 4294901760
0.0081028342 0.023190117 0.57782149 4294901760
0.0081322063 0.022691514 0.57784462 4294901760
0.0081615783 0.022192914 0.57786769 4294901760
0.0081909513 0.021694314 0.57789081 4294901760
0.0082203234 0.021195712 0.57791394 4294901760
0.0082496954 0.020697111 0.57793707 4294901760
0.0082790675 0.020198511 0.57796019 4294901760
0.0083084395 0.019699911 0.57798332 4294901760
0.0083378125 0.01920131 0.57800645 4294901760
0.0083671845 0.018702706 0.57802951 4294901760
0.0083965566 0.018204106 0.57805264 4294901760
0.0084259287 0.017705506 0.57807577 4294901760
0.0084553007 0.017206905 0.57809889 4294901760
0.0084846728 0.016708305 0.57812202 4294901760
0.0085140457 0.016209705 0.57814515 4294901760
0.0085434178 0.015711101 0.57816827 4294901760
0.0085727898 0.0152125 0.57819134 4294901760
0.0086021619 0.0147139 0.57821447 4294901760
0.0086315349 0.014215302 0.57823759 4294901760
0.0086609069 0.013716701 0.57826072 4294901760
0.008690279 0.013218101 0.57828385 4294901760
0.008719651 0.012719497 0.57830697 4294901760
0.0087490231 0.012220897 0.5783301 4294901760
0.0087783951 0.011722296 0.57835317 4294901760
0.0088077681 0.011223696 0.57837629 4294901760
0.0088371402 0.010725096 0.57839942 4294901760
0.0088665122 0.010226496 0.57842255 4294901760
0.0088958852 0.0097278915 0.57844567 4294901760
0.0089252573 0.0092292912 0.5784688 4294901760
0.0089546293 0.0087306909 0.57849193 4294901760
0.0089840014 0.0082320906 0.57851505 4294901760
0.0090133734 0.0077334903 0.57853812 4294901760
0.0090427455 0.00723489 0.57856125 4294901760
0.0090721175 0.0067362897 0.57858437 4294901760
0.0091014905 0.0062376857 0.5786075 4294901760
0.0091308625 0.0057390854 0.57863063 4294901760
0.0091602346 0.0052404851 0.57865375 4294901760
0.0091896076 0.0047418848 0.57867688 4294901760
0.0092189796 0.0042432845 0.57869995 4294901760
0.0092483517 0.0037446842 0.57872307 4294901760
0.0092777237 0.0032460801 0.5787462 4294901760
0.0093070958 0.0027474798 0.57876933 4294901760
0.0093364678 0.0022488795 0.57879245 4294901760
0.0093658399 0.0017502792 0.57881558 4294901760
0.0093952129 0.0012516789 0.57883871 4294901760
0.0094245849 0.00075307861 0.57886177 4294901760
0.009453957 0.00025447458 0.5788849 4294901760
0.00948333 -0.00024412572 0.57890803 4294901760
0.009512702 -0.00074272603 0.57893115 4294901760
0.0095420741 -0.0012413263 0.57895428 4294901760
0.0095714461 -0.0017399266 0.57897741 4294901760
0.0096008182 -0.0022385269 0.57900053 4294901760
0.0096301902 -0.002737131 0.5790236 4294901760
0.0096595632 -0.0032357313 0.57904673 4294901760
0.0096889352 -0.0037343316 0.57906985 4294901760
0.0097183073 -0.0042329319 0.57909298 4294901760
0.0067810835 0.045627154 0.57678115 4278255360
0.0072791949 0.045654953 0.57674778 4278255360
0.0077773063 0.045682747 0.57671446 4278255360
0.0082754176 0.045710545 0.57668108 4278255360
0.0087735299 0.045738343 0.57664776 4278255360
0.0092716413 0.045766141 0.57661438 4278255360
0.0097697526 0.045793936 0.57658106 4278255360
0.010267864 0.045821734 0.57654768 4278255360
0.010765975 0.045849532 0.57651436 4278255360
0.011264088 0.045877326 0.57648098 4278255360
0.011762198 0.045905124 0.57644767 4278255360
0.01226031 0.045932923 0.57641429 4278255360
0.012758422 0.045960721 0.57638097 4278255360
0.013256533 0.045988515 0.57634759 4278255360
0.013754645 0.046016313 0.57631427 4278255360
0.014252756 0.046044111 0.57628089 4278255360
0.014750867 0.046071909 0.57624757 4278255360
0.015248979 0.046099704 0.57621419 4278255360
0.015747091 0.046127502 0.57618088 4278255360
0.016245201 0.0461553 0.5761475 4278255360
0.016743314 0.046183094 0.57611418 4278255360
0.017241426 0.046210892 0.5760808 4278255360
0.017739536 0.046238691 0.57604748 4278255360
0.018237649 0.046266489 0.5760141 4278255360
0.018735759 0.046294283 0.57598078 4278255360
0.019233871 0.046322081 0.5759474 4278255360
0.019731984 0.046349879 0.57591403 4278255360
0.020230096 0.046377674 0.57588071 4278255360
0.020728206 0.046405472 0.57584733 4278255360
0.021226317 0.04643327 0.57581401 4278255360
0.021724429 0.046461068 0.57578063 4278255360
0.022222541 0.046488862 0.57574731 4278255360
0.02272065 0.046516661 0.57571393 4278255360
0.023218762 0.046544459 0.57568061 4278255360
0.023716874 0.046572253 0.57564723 4278255360
0.024214987 0.046600051 0.57561392 4278255360
0.024713099 0.046627849 0.57558054 4278255360
0.025211211 0.046655647 0.57554722 4278255360
0.02570932 0.046683442 0.57551384 4278255360
0.026207432 0.04671124 0.57548052 4278255360
0.026705544 0.046739038 0.57544714 4278255360
0.027203657 0.046766836 0.57541382 4278255360
0.027701765 0.046794631 0.57538044 4278255360
0.028199878 0.046822429 0.57534713 4278255360
0.02869799 0.046850227 0.57531375 4278255360
0.029196102 0.046878021 0.57528043 4278255360
0.029694214 0.046905819 0.57524705 4278255360
0.030192323 0.046933617 0.57521373 4278255360
0.030690435 0.046961416 0.57518035 4278255360
0.031188548 0.04698921 0.57514703 4278255360
0.03168666 0.047017008 0.57511365 4278255360
0.032184768 0.047044806 0.57508028 4278255360
0.032682881 0.047072601 0.57504696 4278255360
0.033180993 0.047100399 0.57501358 4278255360
0.033679105 0.047128197 0.57498026 4278255360
0.034177218 0.047155995 0.57494688 4278255360
0.03467533 0.047183789 0.57491356 4278255360
0.035173438 0.047211587 0.57488018 4278255360
0.035671551 0.047239386 0.57484686 4278255360
0.036169663 0.04726718 0.57481349 4278255360
0.036667775 0.047294978 0.57478017 4278255360
0.037165888 0.047322776 0.57474679 4278255360
0.037663996 0.047350574 0.57471347 4278255360
0.038162109 0.047378369 0.57468009 4278255360
0.038660217 0.047406167 0.57464677 4278255360
0.039158329 0.047433965 0.57461339 4278255360
0.039656442 0.047461763 0.57458007 4278255360
0.040154554 0.047489557 0.57454669 4278255360
0.040652666 0.047517356 0.57451338 4278255360
0.041150775 0.047545154 0.57448 4278255360
0.041648887 0.047572948 0.57444668 4278255360
0.042146999 0.047600746 0.5744133 4278255360
0.042645112 0.047628544 0.57437998 4278255360
0.043143224 0.047656342 0.5743466 4278255360
0.043641336 0.047684137 0.57431328 4278255360
0.044139445 0.047711935 0.5742799 4278255360
0.044637557 0.047739733 0.57424653 4278255360
0.045135669 0.047767527 0.57421321 4278255360
0.045633778 0.047795326 0.57417983 4278255360
0.046131894 0.047823124 0.57414651 4278255360
0.046630003 0.047850922 0.57411313 4278255360
0.047128115 0.047878716 0.57407981 4278255360
0.047626227 0.047906514 0.57404643 4278255360
0.048124336 0.047934312 0.57401311 4278255360
0.048622448 0.047962107 0.57397974 4278255360
0.04912056 0.047989905 0.57394642 4278255360
0.049618673 0.048017703 0.57391304 4278255360
0.050116785 0.048045501 0.57387972 4278255360
0.050614893 0.048073296 0.57384634 4278255360
0.051113006 0.048101094 0.57381302 4278255360
0.051611118 0.048128892 0.57377964 4278255360
0.05210923 0.04815669 0.57374632 4278255360
0.052607343 0.048184484 0.57371294 4278255360
0.053105455 0.048212282 0.57367963 4278255360
0.053603563 0.04824008 0.57364625 4278255360
0.054101676 0.048267875 0.57361293 4278255360
0.054599788 0.048295673 0.57357955 4278255360
0.0550979 0.048323471 0.57354623 4278255360
0.055596013 0.048351269 0.57351285 4278255360
0.056094121 0.048379064 0.57347953 4278255360
0.056592233 0.048406862 0.57344615 4278255360
0.0067810835 0.045627154 0.57678115 4278190335
0.0067960843 0.045651183 0.57728034 4278190335
0.0068110856 0.045675214 0.57777953 4278190335
0.0068260864 0.045699243 0.57827872 4278190335
0.0068410872 0.045723274 0.57877797 4278190335
0.0068560881 0.045747302 0.57927716 4278190335
0.0068710893 0.045771334 0.57977635 4278190335
0.0068860902 0.045795362 0.58027554 4278190335
0.006901091 0.045819394 0.58077472 4278190335
0.0069160922 0.045843422 0.58127391 4278190335
0.0069310931 0.045867451 0.5817731 4278190335
0.0069460939 0.045891482 0.58227229 4278190335
0.0069610947 0.045915511 0.58277154 4278190335
0.006976096 0.045939542 0.58327073 4278190335
0.0069910968 0.04596357 0.58376992 4278190335
0.0070060976 0.045987602 0.58426911 4278190335
0.0070210984 0.04601163 0.5847683 4278190335
0.0070360997 0.046035662 0.58526748 4278190335
0.0070511005 0.04605969 0.58576667 4278190335
0.0070661013 0.046083722 0.58626586 4278190335
0.0070811026 0.04610775 0.58676511 4278190335
0.0070961034 0.046131779 0.5872643 4278190335
0.0071111042 0.04615581 0.58776349 4278190335
0.007126105 0.046179838 0.58826268 4278190335
0.0071411063 0.04620387 0.58876187 4278190335
0.0071561071 0.046227898 0.58926105 4278190335
0.0071711079 0.04625193 0.58976024 4278190335
0.0071861092 0.046275958 0.59025949 4278190335
0.00720111 0.04629999 0.59075868 4278190335
0.0072161108 0.046324018 0.59125787 4278190335
0.0072311116 0.04634805 0.59175706 4278190335
0.0072461129 0.046372078 0.59225625 4278190335
0.0072611137 0.046396106 0.59275544 4278190335
0.0072761145 0.046420138 0.59325463 4278190335
0.0072911158 0.046444166 0.59375381 4278190335
0.0073061166 0.046468198 0.59425306 4278190335
0.0073211174 0.046492226 0.59475225 4278190335
0.0073361183 0.046516258 0.59525144 4278190335
0.0073511195 0.046540286 0.59575063 4278190335
0.0073661203 0.046564318 0.59624982 4278190335
0.0073811212 0.046588346 0.59674901 4278190335
0.0073961224 0.046612374 0.5972482 4278190335
0.0074111233 0.046636406 0.59774739 4278190335
0.0074261241 0.046660434 0.59824663 4278190335
0.0074411249 0.046684466 0.59874582 4278190335
0.0074561257 0.046708494 0.59924501 4278190335
0.007471127 0.046732526 0.5997442 4278190335
0.0074861278 0.046756554 0.60024339 4278190335
0.0075011286 0.046780586 0.60074258 4278190335
0.0075161299 0.046804614 0.60124177 4278190335
0.0075311307 0.046828642 0.60174096 4278190335
0.0075461315 0.046852674 0.6022402 4278190335
0.0075611323 0.046876702 0.60273939 4278190335
0.0075761336 0.046900734 0.60323858 4278190335
0.0075911344 0.046924762 0.60373777 4278190335
0.0076061357 0.046948794 0.60423696 4278190335
0.0076211365 0.046972822 0.60473615 4278190335
0.0076361373 0.046996854 0.60523534 4278190335
0.0076511381 0.047020882 0.60573459 4278190335
0.0076661389 0.047044914 0.60623378 4278190335
0.0076811402 0.047068942 0.60673296 4278190335
0.007696141 0.04709297 0.60723215 4278190335
0.0077111418 0.047117002 0.60773134 4278190335
0.0077261431 0.04714103 0.60823053 4278190335
0.0077411439 0.047165062 0.60872972 4278190335
0.0077561447 0.04718909 0.60922891 4278190335
0.0077711456 0.047213122 0.60972816 4278190335
0.0077861468 0.04723715 0.61022735 4278190335
0.0078011476 0.047261182 0.61072654 4278190335
0.0078161489 0.04728521 0.61122572 4278190335
0.0078311497 0.047309242 0.61172491 4278190335
0.0078461505 0.04733327 0.6122241 4278190335
0.0078611514 0.047357298 0.61272329 4278190335
0.0078761522 0.04738133 0.61322248 4278190335
0.007891153 0.047405358 0.61372173 4278190335
0.0079061538 0.04742939 0.61422092 4278190335
0.0079211555 0.047453418 0.61472011 4278190335
0.0079361564 0.04747745 0.6152193 4278190335
0.0079511572 0.047501478 0.61571848 4278190335
0.007966158 0.04752551 0.61621767 4278190335
0.0079811588 0.047549538 0.61671686 4278190335
0.0079961596 0.047573566 0.61721611 4278190335
0.0080111604 0.047597598 0.6177153 4278190335
0.0080261622 0.047621626 0.61821449 4278190335
0.008041163 0.047645658 0.61871368 4278190335
0.0080561638 0.047669686 0.61921287 4278190335
0.0080711646 0.047693718 0.61971205 4278190335
0.0080861654 0.047717746 0.62021124 4278190335
0.0081011662 0.047741778 0.62071043 4278190335
0.008116167 0.047765806 0.62120968 4278190335
0.0081311688 0.047789834 0.62170887 4278190335
0.0081461696 0.047813866 0.62220806 4278190335
0.0081611704 0.047837894 0.62270725 4278190335
0.0081761712 0.047861926 0.62320644 4278190335
0.008191172 0.047885954 0.62370563 4278190335
0.0082061728 0.047909986 0.62420481 4278190335
0.0082211737 0.047934014 0.624704 4278190335
0.0082361754 0.047958046 0.62520325 4278190335
0.0082511762 0.047982074 0.62570244 4278190335
0.008266177 0.048006106 0.62620163 4278190335
0.0082811778 0.048030134 0.62670082 4278190335
0.0067810835 0.045627154 0.57678115 4294967295
0.0066910777 0.045482974 0.57378596 4294967295
0.0066010724 0.045338798 0.57079077 4294967295
0.0065110666 0.045194618 0.56779563 4294967295
0.0064210608 0.045050438 0.56480044 4294967295
0.006331055 0.044906259 0.56180525 4294967295
0.0062410496 0.044762082 0.55881006 4294967295
0.0061510438 0.044617902 0.55581486 4294967295
0.006061038 0.044473723 0.55281973 4294967295
0.0059710322 0.044329543 0.54982454 4294967295
0.0058810269 0.044185366 0.54682934 4294967295
0.005791021 0.044041187 0.54383415 4294967295
0.0057010157 0.043897007 0.54083896 4294967295
0.0056110099 0.04375283 0.53784382 4294967295
0.0055210041 0.043608651 0.53484863 4294967295
0.0054309983 0.043464471 0.53185344 4294967295
0.0053409925 0.043320291 0.52885824 4294967295
0.0052509871 0.043176115 0.52586305 4294967295
0.0051609813 0.043031935 0.52286786 4294967295
0.0050709755 0.042887755 0.51987273 4294967295
0.0049809702 0.042743579 0.51687753 4294967295
0.0048909644 0.042599399 0.51388234 4294967295
0.0048009586 0.042455219 0.51088715 4294967295
0.0047109528 0.042311039 0.50789195 4294967295
0.0046209474 0.042166863 0.50489682 4294967295
0.0045309416 0.042022683 0.50190163 4294967295
0.0044409363 0.041878503 0.49890643 4294967295
0.0043509305 0.041734323 0.49591124 4294967295
0.0042609246 0.041590147 0.49291608 4294967295
0.0041709188 0.041445967 0.48992088 4294967295
0.004080913 0.041301787 0.48692569 4294967295
0.0039909072 0.041157611 0.48393053 4294967295
0.0039009019 0.041013431 0.48093534 4294967295
0.0038108961 0.040869251 0.47794014 4294967295
0.0037208905 0.040725071 0.47494498 4294967295
0.0036308849 0.040580895 0.47194979 4294967295
0.0035408791 0.040436715 0.46895462 4294967295
0.0034508735 0.040292535 0.46595943 4294967295
0.0033608677 0.040148355 0.46296424 4294967295
0.0032708622 0.040004179 0.45996907 4294967295
0.0031808564 0.039859999 0.45697388 4294967295
0.0030908508 0.039715819 0.45397872 4294967295
0.0030008452 0.039571643 0.45098352 4294967295
0.0029108394 0.039427463 0.44798833 4294967295
0.0028208336 0.039283283 0.44499314 4294967295
0.0027308282 0.039139103 0.44199798 4294967295
0.0026408224 0.038994927 0.43900281 4294967295
0.0025508166 0.038850747 0.43600762 4294967295
0.0024608113 0.038706567 0.43301243 4294967295
0.0023708055 0.038562387 0.43001723 4294967295
0.0022807997 0.038418211 0.42702207 4294967295
0.0021907939 0.038274031 0.42402691 4294967295
0.0021007885 0.038129851 0.42103171 4294967295
0.0020107827 0.037985675 0.41803652 4294967295
0.0019207769 0.037841495 0.41504133 4294967295
0.0018307711 0.037697315 0.41204616 4294967295
0.0017407658 0.037553139 0.409051 4294967295
0.00165076 0.037408959 0.40605581 4294967295
0.0015607546 0.037264779 0.40306062 4294967295
0.0014707488 0.037120599 0.40006542 4294967295
0.0013807425 0.036976419 0.39707023 4294967295
0.0012907372 0.036832243 0.39407507 4294967295
0.0012007314 0.036688063 0.3910799 4294967295
0.001110726 0.036543883 0.38808471 4294967295
0.0010207202 0.036399707 0.38508952 4294967295
0.00093071489 0.036255527 0.38209435 4294967295
0.00084070861 0.036111347 0.37909916 4294967295
0.00075070281 0.035967167 0.376104 4294967295
0.00066069746 0.035822991 0.3731088 4294967295
0.00057069166 0.035678811 0.37011361 4294967295
0.00048068631 0.035534631 0.36711842 4294967295
0.00039068051 0.035390452 0.36412326 4294967295
0.0003006747 0.035246275 0.36112806 4294967295
0.00021066889 0.035102095 0.3581329 4294967295
0.00012066355 0.034957916 0.35513771 4294967295
3.0657742e-05 0.034813739 0.35214251 4294967295
-5.9348065e-05 0.034669559 0.34914735 4294967295
-0.00014935341 0.03452538 0.34615219 4294967295
-0.00023935921 0.034381203 0.34315699 4294967295
-0.00032936502 0.034237023 0.3401618 4294967295
-0.00041937083 0.034092844 0.33716661 4294967295
-0.00050937617 0.033948664 0.33417144 4294967295
-0.00059938198 0.033804484 0.33117625 4294967295
-0.00068938732 0.033660308 0.32818109 4294967295
-0.00077939313 0.033516128 0.32518589 4294967295
-0.0008693994 0.033371948 0.3221907 4294967295
-0.00095940474 0.033227772 0.31919554 4294967295
-0.0010494106 0.033083592 0.31620035 4294967295
-0.0011394164 0.032939412 0.31320515 4294967295
-0.0012294212 0.032795236 0.31020999 4294967295
-0.001319427 0.032651056 0.3072148 4294967295
-0.0014094338 0.032506876 0.3042196 4294967295
-0.0014994387 0.032362696 0.30122444 4294967295
-0.0015894445 0.032218516 0.29822925 4294967295
-0.0016794503 0.03207434 0.29523408 4294967295
-0.0017694561 0.03193016 0.29223889 4294967295
-0.001859461 0.03178598 0.28924373 4294967295
-0.0019494677 0.031641804 0.28624853 4294967295
-0.0020394726 0.031497624 0.28325334 4294967295
-0.0021294784 0.031353444 0.28025818 4294967295
-0.0022194842 0.031209266 0.27726299 4294967295
