# .PCD v0.7 - Point Cloud Data file format
VERSION 0.7
FIELDS x y z rgb
SIZE 4 4 4 4
TYPE F F F U
COUNT 1 1 1 1
WIDTH 893
HEIGHT 1
VIEWPOINT 0 0 0 1 0 0 0
POINTS 893
DATA ascii
-0.15040877 0.015741384 0.55200005 4285496944
-0.14780818 0.017439591 0.54900002 4285956982
-0.14602503 0.017439591 0.54900002 4288521876
-0.14397915 0.017407825 0.54800004 4284115793
-0.14193976 0.01737606 0.54700005 4285630064
-0.14016311 0.01737606 0.54700005 4282472252
-0.13838644 0.01737606 0.54700005 4282340662
-0.13685954 0.017407825 0.54800004 4281289257
-0.13532612 0.017439591 0.54900002 4280499741
-0.1337862 0.017471356 0.55000001 4280959522
-0.1327198 0.017566655 0.55300003 4281155620
-0.15850709 0.019223347 0.54900002 4285955958
-0.14726973 0.019153317 0.54700005 4294180852
-0.14522707 0.019118302 0.546 4286022771
-0.14319094 0.019083286 0.54500002 4282602052
-0.13939437 0.019048272 0.54400003 4280700204
-0.13762747 0.019048272 0.54400003 4280307239
-0.13586056 0.019048272 0.54400003 4279651359
-0.13434014 0.019083286 0.54500002 4280046117
-0.13305648 0.019153317 0.54700005 4279980070
-0.13199981 0.019258361 0.55000001 4280177451
-0.13092367 0.019363409 0.55300003 4280111143
-0.12982804 0.019468455 0.55600005 4280702510
-0.12871291 0.019573499 0.55900002 4281423925
-0.1273513 0.01964353 0.56100005 4281423925
-0.12642419 0.01978359 0.565 4279712537
-0.12241695 0.020028697 0.57200003 4279510543
-0.1174562 0.020133743 0.57500005 4285234536
-0.14012334 0.020662725 0.54000002 4282274884
-0.13836941 0.020662725 0.54000002 4279649059
-0.1366155 0.020662725 0.54000002 4280111143
-0.13486157 0.020662725 0.54000002 4279257371
-0.13045016 0.021083632 0.551 4279192351
-0.12936102 0.021198425 0.55400002 4279192605
-0.1282524 0.021313218 0.55700004 4279126812
-0.12689728 0.021389747 0.55900002 4279389984
-0.12620044 0.021581069 0.56400001 4279389471
-0.1250301 0.021695862 0.56700003 4279586850
-0.12384029 0.021810656 0.57000005 4279718436
-0.12241695 0.021887183 0.57200003 4279652389
-0.12076985 0.021925448 0.57300001 4280177449
-0.11911626 0.02196371 0.574 4280374315
-0.1174562 0.022001976 0.57500005 4280307243
-0.13734446 0.022251187 0.53600001 4279912231
-0.13535054 0.022209672 0.53500003 4279649824
-0.13361286 0.022209672 0.53500003 4279454496
-0.12597668 0.023372049 0.56300002 4278929433
-0.1250301 0.023538101 0.56700003 4278930203
-0.12362301 0.023621129 0.56900001 4278732824
-0.12220293 0.023704156 0.57100004 4278995996
-0.12076985 0.023787182 0.57300001 4279061789
-0.11911626 0.023828695 0.574 4278732824
-0.1174562 0.023870211 0.57500005 4278601238
-0.13657574 0.023858419 0.53300005 4279715106
-0.13459156 0.023813654 0.53200001 4279781410
-0.13261388 0.023768893 0.53100002 4279519521
-0.13088919 0.023768893 0.53100002 4279125533
-0.1250301 0.025380343 0.56700003 4279061019
-0.12362301 0.025469868 0.56900001 4278797847
-0.12220293 0.025559394 0.57100004 4278928920
-0.12076985 0.025648918 0.57300001 4278994459
-0.11911626 0.025693679 0.574 4279126045
-0.1174562 0.025738444 0.57500005 4279126299
-0.13580702 0.025446156 0.53000003 4279780897
-0.13383259 0.025398144 0.52900004 4279650592
-0.13186465 0.025350131 0.528 4279387933
-0.12990321 0.02530212 0.52700001 4279453726
-0.12794827 0.02525411 0.52600002 4279387933
-0.12551981 0.025110073 0.523 4278927384
-0.12334762 0.025014052 0.52100003 4279189273
-0.1214219 0.024966041 0.52000004 4279190043
-0.11950269 0.024918029 0.51900005 4279322914
-0.11713595 0.024773993 0.51600003 4279716902
-0.1250301 0.027222585 0.56700003 4279256349
-0.12362301 0.027318608 0.56900001 4279125533
-0.12220293 0.027414633 0.57100004 4279059738
-0.12076985 0.027510654 0.57300001 4279059738
-0.11911626 0.027558666 0.574 4279059738
-0.090913542 0.023621714 0.49200001 4278994459
-0.089315526 0.023621714 0.49200001 4278468628
-0.087539218 0.023573702 0.49100003 4279192351
-0.085769407 0.023525691 0.49000001 4279061535
-0.084177889 0.023525691 0.49000001 4278929951
-0.08258637 0.023525691 0.49000001 4279390502
-0.13529454 0.027065657 0.528 4279650594
-0.13307361 0.026963137 0.52600002 4279650594
-0.13111542 0.026911877 0.52500004 4279585312
-0.12916373 0.026860617 0.52400005 4279387933
-0.12721851 0.026809353 0.523 4279453726
-0.12479982 0.026655573 0.52000004 4279124248
-0.12287412 0.026604313 0.51900005 4278197760
-0.12095489 0.02655305 0.51800001 4279648543
-0.11904217 0.02650179 0.51700002 4278263558
-0.11668193 0.026348006 0.514 4278787851
-0.11434118 0.026194226 0.51100004 4278656267
-0.11246094 0.026142966 0.51000005 4278853646
-0.11058719 0.026091704 0.509 4278197254
-0.098690033 0.025579097 0.49900001 4279453728
-0.096874766 0.025527837 0.49800003 4279453728
-0.095065974 0.025476575 0.49700001 4279058970
-0.093075655 0.025374055 0.49500003 4279190556
-0.091098331 0.025271533 0.49300003 4279257117
-0.089315526 0.025220271 0.49200001 4279257117
-0.087539218 0.025169011 0.49100003 4279059738
-0.085944451 0.025169011 0.49100003 4279125531
-0.084177889 0.025117749 0.49000001 4278863388
-0.08258637 0.025117749 0.49000001 4278929181
-0.080829553 0.025066489 0.48900002 4279060767
-0.079241283 0.025066489 0.48900002 4279126560
-0.077653013 0.025066489 0.48900002 4279126560
-0.076064736 0.025066489 0.48900002 4279323939
-0.074476466 0.025066489 0.48900002 4280179248
-0.073037244 0.025117749 0.49000001 4279718697
-0.1350383 0.028726673 0.52700001 4279519008
-0.13282062 0.028617654 0.52500004 4279453213
-0.13061593 0.028508633 0.523 4279387933
-0.12867074 0.028454125 0.52200001 4279387933
-0.12648879 0.028345106 0.52000004 4279190554
-0.12431981 0.028236084 0.51800001 4280307754
-0.1224006 0.028181575 0.51700002 4280108326
-0.12048788 0.028127067 0.51600003 4280240166
-0.11858166 0.028072556 0.51500005 4278788623
-0.11645492 0.027963536 0.51300001 4278918928
-0.11434118 0.027854517 0.51100004 4279049744
-0.11224042 0.027745496 0.509 4279049744
-0.11058719 0.027745496 0.509 4278655756
-0.10850593 0.027636478 0.50700003 4278721295
-0.10664843 0.027581969 0.50600004 4278721295
-0.10458989 0.027472947 0.50400001 4279315482
-0.10274863 0.027418438 0.50300002 4279649059
-0.10091387 0.027363928 0.50200003 4279385889
-0.098887809 0.027254907 0.5 4279187740
-0.097069286 0.027200399 0.49900001 4278595089
-0.095065974 0.027091378 0.49700001 4278198018
-0.093263686 0.02703687 0.49600002 4278197248
-0.091283113 0.026927849 0.49400002 4278199046
-0.089497067 0.026873341 0.49300003 4278661394
-0.087717503 0.026818831 0.49200001 4279056152
-0.085944451 0.02676432 0.49100003 4279780645
-0.084349684 0.02676432 0.49100003 4279321631
-0.08258637 0.02670981 0.49000001 4279388707
-0.080994844 0.02670981 0.49000001 4279059740
-0.079241283 0.026655301 0.48900002 4279125533
-0.077653013 0.026655301 0.48900002 4279191840
-0.076220281 0.02670981 0.49000001 4279191840
-0.07462877 0.02670981 0.49000001 4279718184
-0.073037244 0.02670981 0.49000001 4278929181
-0.071591534 0.02676432 0.49100003 4279192355
-0.069996759 0.02676432 0.49100003 4278863390
-0.068402 0.02676432 0.49100003 4284915581
-0.066943288 0.026818831 0.49200001 4279651889
-0.13478206 0.030381192 0.52600002 4279452445
-0.13256763 0.030265674 0.52400005 4279519008
-0.13036619 0.030150155 0.52200001 4279190556
-0.12817775 0.030034639 0.52000004 4279256347
-0.12624554 0.02997688 0.51900005 4279453726
-0.12407982 0.029861361 0.51700002 4280110375
-0.12216385 0.029803602 0.51600003 4280371752
-0.12002087 0.029688083 0.514 4280569131
-0.11812114 0.029630324 0.51300001 4278920211
-0.11622792 0.029572567 0.51200002 4280038690
-0.11411743 0.029457049 0.51000005 4278853646
-0.11224042 0.029399289 0.509 4278853646
-0.11036994 0.02934153 0.50800002 4279511578
-0.10829192 0.029226014 0.50600004 4279577117
-0.10643765 0.029168252 0.505 4280235047
-0.10458989 0.029110495 0.50400001 4279249689
-0.10274863 0.029052736 0.50300002 4279254814
-0.10091387 0.028994977 0.50200003 4278333712
-0.098887809 0.028879458 0.5 4278661394
-0.097069286 0.028821699 0.49900001 4279386141
-0.095257252 0.028763942 0.49800003 4279846692
-0.093263686 0.028648423 0.49600002 4279254555
-0.091467902 0.028590666 0.49500003 4279451934
-0.0896786 0.028532906 0.49400002 4279780899
-0.087895796 0.028475147 0.49300003 4279780129
-0.086119488 0.028417388 0.49200001 4279911461
-0.084349684 0.028359629 0.49100003 4279385117
-0.08258637 0.028301869 0.49000001 4278398222
-0.080994844 0.028301869 0.49000001 4278199044
-0.079403333 0.028301869 0.49000001 4278196992
-0.077811807 0.028301869 0.49000001 4278199301
-0.076220281 0.028301869 0.49000001 4278333199
-0.07462877 0.028301869 0.49000001 4279124763
-0.073037244 0.028301869 0.49000001 4279125533
-0.071591534 0.028359629 0.49100003 4278994461
-0.069996759 0.028359629 0.49100003 4278994463
-0.068402 0.028359629 0.49100003 4279126049
-0.066943288 0.028417388 0.49200001 4279126049
-0.065345272 0.028417388 0.49200001 4279189023
-0.14376971 0.032578282 0.53400004 4282535996
-0.13452582 0.032029212 0.52500004 4279452445
-0.13231464 0.031907193 0.523 4279519008
-0.13011645 0.031785179 0.52100003 4279322912
-0.12793125 0.031663164 0.51900005 4279322912
-0.12600228 0.031602152 0.51800001 4279125531
-0.12383982 0.031480137 0.51600003 4278333964
-0.1219271 0.031419132 0.51500005 4278265863
-0.11978737 0.031297114 0.51300001 4280174373
-0.11789089 0.031236107 0.51200002 4278722832
-0.11600091 0.031175099 0.51100004 4278590476
-0.11389366 0.031053081 0.509 4279708955
-0.11201991 0.030992074 0.50800002 4278458890
-0.11015267 0.030931067 0.50700003 4278787601
-0.10829192 0.03087006 0.50600004 4280499754
-0.10643765 0.030809049 0.505 4278722832
-0.10458989 0.030748041 0.50400001 4279578654
-0.10274863 0.030687034 0.50300002 4279254301
-0.10091387 0.030626027 0.50200003 4278395914
-0.099085592 0.03056502 0.50100005 4278657548
-0.097263813 0.030504009 0.5 4278527759
-0.095257252 0.030381994 0.49800003 4279450910
-0.093451716 0.030320985 0.49700001 4279187738
-0.091652684 0.030259978 0.49600002 4278990613
-0.0896786 0.030137962 0.49400002 4279516957
-0.087895796 0.030076955 0.49300003 4279517725
-0.086119488 0.030015945 0.49200001 4279255836
-0.084521472 0.030015945 0.49200001 4279190556
-0.082754917 0.029954938 0.49100003 4279124763
-0.081160143 0.029954938 0.49100003 4279321629
-0.079403333 0.029893929 0.49000001 4279321629
-0.077811807 0.029893929 0.49000001 4279782182
-0.076220281 0.029893929 0.49000001 4279649572
-0.07462877 0.029893929 0.49000001 4280373549
-0.073186301 0.029954938 0.49100003 4279256351
-0.071591534 0.029954938 0.49100003 4279257119
-0.069996759 0.029954938 0.49100003 4279125533
-0.068541311 0.030015945 0.49200001 4278993947
-0.066943288 0.030015945 0.49200001 4278796568
-0.065345272 0.030015945 0.49200001 4278992666
-0.13478206 0.03379925 0.52600002 4279519008
-0.13256763 0.033670735 0.52400005 4279519008
-0.13036619 0.03354222 0.52200001 4279125533
-0.12793125 0.033349451 0.51900005 4278993947
-0.12575904 0.033220932 0.51700002 4279059740
-0.12383982 0.033156678 0.51600003 4279715619
-0.12169035 0.033028159 0.514 4280371498
-0.11978737 0.032963905 0.51300001 4280109094
-0.11766063 0.03283539 0.51100004 4278854418
-0.11577391 0.032771137 0.51000005 4278918674
-0.11389366 0.032706875 0.509 4278983699
-0.11201991 0.032642618 0.50800002 4278852113
-0.11015267 0.032578364 0.50700003 4278983697
-0.10829192 0.032514106 0.50600004 4278852365
-0.10643765 0.032449845 0.505 4278721549
-0.10458989 0.032385591 0.50400001 4280170791
-0.10274863 0.032321334 0.50300002 4279713570
-0.10091387 0.032257076 0.50200003 4278723341
-0.099085592 0.032192823 0.50100005 4278328585
-0.097263813 0.032128561 0.5 4278396175
-0.095448531 0.032064304 0.49900001 4279845670
-0.093639746 0.03200005 0.49800003 4279319326
-0.091652684 0.031871535 0.49600002 4279516703
-0.089860134 0.031807277 0.49500003 4278398222
-0.088074081 0.03174302 0.49400002 4279055125
-0.086294532 0.031678762 0.49300003 4278858259
-0.084521472 0.031614505 0.49200001 4279056924
-0.082923457 0.031614505 0.49200001 4278201099
-0.081160143 0.031550247 0.49100003 4279715365
-0.079565383 0.031550247 0.49100003 4278202126
-0.077970609 0.031550247 0.49100003 4279255838
-0.076375842 0.031550247 0.49100003 4279190045
-0.074781075 0.031550247 0.49100003 4279781412
-0.073186301 0.031550247 0.49100003 4279190558
-0.071591534 0.031550247 0.49100003 4279190556
-0.069996759 0.031550247 0.49100003 4279190556
-0.068541311 0.031614505 0.49200001 4278993947
-0.066943288 0.031614505 0.49200001 4278993177
-0.065345272 0.031614505 0.49200001 4279452447
-0.13726899 0.035710797 0.52900004 4280369954
-0.1350383 0.035575781 0.52700001 4279386652
-0.13282062 0.035440769 0.52500004 4279584799
-0.13061593 0.035305757 0.523 4279257117
-0.12817775 0.035103239 0.52000004 4279257117
-0.12575904 0.034900717 0.51700002 4279190556
-0.12359983 0.034765709 0.51500005 4278400529
-0.12169035 0.034698199 0.514 4278530578
-0.11955387 0.034563188 0.51200002 4279517473
-0.11766063 0.034495682 0.51100004 4280306989
-0.11554689 0.03436067 0.509 4280371500
-0.1136699 0.034293164 0.50800002 4279383068
-0.1117994 0.034225658 0.50700003 4279250969
-0.10993541 0.034158152 0.50600004 4278459658
-0.10807789 0.034090642 0.505 4278195459
-0.10643765 0.034090642 0.505 4278589961
-0.10458989 0.034023136 0.50400001 4280762926
-0.10274863 0.033955634 0.50300002 4279713055
-0.10091387 0.033888128 0.50200003 4279843360
-0.099085592 0.033820622 0.50100005 4280501036
-0.097263813 0.033753112 0.5 4280107815
-0.095448531 0.033685606 0.49900001 4279450910
-0.093639746 0.0336181 0.49800003 4279582750
-0.091837466 0.033550594 0.49700001 4278201097
-0.090041667 0.033483088 0.49600002 4279779875
-0.088074081 0.033348076 0.49400002 4278200329
-0.086469568 0.033348076 0.49400002 4278331402
-0.084693268 0.03328057 0.49300003 4278660882
-0.082923457 0.033213064 0.49200001 4279516191
-0.081325442 0.033213064 0.49200001 4279779109
-0.079565383 0.033145558 0.49100003 4279055386
-0.077970609 0.033145558 0.49100003 4279519010
-0.076375842 0.033145558 0.49100003 4278860310
-0.074781075 0.033145558 0.49100003 4279649826
-0.073186301 0.033145558 0.49100003 4279387937
-0.071591534 0.033145558 0.49100003 4279190304
-0.070139319 0.033213064 0.49200001 4279256351
-0.068541311 0.033213064 0.49200001 4279125535
-0.066943288 0.033213064 0.49200001 4279256351
-0.065345272 0.033213064 0.49200001 4279386400
-0.13580702 0.037500326 0.53000003 4279648539
-0.13357958 0.037358813 0.528 4279386137
-0.13111542 0.03714655 0.52500004 4279190554
-0.12842424 0.036863528 0.52100003 4279387933
-0.12600228 0.036651257 0.51800001 4279058968
-0.12383982 0.036509749 0.51600003 4279585312
-0.12169035 0.036368236 0.514 4279321629
-0.11955387 0.036226727 0.51200002 4279321629
-0.11766063 0.036155973 0.51100004 4279190043
-0.11554689 0.03601446 0.509 4279321631
-0.1136699 0.035943706 0.50800002 4279321631
-0.1117994 0.035872951 0.50700003 4279452447
-0.10993541 0.035802197 0.50600004 4279386654
-0.10807789 0.035731439 0.505 4279451680
-0.10622688 0.035660684 0.50400001 4279451680
-0.10458989 0.035660684 0.50400001 4279516957
-0.10274863 0.03558993 0.50300002 4279516189
-0.10091387 0.035519175 0.50200003 4279515676
-0.099085592 0.035448421 0.50100005 4279778850
-0.097263813 0.035377663 0.5 4278265611
-0.095448531 0.035306908 0.49900001 4278197508
-0.093639746 0.035236154 0.49800003 4278196224
-0.091837466 0.035165396 0.49700001 4278397197
-0.090041667 0.035094641 0.49600002 4278660367
-0.088252373 0.035023887 0.49500003 4279516189
-0.086469568 0.034953132 0.49400002 4279910947
-0.084693268 0.034882378 0.49300003 4279715106
-0.083092004 0.034882378 0.49300003 4279780645
-0.081325442 0.03481162 0.49200001 4279517475
-0.079727426 0.03481162 0.49200001 4279254303
-0.077970609 0.034740865 0.49100003 4279649059
-0.076375842 0.034740865 0.49100003 4278596371
-0.074781075 0.034740865 0.49100003 4279321377
-0.073186301 0.034740865 0.49100003 4279256867
-0.071591534 0.034740865 0.49100003 4279125281
-0.070139319 0.03481162 0.49200001 4279257121
-0.068541311 0.03481162 0.49200001 4279190558
-0.066943288 0.03481162 0.49200001 4279058972
-0.065345272 0.03481162 0.49200001 4279058205
-0.12624554 0.038408302 0.51900005 4279188760
-0.12383982 0.038186286 0.51600003 4279254551
-0.12169035 0.038038276 0.514 4279320857
-0.11955387 0.037890267 0.51200002 4279058457
-0.11766063 0.037816264 0.51100004 4279058457
-0.11554689 0.037668254 0.509 4279058457
-0.1136699 0.037594251 0.50800002 4279321629
-0.1117994 0.037520245 0.50700003 4279190043
-0.10993541 0.037446242 0.50600004 4279190043
-0.10807789 0.037372235 0.505 4279058457
-0.10622688 0.037298232 0.50400001 4279124250
-0.10458989 0.037298232 0.50400001 4279190043
-0.10274863 0.037224229 0.50300002 4279321629
-0.10091387 0.037150223 0.50200003 4279255836
-0.099085592 0.03707622 0.50100005 4279453217
-0.097458348 0.03707622 0.50100005 4279321631
-0.09563981 0.037002213 0.5 4279321631
-0.093827777 0.03692821 0.49900001 4279320861
-0.092022248 0.036854208 0.49800003 4279452193
-0.090041667 0.036706198 0.49600002 4279912231
-0.088252373 0.036632195 0.49500003 4280043047
-0.086469568 0.036558188 0.49400002 4279845668
-0.084693268 0.036484186 0.49300003 4279121431
-0.083092004 0.036484186 0.49300003 4278266122
-0.081325442 0.036410179 0.49200001 4278198018
-0.079727426 0.036410179 0.49200001 4278198275
-0.078129411 0.036410179 0.49200001 4278198019
-0.076531388 0.036410179 0.49200001 4278199047
-0.074781075 0.036336176 0.49100003 4279321379
-0.073186301 0.036336176 0.49100003 4279059488
-0.071737342 0.036410179 0.49200001 4279059488
-0.070139319 0.036410179 0.49200001 4278993695
-0.068541311 0.036410179 0.49200001 4279190558
-0.066943288 0.036410179 0.49200001 4279058972
-0.065345272 0.036410179 0.49200001 4279187740
-0.12407982 0.039940074 0.51700002 4279313418
-0.1219271 0.039785571 0.51500005 4278986506
-0.11978737 0.039631061 0.51300001 4279250191
-0.11766063 0.039476555 0.51100004 4279515930
-0.11577391 0.039399303 0.51000005 4279713822
-0.1136699 0.039244793 0.50800002 4279319576
-0.1117994 0.039167542 0.50700003 4279187990
-0.10993541 0.039090287 0.50600004 4279188760
-0.10807789 0.039013032 0.505 4279189273
-0.10622688 0.038935781 0.50400001 4279190043
-0.10438237 0.038858525 0.50300002 4279190043
-0.10274863 0.038858525 0.50300002 4279190043
-0.10091387 0.038781274 0.50200003 4279255836
-0.099085592 0.038704023 0.50100005 4279256349
-0.097458348 0.038704023 0.50100005 4279190556
-0.09563981 0.038626764 0.5 4279059742
-0.093827777 0.038549513 0.49900001 4279059742
-0.092022248 0.038472258 0.49800003 4279322914
-0.090223201 0.038395002 0.49700001 4279322914
-0.088430658 0.038317751 0.49600002 4279584803
-0.086644612 0.0382405 0.49500003 4279519010
-0.084865063 0.038163245 0.49400002 4279649826
-0.083092004 0.038085993 0.49300003 4279452193
-0.081325442 0.038008738 0.49200001 4279714854
-0.079727426 0.038008738 0.49200001 4279714854
-0.078129411 0.038008738 0.49200001 4279649059
-0.076531388 0.038008738 0.49200001 4279649059
-0.074781075 0.037931483 0.49100003 4279452963
-0.073186301 0.037931483 0.49100003 4279387683
-0.071591534 0.037931483 0.49100003 4279454246
-0.069996759 0.037931483 0.49100003 4279125281
-0.068402 0.037931483 0.49100003 4279387937
-0.066807225 0.037931483 0.49100003 4279058459
-0.065212458 0.037931483 0.49100003 4278791955
-0.11978737 0.041297849 0.51300001 4279508235
-0.11766063 0.041136846 0.51100004 4279377162
-0.11577391 0.041056346 0.51000005 4279312139
-0.1136699 0.040895335 0.50800002 4279181064
-0.1117994 0.040814836 0.50700003 4279049992
-0.10993541 0.040734332 0.50600004 4278853896
-0.10807789 0.040653829 0.505 4278986506
-0.10622688 0.040573325 0.50400001 4279513363
-0.10438237 0.040492825 0.50300002 4279317014
-0.10274863 0.040492825 0.50300002 4279514906
-0.10091387 0.040412322 0.50200003 4279976994
-0.099085592 0.040331822 0.50100005 4280043047
-0.097458348 0.040331822 0.50100005 4279845670
-0.09563981 0.040251315 0.5 4279781160
-0.093827777 0.040170815 0.49900001 4279912746
-0.092022248 0.040090311 0.49800003 4279518756
-0.090223201 0.040009808 0.49700001 4279584549
-0.088430658 0.039929304 0.49600002 4279452963
-0.086644612 0.039848804 0.49500003 4279452963
-0.084865063 0.039768301 0.49400002 4279584551
-0.083092004 0.039687797 0.49300003 4279649574
-0.081325442 0.039607294 0.49200001 4279649574
-0.079727426 0.039607294 0.49200001 4279715367
-0.078129411 0.039607294 0.49200001 4279715367
-0.076375842 0.039526794 0.49100003 4279649574
-0.074781075 0.039526794 0.49100003 4279781158
-0.073186301 0.039526794 0.49100003 4279518756
-0.071591534 0.039526794 0.49100003 4279256097
-0.069996759 0.039526794 0.49100003 4279124511
-0.068402 0.039526794 0.49100003 4279189791
-0.066807225 0.039526794 0.49100003 4279189021
-0.065212458 0.039526794 0.49100003 4281026100
-0.1117994 0.042462129 0.50700003 4279836430
-0.10993541 0.042378381 0.50600004 4280231186
-0.10829192 0.042378381 0.50600004 4280625944
-0.09563981 0.041875865 0.5 4285697403
-0.093827777 0.041792113 0.49900001 4284250471
-0.092022248 0.041708365 0.49800003 4283133273
-0.090223201 0.041624609 0.49700001 4282343757
-0.088430658 0.041540861 0.49600002 4281488446
-0.086644612 0.041457109 0.49500003 4280633137
-0.084865063 0.041373357 0.49400002 4280567344
-0.083092004 0.041289605 0.49300003 4280106793
-0.081325442 0.041205853 0.49200001 4279843108
-0.079727426 0.041205853 0.49200001 4279711522
-0.078129411 0.041205853 0.49200001 4279581219
-0.076375842 0.041122101 0.49100003 4279581732
-0.074781075 0.041122101 0.49100003 4279581730
-0.073186301 0.041122101 0.49100003 4279910695
-0.071591534 0.041122101 0.49100003 4279647525
-0.069996759 0.041122101 0.49100003 4279581734
-0.068402 0.041122101 0.49100003 4279383840
-0.066807225 0.041122101 0.49100003 4282210888
-0.090223201 0.043239415 0.49700001 4285894269
-0.088430658 0.043152414 0.49600002 4285763196
-0.086644612 0.043065414 0.49500003 4285763194
-0.084865063 0.042978413 0.49400002 4285828474
-0.083092004 0.042891413 0.49300003 4285828474
-0.081325442 0.042804409 0.49200001 4285894267
-0.079727426 0.042804409 0.49200001 4285762681
-0.077970609 0.042717412 0.49100003 4285565815
-0.076375842 0.042717412 0.49100003 4286223745
-0.074781075 0.042717412 0.49100003 4286157950
-0.073186301 0.042717412 0.49100003 4286026364
-0.071591534 0.042717412 0.49100003 4286354816
-0.069996759 0.042717412 0.49100003 4285433714
-0.068402 0.042717412 0.49100003 4285762679
-0.077970609 0.044312723 0.49100003 4286090878
-0.076375842 0.044312723 0.49100003 4286025085
-0.074781075 0.044312723 0.49100003 4285959290
-0.071591534 0.044312723 0.49100003 4285630325
-0.10122082 0.031844132 0.50897944 4294967295
-0.10122082 0.031844132 0.50897944 4294901760
-0.10125241 0.031358633 0.50886416 4294901760
-0.101284 0.030873133 0.50874883 4294901760
-0.10131558 0.030387634 0.50863355 4294901760
-0.10134717 0.029902136 0.50851828 4294901760
-0.10137876 0.029416636 0.50840294 4294901760
-0.10141034 0.028931137 0.50828767 4294901760
-0.10144193 0.028445639 0.50817239 4294901760
-0.10147353 0.02796014 0.50805706 4294901760
-0.10150512 0.02747464 0.50794178 4294901760
-0.10153671 0.026989141 0.50782651 4294901760
-0.10156829 0.026503641 0.50771117 4294901760
-0.10159988 0.026018143 0.5075959 4294901760
-0.10163147 0.025532644 0.50748062 4294901760
-0.10166305 0.025047146 0.50736535 4294901760
-0.10169464 0.024561645 0.50725001 4294901760
-0.10172623 0.024076147 0.50713474 4294901760
-0.10175782 0.023590647 0.50701946 4294901760
-0.10178941 0.023105148 0.50690413 4294901760
-0.101821 0.02261965 0.50678885 4294901760
-0.10185259 0.022134151 0.50667357 4294901760
-0.10188418 0.021648653 0.50655824 4294901760
-0.10191576 0.021163153 0.50644296 4294901760
-0.10194735 0.020677652 0.50632769 4294901760
-0.10197894 0.020192154 0.50621235 4294901760
-0.10201053 0.019706655 0.50609708 4294901760
-0.10204212 0.019221157 0.5059818 4294901760
-0.10207371 0.018735657 0.50586647 4294901760
-0.1021053 0.018250158 0.50575119 4294901760
-0.10213689 0.01776466 0.50563592 4294901760
-0.10216848 0.017279159 0.50552058 4294901760
-0.10220006 0.016793661 0.50540531 4294901760
-0.10223165 0.016308162 0.50529003 4294901760
-0.10226324 0.015822662 0.5051747 4294901760
-0.10229483 0.015337164 0.50505942 4294901760
-0.10232642 0.014851665 0.50494415 4294901760
-0.10235801 0.014366165 0.50482881 4294901760
-0.1023896 0.013880666 0.50471354 4294901760
-0.10242118 0.013395168 0.50459826 4294901760
-0.10245277 0.012909669 0.50448298 4294901760
-0.10248436 0.012424169 0.50436765 4294901760
-0.10251595 0.011938671 0.50425237 4294901760
-0.10254754 0.011453172 0.5041371 4294901760
-0.10257912 0.010967672 0.50402176 4294901760
-0.10261071 0.010482173 0.50390649 4294901760
-0.10264231 0.009996675 0.50379121 4294901760
-0.10267389 0.0095111746 0.50367588 4294901760
-0.10270548 0.0090256762 0.5035606 4294901760
-0.10273707 0.0085401777 0.50344533 4294901760
-0.10276866 0.0080546774 0.50332999 4294901760
-0.10280025 0.0075691789 0.50321472 4294901760
-0.10283183 0.0070836805 0.50309944 4294901760
-0.10286342 0.006598182 0.50298411 4294901760
-0.10289501 0.0061126836 0.50286883 4294901760
-0.1029266 0.0056271814 0.50275356 4294901760
-0.10295819 0.0051416829 0.50263822 4294901760
-0.10298978 0.0046561845 0.50252295 4294901760
-0.10302137 0.004170686 0.50240767 4294901760
-0.10305296 0.0036851875 0.50229234 4294901760
-0.10308454 0.0031996891 0.50217706 4294901760
-0.10311613 0.0027141869 0.50206178 4294901760
-0.10314772 0.0022286884 0.50194645 4294901760
-0.10317931 0.00174319 0.50183117 4294901760
-0.1032109 0.0012576915 0.5017159 4294901760
-0.10324249 0.00077219307 0.50160062 4294901760
-0.10327408 0.00028669462 0.50148529 4294901760
-0.10330567 -0.00019880757 0.50137001 4294901760
-0.10333725 -0.00068430603 0.50125474 4294901760
-0.10336884 -0.0011698045 0.5011394 4294901760
-0.10340043 -0.0016553029 0.50102413 4294901760
-0.10343201 -0.0021408014 0.50090885 4294901760
-0.10346361 -0.0026262999 0.50079352 4294901760
-0.1034952 -0.003111802 0.50067824 4294901760
-0.10352679 -0.0035973005 0.50056297 4294901760
-0.10355838 -0.004082799 0.50044763 4294901760
-0.10358996 -0.0045682974 0.50033236 4294901760
-0.10362155 -0.0050537959 0.50021708 4294901760
-0.10365314 -0.0055392943 0.50010175 4294901760
-0.10368472 -0.0060247928 0.49998647 4294901760
-0.10371631 -0.006510295 0.49987116 4294901760
-0.1037479 -0.0069957934 0.49975589 4294901760
-0.10377949 -0.0074812919 0.49964058 4294901760
-0.10381109 -0.0079667903 0.49952531 4294901760
-0.10384267 -0.0084522888 0.49941 4294901760
-0.10387426 -0.0089377873 0.4992947 4294901760
-0.10390585 -0.0094232894 0.49917942 4294901760
-0.10393743 -0.0099087879 0.49906412 4294901760
-0.10396902 -0.010394286 0.49894881 4294901760
-0.10400061 -0.010879785 0.49883354 4294901760
-0.1040322 -0.011365283 0.49871823 4294901760
-0.10406379 -0.011850782 0.49860293 4294901760
-0.10409538 -0.012336284 0.49848765 4294901760
-0.10412697 -0.012821782 0.49837235 4294901760
-0.10415856 -0.013307281 0.49825704 4294901760
-0.10419014 -0.013792779 0.49814177 4294901760
-0.10422173 -0.014278278 0.49802646 4294901760
-0.10425332 -0.014763776 0.49791119 4294901760
-0.10428491 -0.015249278 0.49779588 4294901760
-0.1043165 -0.015734777 0.49768057 4294901760
-0.10434809 -0.016220275 0.4975653 4294901760
-0.10437968 -0.016705774 0.49744999 4294901760
-0.10122082 0.031844132 0.50897944 4278255360
-0.10086934 0.031904489 0.50862896 4278255360
-0.10051786 0.031964846 0.50827855 4278255360
-0.10016639 0.032025203 0.50792807 4278255360
-0.099814907 0.03208556 0.5075776 4278255360
-0.099463433 0.032145917 0.50722712 4278255360
-0.099111952 0.032206275 0.50687671 4278255360
-0.098760478 0.032266628 0.50652623 4278255360
-0.098408997 0.032326985 0.50617576 4278255360
-0.098057523 0.032387342 0.50582534 4278255360
-0.097706042 0.032447699 0.50547487 4278255360
-0.097354569 0.032508057 0.50512439 4278255360
-0.097003087 0.032568414 0.50477391 4278255360
-0.096651614 0.032628771 0.5044235 4278255360
-0.096300133 0.032689128 0.50407302 4278255360
-0.095948659 0.032749485 0.50372255 4278255360
-0.095597178 0.032809842 0.50337213 4278255360
-0.095245704 0.0328702 0.50302166 4278255360
-0.094894223 0.032930557 0.50267118 4278255360
-0.094542749 0.03299091 0.50232077 4278255360
-0.094191268 0.033051267 0.50197029 4278255360
-0.093839794 0.033111624 0.50161982 4278255360
-0.093488313 0.033171982 0.50126934 4278255360
-0.09313684 0.033232339 0.50091892 4278255360
-0.092785358 0.033292696 0.50056845 4278255360
-0.092433885 0.033353053 0.50021797 4278255360
-0.092082411 0.03341341 0.49986753 4278255360
-0.09173093 0.033473767 0.49951708 4278255360
-0.091379449 0.033534124 0.49916661 4278255360
-0.091027975 0.033594482 0.49881616 4278255360
-0.090676501 0.033654839 0.49846569 4278255360
-0.09032502 0.033715196 0.49811524 4278255360
-0.089973547 0.033775549 0.4977648 4278255360
-0.089622065 0.033835907 0.49741432 4278255360
-0.089270592 0.033896264 0.49706388 4278255360
-0.088919111 0.033956621 0.4967134 4278255360
-0.088567637 0.034016978 0.49636295 4278255360
-0.088216156 0.034077335 0.49601248 4278255360
-0.087864682 0.034137692 0.49566203 4278255360
-0.087513201 0.034198049 0.49531159 4278255360
-0.087161727 0.034258407 0.49496111 4278255360
-0.086810246 0.034318764 0.49461067 4278255360
-0.086458772 0.034379121 0.49426019 4278255360
-0.086107291 0.034439478 0.49390975 4278255360
-0.085755818 0.034499831 0.4935593 4278255360
-0.085404336 0.034560189 0.49320883 4278255360
-0.085052863 0.034620546 0.49285838 4278255360
-0.084701389 0.034680903 0.4925079 4278255360
-0.084349908 0.03474126 0.49215746 4278255360
-0.083998427 0.034801617 0.49180698 4278255360
-0.083646953 0.034861974 0.49145654 4278255360
-0.083295479 0.034922332 0.49110609 4278255360
-0.082943998 0.034982689 0.49075562 4278255360
-0.082592525 0.035043046 0.49040517 4278255360
-0.082241043 0.035103403 0.4900547 4278255360
-0.08188957 0.03516376 0.48970425 4278255360
-0.081538089 0.035224117 0.48935378 4278255360
-0.081186615 0.035284471 0.48900333 4278255360
-0.080835134 0.035344828 0.48865288 4278255360
-0.08048366 0.035405185 0.48830241 4278255360
-0.080132179 0.035465542 0.48795196 4278255360
-0.079780705 0.035525899 0.48760149 4278255360
-0.079429224 0.035586257 0.48725104 4278255360
-0.07907775 0.035646614 0.4869006 4278255360
-0.078726269 0.035706971 0.48655012 4278255360
-0.078374796 0.035767328 0.48619968 4278255360
-0.078023314 0.035827685 0.4858492 4278255360
-0.077671841 0.035888042 0.48549876 4278255360
-0.07732036 0.035948399 0.48514828 4278255360
-0.076968886 0.036008753 0.48479784 4278255360
-0.076617405 0.03606911 0.48444739 4278255360
-0.076265931 0.036129467 0.48409691 4278255360
-0.07591445 0.036189824 0.48374647 4278255360
-0.075562976 0.036250181 0.48339599 4278255360
-0.075211495 0.036310539 0.48304555 4278255360
-0.074860021 0.036370896 0.4826951 4278255360
-0.074508548 0.036431253 0.48234463 4278255360
-0.074157067 0.03649161 0.48199418 4278255360
-0.073805593 0.036551967 0.48164371 4278255360
-0.073454112 0.036612324 0.48129326 4278255360
-0.073102638 0.036672682 0.48094279 4278255360
-0.072751157 0.036733039 0.48059234 4278255360
-0.072399683 0.036793392 0.48024189 4278255360
-0.072048202 0.036853749 0.47989142 4278255360
-0.071696728 0.036914106 0.47954097 4278255360
-0.071345247 0.036974464 0.4791905 4278255360
-0.070993774 0.037034821 0.47884005 4278255360
-0.070642292 0.037095178 0.47848958 4278255360
-0.070290819 0.037155535 0.47813913 4278255360
-0.069939345 0.037215892 0.47778869 4278255360
-0.069587864 0.037276249 0.47743821 4278255360
-0.069236383 0.037336607 0.47708777 4278255360
-0.068884909 0.037396964 0.47673729 4278255360
-0.068533435 0.037457321 0.47638685 4278255360
-0.068181954 0.037517674 0.47603637 4278255360
-0.067830473 0.037578031 0.47568592 4278255360
-0.067478999 0.037638389 0.47533548 4278255360
-0.067127526 0.037698746 0.474985 4278255360
-0.066776045 0.037759103 0.47463456 4278255360
-0.066424564 0.03781946 0.47428408 4278255360
-0.06607309 0.037879817 0.47393364 4278255360
-0.10122082 0.031844132 0.50897944 4278190335
-0.10097177 0.031728685 0.50939733 4278190335
-0.10072271 0.031613238 0.50981528 4278190335
-0.10047366 0.031497791 0.51023316 4278190335
-0.10022461 0.031382345 0.51065105 4278190335
-0.099975549 0.031266898 0.51106894 4278190335
-0.099726498 0.031151449 0.51148689 4278190335
-0.099477448 0.031036003 0.51190478 4278190335
-0.099228397 0.030920556 0.51232266 4278190335
-0.098979339 0.030805109 0.51274061 4278190335
-0.098730288 0.030689662 0.5131585 4278190335
-0.098481238 0.030574216 0.51357639 4278190335
-0.09823218 0.030458769 0.51399428 4278190335
-0.097983129 0.030343322 0.51441222 4278190335
-0.097734079 0.030227875 0.51483011 4278190335
-0.097485021 0.030112427 0.515248 4278190335
-0.09723597 0.02999698 0.51566589 4278190335
-0.09698692 0.029881533 0.51608384 4278190335
-0.096737862 0.029766086 0.51650172 4278190335
-0.096488811 0.02965064 0.51691961 4278190335
-0.096239761 0.029535193 0.51733756 4278190335
-0.095990703 0.029419746 0.51775545 4278190335
-0.095741652 0.0293043 0.51817334 4278190335
-0.095492601 0.029188853 0.51859123 4278190335
-0.095243551 0.029073406 0.51900917 4278190335
-0.094994493 0.028957959 0.51942706 4278190335
-0.094745442 0.028842513 0.51984495 4278190335
-0.094496392 0.028727064 0.5202629 4278190335
-0.094247334 0.028611617 0.52068079 4278190335
-0.093998283 0.02849617 0.52109867 4278190335
-0.093749233 0.028380724 0.52151656 4278190335
-0.093500175 0.028265277 0.52193451 4278190335
-0.093251124 0.02814983 0.5223524 4278190335
-0.093002073 0.028034383 0.52277029 4278190335
-0.092753023 0.027918935 0.52318823 4278190335
-0.092503965 0.027803488 0.52360612 4278190335
-0.092254914 0.027688041 0.52402401 4278190335
-0.092005864 0.027572595 0.5244419 4278190335
-0.091756806 0.027457148 0.52485985 4278190335
-0.091507755 0.027341701 0.52527773 4278190335
-0.091258705 0.027226254 0.52569562 4278190335
-0.091009647 0.027110808 0.52611351 4278190335
-0.090760596 0.026995361 0.52653146 4278190335
-0.090511546 0.026879914 0.52694935 4278190335
-0.090262488 0.026764467 0.52736723 4278190335
-0.090013437 0.026649021 0.52778518 4278190335
-0.089764386 0.026533572 0.52820307 4278190335
-0.089515328 0.026418125 0.52862096 4278190335
-0.089266278 0.026302679 0.52903885 4278190335
-0.089017227 0.026187232 0.52945679 4278190335
-0.088768169 0.026071785 0.52987468 4278190335
-0.088519119 0.025956338 0.53029257 4278190335
-0.088270068 0.025840892 0.53071052 4278190335
-0.088021018 0.025725445 0.53112841 4278190335
-0.08777196 0.025609996 0.53154629 4278190335
-0.087522909 0.025494549 0.53196418 4278190335
-0.087273858 0.025379103 0.53238213 4278190335
-0.0870248 0.025263656 0.53280002 4278190335
-0.08677575 0.025148209 0.53321791 4278190335
-0.086526699 0.025032762 0.53363585 4278190335
-0.086277641 0.024917316 0.53405374 4278190335
-0.086028591 0.024801869 0.53447163 4278190335
-0.08577954 0.024686422 0.53488952 4278190335
-0.08553049 0.024570975 0.53530747 4278190335
-0.085281432 0.024455529 0.53572536 4278190335
-0.085032381 0.024340082 0.53614324 4278190335
-0.084783331 0.024224633 0.53656113 4278190335
-0.084534273 0.024109187 0.53697908 4278190335
-0.084285222 0.02399374 0.53739697 4278190335
-0.084036171 0.023878293 0.53781486 4278190335
-0.083787113 0.023762846 0.5382328 4278190335
-0.083538063 0.0236474 0.53865069 4278190335
-0.083289012 0.023531951 0.53906858 4278190335
-0.083039954 0.023416504 0.53948647 4278190335
-0.082790904 0.023301058 0.53990442 4278190335
-0.082541853 0.023185611 0.5403223 4278190335
-0.082292795 0.023070164 0.54074019 4278190335
-0.082043745 0.022954717 0.54115814 4278190335
-0.081794694 0.022839271 0.54157603 4278190335
-0.081545636 0.022723824 0.54199392 4278190335
-0.081296586 0.022608377 0.5424118 4278190335
-0.081047535 0.02249293 0.54282975 4278190335
-0.080798477 0.022377484 0.54324764 4278190335
-0.080549426 0.022262037 0.54366553 4278190335
-0.080300376 0.02214659 0.54408348 4278190335
-0.080051318 0.022031143 0.54450136 4278190335
-0.079802267 0.021915697 0.54491925 4278190335
-0.079553217 0.02180025 0.54533714 4278190335
-0.079304166 0.021684801 0.54575509 4278190335
-0.079055116 0.021569354 0.54617298 4278190335
-0.078806058 0.021453908 0.54659086 4278190335
-0.078557007 0.021338459 0.54700875 4278190335
-0.078307956 0.021223012 0.5474267 4278190335
-0.078058898 0.021107566 0.54784459 4278190335
-0.077809848 0.020992119 0.54826248 4278190335
-0.077560797 0.020876672 0.54868042 4278190335
-0.077311739 0.020761225 0.54909831 4278190335
-0.077062689 0.020645779 0.5495162 4278190335
-0.076813638 0.020530332 0.54993409 4278190335
-0.07656458 0.020414885 0.55035204 4278190335
-0.07631553 0.020299438 0.55076993 4278190335
-0.10122082 0.031844132 0.50897944 4294967295
-0.10271513 0.032536812 0.50647199 4294967295
-0.10420945 0.033229496 0.5039646 4294967295
-0.10570377 0.033922177 0.50145715 4294967295
-0.10719809 0.034614857 0.49894971 4294967295
-0.1086924 0.035307538 0.49644229 4294967295
-0.11018672 0.036000222 0.49393487 4294967295
-0.11168104 0.036692902 0.49142742 4294967295
-0.11317535 0.037385583 0.48892 4294967295
-0.11466967 0.038078267 0.48641255 4294967295
-0.11616399 0.038770948 0.48390514 4294967295
-0.11765831 0.039463628 0.48139769 4294967295
-0.11915262 0.040156309 0.47889027 4294967295
-0.12064694 0.040848993 0.47638285 4294967295
-0.12214126 0.041541673 0.4738754 4294967295
-0.12363558 0.042234354 0.47136799 4294967295
-0.12512989 0.042927034 0.46886054 4294967295
-0.12662421 0.043619718 0.46635312 4294967295
-0.12811853 0.044312399 0.46384567 4294967295
-0.12961285 0.045005079 0.46133825 4294967295
-0.13110717 0.045697764 0.45883083 4294967295
-0.13260148 0.046390444 0.45632339 4294967295
-0.1340958 0.047083125 0.45381597 4294967295
-0.13559012 0.047775805 0.45130852 4294967295
-0.13708442 0.048468485 0.4488011 4294967295
-0.13857874 0.04916117 0.44629365 4294967295
-0.14007306 0.04985385 0.44378623 4294967295
-0.14156738 0.050546534 0.44127882 4294967295
-0.1430617 0.051239215 0.43877137 4294967295
-0.14455602 0.051931895 0.43626395 4294967295
-0.14605033 0.052624576 0.4337565 4294967295
-0.14754465 0.053317256 0.43124908 4294967295
-0.14903897 0.05400994 0.42874163 4294967295
-0.15053329 0.054702625 0.42623422 4294967295
-0.15202761 0.055395305 0.4237268 4294967295
-0.15352193 0.056087986 0.42121935 4294967295
-0.15501624 0.056780666 0.41871193 4294967295
-0.15651056 0.057473347 0.41620451 4294967295
-0.15800488 0.058166027 0.41369706 4294967295
-0.1594992 0.058858708 0.41118965 4294967295
-0.16099352 0.059551395 0.4086822 4294967295
-0.16248783 0.060244076 0.40617478 4294967295
-0.16398215 0.060936756 0.40366733 4294967295
-0.16547647 0.061629437 0.40115991 4294967295
-0.16697079 0.062322117 0.39865249 4294967295
-0.16846509 0.063014798 0.39614505 4294967295
-0.16995943 0.063707486 0.3936376 4294967295
-0.17145373 0.064400166 0.39113018 4294967295
-0.17294805 0.065092847 0.38862276 4294967295
-0.17444237 0.065785527 0.38611531 4294967295
-0.17593668 0.066478208 0.38360789 4294967295
-0.177431 0.067170888 0.38110048 4294967295
-0.17892531 0.067863569 0.37859303 4294967295
-0.18041962 0.068556249 0.37608561 4294967295
-0.18191396 0.069248937 0.37357816 4294967295
-0.18340828 0.069941618 0.37107074 4294967295
-0.18490258 0.070634298 0.36856329 4294967295
-0.1863969 0.071326979 0.36605588 4294967295
-0.18789122 0.072019659 0.36354846 4294967295
-0.18938553 0.072712339 0.36104101 4294967295
-0.19087985 0.073405027 0.35853356 4294967295
-0.19237417 0.074097708 0.35602617 4294967295
-0.19386849 0.074790388 0.35351872 4294967295
-0.19536281 0.075483069 0.35101128 4294967295
-0.19685712 0.076175749 0.34850386 4294967295
-0.19835144 0.07686843 0.34599644 4294967295
-0.19984576 0.07756111 0.34348899 4294967295
-0.20134008 0.078253791 0.34098154 4294967295
-0.2028344 0.078946471 0.33847415 4294967295
-0.20432872 0.079639152 0.33596671 4294967295
-0.20582303 0.080331832 0.33345926 4294967295
-0.20731735 0.081024513 0.33095187 4294967295
-0.20881167 0.081717208 0.32844442 4294967295
-0.21030599 0.082409889 0.32593697 4294967295
-0.21180031 0.083102569 0.32342955 4294967295
-0.21329463 0.083795249 0.32092214 4294967295
-0.21478894 0.08448793 0.31841469 4294967295
-0.21628325 0.08518061 0.31590727 4294967295
-0.21777757 0.085873291 0.31339985 4294967295
-0.2192719 0.086565971 0.3108924 4294967295
-0.22076622 0.087258652 0.30838495 4294967295
-0.22226052 0.087951332 0.30587754 4294967295
-0.22375484 0.088644013 0.30337012 4294967295
-0.22524916 0.089336693 0.30086267 4294967295
-0.22674347 0.090029374 0.29835525 4294967295
-0.22823779 0.090722062 0.2958478 4294967295
-0.22973211 0.091414742 0.29334038 4294967295
-0.23122643 0.092107423 0.29083294 4294967295
-0.23272075 0.092800111 0.28832552 4294967295
-0.23421507 0.093492791 0.2858181 4294967295
-0.23570937 0.094185472 0.28331065 4294967295
-0.2372037 0.094878152 0.2808032 4294967295
-0.23869802 0.095570832 0.27829579 4294967295
-0.24019232 0.096263513 0.27578837 4294967295
-0.24168664 0.096956193 0.27328092 4294967295
-0.24318096 0.097648874 0.2707735 4294967295
-0.24467528 0.098341554 0.26826608 4294967295
-0.2461696 0.099034242 0.26575863 4294967295
-0.24766392 0.099726923 0.26325119 4294967295
-0.24915823 0.1004196 0.2607438 4294967295
-0.25065255 0.10111228 0.25823635 4294967295
