# .PCD v0.7 - Point Cloud Data file format
VERSION 0.7
FIELDS x y z rgb
SIZE 4 4 4 4
TYPE F F F U
COUNT 1 1 1 1
WIDTH 1018
HEIGHT 1
VIEWPOINT 0 0 0 1 0 0 0
POINTS 1018
DATA ascii
0.062229685 -0.057985157 0.45500001 4286224261
0.063847549 -0.058112599 0.45600003 4284317545
0.065328635 -0.058112599 0.45600003 4282411343
0.066956237 -0.058240037 0.45700002 4280770370
0.068440571 -0.058240037 0.45700002 4280573504
0.06061833 -0.056382626 0.45400003 4283662184
0.062229685 -0.056506816 0.45500001 4282215249
0.06370753 -0.056506816 0.45500001 4280639549
0.065185368 -0.056506816 0.45500001 4280508731
0.066809729 -0.05663101 0.45600003 4279787059
0.068290815 -0.05663101 0.45600003 4279260461
0.069924913 -0.056755196 0.45700002 4280047928
0.056070771 -0.054786589 0.45300001 4286093191
0.057542115 -0.054786589 0.45300001 4283464553
0.05901346 -0.054786589 0.45300001 4281492046
0.060484808 -0.054786589 0.45300001 4280180797
0.062092919 -0.054907534 0.45400003 4279852600
0.063567512 -0.054907534 0.45400003 4279787059
0.065185368 -0.055028476 0.45500001 4279392301
0.066663213 -0.055028476 0.45500001 4279393584
0.068290815 -0.055149417 0.45600003 4279393582
0.069924913 -0.055270359 0.45700002 4280178485
0.051428676 -0.053079367 0.45100003 4285764480
0.052893527 -0.053079367 0.45100003 4286027650
0.054358374 -0.053079367 0.45100003 4283726180
0.055946995 -0.053197056 0.45200002 4281491528
0.057415091 -0.053197056 0.45200002 4280443199
0.05888319 -0.053197056 0.45200002 4279852084
0.06035129 -0.053197056 0.45200002 4279590191
0.061956149 -0.053314749 0.45300001 4279393582
0.063427493 -0.053314749 0.45300001 4279327787
0.065042108 -0.053432442 0.45400003 4278998822
0.066663213 -0.053550132 0.45500001 4279195431
0.068141051 -0.053550132 0.45500001 4279260713
0.069771901 -0.053667828 0.45600003 4279913262
0.049631473 -0.051270686 0.44800001 4285632894
0.051314641 -0.051499572 0.45000002 4283923557
0.052776244 -0.051499572 0.45000002 4281819208
0.054237843 -0.051499572 0.45000002 4279849006
0.055823222 -0.051614016 0.45100003 4280246074
0.057288069 -0.051614016 0.45100003 4279458607
0.05875292 -0.051614016 0.45100003 4279458605
0.060217768 -0.051614016 0.45100003 4279064615
0.061819382 -0.051728461 0.45200002 4278999076
0.063287482 -0.051728461 0.45200002 4279261478
0.064898841 -0.051842902 0.45300001 4279129379
0.066370189 -0.051842902 0.45300001 4279127841
0.067991294 -0.051957346 0.45400003 4280245041
0.069771901 -0.052186236 0.45600003 4280569659
0.047961291 -0.049592696 0.44600001 4285370233
0.04952069 -0.049703892 0.44700003 4281950792
0.051086575 -0.049815089 0.44800001 4280310071
0.052541681 -0.049815089 0.44800001 4279917109
0.054117315 -0.049926285 0.44900003 4279720752
0.055575669 -0.049926285 0.44900003 4279261226
0.057034019 -0.049926285 0.44900003 4279063847
0.058622643 -0.050037477 0.45000002 4279195431
0.060084246 -0.050037477 0.45000002 4279063845
0.061545841 -0.050037477 0.45000002 4279195433
0.063147463 -0.050148673 0.45100003 4279260201
0.064755581 -0.050259866 0.45200002 4278666011
0.066223674 -0.050259866 0.45200002 4279125795
0.06784153 -0.050371058 0.45300001 4280506934
0.046199817 -0.047819763 0.44300002 4283134043
0.047746222 -0.047927711 0.44400004 4280835901
0.049299117 -0.048035655 0.44500002 4280246326
0.050858509 -0.048143599 0.44600001 4279723060
0.052307121 -0.048143599 0.44600001 4279328302
0.053876258 -0.048251547 0.44700003 4279130921
0.055328112 -0.048251547 0.44700003 4278933542
0.056906991 -0.048359491 0.44800001 4279064615
0.0583621 -0.048359491 0.44800001 4279129638
0.059950728 -0.048467435 0.44900003 4279062818
0.061409075 -0.048467435 0.44900003 4278337046
0.063007444 -0.048575379 0.45000002 4278796316
0.064469047 -0.048575379 0.45000002 4280638520
0.066077165 -0.048683327 0.45100003 4280308785
0.067691766 -0.048791271 0.45200002 4280176688
0.043126505 -0.046171017 0.44100001 4284713588
0.044558875 -0.046171017 0.44100001 4281362245
0.046095531 -0.046275716 0.44200003 4280311352
0.047638681 -0.046380412 0.44300002 4279459375
0.049077548 -0.046380412 0.44300002 4279262507
0.050630447 -0.046485111 0.44400004 4278736933
0.052189842 -0.046589803 0.44500002 4278736933
0.053635199 -0.046589803 0.44500002 4278802726
0.055204336 -0.046694499 0.44600001 4278867749
0.056652941 -0.046694499 0.44600001 4278866466
0.058231827 -0.046799198 0.44700003 4279325990
0.059817206 -0.046903893 0.44800001 4278203148
0.061272305 -0.046903893 0.44800001 4279914281
0.062867433 -0.047008589 0.44900003 4279652139
0.064325787 -0.047008589 0.44900003 4278862625
0.06593065 -0.047113284 0.45000002 4280375348
0.067542009 -0.047217984 0.45100003 4281097536
0.041315958 -0.044332378 0.43700001 4282215251
0.042930916 -0.044535272 0.43900001 4281230659
0.044356793 -0.044535272 0.43900001 4280115510
0.045886952 -0.044636719 0.44000003 4279525170
0.047423609 -0.044738166 0.44100001 4279000105
0.048855979 -0.044738166 0.44100001 4278934312
0.050402381 -0.044839613 0.44200003 4278736933
0.051955279 -0.04494106 0.44300002 4278868519
0.053514674 -0.045042507 0.44400004 4278735650
0.054956786 -0.045042507 0.44400004 4278865953
0.05652592 -0.045143954 0.44500002 4278600218
0.058101553 -0.045245402 0.44600001 4278797084
0.059683688 -0.045346849 0.44700003 4279257121
0.061135538 -0.045346849 0.44700003 4278993695
0.062727414 -0.045448296 0.44800001 4279848752
0.06418252 -0.045448296 0.44800001 4278927650
0.065784141 -0.045549743 0.44900003 4280505914
0.0027393911 -0.039279193 0.40000001 4283591773
0.0079560345 -0.039377391 0.40100002 4283919705
0.039805282 -0.042814322 0.43600002 4281230405
0.041221414 -0.042814322 0.43600002 4280246842
0.042735331 -0.04291252 0.43700001 4279721266
0.044154711 -0.04291252 0.43700001 4279459375
0.045678377 -0.043010719 0.43800002 4279065128
0.047208536 -0.043108914 0.43900001 4278473245
0.04863441 -0.043108914 0.43900001 4278933796
0.050174315 -0.043207116 0.44000003 4278801958
0.051720716 -0.043305311 0.44100001 4278998824
0.053273614 -0.04340351 0.44200003 4279456808
0.054833006 -0.043501709 0.44300002 4278402072
0.056398895 -0.043599907 0.44400004 4279717672
0.057971284 -0.043698102 0.44500002 4279125535
0.059550162 -0.043796301 0.44600001 4278862363
0.060998768 -0.043796301 0.44600001 4278927386
0.062587395 -0.0438945 0.44700003 4279781928
0.06418252 -0.043992698 0.44800001 4280308787
0.065784141 -0.044090897 0.44900003 4281687110
0.00014028497 -0.037789658 0.39800003 4282474060
0.0027393911 -0.037979554 0.40000001 4282539085
0.0040385919 -0.037979554 0.40000001 4283328601
0.039713986 -0.041302767 0.43500003 4279721779
0.041032325 -0.041207816 0.43400002 4279393582
0.042441957 -0.041207816 0.43400002 4278802726
0.043952633 -0.041302767 0.43500003 4278276636
0.045469798 -0.041397713 0.43600002 4278737187
0.046885926 -0.041397713 0.43600002 4278473245
0.048412841 -0.04149266 0.43700001 4278670111
0.049946252 -0.041587614 0.43800002 4278997027
0.051486157 -0.04168256 0.43900001 4278272534
0.053032558 -0.04177751 0.44000003 4279388707
0.054585453 -0.041872457 0.44100001 4279125535
0.056144848 -0.041967407 0.44200003 4278730007
0.05784101 -0.042157307 0.44400004 4278202893
0.059416644 -0.042252254 0.44500002 4279651109
0.060998768 -0.0423472 0.44600001 4278269456
0.062587395 -0.04244215 0.44700003 4280637239
0.064039253 -0.04244215 0.44700003 4280833083
-0.0024328374 -0.036313117 0.39600003 4283656020
0.0027393911 -0.036679912 0.40000001 4280828208
0.0040486883 -0.036771614 0.40100002 4280761391
0.009281572 -0.036863312 0.40200001 4280826671
0.010587269 -0.036863312 0.40200001 4280366374
0.011892965 -0.036863312 0.40200001 4280827436
0.039713986 -0.039889406 0.43500003 4279394095
0.040748693 -0.039522607 0.43100002 4279131175
0.042246372 -0.039614305 0.43200001 4278999589
0.04364951 -0.039614305 0.43200001 4278999589
0.045156933 -0.039706007 0.43300003 4278670109
0.046670854 -0.039797705 0.43400002 4278603033
0.048191275 -0.039889406 0.43500003 4279127841
0.049718186 -0.039981104 0.43600002 4278797595
0.051251594 -0.040072802 0.43700001 4279718184
0.052912027 -0.040256202 0.43900001 4278928156
0.054461677 -0.040347904 0.44000003 4278993179
0.05601782 -0.040439606 0.44100001 4279125535
0.057580467 -0.040531304 0.44200003 4279388707
0.059283126 -0.040714704 0.44400004 4278202893
0.060862001 -0.040806405 0.44500002 4280110123
0.00014028497 -0.035203371 0.39800003 4281353782
0.0014365901 -0.035291821 0.39900002 4281222196
0.0027393911 -0.03538027 0.40000001 4280959024
0.0040486883 -0.035468724 0.40100002 4280497706
0.0053511374 -0.035468724 0.40100002 4281287222
0.0079758754 -0.035557173 0.40200001 4280892716
0.009281572 -0.035557173 0.40200001 4280628522
0.010613605 -0.035645626 0.40300003 4279971362
0.01192255 -0.035645626 0.40300003 4280432167
0.013231495 -0.035645626 0.40300003 4280300579
0.014540439 -0.035645626 0.40300003 4281024302
0.015849384 -0.035645626 0.40300003 4280695850
0.017200904 -0.035734076 0.40400001 4280762924
0.019825291 -0.035734076 0.40400001 4279194668
0.021137482 -0.035734076 0.40400001 4278997802
0.022449676 -0.035734076 0.40400001 4279983934
0.023761868 -0.035734076 0.40400001 4281101901
0.025136126 -0.035822526 0.40500003 4284847737
0.026451567 -0.035822526 0.40500003 4286358925
0.027767008 -0.035822526 0.40500003 4286292618
0.029154256 -0.035910975 0.40600002 4284911479
0.030472944 -0.035910975 0.40600002 4281164614
0.031869937 -0.035999425 0.40700001 4279785269
0.033191875 -0.035999425 0.40700001 4279787570
0.040559601 -0.037945341 0.42900002 4278606115
0.041952994 -0.037945341 0.42900002 4278408736
0.043447427 -0.038033791 0.43000001 4278472732
0.044948358 -0.038122244 0.43100002 4278603548
0.046455778 -0.038210694 0.43200001 4278991383
0.048080489 -0.038387597 0.43400002 4278200583
0.049604155 -0.038476046 0.43500003 4279979820
0.051134314 -0.038564496 0.43600002 4278333714
0.052670971 -0.038652945 0.43700001 4279321631
0.0543379 -0.038829848 0.43900001 4279453217
0.055890799 -0.038918301 0.44000003 4278532628
0.05745019 -0.039006751 0.44100001 4279651109
0.059149604 -0.03918365 0.44300002 4279780395
-0.0024266939 -0.033654623 0.39500001 4281483819
-0.0011495242 -0.033825029 0.39700001 4281286704
0.00014028497 -0.03391023 0.39800003 4281484083
0.0014365901 -0.033995431 0.39900002 4281418290
0.0027393911 -0.034080632 0.40000001 4281023534
0.0040486883 -0.034165833 0.40100002 4280958511
0.0079957154 -0.034336239 0.40300003 4280037407
0.0093046604 -0.034336239 0.40300003 4280825639
0.010613605 -0.034336239 0.40300003 4280365088
0.011952134 -0.034421436 0.40400001 4280299297
0.013264327 -0.034421436 0.40400001 4280694053
0.014576519 -0.034421436 0.40400001 4281089063
0.015888711 -0.034421436 0.40400001 4281549614
0.017200904 -0.034421436 0.40400001 4281550128
0.018513098 -0.034421436 0.40400001 4281090858
0.019825291 -0.034421436 0.40400001 4279192353
0.021137482 -0.034421436 0.40400001 4278866468
0.022449676 -0.034421436 0.40400001 4278868521
0.023820685 -0.034506641 0.40500003 4279329074
0.025136126 -0.034506641 0.40500003 4279788088
0.026451567 -0.034506641 0.40500003 4279393332
0.027835568 -0.034591842 0.40600002 4279984186
0.029154256 -0.034591842 0.40600002 4279654705
0.030547999 -0.034677044 0.40700001 4279458605
0.031869937 -0.034677044 0.40700001 4279394095
0.033273429 -0.034762245 0.40800002 4278803240
0.038618427 -0.036040269 0.42300001 4278277663
0.040275969 -0.036295872 0.42600003 4278473245
0.041757409 -0.036381073 0.42700002 4278275353
0.043245349 -0.036466278 0.42800003 4278928668
0.044844069 -0.036636677 0.43000001 4278201610
0.046348244 -0.036721881 0.43100002 4278789134
0.04785892 -0.036807083 0.43200001 4279250969
0.049376089 -0.036892284 0.43300003 4278199563
0.051017039 -0.03706269 0.43500003 4279254051
0.052550443 -0.037147891 0.43600002 4279452195
0.054090347 -0.037233088 0.43700001 4278201614
0.05576377 -0.037403494 0.43900001 4280045102
0.05745019 -0.037573896 0.44100001 4279452711
-0.0049546966 -0.032125372 0.39200002 4283918674
-0.0024266939 -0.032371227 0.39500001 4283063883
0.0014365901 -0.032699037 0.39900002 4281090608
0.0027393911 -0.03278099 0.40000001 4281155888
0.0040486883 -0.032862943 0.40100002 4280826925
0.0080155563 -0.033108801 0.40400001 4280759846
0.0093277488 -0.033108801 0.40400001 4280562467
0.010639941 -0.033108801 0.40400001 4280299297
0.011952134 -0.033108801 0.40400001 4280299297
0.01329716 -0.033190753 0.40500003 4280496672
0.0146126 -0.033190753 0.40500003 4282207542
0.015928041 -0.033190753 0.40500003 4283194437
0.017243482 -0.033190753 0.40500003 4282733627
0.018558923 -0.033190753 0.40500003 4282536761
0.019874364 -0.033190753 0.40500003 4278990609
0.021189803 -0.033190753 0.40500003 4278666777
0.022505244 -0.033190753 0.40500003 4278537755
0.023820685 -0.033190753 0.40500003 4278867490
0.025136126 -0.033190753 0.40500003 4279525681
0.026516879 -0.033272706 0.40600002 4283275882
0.027835568 -0.033272706 0.40600002 4282089812
0.029226065 -0.033354659 0.40700001 4279787570
0.030623058 -0.033436611 0.40800002 4279263277
0.031948242 -0.033436611 0.40800002 4279329584
0.033354979 -0.033518564 0.40900001 4278210845
0.03706843 -0.034501996 0.42100003 4278210073
0.038527131 -0.034583945 0.42200002 4278209046
0.040181424 -0.034829803 0.42500001 4279127841
0.041659616 -0.034911755 0.42600003 4278201861
0.043144308 -0.034993708 0.42700002 4278263304
0.044739779 -0.035157613 0.42900002 4279118099
0.046240706 -0.035239566 0.43000001 4279513373
0.047748134 -0.035321519 0.43100002 4280764721
0.049262054 -0.035403471 0.43200001 4278200077
0.050899755 -0.035567377 0.43400002 4279121693
0.052429914 -0.035649329 0.43500003 4279650344
0.053966571 -0.035731282 0.43600002 4279650857
0.055636749 -0.035895187 0.43800002 4281490243
-0.0062120259 -0.030773019 0.39100003 4284774501
-0.0049546966 -0.030851722 0.39200002 4281484851
-0.0011437332 -0.031087831 0.39500001 4281353780
0.0014329897 -0.031323943 0.39800003 4281288759
0.0080155563 -0.031796161 0.40400001 4280826151
0.0093508381 -0.031874865 0.40500003 4280497188
0.010666278 -0.031874865 0.40500003 4280562981
0.011981719 -0.031874865 0.40500003 4280891944
0.013329992 -0.03195357 0.40600002 4281746991
0.01464868 -0.03195357 0.40600002 4282470455
0.015967369 -0.03195357 0.40600002 4282733625
0.017286059 -0.03195357 0.40600002 4282931004
0.018558923 -0.031874865 0.40500003 4282931517
0.019874364 -0.031874865 0.40500003 4279712535
0.021189803 -0.031874865 0.40500003 4278795537
0.022505244 -0.031874865 0.40500003 4278469652
0.023879502 -0.03195357 0.40600002 4278470165
0.025198191 -0.03195357 0.40600002 4278209303
0.026582189 -0.03203227 0.40700001 4279262761
0.027904129 -0.03203227 0.40700001 4278671394
0.029297873 -0.032110974 0.40800002 4278737960
0.030698113 -0.032189678 0.40900001 4278935339
0.032026548 -0.032189678 0.40900001 4278277409
0.033436533 -0.032268383 0.41000003 4278342175
0.035446618 -0.032898009 0.41800001 4278539038
0.036980379 -0.033055414 0.42000002 4279129379
0.038527131 -0.033212822 0.42200002 4278205969
0.04008688 -0.03337023 0.42400002 4279254301
0.041561823 -0.033448931 0.42500001 4278461453
0.043043267 -0.033527635 0.42600003 4279381273
0.044635493 -0.033685043 0.42800003 4279381787
0.046133172 -0.033763744 0.42900002 4279777313
0.047637347 -0.033842448 0.43000001 4280633905
0.049262054 -0.033999857 0.43200001 4278924568
0.050782476 -0.034078561 0.43300003 4279386148
0.052429914 -0.034235965 0.43500003 4279650092
0.053966571 -0.03431467 0.43600002 4282937689
-0.0074437237 -0.029351711 0.38900003 4283392848
-0.0049420572 -0.029502621 0.39100003 4283524949
-0.0036814802 -0.029578073 0.39200002 4284708971
-0.0024082633 -0.029578073 0.39200002 4283195984
0.0027462398 -0.030257162 0.40100002 4283328342
0.0067199557 -0.030558979 0.40500003 4281287985
0.0080353972 -0.030558979 0.40500003 4280761128
0.0093739256 -0.030634433 0.40600002 4280957737
0.010692614 -0.030634433 0.40600002 4280891944
0.012011304 -0.030634433 0.40600002 4280957737
0.013329992 -0.030634433 0.40600002 4281418026
0.01464868 -0.030634433 0.40600002 4283061820
0.015967369 -0.030634433 0.40600002 4283061820
0.017286059 -0.030634433 0.40600002 4282931002
0.018604746 -0.030634433 0.40600002 4283260996
0.021242123 -0.030634433 0.40600002 4279254553
0.022560813 -0.030634433 0.40600002 4278862613
0.023938317 -0.030709887 0.40700001 4278535445
0.025260255 -0.030709887 0.40700001 4278865439
0.026647503 -0.030785341 0.40800002 4279062818
0.027972691 -0.030785341 0.40800002 4278735134
0.02936968 -0.030860795 0.40900001 4278473245
0.03077317 -0.03093625 0.41000003 4278606115
0.032183155 -0.031011704 0.41100001 4279197738
0.033599637 -0.03108716 0.41200003 4278800927
0.035446618 -0.031539883 0.41800001 4278932000
0.036980379 -0.031690791 0.42000002 4279192351
0.038435835 -0.031766247 0.42100003 4278201859
0.039992332 -0.031917155 0.42300001 4278200329
0.041464031 -0.031992611 0.42400002 4278527759
0.043043267 -0.032143518 0.42600003 4279184408
0.044531204 -0.032218974 0.42700002 4278920722
0.046025638 -0.032294426 0.42800003 4278593554
0.047637347 -0.032445334 0.43000001 4279516451
0.049148023 -0.03252079 0.43100002 4279650603
0.050665192 -0.032596242 0.43200001 4279123746
0.0053911707 -0.029170888 0.40400001 4281026614
0.0067199557 -0.029243093 0.40500003 4281223479
0.0080552371 -0.029315298 0.40600002 4281025585
0.0093739256 -0.029315298 0.40600002 4282208058
0.010692614 -0.029315298 0.40600002 4282076472
0.012040887 -0.029387502 0.40700001 4282537023
0.013362825 -0.029387502 0.40700001 4282603068
0.01468476 -0.029387502 0.40700001 4282537273
0.016006697 -0.029387502 0.40700001 4283326275
0.017328633 -0.029387502 0.40700001 4283457861
0.018650571 -0.029387502 0.40700001 4282340666
0.019972509 -0.029387502 0.40700001 4279450648
0.021294443 -0.029387502 0.40700001 4279123480
0.022616381 -0.029387502 0.40700001 4278928152
0.023938317 -0.029387502 0.40700001 4278666007
0.02532232 -0.029459707 0.40800002 4278996255
0.026712814 -0.029531913 0.40900001 4279194404
0.028041249 -0.029531913 0.40900001 4278866466
0.029441491 -0.029604118 0.41000003 4279063845
0.030848226 -0.029676324 0.41100001 4278670111
0.032261461 -0.029748529 0.41200003 4278999076
0.033762742 -0.02989294 0.41400003 4278866207
0.035361819 -0.030109555 0.41700003 4278734621
0.036892332 -0.030253965 0.41900003 4279783463
0.038435835 -0.030398376 0.42100003 4280570415
0.039897792 -0.03047058 0.42200002 4279121431
0.041464031 -0.030614991 0.42400002 4278988051
0.042942226 -0.030687196 0.42500001 4279052308
0.044531204 -0.030831605 0.42700002 4279118615
0.046025638 -0.030903812 0.42800003 4279584549
0.047526564 -0.030976016 0.42900002 4279388453
0.049033988 -0.031048222 0.43000001 4280965182
-0.0074245878 -0.026754953 0.38800001 4283065431
-0.0049167783 -0.02682391 0.38900003 4286812299
-0.0036533056 -0.02682391 0.38900003 4284776299
0.002753088 -0.027720338 0.40200001 4280433709
0.0054045157 -0.027927207 0.40500003 4280697131
0.0067365482 -0.027996162 0.40600002 4281091891
0.0080552371 -0.027996162 0.40600002 4281287985
0.009397014 -0.028065117 0.40700001 4282273851
0.01071895 -0.028065117 0.40700001 4281879093
0.012040887 -0.028065117 0.40700001 4282866240
0.013362825 -0.028065117 0.40700001 4282603068
0.014720841 -0.028134074 0.40800002 4282866240
0.016046027 -0.028134074 0.40800002 4282800445
0.017371211 -0.028134074 0.40800002 4283590729
0.018696396 -0.028134074 0.40800002 4280960805
0.021346765 -0.028134074 0.40800002 4279058457
0.022671949 -0.028134074 0.40800002 4279124761
0.023997135 -0.028134074 0.40800002 4278863127
0.025384383 -0.028203029 0.40900001 4278930462
0.026778128 -0.028271988 0.41000003 4278997025
0.028109811 -0.028271988 0.41000003 4279129127
0.029513298 -0.028340943 0.41100001 4279063845
0.030923283 -0.0284099 0.41200003 4278866720
0.032418072 -0.028547812 0.41400003 4279524650
0.033844296 -0.028616767 0.41500002 4278932000
0.035361819 -0.028754679 0.41700003 4279194658
0.036892332 -0.028892592 0.41900003 4278270736
0.03834454 -0.028961547 0.42000002 4279585314
0.039897792 -0.029099459 0.42200002 4278921234
0.041366238 -0.029168414 0.42300001 4278788623
0.042942226 -0.029306328 0.42500001 4280107561
0.044531204 -0.02944424 0.42700002 4279781160
0.046025638 -0.029513197 0.42800003 4279585064
0.047526564 -0.029582152 0.42900002 4284056940
-0.0099450368 -0.025494302 0.38800001 4281025846
-0.008684813 -0.025494302 0.38800001 4279116568
-0.0061643627 -0.025494302 0.38800001 4284512875
0.0067365482 -0.026677027 0.40600002 4281090860
0.0080552371 -0.026677027 0.40600002 4281682484
0.009397014 -0.026742734 0.40700001 4282273851
0.01071895 -0.026742734 0.40700001 4282800193
0.012040887 -0.026742734 0.40700001 4282931519
0.013395658 -0.026808441 0.40800002 4282865726
0.014720841 -0.026808441 0.40800002 4282931519
0.016046027 -0.026808441 0.40800002 4283128896
0.017371211 -0.026808441 0.40800002 4283064385
0.018696396 -0.026808441 0.40800002 4279513875
0.020021582 -0.026808441 0.40800002 4279254553
0.021399084 -0.026874147 0.40900001 4279190043
0.022727517 -0.026874147 0.40900001 4279322910
0.02405595 -0.026874147 0.40900001 4278929179
0.025446448 -0.026939856 0.41000003 4279193634
0.02684344 -0.027005563 0.41100001 4278470681
0.028178371 -0.027005563 0.41100001 4279063845
0.029585108 -0.027071269 0.41200003 4279524396
0.03099834 -0.027136976 0.41300002 4278866207
0.032418072 -0.027202684 0.41400003 4279523883
0.033925846 -0.027334096 0.41600001 4278997025
0.035361819 -0.027399804 0.41700003 4278997025
0.036892332 -0.027531218 0.41900003 4278201346
0.03834454 -0.027596924 0.42000002 4278532113
0.039803248 -0.027662633 0.42100003 4278988051
0.041366238 -0.027794044 0.42300001 4280437293
0.042841185 -0.027859753 0.42400002 4279584551
-0.011205262 -0.02423365 0.38800001 4281221944
0.0040890742 -0.025295435 0.40500003 4283391537
0.0054045157 -0.025295435 0.40500003 4282076199
0.0067365482 -0.025357893 0.40600002 4281287208
0.0080552371 -0.025357893 0.40600002 4282537021
0.009397014 -0.025420349 0.40700001 4282734400
0.01071895 -0.025420349 0.40700001 4282602300
0.012070472 -0.025482807 0.40800002 4282668347
0.013395658 -0.025482807 0.40800002 4282470455
0.014720841 -0.025482807 0.40800002 4283194691
0.016046027 -0.025482807 0.40800002 4283128896
0.017413788 -0.025545266 0.40900001 4283064898
0.01874222 -0.025545266 0.40900001 4280040989
0.020070653 -0.025545266 0.40900001 4279255064
0.021399084 -0.025545266 0.40900001 4279124248
0.022783088 -0.025607724 0.41000003 4278993945
0.024114769 -0.025607724 0.41000003 4279191838
0.025508514 -0.025670182 0.41100001 4279260451
0.02684344 -0.025670182 0.41100001 4278997279
0.028246932 -0.02573264 0.41200003 4279589930
0.029656915 -0.025795097 0.41300002 4279260965
0.031073397 -0.025857557 0.41400003 4279326244
0.032496374 -0.025920013 0.41500002 4279326244
0.033925846 -0.025982469 0.41600001 4278997025
0.035361819 -0.026044929 0.41700003 4279456806
0.036892332 -0.026169846 0.41900003 4279256097
0.03834454 -0.026232302 0.42000002 4279848234
0.039803248 -0.02629476 0.42100003 4279914279
0.041268446 -0.026357219 0.42200002 4280636721
-0.0074245878 -0.022972999 0.38800001 4283328088
-0.0061484752 -0.022913791 0.38700002 4279379477
-0.0048914989 -0.022913791 0.38700002 4283065166
-0.0036345224 -0.022913791 0.38700002 4284580204
-0.0011234644 -0.022972999 0.38800001 4284381803
0.00013676021 -0.022972999 0.38800001 4282273601
0.0013969848 -0.022972999 0.38800001 4282665513
0.0040890742 -0.023979548 0.40500003 4282007579
0.0054045157 -0.023979548 0.40500003 4281876767
0.0067199557 -0.023979548 0.40500003 4281484071
0.0080552371 -0.024038756 0.40600002 4282734400
0.0093739256 -0.024038756 0.40600002 4283392330
0.01071895 -0.024097964 0.40700001 4282932033
0.012040887 -0.024097964 0.40700001 4282602554
0.013395658 -0.024157174 0.40800002 4283194178
0.014720841 -0.024157174 0.40800002 4282734140
0.016085355 -0.024216382 0.40900001 4282997310
0.017413788 -0.024216382 0.40900001 4281551659
0.018788045 -0.024275592 0.41000003 4279975196
0.020119727 -0.024275592 0.41000003 4279320861
0.021451406 -0.024275592 0.41000003 4279190043
0.022838654 -0.024334799 0.41100001 4278993947
0.024173584 -0.024334799 0.41100001 4279258146
0.025508514 -0.024334799 0.41100001 4279391267
0.026908753 -0.024394009 0.41200003 4279326244
0.028315492 -0.024453219 0.41300002 4279392551
0.029728726 -0.024512429 0.41400003 4279260965
0.031073397 -0.024512429 0.41400003 4279851816
0.032496374 -0.024571637 0.41500002 4279917609
0.033925846 -0.024630845 0.41600001 4279062048
0.035361819 -0.024690054 0.41700003 4279127330
0.036804281 -0.024749262 0.41800001 4279520039
0.038253244 -0.024808472 0.41900003 4279520039
0.0397087 -0.02486768 0.42000002 4282345802
-0.0099450368 -0.021712348 0.38800001 4279181076
-0.0011234644 -0.021712348 0.38800001 4283721815
0.00013676021 -0.021712348 0.38800001 4281021987
0.0013969848 -0.021712348 0.38800001 4283455022
0.002664058 -0.021768307 0.38900003 4283652401
0.0040688813 -0.022551743 0.40300003 4282139167
0.0053778263 -0.022551743 0.40300003 4282139169
0.0067033628 -0.022607703 0.40400001 4281155106
0.0080353972 -0.022663662 0.40500003 4280694305
0.0093508381 -0.022663662 0.40500003 4282733888
0.010692614 -0.022719622 0.40600002 4282668093
0.012040887 -0.022775581 0.40700001 4282931779
0.013395658 -0.022831541 0.40800002 4282405435
0.014756921 -0.0228875 0.40900001 4282603068
0.016085355 -0.0228875 0.40900001 4282734654
0.017456364 -0.022943461 0.41000003 4279513363
0.018788045 -0.022943461 0.41000003 4279778332
0.020119727 -0.022943461 0.41000003 4279189273
0.021503726 -0.022999419 0.41100001 4279058457
0.022838654 -0.022999419 0.41100001 4278928668
0.024232401 -0.02305538 0.41200003 4279258916
0.025570579 -0.02305538 0.41200003 4278668576
0.026974065 -0.02311134 0.41300002 4279129127
0.028315492 -0.02311134 0.41300002 4279523883
0.029728726 -0.023167299 0.41400003 4279129379
0.031148452 -0.023223259 0.41500002 4279721000
0.03257468 -0.023279218 0.41600001 4279391265
0.033925846 -0.023279218 0.41600001 4279127328
0.035361819 -0.023335177 0.41700003 4279323939
0.036804281 -0.023391137 0.41800001 4280965432
0.038253244 -0.023447098 0.41900003 4283859041
-0.0061643627 -0.020451695 0.38800001 4283129676
-0.0011234644 -0.020451695 0.38800001 4284971882
0.00013676021 -0.020451695 0.38800001 4281219616
0.0014005854 -0.020504406 0.38900003 4282599720
0.002664058 -0.020504406 0.38900003 4282533668
0.0040688813 -0.021242354 0.40300003 4282402087
0.0053511374 -0.021136932 0.40100002 4281876263
0.0066701779 -0.021189643 0.40200001 4287868055
0.0079957154 -0.021242354 0.40300003 4285367923
0.010692614 -0.021400485 0.40600002 4281549878
0.012040887 -0.021453194 0.40700001 4281747253
0.013395658 -0.021505907 0.40800002 4282010679
0.014756921 -0.021558616 0.40900001 4282734654
0.016085355 -0.021558616 0.40900001 4282867008
0.017456364 -0.021611327 0.41000003 4279844125
0.018788045 -0.021611327 0.41000003 4279451934
0.020168798 -0.021664038 0.41100001 4279190045
0.021503726 -0.021664038 0.41100001 4279124765
0.022894224 -0.021716749 0.41200003 4278928668
0.024232401 -0.021716749 0.41200003 4279390502
0.025632642 -0.021769458 0.41300002 4278668576
0.026974065 -0.021769458 0.41300002 4279392299
0.028384054 -0.021822169 0.41400003 4279326506
0.029728726 -0.021822169 0.41400003 4279063334
0.031148452 -0.02187488 0.41500002 4279983920
0.03257468 -0.02192759 0.41600001 4279061535
0.033925846 -0.02192759 0.41600001 4280638004
0.035361819 -0.021980301 0.41700003 4281754950
0.036804281 -0.022033012 0.41800001 4286226314
0.038253244 -0.022085723 0.41900003 4286027911
-0.0099962996 -0.019289967 0.39000002 4278853646
-0.0061643627 -0.019191043 0.38800001 4283261516
0.0014005854 -0.019240506 0.38900003 4283126060
0.0026709065 -0.019289967 0.39000002 4282994474
0.0053377929 -0.019784581 0.40000001 4287339912
0.0066535855 -0.019834043 0.40100002 4286817166
0.0079758754 -0.019883504 0.40200001 4286882959
0.0093046604 -0.019932967 0.40300003 4286751373
0.010666278 -0.020031888 0.40500003 4287343510
0.012011304 -0.020081351 0.40600002 4282603332
0.013395658 -0.020180274 0.40800002 4282076218
0.014720841 -0.020180274 0.40800002 4280761380
0.016085355 -0.020229734 0.40900001 4279644182
0.017456364 -0.020279195 0.41000003 4279648029
0.01883387 -0.020328658 0.41100001 4279254555
0.020168798 -0.020328658 0.41100001 4279190043
0.021556048 -0.020378118 0.41200003 4279190556
0.022894224 -0.020378118 0.41200003 4279389732
0.024232401 -0.020378118 0.41200003 4279391015
0.025632642 -0.020427579 0.41300002 4279062820
0.026974065 -0.020427579 0.41300002 4279523885
0.028384054 -0.020477042 0.41400003 4279392299
0.029728726 -0.020477042 0.41400003 4279326504
0.031148452 -0.020526502 0.41500002 4280837176
0.03257468 -0.020575963 0.41600001 4280902456
0.033925846 -0.020575963 0.41600001 4283989602
0.035361819 -0.020625426 0.41700003 4285962372
0.036804281 -0.020674886 0.41800001 4286291337
-0.0023836892 -0.017930392 0.38800001 4285103979
-0.0011234644 -0.017930392 0.38800001 4282076988
0.0014041858 -0.018022817 0.39000002 4284509770
0.0026709065 -0.018022817 0.39000002 4285364827
0.005311104 -0.018392516 0.39800003 4287540121
0.0066204006 -0.018438729 0.39900002 4286751888
0.0079361936 -0.018484941 0.40000001 4287080340
0.009281572 -0.018577365 0.40200001 4286817168
0.010666278 -0.018716002 0.40500003 4286685582
0.012011304 -0.018762214 0.40600002 4286488199
0.013362825 -0.018808426 0.40700001 4285697913
0.014720841 -0.018854639 0.40800002 4280433959
0.016085355 -0.018900851 0.40900001 4280236580
0.017456364 -0.018947065 0.41000003 4279385887
0.01883387 -0.018993275 0.41100001 4279255068
0.020217871 -0.019039489 0.41200003 4279124250
0.021556048 -0.019039489 0.41200003 4279124763
0.022894224 -0.019039489 0.41200003 4279258146
0.024291217 -0.019085702 0.41300002 4279325222
0.025632642 -0.019085702 0.41300002 4279260713
0.026974065 -0.019085702 0.41300002 4279655471
0.028384054 -0.019131914 0.41400003 4279523885
0.029728726 -0.019131914 0.41400003 4280246324
0.031148452 -0.019178126 0.41500002 4281096505
0.033925846 -0.019224338 0.41600001 4286225542
-0.0049167783 -0.016712705 0.38900003 4283261262
-0.0023836892 -0.016669741 0.38800001 4285038186
0.0039578201 -0.016841594 0.39200002 4287409564
0.0052977595 -0.017056409 0.39700001 4286620818
0.0066038086 -0.017099373 0.39800003 4286817427
0.0079163536 -0.017142337 0.39900002 4286949013
0.0092353951 -0.017185299 0.40000001 4286751634
0.010666278 -0.017400118 0.40500003 4286488462
0.012040887 -0.017486041 0.40700001 4286357130
0.013395658 -0.017529005 0.40800002 4286225029
0.014720841 -0.017529005 0.40800002 4286882957
0.016085355 -0.017571969 0.40900001 4286817164
0.017456364 -0.017614933 0.41000003 4282080585
0.01883387 -0.017657895 0.41100001 4278858009
0.020217871 -0.01770086 0.41200003 4278794263
0.021556048 -0.01770086 0.41200003 4279189791
0.022894224 -0.01770086 0.41200003 4279652393
0.024291217 -0.017743822 0.41300002 4279587111
0.025632642 -0.017743822 0.41300002 4280508981
0.026974065 -0.017743822 0.41300002 4279983920
0.028384054 -0.017786786 0.41400003 4279981617
0.029728726 -0.017786786 0.41400003 4283268705
-0.0023836892 -0.01540909 0.38800001 4284906087
0.0001371127 -0.015448804 0.38900003 4282667843
0.002677755 -0.015528233 0.39100003 4287407508
0.0039578201 -0.015567946 0.39200002 4286686611
0.0052977595 -0.015766516 0.39700001 4286620818
0.0066038086 -0.015806232 0.39800003 4286818197
0.0079163536 -0.015845945 0.39900002 4286818197
0.0092353951 -0.015885659 0.40000001 4286751634
0.010666278 -0.016084231 0.40500003 4286620048
0.012040887 -0.016163658 0.40700001 4286291337
0.013395658 -0.016203372 0.40800002 4286488716
0.014720841 -0.016203372 0.40800002 4286488714
0.016085355 -0.016243087 0.40900001 4286357128
0.017456364 -0.016282801 0.41000003 4286225542
0.018879695 -0.016362229 0.41200003 4286817681
0.020217871 -0.016362229 0.41200003 4286752658
0.021556048 -0.016362229 0.41200003 4283594592
0.022949792 -0.016401943 0.41300002 4280963899
0.024291217 -0.016401943 0.41300002 4280438325
0.025632642 -0.016401943 0.41300002 4281030460
0.00013746516 -0.014221366 0.39000002 4285105262
0.0014041858 -0.014221366 0.39000002 4287803291
0.002677755 -0.014257832 0.39100003 4286948752
0.029671466 -0.032318443 0.41836828 4294967295
0.029671466 -0.032318443 0.41836828 4294901760
0.029677007 -0.032768317 0.41815016 4294901760
0.029682549 -0.033218194 0.417932 4294901760
0.02968809 -0.033668067 0.41771388 4294901760
0.02969363 -0.034117945 0.41749576 4294901760
0.029699171 -0.034567818 0.4172776 4294901760
0.029704712 -0.035017692 0.41705948 4294901760
0.029710254 -0.035467569 0.41684136 4294901760
0.029715795 -0.035917442 0.41662323 4294901760
0.029721336 -0.03636732 0.41640508 4294901760
0.029726878 -0.036817193 0.41618696 4294901760
0.029732419 -0.037267067 0.41596884 4294901760
0.029737959 -0.037716944 0.41575068 4294901760
0.0297435 -0.038166817 0.41553256 4294901760
0.029749041 -0.038616695 0.41531444 4294901760
0.029754583 -0.039066568 0.41509628 4294901760
0.029760124 -0.039516442 0.41487816 4294901760
0.029765666 -0.039966319 0.41466004 4294901760
0.029771207 -0.040416192 0.41444188 4294901760
0.029776748 -0.040866069 0.41422376 4294901760
0.029782288 -0.041315943 0.41400564 4294901760
0.029787829 -0.041765817 0.41378748 4294901760
0.029793371 -0.042215694 0.41356936 4294901760
0.029798912 -0.042665567 0.41335124 4294901760
0.029804453 -0.043115444 0.41313311 4294901760
0.029809995 -0.043565318 0.41291496 4294901760
0.029815536 -0.044015191 0.41269684 4294901760
0.029821075 -0.044465069 0.41247872 4294901760
0.029826617 -0.044914942 0.41226056 4294901760
0.029832158 -0.045364819 0.41204244 4294901760
0.0298377 -0.045814693 0.41182432 4294901760
0.029843241 -0.046264566 0.41160616 4294901760
0.029848782 -0.046714444 0.41138804 4294901760
0.029854324 -0.047164317 0.41116992 4294901760
0.029859865 -0.047614194 0.41095176 4294901760
0.029865405 -0.048064068 0.41073364 4294901760
0.029870946 -0.048513941 0.41051552 4294901760
0.029876487 -0.048963819 0.41029739 4294901760
0.029882029 -0.049413692 0.41007924 4294901760
0.02988757 -0.049863569 0.40986112 4294901760
0.029893111 -0.050313443 0.40964299 4294901760
0.029898653 -0.050763316 0.40942484 4294901760
0.029904194 -0.05121319 0.40920672 4294901760
0.029909734 -0.051663071 0.4089886 4294901760
0.029915275 -0.052112944 0.40877044 4294901760
0.029920816 -0.052562818 0.40855232 4294901760
0.029926358 -0.053012691 0.4083342 4294901760
0.029931899 -0.053462569 0.40811604 4294901760
0.029937441 -0.053912442 0.40789792 4294901760
0.029942982 -0.054362319 0.4076798 4294901760
0.029948521 -0.054812193 0.40746164 4294901760
0.029954063 -0.055262066 0.40724352 4294901760
0.029959604 -0.05571194 0.4070254 4294901760
0.029965146 -0.056161817 0.40680727 4294901760
0.029970687 -0.056611694 0.40658912 4294901760
0.029976228 -0.057061568 0.406371 4294901760
0.02998177 -0.057511441 0.40615287 4294901760
0.029987311 -0.057961315 0.40593472 4294901760
0.02999285 -0.058411192 0.4057166 4294901760
0.029998392 -0.058861069 0.40549847 4294901760
0.030003933 -0.059310943 0.40528032 4294901760
0.030009475 -0.059760816 0.4050622 4294901760
0.030015016 -0.060210694 0.40484408 4294901760
0.030020557 -0.060660567 0.40462592 4294901760
0.030026099 -0.061110444 0.4044078 4294901760
0.03003164 -0.061560318 0.40418968 4294901760
0.03003718 -0.062010191 0.40397155 4294901760
0.030042721 -0.062460069 0.4037534 4294901760
0.030048262 -0.062909946 0.40353528 4294901760
0.030053804 -0.063359819 0.40331715 4294901760
0.030059345 -0.063809693 0.403099 4294901760
0.030064886 -0.064259566 0.40288088 4294901760
0.030070428 -0.06470944 0.40266275 4294901760
0.030075969 -0.065159321 0.4024446 4294901760
0.030081509 -0.065609194 0.40222648 4294901760
0.03008705 -0.066059068 0.40200835 4294901760
0.030092591 -0.066508941 0.4017902 4294901760
0.030098133 -0.066958815 0.40157208 4294901760
0.030103674 -0.067408696 0.40135396 4294901760
0.030109216 -0.067858569 0.4011358 4294901760
0.030114757 -0.068308443 0.40091768 4294901760
0.030120296 -0.068758316 0.40069956 4294901760
0.030125838 -0.06920819 0.40048143 4294901760
0.030131379 -0.069658071 0.40026328 4294901760
0.030136921 -0.070107937 0.40004516 4294901760
0.030142462 -0.070557818 0.39982703 4294901760
0.030148003 -0.071007699 0.39960888 4294901760
0.030153545 -0.071457565 0.39939076 4294901760
0.030159086 -0.071907446 0.39917263 4294901760
0.030164625 -0.072357312 0.39895448 4294901760
0.030170167 -0.072807193 0.39873636 4294901760
0.030175708 -0.073257074 0.39851823 4294901760
0.03018125 -0.07370694 0.39830008 4294901760
0.030186791 -0.074156821 0.39808196 4294901760
0.030192332 -0.074606694 0.39786384 4294901760
0.030197874 -0.075056568 0.39764571 4294901760
0.030203413 -0.075506441 0.39742756 4294901760
0.030208955 -0.075956315 0.39720944 4294901760
0.030214496 -0.076406196 0.39699131 4294901760
0.030220037 -0.076856069 0.39677316 4294901760
0.030225579 -0.077305943 0.39655504 4294901760
0.029671466 -0.032318443 0.41836828 4278255360
0.030020291 -0.032471243 0.41869226 4278255360
0.030369118 -0.032624044 0.41901627 4278255360
0.030717943 -0.032776844 0.41934025 4278255360
0.031066768 -0.032929644 0.41966426 4278255360
0.031415593 -0.033082444 0.41998824 4278255360
0.031764418 -0.033235244 0.42031226 4278255360
0.032113247 -0.033388045 0.42063624 4278255360
0.032462072 -0.033540845 0.42096025 4278255360
0.032810897 -0.033693645 0.42128423 4278255360
0.033159722 -0.033846445 0.42160824 4278255360
0.033508547 -0.033999246 0.42193222 4278255360
0.033857372 -0.034152046 0.42225623 4278255360
0.034206197 -0.034304846 0.42258021 4278255360
0.034555025 -0.034457646 0.42290422 4278255360
0.03490385 -0.034610447 0.4232282 4278255360
0.035252675 -0.034763247 0.42355222 4278255360
0.0356015 -0.034916047 0.4238762 4278255360
0.035950325 -0.035068847 0.42420018 4278255360
0.03629915 -0.035221647 0.42452419 4278255360
0.036647975 -0.035374448 0.42484817 4278255360
0.0369968 -0.035527248 0.42517218 4278255360
0.037345629 -0.035680048 0.42549616 4278255360
0.037694454 -0.035832848 0.42582017 4278255360
0.038043279 -0.035985649 0.42614415 4278255360
0.038392104 -0.036138445 0.42646816 4278255360
0.038740929 -0.036291249 0.42679214 4278255360
0.039089754 -0.036444046 0.42711616 4278255360
0.039438583 -0.03659685 0.42744014 4278255360
0.039787404 -0.036749646 0.42776415 4278255360
0.040136233 -0.03690245 0.42808813 4278255360
0.040485058 -0.037055247 0.42841214 4278255360
0.040833883 -0.037208047 0.42873612 4278255360
0.041182708 -0.037360847 0.42906013 4278255360
0.041531533 -0.037513647 0.42938411 4278255360
0.041880358 -0.037666447 0.42970809 4278255360
0.042229187 -0.037819248 0.4300321 4278255360
0.042578012 -0.037972048 0.43035609 4278255360
0.042926837 -0.038124848 0.4306801 4278255360
0.043275662 -0.038277648 0.43100408 4278255360
0.043624487 -0.038430449 0.43132809 4278255360
0.043973312 -0.038583249 0.43165207 4278255360
0.044322137 -0.038736049 0.43197608 4278255360
0.044670962 -0.038888849 0.43230006 4278255360
0.045019791 -0.03904165 0.43262407 4278255360
0.045368612 -0.03919445 0.43294805 4278255360
0.045717441 -0.03934725 0.43327206 4278255360
0.046066266 -0.03950005 0.43359604 4278255360
0.046415091 -0.03965285 0.43392006 4278255360
0.046763919 -0.039805651 0.43424404 4278255360
0.047112741 -0.039958451 0.43456805 4278255360
0.047461569 -0.040111251 0.43489203 4278255360
0.047810391 -0.040264051 0.43521601 4278255360
0.048159219 -0.040416852 0.43554002 4278255360
0.048508048 -0.040569652 0.435864 4278255360
0.048856869 -0.040722452 0.43618801 4278255360
0.049205698 -0.040875252 0.43651199 4278255360
0.049554519 -0.041028053 0.436836 4278255360
0.049903348 -0.041180853 0.43715999 4278255360
0.050252169 -0.041333653 0.437484 4278255360
0.050600998 -0.041486453 0.43780798 4278255360
0.050949823 -0.041639253 0.43813199 4278255360
0.051298648 -0.041792054 0.43845597 4278255360
0.051647477 -0.041944854 0.43877998 4278255360
0.051996298 -0.042097654 0.43910396 4278255360
0.052345127 -0.042250454 0.43942797 4278255360
0.052693952 -0.042403255 0.43975195 4278255360
0.053042777 -0.042556055 0.44007593 4278255360
0.053391602 -0.042708855 0.44039994 4278255360
0.053740427 -0.042861655 0.44072393 4278255360
0.054089252 -0.043014452 0.44104794 4278255360
0.054438077 -0.043167256 0.44137192 4278255360
0.054786906 -0.043320056 0.44169593 4278255360
0.055135731 -0.043472856 0.44201991 4278255360
0.055484556 -0.043625653 0.44234392 4278255360
0.055833381 -0.043778457 0.4426679 4278255360
0.056182206 -0.043931253 0.44299191 4278255360
0.056531031 -0.044084057 0.44331589 4278255360
0.056879856 -0.044236854 0.4436399 4278255360
0.057228684 -0.044389658 0.44396389 4278255360
0.057577509 -0.044542454 0.4442879 4278255360
0.057926334 -0.044695258 0.44461188 4278255360
0.058275159 -0.044848055 0.44493589 4278255360
0.058623984 -0.045000855 0.44525987 4278255360
0.058972809 -0.045153655 0.44558385 4278255360
0.059321634 -0.045306459 0.44590786 4278255360
0.059670463 -0.045459256 0.44623184 4278255360
0.060019284 -0.045612056 0.44655585 4278255360
0.060368113 -0.045764856 0.44687983 4278255360
0.060716938 -0.045917656 0.44720384 4278255360
0.061065763 -0.046070457 0.44752783 4278255360
0.061414592 -0.046223257 0.44785184 4278255360
0.061763413 -0.046376057 0.44817582 4278255360
0.062112242 -0.046528857 0.44849983 4278255360
0.062461063 -0.046681657 0.44882381 4278255360
0.062809892 -0.046834458 0.44914782 4278255360
0.063158713 -0.046987258 0.4494718 4278255360
0.063507542 -0.047140058 0.44979581 4278255360
0.063856371 -0.047292858 0.45011979 4278255360
0.064205192 -0.047445659 0.4504438 4278255360
0.064554021 -0.047598459 0.45076779 4278255360
0.029671466 -0.032318443 0.41836828 4278190335
0.02957093 -0.032533135 0.41880852 4278190335
0.029470392 -0.032747827 0.41924873 4278190335
0.029369855 -0.03296252 0.41968897 4278190335
0.029269317 -0.033177212 0.42012918 4278190335
0.029168781 -0.033391904 0.42056942 4278190335
0.029068243 -0.0336066 0.42100963 4278190335
0.028967706 -0.033821292 0.42144987 4278190335
0.02886717 -0.034035984 0.42189008 4278190335
0.028766632 -0.034250677 0.42233032 4278190335
0.028666096 -0.034465369 0.42277056 4278190335
0.028565558 -0.034680061 0.42321077 4278190335
0.028465021 -0.034894753 0.42365101 4278190335
0.028364483 -0.035109445 0.42409122 4278190335
0.028263947 -0.035324138 0.42453146 4278190335
0.028163409 -0.03553883 0.42497167 4278190335
0.028062873 -0.035753522 0.42541191 4278190335
0.027962334 -0.035968218 0.42585212 4278190335
0.027861798 -0.03618291 0.42629236 4278190335
0.027761262 -0.036397602 0.42673257 4278190335
0.027660724 -0.036612295 0.42717281 4278190335
0.027560188 -0.036826987 0.42761305 4278190335
0.027459649 -0.037041679 0.42805326 4278190335
0.027359113 -0.037256371 0.4284935 4278190335
0.027258575 -0.037471063 0.42893371 4278190335
0.027158039 -0.037685756 0.42937395 4278190335
0.027057502 -0.037900448 0.42981416 4278190335
0.026956964 -0.038115144 0.4302544 4278190335
0.026856428 -0.038329832 0.43069461 4278190335
0.02675589 -0.038544528 0.43113485 4278190335
0.026655354 -0.03875922 0.43157509 4278190335
0.026554815 -0.038973913 0.4320153 4278190335
0.026454279 -0.039188605 0.43245554 4278190335
0.026353741 -0.039403297 0.43289575 4278190335
0.026253205 -0.039617989 0.43333599 4278190335
0.026152669 -0.039832681 0.4337762 4278190335
0.02605213 -0.040047374 0.43421644 4278190335
0.025951594 -0.040262066 0.43465665 4278190335
0.025851056 -0.040476762 0.43509689 4278190335
0.02575052 -0.04069145 0.4355371 4278190335
0.025649982 -0.040906146 0.43597734 4278190335
0.025549445 -0.041120838 0.43641758 4278190335
0.025448907 -0.041335531 0.43685779 4278190335
0.025348371 -0.041550223 0.43729803 4278190335
0.025247835 -0.041764915 0.43773824 4278190335
0.025147296 -0.041979607 0.43817848 4278190335
0.02504676 -0.042194299 0.43861869 4278190335
0.024946222 -0.042408992 0.43905893 4278190335
0.024845686 -0.042623684 0.43949914 4278190335
0.024745148 -0.04283838 0.43993938 4278190335
0.024644611 -0.043053068 0.44037962 4278190335
0.024544075 -0.043267764 0.44081983 4278190335
0.024443537 -0.043482453 0.44126007 4278190335
0.024343001 -0.043697149 0.44170028 4278190335
0.024242463 -0.043911841 0.44214052 4278190335
0.024141926 -0.044126533 0.44258073 4278190335
0.024041388 -0.044341225 0.44302097 4278190335
0.023940852 -0.044555917 0.44346118 4278190335
0.023840316 -0.04477061 0.44390142 4278190335
0.023739778 -0.044985302 0.44434163 4278190335
0.023639239 -0.045199998 0.44478187 4278190335
0.023538703 -0.045414686 0.44522211 4278190335
0.023438167 -0.045629382 0.44566232 4278190335
0.023337629 -0.045844074 0.44610256 4278190335
0.023237092 -0.046058767 0.44654277 4278190335
0.023136556 -0.046273459 0.44698301 4278190335
0.023036018 -0.046488151 0.44742322 4278190335
0.02293548 -0.046702843 0.44786346 4278190335
0.022834944 -0.046917535 0.44830367 4278190335
0.022734407 -0.047132228 0.44874391 4278190335
0.022633869 -0.04734692 0.44918412 4278190335
0.022533333 -0.047561612 0.44962436 4278190335
0.022432795 -0.047776308 0.4500646 4278190335
0.022332259 -0.047991 0.45050481 4278190335
0.02223172 -0.048205689 0.45094505 4278190335
0.022131184 -0.048420385 0.45138526 4278190335
0.022030648 -0.048635077 0.4518255 4278190335
0.02193011 -0.048849769 0.45226571 4278190335
0.021829573 -0.049064461 0.45270595 4278190335
0.021729035 -0.049279153 0.45314616 4278190335
0.021628499 -0.049493849 0.4535864 4278190335
0.021527961 -0.049708538 0.45402664 4278190335
0.021427425 -0.049923234 0.45446685 4278190335
0.021326888 -0.050137922 0.45490709 4278190335
0.02122635 -0.050352618 0.4553473 4278190335
0.021125812 -0.05056731 0.45578754 4278190335
0.021025276 -0.050782003 0.45622775 4278190335
0.02092474 -0.050996695 0.45666799 4278190335
0.020824201 -0.051211387 0.4571082 4278190335
0.020723665 -0.051426079 0.45754844 4278190335
0.020623129 -0.051640771 0.45798868 4278190335
0.020522591 -0.051855467 0.45842889 4278190335
0.020422053 -0.052070156 0.45886913 4278190335
0.020321516 -0.052284852 0.45930934 4278190335
0.02022098 -0.05249954 0.45974958 4278190335
0.020120442 -0.052714236 0.46018979 4278190335
0.020019906 -0.052928925 0.46063003 4278190335
0.019919368 -0.05314362 0.46107024 4278190335
0.019818831 -0.053358313 0.46151048 4278190335
0.019718293 -0.053573005 0.46195072 4278190335
0.019617757 -0.053787697 0.46239093 4278190335
0.029671466 -0.032318443 0.41836828 4294967295
0.030274689 -0.031030288 0.41572693 4294967295
0.030877911 -0.029742133 0.41308555 4294967295
0.031481132 -0.028453978 0.4104442 4294967295
0.032084357 -0.027165823 0.40780285 4294967295
0.032687578 -0.025877666 0.40516147 4294967295
0.0332908 -0.024589511 0.40252012 4294967295
0.033894025 -0.023301356 0.39987877 4294967295
0.034497246 -0.0220132 0.39723739 4294967295
0.035100468 -0.020725045 0.39459604 4294967295
0.035703693 -0.019436888 0.39195469 4294967295
0.036306914 -0.018148735 0.38931334 4294967295
0.036910135 -0.016860578 0.38667196 4294967295
0.03751336 -0.015572425 0.38403061 4294967295
0.038116582 -0.014284268 0.38138926 4294967295
0.038719803 -0.012996113 0.37874788 4294967295
0.039323024 -0.011707958 0.37610653 4294967295
0.03992625 -0.010419803 0.37346518 4294967295
0.040529475 -0.0091316458 0.3708238 4294967295
0.041132696 -0.0078434926 0.36818245 4294967295
0.041735917 -0.0065553356 0.3655411 4294967295
0.042339139 -0.0052671824 0.36289972 4294967295
0.04294236 -0.0039790254 0.36025837 4294967295
0.043545585 -0.0026908703 0.35761702 4294967295
0.044148806 -0.0014027152 0.35497564 4294967295
0.044752032 -0.00011456013 0.35233429 4294967295
0.045355253 0.0011735931 0.34969294 4294967295
0.045958474 0.0024617501 0.34705156 4294967295
0.046561696 0.003749907 0.34441021 4294967295
0.047164917 0.0050380602 0.34176886 4294967295
0.047768146 0.0063262172 0.33912748 4294967295
0.048371367 0.0076143704 0.33648613 4294967295
0.048974589 0.0089025274 0.33384478 4294967295
0.04957781 0.010190684 0.3312034 4294967295
0.050181031 0.011478838 0.32856205 4294967295
0.050784253 0.012766991 0.3259207 4294967295
