# .PCD v0.7 - Point Cloud Data file format
VERSION 0.7
FIELDS x y z rgb
SIZE 4 4 4 4
TYPE F F F U
COUNT 1 1 1 1
WIDTH 923
HEIGHT 1
VIEWPOINT 0 0 0 1 0 0 0
POINTS 923
DATA ascii
0.047382012 0.0052420064 0.58100003 4287389258
0.049269103 0.0052420064 0.58100003 4285612334
0.051068146 0.0052329842 0.58000004 4285148703
0.052860688 0.005223962 0.57900006 4285213728
0.054741282 0.005223962 0.57900006 4285476387
0.056621876 0.005223962 0.57900006 4285148707
0.034290023 0.0071542775 0.583 4284497710
0.036245674 0.0071665496 0.58400005 4284890158
0.038207818 0.0071788211 0.58500004 4285548088
0.040176462 0.0071910922 0.58600003 4286866008
0.042079788 0.0071910922 0.58600003 4284694837
0.04390806 0.0071788211 0.58500004 4283442973
0.045729842 0.0071665496 0.58400005 4282916368
0.047463562 0.0071420064 0.58200002 4284031249
0.049269103 0.0071297348 0.58100003 4284951578
0.051068146 0.0071174637 0.58000004 4285409306
0.052860688 0.0071051922 0.57900006 4287054647
0.054741282 0.0071051922 0.57900006 4284751896
0.056524079 0.0070929201 0.57800001 4284948505
0.058401424 0.0070929201 0.57800001 4284036395
0.026532387 0.0089864228 0.57900006 4284439630
0.028462052 0.0090019433 0.58000004 4285415986
0.030398212 0.0090174638 0.58100003 4285215525
0.032285299 0.0090174638 0.58100003 4285477668
0.034290023 0.0090485038 0.583 4285872939
0.036245674 0.0090640252 0.58400005 4284557081
0.038207818 0.0090795457 0.58500004 4283374093
0.040107902 0.0090795457 0.58500004 4284894521
0.042007979 0.0090795457 0.58500004 4284764218
0.04390806 0.0090795457 0.58500004 4284173360
0.045729842 0.0090640252 0.58400005 4284568116
0.047463562 0.0090329843 0.58200002 4284957997
0.049269103 0.0090174638 0.58100003 4284163605
0.051068146 0.0090019433 0.58000004 4285014039
0.052860688 0.0089864228 0.57900006 4285145625
0.054741282 0.0089864228 0.57900006 4285474849
0.056524079 0.0089709014 0.57800001 4284685849
0.058401424 0.0089709014 0.57800001 4283638296
0.06017448 0.0089553809 0.57700002 4282654994
0.024651794 0.010867653 0.57900006 4286151786
0.026532387 0.010867653 0.57900006 4284498741
0.028462052 0.010886422 0.58000004 4285344801
0.030345893 0.010886422 0.58000004 4287121210
0.032285299 0.010905192 0.58100003 4285344799
0.034231205 0.010923961 0.58200002 4285145880
0.036183607 0.010942731 0.583 4284097812
0.038142506 0.010961502 0.58400005 4285551418
0.040107902 0.010980271 0.58500004 4284437813
0.042007979 0.010980271 0.58500004 4284437817
0.043833006 0.010961502 0.58400005 4284568118
0.045651533 0.010942731 0.583 4284828978
0.047463562 0.010923961 0.58200002 4285613615
0.049269103 0.010905192 0.58100003 4284623640
0.051068146 0.010886422 0.58000004 4284292628
0.052860688 0.010867653 0.57900006 4284555287
0.054646734 0.010848883 0.57800001 4284161042
0.056524079 0.010848883 0.57800001 4283897870
0.058401424 0.010848883 0.57800001 4283374870
0.06017448 0.010830113 0.57700002 4282849555
0.022731869 0.012726863 0.57800001 4285302645
0.024651794 0.012748883 0.57900006 4284043587
0.026532387 0.012748883 0.57900006 4284429355
0.028412981 0.012748883 0.57900006 4285080089
0.030345893 0.012770901 0.58000004 4285738017
0.032285299 0.01279292 0.58100003 4285936936
0.034231205 0.012814938 0.58200002 4284817685
0.036183607 0.012836957 0.583 4284030735
0.038142506 0.012858977 0.58400005 4285876273
0.040039342 0.012858977 0.58400005 4284496417
0.042007979 0.012880995 0.58500004 4284890412
0.043833006 0.012858977 0.58400005 4283242766
0.045651533 0.012836957 0.583 4283373839
0.047463562 0.012814938 0.58200002 4283506192
0.049269103 0.01279292 0.58100003 4283703058
0.051068146 0.012770901 0.58000004 4283899667
0.052860688 0.012748883 0.57900006 4283571218
0.054646734 0.012726863 0.57800001 4283374352
0.056524079 0.012726863 0.57800001 4282980366
0.058300387 0.012704845 0.57700002 4282460445
0.06017448 0.012704845 0.57700002 4287005809
0.022731869 0.014604844 0.57800001 4285236852
0.024609216 0.014604844 0.57800001 4283646264
0.026486561 0.014604844 0.57800001 4283639841
0.028412981 0.014630113 0.57900006 4284621078
0.030345893 0.014655381 0.58000004 4285146652
0.032285299 0.014680648 0.58100003 4284554515
0.034231205 0.014705916 0.58200002 4284094734
0.036121543 0.014705916 0.58200002 4284227605
0.038077191 0.014731183 0.583 4284031251
0.040039342 0.014756452 0.58400005 4282914825
0.041936174 0.014756452 0.58400005 4281929473
0.043833006 0.014756452 0.58400005 4282459410
0.045651533 0.014731183 0.583 4283643938
0.047463562 0.014705916 0.58200002 4283245846
0.049269103 0.014680648 0.58100003 4282324233
0.051068146 0.014655381 0.58000004 4282520588
0.052860688 0.014630113 0.57900006 4282586381
0.054741282 0.014630113 0.57900006 4283244311
0.056524079 0.014604844 0.57800001 4283967774
0.058401424 0.014604844 0.57800001 4283182883
0.06027877 0.014604844 0.57800001 4287071861
0.022692541 0.016454309 0.57700002 4285301878
0.024566639 0.016454309 0.57700002 4282590748
0.026486561 0.016482826 0.57800001 4283968806
0.028412981 0.016511343 0.57900006 4283375124
0.030293573 0.016511343 0.57900006 4284031769
0.032229733 0.016539861 0.58000004 4283637011
0.03417239 0.016568378 0.58100003 4283373839
0.036121543 0.016596893 0.58200002 4283111950
0.038077191 0.01662541 0.583 4282126852
0.039970778 0.01662541 0.583 4285357121
0.041864362 0.01662541 0.583 4283121953
0.043757945 0.01662541 0.583 4282662678
0.045651533 0.01662541 0.583 4283649319
0.047463562 0.016596893 0.58200002 4281865476
0.049269103 0.016568378 0.58100003 4282323979
0.051068146 0.016539861 0.58000004 4282258701
0.052951984 0.016539861 0.58000004 4282390287
0.054741282 0.016511343 0.57900006 4282258701
0.056524079 0.016482826 0.57800001 4282390285
0.058401424 0.016482826 0.57800001 4283901468
0.06017448 0.016454309 0.57700002 4284430640
0.022653213 0.018297276 0.57600003 4286485636
0.024566639 0.018329041 0.57700002 4283113497
0.026440736 0.018329041 0.57700002 4283179290
0.028363906 0.018360807 0.57800001 4282851606
0.030293573 0.018392574 0.57900006 4282916370
0.032229733 0.01842434 0.58000004 4283178258
0.03417239 0.018456105 0.58100003 4282784014
0.036121543 0.018487873 0.58200002 4283119647
0.038011879 0.018487873 0.58200002 4285095743
0.039970778 0.018519638 0.583 4282926625
0.041864362 0.018519638 0.583 4286085709
0.043757945 0.018519638 0.583 4285493054
0.045651533 0.018519638 0.583 4284768566
0.047463562 0.018487873 0.58200002 4282719502
0.049269103 0.018456105 0.58100003 4282980879
0.051156193 0.018456105 0.58100003 4283111698
0.052951984 0.01842434 0.58000004 4282717967
0.054741282 0.018392574 0.57900006 4282524692
0.056621876 0.018392574 0.57900006 4283250211
0.058401424 0.018360807 0.57800001 4282389772
0.06017448 0.018329041 0.57700002 4284098595
0.061833508 0.01826551 0.57500005 4285555544
0.063368753 0.018170211 0.57200003 4286220150
0.065226607 0.018170211 0.57200003 4285027915
0.067436315 0.01826551 0.57500005 4283574561
0.069303915 0.01826551 0.57500005 4286146398
0.020746283 0.020133743 0.57500005 4285432948
0.022653213 0.020168759 0.57600003 4285824624
0.024524063 0.020168759 0.57600003 4283441944
0.026440736 0.020203773 0.57700002 4284168747
0.028363906 0.020238787 0.57800001 4283974702
0.030293573 0.020273805 0.57900006 4283311639
0.032229733 0.020308819 0.58000004 4282916370
0.03417239 0.020343835 0.58100003 4283512100
0.036121543 0.020378849 0.58200002 4284307763
0.038011879 0.020378849 0.58200002 4282728731
0.039970778 0.020413864 0.583 4283387944
0.041864362 0.020413864 0.583 4282598941
0.043757945 0.020413864 0.583 4282664486
0.045651533 0.020413864 0.583 4281083919
0.047463562 0.020378849 0.58200002 4281078279
0.049353905 0.020378849 0.58200002 4282063891
0.051156193 0.020343835 0.58100003 4282718737
0.05304328 0.020343835 0.58100003 4282981139
0.054835826 0.020308819 0.58000004 4284107056
0.056719668 0.020308819 0.58000004 4282728483
0.058502469 0.020273805 0.57900006 4283119395
0.06027877 0.020238787 0.57800001 4282128650
0.061941043 0.020168759 0.57600003 4283705636
0.063701108 0.020133743 0.57500005 4287463028
0.065454669 0.020098727 0.574 4287662202
0.067553595 0.020168759 0.57600003 4284429355
0.069544964 0.020203773 0.57700002 4286071352
0.071542837 0.020238787 0.57800001 4285155392
0.020746283 0.022001976 0.57500005 4285761911
0.022653213 0.02204024 0.57600003 4282268972
0.024524063 0.02204024 0.57600003 4283443225
0.026440736 0.022078505 0.57700002 4283645737
0.028363906 0.022116769 0.57800001 4284499247
0.030293573 0.022155035 0.57900006 4283178256
0.032229733 0.022193298 0.58000004 4281406209
0.03417239 0.022231562 0.58100003 4282464027
0.036121543 0.022269826 0.58200002 4282335004
0.038011879 0.022269826 0.58200002 4282335004
0.039902218 0.022269826 0.58200002 4282073117
0.041864362 0.022308089 0.583 4278914560
0.043757945 0.022308089 0.583 4279243016
0.045651533 0.022308089 0.583 4278585088
0.047463562 0.022269826 0.58200002 4279308809
0.049353905 0.022269826 0.58200002 4279835151
0.05124424 0.022269826 0.58200002 4280357897
0.053134575 0.022269826 0.58200002 4280750345
0.05493037 0.022231562 0.58100003 4282793762
0.056817457 0.022231562 0.58100003 4282597410
0.05860351 0.022193298 0.58000004 4282334238
0.060383063 0.022155035 0.57900006 4281278218
0.062156111 0.022116769 0.57800001 4283178518
0.063922673 0.022078505 0.57700002 4284229409
0.065682739 0.02204024 0.57600003 4285083941
0.067670874 0.022078505 0.57700002 4285016349
0.069665492 0.022116769 0.57800001 4285278238
0.071666621 0.022155035 0.57900006 4285476900
0.073674232 0.022193298 0.58000004 4284173891
0.018944349 0.023953237 0.57700002 4285565563
0.020782365 0.023911724 0.57600003 4286943873
0.022692541 0.023953237 0.57700002 4282526238
0.024566639 0.023953237 0.57700002 4282788377
0.026486561 0.023994749 0.57800001 4283580971
0.028363906 0.023994749 0.57800001 4283245333
0.030293573 0.024036264 0.57900006 4282915086
0.032229733 0.024077777 0.58000004 4284437304
0.03417239 0.02411929 0.58100003 4281215757
0.036121543 0.024160802 0.58200002 4282071582
0.038011879 0.024160802 0.58200002 4281742617
0.039902218 0.024160802 0.58200002 4278980096
0.041864362 0.024202315 0.583 4279177480
0.043757945 0.024202315 0.583 4279112205
0.045651533 0.024202315 0.583 4278585861
0.047463562 0.024160802 0.58200002 4278914824
0.049353905 0.024160802 0.58200002 4278388480
0.05124424 0.024160802 0.58200002 4280099100
0.053134575 0.024160802 0.58200002 4279900949
0.055024914 0.024160802 0.58200002 4279242496
0.05691525 0.024160802 0.58200002 4282072865
0.058704548 0.02411929 0.58100003 4282138142
0.060487349 0.024077777 0.58000004 4282794789
0.062263653 0.024036264 0.57900006 4282127367
0.064033456 0.023994749 0.57800001 4284294171
0.065910801 0.023994749 0.57800001 4285540638
0.067788154 0.023994749 0.57800001 4287711550
0.069786027 0.024036264 0.57900006 4286001186
0.071790397 0.024077777 0.58000004 4285211416
0.073674232 0.024077777 0.58000004 4283246627
0.075688347 0.02411929 0.58100003 4286019693
0.015196154 0.025827968 0.57700002 4285499257
0.017070251 0.025827968 0.57700002 4285433464
0.018944349 0.025827968 0.57700002 4285630843
0.020818444 0.025827968 0.57700002 4285752923
0.022692541 0.025827968 0.57700002 4283441692
0.024609216 0.02587273 0.57800001 4282526488
0.026486561 0.02587273 0.57800001 4283910190
0.028412981 0.025917495 0.57900006 4283112463
0.030345893 0.025962256 0.58000004 4282257668
0.032285299 0.026007017 0.58100003 4283319852
0.03417239 0.026007017 0.58100003 4281215503
0.036121543 0.02605178 0.58200002 4281743132
0.038011879 0.02605178 0.58200002 4280098057
0.039902218 0.02605178 0.58200002 4279374859
0.041792553 0.02605178 0.58200002 4278782470
0.043682888 0.02605178 0.58200002 4283982938
0.045573227 0.02605178 0.58200002 4287141256
0.047463562 0.02605178 0.58200002 4285167979
0.049438704 0.026096541 0.583 4284773735
0.051332287 0.026096541 0.583 4281350448
0.053225871 0.026096541 0.583 4281020972
0.055119459 0.026096541 0.583 4279375629
0.057013039 0.026096541 0.583 4281677862
0.058805589 0.02605178 0.58200002 4281940763
0.060695924 0.02605178 0.58200002 4282071836
0.062478725 0.026007017 0.58100003 4282128650
0.064255029 0.025962256 0.58000004 4283308561
0.06602484 0.025917495 0.57900006 4285079832
0.067905433 0.025917495 0.57900006 4284881683
0.069906555 0.025962256 0.58000004 4285276441
0.071790397 0.025962256 0.58000004 4284816917
0.073674232 0.025962256 0.58000004 4283640356
0.075688347 0.026007017 0.58100003 4284503888
0.013298969 0.027654691 0.57600003 4285630843
0.015196154 0.0277027 0.57700002 4285630843
0.017070251 0.0277027 0.57700002 4285696636
0.01897718 0.027750712 0.57800001 4286353535
0.020854523 0.027750712 0.57800001 4283507487
0.022731869 0.027750712 0.57800001 4284427558
0.024609216 0.027750712 0.57800001 4282460695
0.026532387 0.027798725 0.57900006 4284040747
0.028412981 0.027798725 0.57900006 4283111950
0.030345893 0.027846737 0.58000004 4282719502
0.032285299 0.027894748 0.58100003 4283123241
0.03417239 0.027894748 0.58100003 4281149197
0.036121543 0.02794276 0.58200002 4281741597
0.038011879 0.02794276 0.58200002 4279374598
0.039902218 0.02794276 0.58200002 4282138430
0.041792553 0.02794276 0.58200002 4280363042
0.043682888 0.02794276 0.58200002 4282207031
0.045573227 0.02794276 0.58200002 4283058742
0.047463562 0.02794276 0.58200002 4280821526
0.049438704 0.02799077 0.583 4280361752
0.051332287 0.02799077 0.583 4282996295
0.053225871 0.02799077 0.583 4278324994
0.055214006 0.028038785 0.58400005 4279113227
0.057013039 0.02799077 0.583 4278651904
0.058906626 0.02799077 0.583 4282006043
0.060695924 0.02794276 0.58200002 4282006043
0.062586263 0.02794276 0.58200002 4282130447
0.064365819 0.027894748 0.58100003 4283112465
0.066138871 0.027846737 0.58000004 4284094995
0.068022713 0.027846737 0.58000004 4284423701
0.069906555 0.027846737 0.58000004 4284818459
0.071790397 0.027846737 0.58000004 4284294171
0.073674232 0.027846737 0.58000004 4281998105
0.075688347 0.027894748 0.58100003 4285098850
0.011388438 0.02942365 0.574 4285565563
0.013275881 0.029474912 0.57500005 4285631356
0.015169818 0.029526172 0.57600003 4285433977
0.017070251 0.029577432 0.57700002 4285828476
0.01897718 0.029628692 0.57800001 4284309330
0.020854523 0.029628692 0.57800001 4285413937
0.022731869 0.029628692 0.57800001 4285741871
0.024651794 0.029679956 0.57900006 4284757027
0.026532387 0.029679956 0.57900006 4284033302
0.028412981 0.029679956 0.57900006 4283242507
0.030345893 0.029731216 0.58000004 4283441682
0.032229733 0.029731216 0.58000004 4283181077
0.03417239 0.029782476 0.58100003 4283705368
0.03605948 0.029782476 0.58100003 4283248161
0.037946567 0.029782476 0.58100003 4281016857
0.039902218 0.029833736 0.58200002 4281020202
0.041792553 0.029833736 0.58200002 4282074171
0.043682888 0.029833736 0.58200002 4280625946
0.045573227 0.029833736 0.58200002 4281611033
0.047463562 0.029833736 0.58200002 4281346830
0.049438704 0.029884996 0.583 4280032262
0.051332287 0.029884996 0.583 4281416491
0.053225871 0.029884996 0.583 4280824356
0.055214006 0.02993626 0.58400005 4280099352
0.057110839 0.02993626 0.58400005 4278717697
0.058906626 0.029884996 0.583 4281808158
0.06080021 0.029884996 0.583 4281939226
0.062586263 0.029833736 0.58200002 4282329109
0.064365819 0.029782476 0.58100003 4282850577
0.066252902 0.029782476 0.58100003 4283899415
0.068139993 0.029782476 0.58100003 4283702036
0.070027083 0.029782476 0.58100003 4283505940
0.071914166 0.029782476 0.58100003 4283441176
0.073801257 0.029782476 0.58100003 4283188026
0.011388438 0.031288635 0.574 4285631356
0.013275881 0.031343147 0.57500005 4285565563
0.015169818 0.031397656 0.57600003 4285631356
0.017070251 0.031452164 0.57700002 4287075461
0.01897718 0.031506673 0.57800001 4284501058
0.020854523 0.031506673 0.57800001 4285344801
0.0227712 0.031561185 0.57900006 4285409052
0.024651794 0.031561185 0.57900006 4284818457
0.026532387 0.031561185 0.57900006 4286923315
0.028412981 0.031561185 0.57900006 4283702034
0.030293573 0.031561185 0.57900006 4283570448
0.032229733 0.031615693 0.58000004 4284424984
0.034113575 0.031615693 0.58000004 4284490777
0.03605948 0.031670205 0.58100003 4284230946
0.037946567 0.031670205 0.58100003 4280685579
0.039833657 0.031670205 0.58100003 4279967512
0.041720748 0.031670205 0.58100003 4281876533
0.043607835 0.031670205 0.58100003 4279836430
0.045573227 0.031724714 0.58200002 4280690964
0.047463562 0.031724714 0.58200002 4281282068
0.049353905 0.031724714 0.58200002 4280689677
0.051332287 0.031779222 0.583 4281745456
0.053225871 0.031779222 0.583 4280363805
0.055214006 0.031833734 0.58400005 4281087017
0.057110839 0.031833734 0.58400005 4279308805
0.059007674 0.031833734 0.58400005 4281479197
0.06080021 0.031779222 0.583 4281544986
0.062693797 0.031779222 0.583 4282133014
0.064476602 0.031724714 0.58200002 4283244565
0.066366933 0.031724714 0.58200002 4284163357
0.068257272 0.031724714 0.58200002 4282520588
0.070027083 0.031670205 0.58100003 4282982942
0.071914166 0.031670205 0.58100003 4284563003
0.073801257 0.031670205 0.58100003 4285625964
0.011388438 0.03315362 0.574 4285565565
0.013275881 0.03321138 0.57500005 4285433977
0.015196154 0.033326894 0.57700002 4285762942
0.017099835 0.033384655 0.57800001 4284703061
0.01897718 0.033384655 0.57800001 4284365362
0.020854523 0.033384655 0.57800001 4285409054
0.022731869 0.033384655 0.57800001 4285145625
0.024609216 0.033384655 0.57800001 4287581765
0.026486561 0.033384655 0.57800001 4285409052
0.028412981 0.033442415 0.57900006 4283766282
0.030293573 0.033442415 0.57900006 4283569673
0.032174166 0.033442415 0.57900006 4284358421
0.034113575 0.033500172 0.58000004 4284357906
0.035997417 0.033500172 0.58000004 4283703317
0.037881255 0.033500172 0.58000004 4281144331
0.039833657 0.033557933 0.58100003 4279967766
0.041720748 0.033557933 0.58100003 4280033559
0.043607835 0.033557933 0.58100003 4280889886
0.045494925 0.033557933 0.58100003 4280757784
0.047463562 0.03361569 0.58200002 4281610779
0.049353905 0.03361569 0.58200002 4280492298
0.051332287 0.033673447 0.583 4281218599
0.053225871 0.033673447 0.583 4279113227
0.055119459 0.033673447 0.583 4281547568
0.057110839 0.033731211 0.58400005 4279111426
0.058906626 0.033673447 0.583 4281413402
0.06080021 0.033673447 0.583 4281150230
0.062693797 0.033673447 0.583 4282261779
0.064587384 0.033673447 0.583 4283506456
0.066366933 0.03361569 0.58200002 4282850327
0.068257272 0.03361569 0.58200002 4287070578
0.070147611 0.03361569 0.58200002 4281934619
0.072037943 0.03361569 0.58200002 4282921260
0.013298969 0.035140619 0.57600003 4285697151
0.015196154 0.035201628 0.57700002 4285697149
0.017099835 0.035262633 0.57800001 4284110665
0.01897718 0.035262633 0.57800001 4283444774
0.020854523 0.035262633 0.57800001 4285279010
0.022731869 0.035262633 0.57800001 4285474849
0.024566639 0.035201628 0.57700002 4285145373
0.026440736 0.035201628 0.57700002 4285014039
0.028363906 0.035262633 0.57800001 4283897868
0.030241249 0.035262633 0.57800001 4283832077
0.032118596 0.035262633 0.57800001 4284094995
0.03405476 0.035323646 0.57900006 4284226581
0.035935353 0.035323646 0.57900006 4283571218
0.037881255 0.035384651 0.58000004 4281011201
0.039765101 0.035384651 0.58000004 4279045640
0.041720748 0.03544566 0.58100003 4278914826
0.043607835 0.03544566 0.58100003 4279112455
0.045494925 0.03544566 0.58100003 4282269999
0.047463562 0.035506666 0.58200002 4281414687
0.049353905 0.035506666 0.58200002 4282730547
0.051332287 0.035567675 0.583 4280296729
0.053225871 0.035567675 0.583 4282139701
0.055119459 0.035567675 0.583 4280757280
0.057013039 0.035567675 0.583 4280426770
0.058906626 0.035567675 0.583 4281150228
0.06080021 0.035567675 0.583 4281281814
0.062693797 0.035567675 0.583 4282851606
0.064587384 0.035567675 0.583 4284163103
0.066480964 0.035567675 0.583 4284170296
0.068374552 0.035567675 0.583 4286482039
0.070268139 0.035567675 0.583 4281343509
0.072037943 0.035506666 0.58200002 4287004535
0.015196154 0.037076361 0.57700002 4285697149
0.017099835 0.037140619 0.57800001 4286547834
0.01897718 0.037140619 0.57800001 4282922539
0.020854523 0.037140619 0.57800001 4284228380
0.022692541 0.037076361 0.57700002 4284424730
0.024524063 0.037012104 0.57600003 4284489753
0.026394913 0.037012104 0.57600003 4284160788
0.028314834 0.037076361 0.57700002 4284094995
0.030136609 0.037012104 0.57600003 4284029202
0.032063026 0.037076361 0.57700002 4283898899
0.033995941 0.037140619 0.57800001 4283243536
0.035873286 0.037140619 0.57800001 4282327313
0.037815943 0.037204877 0.57900006 4281606931
0.039765101 0.037269134 0.58000004 4278848258
0.041648939 0.037269134 0.58000004 4278979847
0.043607835 0.037333392 0.58100003 4278914056
0.045494925 0.037333392 0.58100003 4278519296
0.047463562 0.037397645 0.58200002 4280690460
0.049353905 0.037397645 0.58200002 4279835151
0.05124424 0.037397645 0.58200002 4280559901
0.053225871 0.037461903 0.583 4281612589
0.055119459 0.037461903 0.583 4280158208
0.057013039 0.037461903 0.583 4283575842
0.058906626 0.037461903 0.583 4282329879
0.06080021 0.037461903 0.583 4281278218
0.062693797 0.037461903 0.583 4283899931
0.064587384 0.037461903 0.583 4284819749
0.066480964 0.037461903 0.583 4286741361
0.068374552 0.037461903 0.583 4286943875
0.070388667 0.037526164 0.58400005 4281411105
0.017099835 0.039018597 0.57800001 4286089595
0.01897718 0.039018597 0.57800001 4284177744
0.020818444 0.038951091 0.57700002 4283311391
0.022653213 0.038883585 0.57600003 4283770141
0.024481487 0.038816083 0.57500005 4283505940
0.026349088 0.038816083 0.57500005 4283308561
0.028265761 0.038883585 0.57600003 4283900185
0.030031966 0.038748574 0.574 4284096278
0.031951889 0.038816083 0.57500005 4283242766
0.033878308 0.038883585 0.57600003 4282918678
0.035811223 0.038951091 0.57700002 4281740820
0.037750628 0.039018597 0.57800001 4280820493
0.039696541 0.039086107 0.57900006 4280888343
0.041648939 0.039153613 0.58000004 4279308805
0.043607835 0.039221119 0.58100003 4278979847
0.045494925 0.039221119 0.58100003 4279375375
0.047382012 0.039221119 0.58100003 4282402107
0.049353905 0.039288625 0.58200002 4279177480
0.05124424 0.039288625 0.58200002 4279109376
0.053134575 0.039288625 0.58200002 4280355333
0.055119459 0.039356127 0.583 4284820001
0.057013039 0.039356127 0.583 4284490005
0.058906626 0.039356127 0.583 4286073916
0.06080021 0.039356127 0.583 4285482549
0.062693797 0.039356127 0.583 4284490007
0.064587384 0.039356127 0.583 4284030747
0.066595003 0.039423637 0.58400005 4286811006
0.068491839 0.039423637 0.58400005 4284375895
0.070388667 0.039423637 0.58400005 4284373333
0.01897718 0.04089658 0.57800001 4286024572
0.020782365 0.040755071 0.57600003 4283913036
0.022574555 0.040613558 0.574 4284039995
0.024396332 0.040542804 0.57300001 4282588438
0.026211614 0.040472049 0.57200003 4282588438
0.028265761 0.040755071 0.57600003 4282128398
0.029927326 0.040472049 0.57200003 4283967259
0.031840753 0.040542804 0.57300001 4284096532
0.033819493 0.040684316 0.57500005 4283638548
0.035749156 0.040755071 0.57600003 4281543955
0.037750628 0.04089658 0.57800001 4281084689
0.039696541 0.040967338 0.57900006 4280887569
0.041648939 0.041038092 0.58000004 4280756753
0.043532778 0.041038092 0.58000004 4280690710
0.045494925 0.041108847 0.58100003 4280361747
0.047382012 0.041108847 0.58100003 4280295700
0.049353905 0.041179601 0.58200002 4280361493
0.05124424 0.041179601 0.58200002 4282130197
0.053134575 0.041179601 0.58200002 4284032284
0.055024914 0.041179601 0.58200002 4284750867
0.05691525 0.041179601 0.58200002 4285605406
0.058906626 0.041250356 0.583 4285014039
0.06080021 0.041250356 0.583 4285408795
0.062693797 0.041250356 0.583 4285146652
0.064587384 0.041250356 0.583 4286930002
0.066595003 0.041321114 0.58400005 4286679418
0.068491839 0.041321114 0.58400005 4281476896
0.070388667 0.041321114 0.58400005 4287139203
0.020782365 0.042626552 0.57600003 4285959038
0.022535227 0.042404536 0.57300001 4284509282
0.024268605 0.042182527 0.57000005 4282261277
0.026074139 0.042108521 0.56900001 4281866773
0.028265761 0.042626552 0.57600003 4281344531
0.029770365 0.042108521 0.56900001 4283051295
0.03167405 0.042182527 0.57000005 4284820255
0.033701856 0.042404536 0.57300001 4284490007
0.035687093 0.042552549 0.57500005 4282853139
0.037685316 0.042700555 0.57700002 4281411339
0.039627977 0.042774558 0.57800001 4280953103
0.041577131 0.042848568 0.57900006 4280953616
0.043532778 0.042922571 0.58000004 4280755985
0.045494925 0.042996574 0.58100003 4280821778
0.047382012 0.042996574 0.58100003 4280821778
0.049269103 0.042996574 0.58100003 4280821778
0.05124424 0.043070577 0.58200002 4281803281
0.053134575 0.043070577 0.58200002 4283507221
0.055024914 0.043070577 0.58200002 4284815890
0.05691525 0.043070577 0.58200002 4285538582
0.058805589 0.043070577 0.58200002 4285538582
0.06080021 0.04314458 0.583 4285538582
0.062693797 0.04314458 0.583 4284488470
0.064587384 0.04314458 0.583 4287979610
0.066595003 0.04321859 0.58400005 4286079576
0.068491839 0.04321859 0.58400005 4282130715
0.022456571 0.044111766 0.57100004 4285696636
0.025936669 0.043725502 0.56600004 4282130974
0.029561082 0.043648243 0.565 4281343761
0.031507343 0.043802753 0.56700003 4283705368
0.033643041 0.044189021 0.57200003 4284491288
0.035625026 0.044343524 0.574 4284423699
0.037620004 0.044498034 0.57600003 4283833358
0.039627977 0.04465254 0.57800001 4281804301
0.041577131 0.044729795 0.57900006 4281017611
0.043532778 0.04480705 0.58000004 4281083919
0.045416623 0.04480705 0.58000004 4280952079
0.047382012 0.044884302 0.58100003 4280820493
0.049269103 0.044884302 0.58100003 4280754700
0.05124424 0.044961553 0.58200002 4281410320
0.053134575 0.044961553 0.58200002 4282784782
0.055024914 0.044961553 0.58200002 4285539098
0.05691525 0.044961553 0.58200002 4285801754
0.058805589 0.044961553 0.58200002 4285866777
0.06080021 0.045038808 0.583 4286789165
0.062693797 0.045038808 0.583 4285014044
0.064587384 0.045038808 0.583 4285343009
0.066480964 0.045038808 0.583 4284559398
0.068491839 0.045116063 0.58400005 4282524440
0.033584226 0.045967005 0.57100004 4282983959
0.035625026 0.046208508 0.574 4284752664
0.037620004 0.046369519 0.57600003 4285014296
0.039559416 0.046450019 0.57700002 4284882710
0.041505318 0.046530519 0.57800001 4284423699
0.043457724 0.046611026 0.57900006 4283442196
0.045416623 0.046691529 0.58000004 4282720526
0.047382012 0.046772029 0.58100003 4282260748
0.049269103 0.046772029 0.58100003 4282522893
0.05124424 0.046852533 0.58200002 4284228632
0.053134575 0.046852533 0.58200002 4285147420
0.055024914 0.046852533 0.58200002 4285605404
0.05691525 0.046852533 0.58200002 4285671197
0.058906626 0.046933033 0.583 4285538582
0.06080021 0.046933033 0.583 4285340949
0.062693797 0.046933033 0.583 4285671199
0.064587384 0.046933033 0.583 4285145882
0.066480964 0.046933033 0.583 4283506710
0.068374552 0.046933033 0.583 4284697923
0.033584226 0.047822241 0.57100004 4281143302
0.035625026 0.048073493 0.574 4284226835
0.037620004 0.048241001 0.57600003 4285671969
0.039559416 0.048324749 0.57700002 4285868065
0.041577131 0.048492257 0.57900006 4285539098
0.043457724 0.048492257 0.57900006 4285800730
0.045416623 0.048576009 0.58000004 4285538328
0.047382012 0.048659757 0.58100003 4285276439
0.049269103 0.048659757 0.58100003 4284619536
0.05124424 0.048743509 0.58200002 4285741355
0.053134575 0.048743509 0.58200002 4286463795
0.055119459 0.048827261 0.583 4284818972
0.057013039 0.048827261 0.583 4284555800
0.058906626 0.048827261 0.583 4284816915
0.06080021 0.048827261 0.583 4285014037
0.062693797 0.048827261 0.583 4284948244
0.064587384 0.048827261 0.583 4284619536
0.066480964 0.048827261 0.583 4283244315
0.068374552 0.048827261 0.583 4286015330
0.033760674 0.049938478 0.574 4284163616
0.035687093 0.050025482 0.57500005 4285145880
0.037685316 0.050199483 0.57700002 4285802270
0.039627977 0.050286483 0.57800001 4285868063
0.041577131 0.050373487 0.57900006 4285406742
0.043532778 0.050460488 0.58000004 4285406742
0.045416623 0.050460488 0.58000004 4285011984
0.047382012 0.050547484 0.58100003 4284948501
0.049353905 0.050634485 0.58200002 4284490773
0.05124424 0.050634485 0.58200002 4282784014
0.053225871 0.050721485 0.583 4283904557
0.055119459 0.050721485 0.583 4286281316
0.057013039 0.050721485 0.583 4282986787
0.059007674 0.050808489 0.58400005 4283899415
0.060904503 0.050808489 0.58400005 4284293657
0.062801339 0.050808489 0.58400005 4284162071
0.064698175 0.050808489 0.58400005 4284097562
0.066480964 0.050721485 0.583 4282394146
0.030188929 0.052074216 0.57700002 4279571209
0.032063026 0.052074216 0.57700002 4282918426
0.033878308 0.051983967 0.57600003 4284362530
0.035811223 0.052074216 0.57700002 4284817687
0.037750628 0.052164465 0.57800001 4285210646
0.039696541 0.052254722 0.57900006 4285342232
0.041577131 0.052254722 0.57900006 4284881681
0.043532778 0.05234497 0.58000004 4284224782
0.045494925 0.052435219 0.58100003 4283043590
0.047463562 0.052525468 0.58200002 4280553216
0.049353905 0.052525468 0.58200002 4280554245
0.051332287 0.052615717 0.583 4280423690
0.053317171 0.05270597 0.58400005 4282792238
0.055214006 0.05270597 0.58400005 4282331174
0.057110839 0.05270597 0.58400005 4281866771
0.059007674 0.05270597 0.58400005 4283179805
0.060904503 0.05270597 0.58400005 4283245598
0.062801339 0.05270597 0.58400005 4283047704
0.064698175 0.05270597 0.58400005 4283247395
0.066595003 0.05270597 0.58400005 4284969063
0.030188929 0.05394895 0.57700002 4279507733
0.032063026 0.05394895 0.57700002 4282793006
0.033937123 0.05394895 0.57700002 4282920479
0.035811223 0.05394895 0.57700002 4284096278
0.037750628 0.054042447 0.57800001 4284226068
0.039696541 0.054135952 0.57900006 4284357654
0.041648939 0.054229449 0.58000004 4284094995
0.043532778 0.054229449 0.58000004 4283176462
0.045494925 0.054322947 0.58100003 4281667334
0.047463562 0.054416444 0.58200002 4281079308
0.049438704 0.054509941 0.583 4280751370
0.051420338 0.054603446 0.58400005 4280817163
0.053408466 0.054696944 0.58500004 4281408789
0.055308551 0.054696944 0.58500004 4281607451
0.057208627 0.054696944 0.58500004 4282527529
0.059108712 0.054696944 0.58500004 4282397996
0.061008792 0.054696944 0.58500004 4283714372
0.062908873 0.054696944 0.58500004 4284177746
0.064698175 0.054603446 0.58400005 4285891448
0.030241249 0.05592043 0.57800001 4279968795
0.032118596 0.05592043 0.57800001 4279703824
0.033937123 0.05582368 0.57700002 4283912514
0.035873286 0.05592043 0.57800001 4282850325
0.037750628 0.05592043 0.57800001 4283440665
0.039696541 0.056017179 0.57900006 4283243284
0.041648939 0.056113929 0.58000004 4283178518
0.043532778 0.056113929 0.58000004 4283182370
0.045494925 0.056210674 0.58100003 4281669644
0.047463562 0.05630742 0.58200002 4281802515
0.049438704 0.05640417 0.583 4281079822
0.051420338 0.056500919 0.58400005 4280819218
0.053408466 0.056597669 0.58500004 4281214751
0.055308551 0.056597669 0.58500004 4283323975
0.057208627 0.056597669 0.58500004 4284442969
0.059209753 0.056694414 0.58600003 4284248159
0.061113078 0.056694414 0.58600003 4284511331
0.062908873 0.056597669 0.58500004 4284774505
0.030241249 0.057798408 0.57800001 4279772701
0.032118596 0.057798408 0.57800001 4279837209
0.033995941 0.057798408 0.57800001 4279507213
0.035873286 0.057798408 0.57800001 4281280021
0.037750628 0.057798408 0.57800001 4282526238
0.039696541 0.05789841 0.57900006 4282327576
0.041648939 0.057998408 0.58000004 4282526238
0.043532778 0.057998408 0.58000004 4279963907
0.045494925 0.058098402 0.58100003 4280491280
0.047463562 0.0581984 0.58200002 4280031758
0.049438704 0.058298394 0.583 4279900944
0.051508386 0.058498394 0.58500004 4279769615
0.053408466 0.058498394 0.58500004 4279966996
0.055403091 0.058598388 0.58600003 4279574291
0.059209753 0.058598388 0.58600003 4284248674
0.061113078 0.058598388 0.58600003 4284248674
0.030241249 0.05967639 0.57800001 4280101666
0.032118596 0.05967639 0.57800001 4279640602
0.033995941 0.05967639 0.57800001 4279640600
0.035873286 0.05967639 0.57800001 4279705110
0.037750628 0.05967639 0.57800001 4279967766
0.039696541 0.05977964 0.57900006 4280163348
0.041577131 0.05977964 0.57900006 4280031760
0.043532778 0.059882887 0.58000004 4279769615
0.045494925 0.059986129 0.58100003 4279638799
0.047463562 0.060089376 0.58200002 4279705362
0.049438704 0.060192619 0.583 4279507985
0.032118596 0.061554369 0.57800001 4279837981
0.033995941 0.061554369 0.57800001 4279706395
0.035873286 0.061554369 0.57800001 4279772186
0.037750628 0.061554369 0.57800001 4279706393
0.039627977 0.061554369 0.57800001 4279574037
0.041577131 0.061660871 0.57900006 4279442451
0.043532778 0.061767366 0.58000004 4279442192
0.045416623 0.061767366 0.58000004 4279573778
0.039814286 0.035016596 0.57914269 4294967295
0.039814286 0.035016596 0.57914269 4294901760
0.039814286 0.035016596 0.57964271 4294901760
0.039814286 0.035016596 0.58014268 4294901760
0.039814286 0.035016596 0.5806427 4294901760
0.039814286 0.035016596 0.58114266 4294901760
0.039814286 0.035016596 0.58164269 4294901760
0.039814286 0.035016596 0.58214271 4294901760
0.039814286 0.035016596 0.58264267 4294901760
0.039814286 0.035016596 0.5831427 4294901760
0.039814286 0.035016596 0.58364266 4294901760
0.039814286 0.035016596 0.58414268 4294901760
0.039814286 0.035016596 0.58464271 4294901760
0.039814286 0.035016596 0.58514267 4294901760
0.039814286 0.035016596 0.5856427 4294901760
0.039814286 0.035016596 0.58614272 4294901760
0.039814286 0.035016596 0.58664268 4294901760
0.039814286 0.035016596 0.58714271 4294901760
0.039814286 0.035016596 0.58764267 4294901760
0.039814286 0.035016596 0.58814269 4294901760
0.039814286 0.035016596 0.58864272 4294901760
0.039814286 0.035016596 0.58914268 4294901760
0.039814286 0.035016596 0.5896427 4294901760
0.039814286 0.035016596 0.59014267 4294901760
0.039814286 0.035016596 0.59064269 4294901760
0.039814286 0.035016596 0.59114271 4294901760
0.039814286 0.035016596 0.59164268 4294901760
0.039814286 0.035016596 0.5921427 4294901760
0.039814286 0.035016596 0.59264266 4294901760
0.039814286 0.035016596 0.59314269 4294901760
0.039814286 0.035016596 0.59364271 4294901760
0.039814286 0.035016596 0.59414268 4294901760
0.039814286 0.035016596 0.5946427 4294901760
0.039814286 0.035016596 0.59514272 4294901760
0.039814286 0.035016596 0.59564269 4294901760
0.039814286 0.035016596 0.59614271 4294901760
0.039814286 0.035016596 0.59664267 4294901760
0.039814286 0.035016596 0.5971427 4294901760
0.039814286 0.035016596 0.59764272 4294901760
0.039814286 0.035016596 0.59814268 4294901760
0.039814286 0.035016596 0.59864271 4294901760
0.039814286 0.035016596 0.59914267 4294901760
0.039814286 0.035016596 0.59964269 4294901760
0.039814286 0.035016596 0.60014272 4294901760
0.039814286 0.035016596 0.60064268 4294901760
0.039814286 0.035016596 0.6011427 4294901760
0.039814286 0.035016596 0.60164267 4294901760
0.039814286 0.035016596 0.60214269 4294901760
0.039814286 0.035016596 0.60264271 4294901760
0.039814286 0.035016596 0.60314268 4294901760
0.039814286 0.035016596 0.6036427 4294901760
0.039814286 0.035016596 0.60414267 4294901760
0.039814286 0.035016596 0.60464269 4294901760
0.039814286 0.035016596 0.60514271 4294901760
0.039814286 0.035016596 0.60564268 4294901760
0.039814286 0.035016596 0.6061427 4294901760
0.039814286 0.035016596 0.60664272 4294901760
0.039814286 0.035016596 0.60714269 4294901760
0.039814286 0.035016596 0.60764271 4294901760
0.039814286 0.035016596 0.60814267 4294901760
0.039814286 0.035016596 0.6086427 4294901760
0.039814286 0.035016596 0.60914272 4294901760
0.039814286 0.035016596 0.60964268 4294901760
0.039814286 0.035016596 0.61014271 4294901760
0.039814286 0.035016596 0.61064267 4294901760
0.039814286 0.035016596 0.61114269 4294901760
0.039814286 0.035016596 0.61164272 4294901760
0.039814286 0.035016596 0.61214268 4294901760
0.039814286 0.035016596 0.61264271 4294901760
0.039814286 0.035016596 0.61314273 4294901760
0.039814286 0.035016596 0.61364269 4294901760
0.039814286 0.035016596 0.61414272 4294901760
0.039814286 0.035016596 0.61464268 4294901760
0.039814286 0.035016596 0.6151427 4294901760
0.039814286 0.035016596 0.61564273 4294901760
0.039814286 0.035016596 0.61614269 4294901760
0.039814286 0.035016596 0.61664271 4294901760
0.039814286 0.035016596 0.61714268 4294901760
0.039814286 0.035016596 0.6176427 4294901760
0.039814286 0.035016596 0.61814272 4294901760
0.039814286 0.035016596 0.61864269 4294901760
0.039814286 0.035016596 0.61914271 4294901760
0.039814286 0.035016596 0.61964267 4294901760
0.039814286 0.035016596 0.6201427 4294901760
0.039814286 0.035016596 0.62064272 4294901760
0.039814286 0.035016596 0.62114269 4294901760
0.039814286 0.035016596 0.62164271 4294901760
0.039814286 0.035016596 0.62214267 4294901760
0.039814286 0.035016596 0.6226427 4294901760
0.039814286 0.035016596 0.62314272 4294901760
0.039814286 0.035016596 0.62364268 4294901760
0.039814286 0.035016596 0.62414271 4294901760
0.039814286 0.035016596 0.62464273 4294901760
0.039814286 0.035016596 0.62514269 4294901760
0.039814286 0.035016596 0.62564272 4294901760
0.039814286 0.035016596 0.62614268 4294901760
0.039814286 0.035016596 0.6266427 4294901760
0.039814286 0.035016596 0.62714273 4294901760
0.039814286 0.035016596 0.62764269 4294901760
0.039814286 0.035016596 0.62814271 4294901760
0.039814286 0.035016596 0.62864268 4294901760
0.039814286 0.035016596 0.6291427 4294901760
0.039814286 0.035016596 0.57914269 4278255360
0.039754774 0.035036087 0.57963878 4278255360
0.039695263 0.035055578 0.58013481 4278255360
0.039635751 0.035075068 0.5806309 4278255360
0.039576244 0.035094559 0.58112693 4278255360
0.039516732 0.03511405 0.58162302 4278255360
0.039457221 0.035133541 0.58211905 4278255360
0.039397709 0.035153031 0.58261514 4278255360
0.039338198 0.035172522 0.58311117 4278255360
0.039278686 0.035192013 0.58360726 4278255360
0.039219178 0.035211504 0.58410335 4278255360
0.039159667 0.035230994 0.58459938 4278255360
0.039100155 0.035250485 0.58509547 4278255360
0.039040644 0.035269976 0.5855915 4278255360
0.038981132 0.035289466 0.58608758 4278255360
0.038921621 0.035308957 0.58658361 4278255360
0.038862109 0.035328448 0.5870797 4278255360
0.038802601 0.035347935 0.58757579 4278255360
0.03874309 0.035367426 0.58807182 4278255360
0.038683578 0.035386916 0.58856791 4278255360
0.038624067 0.035406407 0.58906394 4278255360
0.038564555 0.035425898 0.58956003 4278255360
0.038505044 0.035445388 0.59005606 4278255360
0.038445532 0.035464879 0.59055215 4278255360
0.038386025 0.03548437 0.59104818 4278255360
0.038326513 0.035503861 0.59154427 4278255360
0.038267002 0.035523351 0.59204036 4278255360
0.03820749 0.035542842 0.59253639 4278255360
0.038147978 0.035562333 0.59303248 4278255360
0.038088467 0.035581823 0.59352851 4278255360
0.038028955 0.035601314 0.5940246 4278255360
0.037969448 0.035620805 0.59452063 4278255360
0.037909936 0.035640296 0.59501672 4278255360
0.037850425 0.035659786 0.59551275 4278255360
0.037790913 0.035679277 0.59600884 4278255360
0.037731402 0.035698768 0.59650493 4278255360
0.03767189 0.035718258 0.59700096 4278255360
0.037612382 0.035737749 0.59749705 4278255360
0.037552871 0.03575724 0.59799308 4278255360
0.037493359 0.035776731 0.59848917 4278255360
0.037433848 0.035796221 0.5989852 4278255360
0.037374336 0.035815712 0.59948128 4278255360
0.037314825 0.035835203 0.59997737 4278255360
0.037255313 0.035854694 0.6004734 4278255360
0.037195805 0.035874184 0.60096949 4278255360
0.037136294 0.035893675 0.60146552 4278255360
0.037076782 0.035913166 0.60196161 4278255360
0.037017271 0.035932656 0.60245764 4278255360
0.036957759 0.035952147 0.60295373 4278255360
0.036898248 0.035971638 0.60344976 4278255360
0.03683874 0.035991125 0.60394585 4278255360
0.036779229 0.036010616 0.60444194 4278255360
0.036719717 0.036030106 0.60493797 4278255360
0.036660206 0.036049597 0.60543406 4278255360
0.036600694 0.036069088 0.60593009 4278255360
0.036541183 0.036088578 0.60642618 4278255360
0.036481671 0.036108069 0.60692221 4278255360
0.036422163 0.03612756 0.6074183 4278255360
0.036362652 0.036147051 0.60791433 4278255360
0.03630314 0.036166541 0.60841042 4278255360
0.036243629 0.036186032 0.60890651 4278255360
0.036184117 0.036205523 0.60940254 4278255360
0.036124606 0.036225013 0.60989863 4278255360
0.036065094 0.036244504 0.61039466 4278255360
0.036005586 0.036263995 0.61089075 4278255360
0.035946075 0.036283486 0.61138678 4278255360
0.035886563 0.036302976 0.61188287 4278255360
0.035827052 0.036322467 0.61237895 4278255360
0.03576754 0.036341958 0.61287498 4278255360
0.035708029 0.036361448 0.61337107 4278255360
0.035648517 0.036380939 0.6138671 4278255360
0.03558901 0.03640043 0.61436319 4278255360
0.035529498 0.036419921 0.61485922 4278255360
0.035469986 0.036439411 0.61535531 4278255360
0.035410475 0.036458902 0.61585134 4278255360
0.035350963 0.036478393 0.61634743 4278255360
0.035291452 0.036497883 0.61684352 4278255360
0.035231944 0.036517374 0.61733955 4278255360
0.035172433 0.036536865 0.61783564 4278255360
0.035112921 0.036556356 0.61833167 4278255360
0.03505341 0.036575846 0.61882776 4278255360
0.034993898 0.036595337 0.61932379 4278255360
0.034934387 0.036614828 0.61981988 4278255360
0.034874879 0.036634319 0.62031591 4278255360
0.034815367 0.036653806 0.620812 4278255360
0.034755856 0.036673296 0.62130809 4278255360
0.034696344 0.036692787 0.62180412 4278255360
0.034636833 0.036712278 0.62230021 4278255360
0.034577321 0.036731768 0.62279624 4278255360
0.03451781 0.036751259 0.62329233 4278255360
0.034458302 0.03677075 0.62378836 4278255360
0.03439879 0.036790241 0.62428445 4278255360
0.034339279 0.036809731 0.62478054 4278255360
0.034279767 0.036829222 0.62527657 4278255360
0.034220256 0.036848713 0.62577266 4278255360
0.034160744 0.036868203 0.62626868 4278255360
0.034101233 0.036887694 0.62676477 4278255360
0.034041725 0.036907185 0.6272608 4278255360
0.033982214 0.036926676 0.62775689 4278255360
0.033922702 0.036946166 0.62825292 4278255360
0.033863191 0.036965657 0.62874901 4278255360
