# .PCD v0.7 - Point Cloud Data file format
VERSION 0.7
FIELDS x y z rgb
SIZE 4 4 4 4
TYPE F F F U
COUNT 1 1 1 1
WIDTH 891
HEIGHT 1
VIEWPOINT 0 0 0 1 0 0 0
POINTS 891
DATA ascii
0.0032324817 -0.020278655 0.47200003 4286080344
-0.0013551066 -0.018586222 0.46800002 4286553224
0.00016531067 -0.018625936 0.46900001 4286678902
0.0016922239 -0.018665651 0.47000003 4287058247
0.0032256332 -0.018705364 0.47100002 4287120440
0.0047655385 -0.018745078 0.47200003 4287316015
0.00631194 -0.018784791 0.47300002 4287447601
0.0078482442 -0.018784791 0.47300002 4286333240
0.0093845492 -0.018784791 0.47300002 4288314222
-0.0058394638 -0.016846849 0.46200001 4286686865
-0.004348279 -0.016883316 0.46300003 4286620302
-0.0028505973 -0.016919781 0.46400002 4287211154
-0.001352211 -0.017029174 0.46700001 4287067748
0.0001649582 -0.017065641 0.46800002 4287060811
0.0016922239 -0.017138571 0.47000003 4287447862
0.0032256332 -0.017175036 0.47100002 4287710521
0.0047655385 -0.017211501 0.47200003 4289025863
0.00631194 -0.017247966 0.47300002 4287643181
0.0078482442 -0.017247966 0.47300002 4287774774
0.0093845492 -0.017247966 0.47300002 4287512890
0.010943944 -0.017284431 0.47400004 4285613629
-0.010229276 -0.015179685 0.45700002 4286686865
-0.0087640751 -0.015212902 0.45800003 4286555025
-0.0072923778 -0.015246117 0.45900002 4287670676
-0.0058268243 -0.015312549 0.46100003 4287931022
-0.0043388871 -0.015345764 0.46200001 4287202418
-0.0028505973 -0.015412197 0.46400002 4286736986
-0.0013493155 -0.015478629 0.46600002 4287846729
0.00016460572 -0.015511844 0.46700001 4287317046
0.0016886235 -0.015578276 0.46900001 4287907130
0.0032256332 -0.015644709 0.47100002 4287446579
0.0047655385 -0.015677925 0.47200003 4286722084
0.00631194 -0.01571114 0.47300002 4287380014
0.0078482442 -0.01571114 0.47300002 4290408043
0.0094043901 -0.015744356 0.47400004 4289752428
0.010943944 -0.015744356 0.47400004 4287118647
-0.010229276 -0.013694846 0.45700002 4287409305
-0.0087449402 -0.013694846 0.45700002 4284509532
-0.0072764903 -0.013724813 0.45800003 4286796358
-0.0058141849 -0.013784746 0.46000001 4287055680
-0.0043294956 -0.013814714 0.46100003 4286791475
-0.0028383103 -0.01384468 0.46200001 4288107589
-0.0013435245 -0.013904613 0.46400002 4287513653
0.00016425326 -0.013964548 0.46600002 4286330406
0.001685023 -0.014024481 0.46800002 4288647554
0.0032187847 -0.014084415 0.47000003 4288583817
0.0047655385 -0.014144349 0.47200003 4285742900
0.00631194 -0.014174315 0.47300002 4285935139
0.0078648375 -0.014204282 0.47400004 4287051051
0.0094043901 -0.014204282 0.47400004 4288301638
0.010967032 -0.014234249 0.47500002 4287118130
0.012509832 -0.014234249 0.47500002 4286923061
-0.01166235 -0.012156571 0.45500001 4287015060
-0.010206894 -0.012183289 0.45600003 4288194453
-0.0087449402 -0.012210007 0.45700002 4285354054
-0.0072606024 -0.012210007 0.45700002 4287118643
-0.0058015455 -0.012263442 0.45900002 4287445552
-0.0043201041 -0.012290159 0.46000001 4287642411
-0.0028321669 -0.012316878 0.46100003 4287840560
-0.001340629 -0.012370314 0.46300003 4287709231
0.00016390078 -0.012423749 0.46500003 4289620574
0.0016814225 -0.012477184 0.46700001 4286943609
0.0032187847 -0.012557337 0.47000003 4286749058
0.0047655385 -0.012610773 0.47200003 4287924862
0.00631194 -0.01263749 0.47300002 4285150513
0.0078648375 -0.012664208 0.47400004 4286000164
0.009424231 -0.012690926 0.47500002 4286723372
0.010967032 -0.012690926 0.47500002 4287314991
0.012509832 -0.012690926 0.47500002 4287448378
-0.013111312 -0.010654761 0.45400003 4286686095
-0.01166235 -0.010678229 0.45500001 4286357130
-0.01018451 -0.010678229 0.45500001 4284239682
-0.0087258043 -0.010701698 0.45600003 4286203192
-0.0072606024 -0.010725167 0.45700002 4286985510
-0.005788906 -0.010748635 0.45800003 4287051046
-0.0043107127 -0.010772103 0.45900002 4287445032
-0.0028260231 -0.010795572 0.46000001 4288564285
-0.0013377335 -0.01084251 0.46200001 4288368712
0.00016354831 -0.010889446 0.46400002 4287577395
0.0016814225 -0.010959852 0.46700001 4286798670
0.0032119362 -0.011006789 0.46900001 4288255104
0.0047655385 -0.011077196 0.47200003 4288708982
0.00631194 -0.011100665 0.47300002 4285346599
0.007881429 -0.011147602 0.47500002 4289818207
0.009424231 -0.011147602 0.47500002 4285869600
0.01099012 -0.01117107 0.47600001 4285276439
0.012509832 -0.011147602 0.47500002 4285082660
-0.013111312 -0.0091796685 0.45400003 4286686865
-0.011636719 -0.0091796685 0.45400003 4287672988
-0.01018451 -0.0091998875 0.45500001 4284302134
-0.0087066684 -0.0091998875 0.45500001 4285544492
-0.0072447155 -0.0092201075 0.45600003 4286197282
-0.0057762661 -0.0092403265 0.45700002 4286787877
-0.0043013212 -0.0092605464 0.45800003 4287051301
-0.0028198797 -0.0092807664 0.45900002 4287051044
-0.001334838 -0.0093212053 0.46100003 4288236611
0.00016319583 -0.0093616443 0.46300003 4289554265
0.0016778221 -0.0094223022 0.46600002 4287578163
0.0032119362 -0.0094829611 0.46900001 4286921516
0.0047655385 -0.00954362 0.47200003 4287250481
0.006325285 -0.009584059 0.47400004 4287316015
0.007881429 -0.009604279 0.47500002 4287053356
0.009444071 -0.009624498 0.47600001 4286395942
0.01099012 -0.009624498 0.47600001 4285215527
-0.031786922 -0.0083494512 0.49200001 4284572481
-0.013111312 -0.0077045755 0.45400003 4286883472
-0.011636719 -0.0077045755 0.45400003 4287408533
-0.010162126 -0.0077045755 0.45400003 4284497460
-0.0087066684 -0.0077215456 0.45500001 4284952871
-0.0072288276 -0.0077215456 0.45500001 4285869346
-0.0057636271 -0.0077385162 0.45600003 4285671967
-0.0042919298 -0.0077554868 0.45700002 4286000155
-0.0028137362 -0.0077724573 0.45800003 4286919717
-0.0013319424 -0.007806398 0.46000001 4286523680
0.00016319583 -0.0078573097 0.46300003 4286984999
0.0016778221 -0.0079082204 0.46600002 4287972144
0.0032119362 -0.0079591321 0.46900001 4287051042
0.0047655385 -0.0080100438 0.47200003 4286921516
0.006325285 -0.008043984 0.47400004 4284948755
0.0078980215 -0.0080779251 0.47600001 4285082140
0.0094639119 -0.0080948956 0.47700003 4285280804
0.011013209 -0.0080948956 0.47700003 4283902493
-0.016095873 -0.0062432047 0.45500001 4286818451
-0.014585904 -0.0062294835 0.45400003 4286686865
-0.013082432 -0.0062157619 0.45300001 4286751886
-0.011611087 -0.0062157619 0.45300001 4285499509
-0.010139743 -0.0062157619 0.45300001 4284495661
-0.0086875334 -0.0062294835 0.45400003 4284756005
-0.0072288276 -0.0062432047 0.45500001 4284686869
-0.0057509872 -0.0062432047 0.45500001 4285016088
-0.0042825383 -0.0062569259 0.45600003 4285475097
-0.0028137362 -0.0062843687 0.45800003 4286197280
-0.0013319424 -0.006311811 0.46000001 4286590752
0.00016284335 -0.0063392539 0.46200001 4286787874
0.0016778221 -0.006394139 0.46600002 4287380266
0.0032119362 -0.006435303 0.46900001 4286130971
0.0047655385 -0.0064764675 0.47200003 4284950554
0.0063386289 -0.0065176315 0.47500002 4283768079
0.0078980215 -0.0065313522 0.47600001 4284294425
0.0094639119 -0.0065450738 0.47700003 4285083941
0.011036297 -0.006558795 0.47800002 4285349679
0.012615179 -0.0065725166 0.47900003 4289435269
-0.029882105 -0.0050999741 0.48700002 4284771137
-0.017728208 -0.0048067519 0.45900002 4285171055
-0.016131248 -0.0047753355 0.45600003 4287277715
-0.014585904 -0.004754391 0.45400003 4287278228
-0.013082432 -0.0047439183 0.45300001 4286817164
-0.011611087 -0.0047439183 0.45300001 4283918162
-0.010139743 -0.0047439183 0.45300001 4284954921
-0.0086875334 -0.004754391 0.45400003 4285280804
-0.0072129401 -0.004754391 0.45400003 4284950554
-0.0057509872 -0.0047648628 0.45500001 4284490003
-0.0042825383 -0.0047753355 0.45600003 4283767050
-0.0028137362 -0.0047962801 0.45800003 4285607455
-0.0013319424 -0.0048172241 0.46000001 4285935391
0.00016319583 -0.0048486409 0.46300003 4286065948
0.0016778221 -0.0048800576 0.46600002 4286460704
0.0032119362 -0.004911474 0.46900001 4286066207
0.004775635 -0.004953363 0.47300002 4285090617
0.0063386289 -0.0049743075 0.47500002 4288649864
0.0079146149 -0.004995252 0.47700003 4283441430
0.0094837518 -0.0050057243 0.47800002 4284098075
0.011059386 -0.0050161965 0.47900003 4284493605
0.012641515 -0.0050266688 0.48000002 4284627501
-0.028125992 -0.0034959924 0.48400003 4284441663
-0.026553961 -0.0034959924 0.48400003 4283126582
-0.024930311 -0.0034887691 0.48300001 4282929719
-0.021657383 -0.0034670997 0.48000002 4282864443
-0.019888986 -0.0034309842 0.47500002 4282732857
-0.017728208 -0.0033154141 0.45900002 4282601271
-0.016131248 -0.0032937448 0.45600003 4282207283
-0.014585904 -0.0032792985 0.45400003 4282470201
-0.013082432 -0.0032720752 0.45300001 4282403890
-0.011585455 -0.0032648523 0.45200002 4283252778
-0.010117359 -0.0032648523 0.45200002 4285281318
-0.0086683976 -0.0032720752 0.45300001 4285806633
-0.0072129401 -0.0032792985 0.45400003 4285280289
-0.0057509872 -0.0032865216 0.45500001 4284491288
-0.0042825383 -0.0032937448 0.45600003 4284820255
-0.0028137362 -0.0033081912 0.45800003 4285083425
-0.0013319424 -0.0033226372 0.46000001 4285872678
0.00016319583 -0.0033443067 0.46300003 4285741092
0.0016778221 -0.003365976 0.46600002 4285608990
0.0032187847 -0.0033948685 0.47000003 4284819222
0.004775635 -0.0034165378 0.47300002 4289113495
0.0063519734 -0.0034382071 0.47600001 4288262295
0.0079312064 -0.0034526535 0.47800002 4283117090
0.0095035927 -0.0034598766 0.47900003 4284099360
0.011082474 -0.0034670997 0.48000002 4284033567
0.012667852 -0.0034743231 0.48100004 4284757290
-0.02311969 -0.0018995827 0.47800002 4283060017
-0.021476904 -0.0018916347 0.47600001 4282929201
-0.019763371 -0.0018757387 0.47200003 4282337834
-0.018037196 -0.0018558685 0.46700001 4282403627
-0.014585904 -0.0018042063 0.45400003 4282272302
-0.013053553 -0.0017962581 0.45200002 4281543703
-0.011585455 -0.0017962581 0.45200002 4284037159
-0.010117359 -0.0017962581 0.45200002 4285542693
-0.0086683976 -0.0018002321 0.45300001 4286856241
-0.0072129401 -0.0018042063 0.45400003 4288839534
-0.0057509872 -0.0018081802 0.45500001 4288322180
-0.0042919298 -0.0018161283 0.45700002 4287328614
-0.0028137362 -0.0018201023 0.45800003 4283704087
-0.001334838 -0.0018320244 0.46100003 4284689433
0.00016354831 -0.0018439464 0.46400002 4285215775
0.0016814225 -0.0018558685 0.46700001 4282652166
0.0032256332 -0.0018717645 0.47100002 4282918428
0.0047857314 -0.0018836868 0.47400004 4287867537
0.0063653183 -0.0018956087 0.47700003 4287540371
0.0079477997 -0.0019035569 0.47900003 4284634440
0.0095234327 -0.0019075308 0.48000002 4283772708
0.011105563 -0.0019115049 0.48100004 4284363298
0.012694187 -0.0019154788 0.48200002 4285216810
0.014289309 -0.0019194528 0.48300001 4286398520
0.015858093 -0.0019194528 0.48300001 4289762185
-0.016449628 -0.0003370879 0.46500003 4282798639
-0.013024674 -0.00032693904 0.45100003 4282723865
-0.011559824 -0.00032693904 0.45100003 4284627240
-0.010094976 -0.00032693904 0.45100003 4285672994
-0.0086683976 -0.00032838885 0.45300001 4286527530
-0.0072129401 -0.0003291138 0.45400003 4288913804
-0.0057509872 -0.00032983869 0.45500001 4287865229
-0.0042919298 -0.00033128855 0.45700002 4282920479
-0.0028198797 -0.00033273839 0.45900002 4283837470
-0.001334838 -0.00033418823 0.46100003 4284756257
0.00016354831 -0.00033636298 0.46400002 4283639059
0.001685023 -0.00033926265 0.46800002 4282133023
0.0032324817 -0.00034216236 0.47200003 4282202927
0.0047958279 -0.00034433711 0.47500002 4288065434
0.0063786623 -0.00034651186 0.47800002 4287343508
0.0079643913 -0.0003479617 0.48000002 4287861379
0.0095432736 -0.00034868665 0.48100004 4283313186
0.011128651 -0.00034941154 0.48200002 4283968024
0.012720523 -0.00035013646 0.48300001 4285083939
0.014318894 -0.0003508614 0.48400003 4287842366
0.015890928 -0.0003508614 0.48400003 4287514428
-0.014521649 0.0011409303 0.45200002 4281018124
-0.013024674 0.0011384061 0.45100003 4284038183
-0.011559824 0.0011384061 0.45100003 4284888613
-0.010094976 0.0011384061 0.45100003 4286001186
-0.0086492617 0.0011409303 0.45200002 4286200621
-0.0072129401 0.0011459787 0.45400003 4286936162
-0.0057509872 0.0011485028 0.45500001 4284433720
-0.0042919298 0.0011535512 0.45700002 4284561193
-0.0028198797 0.0011585996 0.45900002 4284756255
-0.0013377335 0.0011661721 0.46200001 4286598461
0.00016390078 0.0011737447 0.46500003 4282323463
0.0016886235 0.0011838414 0.46900001 4280821278
0.0032393301 0.0011939381 0.47300002 4281545774
0.0048059244 0.0012015107 0.47600001 4282274884
0.0063920072 0.0012090832 0.47900003 4287344025
0.0079809846 0.0012141316 0.48100004 4288455833
0.0095829545 0.0012191799 0.48300001 4283051299
0.011174828 0.0012217042 0.48400003 4284229400
0.01274686 0.0012217042 0.48400003 4285872426
0.014348478 0.0012242283 0.48500001 4288236863
0.015923759 0.0012242283 0.48500001 4287382839
-0.01627275 0.0026557108 0.46000001 4281676308
-0.014553776 0.0026152977 0.45300001 4282136092
-0.013053553 0.0026095244 0.45200002 4284431142
-0.011559824 0.0026037514 0.45100003 4285149730
-0.010094976 0.0026037514 0.45100003 4286001443
-0.0086492617 0.0026095244 0.45200002 4286134828
-0.0057509872 0.0026268442 0.45500001 4285283371
-0.0042919298 0.002638391 0.45700002 4284689951
-0.0028198797 0.0026499375 0.45900002 4285346847
-0.0013377335 0.0026672573 0.46200001 4284559646
0.00016425326 0.0026903504 0.46600002 4285356621
0.0016922239 0.0027134437 0.47000003 4284772706
0.0032461786 0.0027365368 0.47400004 4280363294
0.0048160208 0.0027538566 0.47700003 4280496938
0.0064053512 0.0027711764 0.48000002 4287343258
0.0079975771 0.0027827229 0.48200002 4287863946
0.0096027954 0.0027942697 0.48400003 4282721049
0.011197916 0.0028000427 0.48500001 4284951841
0.012799534 0.0028058162 0.48600003 4285215009
0.014378063 0.0028058162 0.48600003 4286920487
0.015989425 0.0028115895 0.48700002 4287775544
0.01764336 0.002823136 0.48900002 4284300333
-0.016201999 0.0041322531 0.45800003 4281018126
-0.014553776 0.0040871408 0.45300001 4280489472
-0.013053553 0.0040781186 0.45200002 4285085220
-0.011559824 0.0040690964 0.45100003 4285739039
-0.010094976 0.0040690964 0.45100003 4286922797
-0.0086492617 0.0040781186 0.45200002 4285476637
-0.0071970522 0.0040871408 0.45300001 4285084707
-0.0057509872 0.0041051856 0.45500001 4284689951
-0.0042919298 0.0041232305 0.45700002 4284820765
-0.0028198797 0.0041412753 0.45900002 4285280541
-0.001340629 0.004177365 0.46300003 4283247643
0.00016425326 0.004204432 0.46600002 4285692005
0.0016922239 0.0042405217 0.47000003 4281746228
0.0032530271 0.0042856336 0.47500002 4283917910
0.0048261173 0.0043127006 0.47800002 4280432426
0.0064186961 0.0043397681 0.48100004 4287540889
0.008030762 0.0043668351 0.48400003 4283451965
0.0096226353 0.0043758573 0.48500001 4284166696
0.011221006 0.00438488 0.48600003 4284820253
0.01282587 0.0043939021 0.48700002 4285412129
0.014407647 0.0043939021 0.48700002 4285673246
0.016022258 0.0044029248 0.48800004 4285540892
0.01764336 0.004411947 0.48900002 4284632896
-0.01765096 0.0056080702 0.45700002 4280691466
-0.016131248 0.0055957991 0.45600003 4280558093
-0.014553776 0.0055589844 0.45300001 4281672722
-0.013053553 0.0055467128 0.45200002 4285215777
-0.011559824 0.0055344417 0.45100003 4285870109
-0.010094976 0.0055344417 0.45100003 4286593573
-0.0086492617 0.0055467128 0.45200002 4284818707
-0.0071970522 0.0055589844 0.45300001 4285941301
-0.0057509872 0.005583527 0.45500001 4283704341
-0.0042919298 0.0056080702 0.45700002 4284491288
-0.0028260231 0.0056448844 0.46000001 4285412388
-0.001340629 0.0056816991 0.46300003 4284763450
0.00016460572 0.005730785 0.46700001 4282533168
0.0016958244 0.0057798713 0.47100002 4287800201
0.0032530271 0.0058289571 0.47500002 4281482790
0.0048362138 0.0058780434 0.47900003 4281088811
0.0064320406 0.0059148576 0.48200002 4288657573
0.0080473544 0.0059516719 0.48500001 4282789156
0.0096424762 0.0059639434 0.48600003 4284033567
0.011267182 0.0059884866 0.48800004 4284951578
0.012852207 0.0059884866 0.48800004 4285411357
0.014437232 0.0059884866 0.48800004 4285478435
0.016022258 0.0059884866 0.48800004 4284627247
-0.017612338 0.0070773899 0.45600003 4280493833
-0.016060498 0.0070463484 0.45400003 4280359429
-0.014521649 0.007015307 0.45200002 4284893753
-0.013053553 0.007015307 0.45200002 4285740322
-0.011559824 0.0069997869 0.45100003 4286724391
-0.010094976 0.0069997869 0.45100003 4286263073
-0.0086492617 0.007015307 0.45200002 4284621330
-0.0057509872 0.0070618689 0.45500001 4283573014
-0.0042919298 0.0070929099 0.45700002 4285017632
-0.0028260231 0.0071394718 0.46000001 4285215523
-0.001340629 0.0071860338 0.46300003 4282329627
0.00016460572 0.0072481157 0.46700001 4281477921
0.0016958244 0.0073101982 0.47100002 4287403897
0.0032598756 0.0073878011 0.47600001 4287072865
0.0048463102 0.0074498835 0.48000002 4285427788
0.0064453846 0.0074964454 0.48300001 4286414183
0.0080639469 0.0075430074 0.48600003 4283376667
0.0096821571 0.0075740488 0.48800004 4284623390
0.011290271 0.0075895688 0.48900002 4285015318
0.012878543 0.0075895688 0.48900002 4286134567
0.014466817 0.0075895688 0.48900002 4286082138
-0.017573714 0.0085402103 0.45500001 4280822800
-0.013024674 0.0084651317 0.45100003 4286264356
-0.011559824 0.0084651317 0.45100003 4287775796
-0.010094976 0.0084651317 0.45100003 4287644726
-0.0086492617 0.0084839016 0.45200002 4286789417
-0.0071970522 0.0085026706 0.45300001 4285675562
-0.0057509872 0.0085402103 0.45500001 4284228632
-0.0042919298 0.0085777501 0.45700002 4284820255
-0.0028260231 0.0086340588 0.46000001 4285413674
-0.0013435245 0.0087091373 0.46400002 4282461725
0.0001649582 0.0087842168 0.46800002 4281871134
0.0016994249 0.0088592954 0.47200003 4282465572
0.0032667241 0.0089531438 0.47700003 4281675791
0.0048564067 0.0090282224 0.48100004 4283057957
0.006472074 0.009103301 0.48500001 4281609234
0.0080805393 0.0091408407 0.48700002 4284097564
0.009701997 0.0091783805 0.48900002 4285279521
0.011313358 0.0091971494 0.49000001 4285606685
0.012904879 0.0091971494 0.49000001 4285279006
-0.014489522 0.0099304765 0.45100003 4285940529
-0.013024674 0.0099304765 0.45100003 4286790954
-0.011559824 0.0099304765 0.45100003 4287116835
-0.010117359 0.0099524958 0.45200002 4287971115
-0.0086492617 0.0099524958 0.45200002 4288299056
-0.0072129401 0.0099965334 0.45400003 4287642411
-0.0057509872 0.010018552 0.45500001 4287906355
-0.0043013212 0.010084609 0.45800003 4288895054
-0.0028321669 0.010150664 0.46100003 4285608486
-0.0013435245 0.01021672 0.46400002 4282264350
0.0001649582 0.010304797 0.46800002 4281475863
0.0017030254 0.01041489 0.47300002 4282662697
0.0032735725 0.010524984 0.47800002 4281281548
0.0048665032 0.01061306 0.48200002 4281413134
0.0064854184 0.010701135 0.48600003 4281936400
0.0080971317 0.010745172 0.48800004 4284951841
0.009701997 0.010767191 0.48900002 4285672994
0.011313358 0.010789209 0.49000001 4286000932
0.012931216 0.010811228 0.49100003 4285806633
-0.014489522 0.011395821 0.45100003 4285544490
-0.013024674 0.011395821 0.45100003 4286263325
-0.011559824 0.011395821 0.45100003 4287116835
-0.010117359 0.011421089 0.45200002 4287445030
-0.0086683976 0.011446357 0.45300001 4287246370
-0.0072129401 0.011471625 0.45400003 4292580232
-0.0057636271 0.011522161 0.45600003 4287184175
-0.0043013212 0.011572697 0.45800003 4287840560
-0.0028321669 0.0116485 0.46100003 4284949273
-0.0013435245 0.011724303 0.46400002 4282396449
0.0001649582 0.011825375 0.46800002 4283319864
0.0017030254 0.011951715 0.47300002 4282597937
0.0032872695 0.012128591 0.48000002 4283255604
0.0048765996 0.012204394 0.48300001 4285622355
0.0064987629 0.012305466 0.48700002 4282787092
0.0081137242 0.012356001 0.48900002 4285739811
0.0097218379 0.012381269 0.49000001 4286132000
0.011336448 0.012406537 0.49100003 4286526760
0.012931216 0.012406537 0.49100003 4288638046
-0.020439155 0.0129182 0.45300001 4281483054
-0.018925941 0.012889684 0.45200002 4281021987
-0.017419221 0.012861167 0.45100003 4281547818
-0.015954372 0.012861167 0.45100003 4283906345
-0.014489522 0.012861167 0.45100003 4284953638
-0.013024674 0.012861167 0.45100003 4286066977
-0.011585455 0.012889684 0.45200002 4286394143
-0.010117359 0.012889684 0.45200002 4286918688
-0.0086683976 0.0129182 0.45300001 4287247142
-0.0072129401 0.012946718 0.45400003 4286591018
-0.0057636271 0.013003753 0.45600003 4292383632
-0.0043107127 0.013089303 0.45900002 4287907128
-0.0028321669 0.013146337 0.46100003 4285080341
-0.00134642 0.013260406 0.46500003 4281475345
0.0001649582 0.013345956 0.46800002 4282201896
0.0017354296 0.013745194 0.48200002 4283322430
0.0033009665 0.013745194 0.48200002 4284177221
0.0048967926 0.013830745 0.48500001 4285751890
0.0064987629 0.013887779 0.48700002 4283440915
0.0081137242 0.013944813 0.48900002 4286132000
0.0097218379 0.013973329 0.49000001 4286853924
0.011336448 0.014001847 0.49100003 4286724137
-0.020348918 0.014326513 0.45100003 4287014545
-0.01888407 0.014326513 0.45100003 4287015058
-0.017419221 0.014326513 0.45100003 4287408533
-0.015954372 0.014326513 0.45100003 4283381032
-0.014489522 0.014326513 0.45100003 4284559909
-0.013024674 0.014326513 0.45100003 4285345053
-0.011585455 0.014358278 0.45200002 4285672473
-0.010139743 0.014390044 0.45300001 4286197534
-0.0086875334 0.014421811 0.45400003 4286524959
-0.0072288276 0.014453577 0.45500001 4287312681
-0.0057762661 0.014517109 0.45700002 4287575853
-0.0043107127 0.014580641 0.45900002 4287709231
-0.0028444538 0.014707706 0.46300003 4287185969
-0.0013493155 0.014803004 0.46600002 4281276941
0.00016531067 0.014898302 0.46900001 4281741345
0.0017318293 0.015279496 0.48100004 4282001176
0.0033009665 0.015311262 0.48200002 4286270014
0.0048967926 0.01540656 0.48500001 4284161040
0.0064987629 0.015470092 0.48700002 4285935396
0.0081137242 0.015533624 0.48900002 4286854440
0.0097218379 0.01556539 0.49000001 4286985510
0.011336448 0.015597157 0.49100003 4286069807
-0.020348918 0.015791858 0.45100003 4286818449
-0.018842198 0.015756842 0.45000002 4286555277
-0.017419221 0.015791858 0.45100003 4287409305
-0.015954372 0.015791858 0.45100003 4283644719
-0.014489522 0.015791858 0.45100003 4283837472
-0.013053553 0.015826873 0.45200002 4284950556
-0.011611087 0.015861887 0.45300001 4284686099
-0.010139743 0.015861887 0.45300001 4285605658
-0.0086875334 0.015896903 0.45400003 4286131489
-0.0072447155 0.015966933 0.45600003 4286787620
-0.005788906 0.016036965 0.45800003 4287049763
-0.0043294956 0.016142009 0.46100003 4287182628
-0.0028505973 0.016247055 0.46400002 4286988590
-0.0013551066 0.016387116 0.46800002 4280947724
0.00016601563 0.016492162 0.47100002 4281411355
0.0017246283 0.016772283 0.47900003 4286466110
0.003294118 0.016842313 0.48100004 4287579964
0.0048866961 0.016947359 0.48400003 4290804075
0.0064987629 0.017052405 0.48700002 4286790702
0.0080971317 0.01708742 0.48800004 4287379757
0.009701997 0.017122434 0.48900002 4287577136
0.011313358 0.01715745 0.49000001 4285219123
-0.018842198 0.017218938 0.45000002 4287212437
-0.017380595 0.017218938 0.45000002 4287869854
-0.015954372 0.017257202 0.45100003 4283382063
-0.014521649 0.017295467 0.45200002 4283904548
-0.013082432 0.017333731 0.45300001 4284491804
-0.011611087 0.017333731 0.45300001 4284688156
-0.010162126 0.017371995 0.45400003 4284686873
-0.0087066684 0.01741026 0.45500001 4285476387
-0.0072606024 0.017486788 0.45700002 4285935650
-0.0058015455 0.017563317 0.45900002 4286988338
-0.0043388871 0.01767811 0.46200001 4286593580
-0.002856741 0.017792903 0.46500003 4287913304
-0.0013580021 0.017945958 0.46900001 4282198053
0.0001663681 0.018060753 0.47200003 4283511596
0.0017210278 0.018290337 0.47800002 4286395690
0.003294118 0.018405132 0.48100004 4287972151
0.0048866961 0.018519925 0.48400003 4292976271
0.0064854184 0.018596454 0.48600003 4286987311
0.0080805393 0.018634716 0.48700002 4287249970
0.0096821571 0.018672982 0.48800004 4290409322
0.011313358 0.018749509 0.49000001 4289569937
-0.018842198 0.018681033 0.45000002 4287015058
-0.017419221 0.018722547 0.45100003 4287607195
-0.015989747 0.01876406 0.45200002 4282922287
-0.014553776 0.018805573 0.45300001 4284101675
-0.013082432 0.018805573 0.45300001 4284757029
-0.011636719 0.018847087 0.45400003 4284690466
-0.01018451 0.0188886 0.45500001 4284295195
-0.0087258043 0.018930115 0.45600003 4285150504
-0.0072764903 0.01901314 0.45800003 4285412904
-0.0058141849 0.019096168 0.46000001 4285676076
-0.004348279 0.019220708 0.46300003 4285478181
-0.0028628844 0.019345248 0.46600002 4289494898
-0.0013608977 0.019511301 0.47000003 4286676340
0.00016672058 0.019635841 0.47300002 4284103735
0.0017210278 0.019843409 0.47800002 4287908161
0.003294118 0.019967949 0.48100004 4288170300
0.0048765996 0.020050975 0.48300001 4287906612
0.006472074 0.020134002 0.48500001 4293172623
0.0080639469 0.020175517 0.48600003 4294962652
0.0096623162 0.020217029 0.48700002 4288901214
-0.018842198 0.020143129 0.45000002 4287015060
-0.017419221 0.020187892 0.45100003 4287146646
-0.01602512 0.020277416 0.45300001 4287732621
-0.014585904 0.020322179 0.45400003 4284632132
-0.013140191 0.020366941 0.45500001 4284232230
-0.01166235 0.020366941 0.45500001 4284363044
-0.010206894 0.020411704 0.45600003 4284757290
-0.0087640751 0.02050123 0.45800003 4283969317
-0.0072923778 0.020545991 0.45900002 4284891706
-0.0058268243 0.020635517 0.46100003 4284231976
-0.0043576704 0.020769805 0.46400002 4284295454
-0.0028690279 0.02090409 0.46700001 4286928973
-0.0013608977 0.02103838 0.47000003 4288326553
0.00016672058 0.021172667 0.47300002 4284443739
0.0017174273 0.021351717 0.47700003 4288305488
0.0032872695 0.021486005 0.48000002 4287184175
0.0048665032 0.021575529 0.48200002 4288168242
0.0064587295 0.021665055 0.48400003 4287772716
0.0080639469 0.02175458 0.48600003 4288036665
0.0096623162 0.021799341 0.48700002 4287971126
0.011244093 0.021799341 0.48700002 4285941816
-0.016095873 0.021845285 0.45500001 4287540119
-0.014618032 0.021845285 0.45500001 4282993470
-0.013169071 0.021893296 0.45600003 4284561456
-0.011713613 0.021941308 0.45700002 4285153078
-0.010251661 0.021989319 0.45800003 4284432437
-0.008783211 0.022037331 0.45900002 4288916632
-0.0073082652 0.022085343 0.46000001 4289313448
-0.0058394638 0.022181366 0.46200001 4283648317
-0.0043576704 0.022277389 0.46400002 4284362792
-0.0028690279 0.022421423 0.46700001 4284297253
-0.0013608977 0.02256546 0.47000003 4288458909
0.00016672058 0.022709493 0.47300002 4287999643
0.0017174273 0.022901541 0.47700003 4285939250
0.0032872695 0.023045575 0.48000002 4287906101
0.0048665032 0.023141598 0.48200002 4288298286
0.0064587295 0.023237621 0.48400003 4288495665
0.0080473544 0.023285633 0.48500001 4288561203
0.0096424762 0.023333644 0.48600003 4289022011
0.011221006 0.023333644 0.48600003 4287054647
-0.016131248 0.023374887 0.45600003 4287343771
-0.014682286 0.023426147 0.45700002 4287341715
-0.01319795 0.023426147 0.45700002 4284760120
-0.011739245 0.023477409 0.45800003 4284626734
-0.010274044 0.023528669 0.45900002 4283117090
-0.008802346 0.023579929 0.46000001 4289114526
-0.0073241526 0.023631191 0.46100003 4287672475
-0.0058521037 0.023733713 0.46300003 4283984217
-0.0043670619 0.023836233 0.46500003 4284035112
-0.0028690279 0.023938753 0.46700001 4285150765
-0.0013608977 0.024092536 0.47000003 4289366394
0.00016672058 0.024246318 0.47300002 4286338889
0.0017138268 0.0244001 0.47600001 4287579446
0.003280421 0.024553884 0.47900003 4288828482
0.0048564067 0.024656406 0.48100004 4288759607
0.0064453846 0.024758926 0.48300001 4288364849
0.008030762 0.024810188 0.48400003 4287377954
0.0096424762 0.024912708 0.48600003 4287246370
0.011221006 0.024912708 0.48600003 4286594870
-0.016201999 0.024965497 0.45800003 4287212955
-0.014714414 0.024965497 0.45800003 4287870115
-0.01325571 0.025020007 0.45900002 4283579444
-0.011764877 0.025020007 0.45900002 4284562224
-0.010296428 0.025074515 0.46000001 4284757550
-0.0088214818 0.025129026 0.46100003 4289965470
-0.0073400401 0.025183534 0.46200001 4287804063
-0.0058521037 0.025238046 0.46300003 4288396459
-0.0043670619 0.025347065 0.46500003 4284634188
-0.0028690279 0.025456084 0.46700001 4284034599
-0.0013608977 0.025619615 0.47000003 4286529073
0.00016672058 0.025783144 0.47300002 4288171070
0.0017138268 0.025946673 0.47600001 4290077777
0.0032735725 0.026055692 0.47800002 4288431666
0.0048564067 0.026219223 0.48100004 4288035368
0.0064320406 0.026273731 0.48200002 4287510310
0.008030762 0.026382752 0.48400003 4286328350
0.0096226353 0.02643726 0.48500001 4286789419
0.011221006 0.026491772 0.48600003 4284365874
-0.016237374 0.026511343 0.45900002 4287475357
-0.014778669 0.026569102 0.46000001 4287738531
-0.013284588 0.026569102 0.46000001 4284635472
-0.011816139 0.026626863 0.46100003 4284694327
-0.010318811 0.026626863 0.46100003 4285611062
-0.0088406177 0.026684619 0.46200001 4287720803
-0.007355928 0.02674238 0.46300003 4287934875
-0.0058647431 0.026800139 0.46400002 4287540889
-0.0043670619 0.026857898 0.46500003 4289442724
-0.0028690279 0.026973415 0.46700001 4283247911
-0.0013608977 0.027146691 0.47000003 4286131235
0.0001663681 0.027262211 0.47200003 4287840819
0.0017102263 0.027435487 0.47500002 4288168242
0.0032735725 0.027608763 0.47800002 4288234033
0.0048463102 0.027724281 0.48000002 4286788901
0.0064320406 0.027839798 0.48200002 4286330408
0.0080141686 0.027897557 0.48300001 4285544492
0.0096226353 0.028013075 0.48500001 4284954669
-0.016237374 0.028002681 0.45900002 4287606943
-0.014810797 0.028124698 0.46100003 4287804324
-0.013313469 0.028124698 0.46100003 4288784794
-0.01184177 0.028185705 0.46200001 4283973171
-0.010341194 0.028185705 0.46200001 4284559657
-0.0088597536 0.028246714 0.46300003 4284689960
-0.007355928 0.028246714 0.46300003 4285483841
-0.0058647431 0.028307721 0.46400002 4285618505
-0.0043670619 0.02836873 0.46500003 4286005559
-0.0028690279 0.028490745 0.46700001 4286988086
-0.0013580021 0.028612761 0.46900001 4291922808
0.00016601563 0.028734777 0.47100002 4287710003
0.0017066259 0.028917802 0.47400004 4287511600
0.0032667241 0.029100826 0.47700003 4285805350
0.0048463102 0.02928385 0.48000002 4284564538
0.0064186961 0.029344859 0.48100004 4284698437
0.0080141686 0.029466873 0.48300001 4287072890
-0.014842924 0.029686792 0.46200001 4287607713
-0.013342348 0.029686792 0.46200001 4289445038
-0.01184177 0.029686792 0.46200001 4283449653
-0.010363579 0.029751049 0.46300003 4284231206
-0.0088597536 0.029751049 0.46300003 4285414453
-0.0073718154 0.029815305 0.46400002 4284950052
-0.0058773826 0.029879564 0.46500003 4285476135
-0.0043764533 0.02994382 0.46600002 4286131748
-0.0028690279 0.030008078 0.46700001 4286722856
-0.0013551066 0.030072335 0.46800002 4287050022
0.00016566315 0.03020085 0.47000003 4287971894
0.0016994249 0.030329363 0.47200003 4286069037
0.0032667241 0.030650649 0.47700003 4289830541
0.0048362138 0.030779164 0.47900003 4287144332
0.0064186961 0.030907677 0.48100004 4287276431
-0.014875052 0.031255383 0.46300003 4287607713
-0.013371228 0.031255383 0.46300003 4288591782
-0.011867403 0.031255383 0.46300003 4283056694
-0.010385961 0.031322889 0.46400002 4284165415
-0.0088788886 0.031322889 0.46400002 4285085488
-0.0073718154 0.031322889 0.46400002 4284951328
-0.0058773826 0.031390395 0.46500003 4285279523
-0.0043764533 0.031457901 0.46600002 4285804064
-0.0028690279 0.031525407 0.46700001 4286527530
-0.0013551066 0.031592913 0.46800002 4286722084
0.00016531067 0.031660419 0.46900001 4287708981
0.0016958244 0.031795431 0.47100002 4284823081
-0.014875052 0.032759719 0.46300003 4287870115
-0.013400107 0.032830473 0.46400002 4288132004
-0.011893034 0.032830473 0.46400002 4283454795
-0.010385961 0.032830473 0.46400002 4284693042
-0.0088980244 0.032901227 0.46500003 4284560941
-0.0073877033 0.032901227 0.46500003 4285084972
-0.0058773826 0.032901227 0.46500003 4284229150
-0.0043764533 0.032971982 0.46600002 4284951837
-0.0028628844 0.032971982 0.46600002 4286004266
-0.001352211 0.033042736 0.46700001 4286464563
0.0001649582 0.033113495 0.46800002 4286595381
0.0016922239 0.033255003 0.47000003 4286610029
-0.014875052 0.03426405 0.46300003 4287805092
-0.013400107 0.034338053 0.46400002 4287805092
-0.011918666 0.03441206 0.46500003 4286354568
-0.010408346 0.03441206 0.46500003 4284498239
-0.0088980244 0.03441206 0.46500003 4284628534
-0.0073877033 0.03441206 0.46500003 4285088570
-0.005890022 0.034486063 0.46600002 4284956214
-0.0043764533 0.034486063 0.46600002 4284890419
-0.0028628844 0.034486063 0.46600002 4285284664
-0.001352211 0.034560069 0.46700001 4284431155
0.0001649582 0.034634072 0.46800002 4287990655
-0.013400107 0.035845637 0.46400002 4288002471
-0.011918666 0.035922892 0.46500003 4288134057
-0.010408346 0.035922892 0.46500003 4287603604
-0.0088980244 0.035922892 0.46500003 4284967264
-0.0074035903 0.036000147 0.46600002 4284571225
-0.005890022 0.036000147 0.46600002 4285097821
-0.0043764533 0.036000147 0.46600002 4285689697
-0.0028628844 0.036000147 0.46600002 4287664773
-0.001352211 0.036077399 0.46700001 4288262815
-0.011918666 0.037433725 0.46500003 4287935908
-0.010430729 0.037514228 0.46600002 4287935908
-0.0089171594 0.037514228 0.46600002 4287869602
-0.0074035903 0.037514228 0.46600002 4288001188
-0.005890022 0.037514228 0.46600002 4287672223
-0.0043764533 0.037514228 0.46600002 4287672475
0.0017658919 0.006449284 0.4708057 4294967295
0.0017658919 0.006449284 0.4708057 4294901760
0.0017658919 0.006449284 0.4713057 4294901760
0.0017658919 0.006449284 0.47180569 4294901760
0.0017658919 0.006449284 0.47230572 4294901760
0.0017658919 0.006449284 0.47280571 4294901760
0.0017658919 0.006449284 0.4733057 4294901760
0.0017658919 0.006449284 0.4738057 4294901760
0.0017658919 0.006449284 0.47430572 4294901760
0.0017658919 0.006449284 0.47480571 4294901760
0.0017658919 0.006449284 0.47530571 4294901760
0.0017658919 0.006449284 0.4758057 4294901760
0.0017658919 0.006449284 0.47630569 4294901760
0.0017658919 0.006449284 0.47680572 4294901760
0.0017658919 0.006449284 0.47730571 4294901760
0.0017658919 0.006449284 0.4778057 4294901760
0.0017658919 0.006449284 0.4783057 4294901760
0.0017658919 0.006449284 0.47880572 4294901760
0.0017658919 0.006449284 0.47930571 4294901760
0.0017658919 0.006449284 0.47980571 4294901760
0.0017658919 0.006449284 0.4803057 4294901760
0.0017658919 0.006449284 0.4808057 4294901760
0.0017658919 0.006449284 0.48130572 4294901760
0.0017658919 0.006449284 0.48180571 4294901760
0.0017658919 0.006449284 0.48230571 4294901760
0.0017658919 0.006449284 0.4828057 4294901760
0.0017658919 0.006449284 0.48330569 4294901760
0.0017658919 0.006449284 0.48380572 4294901760
0.0017658919 0.006449284 0.48430571 4294901760
0.0017658919 0.006449284 0.4848057 4294901760
0.0017658919 0.006449284 0.4853057 4294901760
0.0017658919 0.006449284 0.48580572 4294901760
0.0017658919 0.006449284 0.48630571 4294901760
0.0017658919 0.006449284 0.48680571 4294901760
0.0017658919 0.006449284 0.4873057 4294901760
0.0017658919 0.006449284 0.48780572 4294901760
0.0017658919 0.006449284 0.48830572 4294901760
0.0017658919 0.006449284 0.48880571 4294901760
0.0017658919 0.006449284 0.4893057 4294901760
0.0017658919 0.006449284 0.4898057 4294901760
0.0017658919 0.006449284 0.49030572 4294901760
0.0017658919 0.006449284 0.49080572 4294901760
0.0017658919 0.006449284 0.49130571 4294901760
0.0017658919 0.006449284 0.4918057 4294901760
0.0017658919 0.006449284 0.4923057 4294901760
0.0017658919 0.006449284 0.49280572 4294901760
0.0017658919 0.006449284 0.49330571 4294901760
0.0017658919 0.006449284 0.49380571 4294901760
0.0017658919 0.006449284 0.4943057 4294901760
0.0017658919 0.006449284 0.49480572 4294901760
0.0017658919 0.006449284 0.49530572 4294901760
0.0017658919 0.006449284 0.49580571 4294901760
0.0017658919 0.006449284 0.4963057 4294901760
0.0017658919 0.006449284 0.4968057 4294901760
0.0017658919 0.006449284 0.49730572 4294901760
0.0017658919 0.006449284 0.49780571 4294901760
0.0017658919 0.006449284 0.49830571 4294901760
0.0017658919 0.006449284 0.4988057 4294901760
0.0017658919 0.006449284 0.49930573 4294901760
0.0017658919 0.006449284 0.49980572 4294901760
0.0017658919 0.006449284 0.50030571 4294901760
0.0017658919 0.006449284 0.50080574 4294901760
0.0017658919 0.006449284 0.5013057 4294901760
0.0017658919 0.006449284 0.50180572 4294901760
0.0017658919 0.006449284 0.50230569 4294901760
0.0017658919 0.006449284 0.50280571 4294901760
0.0017658919 0.006449284 0.50330573 4294901760
0.0017658919 0.006449284 0.5038057 4294901760
0.0017658919 0.006449284 0.50430572 4294901760
0.0017658919 0.006449284 0.50480568 4294901760
0.0017658919 0.006449284 0.50530571 4294901760
0.0017658919 0.006449284 0.50580573 4294901760
0.0017658919 0.006449284 0.50630569 4294901760
0.0017658919 0.006449284 0.50680572 4294901760
0.0017658919 0.006449284 0.50730574 4294901760
0.0017658919 0.006449284 0.50780571 4294901760
0.0017658919 0.006449284 0.50830573 4294901760
0.0017658919 0.006449284 0.50880569 4294901760
0.0017658919 0.006449284 0.50930572 4294901760
0.0017658919 0.006449284 0.50980574 4294901760
0.0017658919 0.006449284 0.5103057 4294901760
0.0017658919 0.006449284 0.51080573 4294901760
0.0017658919 0.006449284 0.51130569 4294901760
0.0017658919 0.006449284 0.51180571 4294901760
0.0017658919 0.006449284 0.51230574 4294901760
0.0017658919 0.006449284 0.5128057 4294901760
0.0017658919 0.006449284 0.51330572 4294901760
0.0017658919 0.006449284 0.51380575 4294901760
0.0017658919 0.006449284 0.51430571 4294901760
0.0017658919 0.006449284 0.51480573 4294901760
0.0017658919 0.006449284 0.5153057 4294901760
0.0017658919 0.006449284 0.51580572 4294901760
0.0017658919 0.006449284 0.51630574 4294901760
0.0017658919 0.006449284 0.51680571 4294901760
0.0017658919 0.006449284 0.51730573 4294901760
0.0017658919 0.006449284 0.5178057 4294901760
0.0017658919 0.006449284 0.51830572 4294901760
0.0017658919 0.006449284 0.51880574 4294901760
0.0017658919 0.006449284 0.51930571 4294901760
0.0017658919 0.006449284 0.51980573 4294901760
0.0017658919 0.006449284 0.52030569 4294901760
0.0017658919 0.006449284 0.52080572 4294901760
0.0017658919 0.006449284 0.4708057 4278255360
0.0013603014 0.0063919602 0.47109243 4278255360
0.00095471099 0.0063346364 0.47137916 4278255360
0.0005491206 0.0062773125 0.47166589 4278255360
0.00014353008 0.0062199887 0.47195259 4278255360
-0.00026206044 0.0061626649 0.47223932 4278255360
-0.00066765072 0.006105341 0.47252604 4278255360
-0.0010732412 0.0060480172 0.47281277 4278255360
-0.0014788317 0.0059906933 0.4730995 4278255360
-0.0018844223 0.0059333695 0.47338623 4278255360
-0.0022900128 0.0058760461 0.47367293 4278255360
-0.0026956033 0.0058187223 0.47395965 4278255360
-0.0031011933 0.0057613985 0.47424638 4278255360
-0.0035067839 0.0057040746 0.47453311 4278255360
-0.0039123744 0.0056467508 0.47481984 4278255360
-0.0043179654 0.005589427 0.47510657 4278255360
-0.0047235554 0.0055321031 0.47539327 4278255360
-0.0051291459 0.0054747793 0.47567999 4278255360
-0.0055347364 0.0054174555 0.47596672 4278255360
-0.005940327 0.0053601316 0.47625345 4278255360
-0.0063459175 0.0053028078 0.47654018 4278255360
-0.0067515075 0.0052454839 0.47682691 4278255360
-0.0071570985 0.0051881601 0.4771136 4278255360
-0.0075626886 0.0051308363 0.47740033 4278255360
-0.0079682786 0.0050735129 0.47768706 4278255360
-0.0083738696 0.0050161891 0.47797379 4278255360
-0.0087794596 0.0049588652 0.47826052 4278255360
-0.0091850506 0.0049015414 0.47854725 4278255360
-0.0095906407 0.0048442176 0.47883397 4278255360
-0.0099962307 0.0047868937 0.47912067 4278255360
-0.010401823 0.0047295699 0.4794074 4278255360
-0.010807413 0.0046722461 0.47969413 4278255360
-0.011213003 0.0046149222 0.47998086 4278255360
-0.011618594 0.0045575984 0.48026758 4278255360
-0.012024184 0.0045002745 0.48055431 4278255360
-0.012429774 0.0044429507 0.48084101 4278255360
-0.012835365 0.0043856269 0.48112774 4278255360
-0.013240955 0.004328303 0.48141447 4278255360
-0.013646546 0.0042709792 0.4817012 4278255360
-0.014052136 0.0042136554 0.48198792 4278255360
-0.014457727 0.0041563315 0.48227465 4278255360
-0.014863316 0.0040990077 0.48256135 4278255360
-0.015268907 0.0040416839 0.48284808 4278255360
-0.015674498 0.00398436 0.48313481 4278255360
-0.016080089 0.0039270362 0.48342153 4278255360
-0.016485678 0.0038697128 0.48370826 4278255360
-0.016891269 0.0038123887 0.48399499 4278255360
-0.01729686 0.0037550651 0.48428169 4278255360
-0.017702449 0.0036977413 0.48456842 4278255360
-0.01810804 0.0036404175 0.48485515 4278255360
-0.018513631 0.0035830936 0.48514187 4278255360
-0.018919222 0.0035257698 0.4854286 4278255360
-0.019324811 0.0034684462 0.48571533 4278255360
-0.019730402 0.0034111224 0.48600203 4278255360
-0.020135993 0.0033537983 0.48628876 4278255360
-0.020541584 0.0032964745 0.48657548 4278255360
-0.020947173 0.0032391509 0.48686221 4278255360
-0.021352764 0.003181827 0.48714894 4278255360
-0.021758353 0.0031245032 0.48743567 4278255360
-0.022163944 0.0030671796 0.4877224 4278255360
-0.022569537 0.0030098555 0.4880091 4278255360
-0.022975126 0.0029525317 0.48829582 4278255360
-0.023380717 0.0028952078 0.48858255 4278255360
-0.023786306 0.0028378842 0.48886928 4278255360
-0.024191897 0.0027805604 0.48915601 4278255360
-0.024597486 0.0027232366 0.48944274 4278255360
-0.025003079 0.0026659125 0.48972943 4278255360
-0.02540867 0.0026085889 0.49001616 4278255360
-0.025814259 0.0025512651 0.49030289 4278255360
-0.02621985 0.0024939412 0.49058962 4278255360
-0.02662544 0.0024366174 0.49087635 4278255360
-0.027031031 0.002379294 0.49116307 4278255360
-0.027436621 0.0023219697 0.49144977 4278255360
-0.027842212 0.0022646459 0.4917365 4278255360
-0.028247802 0.002207322 0.49202323 4278255360
-0.028653393 0.0021499982 0.49230996 4278255360
-0.029058984 0.0020926748 0.49259669 4278255360
-0.029464573 0.002035351 0.49288341 4278255360
-0.029870164 0.0019780272 0.49317014 4278255360
-0.030275755 0.0019207029 0.49345684 4278255360
-0.030681346 0.0018633795 0.49374357 4278255360
-0.031086937 0.0018060557 0.4940303 4278255360
-0.031492524 0.0017487318 0.49431702 4278255360
-0.031898115 0.001691408 0.49460375 4278255360
-0.032303706 0.0016340842 0.49489048 4278255360
-0.032709297 0.0015767603 0.49517718 4278255360
-0.033114888 0.0015194365 0.49546391 4278255360
-0.033520479 0.0014621126 0.49575064 4278255360
-0.03392607 0.0014047888 0.49603736 4278255360
-0.034331657 0.0013474654 0.49632409 4278255360
-0.034737248 0.0012901416 0.49661082 4278255360
-0.035142843 0.0012328173 0.49689752 4278255360
-0.03554843 0.0011754935 0.49718425 4278255360
-0.035954021 0.0011181696 0.49747097 4278255360
-0.036359612 0.0010608463 0.4977577 4278255360
-0.036765203 0.0010035224 0.49804443 4278255360
-0.03717079 0.00094619859 0.49833116 4278255360
-0.037576385 0.00088887429 0.49861789 4278255360
-0.037981972 0.00083155092 0.49890459 4278255360
-0.038387563 0.00077422708 0.49919131 4278255360
-0.038793154 0.00071690325 0.49947804 4278255360
