# .PCD v0.7 - Point Cloud Data file format
VERSION 0.7
FIELDS x y z rgb
SIZE 4 4 4 4
TYPE F F F U
COUNT 1 1 1 1
WIDTH 1056
HEIGHT 1
VIEWPOINT 0 0 0 1 0 0 0
POINTS 1056
DATA ascii
0.061582208 0.061245337 0.33200002 4280891694
0.062660545 0.061245337 0.33200002 4280563751
0.063738875 0.061245337 0.33200002 4280173088
0.06481722 0.061245337 0.33200002 4279452443
0.060321633 0.062136319 0.33100003 4281220399
0.061396722 0.062136319 0.33100003 4280761132
0.062471811 0.062136319 0.33100003 4280499239
0.063546896 0.062136319 0.33100003 4279452697
0.064621985 0.062136319 0.33100003 4279059992
0.065895557 0.06232404 0.33200002 4279125531
0.060321633 0.063211769 0.33100003 4281417778
0.061396722 0.063211769 0.33100003 4280826923
0.062471811 0.063211769 0.33100003 4280303139
0.063546896 0.063211769 0.33100003 4279124502
0.064621985 0.063211769 0.33100003 4279059990
0.065895557 0.063402742 0.33200002 4279125531
0.060321633 0.064287223 0.33100003 4281154606
0.061396722 0.064287223 0.33100003 4280500006
0.062471811 0.064287223 0.33100003 4279779102
0.063546896 0.064287223 0.33100003 4279058968
0.064621985 0.064287223 0.33100003 4278928406
0.060139388 0.065165207 0.33000001 4280958511
0.061211228 0.065165207 0.33000001 4280633387
0.062283073 0.065165207 0.33000001 4279517725
0.063354909 0.065165207 0.33000001 4278928668
0.06442675 0.065165207 0.33000001 4278862873
0.057995707 0.066237405 0.33000001 4284246873
0.060139388 0.066237405 0.33000001 4281025583
0.061211228 0.066237405 0.33000001 4280963889
0.062283073 0.066237405 0.33000001 4279649311
0.063354909 0.066237405 0.33000001 4279126047
0.06442675 0.066237405 0.33000001 4278994461
0.057995707 0.067309611 0.33000001 4280365090
0.059067551 0.067309611 0.33000001 4280763178
0.060139388 0.067309611 0.33000001 4281685046
0.061211228 0.067309611 0.33000001 4280240416
0.062283073 0.067309611 0.33000001 4279584029
0.063354909 0.067309611 0.33000001 4279191838
0.06442675 0.067309611 0.33000001 4278863388
0.057995707 0.068381809 0.33000001 4281615155
0.059067551 0.068381809 0.33000001 4281290036
0.060139388 0.068381809 0.33000001 4281554743
0.061211228 0.068381809 0.33000001 4279976990
0.062283073 0.068381809 0.33000001 4279650076
0.063162923 0.068174601 0.32900003 4279126812
0.064231522 0.068174601 0.32900003 4279192351
0.065300114 0.068174601 0.32900003 4279126558
0.057995707 0.069454014 0.33000001 4282339392
0.059067551 0.069454014 0.33000001 4282408515
0.060139388 0.069454014 0.33000001 4280369702
0.061211228 0.069454014 0.33000001 4280371750
0.062094338 0.06924355 0.32900003 4279452443
0.063162923 0.06924355 0.32900003 4279060765
0.064231522 0.06924355 0.32900003 4279652904
0.065300114 0.06924355 0.32900003 4278270738
0.066166975 0.069033086 0.32800001 4279388705
0.057995707 0.070526227 0.33000001 4282405183
0.059067551 0.070526227 0.33000001 4281093679
0.060139388 0.070526227 0.33000001 4280435749
0.061211228 0.070526227 0.33000001 4281555509
0.062094338 0.070312507 0.32900003 4280898606
0.063162923 0.070312507 0.32900003 4279257631
0.064231522 0.070312507 0.32900003 4278468628
0.065300114 0.070312507 0.32900003 4284913264
0.066166975 0.070098795 0.32800001 4279255836
0.067232318 0.070098795 0.32800001 4279453215
0.068297662 0.070098795 0.32800001 4279912483
0.059067551 0.071598426 0.33000001 4280764460
0.060139388 0.071598426 0.33000001 4281554491
0.061211228 0.071598426 0.33000001 4281752892
0.062283073 0.071598426 0.33000001 4281490231
0.063162923 0.071381465 0.32900003 4280111658
0.064231522 0.071381465 0.32900003 4278928668
0.065101631 0.071164496 0.32800001 4281428288
0.066166975 0.071164496 0.32800001 4280703282
0.067232318 0.071164496 0.32800001 4279387935
0.068297662 0.071164496 0.32800001 4279453728
0.069151543 0.070947535 0.32700002 4279519008
0.070213631 0.070947535 0.32700002 4279780897
0.071275733 0.070947535 0.32700002 4280039194
0.059246548 0.072890848 0.33100003 4281684792
0.060139388 0.072670631 0.33000001 4281883454
0.061211228 0.072670631 0.33000001 4281883708
0.062283073 0.072670631 0.33000001 4281752892
0.063162923 0.072450422 0.32900003 4281294138
0.064231522 0.072450422 0.32900003 4279913768
0.065101631 0.072230205 0.32800001 4278928152
0.066166975 0.072230205 0.32800001 4283861859
0.067232318 0.072230205 0.32800001 4279453730
0.06808944 0.072009988 0.32700002 4279651107
0.069151543 0.072009988 0.32700002 4279190556
0.070213631 0.072009988 0.32700002 4279256349
0.071275733 0.072009988 0.32700002 4279584029
0.072337829 0.072009988 0.32700002 4280109090
0.073399924 0.072009988 0.32700002 4279844125
0.059246548 0.073966302 0.33100003 4282211136
0.060321633 0.073966302 0.33100003 4282015040
0.061211228 0.073742829 0.33000001 4282146878
0.062283073 0.073742829 0.33000001 4282016062
0.063162923 0.073519371 0.32900003 4281621817
0.064231522 0.073519371 0.32900003 4281424954
0.065101631 0.073295906 0.32800001 4280834098
0.066166975 0.073295906 0.32800001 4279520289
0.067232318 0.073295906 0.32800001 4279849256
0.06808944 0.073072441 0.32700002 4279586598
0.069151543 0.073072441 0.32700002 4279323426
0.070213631 0.073072441 0.32700002 4279059738
0.071275733 0.073072441 0.32700002 4279453980
0.072337829 0.073072441 0.32700002 4279519260
0.073399924 0.073072441 0.32700002 4279584799
0.074234307 0.072848976 0.32600001 4279781410
0.075293154 0.072848976 0.32600001 4279845920
0.060321633 0.075041756 0.33100003 4281950017
0.061211228 0.074815035 0.33000001 4281884478
0.062283073 0.074815035 0.33000001 4281950269
0.063162923 0.074588329 0.32900003 4282081855
0.064231522 0.074588329 0.32900003 4281884476
0.065101631 0.074361615 0.32800001 4281819196
0.066166975 0.074361615 0.32800001 4281162550
0.067232318 0.074361615 0.32800001 4280440108
0.06808944 0.074134901 0.32700002 4279059738
0.069151543 0.074134901 0.32700002 4279257885
0.070213631 0.074134901 0.32700002 4279323678
0.071275733 0.074134901 0.32700002 4279323678
0.072337829 0.074134901 0.32700002 4279125785
0.073175453 0.073908187 0.32600001 4279257371
0.074234307 0.073908187 0.32600001 4279059738
0.075293154 0.073908187 0.32600001 4279322910
0.076352 0.073908187 0.32600001 4279519519
0.077410847 0.073908187 0.32600001 4279649309
0.078469701 0.073908187 0.32600001 4279976477
0.062283073 0.07588724 0.33000001 4282147650
0.063162923 0.075657278 0.32900003 4282016062
0.064231522 0.075657278 0.32900003 4281621304
0.065101631 0.075427316 0.32800001 4281359159
0.066166975 0.075427316 0.32800001 4281424952
0.067027345 0.075197354 0.32700002 4281161778
0.06808944 0.075197354 0.32700002 4280701997
0.069151543 0.075197354 0.32700002 4279585051
0.070213631 0.075197354 0.32700002 4279388955
0.071275733 0.075197354 0.32700002 4279388957
0.072116606 0.074967392 0.32600001 4279388957
0.073175453 0.074967392 0.32600001 4279323164
0.074234307 0.074967392 0.32600001 4279125785
0.075293154 0.074967392 0.32600001 4279125785
0.076352 0.074967392 0.32600001 4279323164
0.077410847 0.074967392 0.32600001 4279323164
0.078469701 0.074967392 0.32600001 4279453726
0.079528548 0.074967392 0.32600001 4279715617
0.080834597 0.075197354 0.32700002 4279649311
0.081896693 0.075197354 0.32700002 4280107297
0.063162923 0.076726235 0.32900003 4281817913
0.064036287 0.076493025 0.32800001 4281817913
0.065101631 0.076493025 0.32800001 4281489718
0.066166975 0.076493025 0.32800001 4281489720
0.067027345 0.076259814 0.32700002 4281490233
0.06808944 0.076259814 0.32700002 4281358645
0.069151543 0.076259814 0.32700002 4280767020
0.070213631 0.076259814 0.32700002 4280636204
0.071275733 0.076259814 0.32700002 4280111143
0.072116606 0.076026604 0.32600001 4279651105
0.073175453 0.076026604 0.32600001 4279388957
0.074234307 0.076026604 0.32600001 4279388955
0.075293154 0.076026604 0.32600001 4279257883
0.076352 0.076026604 0.32600001 4279257885
0.077410847 0.076026604 0.32600001 4279192092
0.078469701 0.076026604 0.32600001 4278994713
0.079772502 0.076259814 0.32700002 4279059738
0.080834597 0.076259814 0.32700002 4279125531
0.081896693 0.076259814 0.32700002 4279387935
0.083212487 0.076493025 0.32800001 4279715617
0.084277831 0.076493025 0.32800001 4279843610
0.064036287 0.077558726 0.32800001 4281752890
0.065101631 0.077558726 0.32800001 4281819196
0.066166975 0.077558726 0.32800001 4281556026
0.067027345 0.077322267 0.32700002 4281490233
0.06808944 0.077322267 0.32700002 4281358647
0.069151543 0.077322267 0.32700002 4281226546
0.070213631 0.077322267 0.32700002 4281292850
0.071275733 0.077322267 0.32700002 4280964399
0.072337829 0.077322267 0.32700002 4281030962
0.073399924 0.077322267 0.32700002 4280374315
0.074462019 0.077322267 0.32700002 4279585312
0.075293154 0.077085808 0.32600001 4279256347
0.076352 0.077085808 0.32600001 4279388703
0.077648312 0.077322267 0.32700002 4279323678
0.078710407 0.077322267 0.32700002 4279257885
0.079772502 0.077322267 0.32700002 4279192092
0.080834597 0.077322267 0.32700002 4278928920
0.081896693 0.077322267 0.32700002 4279125531
0.083212487 0.077558726 0.32800001 4279256347
0.084277831 0.077558726 0.32800001 4279321627
0.085343175 0.077558726 0.32800001 4279519006
0.086408526 0.077558726 0.32800001 4280108578
0.087473869 0.077558726 0.32800001 4279252756
0.064036287 0.078624435 0.32800001 4281620282
0.065101631 0.078624435 0.32800001 4281686845
0.066166975 0.078624435 0.32800001 4281621052
0.067027345 0.078384727 0.32700002 4281555513
0.06808944 0.078384727 0.32700002 4281489718
0.069151543 0.078384727 0.32700002 4281621304
0.070213631 0.078384727 0.32700002 4281489718
0.071275733 0.078384727 0.32700002 4281292852
0.072337829 0.078384727 0.32700002 4280898608
0.073399924 0.078384727 0.32700002 4280899378
0.074462019 0.078384727 0.32700002 4280833585
0.075524122 0.078384727 0.32700002 4280570926
0.076586209 0.078384727 0.32700002 4280570926
0.077648312 0.078384727 0.32700002 4279651105
0.078710407 0.078384727 0.32700002 4278994713
0.079772502 0.078384727 0.32700002 4279257631
0.080834597 0.078384727 0.32700002 4279849768
0.081896693 0.078384727 0.32700002 4279388957
0.082958788 0.078384727 0.32700002 4278994199
0.084277831 0.078624435 0.32800001 4279190808
0.085343175 0.078624435 0.32800001 4279059222
0.086408526 0.078624435 0.32800001 4279387933
0.087473869 0.078624435 0.32800001 4279519006
0.088269278 0.078384727 0.32700002 4279845918
0.089331366 0.078384727 0.32700002 4280173858
0.065101631 0.079690143 0.32800001 4282934347
0.066166975 0.079690143 0.32800001 4282342722
0.067027345 0.079447187 0.32700002 4281751607
0.06808944 0.079447187 0.32700002 4281948986
0.069151543 0.079447187 0.32700002 4281686327
0.070213631 0.079447187 0.32700002 4281554741
0.071275733 0.079447187 0.32700002 4281358132
0.072337829 0.079447187 0.32700002 4281423925
0.073399924 0.079447187 0.32700002 4281227573
0.074462019 0.079447187 0.32700002 4281424950
0.075524122 0.079447187 0.32700002 4280239651
0.076586209 0.079447187 0.32700002 4281094960
0.077648312 0.079447187 0.32700002 4280503850
0.078710407 0.079447187 0.32700002 4280307752
0.079772502 0.079447187 0.32700002 4280176936
0.080834597 0.079447187 0.32700002 4279519519
0.081896693 0.079447187 0.32700002 4279257117
0.082958788 0.079447187 0.32700002 4279455264
0.08402089 0.079447187 0.32700002 4279323678
0.085082985 0.079447187 0.32700002 4279126299
0.086145088 0.079447187 0.32700002 4279126299
0.087207183 0.079447187 0.32700002 4278994199
0.088269278 0.079447187 0.32700002 4279388187
0.089331366 0.079447187 0.32700002 4279519006
0.09011703 0.079204224 0.32600001 4279715617
0.090896204 0.078961268 0.32500002 4279911713
0.069151543 0.08050964 0.32700002 4281685814
0.070428349 0.080755845 0.32800001 4281817913
0.0714937 0.080755845 0.32800001 4281489718
0.072559044 0.080755845 0.32800001 4281226546
0.073624387 0.080755845 0.32800001 4281160753
0.074689731 0.080755845 0.32800001 4281291569
0.075755075 0.080755845 0.32800001 4280433182
0.076820418 0.080755845 0.32800001 4281223981
0.077885762 0.080755845 0.32800001 4281358134
0.078710407 0.08050964 0.32700002 4281293368
0.079772502 0.08050964 0.32700002 4280702001
0.080834597 0.08050964 0.32700002 4280570415
0.081896693 0.08050964 0.32700002 4280506416
0.082958788 0.08050964 0.32700002 4279257631
0.08402089 0.08050964 0.32700002 4279192605
0.085082985 0.08050964 0.32700002 4278929433
0.086145088 0.08050964 0.32700002 4279126812
0.08694049 0.080263428 0.32600001 4279192605
0.087999336 0.080263428 0.32600001 4279192092
0.089058183 0.080263428 0.32600001 4279323164
0.089840598 0.080017224 0.32500002 4279256601
0.090616517 0.079771012 0.324 4279453980
0.091576524 0.078786194 0.32000002 4279649824
0.092615888 0.078786194 0.32000002 4280239653
0.093655244 0.078786194 0.32000002 4280171807
0.070428349 0.081821553 0.32800001 4282934086
0.0714937 0.081821553 0.32800001 4281684530
0.072559044 0.081821553 0.32800001 4281750837
0.073624387 0.081821553 0.32800001 4280500518
0.074689731 0.081821553 0.32800001 4280499239
0.075755075 0.081821553 0.32800001 4281552179
0.076820418 0.081821553 0.32800001 4281882171
0.077885762 0.081821553 0.32800001 4281161782
0.078951113 0.081821553 0.32800001 4280898610
0.079772502 0.081572101 0.32700002 4280963122
0.080834597 0.081572101 0.32700002 4281423927
0.081896693 0.081572101 0.32700002 4280768307
0.082958788 0.081572101 0.32700002 4280440108
0.083763942 0.08132264 0.32600001 4280045604
0.084822789 0.08132264 0.32600001 4279519773
0.085881643 0.08132264 0.32600001 4279061019
0.086673804 0.081073187 0.32500002 4279192605
0.087729409 0.081073187 0.32500002 4279257883
0.08851181 0.080823727 0.324 4279126297
0.089564167 0.080823727 0.324 4279126299
0.090336844 0.080574274 0.32300001 4278994713
0.090820089 0.080075361 0.32100001 4279125785
0.091576524 0.079825908 0.32000002 4279256601
0.092615888 0.079825908 0.32000002 4279584799
0.093655244 0.079825908 0.32000002 4279649822
0.0946946 0.079825908 0.32000002 4279911711
0.072780266 0.083139963 0.32900003 4284642397
0.073848851 0.083139963 0.32900003 4282078007
0.074917451 0.083139963 0.32900003 4281091628
0.075986043 0.083139963 0.32900003 4281948216
0.076820418 0.082887255 0.32800001 4281620021
0.077885762 0.082887255 0.32800001 4281093938
0.078951113 0.082887255 0.32800001 4279973408
0.079772502 0.082634553 0.32700002 4280168221
0.080834597 0.082634553 0.32700002 4280365854
0.081896693 0.082634553 0.32700002 4279840791
0.082705088 0.082381845 0.32600001 4280369702
0.083763942 0.082381845 0.32600001 4280898606
0.084822789 0.082381845 0.32600001 4280701997
0.085618205 0.082129143 0.32500002 4280374569
0.086673804 0.082129143 0.32500002 4279650846
0.087459467 0.081876434 0.324 4279585305
0.088238627 0.081623733 0.32300001 4279585305
0.089287736 0.081623733 0.32300001 4279454748
0.090057164 0.081371032 0.32200003 4279454748
0.090820089 0.081118323 0.32100001 4279323164
0.091576524 0.080865614 0.32000002 4279257371
0.092615888 0.080865614 0.32000002 4279257371
0.093655244 0.080865614 0.32000002 4279190554
0.0946946 0.080865614 0.32000002 4279256347
0.095733963 0.080865614 0.32000002 4279453213
0.096773326 0.080865614 0.32000002 4279582746
0.09811835 0.081118323 0.32100001 4280304672
0.099160962 0.081118323 0.32100001 4280763690
0.075986043 0.084208921 0.32900003 4282801730
0.076820418 0.083952963 0.32800001 4282145081
0.077885762 0.083952963 0.32800001 4281750333
0.078951113 0.083952963 0.32800001 4279774748
0.079772502 0.083697014 0.32700002 4280826405
0.080834597 0.083697014 0.32700002 4280826405
0.081896693 0.083697014 0.32700002 4281154856
0.082705088 0.083441056 0.32600001 4280168475
0.083763942 0.083441056 0.32600001 4280302114
0.0845626 0.083185099 0.32500002 4279974944
0.085618205 0.083185099 0.32500002 4280964653
0.08640711 0.082929142 0.324 4280833837
0.087189533 0.082673192 0.32300001 4280439079
0.088238627 0.082673192 0.32300001 4280307493
0.089011304 0.082417242 0.32200003 4280177190
0.089777477 0.082161285 0.32100001 4279256599
0.090537161 0.081905335 0.32000002 4279586334
0.091576524 0.081905335 0.32000002 4279717920
0.092326455 0.08164937 0.31900001 4279125783
0.093362562 0.08164937 0.31900001 4279388955
0.0946946 0.081905335 0.32000002 4279125785
0.095733963 0.081905335 0.32000002 4279059992
0.096773326 0.081905335 0.32000002 4279125785
0.09781269 0.081905335 0.32000002 4279321879
0.098852053 0.081905335 0.32000002 4279781149
0.099891409 0.081905335 0.32000002 4279779611
0.10061535 0.08164937 0.31900001 4280238629
0.077885762 0.085018672 0.32800001 4283985752
0.078951113 0.085018672 0.32800001 4282603845
0.079772502 0.084759474 0.32700002 4281748023
0.080834597 0.084759474 0.32700002 4279840026
0.081896693 0.084759474 0.32700002 4280234016
0.082705088 0.084500261 0.32600001 4280694051
0.083763942 0.084500261 0.32600001 4281747253
0.0845626 0.084241062 0.32500002 4280037405
0.08535476 0.083981857 0.324 4280037659
0.08640711 0.083981857 0.324 4280037657
0.087189533 0.083722658 0.32300001 4280042272
0.087965451 0.083463453 0.32200003 4280767022
0.088734865 0.083204247 0.32100001 4280833585
0.089497805 0.082945049 0.32000002 4280570924
0.090537161 0.082945049 0.32000002 4280308006
0.091290347 0.082685843 0.31900001 4280044834
0.092326455 0.082685843 0.31900001 4279125785
0.093362562 0.082685843 0.31900001 4279323164
0.094398677 0.082685843 0.31900001 4279323164
0.095434792 0.082685843 0.31900001 4279125785
0.096773326 0.082945049 0.32000002 4279059992
0.097507015 0.082685843 0.31900001 4279125785
0.09854313 0.082685843 0.31900001 4279321881
0.099579245 0.082685843 0.31900001 4279386904
0.10061535 0.082685843 0.31900001 4279517723
0.10133281 0.082426637 0.31800002 4279649313
0.10236568 0.082426637 0.31800002 4280173608
0.079772502 0.085821919 0.32700002 4284905057
0.080834597 0.085821919 0.32700002 4282537021
0.081896693 0.085821919 0.32700002 4280893479
0.082705088 0.085559465 0.32600001 4280432930
0.083763942 0.085559465 0.32600001 4280234014
0.0845626 0.085297011 0.32500002 4280036637
0.085618205 0.085297011 0.32500002 4280563753
0.086673804 0.085297011 0.32500002 4280761132
0.087729409 0.085297011 0.32500002 4280234784
0.088785 0.085297011 0.32500002 4279840026
0.088458441 0.083984755 0.32000002 4280040739
0.089497805 0.083984755 0.32000002 4280700204
0.090254232 0.083722293 0.31900001 4280438827
0.091290347 0.083722293 0.31900001 4280636719
0.092037037 0.083459847 0.31800002 4280440108
0.093069896 0.083459847 0.31800002 4279717152
0.094398677 0.083722293 0.31900001 4279453980
0.095434792 0.083722293 0.31900001 4279454750
0.096470907 0.083722293 0.31900001 4279323164
0.097507015 0.083722293 0.31900001 4279125785
0.09854313 0.083722293 0.31900001 4279388957
0.099267088 0.083459847 0.31800002 4279256601
0.10029995 0.083459847 0.31800002 4279124761
0.10133281 0.083459847 0.31800002 4279058970
0.10204377 0.083197393 0.317 4279255836
0.10307339 0.083197393 0.317 4279321629
0.10377461 0.082934938 0.31600001 4280042785
0.10480098 0.082934938 0.31600001 4280042274
0.10582734 0.082934938 0.31600001 4281093173
0.092037037 0.084493063 0.31800002 4280701997
0.093069896 0.084493063 0.31800002 4280767790
0.094102763 0.084493063 0.31800002 4280439077
0.095434792 0.084758759 0.31900001 4280176418
0.096470907 0.084758759 0.31900001 4279716637
0.097201355 0.084493063 0.31800002 4279453980
0.098234221 0.084493063 0.31800002 4279125785
0.099267088 0.084493063 0.31800002 4279257117
0.099984534 0.084227361 0.317 4279059740
0.10101415 0.084227361 0.317 4279059740
0.10204377 0.084227361 0.317 4279190554
0.10274824 0.083961658 0.31600001 4279058455
0.10377461 0.083961658 0.31600001 4279584283
0.10480098 0.083961658 0.31600001 4279649563
0.10582734 0.083961658 0.31600001 4279713818
0.10685371 0.083961658 0.31600001 4279779100
0.097201355 0.08552628 0.31800002 4280373284
0.097925305 0.085257329 0.317 4279520291
0.098954923 0.085257329 0.317 4279257119
0.099984534 0.085257329 0.317 4279453728
0.10101415 0.085257329 0.317 4279586084
0.10172187 0.084988378 0.31600001 4279388703
0.10274824 0.084988378 0.31600001 4279190554
0.10377461 0.084988378 0.31600001 4279256088
0.10480098 0.084988378 0.31600001 4279321111
0.10582734 0.084988378 0.31600001 4279189525
0.10651557 0.084719434 0.31500003 4279452184
0.10753869 0.084719434 0.31500003 4279582748
0.097925305 0.08628729 0.317 4280636206
0.098642766 0.086015098 0.31600001 4280438827
0.099669129 0.086015098 0.31600001 4280044580
0.1006955 0.086015098 0.31600001 4279585312
0.10172187 0.086015098 0.31600001 4279454496
0.10274824 0.086015098 0.31600001 4279257117
0.10377461 0.086015098 0.31600001 4279454750
0.10446934 0.085742898 0.31500003 4279388187
0.10549244 0.085742898 0.31500003 4279190808
0.10651557 0.085742898 0.31500003 4279058709
0.10753869 0.085742898 0.31500003 4279321111
0.10856181 0.085742898 0.31500003 4279386904
0.10958494 0.085742898 0.31500003 4279648539
0.11060806 0.085742898 0.31500003 4279648539
0.11163118 0.085742898 0.31500003 4279975711
0.11265429 0.085742898 0.31500003 4280501290
0.11367741 0.085742898 0.31500003 4281486138
0.098642766 0.087041818 0.31600001 4281490745
0.099669129 0.087041818 0.31600001 4280898346
0.1006955 0.087041818 0.31600001 4280373286
0.10172187 0.087041818 0.31600001 4280373286
0.10242309 0.08676637 0.31500003 4279978528
0.10344621 0.08676637 0.31500003 4279585312
0.10446934 0.08676637 0.31500003 4279783715
0.10549244 0.08676637 0.31500003 4279782430
0.10651557 0.08676637 0.31500003 4279256086
0.10753869 0.08676637 0.31500003 4279124248
0.10856181 0.08676637 0.31500003 4279190041
0.10958494 0.08676637 0.31500003 4278992662
0.11060806 0.08676637 0.31500003 4278861076
0.11163118 0.08676637 0.31500003 4279582746
0.11265429 0.08676637 0.31500003 4279581721
0.11367741 0.08676637 0.31500003 4279646492
0.11470053 0.08676637 0.31500003 4279842338
0.11572365 0.08676637 0.31500003 4282207806
0.11674678 0.08676637 0.31500003 4285496427
0.1177699 0.08676637 0.31500003 4285429351
0.11879303 0.08676637 0.31500003 4285692523
0.10242309 0.087789834 0.31500003 4280964139
0.10344621 0.087789834 0.31500003 4280570665
0.10446934 0.087789834 0.31500003 4280044834
0.10549244 0.087789834 0.31500003 4279781662
0.10651557 0.087789834 0.31500003 4280044834
0.10753869 0.087789834 0.31500003 4279650592
0.10856181 0.087789834 0.31500003 4279255834
0.10993282 0.088068523 0.31600001 4279190041
0.11095919 0.088068523 0.31600001 4279058455
0.11198556 0.088068523 0.31600001 4279124248
0.11301192 0.088068523 0.31600001 4279255064
0.11403829 0.088068523 0.31600001 4279713820
0.11470053 0.087789834 0.31500003 4279779102
0.11572365 0.087789834 0.31500003 4279975457
0.11674678 0.087789834 0.31500003 4280434211
0.1177699 0.087789834 0.31500003 4281419312
0.11879303 0.087789834 0.31500003 4284444768
0.1201965 0.088068523 0.31600001 4285495659
0.10549244 0.088813297 0.31500003 4280767790
0.10651557 0.088813297 0.31500003 4280307239
0.10753869 0.088813297 0.31500003 4279913764
0.10856181 0.088813297 0.31500003 4279716898
0.10993282 0.089095242 0.31600001 4279651105
0.11095919 0.089095242 0.31600001 4279256347
0.11198556 0.089095242 0.31600001 4279124761
0.11301192 0.089095242 0.31600001 4279058455
0.11403829 0.089095242 0.31600001 4279386137
0.11506466 0.089095242 0.31600001 4279386137
0.11609103 0.089095242 0.31600001 4279780125
0.1171174 0.089095242 0.31600001 4279713818
0.11814377 0.089095242 0.31600001 4280173086
0.11917014 0.089095242 0.31600001 4280172575
0.1201965 0.089095242 0.31600001 4281484335
0.12160648 0.089377187 0.317 4284311637
0.10890645 0.090121962 0.31600001 4280241961
0.1102807 0.090407155 0.317 4279716385
0.11131032 0.090407155 0.317 4279650592
0.11233994 0.090407155 0.317 4279651105
0.11336955 0.090407155 0.317 4279519519
0.11439916 0.090407155 0.317 4279386650
0.11542878 0.090407155 0.317 4279255064
0.1164584 0.090407155 0.317 4279254551
0.11748802 0.090407155 0.317 4279320344
0.11851764 0.090407155 0.317 4279386137
0.11954726 0.090407155 0.317 4279648539
0.12057687 0.090407155 0.317 4279975707
0.12160648 0.090407155 0.317 4280172575
0.12302297 0.090692356 0.31800002 4281155622
0.1106286 0.091725573 0.31800002 4281030194
0.11166146 0.091725573 0.31800002 4280569641
0.11269433 0.091725573 0.31800002 4280175653
0.11372718 0.091725573 0.31800002 4279715617
0.11476005 0.091725573 0.31800002 4279847203
0.11542878 0.091437124 0.317 4280110375
0.1164584 0.091437124 0.317 4279453213
0.11748802 0.091437124 0.317 4279124248
0.11851764 0.091437124 0.317 4279255834
0.11954726 0.091437124 0.317 4279255834
0.12057687 0.091437124 0.317 4279386391
0.12199011 0.091725573 0.31800002 4279845145
0.12302297 0.091725573 0.31800002 4279909914
0.10820629 0.09334217 0.32000002 4280303139
0.10924565 0.09334217 0.32000002 4280501542
0.11028501 0.09334217 0.32000002 4280698921
0.11097648 0.093050465 0.31900001 4280370469
0.11201259 0.093050465 0.31900001 4280963374
0.11304871 0.093050465 0.31900001 4280898092
0.11372718 0.092758775 0.31800002 4280898092
0.11476005 0.092758775 0.31800002 4280372264
0.11579292 0.092758775 0.31800002 4279977504
0.11682578 0.092758775 0.31800002 4279781149
0.11785865 0.092758775 0.31800002 4279781662
0.11889151 0.092758775 0.31800002 4279190554
0.11992438 0.092758775 0.31800002 4279190556
0.12095724 0.092758775 0.31800002 4279189271
0.12199011 0.092758775 0.31800002 4279254551
0.12302297 0.092758775 0.31800002 4279516953
0.10750182 0.094676822 0.32100001 4280303393
0.10820629 0.094381884 0.32000002 4279974428
0.10924565 0.094381884 0.32000002 4280171553
0.11028501 0.094381884 0.32000002 4280302625
0.11097648 0.094086938 0.31900001 4281027116
0.11201259 0.094086938 0.31900001 4280896298
0.11304871 0.094086938 0.31900001 4280633126
0.11408481 0.094086938 0.31900001 4280633128
0.11512093 0.094086938 0.31900001 4280897581
0.11615704 0.094086938 0.31900001 4280963374
0.11719315 0.094086938 0.31900001 4280700454
0.11822927 0.094086938 0.31900001 4280240416
0.11926538 0.094086938 0.31900001 4279913766
0.1203015 0.094086938 0.31900001 4279716387
0.1213376 0.094086938 0.31900001 4279782182
0.12237372 0.094086938 0.31900001 4279649311
0.12340983 0.094086938 0.31900001 4279451930
0.10645922 0.095719784 0.32100001 4281615936
0.10750182 0.095719784 0.32100001 4281026100
0.10854443 0.095719784 0.32100001 4280566059
0.10924565 0.095421597 0.32000002 4280171555
0.11028501 0.095421597 0.32000002 4280434213
0.11132438 0.095421597 0.32000002 4280566311
0.11236374 0.095421597 0.32000002 4280303139
0.1134031 0.095421597 0.32000002 4280895530
0.11444245 0.095421597 0.32000002 4281158188
0.11548182 0.095421597 0.32000002 4280962093
0.11615704 0.095123403 0.31900001 4280962093
0.11719315 0.095123403 0.31900001 4281159468
0.11822927 0.095123403 0.31900001 4281225774
0.11926538 0.095123403 0.31900001 4280963885
0.1203015 0.095123403 0.31900001 4280503850
0.1213376 0.095123403 0.31900001 4279912998
0.12237372 0.095123403 0.31900001 4280044584
0.12340983 0.095123403 0.31900001 4279715617
0.10645922 0.096762747 0.32100001 4281812545
0.10750182 0.096762747 0.32100001 4281418557
0.10854443 0.096762747 0.32100001 4281286971
0.10958704 0.096762747 0.32100001 4281288505
0.11062965 0.096762747 0.32100001 4280631340
0.11132438 0.096461311 0.32000002 4280434473
0.11236374 0.096461311 0.32000002 4280302887
0.1134031 0.096461311 0.32000002 4280763692
0.11444245 0.096461311 0.32000002 4281092141
0.11548182 0.096461311 0.32000002 4281487153
0.11652118 0.096461311 0.32000002 4281224495
0.11756054 0.096461311 0.32000002 4281421872
0.1185999 0.096461311 0.32000002 4280961321
0.11926538 0.096159868 0.31900001 4281093677
0.1203015 0.096159868 0.31900001 4281291056
0.1213376 0.096159868 0.31900001 4281029167
0.12237372 0.096159868 0.31900001 4280438057
0.12340983 0.096159868 0.31900001 4279912485
0.10645922 0.097805701 0.32100001 4282009926
0.10750182 0.097805701 0.32100001 4281746754
0.10854443 0.097805701 0.32100001 4281483582
0.10958704 0.097805701 0.32100001 4281680447
0.11062965 0.097805701 0.32100001 4281351996
0.11167226 0.097805701 0.32100001 4281155387
0.11271487 0.097805701 0.32100001 4280892979
0.11375748 0.097805701 0.32100001 4280959792
0.11480008 0.097805701 0.32100001 4280960044
0.11584269 0.097805701 0.32100001 4281288491
0.1168853 0.097805701 0.32100001 4281420077
0.11792791 0.097805701 0.32100001 4281420077
0.1185999 0.097501017 0.32000002 4281157675
0.11963926 0.097501017 0.32000002 4281947964
0.1203015 0.097196326 0.31900001 4281487413
0.1213376 0.097196326 0.31900001 4280830766
0.12237372 0.097196326 0.31900001 4280897842
0.12340983 0.097196326 0.31900001 4281029167
0.10750182 0.098848671 0.32100001 4281747272
0.10854443 0.098848671 0.32100001 4281418561
0.10958704 0.098848671 0.32100001 4281483582
0.11062965 0.098848671 0.32100001 4281417275
0.11167226 0.098848671 0.32100001 4281745727
0.11271487 0.098848671 0.32100001 4281679934
0.11375748 0.098848671 0.32100001 4282010429
0.11480008 0.098848671 0.32100001 4283194953
0.11584269 0.098848671 0.32100001 4283260746
0.1168853 0.098848671 0.32100001 4281944886
0.11792791 0.098848671 0.32100001 4281616691
0.11897052 0.098848671 0.32100001 4281748277
0.12001313 0.098848671 0.32100001 4281815866
0.12105574 0.098848671 0.32100001 4281750585
0.12209834 0.098848671 0.32100001 4281553206
0.12314095 0.098848671 0.32100001 4280894510
0.12418356 0.098848671 0.32100001 4280434979
0.11062965 0.099891633 0.32100001 4281549375
0.11167226 0.099891633 0.32100001 4281811520
0.11271487 0.099891633 0.32100001 4281811520
0.11375748 0.099891633 0.32100001 4282337595
0.11480008 0.099891633 0.32100001 4283717963
0.11584269 0.099891633 0.32100001 4284640089
0.1168853 0.099891633 0.32100001 4285232739
0.11792791 0.099891633 0.32100001 4284904290
0.11897052 0.099891633 0.32100001 4283391564
0.12001313 0.099891633 0.32100001 4282010425
0.12105574 0.099891633 0.32100001 4281221933
0.12209834 0.099891633 0.32100001 4281420077
0.12314095 0.099891633 0.32100001 4281881398
0.12418356 0.099891633 0.32100001 4281881657
0.08969029 0.082297131 0.32330358 4294967295
0.08969029 0.082297131 0.32330358 4294901760
0.089891918 0.081840195 0.32332709 4294901760
0.090093553 0.081383258 0.32335064 4294901760
0.090295181 0.080926321 0.32337415 4294901760
0.090496808 0.080469385 0.3233977 4294901760
0.090698436 0.080012441 0.32342121 4294901760
0.090900071 0.079555504 0.32344475 4294901760
0.091101699 0.079098567 0.32346827 4294901760
0.091303326 0.078641631 0.32349181 4294901760
0.091504961 0.078184694 0.32351533 4294901760
0.091706589 0.077727757 0.32353887 4294901760
0.091908216 0.077270821 0.32356238 4294901760
0.092109844 0.076813884 0.32358593 4294901760
0.092311479 0.076356947 0.32360944 4294901760
0.092513107 0.075900003 0.32363296 4294901760
0.092714734 0.075443067 0.3236565 4294901760
0.092916362 0.07498613 0.32368001 4294901760
0.093117997 0.074529193 0.32370356 4294901760
0.093319625 0.074072257 0.32372707 4294901760
0.093521252 0.07361532 0.32375062 4294901760
0.093722887 0.073158383 0.32377413 4294901760
0.093924515 0.072701439 0.32379767 4294901760
0.094126143 0.072244503 0.32382119 4294901760
0.09432777 0.071787566 0.32384473 4294901760
0.094529405 0.071330629 0.32386824 4294901760
0.094731033 0.070873693 0.32389176 4294901760
0.09493266 0.070416756 0.3239153 4294901760
0.095134296 0.069959819 0.32393882 4294901760
0.095335923 0.069502883 0.32396236 4294901760
0.095537551 0.069045946 0.32398587 4294901760
0.095739178 0.068589002 0.32400942 4294901760
0.095940813 0.068132065 0.32403293 4294901760
0.096142441 0.067675129 0.32405648 4294901760
0.096344069 0.067218192 0.32407999 4294901760
0.096545696 0.066761255 0.32410353 4294901760
0.096747331 0.066304319 0.32412705 4294901760
0.096948959 0.065847382 0.32415059 4294901760
0.097150587 0.065390438 0.32417411 4294901760
0.097352222 0.064933509 0.32419762 4294901760
0.097553849 0.064476565 0.32422116 4294901760
0.097755477 0.064019628 0.32424468 4294901760
0.097957104 0.063562691 0.32426822 4294901760
0.09815874 0.063105755 0.32429174 4294901760
0.098360367 0.062648818 0.32431528 4294901760
0.098561995 0.062191881 0.32433879 4294901760
0.09876363 0.061734945 0.32436234 4294901760
0.098965257 0.061278004 0.32438585 4294901760
0.099166885 0.060821064 0.3244094 4294901760
0.099368513 0.060364127 0.32443291 4294901760
0.099570148 0.059907191 0.32445645 4294901760
0.099771775 0.059450254 0.32447997 4294901760
0.099973403 0.058993317 0.32450348 4294901760
0.10017504 0.058536381 0.32452703 4294901760
0.10037667 0.058079444 0.32455054 4294901760
0.10057829 0.057622503 0.32457408 4294901760
0.10077992 0.057165563 0.3245976 4294901760
0.10098156 0.056708626 0.32462114 4294901760
0.10118318 0.05625169 0.32464465 4294901760
0.10138481 0.055794753 0.3246682 4294901760
0.10158645 0.055337816 0.32469171 4294901760
0.10178807 0.05488088 0.32471526 4294901760
0.1019897 0.054423939 0.32473877 4294901760
0.10219133 0.053967003 0.32476231 4294901760
0.10239296 0.053510066 0.32478583 4294901760
0.10259459 0.053053129 0.32480934 4294901760
0.10279622 0.052596189 0.32483289 4294901760
0.10299785 0.052139252 0.3248564 4294901760
0.10319948 0.051682316 0.32487994 4294901760
0.10340111 0.051225379 0.32490346 4294901760
0.10360274 0.050768439 0.324927 4294901760
0.10380437 0.050311502 0.32495052 4294901760
0.104006 0.049854565 0.32497406 4294901760
0.10420763 0.049397625 0.32499757 4294901760
0.10440926 0.048940688 0.32502112 4294901760
0.10461089 0.048483752 0.32504463 4294901760
0.10481252 0.048026815 0.32506818 4294901760
0.10501415 0.047569878 0.32509169 4294901760
0.10521577 0.047112942 0.3251152 4294901760
0.10541741 0.046656005 0.32513875 4294901760
0.10561904 0.046199065 0.32516226 4294901760
0.10582067 0.045742128 0.32518581 4294901760
0.1060223 0.045285191 0.32520932 4294901760
0.10622393 0.044828251 0.32523286 4294901760
0.10642555 0.044371314 0.32525638 4294901760
0.10662718 0.043914378 0.32527992 4294901760
0.10682882 0.043457437 0.32530344 4294901760
0.10703044 0.043000501 0.32532698 4294901760
0.10723207 0.042543564 0.32535049 4294901760
0.10743371 0.042086627 0.32537401 4294901760
0.10763533 0.041629691 0.32539755 4294901760
0.10783696 0.041172754 0.32542107 4294901760
0.10803859 0.040715814 0.32544461 4294901760
0.10824022 0.040258877 0.32546812 4294901760
0.10844185 0.03980194 0.32549167 4294901760
0.10864348 0.039345 0.32551518 4294901760
0.10884511 0.038888063 0.32553872 4294901760
0.10904674 0.038431127 0.32556224 4294901760
0.10924837 0.037974186 0.32558578 4294901760
0.10945 0.03751725 0.3256093 4294901760
0.10965163 0.037060313 0.32563284 4294901760
0.10985326 0.036603376 0.32565635 4294901760
0.08969029 0.082297131 0.32330358 4278255360
0.090140045 0.082490347 0.32320166 4278255360
0.090589799 0.082683556 0.32309973 4278255360
0.091039553 0.082876772 0.32299781 4278255360
0.091489315 0.08306998 0.32289588 4278255360
0.091939069 0.083263196 0.32279396 4278255360
0.092388824 0.083456405 0.32269201 4278255360
0.092838578 0.08364962 0.32259008 4278255360
0.093288332 0.083842829 0.32248816 4278255360
0.093738087 0.084036045 0.32238623 4278255360
0.094187841 0.084229253 0.32228431 4278255360
0.094637603 0.084422469 0.32218239 4278255360
0.095087357 0.084615678 0.32208046 4278255360
0.095537111 0.084808894 0.32197854 4278255360
0.095986865 0.085002102 0.32187662 4278255360
0.09643662 0.085195318 0.32177469 4278255360
0.096886374 0.085388526 0.32167277 4278255360
0.097336136 0.085581742 0.32157081 4278255360
0.09778589 0.085774951 0.32146889 4278255360
0.098235644 0.085968167 0.32136697 4278255360
0.098685399 0.086161375 0.32126504 4278255360
0.099135153 0.086354591 0.32116312 4278255360
0.099584907 0.086547799 0.32106119 4278255360
0.10003467 0.086741015 0.32095927 4278255360
0.10048442 0.086934224 0.32085735 4278255360
0.10093418 0.08712744 0.32075542 4278255360
0.10138393 0.087320648 0.3206535 4278255360
0.10183369 0.087513864 0.32055157 4278255360
0.10228344 0.087707072 0.32044962 4278255360
0.10273319 0.087900288 0.3203477 4278255360
0.10318296 0.088093497 0.32024577 4278255360
0.10363271 0.088286713 0.32014385 4278255360
0.10408247 0.088479921 0.32004192 4278255360
0.10453222 0.088673137 0.31994 4278255360
0.10498197 0.088866346 0.31983808 4278255360
0.10543173 0.089059561 0.31973615 4278255360
0.10588148 0.08925277 0.31963423 4278255360
0.10633124 0.089445986 0.31953231 4278255360
0.106781 0.089639194 0.31943038 4278255360
0.10723075 0.08983241 0.31932843 4278255360
0.10768051 0.090025619 0.3192265 4278255360
0.10813026 0.090218835 0.31912458 4278255360
0.10858002 0.090412043 0.31902266 4278255360
0.10902977 0.090605259 0.31892073 4278255360
0.10947953 0.090798467 0.31881881 4278255360
0.10992929 0.090991683 0.31871688 4278255360
0.11037904 0.091184899 0.31861496 4278255360
0.11082879 0.091378108 0.31851304 4278255360
0.11127855 0.091571316 0.31841111 4278255360
0.11172831 0.091764532 0.31830919 4278255360
0.11217806 0.091957748 0.31820726 4278255360
0.11262782 0.092150956 0.31810531 4278255360
0.11307757 0.092344165 0.31800339 4278255360
0.11352733 0.092537381 0.31790146 4278255360
0.11397708 0.092730597 0.31779954 4278255360
0.11442684 0.092923805 0.31769761 4278255360
0.1148766 0.093117021 0.31759569 4278255360
0.11532634 0.093310229 0.31749377 4278255360
0.11577611 0.093503445 0.31739184 4278255360
0.11622586 0.093696654 0.31728992 4278255360
0.11667562 0.09388987 0.31718799 4278255360
0.11712537 0.094083078 0.31708604 4278255360
0.11757512 0.094276294 0.31698412 4278255360
0.11802489 0.094469503 0.31688219 4278255360
0.11847463 0.094662718 0.31678027 4278255360
0.11892439 0.094855927 0.31667835 4278255360
0.11937415 0.095049143 0.31657642 4278255360
0.1198239 0.095242351 0.3164745 4278255360
0.12027366 0.095435567 0.31637257 4278255360
0.12072341 0.095628776 0.31627065 4278255360
0.12117317 0.095821992 0.31616873 4278255360
0.12162292 0.0960152 0.3160668 4278255360
0.12207268 0.096208416 0.31596488 4278255360
0.12252244 0.096401624 0.31586292 4278255360
0.12297219 0.09659484 0.315761 4278255360
0.12342194 0.096788049 0.31565908 4278255360
0.1238717 0.096981265 0.31555715 4278255360
0.12432146 0.097174473 0.31545523 4278255360
0.12477121 0.097367689 0.3153533 4278255360
0.12522097 0.097560897 0.31525138 4278255360
0.12567073 0.097754113 0.31514946 4278255360
0.12612048 0.097947322 0.31504753 4278255360
0.12657024 0.098140538 0.31494561 4278255360
0.12701999 0.098333746 0.31484368 4278255360
0.12746975 0.098526962 0.31474173 4278255360
0.1279195 0.098720178 0.31463981 4278255360
0.12836926 0.098913386 0.31453788 4278255360
0.12881902 0.099106595 0.31443596 4278255360
0.12926877 0.099299811 0.31433403 4278255360
0.12971853 0.099493019 0.31423211 4278255360
0.13016827 0.099686235 0.31413019 4278255360
0.13061804 0.099879444 0.31402826 4278255360
0.13106778 0.10007266 0.31392634 4278255360
0.13151754 0.10026588 0.31382442 4278255360
0.13196731 0.10045908 0.31372249 4278255360
0.13241705 0.10065229 0.31362054 4278255360
0.13286681 0.10084551 0.31351861 4278255360
0.13331656 0.10103872 0.31341669 4278255360
0.13376632 0.10123193 0.31331477 4278255360
0.13421607 0.10142514 0.31321284 4278255360
0.13466583 0.10161836 0.31311092 4278255360
0.08969029 0.082297131 0.32330358 4278190335
0.089751355 0.082349487 0.32379708 4278190335
0.08981242 0.082401842 0.32429054 4278190335
0.089873485 0.082454197 0.32478404 4278190335
0.08993455 0.082506552 0.32527754 4278190335
0.089995615 0.082558908 0.32577103 4278190335
0.09005668 0.082611263 0.3262645 4278190335
0.090117745 0.082663618 0.326758 4278190335
0.09017881 0.082715973 0.32725149 4278190335
0.090239875 0.082768328 0.32774496 4278190335
0.09030094 0.082820684 0.32823846 4278190335
0.090362005 0.082873039 0.32873195 4278190335
0.09042307 0.082925394 0.32922542 4278190335
0.090484135 0.082977757 0.32971892 4278190335
0.0905452 0.083030112 0.33021241 4278190335
0.090606265 0.083082467 0.33070591 4278190335
0.09066733 0.083134823 0.33119938 4278190335
0.090728395 0.083187178 0.33169287 4278190335
0.09078946 0.083239533 0.33218637 4278190335
0.090850525 0.083291888 0.33267984 4278190335
0.09091159 0.083344243 0.33317333 4278190335
0.090972655 0.083396599 0.33366683 4278190335
0.091033719 0.083448954 0.3341603 4278190335
0.091094784 0.083501309 0.33465379 4278190335
0.091155849 0.083553664 0.33514729 4278190335
0.091216914 0.08360602 0.33564079 4278190335
0.091277979 0.083658375 0.33613425 4278190335
0.091339044 0.08371073 0.33662775 4278190335
0.091400109 0.083763085 0.33712125 4278190335
0.091461174 0.083815441 0.33761472 4278190335
0.091522239 0.083867796 0.33810821 4278190335
0.091583304 0.083920151 0.33860171 4278190335
0.091644369 0.083972506 0.33909518 4278190335
0.091705434 0.084024861 0.33958867 4278190335
0.091766499 0.084077217 0.34008217 4278190335
0.091827564 0.084129572 0.34057564 4278190335
0.091888629 0.084181927 0.34106913 4278190335
0.091949694 0.084234282 0.34156263 4278190335
0.092010759 0.084286645 0.34205613 4278190335
0.092071824 0.084339 0.34254959 4278190335
0.092132889 0.084391356 0.34304309 4278190335
0.092193954 0.084443711 0.34353659 4278190335
0.092255019 0.084496066 0.34403005 4278190335
0.092316084 0.084548421 0.34452355 4278190335
0.092377149 0.084600776 0.34501705 4278190335
0.092438214 0.084653132 0.34551054 4278190335
0.092499278 0.084705487 0.34600401 4278190335
0.092560343 0.084757842 0.34649751 4278190335
0.092621408 0.084810197 0.346991 4278190335
0.092682473 0.084862553 0.34748447 4278190335
0.092743538 0.084914908 0.34797797 4278190335
0.092804603 0.084967263 0.34847146 4278190335
0.092865668 0.085019618 0.34896493 4278190335
0.092926733 0.085071974 0.34945843 4278190335
0.092987798 0.085124329 0.34995192 4278190335
0.093048863 0.085176684 0.35044539 4278190335
0.093109928 0.085229039 0.35093889 4278190335
0.093170993 0.085281394 0.35143238 4278190335
0.093232058 0.08533375 0.35192588 4278190335
0.093293123 0.085386105 0.35241935 4278190335
0.093354188 0.08543846 0.35291284 4278190335
0.093415253 0.085490815 0.35340634 4278190335
0.093476318 0.085543171 0.35389981 4278190335
0.093537383 0.085595533 0.3543933 4278190335
0.093598448 0.085647888 0.3548868 4278190335
0.093659513 0.085700244 0.3553803 4278190335
0.093720578 0.085752599 0.35587376 4278190335
0.093781643 0.085804954 0.35636726 4278190335
0.093842708 0.085857309 0.35686076 4278190335
0.093903773 0.085909665 0.35735422 4278190335
0.093964837 0.08596202 0.35784772 4278190335
0.094025902 0.086014375 0.35834122 4278190335
0.094086967 0.08606673 0.35883468 4278190335
0.094148032 0.086119086 0.35932818 4278190335
0.094209097 0.086171441 0.35982168 4278190335
0.094270162 0.086223796 0.36031514 4278190335
0.094331227 0.086276151 0.36080864 4278190335
0.094392292 0.086328506 0.36130214 4278190335
0.094453357 0.086380862 0.3617956 4278190335
0.094514422 0.086433217 0.3622891 4278190335
0.094575487 0.086485572 0.3627826 4278190335
0.094636552 0.086537927 0.36327609 4278190335
0.094697617 0.086590283 0.36376956 4278190335
0.094758682 0.086642638 0.36426306 4278190335
0.094819747 0.086694993 0.36475655 4278190335
0.094880812 0.086747348 0.36525005 4278190335
0.094941877 0.086799704 0.36574352 4278190335
0.095002942 0.086852059 0.36623701 4278190335
0.095064007 0.086904421 0.36673051 4278190335
0.095125072 0.086956777 0.36722398 4278190335
0.095186137 0.087009132 0.36771747 4278190335
0.095247202 0.087061487 0.36821097 4278190335
0.095308267 0.087113842 0.36870444 4278190335
0.095369332 0.087166198 0.36919793 4278190335
0.095430396 0.087218553 0.36969143 4278190335
0.095491461 0.087270908 0.3701849 4278190335
0.095552526 0.087323263 0.3706784 4278190335
0.095613591 0.087375619 0.37117189 4278190335
0.095674656 0.087427974 0.37166539 4278190335
0.095735721 0.087480329 0.37215886 4278190335
0.095796786 0.087532684 0.37265235 4278190335
0.08969029 0.082297131 0.32330358 4294967295
0.089323901 0.081983 0.32034266 4294967295
0.088957511 0.081668869 0.31738174 4294967295
0.088591121 0.08135473 0.31442082 4294967295
0.088224731 0.081040598 0.31145987 4294967295
0.087858342 0.080726467 0.30849895 4294967295
0.087491952 0.080412336 0.30553803 4294967295
0.087125562 0.080098204 0.30257711 4294967295
0.086759172 0.079784065 0.29961619 4294967295
0.086392783 0.079469934 0.29665524 4294967295
0.086026393 0.079155803 0.29369432 4294967295
0.085660003 0.078841671 0.2907334 4294967295
0.085293613 0.07852754 0.28777248 4294967295
0.084927224 0.078213401 0.28481156 4294967295
0.084560834 0.07789927 0.28185064 4294967295
0.084194444 0.077585138 0.27888969 4294967295
0.083828054 0.077271007 0.27592877 4294967295
0.083461665 0.076956868 0.27296785 4294967295
0.083095275 0.076642737 0.27000692 4294967295
0.082728885 0.076328605 0.267046 4294967295
0.082362495 0.076014474 0.26408508 4294967295
0.081996106 0.075700343 0.26112413 4294967295
0.081629723 0.075386204 0.25816321 4294967295
0.081263334 0.075072072 0.25520229 4294967295
0.080896944 0.074757941 0.25224137 4294967295
0.080530554 0.07444381 0.24928045 4294967295
0.080164164 0.074129678 0.24631953 4294967295
0.079797775 0.073815539 0.24335858 4294967295
0.079431385 0.073501408 0.24039766 4294967295
0.079064995 0.073187277 0.23743674 4294967295
0.078698605 0.072873145 0.23447582 4294967295
0.078332216 0.072559014 0.2315149 4294967295
0.077965826 0.072244875 0.22855398 4294967295
0.077599436 0.071930744 0.22559303 4294967295
0.077233046 0.071616612 0.22263211 4294967295
0.076866657 0.071302481 0.21967119 4294967295
0.076500267 0.070988342 0.21671027 4294967295
0.076133877 0.070674211 0.21374935 4294967295
0.075767487 0.070360079 0.21078841 4294967295
0.075401098 0.070045948 0.20782749 4294967295
0.075034708 0.069731817 0.20486656 4294967295
0.074668318 0.069417678 0.20190564 4294967295
0.074301928 0.069103546 0.19894472 4294967295
0.073935539 0.068789415 0.19598378 4294967295
0.073569149 0.068475284 0.19302286 4294967295
0.073202759 0.068161152 0.19006194 4294967295
0.072836369 0.067847013 0.18710101 4294967295
0.07246998 0.067532882 0.18414009 4294967295
0.07210359 0.067218751 0.18117917 4294967295
0.0717372 0.066904619 0.17821823 4294967295
0.07137081 0.066590488 0.17525731 4294967295
0.071004421 0.066276349 0.17229639 4294967295
0.070638031 0.065962218 0.16933547 4294967295
0.070271641 0.065648086 0.16637455 4294967295
0.069905251 0.065333948 0.1634136 4294967295
0.069538862 0.065019816 0.16045268 4294967295
0.069172472 0.064705685 0.15749176 4294967295
0.068806082 0.064391553 0.15453084 4294967295
0.068439692 0.064077422 0.15156992 4294967295
0.068073303 0.063763291 0.14860898 4294967295
0.067706913 0.063449152 0.14564805 4294967295
0.067340523 0.06313502 0.14268713 4294967295
0.066974133 0.062820889 0.13972621 4294967295
0.066607744 0.062506758 0.13676529 4294967295
0.066241354 0.062192623 0.13380437 4294967295
0.065874964 0.061878491 0.13084343 4294967295
0.065508574 0.061564356 0.1278825 4294967295
0.065142184 0.061250225 0.12492158 4294967295
0.064775795 0.060936093 0.12196065 4294967295
0.064409405 0.060621958 0.11899973 4294967295
0.064043015 0.060307823 0.1160388 4294967295
0.063676625 0.059993692 0.11307788 4294967295
0.063310236 0.05967956 0.11011694 4294967295
0.062943846 0.059365425 0.10715602 4294967295
0.062577456 0.059051294 0.1041951 4294967295
0.06221107 0.058737159 0.10123417 4294967295
0.06184468 0.058423027 0.098273247 4294967295
0.061478294 0.058108896 0.095312327 4294967295
0.061111905 0.057794765 0.092351407 4294967295
0.060745511 0.057480626 0.089390472 4294967295
0.060379121 0.057166494 0.086429551 4294967295
0.060012732 0.056852363 0.083468616 4294967295
0.059646346 0.056538232 0.080507696 4294967295
0.059279956 0.0562241 0.077546775 4294967295
0.058913566 0.055909965 0.074585855 4294967295
0.058547173 0.05559583 0.071624905 4294967295
0.058180783 0.055281699 0.068663985 4294967295
0.057814393 0.054967567 0.065703064 4294967295
0.057448007 0.054653432 0.062742144 4294967295
0.057081617 0.054339297 0.059781224 4294967295
0.056715228 0.054025166 0.056820303 4294967295
0.056348834 0.053711034 0.053859353 4294967295
0.055982448 0.053396899 0.050898433 4294967295
0.055616058 0.053082768 0.047937512 4294967295
0.055249669 0.052768633 0.044976592 4294967295
0.054883279 0.052454501 0.042015672 4294967295
0.054516889 0.05214037 0.039054751 4294967295
0.054150499 0.051826235 0.036093801 4294967295
0.05378411 0.0515121 0.033132881 4294967295
