# .PCD v0.7 - Point Cloud Data file format
VERSION 0.7
FIELDS x y z rgb
SIZE 4 4 4 4
TYPE F F F U
COUNT 1 1 1 1
WIDTH 504
HEIGHT 1
VIEWPOINT 0 0 0 1 0 0 0
POINTS 504
DATA ascii
0.0533133 0.076531693 0.31500003 4280108063
0.054336421 0.076531693 0.31500003 4279845920
0.052290183 0.077555157 0.31500003 4279844893
0.0533133 0.077555157 0.31500003 4279845918
0.054336421 0.077555157 0.31500003 4279780895
0.052290183 0.078578629 0.31500003 4279452443
0.0533133 0.078578629 0.31500003 4279190041
0.054336421 0.078578629 0.31500003 4279584031
0.051267058 0.079602093 0.31500003 4279780127
0.052290183 0.079602093 0.31500003 4279255834
0.0533133 0.079602093 0.31500003 4279453213
0.051104303 0.080369607 0.31400001 4279386139
0.052124176 0.080369607 0.31400001 4279321627
0.049765419 0.080871418 0.31200001 4279976992
0.050941553 0.081130624 0.31300002 4279386139
0.051958181 0.081130624 0.31300002 4279255836
0.049765419 0.081885129 0.31200001 4279715104
0.050778799 0.081885129 0.31200001 4279584031
0.051792175 0.081885129 0.31200001 4279190043
0.048439533 0.08236745 0.31 4280108065
0.049605917 0.082633153 0.31100002 4279255836
0.050616048 0.082633153 0.31100002 4279584801
0.051626176 0.082633153 0.31100002 4279058457
0.048439533 0.083374672 0.31 4279582236
0.049446411 0.083374672 0.31 4279453728
0.050616048 0.08364363 0.31100002 4279387935
0.051626176 0.08364363 0.31100002 4279124763
0.052467052 0.083374672 0.31 4279519008
0.048439533 0.084381893 0.31 4280042785
0.049446411 0.084381893 0.31 4279257631
0.05045329 0.084381893 0.31 4279455010
0.051460173 0.084381893 0.31 4279257117
0.052467052 0.084381893 0.31 4279519519
0.048439533 0.085389122 0.31 4280108576
0.049446411 0.085389122 0.31 4279388703
0.05045329 0.085389122 0.31 4279980842
0.051460173 0.085389122 0.31 4279519519
0.052297805 0.085113674 0.30900002 4279650592
0.049286909 0.08611764 0.30900002 4279980072
0.05029054 0.08611764 0.30900002 4279716902
0.051294174 0.08611764 0.30900002 4284846958
0.052297805 0.08611764 0.30900002 4279845920
0.053301439 0.08611764 0.30900002 4279715106
0.049286909 0.087121613 0.30900002 4280505133
0.05029054 0.087121613 0.30900002 4279980070
0.053301439 0.087121613 0.30900002 4279912483
0.054129332 0.086839668 0.30800003 4279715617
0.05029054 0.088125587 0.30900002 4279847201
0.051294174 0.088125587 0.30900002 4279715617
0.052297805 0.088125587 0.30900002 4283992680
0.053128943 0.087840393 0.30800003 4279255836
0.054129332 0.087840393 0.30800003 4279453215
0.055129718 0.087840393 0.30800003 4279780895
0.056130096 0.087840393 0.30800003 4280240162
0.051294174 0.08912956 0.30900002 4279716387
0.052297805 0.08912956 0.30900002 4279519008
0.053128943 0.088841125 0.30800003 4280374569
0.054129332 0.088841125 0.30800003 4279716385
0.055129718 0.088841125 0.30800003 4279519006
0.056130096 0.088841125 0.30800003 4279715615
0.056944992 0.088552669 0.30700001 4280240676
0.05794213 0.088552669 0.30700001 4280174371
0.053128943 0.089841835 0.30800003 4279519260
0.054129332 0.089841835 0.30800003 4280045604
0.055129718 0.089841835 0.30800003 4279584799
0.055947855 0.089550138 0.30700001 4279716385
0.056944992 0.089550138 0.30700001 4279649822
0.05794213 0.089550138 0.30700001 4279847201
0.05874728 0.089258447 0.30600002 4279977506
0.059741173 0.089258447 0.30600002 4280567846
0.053128943 0.090842567 0.30800003 4280241450
0.054129332 0.090842567 0.30800003 4279716387
0.054950722 0.090547614 0.30700001 4279585314
0.055947855 0.090547614 0.30700001 4279651107
0.056944992 0.090547614 0.30700001 4279453726
0.057753395 0.090252675 0.30600002 4279519260
0.05874728 0.090252675 0.30600002 4279584283
0.059741173 0.090252675 0.30600002 4280110114
0.060536578 0.089957729 0.30500001 4280239651
0.054950722 0.09154509 0.30700001 4279847201
0.055947855 0.09154509 0.30700001 4279650594
0.056759506 0.091246903 0.30600002 4279716387
0.057753395 0.091246903 0.30600002 4279584801
0.05874728 0.091246903 0.30600002 4279584801
0.059545934 0.090948708 0.30500001 4279453215
0.060536578 0.090948708 0.30500001 4279846690
0.061527215 0.090948708 0.30500001 4279845920
0.062517859 0.090948708 0.30500001 4280895016
0.055947855 0.092542566 0.30700001 4280569381
0.056759506 0.092241131 0.30600002 4279716385
0.057753395 0.092241131 0.30600002 4279716385
0.058555294 0.091939688 0.30500001 4279519521
0.059545934 0.091939688 0.30500001 4279848486
0.060536578 0.091939688 0.30500001 4279716385
0.061527215 0.091939688 0.30500001 4279517723
0.062312882 0.091638245 0.30400002 4279978274
0.063300274 0.091638245 0.30400002 4280240162
0.056759506 0.093235351 0.30600002 4280438825
0.057753395 0.093235351 0.30600002 4280307752
0.058555294 0.092930652 0.30500001 4279979559
0.059545934 0.092930652 0.30500001 4279716898
0.060536578 0.092930652 0.30500001 4279651359
0.061325487 0.092625968 0.30400002 4279585053
0.062312882 0.092625968 0.30400002 4279453213
0.063300274 0.092625968 0.30400002 4279715615
0.064076193 0.092321269 0.303 4280109092
0.058555294 0.093921632 0.30500001 4279780125
0.059545934 0.093921632 0.30500001 4279715615
0.060536578 0.093921632 0.30500001 4279650846
0.061325487 0.093613699 0.30400002 4279651359
0.062312882 0.093613699 0.30400002 4279454496
0.063092045 0.093305752 0.303 4279585312
0.064076193 0.093305752 0.303 4280111143
0.065060332 0.093305752 0.303 4279519008
0.065826513 0.092997812 0.30200002 4279846692
0.060536578 0.094912611 0.30500001 4279979557
0.061325487 0.094601423 0.30400002 4279453726
0.062312882 0.094601423 0.30400002 4279388703
0.063092045 0.094290234 0.303 4279520289
0.064076193 0.094290234 0.303 4279585312
0.065060332 0.094290234 0.303 4279453213
0.065826513 0.093979046 0.30200002 4279519006
0.066807412 0.093979046 0.30200002 4279780897
0.06778831 0.093979046 0.30200002 4280567846
0.062312882 0.095589153 0.30400002 4279585314
0.063300274 0.095589153 0.30400002 4279519521
0.064076193 0.095274709 0.303 4279651105
0.065060332 0.095274709 0.303 4279519519
0.065826513 0.09496028 0.30200002 4279453213
0.066807412 0.09496028 0.30200002 4279452443
0.06778831 0.09496028 0.30200002 4279977504
0.068769202 0.09496028 0.30200002 4280174371
0.0697501 0.09496028 0.30200002 4280435497
0.070730999 0.09496028 0.30200002 4281813816
0.05874728 0.097212255 0.30600002 4280828708
0.063300274 0.096576884 0.30400002 4280240678
0.064076193 0.096259192 0.303 4280044580
0.065060332 0.096259192 0.303 4279847201
0.06604448 0.096259192 0.303 4279650592
0.066807412 0.095941506 0.30200002 4279781408
0.06778831 0.095941506 0.30200002 4279386650
0.068769202 0.095941506 0.30200002 4279649822
0.0697501 0.095941506 0.30200002 4279978276
0.070730999 0.095941506 0.30200002 4279911713
0.07147444 0.095623821 0.30100003 4280893227
0.072452091 0.095623821 0.30100003 4284444768
0.073429734 0.095623821 0.30100003 4285759601
0.064076193 0.097243659 0.303 4280372262
0.065060332 0.097243659 0.303 4279847201
0.06604448 0.097243659 0.303 4279912994
0.066807412 0.096922733 0.30200002 4279847201
0.06778831 0.096922733 0.30200002 4279649822
0.068769202 0.096922733 0.30200002 4279781408
0.0697501 0.096922733 0.30200002 4279650076
0.070730999 0.096922733 0.30200002 4279846942
0.07147444 0.096601799 0.30100003 4279911713
0.072452091 0.096601799 0.30100003 4280436778
0.073429734 0.096601799 0.30100003 4281353265
0.074407384 0.096601799 0.30100003 4285628528
0.058130872 0.099849075 0.30800003 4280696102
0.06604448 0.098228142 0.303 4280109860
0.067028627 0.098228142 0.303 4279846688
0.06778831 0.097903959 0.30200002 4279847201
0.068769202 0.097903959 0.30200002 4279912994
0.0697501 0.097903959 0.30200002 4279781408
0.070730999 0.097903959 0.30200002 4279584029
0.07147444 0.097579777 0.30100003 4279780895
0.072452091 0.097579777 0.30100003 4279978274
0.073429734 0.097579777 0.30100003 4280174373
0.074407384 0.097579777 0.30100003 4280633387
0.075385034 0.097579777 0.30100003 4283260746
0.067028627 0.099212624 0.303 4280437541
0.06778831 0.098885193 0.30200002 4279978274
0.068769202 0.098885193 0.30200002 4279649822
0.0697501 0.098885193 0.30200002 4279715615
0.070730999 0.098885193 0.30200002 4280044582
0.07147444 0.098557763 0.30100003 4279715617
0.072452091 0.098557763 0.30100003 4279715617
0.073429734 0.098557763 0.30100003 4279715617
0.074407384 0.098557763 0.30100003 4279781410
0.075385034 0.098557763 0.30100003 4280370467
0.076362684 0.098557763 0.30100003 4281617974
0.077340335 0.098557763 0.30100003 4285299563
0.068769202 0.09986642 0.30200002 4280372264
0.0697501 0.09986642 0.30200002 4279781410
0.070730999 0.09986642 0.30200002 4279847203
0.07147444 0.099535741 0.30100003 4279847201
0.072452091 0.099535741 0.30100003 4279781408
0.073429734 0.099535741 0.30100003 4279386654
0.074407384 0.099535741 0.30100003 4279452447
0.075385034 0.099535741 0.30100003 4279977506
0.076362684 0.099535741 0.30100003 4280306473
0.077340335 0.099535741 0.30100003 4280894762
0.078317977 0.099535741 0.30100003 4282340675
0.067028627 0.10118157 0.303 4281551411
0.0697501 0.10084765 0.30200002 4280241448
0.070730999 0.10084765 0.30200002 4279912996
0.07171189 0.10084765 0.30200002 4279913248
0.072452091 0.10051372 0.30100003 4279781660
0.073429734 0.10051372 0.30100003 4279846942
0.074407384 0.10051372 0.30100003 4279715102
0.075385034 0.10051372 0.30100003 4279845918
0.076362684 0.10051372 0.30100003 4279846690
0.077340335 0.10051372 0.30100003 4280108840
0.078317977 0.10051372 0.30100003 4279977254
0.068996914 0.10216605 0.303 4281420593
0.07171189 0.10182887 0.30200002 4280043551
0.072692789 0.10182887 0.30200002 4279780377
0.073429734 0.1014917 0.30100003 4279978526
0.074407384 0.1014917 0.30100003 4279846942
0.075385034 0.1014917 0.30100003 4279912481
0.076362684 0.1014917 0.30100003 4279452445
0.077340335 0.1014917 0.30100003 4279781412
0.078317977 0.1014917 0.30100003 4279780899
0.079032183 0.10115451 0.30000001 4280436778
0.079739906 0.10081733 0.29900002 4280699180
0.080711059 0.10081733 0.29900002 4282405183
0.069981061 0.10315053 0.303 4281157936
0.073673688 0.10281011 0.30200002 4280044580
0.074407384 0.10246968 0.30100003 4279847201
0.075385034 0.10246968 0.30100003 4279781408
0.076362684 0.10246968 0.30100003 4279781408
0.077340335 0.10246968 0.30100003 4279584029
0.078057781 0.10212924 0.30000001 4279649822
0.079032183 0.10212924 0.30000001 4279780897
0.079739906 0.10178882 0.29900002 4279846690
0.080711059 0.10178882 0.29900002 4280502571
0.081409015 0.10144838 0.29800001 4280566311
0.082100488 0.10110795 0.29700002 4283785041
0.074654587 0.10379133 0.30200002 4280241961
0.075385034 0.10344766 0.30100003 4279649824
0.076362684 0.10344766 0.30100003 4279912996
0.077340335 0.10344766 0.30100003 4279781410
0.078057781 0.10310397 0.30000001 4279781410
0.079032183 0.10310397 0.30000001 4279715617
0.079739906 0.1027603 0.29900002 4279584031
0.080711059 0.1027603 0.29900002 4280043299
0.081409015 0.10241661 0.29800001 4280240164
0.076362684 0.10442565 0.30100003 4279978278
0.077340335 0.10442565 0.30100003 4279715617
0.078057781 0.10407871 0.30000001 4279781410
0.079032183 0.10407871 0.30000001 4279912994
0.079739906 0.10373178 0.29900002 4279781408
0.080711059 0.10373178 0.29900002 4279715102
0.081409015 0.10338485 0.29800001 4279780895
0.082100488 0.10303792 0.29700002 4280043299
0.082785465 0.10269099 0.296 4280502823
0.083746873 0.10269099 0.296 4280630309
0.084422112 0.10234407 0.29500002 4283392080
0.077340335 0.10540362 0.30100003 4280241448
0.078317977 0.10540362 0.30100003 4279781410
0.079032183 0.10505343 0.30000001 4279912994
0.079739906 0.10470325 0.29900002 4279847201
0.080711059 0.10470325 0.29900002 4279649822
0.081409015 0.10435308 0.29800001 4279715615
0.082100488 0.1040029 0.29700002 4279649309
0.083065145 0.1040029 0.29700002 4280043297
0.083746873 0.10365272 0.296 4280240164
0.084422112 0.10330255 0.29500002 4280632874
0.078317977 0.1063816 0.30100003 4280503336
0.079032183 0.10602816 0.30000001 4279715102
0.079739906 0.10567474 0.29900002 4280175653
0.080711059 0.10567474 0.29900002 4279781408
0.081409015 0.10532131 0.29800001 4279847201
0.08237692 0.10532131 0.29800001 4279846688
0.083065145 0.10496788 0.29700002 4279649309
0.083746873 0.10461445 0.296 4279780897
0.084708281 0.10461445 0.296 4279911713
0.085380271 0.10426103 0.29500002 4280829735
0.079032183 0.1070029 0.30000001 4280700202
0.079739906 0.10664622 0.29900002 4280503334
0.080711059 0.10664622 0.29900002 4280043297
0.081409015 0.10628954 0.29800001 4279977504
0.08237692 0.10628954 0.29800001 4280306723
0.083065145 0.10593287 0.29700002 4279977758
0.084029801 0.10593287 0.29700002 4280043297
0.084708281 0.10557619 0.296 4279977504
0.085380271 0.10521952 0.29500002 4280042783
0.086338423 0.10521952 0.29500002 4280437028
0.087000661 0.10486283 0.294 4280633128
0.080711059 0.10761771 0.29900002 4280634407
0.081409015 0.10725778 0.29800001 4280437541
0.08237692 0.10725778 0.29800001 4279845918
0.083065145 0.10689785 0.29700002 4280109344
0.084029801 0.10689785 0.29700002 4279978528
0.084708281 0.10653792 0.296 4279781149
0.085669689 0.10653792 0.296 4279911965
0.086338423 0.10617801 0.29500002 4279911965
0.087000661 0.10581807 0.294 4280043037
0.087656409 0.10545816 0.29300001 4280305442
0.088608071 0.10545816 0.29300001 4280696870
0.089254081 0.10509823 0.29200003 4282274371
0.083065145 0.10786283 0.29700002 4280174369
0.084029801 0.10786283 0.29700002 4279780895
0.084708281 0.10749965 0.296 4279847201
0.085669689 0.10749965 0.296 4279649824
0.086338423 0.10713648 0.29500002 4279715615
0.087000661 0.1067733 0.294 4279911711
0.087955572 0.1067733 0.294 4280042785
0.088608071 0.10641013 0.29300001 4280042787
0.089254081 0.10604696 0.29200003 4280239653
0.067727067 0.095876172 0.30321577 4294967295
0.067727067 0.095876172 0.30321577 4294901760
0.067727067 0.095876172 0.30371577 4294901760
0.067727067 0.095876172 0.30421576 4294901760
0.067727067 0.095876172 0.30471578 4294901760
0.067727067 0.095876172 0.30521578 4294901760
0.067727067 0.095876172 0.30571577 4294901760
0.067727067 0.095876172 0.30621576 4294901760
0.067727067 0.095876172 0.30671579 4294901760
0.067727067 0.095876172 0.30721578 4294901760
0.067727067 0.095876172 0.30771577 4294901760
0.067727067 0.095876172 0.30821577 4294901760
0.067727067 0.095876172 0.30871576 4294901760
0.067727067 0.095876172 0.30921578 4294901760
0.067727067 0.095876172 0.30971578 4294901760
0.067727067 0.095876172 0.31021577 4294901760
0.067727067 0.095876172 0.31071576 4294901760
0.067727067 0.095876172 0.31121576 4294901760
0.067727067 0.095876172 0.31171578 4294901760
0.067727067 0.095876172 0.31221578 4294901760
0.067727067 0.095876172 0.31271577 4294901760
0.067727067 0.095876172 0.31321576 4294901760
0.067727067 0.095876172 0.31371579 4294901760
0.067727067 0.095876172 0.31421578 4294901760
0.067727067 0.095876172 0.31471577 4294901760
0.067727067 0.095876172 0.31521577 4294901760
0.067727067 0.095876172 0.31571579 4294901760
0.067727067 0.095876172 0.31621578 4294901760
0.067727067 0.095876172 0.31671578 4294901760
0.067727067 0.095876172 0.31721577 4294901760
0.067727067 0.095876172 0.31771576 4294901760
0.067727067 0.095876172 0.31821579 4294901760
0.067727067 0.095876172 0.31871578 4294901760
0.067727067 0.095876172 0.31921577 4294901760
0.067727067 0.095876172 0.31971577 4294901760
0.067727067 0.095876172 0.32021576 4294901760
0.067727067 0.095876172 0.32071579 4294901760
0.067727067 0.095876172 0.32121578 4294901760
0.067727067 0.095876172 0.32171577 4294901760
0.067727067 0.095876172 0.32221577 4294901760
0.067727067 0.095876172 0.32271579 4294901760
0.067727067 0.095876172 0.32321578 4294901760
0.067727067 0.095876172 0.32371578 4294901760
0.067727067 0.095876172 0.32421577 4294901760
0.067727067 0.095876172 0.32471579 4294901760
0.067727067 0.095876172 0.32521579 4294901760
0.067727067 0.095876172 0.32571578 4294901760
0.067727067 0.095876172 0.32621577 4294901760
0.067727067 0.095876172 0.32671577 4294901760
0.067727067 0.095876172 0.32721579 4294901760
0.067727067 0.095876172 0.32771578 4294901760
0.067727067 0.095876172 0.32821578 4294901760
0.067727067 0.095876172 0.32871577 4294901760
0.067727067 0.095876172 0.32921576 4294901760
0.067727067 0.095876172 0.32971579 4294901760
0.067727067 0.095876172 0.33021578 4294901760
0.067727067 0.095876172 0.33071578 4294901760
0.067727067 0.095876172 0.33121577 4294901760
0.067727067 0.095876172 0.33171576 4294901760
0.067727067 0.095876172 0.33221579 4294901760
0.067727067 0.095876172 0.33271578 4294901760
0.067727067 0.095876172 0.33321577 4294901760
0.067727067 0.095876172 0.33371577 4294901760
0.067727067 0.095876172 0.33421579 4294901760
0.067727067 0.095876172 0.33471578 4294901760
0.067727067 0.095876172 0.33521578 4294901760
0.067727067 0.095876172 0.33571577 4294901760
0.067727067 0.095876172 0.33621579 4294901760
0.067727067 0.095876172 0.33671579 4294901760
0.067727067 0.095876172 0.33721578 4294901760
0.067727067 0.095876172 0.33771577 4294901760
0.067727067 0.095876172 0.33821577 4294901760
0.067727067 0.095876172 0.33871579 4294901760
0.067727067 0.095876172 0.33921579 4294901760
0.067727067 0.095876172 0.33971578 4294901760
0.067727067 0.095876172 0.34021577 4294901760
0.067727067 0.095876172 0.34071577 4294901760
0.067727067 0.095876172 0.34121579 4294901760
0.067727067 0.095876172 0.34171578 4294901760
0.067727067 0.095876172 0.34221578 4294901760
0.067727067 0.095876172 0.34271577 4294901760
0.067727067 0.095876172 0.34321579 4294901760
0.067727067 0.095876172 0.34371579 4294901760
0.067727067 0.095876172 0.34421578 4294901760
0.067727067 0.095876172 0.34471577 4294901760
0.067727067 0.095876172 0.34521577 4294901760
0.067727067 0.095876172 0.34571579 4294901760
0.067727067 0.095876172 0.34621578 4294901760
0.067727067 0.095876172 0.34671578 4294901760
0.067727067 0.095876172 0.34721577 4294901760
0.067727067 0.095876172 0.3477158 4294901760
0.067727067 0.095876172 0.34821579 4294901760
0.067727067 0.095876172 0.34871578 4294901760
0.067727067 0.095876172 0.34921578 4294901760
0.067727067 0.095876172 0.34971577 4294901760
0.067727067 0.095876172 0.35021579 4294901760
0.067727067 0.095876172 0.35071579 4294901760
0.067727067 0.095876172 0.35121578 4294901760
0.067727067 0.095876172 0.35171577 4294901760
0.067727067 0.095876172 0.3522158 4294901760
0.067727067 0.095876172 0.35271579 4294901760
0.067727067 0.095876172 0.35321578 4294901760
0.067727067 0.095876172 0.30321577 4278255360
0.067960121 0.095734157 0.30363473 4278255360
0.068193175 0.095592149 0.30405366 4278255360
0.068426229 0.095450133 0.30447263 4278255360
0.068659283 0.095308125 0.30489156 4278255360
0.06889233 0.09516611 0.30531052 4278255360
0.069125384 0.095024101 0.30572948 4278255360
0.069358438 0.094882086 0.30614841 4278255360
0.069591492 0.094740078 0.30656737 4278255360
0.069824547 0.094598062 0.30698633 4278255360
0.070057601 0.094456054 0.30740526 4278255360
0.070290655 0.094314039 0.30782422 4278255360
0.070523709 0.094172031 0.30824316 4278255360
0.070756756 0.094030015 0.30866212 4278255360
0.07098981 0.093888 0.30908108 4278255360
0.071222864 0.093745992 0.30950001 4278255360
0.071455918 0.093603976 0.30991897 4278255360
0.071688972 0.093461968 0.31033793 4278255360
0.071922027 0.093319952 0.31075686 4278255360
0.072155081 0.093177944 0.31117582 4278255360
0.072388135 0.093035929 0.31159475 4278255360
0.072621182 0.092893921 0.31201372 4278255360
0.072854236 0.092751905 0.31243268 4278255360
0.07308729 0.092609897 0.31285161 4278255360
0.073320344 0.092467882 0.31327057 4278255360
0.073553398 0.092325866 0.31368953 4278255360
0.073786452 0.092183858 0.31410846 4278255360
0.074019507 0.092041843 0.31452742 4278255360
0.074252561 0.091899835 0.31494635 4278255360
0.074485615 0.091757819 0.31536531 4278255360
0.074718662 0.091615811 0.31578428 4278255360
0.074951716 0.091473795 0.31620321 4278255360
0.07518477 0.091331787 0.31662217 4278255360
0.075417824 0.091189772 0.3170411 4278255360
0.075650878 0.091047764 0.31746006 4278255360
0.075883932 0.090905748 0.31787902 4278255360
0.076116987 0.09076374 0.31829795 4278255360
0.076350041 0.090621725 0.31871691 4278255360
0.076583087 0.090479717 0.31913587 4278255360
0.076816142 0.090337701 0.31955481 4278255360
0.077049196 0.090195686 0.31997377 4278255360
0.07728225 0.090053678 0.3203927 4278255360
0.077515304 0.089911662 0.32081166 4278255360
0.077748358 0.089769654 0.32123062 4278255360
0.077981412 0.089627638 0.32164955 4278255360
0.078214467 0.08948563 0.32206851 4278255360
0.078447521 0.089343615 0.32248747 4278255360
0.078680567 0.089201607 0.3229064 4278255360
0.078913622 0.089059591 0.32332537 4278255360
0.079146676 0.088917583 0.3237443 4278255360
0.07937973 0.088775568 0.32416326 4278255360
0.079612784 0.088633552 0.32458222 4278255360
0.079845838 0.088491544 0.32500115 4278255360
0.080078885 0.088349529 0.32542011 4278255360
0.080311947 0.088207521 0.32583904 4278255360
0.080544993 0.088065505 0.326258 4278255360
0.080778047 0.087923497 0.32667696 4278255360
0.081011102 0.087781481 0.3270959 4278255360
0.081244156 0.087639473 0.32751486 4278255360
0.08147721 0.087497458 0.32793382 4278255360
0.081710264 0.08735545 0.32835275 4278255360
0.081943318 0.087213434 0.32877171 4278255360
0.082176372 0.087071419 0.32919064 4278255360
0.082409419 0.086929411 0.3296096 4278255360
0.082642473 0.086787403 0.33002856 4278255360
0.082875527 0.086645387 0.33044749 4278255360
0.083108582 0.086503372 0.33086646 4278255360
0.083341636 0.086361364 0.33128542 4278255360
0.08357469 0.086219348 0.33170435 4278255360
0.083807744 0.08607734 0.33212331 4278255360
0.084040791 0.085935324 0.33254224 4278255360
0.084273845 0.085793316 0.3329612 4278255360
0.084506899 0.085651301 0.33338016 4278255360
0.084739953 0.085509285 0.33379909 4278255360
0.084973007 0.085367277 0.33421806 4278255360
0.085206062 0.085225269 0.33463699 4278255360
0.085439116 0.085083254 0.33505595 4278255360
0.08567217 0.084941238 0.33547491 4278255360
0.085905224 0.08479923 0.33589384 4278255360
0.086138278 0.084657215 0.3363128 4278255360
0.086371332 0.084515207 0.33673176 4278255360
0.086604379 0.084373191 0.33715069 4278255360
0.086837433 0.084231183 0.33756965 4278255360
0.087070487 0.084089167 0.33798859 4278255360
0.087303542 0.083947159 0.33840755 4278255360
0.087536596 0.083805144 0.33882651 4278255360
0.08776965 0.083663136 0.33924544 4278255360
0.088002697 0.08352112 0.3396644 4278255360
0.088235751 0.083379105 0.34008336 4278255360
0.088468805 0.083237097 0.34050229 4278255360
0.088701859 0.083095089 0.34092125 4278255360
0.088934913 0.082953073 0.34134018 4278255360
0.089167967 0.082811058 0.34175915 4278255360
0.089401022 0.08266905 0.34217811 4278255360
0.089634076 0.082527034 0.34259704 4278255360
0.08986713 0.082385026 0.343016 4278255360
0.090100184 0.08224301 0.34343493 4278255360
0.090333238 0.082101002 0.34385389 4278255360
0.090566285 0.081958987 0.34427285 4278255360
0.090799339 0.081816971 0.34469178 4278255360
0.091032393 0.081674963 0.34511074 4278255360
