# .PCD v0.7 - Point Cloud Data file format
VERSION 0.7
FIELDS x y z rgb
SIZE 4 4 4 4
TYPE F F F U
COUNT 1 1 1 1
WIDTH 906
HEIGHT 1
VIEWPOINT 0 0 0 1 0 0 0
POINTS 906
DATA ascii
0.036369801 0.0052871183 0.58600003 4284172083
0.038338441 0.0052961404 0.58700001 4284696372
0.040245019 0.0052961404 0.58700001 4287589721
0.04390806 0.0052780961 0.58500004 4288310626
0.045729842 0.0052690739 0.58400005 4284030999
0.047545116 0.0052600508 0.583 4284423701
0.049269103 0.0052420064 0.58100003 4285607203
0.051068146 0.0052329842 0.58000004 4285736990
0.052860688 0.005223962 0.57900006 4288303689
0.054646734 0.0052149389 0.57800001 4285606178
0.056524079 0.0052149389 0.57800001 4285015068
0.02469437 0.0071174637 0.58000004 4286155386
0.02657821 0.0071174637 0.58000004 4284242249
0.028511124 0.0071297348 0.58100003 4285417015
0.030398212 0.0071297348 0.58100003 4285612336
0.032340869 0.0071420064 0.58200002 4285677359
0.034290023 0.0071542775 0.583 4285282088
0.036307737 0.0071788211 0.58500004 4284819740
0.03827313 0.0071910922 0.58600003 4284030224
0.040245019 0.0072033638 0.58700001 4283376149
0.042079788 0.0071910922 0.58600003 4284233511
0.04390806 0.0071788211 0.58500004 4284696372
0.045729842 0.0071665496 0.58400005 4284564786
0.047545116 0.0071542775 0.583 4284428064
0.049269103 0.0071297348 0.58100003 4284687384
0.051068146 0.0071174637 0.58000004 4285669916
0.052860688 0.0071051922 0.57900006 4288696394
0.054646734 0.0070929201 0.57800001 4285079834
0.056426287 0.007080649 0.57700002 4285079834
0.058300387 0.007080649 0.57700002 4283970091
0.022810528 0.0090019433 0.58000004 4285630073
0.02469437 0.0090019433 0.58000004 4285229146
0.02657821 0.0090019433 0.58000004 4285220921
0.028462052 0.0090019433 0.58000004 4285409824
0.030398212 0.0090174638 0.58100003 4286200110
0.032340869 0.0090329843 0.58200002 4285606433
0.034290023 0.0090485038 0.583 4285606433
0.036307737 0.0090795457 0.58500004 4285018916
0.03827313 0.0090950662 0.58600003 4285090099
0.040176462 0.0090950662 0.58600003 4284436532
0.042079788 0.0090950662 0.58600003 4284501810
0.04390806 0.0090795457 0.58500004 4284238638
0.045729842 0.0090640252 0.58400005 4284370226
0.047463562 0.0090329843 0.58200002 4285810742
0.049269103 0.0090174638 0.58100003 4284292628
0.051068146 0.0090019433 0.58000004 4284750867
0.052860688 0.0089864228 0.57900006 4285014039
0.054646734 0.0089709014 0.57800001 4284685076
0.056426287 0.0089553809 0.57700002 4284291093
0.058300387 0.0089553809 0.57700002 4283835934
0.060070194 0.0089398604 0.57600003 4283574050
0.0227712 0.010867653 0.57900006 4285630073
0.02469437 0.010886422 0.58000004 4283777075
0.02657821 0.010886422 0.58000004 4284625189
0.028462052 0.010886422 0.58000004 4285803553
0.030398212 0.010905192 0.58100003 4287448889
0.032340869 0.010923961 0.58200002 4284816915
0.034290023 0.010942731 0.583 4285144855
0.036245674 0.010961502 0.58400005 4284491800
0.038207818 0.010980271 0.58500004 4285747254
0.040176462 0.010999041 0.58600003 4285420599
0.042007979 0.010980271 0.58500004 4289104242
0.04390806 0.010980271 0.58500004 4285152298
0.045729842 0.010961502 0.58400005 4284426009
0.047463562 0.010923961 0.58200002 4284359189
0.049269103 0.010905192 0.58100003 4285213728
0.051068146 0.010886422 0.58000004 4284161042
0.052860688 0.010867653 0.57900006 4284161558
0.054646734 0.010848883 0.57800001 4283767829
0.056426287 0.010830113 0.57700002 4283373587
0.058300387 0.010830113 0.57700002 4284498745
0.060070194 0.010811344 0.57600003 4282986535
0.0227712 0.012748883 0.57900006 4286485123
0.024651794 0.012748883 0.57900006 4283906354
0.02657821 0.012770901 0.58000004 4284229409
0.028462052 0.012770901 0.58000004 4285145623
0.030398212 0.01279292 0.58100003 4284750865
0.032340869 0.012814938 0.58200002 4285671967
0.034231205 0.012814938 0.58200002 4284487950
0.036245674 0.012858977 0.58400005 4286463534
0.038142506 0.012858977 0.58400005 4285016601
0.040107902 0.012880995 0.58500004 4283570700
0.042007979 0.012880995 0.58500004 4283111180
0.043833006 0.012858977 0.58400005 4282257156
0.045651533 0.012836957 0.583 4282257670
0.047463562 0.012814938 0.58200002 4282782987
0.049269103 0.01279292 0.58100003 4282782987
0.051068146 0.012770901 0.58000004 4282782987
0.052860688 0.012748883 0.57900006 4283046159
0.054646734 0.012726863 0.57800001 4283374870
0.056524079 0.012726863 0.57800001 4283638042
0.058300387 0.012704845 0.57700002 4284962122
0.06027877 0.012726863 0.57800001 4287401853
0.0227712 0.014630113 0.57900006 4286747271
0.024651794 0.014630113 0.57900006 4283970350
0.026532387 0.014630113 0.57900006 4284033313
0.028462052 0.014655381 0.58000004 4284359191
0.030398212 0.014680648 0.58100003 4284555800
0.032285299 0.014680648 0.58100003 4284292628
0.034231205 0.014705916 0.58200002 4283570702
0.036183607 0.014731183 0.583 4283702288
0.038142506 0.014756452 0.58400005 4283176714
0.040107902 0.01478172 0.58500004 4284103974
0.042007979 0.01478172 0.58500004 4286935637
0.043833006 0.014756452 0.58400005 4285555785
0.045651533 0.014731183 0.583 4284370739
0.047463562 0.014705916 0.58200002 4281996551
0.049269103 0.014680648 0.58100003 4282390287
0.051068146 0.014655381 0.58000004 4282455569
0.052860688 0.014630113 0.57900006 4282389776
0.054741282 0.014630113 0.57900006 4282389004
0.056524079 0.014604844 0.57800001 4283703835
0.058401424 0.014604844 0.57800001 4284297769
0.060383063 0.014630113 0.57900006 4286740070
0.020854523 0.016482826 0.57800001 4285630327
0.022731869 0.016482826 0.57800001 4286614140
0.024651794 0.016511343 0.57900006 4284032804
0.026532387 0.016511343 0.57900006 4283111698
0.028462052 0.016539861 0.58000004 4283505940
0.030398212 0.016568378 0.58100003 4283768597
0.032285299 0.016568378 0.58100003 4283242766
0.034231205 0.016596893 0.58200002 4282915086
0.036183607 0.01662541 0.583 4282721553
0.038142506 0.016653929 0.58400005 4285818183
0.040039342 0.016653929 0.58400005 4282464277
0.041936174 0.016653929 0.58400005 4286216014
0.043833006 0.016653929 0.58400005 4286281807
0.045651533 0.01662541 0.583 4283451172
0.047463562 0.016596893 0.58200002 4282522893
0.049269103 0.016568378 0.58100003 4282717967
0.051156193 0.016568378 0.58100003 4282586383
0.052951984 0.016539861 0.58000004 4282454797
0.054741282 0.016511343 0.57900006 4284100905
0.056621876 0.016511343 0.57900006 4281996299
0.058502469 0.016511343 0.57900006 4283374100
0.060383063 0.016511343 0.57900006 4283572764
0.020854523 0.018360807 0.57800001 4285564021
0.022731869 0.018360807 0.57800001 4283980108
0.024609216 0.018360807 0.57800001 4283638555
0.026532387 0.018392574 0.57900006 4284101927
0.028462052 0.01842434 0.58000004 4285155126
0.030398212 0.018456105 0.58100003 4283638807
0.032285299 0.018456105 0.58100003 4283178258
0.034231205 0.018487873 0.58200002 4282852373
0.036183607 0.018519638 0.583 4285096513
0.038142506 0.018551406 0.58400005 4282531354
0.040039342 0.018551406 0.58400005 4284703288
0.041936174 0.018551406 0.58400005 4283979563
0.043833006 0.018551406 0.58400005 4283320868
0.045651533 0.018519638 0.583 4281608203
0.047545116 0.018519638 0.583 4283048469
0.049353905 0.018487873 0.58200002 4282915346
0.051156193 0.018456105 0.58100003 4283046418
0.05304328 0.018456105 0.58100003 4282914832
0.054835826 0.01842434 0.58000004 4284105518
0.056719668 0.01842434 0.58000004 4283448872
0.05860351 0.01842434 0.58000004 4282062090
0.060487349 0.01842434 0.58000004 4283506971
0.062478725 0.018456105 0.58100003 4283841331
0.022692541 0.020203773 0.57700002 4282265633
0.024609216 0.020238787 0.57800001 4283640606
0.026532387 0.020273805 0.57900006 4283776553
0.028462052 0.020308819 0.58000004 4284694314
0.030398212 0.020343835 0.58100003 4283439886
0.032340869 0.020378849 0.58200002 4281405441
0.034231205 0.020378849 0.58200002 4284241206
0.036183607 0.020413864 0.583 4282466590
0.038142506 0.02044888 0.58400005 4282795555
0.040039342 0.02044888 0.58400005 4282335006
0.041936174 0.02044888 0.58400005 4281019407
0.043833006 0.02044888 0.58400005 4279307776
0.045729842 0.02044888 0.58400005 4279898630
0.047545116 0.020413864 0.583 4282332203
0.049438704 0.020413864 0.583 4279699200
0.05124424 0.020378849 0.58200002 4281471500
0.053134575 0.020378849 0.58200002 4282063117
0.055024914 0.020378849 0.58200002 4282924578
0.056817457 0.020343835 0.58100003 4282662176
0.058704548 0.020343835 0.58100003 4283711532
0.060591638 0.020343835 0.58100003 4282391055
0.062478725 0.020343835 0.58100003 4283835421
0.066252902 0.020343835 0.58100003 4286137660
0.068139993 0.020343835 0.58100003 4285738537
0.070027083 0.020343835 0.58100003 4285936170
0.071914166 0.020343835 0.58100003 4285611316
0.022692541 0.022078505 0.57700002 4283116575
0.024609216 0.022116769 0.57800001 4283051036
0.026532387 0.022155035 0.57900006 4283843370
0.028462052 0.022193298 0.58000004 4283638548
0.030398212 0.022231562 0.58100003 4282848010
0.032340869 0.022269826 0.58200002 4284173110
0.034290023 0.022308089 0.583 4282070299
0.036183607 0.022308089 0.583 4282333984
0.038142506 0.022346355 0.58400005 4281479445
0.040039342 0.022346355 0.58400005 4279506436
0.041936174 0.022346355 0.58400005 4279308807
0.043833006 0.022346355 0.58400005 4279243019
0.045729842 0.022346355 0.58400005 4279045383
0.047545116 0.022308089 0.583 4281808948
0.049438704 0.022308089 0.583 4281151018
0.051332287 0.022308089 0.583 4282400310
0.053225871 0.022308089 0.583 4279307522
0.055119459 0.022308089 0.583 4282860330
0.057013039 0.022308089 0.583 4282005789
0.058805589 0.022269826 0.58200002 4282399777
0.060695924 0.022269826 0.58200002 4281540875
0.062586263 0.022269826 0.58200002 4283176975
0.064476602 0.022269826 0.58200002 4284622111
0.066252902 0.022231562 0.58100003 4285869605
0.068139993 0.022231562 0.58100003 4289356634
0.070027083 0.022231562 0.58100003 4285474592
0.071914166 0.022231562 0.58100003 4285409056
0.073928282 0.022269826 0.58200002 4284106561
0.028462052 0.024077777 0.58000004 4283308559
0.030398212 0.02411929 0.58100003 4281797120
0.032340869 0.024160802 0.58200002 4283319082
0.034290023 0.024202315 0.583 4282135580
0.036183607 0.024202315 0.583 4281939228
0.038142506 0.024243832 0.58400005 4279242240
0.040039342 0.024243832 0.58400005 4279243273
0.041936174 0.024243832 0.58400005 4279177226
0.043833006 0.024243832 0.58400005 4281482036
0.045729842 0.024243832 0.58400005 4284113754
0.047545116 0.024202315 0.583 4284312155
0.049438704 0.024202315 0.583 4282798148
0.051420338 0.024243832 0.58400005 4278782211
0.053317171 0.024243832 0.58400005 4280230164
0.055214006 0.024243832 0.58400005 4279110912
0.057110839 0.024243832 0.58400005 4282400295
0.058906626 0.024202315 0.583 4282071582
0.06080021 0.024202315 0.583 4282596129
0.062586263 0.024160802 0.58200002 4282520842
0.064476602 0.024160802 0.58200002 4284358937
0.066366933 0.024160802 0.58200002 4285276180
0.068139993 0.02411929 0.58100003 4286065696
0.070027083 0.02411929 0.58100003 4285473820
0.071914166 0.02411929 0.58100003 4285014298
0.073928282 0.024160802 0.58200002 4283050793
0.019075679 0.026007017 0.58100003 4286615939
0.020962765 0.026007017 0.58100003 4283572251
0.022849856 0.026007017 0.58100003 4283638042
0.032340869 0.02605178 0.58200002 4282990887
0.034290023 0.026096541 0.583 4281609236
0.036183607 0.026096541 0.583 4281479197
0.038077191 0.026096541 0.583 4281676837
0.039970778 0.026096541 0.583 4280099352
0.041864362 0.026096541 0.583 4282336060
0.043757945 0.026096541 0.583 4283982938
0.045651533 0.026096541 0.583 4283193674
0.047545116 0.026096541 0.583 4280823841
0.049523506 0.026141306 0.58400005 4283587149
0.051420338 0.026141306 0.58400005 4284508251
0.053317171 0.026141306 0.58400005 4278915076
0.055214006 0.026141306 0.58400005 4281480231
0.057110839 0.026141306 0.58400005 4281677089
0.059007674 0.026141306 0.58400005 4282136607
0.06080021 0.026096541 0.583 4282070814
0.062693797 0.026096541 0.583 4282390539
0.064476602 0.02605178 0.58200002 4283571218
0.066366933 0.02605178 0.58200002 4284685072
0.068257272 0.02605178 0.58200002 4285079060
0.070147611 0.02605178 0.58200002 4285343004
0.072037943 0.02605178 0.58200002 4284227353
0.073928282 0.02605178 0.58200002 4282327844
0.01718859 0.027894748 0.58100003 4285892732
0.019075679 0.027894748 0.58100003 4284176719
0.020962765 0.027894748 0.58100003 4284820003
0.022849856 0.027894748 0.58100003 4286136377
0.02469437 0.027846737 0.58000004 4283181850
0.026624035 0.027894748 0.58100003 4283508759
0.028511124 0.027894748 0.58100003 4283242768
0.030398212 0.027894748 0.58100003 4284299817
0.032340869 0.02794276 0.58200002 4283382819
0.034231205 0.02794276 0.58200002 4282722836
0.036183607 0.02799077 0.583 4282000924
0.038077191 0.02799077 0.583 4282070828
0.039970778 0.02799077 0.583 4279112457
0.041864362 0.02799077 0.583 4281349419
0.043757945 0.02799077 0.583 4280888600
0.045651533 0.02799077 0.583 4287533166
0.047545116 0.02799077 0.583 4281017876
0.049523506 0.028038785 0.58400005 4281216032
0.051420338 0.028038785 0.58400005 4280890149
0.053317171 0.028038785 0.58400005 4279376910
0.055308551 0.028086795 0.58500004 4280033305
0.057208627 0.028086795 0.58500004 4279044864
0.059007674 0.028038785 0.58400005 4282070814
0.060904503 0.028038785 0.58400005 4281939226
0.062693797 0.02799077 0.583 4281997578
0.064587384 0.02799077 0.583 4283178258
0.066366933 0.02794276 0.58200002 4283701261
0.068257272 0.02794276 0.58200002 4284161042
0.070147611 0.02794276 0.58200002 4283965206
0.072037943 0.02794276 0.58200002 4282980625
0.073928282 0.02794276 0.58200002 4283516481
0.015275164 0.029731216 0.58000004 4285826939
0.017159006 0.029731216 0.58000004 4287402373
0.019042848 0.029731216 0.58000004 4284564538
0.020926686 0.029731216 0.58000004 4285739561
0.022810528 0.029731216 0.58000004 4285672996
0.02469437 0.029731216 0.58000004 4285738789
0.02657821 0.029731216 0.58000004 4284423699
0.028462052 0.029731216 0.58000004 4283372555
0.030398212 0.029782476 0.58100003 4283570448
0.032285299 0.029782476 0.58100003 4284228632
0.034231205 0.029833736 0.58200002 4284359704
0.036121543 0.029833736 0.58200002 4282391572
0.038011879 0.029833736 0.58200002 4281937959
0.039970778 0.029884996 0.583 4278388480
0.041864362 0.029884996 0.583 4281349419
0.043757945 0.029884996 0.583 4280493585
0.045651533 0.029884996 0.583 4280887308
0.047545116 0.029884996 0.583 4281609748
0.049438704 0.029884996 0.583 4279833348
0.051420338 0.02993626 0.58400005 4281416495
0.053317171 0.02993626 0.58400005 4278521603
0.055308551 0.02998752 0.58500004 4281481775
0.057208627 0.02998752 0.58500004 4278980099
0.059007674 0.02993626 0.58400005 4281545240
0.060904503 0.02993626 0.58400005 4281939996
0.062693797 0.029884996 0.583 4282326543
0.064587384 0.029884996 0.583 4283571733
0.066480964 0.029884996 0.583 4284161560
0.068257272 0.029833736 0.58200002 4283702036
0.070147611 0.029833736 0.58200002 4282850325
0.072037943 0.029833736 0.58200002 4283971636
0.074055299 0.029884996 0.583 4286546812
0.015275164 0.031615693 0.58000004 4285893245
0.017159006 0.031615693 0.58000004 4285094739
0.019042848 0.031615693 0.58000004 4285151796
0.020926686 0.031615693 0.58000004 4285540385
0.022810528 0.031615693 0.58000004 4287974726
0.024651794 0.031561185 0.57900006 4285211418
0.026532387 0.031561185 0.57900006 4285408795
0.028462052 0.031615693 0.58000004 4283767054
0.030345893 0.031615693 0.58000004 4283635214
0.032229733 0.031615693 0.58000004 4284490007
0.03417239 0.031670205 0.58100003 4284554517
0.03605948 0.031670205 0.58100003 4283639071
0.038011879 0.031724714 0.58200002 4281804576
0.039902218 0.031724714 0.58200002 4278783240
0.041792553 0.031724714 0.58200002 4282203956
0.043682888 0.031724714 0.58200002 4280360975
0.045651533 0.031779222 0.583 4281281044
0.047545116 0.031779222 0.583 4281610263
0.049438704 0.031779222 0.583 4281084437
0.051420338 0.031833734 0.58400005 4281875759
0.053317171 0.031833734 0.58400005 4278849283
0.055214006 0.031833734 0.58400005 4278454273
0.057110839 0.031833734 0.58400005 4279571977
0.059007674 0.031833734 0.58400005 4281347861
0.060904503 0.031833734 0.58400005 4281347861
0.062801339 0.031833734 0.58400005 4282851860
0.064587384 0.031779222 0.583 4283702806
0.066480964 0.031779222 0.583 4284364079
0.068374552 0.031779222 0.583 4287333752
0.070268139 0.031779222 0.583 4281603601
0.072161719 0.031779222 0.583 4282460713
0.074055299 0.031779222 0.583 4286220415
0.015275164 0.033500172 0.58000004 4286155904
0.017159006 0.033500172 0.58000004 4284106563
0.019010015 0.033442415 0.57900006 4284493866
0.020890607 0.033442415 0.57900006 4285342234
0.0227712 0.033442415 0.57900006 4284815377
0.024651794 0.033442415 0.57900006 4285539611
0.026532387 0.033442415 0.57900006 4284881170
0.028412981 0.033442415 0.57900006 4283897870
0.030293573 0.033442415 0.57900006 4283832077
0.032229733 0.033500172 0.58000004 4284357908
0.034113575 0.033500172 0.58000004 4284160529
0.03605948 0.033557933 0.58100003 4283243284
0.037946567 0.033557933 0.58100003 4280026624
0.039902218 0.03361569 0.58200002 4278979847
0.041792553 0.03361569 0.58200002 4278979590
0.043682888 0.03361569 0.58200002 4282531631
0.045573227 0.03361569 0.58200002 4281018644
0.047463562 0.03361569 0.58200002 4280558606
0.049438704 0.033673447 0.583 4281612066
0.051332287 0.033673447 0.583 4281151268
0.053317171 0.033731211 0.58400005 4280823591
0.055214006 0.033731211 0.58400005 4280756512
0.057110839 0.033731211 0.58400005 4281282079
0.059007674 0.033731211 0.58400005 4281479447
0.060904503 0.033731211 0.58400005 4281412884
0.062801339 0.033731211 0.58400005 4283309844
0.064698175 0.033731211 0.58400005 4284095767
0.066595003 0.033731211 0.58400005 4286080090
0.068491839 0.033731211 0.58400005 4286745724
0.070388667 0.033731211 0.58400005 4281145880
0.072285503 0.033731211 0.58400005 4287267204
0.074182332 0.033731211 0.58400005 4286089343
0.015275164 0.035384651 0.58000004 4285959038
0.017129421 0.035323646 0.57900006 4283450688
0.019010015 0.035323646 0.57900006 4283771688
0.020854523 0.035262633 0.57800001 4284883228
0.022731869 0.035262633 0.57800001 4284882455
0.024609216 0.035262633 0.57800001 4284882455
0.026486561 0.035262633 0.57800001 4284488724
0.028363906 0.035262633 0.57800001 4284029456
0.030241249 0.035262633 0.57800001 4284029456
0.032118596 0.035262633 0.57800001 4284029456
0.03405476 0.035323646 0.57900006 4283701261
0.035997417 0.035384651 0.58000004 4282917653
0.037946567 0.03544566 0.58100003 4280882443
0.039833657 0.03544566 0.58100003 4279045640
0.041720748 0.03544566 0.58100003 4279045642
0.043682888 0.035506666 0.58200002 4279044867
0.045573227 0.035506666 0.58200002 4280097038
0.047463562 0.035506666 0.58200002 4279636741
0.049353905 0.035506666 0.58200002 4278650880
0.051332287 0.035567675 0.583 4280954407
0.053225871 0.035567675 0.583 4279968282
0.055119459 0.035567675 0.583 4279699713
0.057110839 0.035628684 0.58400005 4282394650
0.059007674 0.035628684 0.58400005 4281609236
0.060904503 0.035628684 0.58400005 4280951306
0.062801339 0.035628684 0.58400005 4284096280
0.064698175 0.035628684 0.58400005 4285082408
0.066595003 0.035628684 0.58400005 4287530879
0.068491839 0.035628684 0.58400005 4286678650
0.070509195 0.035689693 0.58500004 4281541919
0.07240928 0.035689693 0.58500004 4287007363
0.074309357 0.035689693 0.58500004 4286089343
0.015248828 0.037204877 0.57900006 4285826939
0.017129421 0.037204877 0.57900006 4286153078
0.01897718 0.037140619 0.57800001 4282659115
0.020854523 0.037140619 0.57800001 4283570968
0.022692541 0.037076361 0.57700002 4284359198
0.024566639 0.037076361 0.57700002 4284161558
0.026440736 0.037076361 0.57700002 4283766800
0.028314834 0.037076361 0.57700002 4284227351
0.030136609 0.037012104 0.57600003 4284029456
0.032063026 0.037076361 0.57700002 4284229661
0.033995941 0.037140619 0.57800001 4282722582
0.035935353 0.037204877 0.57900006 4282001941
0.037881255 0.037269134 0.58000004 4281872154
0.039765101 0.037269134 0.58000004 4280032532
0.041720748 0.037333392 0.58100003 4279045640
0.043607835 0.037333392 0.58100003 4278979849
0.045494925 0.037333392 0.58100003 4280756255
0.047463562 0.037397645 0.58200002 4279242242
0.049353905 0.037397645 0.58200002 4283781961
0.05124424 0.037397645 0.58200002 4279241992
0.053225871 0.037461903 0.583 4280028169
0.055119459 0.037461903 0.583 4285083689
0.057013039 0.037461903 0.583 4285148707
0.058906626 0.037461903 0.583 4282391561
0.06080021 0.037461903 0.583 4284299304
0.062801339 0.037526164 0.58400005 4284555546
0.064698175 0.037526164 0.58400005 4283833622
0.066595003 0.037526164 0.58400005 4286612085
0.068609118 0.037590418 0.58500004 4283189309
0.070509195 0.037590418 0.58500004 4285361765
0.07240928 0.037590418 0.58500004 4286023802
0.074309357 0.037590418 0.58500004 4286155904
0.017129421 0.039086107 0.57900006 4285958525
0.01897718 0.039018597 0.57800001 4284968804
0.020818444 0.038951091 0.57700002 4284037942
0.022692541 0.038951091 0.57700002 4283048219
0.024524063 0.038883585 0.57600003 4283375383
0.026394913 0.038883585 0.57600003 4283046418
0.028265761 0.038883585 0.57600003 4283834903
0.03008429 0.038816083 0.57500005 4284424984
0.03200746 0.038883585 0.57600003 4283571472
0.033937123 0.038951091 0.57700002 4282656530
0.035873286 0.039018597 0.57800001 4281346064
0.037815943 0.039086107 0.57900006 4281346064
0.039765101 0.039153613 0.58000004 4280887058
0.041648939 0.039153613 0.58000004 4281084952
0.043607835 0.039221119 0.58100003 4279506186
0.045494925 0.039221119 0.58100003 4278519552
0.047382012 0.039221119 0.58100003 4279308805
0.049269103 0.039221119 0.58100003 4279242244
0.05124424 0.039288625 0.58200002 4281471248
0.053134575 0.039288625 0.58200002 4284492072
0.055024914 0.039288625 0.58200002 4284948246
0.057013039 0.039356127 0.583 4285211416
0.058906626 0.039356127 0.583 4286461994
0.06080021 0.039356127 0.583 4284882962
0.062801339 0.039423637 0.58400005 4285213215
0.064698175 0.039423637 0.58400005 4286667602
0.066595003 0.039423637 0.58400005 4287138431
0.068609118 0.039491143 0.58500004 4282001957
0.070509195 0.039491143 0.58500004 4287008135
0.020782365 0.040755071 0.57600003 4286152308
0.022653213 0.040755071 0.57600003 4281606429
0.024524063 0.040755071 0.57600003 4282390805
0.026394913 0.040755071 0.57600003 4282326293
0.028265761 0.040755071 0.57600003 4282327572
0.029979646 0.040542804 0.57300001 4283967259
0.031896319 0.040613558 0.574 4284095249
0.033878308 0.040755071 0.57600003 4284030739
0.035811223 0.040825825 0.57700002 4281936146
0.037750628 0.04089658 0.57800001 4281280271
0.039696541 0.040967338 0.57900006 4281149458
0.041648939 0.041038092 0.58000004 4281083665
0.043532778 0.041038092 0.58000004 4280887058
0.045416623 0.041038092 0.58000004 4281018644
0.047382012 0.041108847 0.58100003 4280887060
0.049269103 0.041108847 0.58100003 4280952853
0.051156193 0.041108847 0.58100003 4282850836
0.053134575 0.041179601 0.58200002 4284095765
0.055024914 0.041179601 0.58200002 4285144342
0.05691525 0.041179601 0.58200002 4285735707
0.058906626 0.041250356 0.583 4285866777
0.06080021 0.041250356 0.583 4285735961
0.062693797 0.041250356 0.583 4283963150
0.064698175 0.041321114 0.58400005 4288577909
0.066595003 0.041321114 0.58400005 4285356628
0.068609118 0.041391868 0.58500004 4282196254
0.070509195 0.041391868 0.58500004 4286155134
0.029822687 0.042182527 0.57000005 4282131480
0.031785183 0.042330533 0.57200003 4285017634
0.033819493 0.042552549 0.57500005 4284686871
0.035749156 0.042626552 0.57600003 4283637263
0.037750628 0.042774558 0.57800001 4282327563
0.039627977 0.042774558 0.57800001 4281149197
0.041577131 0.042848568 0.57900006 4281214992
0.043457724 0.042848568 0.57900006 4281018126
0.045416623 0.042922571 0.58000004 4281018126
0.047300462 0.042922571 0.58000004 4281083665
0.049184304 0.042922571 0.58000004 4281083152
0.051156193 0.042996574 0.58100003 4282196240
0.05304328 0.042996574 0.58100003 4284032282
0.055024914 0.043070577 0.58200002 4285669914
0.05691525 0.043070577 0.58200002 4285865496
0.058906626 0.04314458 0.583 4286063645
0.06080021 0.04314458 0.583 4288367427
0.062693797 0.04314458 0.583 4285014298
0.064698175 0.04321859 0.58400005 4284883998
0.066595003 0.04321859 0.58400005 4283440926
0.068491839 0.04321859 0.58400005 4284037942
0.031729616 0.044111766 0.57100004 4282456848
0.033760674 0.044343524 0.574 4284426011
0.035749156 0.044498034 0.57600003 4285014037
0.037685316 0.044575289 0.57700002 4284948498
0.039627977 0.04465254 0.57800001 4283637776
0.041577131 0.044729795 0.57900006 4282523660
0.043457724 0.044729795 0.57900006 4281738256
0.045338318 0.044729795 0.57900006 4281607183
0.047300462 0.04480705 0.58000004 4281344011
0.049184304 0.04480705 0.58000004 4281540623
0.051156193 0.044884302 0.58100003 4283046670
0.05304328 0.044884302 0.58100003 4284620826
0.055024914 0.044961553 0.58200002 4285932316
0.05691525 0.044961553 0.58200002 4285998106
0.058906626 0.045038808 0.583 4286128922
0.06080021 0.045038808 0.583 4290011482
0.062801339 0.045116063 0.58400005 4284750869
0.064698175 0.045116063 0.58400005 4285276443
0.066595003 0.045116063 0.58400005 4284362792
0.068491839 0.045116063 0.58400005 4286540389
0.03167405 0.045886502 0.57000005 4280487173
0.033701856 0.046128009 0.57300001 4281667849
0.035749156 0.046369519 0.57600003 4284816915
0.037685316 0.046450019 0.57700002 4284814859
0.039627977 0.046530519 0.57800001 4285538582
0.041505318 0.046530519 0.57800001 4285537558
0.043457724 0.046611026 0.57900006 4285342234
0.045338318 0.046611026 0.57900006 4285738019
0.047300462 0.046691529 0.58000004 4285344031
0.049184304 0.046691529 0.58000004 4285344033
0.051156193 0.046772029 0.58100003 4284818459
0.053134575 0.046852533 0.58200002 4285607203
0.055024914 0.046852533 0.58200002 4285868063
0.057013039 0.046933033 0.583 4285406996
0.058906626 0.046933033 0.583 4285406996
0.060904503 0.04701354 0.58400005 4285867547
0.062801339 0.04701354 0.58400005 4285605406
0.064698175 0.04701354 0.58400005 4284948505
0.066595003 0.04701354 0.58400005 4283508516
0.068491839 0.04701354 0.58400005 4287069815
0.031729616 0.047822241 0.57100004 4282916116
0.033760674 0.048073493 0.574 4283506969
0.035749156 0.048241001 0.57600003 4285144853
0.037750628 0.048408501 0.57800001 4286591268
0.039627977 0.048408501 0.57800001 4286129947
0.041577131 0.048492257 0.57900006 4285734934
0.043457724 0.048492257 0.57900006 4285866523
0.045338318 0.048492257 0.57900006 4286130465
0.047300462 0.048576009 0.58000004 4286066725
0.049269103 0.048659757 0.58100003 4288238153
0.051156193 0.048659757 0.58100003 4286727487
0.053134575 0.048743509 0.58200002 4283899161
0.055119459 0.048827261 0.583 4286077264
0.057013039 0.048827261 0.583 4283308307
0.059007674 0.048911016 0.58400005 4284422677
0.060904503 0.048911016 0.58400005 4284816919
0.062801339 0.048911016 0.58400005 4284751896
0.064698175 0.048911016 0.58400005 4284227353
0.066595003 0.048911016 0.58400005 4282327840
0.031896319 0.049938478 0.574 4283375637
0.033878308 0.050112482 0.57600003 4284229915
0.035811223 0.050199483 0.57700002 4285406742
0.037750628 0.050286483 0.57800001 4285866777
0.039696541 0.050373487 0.57900006 4285472019
0.041577131 0.050373487 0.57900006 4285406226
0.043457724 0.050373487 0.57900006 4284553488
0.045416623 0.050460488 0.58000004 4283043079
0.047300462 0.050460488 0.58000004 4281666564
0.049269103 0.050547484 0.58100003 4281601802
0.05124424 0.050634485 0.58200002 4280881681
0.053225871 0.050721485 0.583 4283647293
0.055119459 0.050721485 0.583 4286410853
0.057110839 0.050808489 0.58400005 4282917662
0.059108712 0.05089549 0.58500004 4283440665
0.061008792 0.05089549 0.58500004 4283899933
0.062908873 0.05089549 0.58500004 4283834653
0.064808957 0.05089549 0.58500004 4283244315
0.066595003 0.050808489 0.58400005 4284572252
0.03200746 0.051983967 0.57600003 4284366642
0.033937123 0.052074216 0.57700002 4283901979
0.035873286 0.052164465 0.57800001 4284619538
0.037815943 0.052254722 0.57900006 4284750867
0.039696541 0.052254722 0.57900006 4285343004
0.041577131 0.052254722 0.57900006 4284290316
0.043532778 0.05234497 0.58000004 4283635727
0.045416623 0.05234497 0.58000004 4281733129
0.047382012 0.052435219 0.58100003 4280421640
0.049353905 0.052525468 0.58200002 4280619532
0.05124424 0.052525468 0.58200002 4281014292
0.053225871 0.052615717 0.583 4281145365
0.055214006 0.05270597 0.58400005 4282063898
0.057208627 0.052796219 0.58500004 4282457627
0.059209753 0.052886467 0.58600003 4282720797
0.061113078 0.052886467 0.58600003 4283116325
0.063016407 0.052886467 0.58600003 4283185461
0.064808957 0.052796219 0.58500004 4285623654
0.028462052 0.054229449 0.58000004 4280692520
0.030345893 0.054229449 0.58000004 4279573526
0.032118596 0.054042447 0.57800001 4280819478
0.033995941 0.054042447 0.57800001 4283249961
0.035935353 0.054135952 0.57900006 4283637526
0.037815943 0.054135952 0.57900006 4283898901
0.039696541 0.054135952 0.57900006 4284029972
0.041648939 0.054229449 0.58000004 4283702034
0.043532778 0.054229449 0.58000004 4283640093
0.045416623 0.054229449 0.58000004 4282128400
0.047382012 0.054322947 0.58100003 4281735185
0.049353905 0.054416444 0.58200002 4281539859
0.051332287 0.054509941 0.583 4281474841
0.053317171 0.054603446 0.58400005 4282726193
0.055214006 0.054603446 0.58400005 4284046162
0.057208627 0.054696944 0.58500004 4284770653
0.05931079 0.054883938 0.58700001 4285429864
0.061217368 0.054883938 0.58700001 4284641118
0.063016407 0.054790441 0.58600003 4285168489
0.028462052 0.056113929 0.58000004 4280299045
0.030345893 0.056113929 0.58000004 4279837981
0.032118596 0.05592043 0.57800001 4280033559
0.03405476 0.056017179 0.57900006 4282531379
0.035935353 0.056017179 0.57900006 4283839530
0.037815943 0.056017179 0.57900006 4282982424
0.039696541 0.056017179 0.57900006 4283046934
0.041577131 0.056017179 0.57900006 4283772710
0.043532778 0.056113929 0.58000004 4282593061
0.045416623 0.056113929 0.58000004 4281145617
0.047382012 0.056210674 0.58100003 4280358929
0.049353905 0.05630742 0.58200002 4280227858
0.051332287 0.05640417 0.583 4280032532
0.053225871 0.05640417 0.583 4279770133
0.055214006 0.056500919 0.58400005 4281021483
0.057208627 0.056597669 0.58500004 4284970598
0.059411831 0.05688791 0.588 4284576354
0.061321653 0.05688791 0.588 4284642147
0.028462052 0.057998408 0.58000004 4280364585
0.030293573 0.05789841 0.57900006 4280101666
0.032174166 0.05789841 0.57900006 4279837209
0.03405476 0.05789841 0.57900006 4279705110
0.035935353 0.05789841 0.57900006 4280295702
0.037815943 0.05789841 0.57900006 4280819480
0.039696541 0.05789841 0.57900006 4280883987
0.041577131 0.05789841 0.57900006 4280489999
0.043457724 0.05789841 0.57900006 4280162835
0.045416623 0.057998408 0.58000004 4280031762
0.047300462 0.057998408 0.58000004 4279835410
0.049269103 0.058098402 0.58100003 4279572754
0.05124424 0.0581984 0.58200002 4279639319
0.053225871 0.058298394 0.583 4279836698
0.055214006 0.058398396 0.58400005 4279574039
0.057208627 0.058498394 0.58500004 4284839014
0.059411831 0.05879838 0.588 4284313952
0.030293573 0.05977964 0.57900006 4280166946
0.032174166 0.05977964 0.57900006 4280034588
0.03405476 0.05977964 0.57900006 4279639830
0.035935353 0.05977964 0.57900006 4279836696
0.037815943 0.05977964 0.57900006 4279836696
0.039627977 0.05967639 0.57800001 4279770133
0.041505318 0.05967639 0.57800001 4279638801
0.043457724 0.05977964 0.57900006 4279703824
0.045338318 0.05977964 0.57900006 4279638801
0.047300462 0.059882887 0.58000004 4279639571
0.049269103 0.059986129 0.58100003 4279507985
0.05124424 0.060089376 0.58200002 4279573526
0.053225871 0.060192619 0.583 4279705112
0.032174166 0.061660871 0.57900006 4280034588
0.03405476 0.061660871 0.57900006 4280034075
0.035873286 0.061554369 0.57800001 4279902489
0.039627977 0.061554369 0.57800001 4279705110
0.041505318 0.061554369 0.57800001 4279507731
0.043382663 0.061554369 0.57800001 4279573524
0.045338318 0.061660871 0.57900006 4279507731
0.047218911 0.061660871 0.57900006 4279507731
0.04314962 0.032413617 0.58110559 4294967295
0.04314962 0.032413617 0.58110559 4294901760
0.04314962 0.032413617 0.58160561 4294901760
0.04314962 0.032413617 0.58210558 4294901760
0.04314962 0.032413617 0.5826056 4294901760
0.04314962 0.032413617 0.58310556 4294901760
0.04314962 0.032413617 0.58360559 4294901760
0.04314962 0.032413617 0.58410561 4294901760
0.04314962 0.032413617 0.58460557 4294901760
0.04314962 0.032413617 0.5851056 4294901760
0.04314962 0.032413617 0.58560556 4294901760
0.04314962 0.032413617 0.58610559 4294901760
0.04314962 0.032413617 0.58660561 4294901760
0.04314962 0.032413617 0.58710557 4294901760
0.04314962 0.032413617 0.5876056 4294901760
0.04314962 0.032413617 0.58810562 4294901760
0.04314962 0.032413617 0.58860558 4294901760
0.04314962 0.032413617 0.58910561 4294901760
0.04314962 0.032413617 0.58960557 4294901760
0.04314962 0.032413617 0.59010559 4294901760
0.04314962 0.032413617 0.59060562 4294901760
0.04314962 0.032413617 0.59110558 4294901760
0.04314962 0.032413617 0.5916056 4294901760
0.04314962 0.032413617 0.59210557 4294901760
0.04314962 0.032413617 0.59260559 4294901760
0.04314962 0.032413617 0.59310561 4294901760
0.04314962 0.032413617 0.59360558 4294901760
0.04314962 0.032413617 0.5941056 4294901760
0.04314962 0.032413617 0.59460557 4294901760
0.04314962 0.032413617 0.59510559 4294901760
0.04314962 0.032413617 0.59560561 4294901760
0.04314962 0.032413617 0.59610558 4294901760
0.04314962 0.032413617 0.5966056 4294901760
0.04314962 0.032413617 0.59710562 4294901760
0.04314962 0.032413617 0.59760559 4294901760
0.04314962 0.032413617 0.59810561 4294901760
0.04314962 0.032413617 0.59860557 4294901760
0.04314962 0.032413617 0.5991056 4294901760
0.04314962 0.032413617 0.59960562 4294901760
0.04314962 0.032413617 0.60010558 4294901760
0.04314962 0.032413617 0.60060561 4294901760
0.04314962 0.032413617 0.60110557 4294901760
0.04314962 0.032413617 0.60160559 4294901760
0.04314962 0.032413617 0.60210562 4294901760
0.04314962 0.032413617 0.60260558 4294901760
0.04314962 0.032413617 0.6031056 4294901760
0.04314962 0.032413617 0.60360557 4294901760
0.04314962 0.032413617 0.60410559 4294901760
0.04314962 0.032413617 0.60460562 4294901760
0.04314962 0.032413617 0.60510558 4294901760
0.04314962 0.032413617 0.6056056 4294901760
0.04314962 0.032413617 0.60610557 4294901760
0.04314962 0.032413617 0.60660559 4294901760
0.04314962 0.032413617 0.60710561 4294901760
0.04314962 0.032413617 0.60760558 4294901760
0.04314962 0.032413617 0.6081056 4294901760
0.04314962 0.032413617 0.60860562 4294901760
0.04314962 0.032413617 0.60910559 4294901760
0.04314962 0.032413617 0.60960561 4294901760
0.04314962 0.032413617 0.61010557 4294901760
0.04314962 0.032413617 0.6106056 4294901760
0.04314962 0.032413617 0.61110562 4294901760
0.04314962 0.032413617 0.61160558 4294901760
0.04314962 0.032413617 0.61210561 4294901760
0.04314962 0.032413617 0.61260557 4294901760
0.04314962 0.032413617 0.6131056 4294901760
0.04314962 0.032413617 0.61360562 4294901760
0.04314962 0.032413617 0.61410558 4294901760
0.04314962 0.032413617 0.61460561 4294901760
0.04314962 0.032413617 0.61510563 4294901760
0.04314962 0.032413617 0.61560559 4294901760
0.04314962 0.032413617 0.61610562 4294901760
0.04314962 0.032413617 0.61660558 4294901760
0.04314962 0.032413617 0.6171056 4294901760
0.04314962 0.032413617 0.61760563 4294901760
0.04314962 0.032413617 0.61810559 4294901760
0.04314962 0.032413617 0.61860561 4294901760
0.04314962 0.032413617 0.61910558 4294901760
0.04314962 0.032413617 0.6196056 4294901760
0.04314962 0.032413617 0.62010562 4294901760
0.04314962 0.032413617 0.62060559 4294901760
0.04314962 0.032413617 0.62110561 4294901760
0.04314962 0.032413617 0.62160558 4294901760
0.04314962 0.032413617 0.6221056 4294901760
0.04314962 0.032413617 0.62260562 4294901760
0.04314962 0.032413617 0.62310559 4294901760
0.04314962 0.032413617 0.62360561 4294901760
0.04314962 0.032413617 0.62410557 4294901760
0.04314962 0.032413617 0.6246056 4294901760
0.04314962 0.032413617 0.62510562 4294901760
0.04314962 0.032413617 0.62560558 4294901760
0.04314962 0.032413617 0.62610561 4294901760
0.04314962 0.032413617 0.62660563 4294901760
0.04314962 0.032413617 0.62710559 4294901760
0.04314962 0.032413617 0.62760562 4294901760
0.04314962 0.032413617 0.62810558 4294901760
0.04314962 0.032413617 0.6286056 4294901760
0.04314962 0.032413617 0.62910563 4294901760
0.04314962 0.032413617 0.62960559 4294901760
0.04314962 0.032413617 0.63010561 4294901760
0.04314962 0.032413617 0.63060558 4294901760
0.04314962 0.032413617 0.6311056 4294901760
0.04314962 0.032413617 0.58110559 4278255360
0.043089624 0.032440349 0.58160126 4278255360
0.043029629 0.032467086 0.58209693 4278255360
0.042969637 0.032493819 0.58259261 4278255360
0.042909641 0.032520555 0.58308828 4278255360
0.042849645 0.032547288 0.58358395 4278255360
0.042789649 0.032574024 0.58407956 4278255360
0.042729657 0.032600757 0.58457524 4278255360
0.042669661 0.032627493 0.58507091 4278255360
0.042609666 0.032654226 0.58556658 4278255360
0.04254967 0.032680959 0.58606225 4278255360
0.042489674 0.032707695 0.58655792 4278255360
0.042429682 0.032734428 0.5870536 4278255360
0.042369686 0.032761164 0.58754927 4278255360
0.04230969 0.032787897 0.58804494 4278255360
0.042249694 0.032814633 0.58854061 4278255360
0.042189702 0.032841366 0.58903629 4278255360
0.042129707 0.032868098 0.5895319 4278255360
0.042069711 0.032894835 0.59002757 4278255360
0.042009715 0.032921568 0.59052324 4278255360
0.041949719 0.032948304 0.59101892 4278255360
0.041889727 0.032975037 0.59151459 4278255360
0.041829731 0.033001773 0.59201026 4278255360
0.041769736 0.033028506 0.59250593 4278255360
0.04170974 0.033055242 0.5930016 4278255360
0.041649744 0.033081975 0.59349728 4278255360
0.041589752 0.033108708 0.59399295 4278255360
0.041529756 0.033135444 0.59448862 4278255360
0.04146976 0.033162177 0.59498423 4278255360
0.041409764 0.033188913 0.59547991 4278255360
0.041349772 0.033215646 0.59597558 4278255360
0.041289777 0.033242382 0.59647125 4278255360
0.041229781 0.033269115 0.59696692 4278255360
0.041169785 0.033295851 0.59746259 4278255360
0.041109793 0.033322584 0.59795827 4278255360
0.041049797 0.033349317 0.59845394 4278255360
0.040989801 0.033376053 0.59894961 4278255360
0.040929805 0.033402786 0.59944528 4278255360
0.04086981 0.033429522 0.59994096 4278255360
0.040809818 0.033456255 0.60043657 4278255360
0.040749822 0.033482991 0.60093224 4278255360
0.040689826 0.033509724 0.60142791 4278255360
0.04062983 0.033536457 0.60192358 4278255360
0.040569834 0.033563193 0.60241926 4278255360
0.040509842 0.033589926 0.60291493 4278255360
0.040449847 0.033616662 0.6034106 4278255360
0.040389851 0.033643395 0.60390627 4278255360
0.040329855 0.033670131 0.60440195 4278255360
0.040269863 0.033696864 0.60489762 4278255360
0.040209867 0.0337236 0.60539329 4278255360
0.040149871 0.033750333 0.60588896 4278255360
0.040089875 0.033777066 0.60638458 4278255360
0.040029883 0.033803802 0.60688025 4278255360
0.039969888 0.033830535 0.60737592 4278255360
0.039909892 0.033857271 0.60787159 4278255360
0.039849896 0.033884004 0.60836726 4278255360
0.0397899 0.03391074 0.60886294 4278255360
0.039729908 0.033937473 0.60935861 4278255360
0.039669912 0.033964209 0.60985428 4278255360
0.039609917 0.033990942 0.61034995 4278255360
0.039549921 0.034017675 0.61084563 4278255360
0.039489925 0.034044411 0.6113413 4278255360
0.039429933 0.034071144 0.61183691 4278255360
0.039369937 0.03409788 0.61233258 4278255360
0.039309941 0.034124613 0.61282825 4278255360
0.039249945 0.034151349 0.61332393 4278255360
0.03918995 0.034178082 0.6138196 4278255360
0.039129958 0.034204818 0.61431527 4278255360
0.039069962 0.034231551 0.61481094 4278255360
0.039009966 0.034258284 0.61530662 4278255360
0.03894997 0.03428502 0.61580229 4278255360
0.038889978 0.034311753 0.61629796 4278255360
0.038829982 0.034338489 0.61679363 4278255360
0.038769986 0.034365222 0.61728925 4278255360
0.038709991 0.034391958 0.61778492 4278255360
0.038649999 0.034418691 0.61828059 4278255360
0.038590003 0.034445424 0.61877626 4278255360
0.038530007 0.03447216 0.61927193 4278255360
0.038470011 0.034498893 0.61976761 4278255360
0.038410015 0.034525629 0.62026328 4278255360
0.038350023 0.034552362 0.62075895 4278255360
0.038290028 0.034579098 0.62125462 4278255360
0.038230032 0.034605831 0.6217503 4278255360
0.038170036 0.034632564 0.62224591 4278255360
0.03811004 0.0346593 0.62274158 4278255360
0.038050048 0.034686033 0.62323725 4278255360
0.037990052 0.034712769 0.62373292 4278255360
0.037930056 0.034739502 0.6242286 4278255360
0.037870061 0.034766238 0.62472427 4278255360
0.037810069 0.034792971 0.62521994 4278255360
0.037750073 0.034819707 0.62571561 4278255360
0.037690077 0.03484644 0.62621129 4278255360
0.037630081 0.034873173 0.62670696 4278255360
0.037570089 0.034899909 0.62720263 4278255360
0.037510093 0.034926642 0.6276983 4278255360
0.037450098 0.034953378 0.62819391 4278255360
0.037390102 0.034980111 0.62868959 4278255360
0.037330106 0.035006847 0.62918526 4278255360
0.037270114 0.03503358 0.62968093 4278255360
0.037210118 0.035060316 0.6301766 4278255360
0.037150122 0.035087049 0.63067228 4278255360
