# .PCD v0.7 - Point Cloud Data file format
VERSION 0.7
FIELDS x y z rgb
SIZE 4 4 4 4
TYPE F F F U
COUNT 1 1 1 1
WIDTH 1010
HEIGHT 1
VIEWPOINT 0 0 0 1 0 0 0
POINTS 1010
DATA ascii
0.0013213749 -0.0086129894 0.36700001 4287905581
0.0025202399 -0.0086364578 0.36800003 4289289803
0.0037558903 -0.0087303324 0.37200001 4287599227
0.0049908361 -0.0087772692 0.37400001 4286684035
0.0062221815 -0.0088007385 0.37500003 4286815880
0.0074798628 -0.0088476753 0.377 4287210638
0.0087043596 -0.0088476753 0.377 4282982422
0.0099551929 -0.0088711446 0.37800002 4284951326
0.011182938 -0.0088711446 0.37800002 4286459682
0.012410683 -0.0088711446 0.37800002 4286984999
0.013638427 -0.0088711446 0.37800002 4287380011
0.014866171 -0.0088711446 0.37800002 4288301370
0.016093915 -0.0088711446 0.37800002 4284890410
-0.0080580739 -0.0072790319 0.36000001 4286621585
-0.0068887929 -0.0072790319 0.36000001 4283194699
-0.0057195118 -0.0072790319 0.36000001 4286268213
-0.0045628715 -0.0072992519 0.36100003 4286790702
-0.0033903427 -0.0072992519 0.36100003 4287182632
-0.0022239573 -0.0073194713 0.36200002 4288037169
-0.0010510762 -0.0073396903 0.36300001 4287443747
0.00012830083 -0.0073599103 0.36400002 4287970091
0.0013141739 -0.0073801298 0.36500001 4288364849
0.0025133914 -0.0074205687 0.36700001 4288036654
0.0037457941 -0.0075014471 0.37100002 4286399801
0.0049908361 -0.0075621055 0.37400001 4288978316
0.0062221815 -0.0075823255 0.37500003 4286815880
0.0074798628 -0.007622764 0.377 4287144845
0.0087274481 -0.0076429839 0.37800002 4283641122
0.0099551929 -0.0076429839 0.37800002 4286859838
0.011212522 -0.0076632029 0.37900001 4288369741
0.012443515 -0.0076632029 0.37900001 4286327844
0.013674506 -0.0076632029 0.37900001 4286129695
0.014866171 -0.0076429839 0.37800002 4286592040
0.016093915 -0.0076429839 0.37800002 4284894523
-0.0092017232 -0.0060923845 0.35900003 4286818451
-0.0080356905 -0.0060923845 0.35900003 4287934363
-0.0068696574 -0.0060923845 0.35900003 4282991666
-0.0057195118 -0.006109355 0.36000001 4286070059
-0.0045502316 -0.006109355 0.36000001 4286396196
-0.0033903427 -0.0061263256 0.36100003 4286919458
-0.0022178141 -0.0061263256 0.36100003 4287313446
-0.0010481807 -0.0061432957 0.36200002 4287116065
0.00012759588 -0.0061432957 0.36200002 4288037167
0.0013069729 -0.0061602662 0.36300001 4292646788
0.002492846 -0.0061772368 0.36400002 4286855464
0.0036549256 -0.0061432957 0.36200002 4287840562
0.0049908361 -0.006346941 0.37400001 4287185463
0.0062221815 -0.0063639116 0.37500003 4288051563
0.0074997037 -0.0064148228 0.37800002 4285811775
0.0087274481 -0.0064148228 0.37800002 4287382585
0.0099815289 -0.0064317929 0.37900001 4288039999
0.011212522 -0.0064317929 0.37900001 4287249200
0.012476347 -0.0064487639 0.38000003 4287118897
0.013710587 -0.0064487639 0.38000003 4286133547
0.014866171 -0.0064148228 0.37800002 4285609258
-0.0092017232 -0.0049259574 0.35900003 4286489486
-0.0080356905 -0.0049259574 0.35900003 4287733902
-0.0068696574 -0.0049259574 0.35900003 4284499513
-0.0057036243 -0.0049259574 0.35900003 4285148957
-0.0045502316 -0.0049396786 0.36000001 4285870109
-0.003380951 -0.0049396786 0.36000001 4286920487
-0.0022116704 -0.0049396786 0.36000001 4286787870
-0.0010452853 -0.0049533998 0.36100003 4286918686
0.0001272434 -0.0049533998 0.36100003 4287510823
0.0013033724 -0.0049671209 0.36200002 4287380266
0.0024859975 -0.0049808421 0.36300001 4292185978
0.0036549256 -0.0049671209 0.36200002 4287314475
0.0049908361 -0.0051317769 0.37400001 4287182632
0.0062221815 -0.0051454986 0.37500003 4287314223
0.0075195436 -0.0052003837 0.37900001 4287445555
0.0087505365 -0.0052003837 0.37900001 4288038714
0.010007866 -0.0052141049 0.38000003 4286592038
0.011242107 -0.0052141049 0.38000003 4285935393
0.01250918 -0.0052278261 0.38100001 4285739041
0.013746668 -0.0052278261 0.38100001 4285544488
-0.0091760904 -0.003749057 0.35800001 4286621072
-0.0080356905 -0.0037595294 0.35900003 4283980619
-0.0068696574 -0.0037595294 0.35900003 4284497712
-0.0057036243 -0.0037595294 0.35900003 4285148187
-0.0045375922 -0.0037595294 0.35900003 4285343511
-0.0033715598 -0.0037595294 0.35900003 4285671190
-0.0022116704 -0.0037700015 0.36000001 4286130971
-0.0010423897 -0.0037700015 0.36000001 4286656284
0.0001272434 -0.003780474 0.36100003 4286787870
0.0012997721 -0.003780474 0.36100003 4287312931
0.002479149 -0.003790946 0.36200002 4286655003
0.0036448294 -0.003780474 0.36100003 4287905581
0.0049774921 -0.0039061406 0.37300003 4288301109
0.0062055886 -0.0039166128 0.37400001 4287511854
0.0075393845 -0.0039794459 0.38000003 4288037944
0.0087967133 -0.0039899182 0.38100001 4285211670
0.010034202 -0.0039899182 0.38100001 4284883732
0.011301276 -0.0040003904 0.38200003 4284556568
0.012542013 -0.0040003904 0.38200003 4284886562
0.013782749 -0.0040003904 0.38200003 4285283373
-0.0091760904 -0.0025858786 0.35800001 4286357900
-0.0080133062 -0.0025858786 0.35800001 4282859828
-0.0068505215 -0.0025858786 0.35800001 4284365358
-0.0056877369 -0.0025858786 0.35800001 4285082910
-0.0045375922 -0.0025931017 0.35900003 4285410076
-0.0033715598 -0.0025931017 0.35900003 4285145875
-0.0022055269 -0.0025931017 0.35900003 4285540633
-0.0010423897 -0.0026003248 0.36000001 4285999901
0.00012689093 -0.0026003248 0.36000001 4286262557
0.0012997721 -0.0026075481 0.36100003 4286721311
0.0024723008 -0.0026075481 0.36100003 4286851614
0.0036448294 -0.0026075481 0.36100003 4287707691
0.0049641472 -0.0026870023 0.37200001 4288102960
0.0061889961 -0.0026942254 0.37300003 4287380268
0.007559225 -0.0027520105 0.38100001 4286263588
0.0088198027 -0.0027592336 0.38200003 4284820253
0.010086875 -0.0027664567 0.38300002 4283900437
0.01133086 -0.0027664567 0.38300002 4284162839
0.012574845 -0.0027664567 0.38300002 4284360988
0.013854909 -0.0027736798 0.384 4284822822
-0.011469533 -0.0014187261 0.35700002 4286621070
-0.010309996 -0.0014187261 0.35700002 4286292105
-0.0091760904 -0.0014227 0.35800001 4286686863
-0.0080133062 -0.0014227 0.35800001 4282791723
-0.0068505215 -0.0014227 0.35800001 4284561195
-0.0056877369 -0.0014227 0.35800001 4284885533
-0.0045249527 -0.0014227 0.35800001 4285146650
-0.0033715598 -0.0014266741 0.35900003 4284883478
-0.0022055269 -0.0014266741 0.35900003 4284817685
-0.0010423897 -0.0014306481 0.36000001 4285409306
0.00012689093 -0.0014306481 0.36000001 4285540635
0.0012997721 -0.0014346222 0.36100003 4285999131
0.0024723008 -0.0014346222 0.36100003 4286656034
0.0036448294 -0.0014346222 0.36100003 4286984483
0.0048307027 -0.0014385962 0.36200002 4287313448
0.0060064788 -0.0014385962 0.36200002 4286788647
0.0075790659 -0.0015180766 0.38200003 4285409304
0.0088428911 -0.0015220506 0.38300002 4288516481
0.010113211 -0.0015260245 0.384 4286610545
0.011360444 -0.0015260245 0.384 4283572501
0.01264051 -0.0015299987 0.38500002 4284098075
0.01389099 -0.0015299987 0.38500002 4284296478
0.015180798 -0.0015339727 0.38600001 4285283119
-0.011469533 -0.00025879653 0.35700002 4283590227
-0.010309996 -0.00025879653 0.35700002 4285565815
-0.0091504594 -0.00025879653 0.35700002 4287340941
-0.0079909237 -0.00025879653 0.35700002 4283774759
-0.0068313861 -0.00025879653 0.35700002 4284823335
-0.0056718495 -0.00025879653 0.35700002 4285213726
-0.0045249527 -0.00025952145 0.35800001 4285870373
-0.0033621681 -0.00025952145 0.35800001 4284160525
-0.0022055269 -0.00026024636 0.35900003 4284358417
-0.0010423897 -0.00026097128 0.36000001 4284292624
0.00012689093 -0.00026097128 0.36000001 4285607455
0.0012997721 -0.0002616962 0.36100003 4285804834
0.0024723008 -0.0002616962 0.36100003 4285738269
0.0036549256 -0.00026242112 0.36200002 4286395426
0.0048307027 -0.00026242112 0.36200002 4286395426
0.0062055886 -0.00027112017 0.37400001 4286132254
0.0075989058 -0.00027764443 0.38300002 4285412388
0.0088659786 -0.00027836935 0.384 4287671191
0.010139548 -0.0002790943 0.38500002 4288461219
0.011390029 -0.0002790943 0.38500002 4282587918
0.012673343 -0.00027981919 0.38600001 4283243536
0.013927069 -0.00027981919 0.38600001 4284296991
0.015220128 -0.00028054413 0.38700002 4284362784
0.016477104 -0.00028054413 0.38700002 4284430638
-0.011469533 0.000901133 0.35700002 4282535476
-0.010309996 0.000901133 0.35700002 4282535478
-0.0091248276 0.00089860882 0.35600001 4282270253
-0.0079685394 0.00089860882 0.35600001 4284430122
-0.0068122507 0.00089860882 0.35600001 4284821285
-0.0056718495 0.000901133 0.35700002 4285673764
-0.0045249527 0.00090365717 0.35800001 4285739811
-0.0033621681 0.00090365717 0.35800001 4284753429
-0.0022055269 0.00090618141 0.35900003 4284162321
-0.0010423897 0.00090870552 0.36000001 4284228632
0.0001272434 0.00091122976 0.36100003 4285215011
0.0012997721 0.00091122976 0.36100003 4285280543
0.002479149 0.00091375393 0.36200002 4285741094
0.0036549256 0.00091375393 0.36200002 4285675814
0.0048307027 0.00091375393 0.36200002 4285741607
0.0060064788 0.00091375393 0.36200002 4285280291
0.0076187463 0.0009692859 0.384 4289632650
0.0088659786 0.0009692859 0.384 4287278230
0.010139548 0.00097181014 0.38500002 4287344023
0.011419613 0.00097433425 0.38600001 4283713077
0.012673343 0.00097433425 0.38600001 4283376149
0.013963151 0.00097685843 0.38700002 4284231712
0.015220128 0.00097685843 0.38700002 4284429091
0.016519681 0.00097938266 0.38800001 4285741871
0.017779905 0.00097938266 0.38800001 4285806637
-0.011469533 0.0020610625 0.35700002 4282206250
-0.010309996 0.0020610625 0.35700002 4282730543
-0.0091248276 0.0020552892 0.35600001 4282068763
-0.0079685394 0.0020552892 0.35600001 4284625189
-0.0068122507 0.0020552892 0.35600001 4285280806
-0.0056559616 0.0020552892 0.35600001 4286264356
-0.0045249527 0.0020668358 0.35800001 4285672219
-0.0033621681 0.0020668358 0.35800001 4285551683
-0.0022055269 0.002072609 0.35900003 4283252524
-0.0010423897 0.0020783823 0.36000001 4283575331
0.0001272434 0.0020841558 0.36100003 4283967261
0.0013033724 0.0020899288 0.36200002 4284096530
0.0024859975 0.0020957021 0.36300001 4285412388
0.0036650221 0.0020957021 0.36300001 4285216295
0.0049508028 0.0021418885 0.37100002 4282849291
0.0061724037 0.0021476618 0.37200001 4280949773
0.0076187463 0.002216941 0.384 4288652438
0.0088890679 0.0022227145 0.38500002 4287213209
0.010165884 0.0022284877 0.38600001 4287081623
0.011449198 0.002234261 0.38700002 4286019691
0.012706175 0.002234261 0.38700002 4283115293
0.013999231 0.0022400343 0.38800001 4283640091
0.015259456 0.0022400343 0.38800001 4284429091
0.016519681 0.0022400343 0.38800001 4285609254
0.017779905 0.0022400343 0.38800001 4287315763
-0.0090991966 0.0032029471 0.35500002 4283250727
-0.007946156 0.0032029471 0.35500002 4285151015
-0.0067931153 0.0032029471 0.35500002 4285411359
-0.0056400741 0.0032029471 0.35500002 4286921516
-0.0045249527 0.0032300141 0.35800001 4287384636
-0.0033621681 0.0032300141 0.35800001 4287209094
-0.0022178141 0.0032570816 0.36100003 4287670930
-0.0010452853 0.0032570816 0.36100003 4283580723
0.00012759588 0.0032661038 0.36200002 4283443745
0.0013069729 0.003275126 0.36300001 4284557081
0.002492846 0.0032841486 0.36400002 4285346849
0.003685215 0.0032931708 0.36500001 4283310356
0.0049374583 0.0033382827 0.37 4281540373
0.0063383286 0.0034465517 0.38200003 4283256642
0.0075989058 0.0034555739 0.38300002 4279903256
0.0088890679 0.0034736188 0.38500002 4287805092
0.010165884 0.003482641 0.38600001 4287147162
0.011449198 0.0034916636 0.38700002 4288521626
0.012739007 0.0035006858 0.38800001 4282788127
0.013999231 0.0035006858 0.38800001 4283507221
0.015298785 0.0035097084 0.38900003 4284362271
0.016562259 0.0035097084 0.38900003 4285674277
-0.0090991966 0.0043563787 0.35500002 4283578663
-0.007946156 0.0043563787 0.35500002 4285281318
-0.0067931153 0.0043563787 0.35500002 4285673248
-0.0056400741 0.0043563787 0.35500002 4287777597
-0.0045249527 0.0043931929 0.35800001 4290154111
-0.0033621681 0.0043931929 0.35800001 4286414701
-0.0022178141 0.0044300077 0.36100003 4284303417
-0.0010481807 0.0044422788 0.36200002 4283575331
0.00012794834 0.0044545503 0.36300001 4284034851
0.0013105734 0.0044668219 0.36400002 4285279519
0.0024996945 0.0044790935 0.36500001 4286004779
0.0036953117 0.004491365 0.36600003 4281470982
0.0050575584 0.0046508941 0.37900001 4283451200
0.0063217357 0.0046754372 0.38100001 4282401853
0.0075989058 0.0046999799 0.38300002 4280297247
0.0088890679 0.0047245231 0.38500002 4287935908
0.010192221 0.0047490662 0.38700002 4287212955
0.011478783 0.0047613373 0.38800001 4288852899
0.012739007 0.0047613373 0.38800001 4282132760
0.014035312 0.0047736093 0.38900003 4283966743
0.015298785 0.0047736093 0.38900003 4284360986
0.016604833 0.0047858804 0.39000002 4285344283
-0.011405277 0.0055098101 0.35500002 4281479445
-0.0090991966 0.0055098101 0.35500002 4284168745
-0.007946156 0.0055098101 0.35500002 4285542691
-0.0067931153 0.0055098101 0.35500002 4285935391
-0.0056400741 0.0055098101 0.35500002 4285608738
-0.0045249527 0.0055563715 0.35800001 4289037427
-0.0033621681 0.0055563715 0.35800001 4285088052
-0.0022178141 0.0056029335 0.36100003 4285283119
-0.0010481807 0.005618454 0.36200002 4284427810
0.00012794834 0.0056339744 0.36300001 4284690466
0.0013105734 0.0056494954 0.36400002 4285411359
0.002506543 0.0056805364 0.36600003 4286004779
0.0036953117 0.0056805364 0.36600003 4280750597
0.0050575584 0.0058823037 0.37900001 4281743150
0.0063217357 0.0059133451 0.38100001 4279506193
0.0075989058 0.0059443866 0.38300002 4280823591
0.0088890679 0.0059754276 0.38500002 4287145361
0.010192221 0.006006469 0.38700002 4287344023
0.011478783 0.006021989 0.38800001 4288720797
0.01277184 0.00603751 0.38900003 4281867021
0.014071392 0.0060530305 0.39000002 4284031253
0.015338113 0.0060530305 0.39000002 4284491804
0.016647412 0.0060685514 0.39100003 4285213980
0.017963205 0.0060840719 0.39200002 4286789671
0.019236421 0.0060840719 0.39200002 4286196512
0.020509636 0.0060840719 0.39200002 4287710530
-0.012558319 0.0066632414 0.35500002 4280822798
-0.011405277 0.0066632414 0.35500002 4281743130
-0.010252237 0.0066632414 0.35500002 4283447842
-0.0090991966 0.0066632414 0.35500002 4285021226
-0.007946156 0.0066632414 0.35500002 4285804062
-0.0067931153 0.0066632414 0.35500002 4286263838
-0.0056400741 0.0066632414 0.35500002 4286266920
-0.0044996734 0.0066820108 0.35600001 4285544742
-0.0033621681 0.0067195501 0.35800001 4285611055
-0.0022178141 0.0067758597 0.36100003 4284755492
-0.0010481807 0.0067946292 0.36200002 4284624158
0.00012794834 0.0068133986 0.36300001 4285083423
0.0013141739 0.0068509378 0.36500001 4285476637
0.002506543 0.0068697082 0.36600003 4283637261
0.003705408 0.0068884776 0.36700001 4285957491
0.0050442144 0.0070949444 0.37800002 4283062601
0.0063051437 0.0071324836 0.38000003 4282666562
0.0075790659 0.0071700229 0.38200003 4280363807
0.0089121563 0.0072451015 0.38600001 4286683783
0.010218557 0.0072826408 0.38800001 4287344023
0.011508367 0.0073014111 0.38900003 4284572497
0.012804672 0.0073201805 0.39000002 4283048467
0.014107473 0.0073389504 0.39100003 4284293911
0.015377442 0.0073389504 0.39100003 4284951841
0.016647412 0.0073389504 0.39100003 4285411359
0.017963205 0.0073577198 0.39200002 4285935391
0.019236421 0.0073577198 0.39200002 4286263334
0.020509636 0.0073577198 0.39200002 4286593071
-0.013749982 0.0078386907 0.35600001 4281349653
-0.012558319 0.0078166723 0.35500002 4280295686
-0.011405277 0.0078166723 0.35500002 4280952849
-0.010252237 0.0078166723 0.35500002 4284760620
-0.0090991966 0.0078166723 0.35500002 4284888611
-0.007946156 0.0078166723 0.35500002 4285869598
-0.0068122507 0.0078386907 0.35600001 4286658598
-0.0056559616 0.0078386907 0.35600001 4285607707
-0.0045123133 0.0078607099 0.35700002 4285412127
-0.0033621681 0.0078827282 0.35800001 4285215523
-0.0022116704 0.0079267658 0.36000001 4284558365
-0.0010452853 0.0079487851 0.36100003 4284492570
0.00012794834 0.0079928227 0.36300001 4284820505
0.0013141739 0.0080368603 0.36500001 4286660911
0.0025133914 0.0080808979 0.36700001 4287062862
0.0037861799 0.0082570482 0.37500003 4285169772
0.0050308695 0.0083010858 0.377 4281746743
0.0062885508 0.0083451234 0.37900001 4283391051
0.007559225 0.008389161 0.38100001 4281680948
0.0089352448 0.0085212737 0.38700002 4286223232
0.010244895 0.0085653113 0.38900003 4288001440
0.011537951 0.0085873296 0.39000002 4282725412
0.012837506 0.0086093489 0.39100003 4283967772
0.014107473 0.0086093489 0.39100003 4284754974
0.01541677 0.0086313672 0.39200002 4285017119
0.016689988 0.0086313672 0.39200002 4285278236
0.017963205 0.0086313672 0.39200002 4285870373
0.019236421 0.0086313672 0.39200002 4285083173
0.020509636 0.0086313672 0.39200002 4285746750
-0.013749982 0.0089953709 0.35600001 4281479699
-0.012593693 0.0089953709 0.35600001 4280163335
-0.011405277 0.0089701032 0.35500002 4280557323
-0.010252237 0.0089701032 0.35500002 4285152298
-0.0090991966 0.0089701032 0.35500002 4285346595
-0.0079685394 0.0089953709 0.35600001 4286066207
-0.0068122507 0.0089953709 0.35600001 4286987563
-0.0056559616 0.0089953709 0.35600001 4285607453
-0.0045123133 0.0090206396 0.35700002 4285346082
-0.0033621681 0.0090459064 0.35800001 4285545262
-0.0022116704 0.0090964427 0.36000001 4284360988
-0.0010452853 0.0091217114 0.36100003 4284294421
0.00012794834 0.0091722459 0.36300001 4285213980
0.0013141739 0.0092227822 0.36500001 4286269235
0.0025202399 0.0092985863 0.36800003 4285092667
0.003765987 0.0094249258 0.37300003 4282271800
0.0050175255 0.0095007289 0.37600002 4285694060
0.0062553659 0.0095259966 0.377 4283457609
0.0075195436 0.009576533 0.37900001 4282075445
0.0089583332 0.0098039433 0.38800001 4284315235
0.010271231 0.0098544797 0.39000002 4287869084
0.011567537 0.0098797483 0.39100003 4283115807
0.012870338 0.0099050151 0.39200002 4283966489
0.014143554 0.0099050151 0.39200002 4284688154
0.015456098 0.0099302828 0.39300001 4285279519
0.016732562 0.0099302828 0.39300001 4285936166
0.017963205 0.0099050151 0.39200002 4285805352
0.019236421 0.0099050151 0.39200002 4284766280
-0.013749982 0.010152051 0.35600001 4280558345
-0.012593693 0.010152051 0.35600001 4280623886
-0.011437405 0.010152051 0.35600001 4280226563
-0.010281117 0.010152051 0.35600001 4285611566
-0.0091248276 0.010152051 0.35600001 4285608738
-0.0079685394 0.010152051 0.35600001 4286460706
-0.0068122507 0.010152051 0.35600001 4286987563
-0.0056718495 0.010180569 0.35700002 4285016088
-0.0045123133 0.010180569 0.35700002 4285807662
-0.0033621681 0.010209085 0.35800001 4285612084
-0.0022116704 0.01026612 0.36000001 4284229661
-0.0010452853 0.010294638 0.36100003 4284820765
0.00012830083 0.010380188 0.36400002 4285016347
0.0013177744 0.010437222 0.36600003 4283968022
0.0025202399 0.010494256 0.36800003 4282000144
0.0037558903 0.010608324 0.37200001 4280887067
0.0049908361 0.010665358 0.37400001 4290824377
0.0062387735 0.010722392 0.37600002 4284507710
0.0074798628 0.010750908 0.377 4283584040
0.0089814216 0.011093114 0.38900003 4282335017
0.010297568 0.011150148 0.39100003 4284637007
0.011567537 0.011150148 0.39100003 4283178518
0.01290317 0.011207181 0.39300001 4284557083
0.014179633 0.011207181 0.39300001 4285146652
0.015456098 0.011207181 0.39300001 4284883478
0.016732562 0.011207181 0.39300001 4285213730
0.018009027 0.011207181 0.39300001 4289235324
-0.014906271 0.011308732 0.35600001 4282138406
-0.013749982 0.011308732 0.35600001 4280887571
-0.012593693 0.011308732 0.35600001 4280689681
-0.011437405 0.011308732 0.35600001 4282066967
-0.010281117 0.011308732 0.35600001 4285807400
-0.0091248276 0.011308732 0.35600001 4286067234
-0.0079685394 0.011308732 0.35600001 4287183659
-0.0068122507 0.011308732 0.35600001 4286723878
-0.0056718495 0.011340499 0.35700002 4284095247
-0.0045123133 0.011340499 0.35700002 4286466877
-0.0033621681 0.011372264 0.35800001 4284099358
-0.0022116704 0.011435797 0.36000001 4283901468
-0.0010452853 0.011467564 0.36100003 4284886558
0.00012830083 0.011562862 0.36400002 4285148957
0.0013177744 0.011626394 0.36600003 4283773214
0.0025202399 0.011689926 0.36800003 4281541910
0.0037457941 0.011785224 0.37100002 4282135590
0.0049774921 0.011848757 0.37300003 4285689945
0.0062221815 0.011912289 0.37500003 4283189534
0.0074600223 0.011944055 0.37600002 4285359408
0.0089814216 0.012357014 0.38900003 4283320102
0.010323904 0.012452313 0.39200002 4281869588
0.01159712 0.012452313 0.39200002 4283967259
0.012936003 0.012515845 0.39400002 4284886044
0.014215714 0.012515845 0.39400002 4285540381
0.015495427 0.012515845 0.39400002 4285145623
0.016775141 0.012515845 0.39400002 4284623906
-0.014906271 0.012465413 0.35600001 4281480733
-0.013749982 0.012465413 0.35600001 4280756755
-0.012593693 0.012465413 0.35600001 4281016849
-0.011437405 0.012465413 0.35600001 4284169776
-0.010281117 0.012465413 0.35600001 4285937701
-0.0091248276 0.012465413 0.35600001 4286133024
-0.0079685394 0.012465413 0.35600001 4287577136
-0.0068122507 0.012465413 0.35600001 4287577136
-0.0056718495 0.012500429 0.35700002 4286264358
-0.0045123133 0.012500429 0.35700002 4285806633
-0.0033621681 0.012535443 0.35800001 4283836186
-0.0022055269 0.012570458 0.35900003 4284033052
-0.0010452853 0.012640489 0.36100003 4284886558
0.00012830083 0.012745535 0.36400002 4285346595
0.0013177744 0.012815565 0.36600003 4282722071
0.0025270884 0.012920611 0.36900002 4281739802
0.0037457941 0.012990641 0.37100002 4281937179
0.0049641472 0.013025655 0.37200001 4283188782
0.0062055886 0.013095686 0.37400001 4281149449
0.0074401824 0.013130702 0.37500003 4282924567
0.0089814216 0.013620915 0.38900003 4281084167
0.010350239 0.013760975 0.39300001 4281542673
0.012968834 0.013831005 0.39500001 4285607453
0.014251795 0.013831005 0.39500001 4286000414
0.015534755 0.013831005 0.39500001 4286263588
0.016817717 0.013831005 0.39500001 4284888874
-0.01606256 0.013622093 0.35600001 4281415964
-0.014906271 0.013622093 0.35600001 4281810468
-0.013749982 0.013622093 0.35600001 4280757012
-0.012593693 0.013622093 0.35600001 4281343759
-0.011437405 0.013622093 0.35600001 4285022511
-0.010281117 0.013622093 0.35600001 4285936418
-0.0091248276 0.013622093 0.35600001 4286854440
-0.0079685394 0.013622093 0.35600001 4291524973
-0.0068122507 0.013622093 0.35600001 4287905331
-0.0056718495 0.013660357 0.35700002 4287969323
-0.0045123133 0.013660357 0.35700002 4287772714
-0.0033621681 0.013698622 0.35800001 4287116842
-0.0022055269 0.013736886 0.35900003 4286329120
-0.0010423897 0.01377515 0.36000001 4287054383
0.00012865329 0.013966472 0.36500001 4286067236
0.0013213749 0.014043001 0.36700001 4281867021
0.0025270884 0.014119529 0.36900002 4281936668
0.0037457941 0.014196058 0.37100002 4281410837
0.0049641472 0.014234321 0.37200001 4283122735
0.0061889961 0.014272586 0.37300003 4282399768
0.0074203415 0.014310851 0.37400001 4283320868
0.0089814216 0.014884816 0.38900003 4281215757
0.010376576 0.015076137 0.39400002 4281540361
0.011715459 0.015152666 0.39600003 4284951578
0.012968834 0.015114401 0.39500001 4285869855
0.014251795 0.015114401 0.39500001 4286262303
0.015534755 0.015114401 0.39500001 4287052591
0.016817717 0.015114401 0.39500001 4285945158
-0.01606256 0.014778772 0.35600001 4281680165
-0.014906271 0.014778772 0.35600001 4281416995
-0.013749982 0.014778772 0.35600001 4281350689
-0.012593693 0.014778772 0.35600001 4282196756
-0.011437405 0.014778772 0.35600001 4285283369
-0.010281117 0.014778772 0.35600001 4286461219
-0.0091248276 0.014778772 0.35600001 4287248682
-0.0079685394 0.014778772 0.35600001 4287838255
-0.0068122507 0.014778772 0.35600001 4287903532
-0.0056718495 0.014820287 0.35700002 4287969064
-0.0045123133 0.014820287 0.35700002 4288495919
-0.0033621681 0.0148618 0.35800001 4288497718
-0.0022055269 0.014903313 0.35900003 4288562998
-0.0010394942 0.014903313 0.35900003 4288432947
0.00012900577 0.015193908 0.36600003 4287382317
0.0013249754 0.015276935 0.36800003 4281865224
0.0025339369 0.01535996 0.37 4281936668
0.0037457941 0.015401474 0.37100002 4283124022
0.0049641472 0.015442987 0.37200001 4284047434
0.0061889961 0.015484502 0.37300003 4282006043
0.007817151 0.016356282 0.39400002 4283124522
0.0091199521 0.016397797 0.39500001 4282791977
0.01042925 0.016439309 0.39600003 4281929734
0.011715459 0.016439309 0.39600003 4285869855
0.013001667 0.016439309 0.39600003 4286329116
0.014287875 0.016439309 0.39600003 4286261785
0.015574085 0.016439309 0.39600003 4286787877
0.016817717 0.016397797 0.39500001 4288647552
-0.017218847 0.015935453 0.35600001 4281482538
-0.01606256 0.015935453 0.35600001 4281877294
-0.014906271 0.015935453 0.35600001 4281482536
-0.013749982 0.015935453 0.35600001 4281482536
-0.012593693 0.015935453 0.35600001 4284235310
-0.011437405 0.015935453 0.35600001 4285216808
-0.010281117 0.015935453 0.35600001 4285999901
-0.0091248276 0.015935453 0.35600001 4286656288
-0.0079685394 0.015935453 0.35600001 4287049763
-0.0068122507 0.015935453 0.35600001 4287312165
-0.0056718495 0.015980216 0.35700002 4287771942
-0.0045123133 0.015980216 0.35700002 4292773750
-0.0033621681 0.016024979 0.35800001 4292318861
-0.0021993832 0.016024979 0.35800001 4288103230
-0.0010394942 0.016069742 0.35900003 4288364333
0.00012935825 0.016427841 0.36700001 4288235570
0.0013285758 0.016517365 0.36900002 4282128396
0.0025339369 0.016562128 0.37 4282266146
0.0037457941 0.016606892 0.37100002 4281084187
0.0049641472 0.016651653 0.37200001 4284375118
0.0065374384 0.01763643 0.39400002 4282335535
0.007817151 0.01763643 0.39400002 4288256135
0.0091199521 0.017681191 0.39500001 4282394648
0.01042925 0.017725954 0.39600003 4283637524
0.011715459 0.017725954 0.39600003 4286263840
0.013001667 0.017725954 0.39600003 4286723106
0.014287875 0.017725954 0.39600003 4286722336
0.015574085 0.017725954 0.39600003 4287183405
-0.017218847 0.017092135 0.35600001 4287738268
-0.01606256 0.017092135 0.35600001 4286289540
-0.014906271 0.017092135 0.35600001 4283261516
-0.013749982 0.017092135 0.35600001 4281352749
-0.012593693 0.017092135 0.35600001 4284169263
-0.011437405 0.017092135 0.35600001 4285018918
-0.010281117 0.017092135 0.35600001 4286001184
-0.0091248276 0.017092135 0.35600001 4286459936
-0.0079685394 0.017092135 0.35600001 4286787100
-0.0068122507 0.017092135 0.35600001 4286983966
-0.0056718495 0.017140146 0.35700002 4287312163
-0.0045123133 0.017140146 0.35700002 4287706923
-0.0033621681 0.017188158 0.35800001 4289223769
-0.0021993832 0.017188158 0.35800001 4291726222
-0.0010394942 0.017236169 0.35900003 4287706921
0.00012935825 0.017620262 0.36700001 4288694586
0.0013321763 0.017764296 0.37 4281338368
0.0025407854 0.01781231 0.37100002 4280883726
0.0037558903 0.017860319 0.37200001 4280162831
0.0052043479 0.018724529 0.39000002 4283781698
0.0065042535 0.018820552 0.39200002 4283247129
0.0077973106 0.018868564 0.39300001 4287718489
0.0090968646 0.018916577 0.39400002 4283964692
0.010402913 0.018964587 0.39500001 4285869603
0.011685873 0.018964587 0.39500001 4286787877
0.012968834 0.018964587 0.39500001 4286985253
0.014251795 0.018964587 0.39500001 4286918690
0.015574085 0.0190126 0.39600003 4286197795
-0.014906271 0.018248815 0.35600001 4287343512
-0.013749982 0.018248815 0.35600001 4287934879
-0.012593693 0.018248815 0.35600001 4283710510
-0.011437405 0.018248815 0.35600001 4284559909
-0.010281117 0.018248815 0.35600001 4285673248
-0.0091248276 0.018248815 0.35600001 4285606680
-0.0079685394 0.018248815 0.35600001 4286261787
-0.0068122507 0.018248815 0.35600001 4286524959
-0.0056718495 0.018300075 0.35700002 4286918690
-0.0045123133 0.018300075 0.35700002 4286918690
-0.0033621681 0.018351335 0.35800001 4287376936
-0.0021993832 0.018351335 0.35800001 4287706671
-0.0010394942 0.018402597 0.35900003 4288298286
0.00012935825 0.018812682 0.36700001 4288497718
0.0013321763 0.018966464 0.37 4282915338
0.0025476338 0.019068986 0.37200001 4281408789
0.0037558903 0.019068986 0.37200001 4280624665
0.0051910039 0.019940419 0.38900003 4282004771
0.006487661 0.020042941 0.39100003 4287121725
0.0077774702 0.020094201 0.39200002 4287251253
0.0090737753 0.020145461 0.39300001 4289093462
0.010376576 0.020196723 0.39400002 4286592299
0.01165629 0.020196723 0.39400002 4287444780
0.012968834 0.020247983 0.39500001 4287641646
0.014251795 0.020247983 0.39500001 4287775026
-0.014906271 0.019405494 0.35600001 4287211926
-0.013749982 0.019405494 0.35600001 4287670939
-0.012593693 0.019405494 0.35600001 4283907637
-0.011437405 0.019405494 0.35600001 4284034597
-0.010281117 0.019405494 0.35600001 4285082140
-0.0091248276 0.019405494 0.35600001 4285410076
-0.0079685394 0.019405494 0.35600001 4285737242
-0.0068313861 0.019460006 0.35700002 4285868315
-0.0056718495 0.019460006 0.35700002 4286327580
-0.0045123133 0.019460006 0.35700002 4286722338
-0.0033621681 0.019514514 0.35800001 4287443749
-0.0022055269 0.019569024 0.35900003 4287706921
-0.0010423897 0.019623535 0.36000001 4287707173
0.00012900577 0.019950593 0.36600003 4288234800
0.0013357768 0.020223143 0.37100002 4285283119
0.0025476338 0.020277651 0.37200001 4281737240
0.003765987 0.020332163 0.37300003 4281410585
0.005177659 0.021149809 0.38800001 4284693810
0.0064710681 0.021258829 0.39000002 4287514682
0.0077576302 0.021313339 0.39100003 4288039736
0.0090506868 0.021367848 0.39200002 4289554006
0.010350239 0.021422358 0.39300001 4287118382
0.01165629 0.021476869 0.39400002 4287576620
0.012936003 0.021476869 0.39400002 4287971378
0.014215714 0.021476869 0.39400002 4287645241
-0.014906271 0.020562174 0.35600001 4286817681
-0.013749982 0.020562174 0.35600001 4287342742
-0.012593693 0.020562174 0.35600001 4283250477
-0.011437405 0.020562174 0.35600001 4283773223
-0.010281117 0.020562174 0.35600001 4284886046
-0.0091248276 0.020562174 0.35600001 4284687382
-0.0079909237 0.020619934 0.35700002 4284818455
-0.0068313861 0.020619934 0.35700002 4285146650
-0.0056718495 0.020619934 0.35700002 4285671703
-0.0045249527 0.020677693 0.35800001 4286066461
-0.0033715598 0.020735452 0.35900003 4286459164
-0.0022116704 0.020793211 0.36000001 4286787872
-0.0010452853 0.020850971 0.36100003 4287115554
0.00012865329 0.021082005 0.36500001 4287051044
0.0013105734 0.021024248 0.36400002 4285485388
0.0026024217 0.02194839 0.38000003 4281671711
0.0038669517 0.022121666 0.38300002 4283509286
0.0051643145 0.022352701 0.38700002 4285083173
0.0064378832 0.02241046 0.38800001 4287445809
0.0077377893 0.022525977 0.39000002 4287314475
0.0090275994 0.022583738 0.39100003 4293041794
0.010323904 0.022641497 0.39200002 4287184427
0.011626705 0.022699254 0.39300001 4287249718
0.01290317 0.022699254 0.39300001 4287579196
0.014179633 0.022699254 0.39300001 4287849559
-0.014906271 0.021718854 0.35600001 4286948754
-0.013749982 0.021718854 0.35600001 4288263844
-0.012593693 0.021718854 0.35600001 4283250739
-0.011437405 0.021718854 0.35600001 4283969319
-0.010309996 0.021779863 0.35700002 4284294941
-0.0091504594 0.021779863 0.35700002 4284228632
-0.0079909237 0.021779863 0.35700002 4284359191
-0.0068505215 0.02184087 0.35800001 4284555800
-0.0056877369 0.02184087 0.35800001 4284752916
-0.0045375922 0.021901879 0.35900003 4285608225
-0.003380951 0.021962887 0.36000001 4285739041
-0.0022178141 0.022023896 0.36100003 4286461992
-0.0010481807 0.022084903 0.36200002 4286527785
0.00012865329 0.022267926 0.36500001 4285213465
0.0013141739 0.022267926 0.36500001 4289900962
0.0026024217 0.023183048 0.38000003 4284836444
0.0038770481 0.023427079 0.384 4284430640
0.0051509701 0.023549095 0.38600001 4285543976
0.0064378832 0.023671111 0.38800001 4288037944
0.0077179489 0.02373212 0.38900003 4288498490
0.00900451 0.023793127 0.39000002 4288235318
0.010297568 0.023854136 0.39100003 4293501070
0.01159712 0.023915144 0.39200002 4294965474
0.012870338 0.023915144 0.39200002 4291733395
0.014179633 0.023976151 0.39300001 4286399535
-0.014906271 0.022875536 0.35600001 4287211926
-0.013788607 0.022939794 0.35700002 4288001442
-0.012629069 0.022939794 0.35700002 4282988082
-0.011469533 0.022939794 0.35700002 4284364849
-0.010309996 0.022939794 0.35700002 4284363044
-0.0091760904 0.023004051 0.35800001 4284494116
-0.0080133062 0.023004051 0.35800001 4284164122
-0.0068696574 0.023068309 0.35900003 4284755746
-0.0057036243 0.023068309 0.35900003 4284886562
-0.0045502316 0.023132564 0.36000001 4285215525
-0.0033903427 0.023196824 0.36100003 4285478181
-0.0022239573 0.02326108 0.36200002 4285741353
-0.0010510762 0.023325335 0.36300001 4286004525
0.00012865329 0.02345385 0.36500001 4285478181
0.0013141739 0.02345385 0.36500001 4289967780
0.0025955732 0.02435345 0.37900001 4288196250
0.0038770481 0.024674736 0.384 4284701005
0.0051509701 0.024803249 0.38600001 4284822570
0.0064378832 0.024931764 0.38800001 4287578417
0.0077179489 0.024996022 0.38900003 4288037167
0.00900451 0.025060279 0.39000002 4288562482
0.010297568 0.025124537 0.39100003 4288102447
0.011567537 0.025124537 0.39100003 4288827460
0.012870338 0.025188792 0.39200002 4287971896
0.014143554 0.025188792 0.39200002 4287577136
0.01541677 0.025188792 0.39200002 4286660659
-0.014906271 0.024032217 0.35600001 4287409305
-0.013788607 0.024099724 0.35700002 4287343512
-0.012629069 0.024099724 0.35700002 4287997076
-0.01150166 0.024167228 0.35800001 4283778620
-0.010338875 0.024167228 0.35800001 4284496431
-0.0092017232 0.024234736 0.35900003 4284232743
-0.0080356905 0.024234736 0.35900003 4284626468
-0.0068887929 0.024302242 0.36000001 4284823847
-0.0057195118 0.024302242 0.36000001 4285349679
-0.0045628715 0.024369748 0.36100003 4284428577
-0.0033997342 0.024437254 0.36200002 4284954667
-0.0022301008 0.02450476 0.36300001 4285019947
-0.0010539718 0.024572266 0.36400002 4283768081
0.00012865329 0.024639772 0.36500001 4286136627
0.0013177744 0.02470728 0.36600003 4289703835
0.0025887247 0.025517354 0.37800002 4287736471
0.0038871446 0.025989898 0.38500002 4288131740
0.0051643145 0.02612491 0.38700002 4283651397
0.0064378832 0.026192416 0.38800001 4286527012
0.0077179489 0.026259923 0.38900003 4287970861
0.0089814216 0.026259923 0.38900003 4288561455
0.010271231 0.026327427 0.39000002 4288758834
0.011567537 0.026394935 0.39100003 4288495662
0.012837506 0.026394935 0.39100003 4289153597
0.014143554 0.026462441 0.39200002 4288826687
0.01541677 0.026462441 0.39200002 4287578163
-0.01382723 0.025330408 0.35800001 4287606943
-0.012664445 0.025330408 0.35800001 4287540891
-0.011533787 0.025401164 0.35900003 4284970083
-0.010396635 0.025471918 0.36000001 4284629818
-0.0092273541 0.025471918 0.36000001 4284562224
-0.0080580739 0.025471918 0.36000001 4285022509
-0.0069079287 0.025542675 0.36100003 4283377171
-0.0057512871 0.025613429 0.36200002 4288451718
-0.004575511 0.025613429 0.36200002 4288916895
-0.0034091256 0.025684183 0.36300001 4289376933
-0.0022362445 0.02575494 0.36400002 4284435780
-0.0010568673 0.025825694 0.36500001 4284296485
0.00012900577 0.025896451 0.36600003 4285150250
0.0013177744 0.025896451 0.36600003 4287198823
0.0025818762 0.026674759 0.377 4288326807
0.0038972411 0.027311556 0.38600001 4287801492
0.0051643145 0.027382312 0.38700002 4287923831
0.0064378832 0.027453067 0.38800001 4287577647
0.0077179489 0.027523823 0.38900003 4287773482
0.0089814216 0.027523823 0.38900003 4288364333
0.010271231 0.027594578 0.39000002 4288561455
0.011537951 0.027594578 0.39000002 4288561455
0.012837506 0.027665334 0.39100003 4288100904
0.014143554 0.027736088 0.39200002 4287904298
0.01541677 0.027736088 0.39200002 4288367163
-0.01382723 0.026493585 0.35800001 4287606945
-0.012699821 0.026567591 0.35900003 4287738529
-0.011565915 0.026641594 0.36000001 4288789934
-0.010425515 0.026715601 0.36100003 4283908923
-0.0092529859 0.026715601 0.36100003 4284365874
-0.0081028407 0.026789604 0.36200002 4284626986
-0.0069270642 0.026789604 0.36200002 4283376919
-0.0057671745 0.026863607 0.36300001 4289640616
-0.0046007899 0.026937613 0.36400002 4287934877
-0.0034185173 0.026937613 0.36400002 4288066463
-0.002242388 0.027011616 0.36500001 4283390281
-0.0010597629 0.027085623 0.36600003 4283444006
0.00012935825 0.027159626 0.36700001 4284691757
0.0013213749 0.027159626 0.36700001 4285218093
0.0026435126 0.028565709 0.38600001 4290486674
0.0038972411 0.028565709 0.38600001 4287255887
0.0051643145 0.028639715 0.38700002 4287118647
0.0064378832 0.028713718 0.38800001 4288432450
0.0077179489 0.028787725 0.38900003 4288629054
0.0089814216 0.028787725 0.38900003 4288430126
0.010271231 0.028861728 0.39000002 4288364076
0.011537951 0.028861728 0.39000002 4287771944
0.012837506 0.028935732 0.39100003 4287376929
0.014107473 0.028935732 0.39100003 4287312681
0.01541677 0.029009737 0.39200002 4286789167
-0.012699821 0.027734019 0.35900003 4287870115
-0.011598043 0.027888525 0.36100003 4288133287
-0.010454394 0.027965778 0.36200002 4286348658
-0.0092786169 0.027965778 0.36200002 4284170550
-0.0081252242 0.028043032 0.36300001 4284955953
-0.0069461991 0.028043032 0.36300001 4284889388
-0.005783062 0.028120287 0.36400002 4288386692
-0.0046134293 0.028197538 0.36500001 4288328606
-0.0034279088 0.028197538 0.36500001 4288066465
-0.0022485317 0.028274793 0.36600003 4288263076
-0.0010597629 0.028274793 0.36600003 4285357398
0.00012935825 0.028352046 0.36700001 4284034601
0.0013249754 0.028429301 0.36800003 4286465080
0.0025544823 0.028815567 0.37300003 4287121210
0.0038972411 0.029819863 0.38600001 4288631621
0.0051643145 0.029897118 0.38700002 4289289551
0.0064378832 0.029974369 0.38800001 4288167222
0.0077179489 0.030051624 0.38900003 4288625974
0.0089814216 0.030051624 0.38900003 4288824373
0.010271231 0.030128878 0.39000002 4287970091
0.011537951 0.030128878 0.39000002 4286918436
0.012837506 0.030206133 0.39100003 4286853415
0.014107473 0.030206133 0.39100003 4286856243
0.01541677 0.030283384 0.39200002 4286007617
-0.011662297 0.029222455 0.36300001 4287805092
-0.010483273 0.029222455 0.36300001 4289183149
-0.0093298806 0.029302958 0.36400002 4283648317
-0.0081476076 0.029302958 0.36400002 4285020722
-0.0069844704 0.02938346 0.36500001 4285152046
-0.0057989494 0.02938346 0.36500001 4283906345
-0.0046134293 0.02938346 0.36500001 4289115296
-0.0034373004 0.029463964 0.36600003 4288066465
-0.0022546751 0.029544465 0.36700001 4287934879
-0.0010626584 0.029544465 0.36700001 4287734166
0.00012971072 0.029624971 0.36800003 4283056955
0.0013285758 0.029705472 0.36900002 4285215013
0.0025476338 0.029946979 0.37200001 4286856750
0.0038972411 0.031074015 0.38600001 4288234033
0.005177659 0.031235021 0.38800001 4288233263
0.0064378832 0.031235021 0.38800001 4288758582
0.0077179489 0.031315524 0.38900003 4288561205
0.0089814216 0.031315524 0.38900003 4287707441
0.010244895 0.031315524 0.38900003 4286460713
0.011537951 0.031396028 0.39000002 4285937453
0.012804672 0.031396028 0.39000002 4285872430
0.014107473 0.031476531 0.39100003 4284369212
-0.011694426 0.030485632 0.36400002 4287935908
-0.010512154 0.030485632 0.36400002 4288329383
-0.0093555115 0.030569382 0.36500001 4283783758
-0.008169991 0.030569382 0.36500001 4284692529
-0.0070036063 0.030653136 0.36600003 4284296226
-0.0058148373 0.030653136 0.36600003 4285479215
-0.0046260692 0.030653136 0.36600003 4290356375
-0.0034466919 0.030736886 0.36700001 4287869084
-0.0022546751 0.030736886 0.36700001 4287934879
-0.001065554 0.03082064 0.36800003 4287869084
0.0001300632 0.03090439 0.36900002 4288917147
0.0013321763 0.03098814 0.37 4285280039
0.0025476338 0.031155644 0.37200001 4286723887
0.003765987 0.031239398 0.37300003 4288431414
0.005177659 0.032495674 0.38800001 4288563000
0.0064378832 0.032495674 0.38800001 4287839277
0.0077179489 0.032579426 0.38900003 4286920233
0.0089814216 0.032579426 0.38900003 4285282867
0.010244895 0.032579426 0.38900003 4284364847
0.011537951 0.032663178 0.39000002 4284762946
0.012804672 0.032663178 0.39000002 4287070065
-0.011694426 0.031668305 0.36400002 4288068266
-0.010541032 0.031755306 0.36500001 4287935908
-0.0093811434 0.031842306 0.36600003 4286945933
-0.0081923753 0.031842306 0.36600003 4284824376
-0.0070036063 0.031842306 0.36600003 4284428071
-0.0058307247 0.031929307 0.36700001 4285940020
-0.0046387082 0.031929307 0.36700001 4284952101
-0.0034466919 0.031929307 0.36700001 4288780683
-0.0022608186 0.032016307 0.36800003 4288717204
-0.001065554 0.032016307 0.36800003 4288450436
0.0001300632 0.032103308 0.36900002 4285020722
0.0013321763 0.032190308 0.37 4286659891
0.0025476338 0.032364309 0.37200001 4290738537
0.003765987 0.032451313 0.37300003 4288497722
0.005177659 0.033756323 0.38800001 4287970865
0.0064378832 0.033756323 0.38800001 4289887859
0.0077179489 0.033843327 0.38900003 4288979858
0.0089814216 0.033843327 0.38900003 4288064405
0.010244895 0.033843327 0.38900003 4287735953
0.011508367 0.033843327 0.38900003 4287013259
-0.010569912 0.033031482 0.36600003 4288067494
-0.0093811434 0.033031482 0.36600003 4288922290
-0.0082147587 0.033121731 0.36700001 4283774255
-0.0070227417 0.033121731 0.36700001 4284495663
-0.0058307247 0.033121731 0.36700001 4285545775
-0.0046513481 0.03321198 0.36800003 4285807150
-0.0034560836 0.03321198 0.36800003 4285345834
-0.0022608186 0.03321198 0.36800003 4284819236
-0.0010684495 0.033302229 0.36900002 4285542443
0.00013041566 0.033392478 0.37 4286460202
0.0013321763 0.033392478 0.37 4286852384
0.0025476338 0.033572979 0.37200001 4288497720
0.0037558903 0.033572979 0.37200001 4287313446
0.0064544762 0.035107229 0.38900003 4285549371
0.0077179489 0.035107229 0.38900003 4287798151
-0.010598792 0.034314148 0.36700001 4287935908
-0.0094067743 0.034314148 0.36700001 4288199080
-0.0082147587 0.034314148 0.36700001 4283514165
-0.0070418776 0.034407649 0.36800003 4284233774
-0.0058466126 0.034407649 0.36800003 4285152560
-0.0046513481 0.034407649 0.36800003 4285151015
-0.0034560836 0.034407649 0.36800003 4285147935
-0.0022669621 0.034501147 0.36900002 4285213730
-0.0010684495 0.034501147 0.36900002 4285935139
0.00013041566 0.034594648 0.37 4285803037
0.0013321763 0.034594648 0.37 4287181608
0.0025407854 0.034688145 0.37100002 4287115556
0.0037558903 0.034781646 0.37200001 4287576107
0.0049641472 0.034781646 0.37200001 4287313448
-0.010598792 0.035506569 0.36700001 4288132776
-0.0094067743 0.035506569 0.36700001 4288132776
-0.0082371421 0.035603318 0.36800003 4284504401
-0.0070418776 0.035603318 0.36800003 4284366392
-0.0058466126 0.035603318 0.36800003 4284692011
-0.0046639876 0.035700068 0.36900002 4284560163
-0.0034654748 0.035700068 0.36900002 4284622876
-0.0022669621 0.035700068 0.36900002 4284688156
-0.0010713449 0.035796814 0.37 4285279008
0.00013041566 0.035796814 0.37 4285804580
0.0013357768 0.035893563 0.37100002 4286526760
0.0025407854 0.035893563 0.37100002 4286460454
0.0037558903 0.035990309 0.37200001 4286985258
0.0049641472 0.035990309 0.37200001 4287183923
-0.0094324071 0.036798988 0.36800003 4288460971
-0.0082371421 0.036798988 0.36800003 4286875007
-0.0070418776 0.036798988 0.36800003 4284236350
-0.0058624996 0.036898986 0.36900002 4284626734
-0.0046639876 0.036898986 0.36900002 4284165667
-0.0034654748 0.036898986 0.36900002 4284427810
-0.0022669621 0.036898986 0.36900002 4284427040
-0.0010713449 0.03699898 0.37 4284820515
0.00013041566 0.03699898 0.37 4285346859
0.0013357768 0.037098981 0.37100002 4285741355
0.0025407854 0.037098981 0.37100002 4286267699
0.0037558903 0.037198976 0.37200001 4286399285
0.0049641472 0.037198976 0.37200001 4285413935
-0.0094324071 0.037994657 0.36800003 4288330153
-0.0082595255 0.038097903 0.36900002 4289773749
-0.0070610126 0.038097903 0.36900002 4283516479
-0.0058624996 0.038097903 0.36900002 4284957497
-0.0046639876 0.038097903 0.36900002 4284825396
-0.0034654748 0.038097903 0.36900002 4284824626
-0.0022731056 0.03820115 0.37 4284890419
-0.0010713449 0.03820115 0.37 4285349687
0.00013041566 0.03820115 0.37 4285218101
0.0013357768 0.038304396 0.37100002 4285218355
0.0025407854 0.038304396 0.37100002 4285744699
0.0037558903 0.038407642 0.37200001 4285358933
-0.0082595255 0.039296821 0.36900002 4288198567
-0.0070610126 0.039296821 0.36900002 4287867289
-0.0058624996 0.039296821 0.36900002 4284239171
-0.0046639876 0.039296821 0.36900002 4283645237
-0.0034748663 0.039403316 0.37 4283710260
-0.0022731056 0.039403316 0.37 4284105018
-0.0010713449 0.039403316 0.37 4284105018
0.00013041566 0.039403316 0.37 4284960325
0.0013357768 0.039509814 0.37100002 4285358681
0.0025407854 0.039509814 0.37100002 4288454809
-0.0082595255 0.040495742 0.36900002 4288198567
-0.0070610126 0.040495742 0.36900002 4287803809
-0.0058624996 0.040495742 0.36900002 4287935649
-0.004676627 0.040605485 0.37 4288263844
-0.0034748663 0.040605485 0.37 4288263330
-0.0022731056 0.040605485 0.37 4287934365
-0.0010713449 0.040605485 0.37 4288131229
0.00013041566 0.040605485 0.37 4287539092
0.0013357768 0.040715229 0.37100002 4287342742
0.0025407854 0.040715229 0.37100002 4287342488
-0.0070610126 0.04169466 0.36900002 4287869602
-0.005878387 0.041807652 0.37 4287935395
-0.004676627 0.041807652 0.37 4287672223
-0.0034748663 0.041807652 0.37 4287540637
-0.0022731056 0.041807652 0.37 4287540637
-0.0010713449 0.041807652 0.37 4287343512
0.00013041566 0.041807652 0.37 4287343512
0.0013357768 0.041920647 0.37100002 4287211926
0.0025407854 0.041920647 0.37100002 4287344025
0.0028861165 0.012541749 0.37493965 4294967295
0.0028861165 0.012541749 0.37493965 4294901760
0.0028861165 0.012541749 0.37543964 4294901760
0.0028861165 0.012541749 0.37593964 4294901760
0.0028861165 0.012541749 0.37643966 4294901760
0.0028861165 0.012541749 0.37693965 4294901760
0.0028861165 0.012541749 0.37743965 4294901760
0.0028861165 0.012541749 0.37793964 4294901760
0.0028861165 0.012541749 0.37843966 4294901760
0.0028861165 0.012541749 0.37893966 4294901760
0.0028861165 0.012541749 0.37943965 4294901760
0.0028861165 0.012541749 0.37993965 4294901760
0.0028861165 0.012541749 0.38043964 4294901760
0.0028861165 0.012541749 0.38093966 4294901760
0.0028861165 0.012541749 0.38143966 4294901760
0.0028861165 0.012541749 0.38193965 4294901760
0.0028861165 0.012541749 0.38243964 4294901760
0.0028861165 0.012541749 0.38293964 4294901760
0.0028861165 0.012541749 0.38343966 4294901760
0.0028861165 0.012541749 0.38393965 4294901760
0.0028861165 0.012541749 0.38443965 4294901760
0.0028861165 0.012541749 0.38493964 4294901760
0.0028861165 0.012541749 0.38543966 4294901760
0.0028861165 0.012541749 0.38593966 4294901760
0.0028861165 0.012541749 0.38643965 4294901760
0.0028861165 0.012541749 0.38693964 4294901760
0.0028861165 0.012541749 0.38743967 4294901760
0.0028861165 0.012541749 0.38793966 4294901760
0.0028861165 0.012541749 0.38843966 4294901760
0.0028861165 0.012541749 0.38893965 4294901760
0.0028861165 0.012541749 0.38943964 4294901760
0.0028861165 0.012541749 0.38993967 4294901760
0.0028861165 0.012541749 0.39043966 4294901760
0.0028861165 0.012541749 0.39093965 4294901760
0.0028861165 0.012541749 0.39143965 4294901760
0.0028861165 0.012541749 0.39193964 4294901760
0.0028861165 0.012541749 0.39243966 4294901760
0.0028861165 0.012541749 0.39293966 4294901760
0.0028861165 0.012541749 0.39343965 4294901760
0.0028861165 0.012541749 0.39393964 4294901760
0.0028861165 0.012541749 0.39443967 4294901760
0.0028861165 0.012541749 0.39493966 4294901760
0.0028861165 0.012541749 0.39543965 4294901760
0.0028861165 0.012541749 0.39593965 4294901760
0.0028861165 0.012541749 0.39643967 4294901760
0.0028861165 0.012541749 0.39693967 4294901760
0.0028861165 0.012541749 0.39743966 4294901760
0.0028861165 0.012541749 0.39793965 4294901760
0.0028861165 0.012541749 0.39843965 4294901760
0.0028861165 0.012541749 0.39893967 4294901760
0.0028861165 0.012541749 0.39943966 4294901760
0.0028861165 0.012541749 0.39993966 4294901760
0.0028861165 0.012541749 0.40043965 4294901760
0.0028861165 0.012541749 0.40093964 4294901760
0.0028861165 0.012541749 0.40143967 4294901760
0.0028861165 0.012541749 0.40193966 4294901760
0.0028861165 0.012541749 0.40243965 4294901760
0.0028861165 0.012541749 0.40293965 4294901760
0.0028861165 0.012541749 0.40343964 4294901760
0.0028861165 0.012541749 0.40393966 4294901760
0.0028861165 0.012541749 0.40443966 4294901760
0.0028861165 0.012541749 0.40493965 4294901760
0.0028861165 0.012541749 0.40543965 4294901760
0.0028861165 0.012541749 0.40593967 4294901760
0.0028861165 0.012541749 0.40643966 4294901760
