# .PCD v0.7 - Point Cloud Data file format
VERSION 0.7
FIELDS x y z rgb
SIZE 4 4 4 4
TYPE F F F U
COUNT 1 1 1 1
WIDTH 1058
HEIGHT 1
VIEWPOINT 0 0 0 1 0 0 0
POINTS 1058
DATA ascii
0.14198591 0.010209085 0.35800001 4280171293
0.14314869 0.010209085 0.35800001 4280302879
0.14431147 0.010209085 0.35800001 4280237086
0.14547426 0.010209085 0.35800001 4280171039
0.14663705 0.010209085 0.35800001 4280104987
0.14779983 0.010209085 0.35800001 4284445018
0.062213577 0.0112452 0.354 4281089327
0.063363373 0.0112452 0.354 4280365090
0.064330921 0.011213434 0.35300002 4280167457
0.065291978 0.011181668 0.35200003 4279773983
0.066435277 0.011181668 0.35200003 4279511578
0.067578569 0.011181668 0.35200003 4279909153
0.068526633 0.011149902 0.35100001 4279055638
0.069666684 0.011149902 0.35100001 4278465298
0.070806727 0.011149902 0.35100001 4278465298
0.071946777 0.011149902 0.35100001 4278662677
0.073086828 0.011149902 0.35100001 4279319326
0.091838174 0.011499329 0.36200002 4284840811
0.09301395 0.011499329 0.36200002 4284709223
0.094189726 0.011499329 0.36200002 4285038188
0.095365502 0.011499329 0.36200002 4285038960
0.096541286 0.011499329 0.36200002 4284315235
0.097717062 0.011499329 0.36200002 4284248670
0.09889283 0.011499329 0.36200002 4282867017
0.10006861 0.011499329 0.36200002 4282077501
0.10096471 0.011467564 0.36100003 4281551157
0.10213724 0.011467564 0.36100003 4280302114
0.10302359 0.011435797 0.36000001 4280170528
0.10390345 0.011404031 0.35900003 4279841563
0.10506947 0.011404031 0.35900003 4279578391
0.10593958 0.011372264 0.35800001 4279381525
0.10710236 0.011372264 0.35800001 4279644697
0.10826515 0.011372264 0.35800001 4280039455
0.10912228 0.011340499 0.35700002 4279711004
0.11028182 0.011340499 0.35700002 4279645211
0.11144136 0.011340499 0.35700002 4279908383
0.11260089 0.011340499 0.35700002 4279711004
0.11376042 0.011340499 0.35700002 4279908383
0.11524186 0.011372264 0.35800001 4279842590
0.11640465 0.011372264 0.35800001 4279711004
0.11756743 0.011372264 0.35800001 4279843360
0.11906187 0.011404031 0.35900003 4279514908
0.1202279 0.011404031 0.35900003 4279449115
0.12139393 0.011404031 0.35900003 4279317529
0.12255996 0.011404031 0.35900003 4279449115
0.123726 0.011404031 0.35900003 4279318299
0.12489203 0.011404031 0.35900003 4279252504
0.12605807 0.011404031 0.35900003 4279252504
0.12757848 0.011435797 0.36000001 4279186711
0.12874776 0.011435797 0.36000001 4279449113
0.12991704 0.011435797 0.36000001 4279251221
0.13108632 0.011435797 0.36000001 4279317016
0.1322556 0.011435797 0.36000001 4279317014
0.13342488 0.011435797 0.36000001 4279712285
0.13459417 0.011435797 0.36000001 4279251736
0.13576345 0.011435797 0.36000001 4279185943
0.13693272 0.011435797 0.36000001 4279251736
0.13771839 0.011404031 0.35900003 4279317527
0.13888443 0.011404031 0.35900003 4279383320
0.14005046 0.011404031 0.35900003 4279054355
0.14082313 0.011372264 0.35800001 4279251734
0.14198591 0.011372264 0.35800001 4279251734
0.14314869 0.011372264 0.35800001 4279251734
0.14431147 0.011372264 0.35800001 4279317781
0.14547426 0.011372264 0.35800001 4279449367
0.14663705 0.011372264 0.35800001 4278988816
0.14779983 0.011372264 0.35800001 4279512080
0.063363373 0.012395382 0.354 4280365088
0.064330921 0.012360367 0.35300002 4280167711
0.065291978 0.012325352 0.35200003 4279642651
0.066435277 0.012325352 0.35200003 4279314965
0.067578569 0.012325352 0.35200003 4279251736
0.068526633 0.012290337 0.35100001 4279713570
0.069666684 0.012290337 0.35100001 4278465298
0.070806727 0.012290337 0.35100001 4278531091
0.071946777 0.012290337 0.35100001 4278531091
0.073086828 0.012290337 0.35100001 4278531091
0.074226879 0.012290337 0.35100001 4278858521
0.075581647 0.012325352 0.35200003 4280042031
0.076942913 0.012360367 0.35300002 4280237363
0.078310676 0.012395382 0.354 4280237363
0.079684928 0.012430398 0.35500002 4280565558
0.081065685 0.012465413 0.35600001 4280631351
0.082452938 0.012500429 0.35700002 4280499765
0.083846673 0.012535443 0.35800001 4280828730
0.085009463 0.012535443 0.35800001 4280368179
0.086172245 0.012535443 0.35800001 4280500018
0.088992216 0.012605473 0.36000001 4279579684
0.090411946 0.012640489 0.36100003 4279317279
0.091584474 0.012640489 0.36100003 4278988312
0.09301395 0.012675504 0.36200002 4279777567
0.094189726 0.012675504 0.36200002 4279974176
0.095365502 0.012675504 0.36200002 4279908899
0.096541286 0.012675504 0.36200002 4279383068
0.097717062 0.012675504 0.36200002 4279908899
0.09889283 0.012675504 0.36200002 4279514141
0.10006861 0.012675504 0.36200002 4279514141
0.10096471 0.012640489 0.36100003 4279448348
0.10213724 0.012640489 0.36100003 4279711772
0.10302359 0.012605473 0.36000001 4279580186
0.10390345 0.012570458 0.35900003 4279580186
0.10506947 0.012570458 0.35900003 4279055127
0.10593958 0.012535443 0.35800001 4279055127
0.10710236 0.012535443 0.35800001 4279120920
0.10826515 0.012535443 0.35800001 4279120920
0.10942794 0.012535443 0.35800001 4279055127
0.11028182 0.012500429 0.35700002 4279120920
0.11144136 0.012500429 0.35700002 4278923541
0.11260089 0.012500429 0.35700002 4278923541
0.11407907 0.012535443 0.35800001 4278857748
0.11524186 0.012535443 0.35800001 4278791953
0.11640465 0.012535443 0.35800001 4278923539
0.11756743 0.012535443 0.35800001 4278726673
0.11906187 0.012570458 0.35900003 4278858259
0.1202279 0.012570458 0.35900003 4278660880
0.12139393 0.012570458 0.35900003 4278726673
0.12255996 0.012570458 0.35900003 4278857746
0.12407064 0.012605473 0.36000001 4278791953
0.12523992 0.012605473 0.36000001 4278660880
0.1264092 0.012605473 0.36000001 4278660880
0.12757848 0.012605473 0.36000001 4278595087
0.12874776 0.012605473 0.36000001 4278726160
0.12991704 0.012605473 0.36000001 4278857746
0.13108632 0.012605473 0.36000001 4279055125
0.1322556 0.012605473 0.36000001 4278923539
0.13379551 0.012640489 0.36100003 4278857746
0.13496804 0.012640489 0.36100003 4278923539
0.13576345 0.012605473 0.36000001 4279120918
0.13693272 0.012605473 0.36000001 4278726160
0.13810199 0.012605473 0.36000001 4279120918
0.13927129 0.012605473 0.36000001 4279120918
0.14005046 0.012570458 0.35900003 4279055125
0.14121649 0.012570458 0.35900003 4279055125
0.14238253 0.012570458 0.35900003 4278923539
0.14314869 0.012535443 0.35800001 4279055638
0.14431147 0.012535443 0.35800001 4279121685
0.14547426 0.012535443 0.35800001 4279121685
0.14663705 0.012535443 0.35800001 4279187478
0.14779983 0.012535443 0.35800001 4279514647
0.063363373 0.013545563 0.354 4280431393
0.064330921 0.0135073 0.35300002 4279840028
0.065477468 0.0135073 0.35300002 4279314967
0.066435277 0.013469037 0.35200003 4279315478
0.067578569 0.013469037 0.35200003 4279251736
0.068721868 0.013469037 0.35200003 4279450398
0.069666684 0.013430771 0.35100001 4278530832
0.070806727 0.013430771 0.35100001 4278663701
0.071946777 0.013430771 0.35100001 4278729494
0.073086828 0.013430771 0.35100001 4278202893
0.074438356 0.013469037 0.35200003 4278662679
0.075581647 0.013469037 0.35200003 4278662425
0.076942913 0.0135073 0.35300002 4278925086
0.078310676 0.013545563 0.354 4278924316
0.079684928 0.013583829 0.35500002 4279318047
0.081065685 0.013622093 0.35600001 4279186461
0.082452938 0.013660357 0.35700002 4279317277
0.083846673 0.013698622 0.35800001 4279317279
0.085009463 0.013698622 0.35800001 4279317277
0.086172245 0.013698622 0.35800001 4279251484
0.087578982 0.013736886 0.35900003 4279383070
0.088992216 0.01377515 0.36000001 4279252254
0.090161495 0.01377515 0.36000001 4278989593
0.091584474 0.013813416 0.36100003 4278661142
0.092757009 0.013813416 0.36100003 4278858521
0.094189726 0.013851679 0.36200002 4278989593
0.095365502 0.013851679 0.36200002 4278660882
0.096541286 0.013851679 0.36200002 4278858775
0.097717062 0.013851679 0.36200002 4278858775
0.09889283 0.013851679 0.36200002 4278661396
0.10006861 0.013851679 0.36200002 4278726675
0.10096471 0.013813416 0.36100003 4278989847
0.10213724 0.013813416 0.36100003 4278858259
0.10302359 0.01377515 0.36000001 4279055125
0.10419287 0.01377515 0.36000001 4278792466
0.10506947 0.013736886 0.35900003 4278661394
0.1062355 0.013736886 0.35900003 4278661394
0.10710236 0.013698622 0.35800001 4278727187
0.10826515 0.013698622 0.35800001 4278595603
0.10942794 0.013698622 0.35800001 4278858775
0.11059073 0.013698622 0.35800001 4278727189
0.11144136 0.013660357 0.35700002 4278858775
0.11260089 0.013660357 0.35700002 4278727189
0.11407907 0.013698622 0.35800001 4278924566
0.11524186 0.013698622 0.35800001 4278595601
0.11640465 0.013698622 0.35800001 4279055638
0.11756743 0.013698622 0.35800001 4278727187
0.11906187 0.013736886 0.35900003 4278858773
0.1202279 0.013736886 0.35900003 4278990359
0.12139393 0.013736886 0.35900003 4278990613
0.12255996 0.013736886 0.35900003 4279056406
0.12407064 0.01377515 0.36000001 4278859027
0.12523992 0.01377515 0.36000001 4278990613
0.1264092 0.01377515 0.36000001 4279319578
0.12757848 0.01377515 0.36000001 4279056406
0.12910539 0.013813416 0.36100003 4279056406
0.13027792 0.013813416 0.36100003 4279581982
0.13145046 0.013813416 0.36100003 4279450396
0.13262299 0.013813416 0.36100003 4279318810
0.13379551 0.013813416 0.36100003 4279516189
0.13496804 0.013813416 0.36100003 4279450396
0.13614057 0.013813416 0.36100003 4279647775
0.1373131 0.013813416 0.36100003 4279450396
0.13848563 0.013813416 0.36100003 4279450396
0.13927129 0.01377515 0.36000001 4279450396
0.14044057 0.01377515 0.36000001 4279516189
0.14160985 0.01377515 0.36000001 4279450396
0.14238253 0.013736886 0.35900003 4279516189
0.14354855 0.013736886 0.35900003 4279581984
0.14471458 0.013736886 0.35900003 4279318810
0.14588062 0.013736886 0.35900003 4279516443
0.14663705 0.013698622 0.35800001 4279253271
0.14779983 0.013698622 0.35800001 4280434979
0.063542366 0.01473726 0.35500002 4279050764
0.064877644 0.014778772 0.35600001 4279445781
0.065477468 0.014654233 0.35300002 4279250201
0.066624016 0.014654233 0.35300002 4279119383
0.067578569 0.01461272 0.35200003 4279251736
0.068721868 0.01461272 0.35200003 4278857748
0.069865167 0.01461272 0.35200003 4278858773
0.071008459 0.01461272 0.35200003 4278728724
0.072151758 0.01461272 0.35200003 4278598421
0.073295057 0.01461272 0.35200003 4279059742
0.074438356 0.01461272 0.35200003 4278599191
0.075581647 0.01461272 0.35200003 4278531861
0.076942913 0.014654233 0.35300002 4278531091
0.078310676 0.014695746 0.354 4278662677
0.079684928 0.01473726 0.35500002 4278596371
0.081065685 0.014778772 0.35600001 4278727957
0.082452938 0.014820287 0.35700002 4278727957
0.083612472 0.014820287 0.35700002 4278596371
0.085009463 0.0148618 0.35800001 4278727957
0.086172245 0.0148618 0.35800001 4278727187
0.087335028 0.0148618 0.35800001 4278661396
0.08874502 0.014903313 0.35900003 4278858775
0.090161495 0.014944826 0.36000001 4278727959
0.091330774 0.014944826 0.36000001 4278662679
0.092757009 0.014986341 0.36100003 4278662679
0.094189726 0.015027854 0.36200002 4278531093
0.095365502 0.015027854 0.36200002 4278794265
0.096541286 0.015027854 0.36200002 4278860058
0.097717062 0.015027854 0.36200002 4278859543
0.09889283 0.015027854 0.36200002 4278859543
0.10006861 0.015027854 0.36200002 4278727957
0.10124438 0.015027854 0.36200002 4278793750
0.10213724 0.014986341 0.36100003 4278991129
0.10330977 0.014986341 0.36100003 4278794004
0.10419287 0.014944826 0.36000001 4279057176
0.10506947 0.014903313 0.35900003 4278991383
0.1062355 0.014903313 0.35900003 4278991896
0.10740154 0.014903313 0.35900003 4279189021
0.10826515 0.0148618 0.35800001 4279189021
0.10942794 0.0148618 0.35800001 4279123228
0.11059073 0.0148618 0.35800001 4279254814
0.11175352 0.0148618 0.35800001 4279123228
0.11291629 0.0148618 0.35800001 4279189021
0.11407907 0.0148618 0.35800001 4279254301
0.11524186 0.0148618 0.35800001 4279320094
0.11640465 0.0148618 0.35800001 4279188508
0.11756743 0.0148618 0.35800001 4279188508
0.11906187 0.014903313 0.35900003 4278991129
0.1202279 0.014903313 0.35900003 4279386141
0.12139393 0.014903313 0.35900003 4279320348
0.12290135 0.014944826 0.36000001 4279188762
0.12407064 0.014944826 0.36000001 4279057176
0.12523992 0.014944826 0.36000001 4279451934
0.1264092 0.014944826 0.36000001 4279188762
0.12757848 0.014944826 0.36000001 4278924820
0.12910539 0.014986341 0.36100003 4279648543
0.13027792 0.014986341 0.36100003 4279385371
0.13181458 0.015027854 0.36200002 4279713822
0.13299036 0.015027854 0.36200002 4279713822
0.13416614 0.015027854 0.36200002 4280108067
0.13534191 0.015027854 0.36200002 4279844641
0.13651769 0.015027854 0.36200002 4279713568
0.13769346 0.015027854 0.36200002 4279713568
0.13886924 0.015027854 0.36200002 4279976740
0.13965815 0.014986341 0.36100003 4279976740
0.14083068 0.014986341 0.36100003 4280042533
0.14160985 0.014944826 0.36000001 4280304422
0.14277913 0.014944826 0.36000001 4280370215
0.14394841 0.014944826 0.36000001 4280173606
0.14471458 0.014903313 0.35900003 4281094708
0.14588062 0.014903313 0.35900003 4280238629
0.14663705 0.0148618 0.35800001 4281093425
0.14779983 0.0148618 0.35800001 4283524938
0.063721359 0.015935453 0.35600001 4280959020
0.064877644 0.015935453 0.35600001 4279643930
0.06566295 0.015845928 0.354 4279119385
0.066812746 0.015845928 0.354 4279185689
0.067770556 0.015801165 0.35300002 4278791955
0.068917103 0.015801165 0.35300002 4279516191
0.070063643 0.015801165 0.35300002 4280306219
0.071210191 0.015801165 0.35300002 4279781158
0.072151758 0.015756404 0.35200003 4279124765
0.073295057 0.015756404 0.35200003 4278599191
0.074649826 0.015801165 0.35300002 4282875734
0.075796366 0.015801165 0.35300002 4280111658
0.07716088 0.015845928 0.354 4278926103
0.078310676 0.015845928 0.354 4278728724
0.079684928 0.015890691 0.35500002 4278794517
0.081065685 0.015935453 0.35600001 4278794517
0.082452938 0.015980216 0.35700002 4278663701
0.083612472 0.015980216 0.35700002 4278795287
0.085009463 0.016024979 0.35800001 4278861080
0.086172245 0.016024979 0.35800001 4278729494
0.087335028 0.016024979 0.35800001 4278795033
0.08874502 0.016069742 0.35900003 4279058205
0.089911051 0.016069742 0.35900003 4278729240
0.091330774 0.016114503 0.36000001 4278927132
0.092757009 0.016159266 0.36100003 4279453476
0.093929537 0.016159266 0.36100003 4279256097
0.095365502 0.016204027 0.36200002 4279190304
0.096541286 0.016204027 0.36200002 4279124511
0.097717062 0.016204027 0.36200002 4279058718
0.09889283 0.016204027 0.36200002 4279058459
0.10006861 0.016204027 0.36200002 4279190045
0.10096471 0.016159266 0.36100003 4279058459
0.10213724 0.016159266 0.36100003 4279058459
0.10330977 0.016159266 0.36100003 4279058459
0.10419287 0.016114503 0.36000001 4279255068
0.10536214 0.016114503 0.36000001 4278926103
0.1062355 0.016069742 0.35900003 4279320861
0.10740154 0.016069742 0.35900003 4279255068
0.10826515 0.016024979 0.35800001 4279189275
0.10942794 0.016024979 0.35800001 4279649826
0.11059073 0.016024979 0.35800001 4279583779
0.11175352 0.016024979 0.35800001 4279781158
0.11291629 0.016024979 0.35800001 4279978024
0.11407907 0.016024979 0.35800001 4279780645
0.11524186 0.016024979 0.35800001 4279780645
0.11640465 0.016024979 0.35800001 4279846438
0.11756743 0.016024979 0.35800001 4279912231
0.11906187 0.016069742 0.35900003 4280175403
0.1202279 0.016069742 0.35900003 4280043301
0.12173207 0.016114503 0.36000001 4280174373
0.12290135 0.016114503 0.36000001 4280174373
0.12407064 0.016114503 0.36000001 4280371752
0.12523992 0.016114503 0.36000001 4280700717
0.1264092 0.016114503 0.36000001 4280240166
0.12793288 0.016159266 0.36100003 4280371752
0.12910539 0.016159266 0.36100003 4280437545
0.13063879 0.016204027 0.36200002 4280963635
0.13181458 0.016204027 0.36200002 4280371752
0.13299036 0.016204027 0.36200002 4280502825
0.13453676 0.016248791 0.36300001 4280700204
0.13571578 0.016248791 0.36300001 4280830766
0.13689481 0.016248791 0.36300001 4280765227
0.13807382 0.016248791 0.36300001 4280436262
0.13886924 0.016204027 0.36200002 4280304676
0.14004502 0.016204027 0.36200002 4280567594
0.14083068 0.016159266 0.36100003 4281159731
0.14200321 0.016159266 0.36100003 4281028145
0.14277913 0.016114503 0.36000001 4281291317
0.14394841 0.016114503 0.36000001 4281225524
0.14511769 0.016114503 0.36000001 4281291317
0.14628696 0.016114503 0.36000001 4281947191
0.065059885 0.017140146 0.35700002 4279381012
0.06603393 0.017092135 0.35600001 4279185689
0.067001484 0.017044123 0.35500002 4279054873
0.068154521 0.017044123 0.35500002 4279187226
0.069112331 0.016996112 0.354 4279845670
0.070262127 0.016996112 0.354 4279911715
0.071411915 0.016996112 0.354 4279780899
0.072356731 0.0169481 0.35300002 4279584803
0.073503278 0.0169481 0.35300002 4278993179
0.074649826 0.0169481 0.35300002 4278993179
0.076011084 0.016996112 0.354 4279124763
0.07716088 0.016996112 0.354 4278795800
0.078531891 0.017044123 0.35500002 4278795800
0.079909392 0.017092135 0.35600001 4278664214
0.081065685 0.017092135 0.35600001 4278993179
0.082452938 0.017140146 0.35700002 4279058972
0.083612472 0.017140146 0.35700002 4278928156
0.084772006 0.017140146 0.35700002 4278796316
0.086172245 0.017188158 0.35800001 4278927902
0.087335028 0.017188158 0.35800001 4278203922
0.088497818 0.017188158 0.35800001 4278664984
0.089911051 0.017236169 0.35900003 4279124765
0.091077082 0.017236169 0.35900003 4279387683
0.092500061 0.017284181 0.36000001 4279387937
0.093929537 0.017332194 0.36100003 4279124765
0.095102072 0.017332194 0.36100003 4279585316
0.096274599 0.017332194 0.36100003 4279453476
0.097717062 0.017380204 0.36200002 4279584803
0.09889283 0.017380204 0.36200002 4279519010
0.099792175 0.017332194 0.36100003 4279912996
0.10096471 0.017332194 0.36100003 4280044582
0.10213724 0.017332194 0.36100003 4280044584
0.10330977 0.017332194 0.36100003 4279781412
0.10419287 0.017284181 0.36000001 4280175657
0.10536214 0.017284181 0.36000001 4280241450
0.1062355 0.017236169 0.35900003 4280175657
0.10740154 0.017236169 0.35900003 4280241450
0.10856757 0.017236169 0.35900003 4280175657
0.10942794 0.017188158 0.35800001 4280175657
0.11059073 0.017188158 0.35800001 4280241450
0.11175352 0.017188158 0.35800001 4280373036
0.11291629 0.017188158 0.35800001 4280898610
0.11407907 0.017188158 0.35800001 4280569131
0.11524186 0.017188158 0.35800001 4280503338
0.11640465 0.017188158 0.35800001 4280569131
0.11756743 0.017188158 0.35800001 4280634670
0.11906187 0.017236169 0.35900003 4280437291
0.1202279 0.017236169 0.35900003 4280568618
0.12173207 0.017284181 0.36000001 4280173090
0.12290135 0.017284181 0.36000001 4279909916
0.12407064 0.017284181 0.36000001 4280107297
0.12523992 0.017284181 0.36000001 4279843871
0.1264092 0.017284181 0.36000001 4280436008
0.12793288 0.017332194 0.36100003 4280370215
0.12946302 0.017380204 0.36200002 4281158966
0.13063879 0.017380204 0.36200002 4280961587
0.13217871 0.017428216 0.36300001 4281290806
0.13335773 0.017428216 0.36300001 4281487667
0.13453676 0.017428216 0.36300001 4281750839
0.13571578 0.017428216 0.36300001 4281948988
0.13689481 0.017428216 0.36300001 4280896813
0.13807382 0.017428216 0.36300001 4280501288
0.13925284 0.017428216 0.36300001 4281092141
0.14004502 0.017380204 0.36200002 4281290804
0.14122079 0.017380204 0.36200002 4281291317
0.14239657 0.017380204 0.36200002 4280961839
0.14317575 0.017332194 0.36100003 4281422644
0.14434826 0.017332194 0.36100003 4281685562
0.14511769 0.017284181 0.36000001 4282869066
0.14628696 0.017284181 0.36000001 4286681468
0.14745624 0.017284181 0.36000001 4286220915
0.065242119 0.018351335 0.35800001 4279907102
0.066219419 0.018300075 0.35700002 4279250969
0.067190222 0.018248815 0.35600001 4279120666
0.068346508 0.018248815 0.35600001 4279648291
0.069307566 0.018197555 0.35500002 4279977256
0.07046061 0.018197555 0.35500002 4280240680
0.071613647 0.018197555 0.35500002 4279912485
0.072561711 0.018146293 0.354 4279847205
0.0737115 0.018146293 0.354 4280176940
0.074861296 0.018146293 0.354 4280045867
0.076011084 0.018146293 0.354 4280111660
0.077378854 0.018197555 0.35500002 4279651109
0.078531891 0.018197555 0.35500002 4279585316
0.079909392 0.018248815 0.35600001 4279848488
0.081065685 0.018248815 0.35600001 4279848488
0.082452938 0.018300075 0.35700002 4279848488
0.083612472 0.018300075 0.35700002 4279651109
0.084772006 0.018300075 0.35700002 4279848488
0.085931547 0.018300075 0.35700002 4279914281
0.087335028 0.018351335 0.35800001 4279585316
0.088497818 0.018351335 0.35800001 4279782182
0.089660592 0.018351335 0.35800001 4279781412
0.091077082 0.018402597 0.35900003 4280175657
0.092500061 0.018453857 0.36000001 4280175657
0.09366934 0.018453857 0.36000001 4280636208
0.095102072 0.018505119 0.36100003 4280175655
0.096274599 0.018505119 0.36100003 4280701999
0.097447127 0.018505119 0.36100003 4280109862
0.098619647 0.018505119 0.36100003 4280767022
0.099792175 0.018505119 0.36100003 4280767022
0.10096471 0.018505119 0.36100003 4281030196
0.10213724 0.018505119 0.36100003 4280174373
0.10330977 0.018505119 0.36100003 4280371752
0.10419287 0.018453857 0.36000001 4280238629
0.10536214 0.018453857 0.36000001 4279514906
0.10653143 0.018453857 0.36000001 4279383322
0.10740154 0.018402597 0.35900003 4280436780
0.10856757 0.018402597 0.35900003 4279778850
0.10973361 0.018402597 0.35900003 4279976229
0.11059073 0.018351335 0.35800001 4280699182
0.11175352 0.018351335 0.35800001 4280830768
0.11291629 0.018351335 0.35800001 4280567596
0.11407907 0.018351335 0.35800001 4280830255
0.11524186 0.018351335 0.35800001 4281290806
0.11640465 0.018351335 0.35800001 4281093427
0.11756743 0.018351335 0.35800001 4280830766
0.11906187 0.018402597 0.35900003 4280304422
0.1202279 0.018402597 0.35900003 4280633387
0.12173207 0.018453857 0.36000001 4280501542
0.12290135 0.018453857 0.36000001 4280895016
0.12407064 0.018453857 0.36000001 4281290288
0.12523992 0.018453857 0.36000001 4280829737
0.1264092 0.018453857 0.36000001 4280763944
0.12793288 0.018505119 0.36100003 4280829483
0.12946302 0.018556379 0.36200002 4281289782
0.13063879 0.018556379 0.36200002 4280894764
0.13217871 0.018607639 0.36300001 4280697383
0.13335773 0.018607639 0.36300001 4280631590
0.13490738 0.018658901 0.36400002 4281223981
0.13608965 0.018658901 0.36400002 4281618739
0.13727194 0.018658901 0.36400002 4280302879
0.1384542 0.018658901 0.36400002 4280696870
0.13925284 0.018607639 0.36300001 4281617972
0.14043188 0.018607639 0.36300001 4281684532
0.14161091 0.018607639 0.36300001 4281224495
0.14239657 0.018556379 0.36200002 4281289259
0.14317575 0.018505119 0.36100003 4282603838
0.14434826 0.018505119 0.36100003 4285957491
0.14552079 0.018505119 0.36100003 4286351990
0.14628696 0.018453857 0.36000001 4285957232
0.066404909 0.019514514 0.35800001 4279316762
0.067378961 0.019460006 0.35700002 4279844389
0.068538494 0.019460006 0.35700002 4279780393
0.069698036 0.019460006 0.35700002 4279846186
0.070659086 0.019405494 0.35600001 4279846692
0.071815372 0.019405494 0.35600001 4280307756
0.072766684 0.019350985 0.35500002 4280241963
0.073919728 0.019350985 0.35500002 4280045354
0.075072773 0.019350985 0.35500002 4279979561
0.07622581 0.019350985 0.35500002 4280111660
0.077378854 0.019350985 0.35500002 4279980072
0.078753106 0.019405494 0.35600001 4279782180
0.079909392 0.019405494 0.35600001 4279782180
0.081293397 0.019460006 0.35700002 4279913766
0.082452938 0.019460006 0.35700002 4280044582
0.083612472 0.019460006 0.35700002 4280044582
0.084772006 0.019460006 0.35700002 4280110375
0.085931547 0.019460006 0.35700002 4279715617
0.087335028 0.019514514 0.35800001 4279910947
0.088497818 0.019514514 0.35800001 4279647262
0.089660592 0.019514514 0.35800001 4280897329
0.091077082 0.019569024 0.35900003 4280699950
0.09224312 0.019569024 0.35900003 4279250453
0.09366934 0.019623535 0.36000001 4279052558
0.094838627 0.019623535 0.36000001 4279117068
0.096274599 0.019678045 0.36100003 4279578389
0.097447127 0.019678045 0.36100003 4279117838
0.098619647 0.019678045 0.36100003 4279381010
0.099792175 0.019678045 0.36100003 4279578650
0.10096471 0.019678045 0.36100003 4280038688
0.10213724 0.019678045 0.36100003 4280038172
0.10302359 0.019623535 0.36000001 4280498723
0.10419287 0.019623535 0.36000001 4281354032
0.10536214 0.019623535 0.36000001 4279840026
0.10653143 0.019623535 0.36000001 4280894764
0.10740154 0.019569024 0.35900003 4280830766
0.10856757 0.019569024 0.35900003 4280961841
0.10973361 0.019569024 0.35900003 4279644957
0.11089964 0.019569024 0.35900003 4280170274
0.11175352 0.019514514 0.35800001 4280039201
0.11291629 0.019514514 0.35800001 4280105508
0.11407907 0.019514514 0.35800001 4281026864
0.11524186 0.019514514 0.35800001 4281092657
0.11640465 0.019514514 0.35800001 4281487415
0.11756743 0.019514514 0.35800001 4280303141
0.11906187 0.019569024 0.35900003 4281159220
0.1202279 0.019569024 0.35900003 4281751355
0.12173207 0.019623535 0.36000001 4281290034
0.12290135 0.019623535 0.36000001 4281421106
0.12407064 0.019623535 0.36000001 4281157934
0.12523992 0.019623535 0.36000001 4281157934
0.1264092 0.019623535 0.36000001 4281289007
0.12793288 0.019678045 0.36100003 4280960042
0.12946302 0.019732554 0.36200002 4280696872
0.13063879 0.019732554 0.36200002 4280631079
0.13217871 0.019787064 0.36300001 4281420593
0.13335773 0.019787064 0.36300001 4280697124
0.13490738 0.019841574 0.36400002 4282143800
0.13608965 0.019841574 0.36400002 4282143800
0.13727194 0.019841574 0.36400002 4282341179
0.1384542 0.019841574 0.36400002 4283394383
0.13963647 0.019841574 0.36400002 4284841313
0.14043188 0.019787064 0.36300001 4286156658
0.14161091 0.019787064 0.36300001 4286222964
0.14278993 0.019787064 0.36300001 4285696109
0.14357235 0.019732554 0.36200002 4286220915
0.14434826 0.019678045 0.36100003 4286352503
0.14552079 0.019678045 0.36100003 4286352503
0.14669332 0.019678045 0.36100003 4286615162
0.066404909 0.020677693 0.35800001 4281420854
0.067567699 0.020677693 0.35800001 4280239401
0.068730474 0.020677693 0.35800001 4280109612
0.069698036 0.020619934 0.35700002 4279912233
0.07085757 0.020619934 0.35700002 4280044330
0.072017103 0.020619934 0.35700002 4280175916
0.072971664 0.020562174 0.35600001 4280504881
0.07412795 0.020562174 0.35600001 4280176686
0.075284243 0.020562174 0.35600001 4280176686
0.076440528 0.020562174 0.35600001 4279979307
0.077596813 0.020562174 0.35600001 4279979561
0.078753106 0.020562174 0.35600001 4280044584
0.080133863 0.020619934 0.35700002 4279847205
0.081293397 0.020619934 0.35700002 4279912998
0.082452938 0.020619934 0.35700002 4279649826
0.083612472 0.020619934 0.35700002 4279715619
0.084772006 0.020619934 0.35700002 4279781412
0.085931547 0.020619934 0.35700002 4280241450
0.087335028 0.020677693 0.35800001 4278593552
0.088497818 0.020677693 0.35800001 4280765745
0.089660592 0.020677693 0.35800001 4280764973
0.091077082 0.020735452 0.35900003 4278986000
0.09224312 0.020735452 0.35900003 4280958509
0.093409151 0.020735452 0.35900003 4280497956
0.094838627 0.020793211 0.36000001 4281419571
0.096007906 0.020793211 0.36000001 4280892714
0.097447127 0.020850971 0.36100003 4279773463
0.098619647 0.020850971 0.36100003 4280103198
0.099792175 0.020850971 0.36100003 4279445268
0.10096471 0.020850971 0.36100003 4279774233
0.10213724 0.020850971 0.36100003 4280563233
0.10302359 0.020793211 0.36000001 4280168475
0.10419287 0.020793211 0.36000001 4279511061
0.10536214 0.020793211 0.36000001 4281814329
0.10653143 0.020793211 0.36000001 4280830001
0.10770071 0.020793211 0.36000001 4280237864
0.10856757 0.020735452 0.35900003 4280631079
0.10973361 0.020735452 0.35900003 4281354032
0.11089964 0.020735452 0.35900003 4280696618
0.11206568 0.020735452 0.35900003 4280763178
0.1132317 0.020735452 0.35900003 4280632106
0.11439773 0.020735452 0.35900003 4281157936
0.11556377 0.020735452 0.35900003 4280893481
0.1167298 0.020735452 0.35900003 4281748790
0.11789584 0.020735452 0.35900003 4281354032
0.11906187 0.020735452 0.35900003 4282143548
0.1202279 0.020735452 0.35900003 4282144318
0.12173207 0.020793211 0.36000001 4282473281
0.12290135 0.020793211 0.36000001 4283064648
0.12407064 0.020793211 0.36000001 4283656785
0.12523992 0.020793211 0.36000001 4284182616
0.1264092 0.020793211 0.36000001 4285037925
0.12793288 0.020850971 0.36100003 4285498991
0.12946302 0.020908728 0.36200002 4285959029
0.13063879 0.020908728 0.36200002 4286353787
0.13217871 0.020966487 0.36300001 4285893236
0.13335773 0.020966487 0.36300001 4285630064
0.135278 0.021082005 0.36500001 4285695857
0.13646352 0.021082005 0.36500001 4285827443
0.13764904 0.021082005 0.36500001 4285827443
0.1384542 0.021024248 0.36400002 4285959029
0.13963647 0.021024248 0.36400002 4285959029
0.14081874 0.021024248 0.36400002 4286220915
0.14161091 0.020966487 0.36300001 4286155636
0.14278993 0.020966487 0.36300001 4286155636
0.067756437 0.021901879 0.35900003 4280763438
0.068730474 0.02184087 0.35800001 4279845670
0.069893263 0.02184087 0.35800001 4280109612
0.071056046 0.02184087 0.35800001 4280241709
0.072017103 0.021779863 0.35700002 4280570674
0.073176645 0.021779863 0.35700002 4280505135
0.074336179 0.021779863 0.35700002 4280241963
0.075284243 0.021718854 0.35600001 4280045352
0.076440528 0.021718854 0.35600001 4280110375
0.077596813 0.021718854 0.35600001 4279912996
0.078974329 0.021779863 0.35700002 4279847205
0.080133863 0.021779863 0.35700002 4279649826
0.081293397 0.021779863 0.35700002 4279452447
0.082452938 0.021779863 0.35700002 4279584033
0.083612472 0.021779863 0.35700002 4279847205
0.084772006 0.021779863 0.35700002 4278924566
0.085931547 0.021779863 0.35700002 4278593806
0.087335028 0.02184087 0.35800001 4279779363
0.088497818 0.02184087 0.35800001 4280043049
0.089660592 0.02184087 0.35800001 4278790672
0.090823382 0.02184087 0.35800001 4279446551
0.09224312 0.021901879 0.35900003 4279774235
0.093409151 0.021901879 0.35900003 4280235299
0.094838627 0.021962887 0.36000001 4280301862
0.096007906 0.021962887 0.36000001 4281222964
0.097177185 0.021962887 0.36000001 4281683515
0.098619647 0.022023896 0.36100003 4281881407
0.099792175 0.022023896 0.36100003 4282078273
0.10096471 0.022023896 0.36100003 4281880892
0.10213724 0.022023896 0.36100003 4281749560
0.10302359 0.021962887 0.36000001 4282143548
0.10419287 0.021962887 0.36000001 4281880376
0.10536214 0.021962887 0.36000001 4281551411
0.10653143 0.021962887 0.36000001 4281683767
0.10770071 0.021962887 0.36000001 4281815866
0.10856757 0.021901879 0.35900003 4281946939
0.10973361 0.021901879 0.35900003 4282406720
0.11089964 0.021901879 0.35900003 4283525201
0.11206568 0.021901879 0.35900003 4283789143
0.1132317 0.021901879 0.35900003 4284775784
0.11439773 0.021901879 0.35900003 4285367151
0.11556377 0.021901879 0.35900003 4285432944
0.1167298 0.021901879 0.35900003 4285761909
0.11789584 0.021901879 0.35900003 4285695857
0.11906187 0.021901879 0.35900003 4286089843
0.1202279 0.021901879 0.35900003 4285366890
0.12173207 0.021962887 0.36000001 4285498478
0.12290135 0.021962887 0.36000001 4285629810
0.12407064 0.021962887 0.36000001 4285695603
0.12523992 0.021962887 0.36000001 4285959029
0.1264092 0.021962887 0.36000001 4285893236
0.12793288 0.022023896 0.36100003 4285958259
0.12946302 0.022084903 0.36200002 4285760880
0.13063879 0.022084903 0.36200002 4285958259
0.13217871 0.02214591 0.36300001 4286089845
0.13335773 0.02214591 0.36300001 4286024052
0.135278 0.022267926 0.36500001 4286089591
0.13646352 0.022267926 0.36500001 4286155384
0.13764904 0.022267926 0.36500001 4286155638
0.13883457 0.022267926 0.36500001 4286089845
0.13963647 0.022206919 0.36400002 4286155124
0.14081874 0.022206919 0.36400002 4286615675
0.069893263 0.023004051 0.35800001 4280568112
0.071056046 0.023004051 0.35800001 4280570163
0.072218828 0.023004051 0.35800001 4280373295
0.073176645 0.022939794 0.35700002 4280307754
0.074336179 0.022939794 0.35700002 4280176168
0.07549572 0.022939794 0.35700002 4279912996
0.076655254 0.022939794 0.35700002 4280110377
0.077814788 0.022939794 0.35700002 4279715619
0.078974329 0.022939794 0.35700002 4279386654
0.080133863 0.022939794 0.35700002 4279254814
0.081293397 0.022939794 0.35700002 4279254814
0.082452938 0.022939794 0.35700002 4279189021
0.083612472 0.022939794 0.35700002 4278727959
0.084772006 0.022939794 0.35700002 4280173608
0.086172245 0.023004051 0.35800001 4279778080
0.087335028 0.023004051 0.35800001 4279778850
0.088497818 0.023004051 0.35800001 4279778850
0.089660592 0.023004051 0.35800001 4279844391
0.090823382 0.023004051 0.35800001 4280369965
0.09224312 0.023068309 0.35900003 4280697133
0.093409151 0.023068309 0.35900003 4281618233
0.094838627 0.023132564 0.36000001 4282210624
0.096007906 0.023132564 0.36000001 4283722580
0.097177185 0.023132564 0.36000001 4284381280
0.098619647 0.023196824 0.36100003 4284578405
0.099792175 0.023196824 0.36100003 4284512612
0.10096471 0.023196824 0.36100003 4285038956
0.10213724 0.023196824 0.36100003 4284841577
0.10330977 0.023196824 0.36100003 4284578405
0.10419287 0.023132564 0.36000001 4284775784
0.10536214 0.023132564 0.36000001 4285103979
0.10653143 0.023132564 0.36000001 4284906600
0.10770071 0.023132564 0.36000001 4285038186
0.10886999 0.023132564 0.36000001 4285301358
0.11003927 0.023132564 0.36000001 4285103979
0.11120855 0.023132564 0.36000001 4285367151
0.11237784 0.023132564 0.36000001 4285301358
0.11354711 0.023132564 0.36000001 4285498224
0.11471639 0.023132564 0.36000001 4285498224
0.11588567 0.023132564 0.36000001 4285498224
0.11705495 0.023132564 0.36000001 4285564017
0.11822423 0.023132564 0.36000001 4285826419
0.11939352 0.023132564 0.36000001 4285826673
0.12056279 0.023132564 0.36000001 4285760880
0.12173207 0.023132564 0.36000001 4285826419
0.12290135 0.023132564 0.36000001 4285826419
0.12407064 0.023132564 0.36000001 4285826419
0.12523992 0.023132564 0.36000001 4286089077
0.1264092 0.023132564 0.36000001 4285957491
0.12793288 0.023196824 0.36100003 4286154870
0.12946302 0.02326108 0.36200002 4286286456
0.13063879 0.02326108 0.36200002 4286089077
0.13217871 0.023325335 0.36300001 4286089077
0.13335773 0.023325335 0.36300001 4286220663
0.135278 0.02345385 0.36500001 4286286456
0.13646352 0.02345385 0.36500001 4286418042
0.13764904 0.02345385 0.36500001 4286154870
0.13883457 0.02345385 0.36500001 4286286456
0.14002009 0.02345385 0.36500001 4286352249
0.069893263 0.024167228 0.35800001 4283196754
0.071056046 0.024167228 0.35800001 4282145863
0.072218828 0.024167228 0.35800001 4281751618
0.073176645 0.024099724 0.35700002 4280832051
0.074336179 0.024099724 0.35700002 4280174119
0.07549572 0.024099724 0.35700002 4279647262
0.076655254 0.024099724 0.35700002 4279251734
0.077814788 0.024099724 0.35700002 4279121179
0.090823382 0.024167228 0.35800001 4280630837
0.09224312 0.024234736 0.35900003 4283394135
0.093409151 0.024234736 0.35900003 4284052063
0.094838627 0.024302242 0.36000001 4284052061
0.096007906 0.024302242 0.36000001 4284511329
0.097177185 0.024302242 0.36000001 4284708708
0.098619647 0.024369748 0.36100003 4284642915
0.099792175 0.024369748 0.36100003 4284906087
0.10096471 0.024369748 0.36100003 4284906087
0.10213724 0.024369748 0.36100003 4284971880
0.10330977 0.024369748 0.36100003 4285037673
0.1044823 0.024369748 0.36100003 4285169259
0.10565482 0.024369748 0.36100003 4285037673
0.10682735 0.024369748 0.36100003 4285103468
0.10799988 0.024369748 0.36100003 4285169261
0.10917241 0.024369748 0.36100003 4285432433
0.11034494 0.024369748 0.36100003 4285366638
0.11151747 0.024369748 0.36100003 4285235052
0.11269 0.024369748 0.36100003 4285563247
0.11386252 0.024369748 0.36100003 4285563247
0.11503505 0.024369748 0.36100003 4285629040
0.11620758 0.024369748 0.36100003 4285629040
0.11738011 0.024369748 0.36100003 4285629040
0.11855264 0.024369748 0.36100003 4285760626
0.11972518 0.024369748 0.36100003 4285695087
0.1208977 0.024369748 0.36100003 4285958259
0.12207022 0.024369748 0.36100003 4286089845
0.12324275 0.024369748 0.36100003 4286155638
0.12441529 0.024369748 0.36100003 4286089331
0.12558781 0.024369748 0.36100003 4286220917
0.12676035 0.024369748 0.36100003 4285957745
0.12793288 0.024369748 0.36100003 4286089077
0.12946302 0.024437254 0.36200002 4286154870
0.13063879 0.024437254 0.36200002 4286220663
0.13217871 0.02450476 0.36300001 4286220663
0.13335773 0.02450476 0.36300001 4286154870
0.135278 0.024639772 0.36500001 4286286456
0.13646352 0.024639772 0.36500001 4286286456
0.13764904 0.024639772 0.36500001 4286220663
0.13883457 0.024639772 0.36500001 4286286456
0.14002009 0.024639772 0.36500001 4286286456
0.072218828 0.025330408 0.35800001 4283195984
0.098822527 0.014460569 0.35812354 4294967295
0.098822527 0.014460569 0.35812354 4294901760
0.098893292 0.013967701 0.358078 4294901760
0.098964058 0.013474833 0.35803246 4294901760
0.099034823 0.012981965 0.35798693 4294901760
0.099105589 0.012489097 0.35794139 4294901760
0.099176355 0.01199623 0.35789585 4294901760
0.09924712 0.011503362 0.35785031 4294901760
0.099317886 0.011010494 0.35780478 4294901760
0.099388652 0.010517626 0.35775927 4294901760
0.099459417 0.010024758 0.35771373 4294901760
0.099530175 0.00953189 0.35766819 4294901760
0.099600941 0.009039022 0.35762265 4294901760
0.099671707 0.0085461549 0.35757712 4294901760
0.099742472 0.0080532869 0.35753158 4294901760
0.099813238 0.0075604185 0.35748604 4294901760
0.099884003 0.0070675504 0.3574405 4294901760
0.099954769 0.0065746829 0.35739496 4294901760
0.10002553 0.0060818149 0.35734943 4294901760
0.1000963 0.0055889469 0.35730389 4294901760
0.10016707 0.0050960789 0.35725835 4294901760
0.10023783 0.0046032108 0.35721281 4294901760
0.1003086 0.0041103438 0.35716727 4294901760
0.10037936 0.0036174757 0.35712177 4294901760
0.10045013 0.0031246077 0.35707623 4294901760
0.10052089 0.0026317397 0.35703069 4294901760
0.10059166 0.0021388717 0.35698515 4294901760
0.10066243 0.0016460046 0.35693961 4294901760
0.10073319 0.0011531357 0.35689408 4294901760
0.10080396 0.00066026766 0.35684854 4294901760
0.10087472 0.00016740058 0.356803 4294901760
0.10094549 -0.00032546837 0.35675746 4294901760
0.10101625 -0.00081833545 0.35671192 4294901760
0.10108701 -0.0013112035 0.35666639 4294901760
0.10115778 -0.0018040724 0.35662085 4294901760
0.10122854 -0.0022969395 0.35657531 4294901760
0.10129931 -0.0027898066 0.35652977 4294901760
0.10137007 -0.0032826755 0.35648426 4294901760
0.10144084 -0.0037755426 0.35643873 4294901760
0.10151161 -0.0042684115 0.35639319 4294901760
0.10158237 -0.0047612786 0.35634765 4294901760
0.10165314 -0.0052541476 0.35630211 4294901760
0.1017239 -0.0057470147 0.35625657 4294901760
0.10179467 -0.0062398817 0.35621104 4294901760
0.10186543 -0.0067327507 0.3561655 4294901760
0.1019362 -0.0072256178 0.35611996 4294901760
0.10200696 -0.0077184848 0.35607442 4294901760
0.10207773 -0.0082113538 0.35602888 4294901760
0.1021485 -0.0087042227 0.35598335 4294901760
0.10221926 -0.0091970898 0.35593781 4294901760
0.10229003 -0.0096899588 0.35589227 4294901760
0.10236079 -0.010182826 0.35584676 4294901760
0.10243155 -0.010675693 0.35580122 4294901760
0.10250232 -0.01116856 0.35575569 4294901760
0.10257308 -0.011661429 0.35571015 4294901760
0.10264385 -0.012154298 0.35566461 4294901760
0.10271461 -0.012647167 0.35561907 4294901760
0.10278538 -0.013140034 0.35557353 4294901760
0.10285614 -0.013632901 0.355528 4294901760
0.10292691 -0.014125768 0.35548246 4294901760
0.10299768 -0.014618635 0.35543692 4294901760
0.10306844 -0.015111506 0.35539138 4294901760
0.10313921 -0.015604373 0.35534585 4294901760
0.10320997 -0.01609724 0.35530031 4294901760
0.10328074 -0.016590109 0.35525477 4294901760
0.1033515 -0.017082976 0.35520923 4294901760
0.10342227 -0.017575843 0.35516372 4294901760
0.10349303 -0.018068714 0.35511819 4294901760
0.1035638 -0.018561581 0.35507265 4294901760
0.10363457 -0.019054448 0.35502711 4294901760
0.10370533 -0.019547315 0.35498157 4294901760
0.1037761 -0.020040182 0.35493603 4294901760
0.10384686 -0.020533049 0.3548905 4294901760
0.10391762 -0.02102592 0.35484496 4294901760
0.10398839 -0.021518787 0.35479942 4294901760
0.10405915 -0.022011654 0.35475388 4294901760
0.10412992 -0.022504525 0.35470834 4294901760
0.10420068 -0.022997392 0.35466281 4294901760
0.10427145 -0.023490259 0.35461727 4294901760
0.10434221 -0.023983127 0.35457173 4294901760
0.10441298 -0.024475997 0.35452622 4294901760
0.10448375 -0.024968864 0.35448068 4294901760
0.10455451 -0.025461731 0.35443515 4294901760
0.10462528 -0.025954599 0.35438961 4294901760
0.10469604 -0.026447466 0.35434407 4294901760
0.10476681 -0.026940333 0.35429853 4294901760
0.10483757 -0.027433204 0.35425299 4294901760
0.10490834 -0.027926071 0.35420746 4294901760
0.10497911 -0.028418938 0.35416192 4294901760
0.10504987 -0.028911805 0.35411638 4294901760
0.10512064 -0.029404672 0.35407084 4294901760
0.10519139 -0.029897539 0.3540253 4294901760
0.10526216 -0.03039041 0.35397977 4294901760
0.10533293 -0.030883277 0.35393423 4294901760
0.10540369 -0.031376146 0.35388872 4294901760
0.10547446 -0.031869017 0.35384318 4294901760
0.10554522 -0.03236188 0.35379764 4294901760
0.10561599 -0.032854751 0.35375211 4294901760
0.10568675 -0.033347622 0.35370657 4294901760
0.10575752 -0.033840485 0.35366103 4294901760
0.10582829 -0.034333356 0.35361549 4294901760
0.10589905 -0.034826219 0.35356995 4294901760
0.098822527 0.014460569 0.35812354 4278255360
0.09931618 0.014527496 0.35816631 4278255360
0.099809833 0.014594422 0.35820907 4278255360
0.10030348 0.014661348 0.35825184 4278255360
0.10079713 0.014728274 0.35829461 4278255360
0.10129078 0.014795201 0.3583374 4278255360
0.10178444 0.014862127 0.35838017 4278255360
0.10227808 0.014929053 0.35842294 4278255360
0.10277174 0.014995979 0.3584657 4278255360
0.10326539 0.015062906 0.35850847 4278255360
0.10375904 0.015129832 0.35855123 4278255360
0.10425269 0.015196758 0.358594 4278255360
0.10474634 0.015263684 0.35863677 4278255360
0.10523999 0.015330611 0.35867953 4278255360
0.10573365 0.015397537 0.35872233 4278255360
0.1062273 0.015464463 0.3587651 4278255360
0.10672095 0.01553139 0.35880786 4278255360
0.1072146 0.015598316 0.35885063 4278255360
0.10770825 0.015665242 0.35889339 4278255360
0.10820191 0.015732169 0.35893616 4278255360
0.10869555 0.015799094 0.35897893 4278255360
0.1091892 0.015866021 0.35902169 4278255360
0.10968286 0.015932947 0.35906446 4278255360
0.11017651 0.015999874 0.35910726 4278255360
0.11067016 0.016066799 0.35915002 4278255360
0.11116381 0.016133726 0.35919279 4278255360
0.11165746 0.016200652 0.35923555 4278255360
0.11215112 0.016267579 0.35927832 4278255360
0.11264477 0.016334506 0.35932109 4278255360
0.11313841 0.016401431 0.35936385 4278255360
0.11363207 0.016468357 0.35940662 4278255360
0.11412572 0.016535284 0.35944939 4278255360
0.11461937 0.016602211 0.35949218 4278255360
0.11511302 0.016669136 0.35953495 4278255360
0.11560667 0.016736062 0.35957772 4278255360
0.11610033 0.016802989 0.35962048 4278255360
0.11659398 0.016869916 0.35966325 4278255360
0.11708763 0.016936842 0.35970601 4278255360
0.11758128 0.017003767 0.35974878 4278255360
0.11807493 0.017070694 0.35979155 4278255360
0.11856858 0.017137621 0.35983431 4278255360
0.11906223 0.017204545 0.35987711 4278255360
0.11955588 0.017271472 0.35991988 4278255360
0.12004954 0.017338399 0.35996264 4278255360
0.12054319 0.017405326 0.36000541 4278255360
0.12103684 0.017472252 0.36004817 4278255360
0.12153049 0.017539177 0.36009094 4278255360
0.12202414 0.017606104 0.36013371 4278255360
0.12251779 0.01767303 0.36017647 4278255360
0.12301145 0.017739957 0.36021924 4278255360
0.1235051 0.017806884 0.36026204 4278255360
0.12399875 0.017873809 0.3603048 4278255360
0.1244924 0.017940735 0.36034757 4278255360
0.12498605 0.018007662 0.36039034 4278255360
0.1254797 0.018074589 0.3604331 4278255360
0.12597336 0.018141514 0.36047587 4278255360
0.126467 0.01820844 0.36051863 4278255360
0.12696065 0.018275367 0.3605614 4278255360
0.12745431 0.018342294 0.36060417 4278255360
0.12794796 0.018409219 0.36064693 4278255360
0.12844162 0.018476145 0.36068973 4278255360
0.12893526 0.018543072 0.3607325 4278255360
0.12942891 0.018609999 0.36077526 4278255360
0.12992257 0.018676925 0.36081803 4278255360
0.13041621 0.01874385 0.36086079 4278255360
0.13090986 0.018810777 0.36090356 4278255360
0.13140352 0.018877704 0.36094633 4278255360
0.13189717 0.01894463 0.36098909 4278255360
0.13239083 0.019011557 0.36103186 4278255360
0.13288447 0.019078482 0.36107466 4278255360
0.13337812 0.019145409 0.36111742 4278255360
0.13387178 0.019212335 0.36116019 4278255360
0.13436542 0.01927926 0.36120296 4278255360
0.13485909 0.019346187 0.36124572 4278255360
0.13535273 0.019413114 0.36128849 4278255360
0.13584638 0.01948004 0.36133125 4278255360
0.13634004 0.019546967 0.36137402 4278255360
0.13683368 0.019613892 0.36141679 4278255360
0.13732734 0.019680819 0.36145958 4278255360
0.13782099 0.019747745 0.36150235 4278255360
0.13831463 0.019814672 0.36154512 4278255360
0.1388083 0.019881599 0.36158788 4278255360
0.13930194 0.019948523 0.36163065 4278255360
0.1397956 0.02001545 0.36167341 4278255360
0.14028925 0.020082377 0.36171618 4278255360
0.14078289 0.020149302 0.36175895 4278255360
0.14127655 0.020216228 0.36180171 4278255360
0.1417702 0.020283155 0.36184451 4278255360
0.14226384 0.020350082 0.36188728 4278255360
0.14275751 0.020417009 0.36193004 4278255360
0.14325115 0.020483933 0.36197281 4278255360
0.1437448 0.02055086 0.36201558 4278255360
0.14423846 0.020617787 0.36205834 4278255360
0.1447321 0.020684713 0.36210111 4278255360
0.14522576 0.020751638 0.36214387 4278255360
0.14571941 0.020818565 0.36218664 4278255360
0.14621305 0.020885492 0.36222944 4278255360
0.14670672 0.020952418 0.3622722 4278255360
0.14720036 0.021019343 0.36231497 4278255360
0.14769402 0.02108627 0.36235774 4278255360
0.14818767 0.021153197 0.3624005 4278255360
0.098822527 0.014460569 0.35812354 4278190335
0.09878251 0.014409024 0.35861927 4278190335
0.0987425 0.014357479 0.35911497 4278190335
0.098702483 0.014305934 0.35961071 4278190335
0.098662466 0.014254389 0.36010644 4278190335
0.098622449 0.014202844 0.36060217 4278190335
0.098582439 0.014151299 0.36109787 4278190335
0.098542422 0.014099754 0.3615936 4278190335
0.098502405 0.014048209 0.36208934 4278190335
0.098462388 0.013996665 0.36258504 4278190335
0.098422378 0.01394512 0.36308077 4278190335
0.098382361 0.013893575 0.3635765 4278190335
0.098342344 0.01384203 0.36407223 4278190335
0.098302335 0.013790485 0.36456794 4278190335
0.098262317 0.01373894 0.36506367 4278190335
0.0982223 0.013687395 0.3655594 4278190335
0.098182283 0.013635851 0.36605513 4278190335
0.098142274 0.013584306 0.36655083 4278190335
0.098102257 0.013532761 0.36704656 4278190335
0.09806224 0.013481216 0.3675423 4278190335
0.098022223 0.013429671 0.368038 4278190335
0.097982213 0.013378126 0.36853373 4278190335
0.097942196 0.013326581 0.36902946 4278190335
0.097902179 0.013275036 0.36952519 4278190335
0.097862162 0.013223492 0.3700209 4278190335
0.097822152 0.013171947 0.37051663 4278190335
0.097782135 0.013120402 0.37101236 4278190335
0.097742118 0.013068857 0.37150806 4278190335
0.097702108 0.013017312 0.37200379 4278190335
0.097662091 0.012965767 0.37249953 4278190335
0.097622074 0.012914222 0.37299526 4278190335
0.097582057 0.012862677 0.37349096 4278190335
0.097542048 0.012811132 0.37398669 4278190335
0.09750203 0.012759587 0.37448242 4278190335
0.097462013 0.012708042 0.37497813 4278190335
0.097421996 0.012656497 0.37547386 4278190335
0.097381987 0.012604952 0.37596959 4278190335
0.09734197 0.012553407 0.37646532 4278190335
0.097301953 0.012501862 0.37696102 4278190335
0.097261943 0.012450317 0.37745675 4278190335
0.097221926 0.012398772 0.37795249 4278190335
0.097181909 0.012347227 0.37844819 4278190335
0.097141892 0.012295682 0.37894392 4278190335
0.097101882 0.012244137 0.37943965 4278190335
0.097061865 0.012192593 0.37993538 4278190335
0.097021848 0.012141048 0.38043109 4278190335
0.096981831 0.012089503 0.38092682 4278190335
0.096941821 0.012037958 0.38142255 4278190335
0.096901804 0.011986413 0.38191828 4278190335
0.096861787 0.011934868 0.38241398 4278190335
0.09682177 0.011883323 0.38290972 4278190335
0.09678176 0.011831778 0.38340545 4278190335
0.096741743 0.011780233 0.38390115 4278190335
