# .PCD v0.7 - Point Cloud Data file format
VERSION 0.7
FIELDS x y z rgb
SIZE 4 4 4 4
TYPE F F F U
COUNT 1 1 1 1
WIDTH 983
HEIGHT 1
VIEWPOINT 0 0 0 1 0 0 0
POINTS 983
DATA ascii
0.085316636 -0.040072802 0.43700001 4280573504
0.086736016 -0.040072802 0.43700001 4280112951
0.081911676 -0.038387597 0.43400002 4279786553
0.08351329 -0.038476046 0.43500003 4279852600
0.085121401 -0.038564496 0.43600002 4279852600
0.086736016 -0.038652945 0.43700001 4279984438
0.088357121 -0.038741399 0.43800002 4280116024
0.076787814 -0.036551479 0.42900002 4279786805
0.078363441 -0.036636677 0.43000001 4279589939
0.079945579 -0.036721881 0.43100002 4279130158
0.081722945 -0.036892284 0.43300003 4279195951
0.083321303 -0.036977485 0.43400002 4279196205
0.084926173 -0.03706269 0.43500003 4279130412
0.086537533 -0.037147891 0.43600002 4278998826
0.088155389 -0.037233088 0.43700001 4279655986
0.089779742 -0.037318293 0.43800002 4279848754
0.071214244 -0.035157613 0.42900002 4279786553
0.072607629 -0.035157613 0.42900002 4279326769
0.074001029 -0.035157613 0.42900002 4279458353
0.075394422 -0.035157613 0.42900002 4279393584
0.076966807 -0.035239566 0.43000001 4279130923
0.078363441 -0.035239566 0.43000001 4278867753
0.079945579 -0.035321519 0.43100002 4278867751
0.081534199 -0.035403471 0.43200001 4278933031
0.083129324 -0.035485424 0.43300003 4278866468
0.084730938 -0.035567377 0.43400002 4278734882
0.086339056 -0.035649329 0.43500003 4278998054
0.088155389 -0.035813231 0.43700001 4279194668
0.089779742 -0.035895187 0.43800002 4280570424
0.055886921 -0.033763744 0.42900002 4286093191
0.057280317 -0.033763744 0.42900002 4286422671
0.058810472 -0.033842448 0.43000001 4286028683
0.060207114 -0.033842448 0.43000001 4283069793
0.061603755 -0.033842448 0.43000001 4281163333
0.063000396 -0.033842448 0.43000001 4280574274
0.064397037 -0.033842448 0.43000001 4279786039
0.065640673 -0.033763744 0.42900002 4279458353
0.067034066 -0.033763744 0.42900002 4279130158
0.068427451 -0.033763744 0.42900002 4279854394
0.069820851 -0.033763744 0.42900002 4279328050
0.071214244 -0.033763744 0.42900002 4279065132
0.072607629 -0.033763744 0.42900002 4279328304
0.074001029 -0.033763744 0.42900002 4278670374
0.075570166 -0.033842448 0.43000001 4278604579
0.076966807 -0.033842448 0.43000001 4278604577
0.078363441 -0.033842448 0.43000001 4278604577
0.079945579 -0.033921152 0.43100002 4278538271
0.081534199 -0.033999857 0.43200001 4278800160
0.083129324 -0.034078561 0.43300003 4278996257
0.084730938 -0.034157261 0.43400002 4279127843
0.086140573 -0.034157261 0.43400002 4279062052
0.089779742 -0.034472078 0.43800002 4279649070
0.054493528 -0.032369882 0.42900002 4286226573
0.055886921 -0.032369882 0.42900002 4283200611
0.057280317 -0.032369882 0.42900002 4280966467
0.058673706 -0.032369882 0.42900002 4280178748
0.060067099 -0.032369882 0.42900002 4280180797
0.061460495 -0.032369882 0.42900002 4279523635
0.062853888 -0.032369882 0.42900002 4279459123
0.064247273 -0.032369882 0.42900002 4279065132
0.065640673 -0.032369882 0.42900002 4279000109
0.067034066 -0.032369882 0.42900002 4278605865
0.068427451 -0.032369882 0.42900002 4278737449
0.069820851 -0.032369882 0.42900002 4278671654
0.071214244 -0.032369882 0.42900002 4278867749
0.072607629 -0.032369882 0.42900002 4279130408
0.074173518 -0.032445334 0.43000001 4278604064
0.075570166 -0.032445334 0.43000001 4278604066
0.076966807 -0.032445334 0.43000001 4278669859
0.07854569 -0.03252079 0.43100002 4279129640
0.079945579 -0.03252079 0.43100002 4278201863
0.081534199 -0.032596242 0.43200001 4278201866
0.083129324 -0.032671697 0.43300003 4278203919
0.084730938 -0.032747153 0.43400002 4279192355
0.086140573 -0.032747153 0.43400002 4279258664
0.087550201 -0.032747153 0.43400002 4280178998
0.053100135 -0.030976016 0.42900002 4281163333
0.054366503 -0.030903812 0.42800003 4280640067
0.055626374 -0.030831605 0.42700002 4280311613
0.057013273 -0.030831605 0.42700002 4279130160
0.058400165 -0.030831605 0.42700002 4279459125
0.059787065 -0.030831605 0.42700002 4279262257
0.061173964 -0.030831605 0.42700002 4279197488
0.062560864 -0.030831605 0.42700002 4279000105
0.063947752 -0.030831605 0.42700002 4278539554
0.065487668 -0.030903812 0.42800003 4278802726
0.066877812 -0.030903812 0.42800003 4278671140
0.068267949 -0.030903812 0.42800003 4278867749
0.069658101 -0.030903812 0.42800003 4278538271
0.071214244 -0.030976016 0.42900002 4278603548
0.072607629 -0.030976016 0.42900002 4278406169
0.074173518 -0.031048222 0.43000001 4279194406
0.075570166 -0.031048222 0.43000001 4278535195
0.0771458 -0.031120427 0.43100002 4278199813
0.07854569 -0.031120427 0.43100002 4278334743
0.080131061 -0.031192631 0.43200001 4279256867
0.081534199 -0.031192631 0.43200001 4279322914
0.083129324 -0.031264838 0.43300003 4278336019
0.084730938 -0.031337041 0.43400002 4279192355
0.086140573 -0.031337041 0.43400002 4279192871
0.041325577 -0.028203029 0.40900001 4286290570
0.042654008 -0.028203029 0.40900001 4286487949
0.054112453 -0.029375285 0.42600003 4279131695
0.055365831 -0.029306328 0.42500001 4279197486
0.056746233 -0.029306328 0.42500001 4279131693
0.058126628 -0.029306328 0.42500001 4278868521
0.059507031 -0.029306328 0.42500001 4278736935
0.060887434 -0.029306328 0.42500001 4278671140
0.062414352 -0.029375285 0.42600003 4278671394
0.063797995 -0.029375285 0.42600003 4278539038
0.06518165 -0.029375285 0.42600003 4278407452
0.066721551 -0.02944424 0.42700002 4278538525
0.068108447 -0.02944424 0.42700002 4278669341
0.069658101 -0.029513197 0.42800003 4278669341
0.071048245 -0.029513197 0.42800003 4279325220
0.072607629 -0.029582152 0.42900002 4278201604
0.074173518 -0.029651107 0.43000001 4278795546
0.075570166 -0.029651107 0.43000001 4279519269
0.0771458 -0.029720064 0.43100002 4279256867
0.078727923 -0.029789019 0.43200001 4279454246
0.080131061 -0.029789019 0.43200001 4278402326
0.081722945 -0.029857976 0.43300003 4279322914
0.083129324 -0.029857976 0.43300003 4279783979
0.084730938 -0.029926931 0.43400002 4279652393
0.086140573 -0.029926931 0.43400002 4279585832
0.036792498 -0.026479907 0.40300003 4286224777
0.03819599 -0.026545614 0.40400001 4286093191
0.039605975 -0.026611321 0.40500003 4286356363
0.041123495 -0.026742734 0.40700001 4285765509
0.042549722 -0.026808441 0.40800002 4282937177
0.043874905 -0.026808441 0.40800002 4281230405
0.045200091 -0.026808441 0.40800002 4280310330
0.046639305 -0.026874147 0.40900001 4280115770
0.0522337 -0.02772834 0.42200002 4279263279
0.053858403 -0.027859753 0.42400002 4279000105
0.054975014 -0.02772834 0.42200002 4278671140
0.05647919 -0.027794044 0.42300001 4278671140
0.057853092 -0.027794044 0.42300001 4278736933
0.059226997 -0.027794044 0.42300001 4278473761
0.06074417 -0.027859753 0.42400002 4278407198
0.062121328 -0.027859753 0.42400002 4278669857
0.063498475 -0.027859753 0.42400002 4278800673
0.065028638 -0.02792546 0.42500001 4278537501
0.066565298 -0.027991166 0.42600003 4278602783
0.067948945 -0.027991166 0.42600003 4278202120
0.069495343 -0.028056873 0.42700002 4278203153
0.071048245 -0.028122582 0.42800003 4279586348
0.072607629 -0.028188288 0.42900002 4279586346
0.074173518 -0.028253993 0.43000001 4279455014
0.07574591 -0.028319702 0.43100002 4279520291
0.0771458 -0.028319702 0.43100002 4278202892
0.078727923 -0.028385408 0.43200001 4278795033
0.080316551 -0.028451117 0.43300003 4279453730
0.081722945 -0.028451117 0.43300003 4278202377
0.083321303 -0.028516822 0.43400002 4279258148
0.084730938 -0.028516822 0.43400002 4279652906
0.086140573 -0.028516822 0.43400002 4279452713
0.027149964 -0.024733314 0.39600003 4279196205
0.028436171 -0.024733314 0.39600003 4278801706
0.032376349 -0.024795771 0.39700001 4285702026
0.033750609 -0.024858231 0.39800003 4286425236
0.035131361 -0.024920687 0.39900002 4286687638
0.036609907 -0.025045604 0.40100002 4286292880
0.038101446 -0.02517052 0.40300003 4283989865
0.039508179 -0.025232976 0.40400001 4281819978
0.041022457 -0.025357893 0.40600002 4280705088
0.042445432 -0.025420349 0.40700001 4280509246
0.043767367 -0.025420349 0.40700001 4279524146
0.045089304 -0.025420349 0.40700001 4279590709
0.046525273 -0.025482807 0.40800002 4279263281
0.052109923 -0.02629476 0.42100003 4278736935
0.053731378 -0.026419675 0.42300001 4278342175
0.054714467 -0.026232302 0.42000002 4278210589
0.056078631 -0.026232302 0.42000002 4278472991
0.057579558 -0.02629476 0.42100003 4278538784
0.058946967 -0.02629476 0.42100003 4278734880
0.060457643 -0.026357219 0.42200002 4278734880
0.0618283 -0.026357219 0.42200002 4278602781
0.063348711 -0.026419675 0.42300001 4278666779
0.064875633 -0.026482133 0.42400002 4278200067
0.066409037 -0.026544591 0.42500001 4279520039
0.067948945 -0.02660705 0.42600003 4279717418
0.069495343 -0.026669508 0.42700002 4279126308
0.071048245 -0.026731966 0.42800003 4278200839
0.072607629 -0.026794422 0.42900002 4278994211
0.074173518 -0.026856881 0.43000001 4278201612
0.07574591 -0.026919339 0.43100002 4278729240
0.077324793 -0.026981795 0.43200001 4279058459
0.078910165 -0.027044255 0.43300003 4279321631
0.080316551 -0.027044255 0.43300003 4279716389
0.081911676 -0.027106712 0.43400002 4278862363
0.083321303 -0.027106712 0.43400002 4279257894
0.084730938 -0.027106712 0.43400002 4279586859
0.027149964 -0.02344667 0.39600003 4278800162
0.028436171 -0.02344667 0.39600003 4278867238
0.02972238 -0.02344667 0.39600003 4279459890
0.03100859 -0.02344667 0.39600003 4279262259
0.032376349 -0.023505878 0.39700001 4279391797
0.033750609 -0.023565087 0.39800003 4279523383
0.036518607 -0.023683503 0.40000001 4279654453
0.038006898 -0.023801921 0.40200001 4279720500
0.03941039 -0.023861131 0.40300003 4280115258
0.040820375 -0.023920339 0.40400001 4279130671
0.042236857 -0.023979548 0.40500003 4279131441
0.043659832 -0.024038756 0.40600002 4279000623
0.045089304 -0.024097964 0.40700001 4279132209
0.046411239 -0.024097964 0.40700001 4278802728
0.04785046 -0.024157174 0.40800002 4278473763
0.04929617 -0.024216382 0.40900001 4278736935
0.050872158 -0.024334799 0.41100001 4278604579
0.052334111 -0.024394009 0.41200003 4278407200
0.054323651 -0.024690054 0.41700003 4278604579
0.055811588 -0.024749262 0.41800001 4279261226
0.057306021 -0.024808472 0.41900003 4279194920
0.058806948 -0.02486768 0.42000002 4279258918
0.060171112 -0.02486768 0.42000002 4278201866
0.061681788 -0.02492689 0.42100003 4278862623
0.063198954 -0.024986098 0.42200002 4280112944
0.06472262 -0.025045305 0.42300001 4279915049
0.066252783 -0.025104515 0.42400002 4278862361
0.067789435 -0.025163723 0.42500001 4278204176
0.069332592 -0.025222933 0.42600003 4278796830
0.070882238 -0.025282141 0.42700002 4278665244
0.072607629 -0.025400558 0.42900002 4278334995
0.074173518 -0.025459766 0.43000001 4279321377
0.07574591 -0.025518976 0.43100002 4280176688
0.077324793 -0.025578184 0.43200001 4278663449
0.078910165 -0.025637394 0.43300003 4278199815
0.080316551 -0.025637394 0.43300003 4279584297
0.081911676 -0.025696602 0.43400002 4280242227
0.083321303 -0.025696602 0.43400002 4281161278
0.084926173 -0.025755811 0.43500003 4285765763
0.027149964 -0.022160025 0.39600003 4278731802
0.028436171 -0.022160025 0.39600003 4278931748
0.02972238 -0.022160025 0.39600003 4278276384
0.031086894 -0.022215985 0.39700001 4278473763
0.032376349 -0.022215985 0.39700001 4282353763
0.033665806 -0.022215985 0.39700001 4283799926
0.036518607 -0.022383863 0.40000001 4279656502
0.037912354 -0.022439824 0.40100002 4279263281
0.039312594 -0.022495782 0.40200001 4279329588
0.040719334 -0.022551743 0.40300003 4278869037
0.042132568 -0.022607703 0.40400001 4278408484
0.043552294 -0.022663662 0.40500003 4278605863
0.044978522 -0.022719622 0.40600002 4278539556
0.046411239 -0.022775581 0.40700001 4278604066
0.04773318 -0.022775581 0.40700001 4278866468
0.04929617 -0.0228875 0.40900001 4279195433
0.050748382 -0.022943461 0.41000003 4279129127
0.052334111 -0.02305538 0.41200003 4279194920
0.054063104 -0.023223259 0.41500002 4279523371
0.055544548 -0.023279218 0.41600001 4279124252
0.057169247 -0.023391137 0.41800001 4278199817
0.058526915 -0.023391137 0.41800001 4278790422
0.060027849 -0.023447098 0.41900003 4278791701
0.061535276 -0.023503058 0.42000002 4279849772
0.063049197 -0.023559017 0.42100003 4278202639
0.064569615 -0.023614977 0.42200002 4278793750
0.066096522 -0.023670936 0.42300001 4279913514
0.067789435 -0.023782855 0.42500001 4279190558
0.069332592 -0.023838816 0.42600003 4278335249
0.070882238 -0.023894774 0.42700002 4279717672
0.072607629 -0.024006695 0.42900002 4279322914
0.074173518 -0.024062652 0.43000001 4278200842
0.07574591 -0.024118613 0.43100002 4278333460
0.077324793 -0.024174573 0.43200001 4280833594
0.078910165 -0.024230532 0.43300003 4281030973
0.080316551 -0.024230532 0.43300003 4280635702
0.027218524 -0.02092609 0.39700001 4278928156
0.02850798 -0.02092609 0.39700001 4278600988
0.029797435 -0.02092609 0.39700001 4278404892
0.031086894 -0.02092609 0.39700001 4278998056
0.032376349 -0.02092609 0.39700001 4278867240
0.033665806 -0.02092609 0.39700001 4279327537
0.035043314 -0.020978801 0.39800003 4278802728
0.036427312 -0.021031512 0.39900002 4278803755
0.03781781 -0.021084221 0.40000001 4279264304
0.039214805 -0.021136932 0.40100002 4278211616
0.040618293 -0.021189643 0.40200001 4278408482
0.042028278 -0.021242354 0.40300003 4278736933
0.043444756 -0.021295063 0.40400001 4278801956
0.044867739 -0.021347774 0.40500003 4278933029
0.046297207 -0.021400485 0.40600002 4278205973
0.04773318 -0.021453194 0.40700001 4279060769
0.049175646 -0.021505907 0.40800002 4279850281
0.050748382 -0.021611327 0.41000003 4278665498
0.052334111 -0.021716749 0.41200003 4278198535
0.053932834 -0.021822169 0.41400003 4278725138
0.05541103 -0.02187488 0.41500002 4278986002
0.057032481 -0.021980301 0.41700003 4278920722
0.058526915 -0.022033012 0.41800001 4280170789
0.060027849 -0.022085723 0.41900003 4280765491
0.061535276 -0.022138434 0.42000002 4279451680
0.063049197 -0.022191145 0.42100003 4279119637
0.064569615 -0.022243854 0.42200002 4281094708
0.066096522 -0.022296565 0.42300001 4279648289
0.067629933 -0.022349276 0.42400002 4280702260
0.069332592 -0.022454696 0.42600003 4279781158
0.070882238 -0.022507407 0.42700002 4278399505
0.072607629 -0.022612827 0.42900002 4280242479
0.074173518 -0.022665538 0.43000001 4280637237
0.07574591 -0.022718249 0.43100002 4280637237
0.077324793 -0.02277096 0.43200001 4281491528
0.027218524 -0.019636197 0.39700001 4279190558
0.02850798 -0.019636197 0.39700001 4278862877
0.029797435 -0.019636197 0.39700001 4278863390
0.031086894 -0.019636197 0.39700001 4278798367
0.032376349 -0.019636197 0.39700001 4278800677
0.033665806 -0.019636197 0.39700001 4278735652
0.035043314 -0.01968566 0.39800003 4278209821
0.036427312 -0.01973512 0.39900002 4278473761
0.03781781 -0.019784581 0.40000001 4278934566
0.039214805 -0.019834043 0.40100002 4278210843
0.040618293 -0.019883504 0.40200001 4278670370
0.042028278 -0.019932967 0.40300003 4278933542
0.043444756 -0.019982427 0.40400001 4279063845
0.044867739 -0.020031888 0.40500003 4279720748
0.046297207 -0.020081351 0.40600002 4278203922
0.04773318 -0.020130811 0.40700001 4280112690
0.049175646 -0.020180274 0.40800002 4278201104
0.050748382 -0.020279195 0.41000003 4278987027
0.052207083 -0.020328658 0.41100001 4278854416
0.053802561 -0.020427579 0.41300002 4280170789
0.05541103 -0.020526502 0.41500002 4281355577
0.056895711 -0.020575963 0.41600001 4279644957
0.0583869 -0.020625426 0.41700003 4278198024
0.059884582 -0.020674886 0.41800001 4281424448
0.061388765 -0.020724349 0.41900003 4278594576
0.062899433 -0.020773809 0.42000002 4279975205
0.064569615 -0.020872733 0.42200002 4280767540
0.066096522 -0.020922193 0.42300001 4278201356
0.067629933 -0.020971656 0.42400002 4280175918
0.069169834 -0.021021117 0.42500001 4280834618
0.070882238 -0.02112004 0.42700002 4280310071
0.072607629 -0.021218963 0.42900002 4280375862
0.074173518 -0.021268424 0.43000001 4281424700
0.07574591 -0.021317886 0.43100002 4285897347
0.025994379 -0.018392516 0.39800003 4279909403
0.027218524 -0.018346304 0.39700001 4279124252
0.02850798 -0.018346304 0.39700001 4279059742
0.029797435 -0.018346304 0.39700001 4278863390
0.031086894 -0.018346304 0.39700001 4278995744
0.032376349 -0.018346304 0.39700001 4279194406
0.033750609 -0.018392516 0.39800003 4278865955
0.035043314 -0.018392516 0.39800003 4279458605
0.036427312 -0.018438729 0.39900002 4279195431
0.03781781 -0.018484941 0.40000001 4279063845
0.039214805 -0.018531153 0.40100002 4278998052
0.040618293 -0.018577365 0.40200001 4279260711
0.042028278 -0.018623577 0.40300003 4279326504
0.043444756 -0.01866979 0.40400001 4279326504
0.044867739 -0.018716002 0.40500003 4279852338
0.046297207 -0.018762214 0.40600002 4278201353
0.04773318 -0.018808426 0.40700001 4280308785
0.049175646 -0.018854639 0.40800002 4278790420
0.050748382 -0.018947065 0.41000003 4279380762
0.052207083 -0.018993275 0.41100001 4280566061
0.053802561 -0.019085702 0.41300002 4279710750
0.055277511 -0.019131914 0.41400003 4278592271
0.056895711 -0.019224338 0.41600001 4279908903
0.0583869 -0.01927055 0.41700003 4278198795
0.059884582 -0.019316763 0.41800001 4280438323
0.061388765 -0.019362975 0.41900003 4279254303
0.062899433 -0.019409187 0.42000002 4279121693
0.064416602 -0.019455401 0.42100003 4280307756
0.065940268 -0.019501612 0.42200002 4280506418
0.067629933 -0.019594038 0.42400002 4280507188
0.069169834 -0.019640248 0.42500001 4280571957
0.070716247 -0.019686462 0.42600003 4281492298
0.024701675 -0.017099373 0.39800003 4280696350
0.025994379 -0.017099373 0.39800003 4279975707
0.027287085 -0.017099373 0.39800003 4279452445
0.028579788 -0.017099373 0.39800003 4279124763
0.029872492 -0.017099373 0.39800003 4278863390
0.031165199 -0.017099373 0.39800003 4279061539
0.032457903 -0.017099373 0.39800003 4278997029
0.033750609 -0.017099373 0.39800003 4278734369
0.035043314 -0.017099373 0.39800003 4279194918
0.036427312 -0.017142337 0.39900002 4279326504
0.03781781 -0.017185299 0.40000001 4279129638
0.039214805 -0.017228262 0.40100002 4278406169
0.040618293 -0.017271226 0.40200001 4279326504
0.042028278 -0.01731419 0.40300003 4279392297
0.043444756 -0.017357152 0.40400001 4279457578
0.044867739 -0.017400118 0.40500003 4279389734
0.046297207 -0.01744308 0.40600002 4279914027
0.04773318 -0.017486041 0.40700001 4279518756
0.049175646 -0.017529005 0.40800002 4280238379
0.050748382 -0.017614933 0.41000003 4280764721
0.052207083 -0.017657895 0.41100001 4279973924
0.053802561 -0.017743822 0.41300002 4278460171
0.055277511 -0.017786786 0.41400003 4279117590
0.056895711 -0.017872712 0.41600001 4279117336
0.0583869 -0.017915675 0.41700003 4279845418
0.059884582 -0.017958637 0.41800001 4280110643
0.061388765 -0.018001603 0.41900003 4281163329
0.062899433 -0.018044565 0.42000002 4280638268
0.064416602 -0.018087529 0.42100003 4280178483
0.065940268 -0.018130491 0.42200002 4279652139
0.067470424 -0.018173454 0.42300001 4282937691
0.069007084 -0.018216418 0.42400002 4286489486
0.024763739 -0.015845945 0.39900002 4280105496
0.026059691 -0.015845945 0.39900002 4279713818
0.027355645 -0.015845945 0.39900002 4279190043
0.028579788 -0.015806232 0.39800003 4278928154
0.029872492 -0.015806232 0.39800003 4278929181
0.031165199 -0.015806232 0.39800003 4279193123
0.032457903 -0.015806232 0.39800003 4279260199
0.033750609 -0.015806232 0.39800003 4278865955
0.035131361 -0.015845945 0.39900002 4279260713
0.036518607 -0.015885659 0.40000001 4279327019
0.03781781 -0.015885659 0.40000001 4279195685
0.039214805 -0.015925374 0.40100002 4279392551
0.040618293 -0.015965087 0.40200001 4279655209
0.042028278 -0.016004803 0.40300003 4279457576
0.043444756 -0.016044516 0.40400001 4279457576
0.044867739 -0.016084231 0.40500003 4278204433
0.046297207 -0.016123945 0.40600002 4280836153
0.04773318 -0.016163658 0.40700001 4278201612
0.049175646 -0.016203372 0.40800002 4279119385
0.050748382 -0.016282801 0.41000003 4279052822
0.052207083 -0.016322514 0.41100001 4279116818
0.053672288 -0.016362229 0.41200003 4278985232
0.055277511 -0.016441658 0.41400003 4280369454
0.056758944 -0.016481372 0.41500002 4281162048
0.0583869 -0.0165608 0.41700003 4280178233
0.059884582 -0.016600514 0.41800001 4280244026
0.061242249 -0.016600514 0.41800001 4280375612
0.062899433 -0.016679943 0.42000002 4279849268
0.064416602 -0.016719656 0.42100003 4283135840
0.065940268 -0.016759371 0.42200002 4286818710
0.024825802 -0.014586017 0.40000001 4279975709
0.026125003 -0.014586017 0.40000001 4279386139
0.027355645 -0.014549552 0.39900002 4279058970
0.028651597 -0.014549552 0.39900002 4278993947
0.029947549 -0.014549552 0.39900002 4278797595
0.031243503 -0.014549552 0.39900002 4279193636
0.032539453 -0.014549552 0.39900002 4279194406
0.033835407 -0.014549552 0.39900002 4279392299
0.035131361 -0.014549552 0.39900002 4279392299
0.036518607 -0.014586017 0.40000001 4279523885
0.037912354 -0.014622482 0.40100002 4279326504
0.039312594 -0.014658947 0.40200001 4279457830
0.040719334 -0.014695412 0.40300003 4279523623
0.042132568 -0.014731877 0.40400001 4280115506
0.043552294 -0.014768342 0.40500003 4280377397
0.044867739 -0.014768342 0.40500003 4278201350
0.046297207 -0.014804807 0.40600002 4281361212
0.04773318 -0.014841272 0.40700001 4278397708
0.049175646 -0.014877737 0.40800002 4278788625
0.050624602 -0.014914203 0.40900001 4278920722
0.052207083 -0.014987133 0.41100001 4281489727
0.053672288 -0.015023598 0.41200003 4281030460
0.055143986 -0.015060063 0.41300002 4280243764
0.056758944 -0.015132993 0.41500002 4280441143
0.058246881 -0.015169458 0.41600001 4280704315
0.059741318 -0.015205923 0.41700003 4280110641
0.061242249 -0.015242388 0.41800001 4285239419
0.02358542 -0.013319593 0.40100002 4281483560
0.024887869 -0.013319593 0.40100002 4279648029
0.026125003 -0.013286376 0.40000001 4279517725
0.027424205 -0.013286376 0.40000001 4279058970
0.028723404 -0.013286376 0.40000001 4278533910
0.029947549 -0.013253161 0.39900002 4278995744
0.031243503 -0.013253161 0.39900002 4279127843
0.032539453 -0.013253161 0.39900002 4279194406
0.033835407 -0.013253161 0.39900002 4279392299
0.035219409 -0.013286376 0.40000001 4279260713
0.036518607 -0.013286376 0.40000001 4279392299
0.037912354 -0.013319593 0.40100002 4279457578
0.039312594 -0.013352809 0.40200001 4279588394
0.040719334 -0.013386025 0.40300003 4279917359
0.042132568 -0.01341924 0.40400001 4279851566
0.043552294 -0.013452456 0.40500003 4279914799
0.044978522 -0.013485672 0.40600002 4279451682
0.046297207 -0.013485672 0.40600002 4280900663
0.04773318 -0.013518888 0.40700001 4280570674
0.049175646 -0.013552104 0.40800002 4281228604
0.050624602 -0.01358532 0.40900001 4280308785
0.052080061 -0.013618536 0.41000003 4280441141
0.053672288 -0.013684968 0.41200003 4280177969
0.055143986 -0.013718184 0.41300002 4280439606
0.056758944 -0.013784616 0.41500002 4282477908
0.023644235 -0.01204667 0.40200001 4280564001
0.024887869 -0.012016703 0.40100002 4279649313
0.026190316 -0.012016703 0.40100002 4279320861
0.027492767 -0.012016703 0.40100002 4278993947
0.028723404 -0.011986735 0.40000001 4278994461
0.030022604 -0.011986735 0.40000001 4279127841
0.031321805 -0.011986735 0.40000001 4279325220
0.032621007 -0.011986735 0.40000001 4278800162
0.03392021 -0.011986735 0.40000001 4279392299
0.035219409 -0.011986735 0.40000001 4279392299
0.036609907 -0.012016703 0.40100002 4279326506
0.038006898 -0.01204667 0.40200001 4279654957
0.039312594 -0.01204667 0.40200001 4279785773
0.040719334 -0.012076637 0.40300003 4279785773
0.042132568 -0.012106603 0.40400001 4279785773
0.043552294 -0.01213657 0.40500003 4279717420
0.044978522 -0.012166537 0.40600002 4279650857
0.046297207 -0.012166537 0.40600002 4280375348
0.04773318 -0.012196504 0.40700001 4280310069
0.049175646 -0.012226471 0.40800002 4280244789
0.050500829 -0.012226471 0.40800002 4280178996
0.052080061 -0.012286405 0.41000003 4281228356
0.023644235 -0.010740531 0.40200001 4280368932
0.024949932 -0.010740531 0.40200001 4279452193
0.026255628 -0.010740531 0.40200001 4279321631
0.027492767 -0.010713813 0.40100002 4278993949
0.028795214 -0.010713813 0.40100002 4278797593
0.030097662 -0.010713813 0.40100002 4279062302
0.031321805 -0.010687095 0.40000001 4279457060
0.032621007 -0.010687095 0.40000001 4279391785
0.03392021 -0.010687095 0.40000001 4279392299
0.035307456 -0.010713813 0.40100002 4279524396
0.036609907 -0.010713813 0.40100002 4279327017
0.038006898 -0.010740531 0.40200001 4279589676
0.03941039 -0.010767248 0.40300003 4279786541
0.040719334 -0.010767248 0.40300003 4279917357
0.042132568 -0.010793966 0.40400001 4279917359
0.043552294 -0.010820684 0.40500003 4279388969
0.044978522 -0.010847402 0.40600002 4280769854
0.046297207 -0.010847402 0.40600002 4280638268
0.04773318 -0.01087412 0.40700001 4279980338
0.049055114 -0.01087412 0.40700001 4282544216
0.050500829 -0.010900837 0.40800002 4286819994
0.021085162 -0.0094578601 0.40300003 4280366885
0.022394108 -0.0094578601 0.40300003 4280500004
0.023644235 -0.0094343908 0.40200001 4279844641
0.024949932 -0.0094343908 0.40200001 4279321377
0.026255628 -0.0094343908 0.40200001 4279255838
0.027561326 -0.0094343908 0.40200001 4278796568
0.028795214 -0.0094109224 0.40100002 4279323426
0.030097662 -0.0094109224 0.40100002 4279258916
0.031400111 -0.0094109224 0.40100002 4279522088
0.032702558 -0.0094109224 0.40100002 4279457578
0.034005009 -0.0094109224 0.40100002 4279523883
0.035307456 -0.0094109224 0.40100002 4279261224
0.036609907 -0.0094109224 0.40100002 4279327017
0.038006898 -0.0094343908 0.40200001 4279721262
0.03941039 -0.0094578601 0.40300003 4279720748
0.040719334 -0.0094578601 0.40300003 4279983150
0.042132568 -0.0094813285 0.40400001 4279983150
0.043552294 -0.0095047979 0.40500003 4279454762
0.044867739 -0.0095047979 0.40500003 4281360712
0.046297207 -0.0095282663 0.40600002 4286226314
0.022394108 -0.0081484718 0.40300003 4284053862
0.023703052 -0.0081484718 0.40300003 4279383070
0.024949932 -0.0081282528 0.40200001 4279452195
0.026255628 -0.0081282528 0.40200001 4279124511
0.027561326 -0.0081282528 0.40200001 4279125533
0.028795214 -0.0081080329 0.40100002 4279587111
0.030097662 -0.0081080329 0.40100002 4279718695
0.031400111 -0.0081080329 0.40100002 4279522086
0.032702558 -0.0081080329 0.40100002 4279654957
0.034005009 -0.0081080329 0.40100002 4279654957
0.035307456 -0.0081080329 0.40100002 4279720748
0.036701199 -0.0081282528 0.40200001 4279787055
0.038006898 -0.0081282528 0.40200001 4279852334
0.03941039 -0.0081484718 0.40300003 4279786543
0.040719334 -0.0081484718 0.40300003 4280374580
0.042132568 -0.0081686918 0.40400001 4284187754
0.024949932 -0.0068221129 0.40200001 4282409037
0.026255628 -0.0068221129 0.40200001 4279120668
0.027561326 -0.0068221129 0.40200001 4279256097
0.028867021 -0.0068221129 0.40200001 4279586086
0.030097662 -0.0068051429 0.40100002 4279587111
0.031400111 -0.0068051429 0.40100002 4280047662
0.032702558 -0.0068051429 0.40100002 4279654187
0.034005009 -0.0068051429 0.40100002 4279654957
0.035307456 -0.0068051429 0.40100002 4279983922
0.036701199 -0.0068221129 0.40200001 4279982641
0.038006898 -0.0068221129 0.40200001 4281228354
0.028795214 -0.0055022528 0.40100002 4281225272
0.030097662 -0.0055022528 0.40100002 4280109358
0.031400111 -0.0055022528 0.40100002 4280110895
0.032702558 -0.0055022528 0.40100002 4279848236
0.034005009 -0.0055022528 0.40100002 4280965954
0.05276268 -0.021575879 0.41416061 4294967295
0.05276268 -0.021575879 0.41416061 4294901760
0.05261388 -0.022052091 0.41412774 4294901760
0.052465077 -0.022528302 0.41409484 4294901760
0.052316278 -0.023004513 0.41406196 4294901760
0.052167479 -0.023480725 0.41402909 4294901760
0.052018676 -0.023956936 0.41399622 4294901760
0.051869877 -0.024433147 0.41396332 4294901760
0.051721077 -0.024909358 0.41393045 4294901760
0.051572274 -0.02538557 0.41389757 4294901760
0.051423475 -0.025861781 0.41386467 4294901760
0.051274676 -0.026337992 0.4138318 4294901760
0.051125873 -0.026814204 0.41379893 4294901760
0.050977074 -0.027290415 0.41376603 4294901760
0.050828274 -0.027766626 0.41373315 4294901760
0.050679471 -0.028242838 0.41370028 4294901760
0.050530672 -0.028719049 0.41366738 4294901760
0.050381873 -0.02919526 0.41363451 4294901760
0.05023307 -0.029671472 0.41360164 4294901760
0.050084271 -0.030147683 0.41356876 4294901760
0.049935471 -0.030623894 0.41353586 4294901760
0.049786668 -0.031100105 0.41350299 4294901760
0.049637869 -0.031576317 0.41347012 4294901760
0.049489066 -0.032052528 0.41343722 4294901760
0.049340267 -0.032528739 0.41340435 4294901760
0.049191467 -0.033004951 0.41337147 4294901760
0.049042664 -0.033481162 0.4133386 4294901760
0.048893865 -0.033957373 0.4133057 4294901760
0.048745066 -0.034433588 0.41327283 4294901760
0.048596263 -0.034909796 0.41323996 4294901760
0.048447464 -0.035386007 0.41320705 4294901760
0.048298664 -0.035862222 0.41317418 4294901760
0.048149861 -0.03633843 0.41314131 4294901760
0.048001062 -0.036814641 0.41310841 4294901760
0.047852263 -0.037290856 0.41307554 4294901760
0.04770346 -0.037767068 0.41304266 4294901760
0.047554661 -0.038243279 0.41300976 4294901760
0.047405861 -0.03871949 0.41297689 4294901760
0.047257058 -0.039195701 0.41294402 4294901760
0.047108259 -0.039671913 0.41291115 4294901760
0.04695946 -0.04014812 0.41287825 4294901760
0.046810657 -0.040624335 0.41284537 4294901760
0.046661858 -0.041100547 0.4128125 4294901760
0.046513058 -0.041576758 0.4127796 4294901760
0.046364255 -0.042052969 0.41274673 4294901760
0.046215456 -0.042529181 0.41271386 4294901760
0.046066657 -0.043005392 0.41268098 4294901760
0.045917854 -0.043481603 0.41264808 4294901760
0.045769054 -0.043957815 0.41261521 4294901760
0.045620255 -0.044434026 0.41258234 4294901760
0.045471452 -0.044910237 0.41254944 4294901760
0.045322653 -0.045386449 0.41251656 4294901760
0.045173854 -0.04586266 0.41248369 4294901760
0.045025051 -0.046338871 0.41245079 4294901760
0.044876251 -0.046815079 0.41241792 4294901760
0.044727452 -0.047291294 0.41238505 4294901760
0.044578649 -0.047767505 0.41235214 4294901760
0.04442985 -0.048243716 0.41231927 4294901760
0.044281051 -0.048719928 0.4122864 4294901760
0.044132248 -0.049196139 0.41225353 4294901760
0.043983448 -0.04967235 0.41222063 4294901760
0.043834649 -0.050148562 0.41218776 4294901760
0.043685846 -0.050624773 0.41215488 4294901760
0.043537047 -0.051100984 0.41212198 4294901760
0.043388247 -0.051577196 0.41208911 4294901760
0.043239444 -0.052053407 0.41205624 4294901760
0.043090645 -0.052529618 0.41202337 4294901760
0.042941846 -0.053005829 0.41199046 4294901760
0.042793043 -0.053482041 0.41195759 4294901760
0.042644244 -0.053958252 0.41192472 4294901760
0.042495444 -0.054434463 0.41189182 4294901760
0.042346641 -0.054910675 0.41185895 4294901760
0.042197842 -0.055386882 0.41182607 4294901760
0.042049043 -0.055863097 0.41179317 4294901760
0.04190024 -0.056339309 0.4117603 4294901760
0.041751441 -0.05681552 0.41172743 4294901760
0.041602641 -0.057291731 0.41169453 4294901760
0.041453838 -0.057767943 0.41166165 4294901760
0.041305039 -0.058244154 0.41162878 4294901760
0.04115624 -0.058720361 0.41159591 4294901760
0.041007437 -0.059196576 0.41156301 4294901760
0.040858638 -0.059672788 0.41153014 4294901760
0.040709838 -0.060148999 0.41149727 4294901760
0.040561035 -0.06062521 0.41146436 4294901760
0.040412236 -0.061101422 0.41143149 4294901760
0.040263437 -0.061577633 0.41139862 4294901760
0.040114634 -0.062053844 0.41136575 4294901760
0.039965834 -0.062530056 0.41133285 4294901760
0.039817035 -0.063006267 0.41129997 4294901760
0.039668232 -0.063482478 0.4112671 4294901760
0.039519433 -0.06395869 0.4112342 4294901760
0.039370634 -0.064434901 0.41120133 4294901760
0.039221831 -0.064911112 0.41116846 4294901760
0.039073031 -0.065387323 0.41113555 4294901760
0.038924228 -0.065863535 0.41110268 4294901760
0.038775429 -0.066339746 0.41106981 4294901760
0.03862663 -0.066815957 0.41103691 4294901760
0.038477831 -0.067292169 0.41100404 4294901760
0.038329028 -0.06776838 0.41097116 4294901760
0.038180225 -0.068244591 0.41093829 4294901760
0.038031425 -0.068720803 0.41090539 4294901760
0.037882626 -0.069197014 0.41087252 4294901760
0.05276268 -0.021575879 0.41416061 4278255360
0.053153399 -0.021717172 0.41443878 4278255360
0.053544119 -0.021858467 0.41471693 4278255360
0.053934839 -0.02199976 0.4149951 4278255360
0.054325558 -0.022141052 0.41527325 4278255360
0.054716278 -0.022282347 0.41555142 4278255360
0.055106997 -0.02242364 0.4158296 4278255360
0.055497717 -0.022564933 0.41610774 4278255360
0.055888437 -0.022706227 0.41638592 4278255360
0.056279156 -0.02284752 0.41666406 4278255360
0.056669876 -0.022988813 0.41694224 4278255360
0.057060592 -0.023130108 0.41722038 4278255360
0.057451315 -0.0232714 0.41749856 4278255360
0.057842031 -0.023412693 0.41777673 4278255360
0.058232754 -0.023553988 0.41805488 4278255360
0.05862347 -0.023695281 0.41833305 4278255360
0.05901419 -0.023836574 0.4186112 4278255360
0.05940491 -0.023977868 0.41888937 4278255360
0.059795629 -0.024119161 0.41916755 4278255360
0.060186349 -0.024260454 0.41944569 4278255360
0.060577068 -0.024401749 0.41972387 4278255360
0.060967788 -0.024543041 0.42000201 4278255360
0.061358508 -0.024684336 0.42028019 4278255360
0.061749227 -0.024825629 0.42055836 4278255360
0.062139947 -0.024966922 0.42083651 4278255360
0.062530667 -0.025108214 0.42111468 4278255360
0.062921382 -0.025249509 0.42139283 4278255360
0.063312106 -0.025390802 0.421671 4278255360
0.063702822 -0.025532097 0.42194918 4278255360
0.064093545 -0.025673389 0.42222732 4278255360
0.064484268 -0.025814682 0.4225055 4278255360
0.064874984 -0.025955975 0.42278364 4278255360
0.0652657 -0.02609727 0.42306182 4278255360
0.065656424 -0.026238563 0.42333996 4278255360
0.066047139 -0.026379857 0.42361814 4278255360
0.066437863 -0.02652115 0.42389631 4278255360
0.066828579 -0.026662443 0.42417446 4278255360
0.067219302 -0.026803736 0.42445263 4278255360
0.067610018 -0.02694503 0.42473078 4278255360
0.068000741 -0.027086323 0.42500895 4278255360
0.068391457 -0.027227618 0.42528713 4278255360
0.068782181 -0.027368911 0.42556527 4278255360
0.069172896 -0.027510203 0.42584345 4278255360
0.06956362 -0.027651498 0.42612159 4278255360
0.069954336 -0.027792791 0.42639977 4278255360
0.070345059 -0.027934084 0.42667794 4278255360
0.070735775 -0.028075378 0.42695609 4278255360
0.071126491 -0.028216671 0.42723426 4278255360
0.071517214 -0.028357964 0.42751241 4278255360
0.071907938 -0.028499259 0.42779058 4278255360
0.072298653 -0.028640551 0.42806876 4278255360
0.072689369 -0.028781844 0.4283469 4278255360
0.073080093 -0.028923139 0.42862508 4278255360
0.073470809 -0.029064432 0.42890322 4278255360
0.073861532 -0.029205725 0.4291814 4278255360
0.074252248 -0.029347019 0.42945954 4278255360
0.074642971 -0.029488312 0.42973772 4278255360
0.075033687 -0.029629607 0.43001589 4278255360
0.07542441 -0.0297709 0.43029404 4278255360
0.075815126 -0.029912192 0.43057221 4278255360
0.07620585 -0.030053485 0.43085036 4278255360
0.076596566 -0.03019478 0.43112853 4278255360
0.076987289 -0.030336073 0.43140671 4278255360
0.077378005 -0.030477367 0.43168485 4278255360
0.077768728 -0.03061866 0.43196303 4278255360
0.078159444 -0.030759953 0.43224117 4278255360
0.078550167 -0.030901246 0.43251935 4278255360
0.078940883 -0.03104254 0.43279752 4278255360
0.079331607 -0.031183833 0.43307567 4278255360
0.079722323 -0.031325128 0.43335384 4278255360
0.080113038 -0.031466421 0.43363199 4278255360
0.080503762 -0.031607714 0.43391016 4278255360
0.080894485 -0.031749006 0.43418831 4278255360
0.081285201 -0.031890303 0.43446648 4278255360
0.081675917 -0.032031596 0.43474466 4278255360
0.08206664 -0.032172889 0.4350228 4278255360
0.082457364 -0.032314181 0.43530098 4278255360
0.08284808 -0.032455474 0.43557912 4278255360
0.083238795 -0.032596767 0.4358573 4278255360
0.083629519 -0.03273806 0.43613547 4278255360
0.084020242 -0.032879356 0.43641362 4278255360
0.084410958 -0.033020649 0.43669179 4278255360
0.084801674 -0.033161942 0.43696994 4278255360
0.085192397 -0.033303235 0.43724811 4278255360
0.085583113 -0.033444528 0.43752629 4278255360
0.085973836 -0.033585824 0.43780443 4278255360
0.086364552 -0.033727117 0.43808261 4278255360
0.086755276 -0.03386841 0.43836075 4278255360
0.087145992 -0.034009703 0.43863893 4278255360
0.087536708 -0.034150995 0.4389171 4278255360
0.087927431 -0.034292288 0.43919525 4278255360
0.088318154 -0.034433581 0.43947342 4278255360
0.08870887 -0.034574877 0.43975157 4278255360
0.089099586 -0.03471617 0.44002974 4278255360
0.089490309 -0.034857463 0.44030789 4278255360
0.089881033 -0.034998756 0.44058606 4278255360
0.090271749 -0.035140049 0.44086424 4278255360
0.090662464 -0.035281345 0.44114238 4278255360
0.091053188 -0.035422638 0.44142056 4278255360
0.091443911 -0.035563931 0.4416987 4278255360
0.091834627 -0.035705224 0.44197688 4278255360
0.05276268 -0.021575879 0.41416061 4278190335
0.052454747 -0.021506434 0.41454837 4278190335
0.052146811 -0.021436987 0.41493613 4278190335
0.051838879 -0.021367542 0.41532388 4278190335
0.051530946 -0.021298096 0.41571164 4278190335
0.051223014 -0.021228651 0.4160994 4278190335
0.050915077 -0.021159204 0.41648713 4278190335
0.050607145 -0.021089759 0.41687489 4278190335
0.050299212 -0.021020312 0.41726264 4278190335
0.049991276 -0.020950867 0.4176504 4278190335
0.049683344 -0.020881422 0.41803816 4278190335
0.049375411 -0.020811975 0.41842592 4278190335
0.049067479 -0.02074253 0.41881368 4278190335
0.048759542 -0.020673083 0.41920143 4278190335
0.04845161 -0.020603638 0.41958919 4278190335
0.048143677 -0.020534191 0.41997695 4278190335
0.047835745 -0.020464746 0.42036471 4278190335
0.047527809 -0.020395301 0.42075244 4278190335
0.047219876 -0.020325854 0.42114019 4278190335
0.046911944 -0.020256409 0.42152795 4278190335
0.046604007 -0.020186963 0.42191571 4278190335
0.046296075 -0.020117518 0.42230347 4278190335
0.045988142 -0.020048071 0.42269123 4278190335
0.04568021 -0.019978626 0.42307898 4278190335
0.045372274 -0.019909179 0.42346674 4278190335
0.045064341 -0.019839734 0.4238545 4278190335
0.044756409 -0.019770289 0.42424226 4278190335
0.044448473 -0.019700842 0.42463002 4278190335
0.04414054 -0.019631397 0.42501774 4278190335
0.043832608 -0.01956195 0.4254055 4278190335
0.043524675 -0.019492505 0.42579326 4278190335
0.043216739 -0.019423058 0.42618102 4278190335
0.042908806 -0.019353613 0.42656878 4278190335
0.042600874 -0.019284166 0.42695653 4278190335
0.042292938 -0.019214721 0.42734429 4278190335
0.041985005 -0.019145276 0.42773205 4278190335
0.041677073 -0.01907583 0.42811981 4278190335
0.04136914 -0.019006385 0.42850757 4278190335
0.041061208 -0.018936938 0.42889532 4278190335
0.040753271 -0.018867493 0.42928305 4278190335
0.040445339 -0.018798046 0.42967081 4278190335
0.040137403 -0.018728601 0.43005857 4278190335
0.03982947 -0.018659156 0.43044633 4278190335
0.039521538 -0.018589709 0.43083408 4278190335
0.039213605 -0.018520264 0.43122184 4278190335
0.038905673 -0.018450817 0.4316096 4278190335
0.038597737 -0.018381372 0.43199736 4278190335
0.038289804 -0.018311925 0.43238512 4278190335
0.037981872 -0.01824248 0.43277287 4278190335
0.037673935 -0.018173033 0.43316063 4278190335
0.037366003 -0.018103588 0.43354839 4278190335
0.03705807 -0.018034143 0.43393612 4278190335
0.036750138 -0.017964697 0.43432388 4278190335
0.036442205 -0.017895252 0.43471164 4278190335
0.036134265 -0.017825805 0.43509939 4278190335
0.035826333 -0.01775636 0.43548715 4278190335
0.0355184 -0.017686913 0.43587491 4278190335
0.035210468 -0.017617468 0.43626267 4278190335
0.034902535 -0.017548021 0.43665043 4278190335
0.034594603 -0.017478576 0.43703818 4278190335
0.034286667 -0.017409131 0.43742594 4278190335
0.033978734 -0.017339684 0.4378137 4278190335
0.033670798 -0.017270239 0.43820143 4278190335
0.033362865 -0.017200792 0.43858919 4278190335
0.033054933 -0.017131347 0.43897694 4278190335
0.032747 -0.0170619 0.4393647 4278190335
0.032439068 -0.016992455 0.43975246 4278190335
0.032131132 -0.01692301 0.44014022 4278190335
0.031823199 -0.016853563 0.44052798 4278190335
0.031515263 -0.016784118 0.44091573 4278190335
0.031207332 -0.016714672 0.44130349 4278190335
0.0308994 -0.016645227 0.44169125 4278190335
0.030591464 -0.01657578 0.44207901 4278190335
0.030283531 -0.016506335 0.44246674 4278190335
0.029975597 -0.01643689 0.44285449 4278190335
0.029667664 -0.016367443 0.44324225 4278190335
0.029359732 -0.016297996 0.44363001 4278190335
0.029051797 -0.016228551 0.44401777 4278190335
0.028743865 -0.016159106 0.44440553 4278190335
0.028435929 -0.016089659 0.44479328 4278190335
0.028127996 -0.016020214 0.44518104 4278190335
0.027820064 -0.015950767 0.4455688 4278190335
0.027512129 -0.015881322 0.44595656 4278190335
0.027204197 -0.015811875 0.44634432 4278190335
0.026896263 -0.01574243 0.44673204 4278190335
0.026588328 -0.015672985 0.4471198 4278190335
0.026280396 -0.015603539 0.44750756 4278190335
0.025972461 -0.015534094 0.44789532 4278190335
0.025664529 -0.015464647 0.44828308 4278190335
0.025356594 -0.015395202 0.44867083 4278190335
0.025048662 -0.015325756 0.44905859 4278190335
0.024740728 -0.01525631 0.44944635 4278190335
0.024432793 -0.015186864 0.44983411 4278190335
0.024124861 -0.015117418 0.45022187 4278190335
0.023816926 -0.015047973 0.45060962 4278190335
0.023508994 -0.014978526 0.45099735 4278190335
0.023201061 -0.014909081 0.45138511 4278190335
0.022893125 -0.014839634 0.45177287 4278190335
0.022585193 -0.014770189 0.45216063 4278190335
0.022277258 -0.014700743 0.45254838 4278190335
0.021969326 -0.014631297 0.45293614 4278190335
0.05276268 -0.021575879 0.41416061 4294967295
0.054610282 -0.021992555 0.41183409 4294967295
0.056457881 -0.022409229 0.40950754 4294967295
0.058305483 -0.022825904 0.40718102 4294967295
0.060153086 -0.023242578 0.40485448 4294967295
0.062000684 -0.023659253 0.40252796 4294967295
0.063848287 -0.024075929 0.40020141 4294967295
0.065695889 -0.024492603 0.39787489 4294967295
0.067543492 -0.024909278 0.39554834 4294967295
0.069391094 -0.025325954 0.39322183 4294967295
0.071238697 -0.025742628 0.39089528 4294967295
0.073086292 -0.026159303 0.38856876 4294967295
0.074933894 -0.026575979 0.38624221 4294967295
0.076781496 -0.026992653 0.38391569 4294967295
0.078629099 -0.027409328 0.38158914 4294967295
0.080476701 -0.027826004 0.37926263 4294967295
0.082324296 -0.028242677 0.37693608 4294967295
0.084171906 -0.028659351 0.37460956 4294967295
0.086019501 -0.029076027 0.37228304 4294967295
0.087867104 -0.029492702 0.36995649 4294967295
0.089714706 -0.029909376 0.36762998 4294967295
0.091562301 -0.030326052 0.36530343 4294967295
0.093409911 -0.030742727 0.36297691 4294967295
0.095257506 -0.031159401 0.36065036 4294967295
0.097105108 -0.031576075 0.35832384 4294967295
0.098952711 -0.031992752 0.35599729 4294967295
0.10080031 -0.032409426 0.35367078 4294967295
0.10264792 -0.032826103 0.35134423 4294967295
0.10449551 -0.033242777 0.34901771 4294967295
0.10634311 -0.033659451 0.34669119 4294967295
0.10819072 -0.034076124 0.34436464 4294967295
0.11003832 -0.034492802 0.34203809 4294967295
0.11188592 -0.034909476 0.33971158 4294967295
0.11373352 -0.035326153 0.33738506 4294967295
0.11558113 -0.035742827 0.33505851 4294967295
0.11742872 -0.0361595 0.33273196 4294967295
0.11927633 -0.036576174 0.33040544 4294967295
0.12112392 -0.036992848 0.32807893 4294967295
0.12297153 -0.037409522 0.32575238 4294967295
0.12481912 -0.037826199 0.32342586 4294967295
0.12666672 -0.038242877 0.32109931 4294967295
0.12851432 -0.03865955 0.31877279 4294967295
0.13036193 -0.039076224 0.31644624 4294967295
0.13220954 -0.039492898 0.31411973 4294967295
0.13405713 -0.039909571 0.31179318 4294967295
0.13590473 -0.040326249 0.30946666 4294967295
0.13775234 -0.040742926 0.30714011 4294967295
0.13959993 -0.0411596 0.30481359 4294967295
0.14144754 -0.041576274 0.30248708 4294967295
0.14329514 -0.041992947 0.30016053 4294967295
0.14514273 -0.042409621 0.29783398 4294967295
0.14699034 -0.042826295 0.29550746 4294967295
0.14883794 -0.043242972 0.29318094 4294967295
0.15068555 -0.043659646 0.29085439 4294967295
0.15253314 -0.044076324 0.28852785 4294967295
0.15438074 -0.044492997 0.28620133 4294967295
0.15622835 -0.044909671 0.28387481 4294967295
0.15807596 -0.045326345 0.28154826 4294967295
0.15992355 -0.045743022 0.27922174 4294967295
0.16177115 -0.046159696 0.27689523 4294967295
0.16361876 -0.046576373 0.27456868 4294967295
0.16546637 -0.046993047 0.27224213 4294967295
0.16731396 -0.047409721 0.26991561 4294967295
0.16916156 -0.047826394 0.26758909 4294967295
0.17100915 -0.048243068 0.26526254 4294967295
0.17285675 -0.048659746 0.262936 4294967295
0.17470437 -0.049076423 0.26060948 4294967295
0.17655197 -0.049493097 0.25828296 4294967295
0.17839956 -0.04990977 0.25595641 4294967295
0.18024716 -0.050326444 0.25362986 4294967295
0.18209475 -0.050743118 0.25130334 4294967295
0.18394238 -0.051159795 0.24897683 4294967295
0.18578997 -0.051576473 0.24665028 4294967295
0.18763757 -0.051993147 0.24432375 4294967295
0.18948516 -0.05240982 0.24199721 4294967295
0.19133279 -0.052826494 0.23967069 4294967295
0.19318038 -0.053243168 0.23734416 4294967295
0.19502798 -0.053659845 0.23501763 4294967295
0.19687557 -0.054076519 0.23269109 4294967295
0.19872317 -0.054493196 0.23036455 4294967295
0.20057079 -0.05490987 0.22803803 4294967295
0.20241839 -0.055326544 0.22571149 4294967295
0.20426598 -0.055743217 0.22338496 4294967295
0.20611358 -0.056159895 0.22105843 4294967295
0.20796117 -0.056576569 0.2187319 4294967295
0.2098088 -0.056993246 0.21640536 4294967295
0.21165639 -0.05740992 0.21407883 4294967295
0.21350399 -0.057826594 0.2117523 4294967295
0.21535158 -0.058243267 0.20942576 4294967295
0.21719918 -0.058659941 0.20709924 4294967295
0.2190468 -0.059076618 0.20477271 4294967295
0.2208944 -0.059493296 0.20244616 4294967295
0.22274199 -0.05990997 0.20011963 4294967295
0.22458959 -0.060326643 0.1977931 4294967295
0.22643718 -0.060743317 0.19546658 4294967295
0.22828481 -0.061159991 0.19314004 4294967295
0.2301324 -0.061576668 0.19081351 4294967295
0.23198 -0.061993342 0.18848696 4294967295
0.23382759 -0.062410019 0.18616045 4294967295
0.23567522 -0.062826693 0.18383391 4294967295
0.23752281 -0.063243367 0.18150738 4294967295
