# .PCD v0.7 - Point Cloud Data file format
VERSION 0.7
FIELDS x y z rgb
SIZE 4 4 4 4
TYPE F F F U
COUNT 1 1 1 1
WIDTH 1056
HEIGHT 1
VIEWPOINT 0 0 0 1 0 0 0
POINTS 1056
DATA ascii
0.047653969 0.019735375 0.38500002 4278533398
0.048904449 0.019735375 0.38500002 4278468117
0.050154928 0.019735375 0.38500002 4278336531
0.051405411 0.019735375 0.38500002 4278336529
0.052655887 0.019735375 0.38500002 4278797080
0.05390637 0.019735375 0.38500002 4278468115
0.055156853 0.019735375 0.38500002 4278204172
0.056407336 0.019735375 0.38500002 4278402322
0.057508048 0.019684114 0.384 4278468115
0.058755282 0.019684114 0.384 4278468628
0.059846263 0.019632854 0.38300002 4278468628
0.061090246 0.019632854 0.38300002 4278468628
0.062334232 0.019632854 0.38300002 4278600214
0.063578218 0.019632854 0.38300002 4278600214
0.064822197 0.019632854 0.38300002 4278600214
0.066066183 0.019632854 0.38300002 4278468630
0.067310169 0.019632854 0.38300002 4278666009
0.068554156 0.019632854 0.38300002 4278600214
0.081205472 0.019684114 0.384 4278600216
0.0824527 0.019684114 0.384 4278666009
0.083699934 0.019684114 0.384 4278402837
0.084725954 0.019632854 0.38300002 4279060765
0.08596994 0.019632854 0.38300002 4278731287
0.087213926 0.019632854 0.38300002 4278731287
0.088457912 0.019632854 0.38300002 4278797080
0.089467689 0.019581594 0.38200003 4278862873
0.090708427 0.019581594 0.38200003 4278797082
0.091949165 0.019581594 0.38200003 4278928668
0.093189895 0.019581594 0.38200003 4278994459
0.094430633 0.019581594 0.38200003 4278928666
0.095420912 0.019530332 0.38100001 4278928666
0.096658401 0.019530332 0.38100001 4279126045
0.097895898 0.019530332 0.38100001 4278928666
0.099133387 0.019530332 0.38100001 4278928666
0.099843994 0.019427812 0.37900001 4278928666
0.10338573 0.019632854 0.38300002 4279059738
0.033411406 0.021476869 0.39400002 4280034588
0.034691118 0.021476869 0.39400002 4279508244
0.035970829 0.021476869 0.39400002 4279836950
0.037155997 0.021422358 0.39300001 4279836950
0.038334671 0.021367848 0.39200002 4279574291
0.039506849 0.021313339 0.39100003 4279311889
0.040672526 0.021258829 0.39000002 4279575572
0.041831709 0.021204319 0.38900003 4278921234
0.0429844 0.021149809 0.38800001 4278791185
0.04413059 0.0210953 0.38700002 4278727441
0.045270287 0.02104079 0.38600001 4278728211
0.046403486 0.020986279 0.38500002 4278926103
0.047653969 0.020986279 0.38500002 4278598421
0.04877742 0.020931769 0.384 4278401812
0.050024655 0.020931769 0.384 4278204176
0.051405411 0.020986279 0.38500002 4278204431
0.052655887 0.020986279 0.38500002 4278336017
0.05390637 0.020986279 0.38500002 4278336017
0.055156853 0.020986279 0.38500002 4278336017
0.05626082 0.020931769 0.384 4278204431
0.057508048 0.020931769 0.384 4278401810
0.058755282 0.020931769 0.384 4278467601
0.059846263 0.020877261 0.38300002 4278204429
0.061090246 0.020877261 0.38300002 4278203658
0.062334232 0.020877261 0.38300002 4278204429
0.063578218 0.020877261 0.38300002 4278401808
0.064822197 0.020877261 0.38300002 4278204429
0.066066183 0.020877261 0.38300002 4278401810
0.067310169 0.020877261 0.38300002 4278204174
0.068733148 0.020931769 0.384 4278401810
0.08141695 0.020986279 0.38500002 4278401808
0.082667425 0.020986279 0.38500002 4278467601
0.083917908 0.020986279 0.38500002 4278336015
0.084947169 0.020931769 0.384 4278401808
0.086194396 0.020931769 0.384 4278204429
0.087441631 0.020931769 0.384 4278336015
0.088688865 0.020931769 0.384 4278336015
0.0899361 0.020931769 0.384 4278336015
0.090945877 0.020877261 0.38300002 4278336017
0.092189863 0.020877261 0.38300002 4278401810
0.093433842 0.020877261 0.38300002 4278336531
0.094677828 0.020877261 0.38300002 4278336531
0.095921814 0.020877261 0.38300002 4278401808
0.097165801 0.020877261 0.38300002 4278599187
0.098409787 0.020877261 0.38300002 4278599187
0.099653773 0.020877261 0.38300002 4278796566
0.10010744 0.020713732 0.38000003 4278533908
0.10392561 0.020986279 0.38500002 4278797334
0.10544926 0.02104079 0.38600001 4278862873
0.10670298 0.02104079 0.38600001 4278928152
0.1082364 0.0210953 0.38700002 4279059738
0.1097763 0.021149809 0.38800001 4279059740
0.033411406 0.022757014 0.39400002 4279837463
0.034691118 0.022757014 0.39400002 4279902741
0.035970829 0.022757014 0.39400002 4280100120
0.037155997 0.022699254 0.39300001 4279968534
0.038334671 0.022641497 0.39200002 4279969047
0.039506849 0.022583738 0.39100003 4279772438
0.040672526 0.022525977 0.39000002 4279641365
0.041831709 0.02246822 0.38900003 4279184146
0.042873617 0.022352701 0.38700002 4279053842
0.044016559 0.022294942 0.38600001 4278727441
0.045270287 0.022294942 0.38600001 4278596625
0.046403486 0.022237184 0.38500002 4278597908
0.047653969 0.022237184 0.38500002 4278532115
0.04877742 0.022179425 0.384 4278466835
0.050024655 0.022179425 0.384 4278466835
0.051271889 0.022179425 0.384 4278532628
0.052655887 0.022237184 0.38500002 4278401810
0.05390637 0.022237184 0.38500002 4278204174
0.055013586 0.022179425 0.384 4278335247
0.05626082 0.022179425 0.384 4278335247
0.057508048 0.022179425 0.384 4278466833
0.058755282 0.022179425 0.384 4278532626
0.059846263 0.022121666 0.38300002 4278203661
0.061090246 0.022121666 0.38300002 4278200072
0.062334232 0.022121666 0.38300002 4278197764
0.063578218 0.022121666 0.38300002 4278399759
0.064822197 0.022121666 0.38300002 4278334736
0.066238679 0.022179425 0.384 4278268941
0.067485914 0.022179425 0.384 4278334734
0.068733148 0.022179425 0.384 4278400527
0.069980375 0.022179425 0.384 4278203661
0.078068964 0.022352701 0.38700002 4278335247
0.079325937 0.022352701 0.38700002 4278335247
0.081628419 0.022294942 0.38600001 4278335247
0.082882144 0.022294942 0.38600001 4278466833
0.084135875 0.022294942 0.38600001 4278532113
0.085389607 0.022294942 0.38600001 4278663699
0.086643331 0.022294942 0.38600001 4278663699
0.08766935 0.022237184 0.38500002 4278597906
0.088919833 0.022237184 0.38500002 4278663699
0.090170309 0.022237184 0.38500002 4278466833
0.091420792 0.022237184 0.38500002 4278532626
0.092671275 0.022237184 0.38500002 4278466833
0.093921751 0.022237184 0.38500002 4278335249
0.095172234 0.022237184 0.38500002 4278598419
0.09642271 0.022237184 0.38500002 4278598419
0.097673193 0.022237184 0.38500002 4278532113
0.098923676 0.022237184 0.38500002 4278532113
0.10017416 0.022237184 0.38500002 4278663697
0.10300529 0.022583738 0.39100003 4278532624
0.10400856 0.022525977 0.39000002 4278335245
0.10473541 0.02241046 0.38800001 4278466831
0.10599563 0.02241046 0.38800001 4278466831
0.10753229 0.02246822 0.38900003 4278532624
0.10879576 0.02246822 0.38900003 4278664210
0.11034217 0.022525977 0.39000002 4278533394
0.033496205 0.024098167 0.39500001 4279837463
0.034691118 0.02403716 0.39400002 4279902739
0.035970829 0.02403716 0.39400002 4280034325
0.037155997 0.023976151 0.39300001 4280034325
0.038334671 0.023915144 0.39200002 4279903254
0.039506849 0.023854136 0.39100003 4279443986
0.04056824 0.02373212 0.38900003 4279444498
0.041724171 0.023671111 0.38800001 4278856465
0.042873617 0.023610104 0.38700002 4279055125
0.044016559 0.023549095 0.38600001 4278661394
0.045270287 0.023549095 0.38600001 4278727187
0.046403486 0.023488088 0.38500002 4278729494
0.047653969 0.023488088 0.38500002 4278663699
0.04877742 0.023427079 0.384 4278598419
0.050024655 0.023427079 0.384 4278203661
0.051271889 0.023427079 0.384 4278532628
0.052519117 0.023427079 0.384 4278335249
0.053766351 0.023427079 0.384 4278401810
0.055013586 0.023427079 0.384 4278532626
0.05626082 0.023427079 0.384 4278335247
0.057508048 0.023427079 0.384 4278269454
0.058755282 0.023427079 0.384 4278335247
0.059846263 0.023366071 0.38300002 4278269454
0.061090246 0.023366071 0.38300002 4278198021
0.062334232 0.023366071 0.38300002 4278397197
0.063744217 0.023427079 0.384 4278596625
0.064991444 0.023427079 0.384 4278465039
0.066238679 0.023427079 0.384 4278267660
0.067485914 0.023427079 0.384 4278464269
0.068733148 0.023427079 0.384 4278464269
0.070162617 0.023488088 0.38500002 4278530062
0.071598589 0.023549095 0.38600001 4278595855
0.072852321 0.023549095 0.38600001 4278859027
0.074298032 0.023610104 0.38700002 4278595855
0.075555012 0.023610104 0.38700002 4278595601
0.076811984 0.023610104 0.38700002 4278595601
0.078068964 0.023610104 0.38700002 4278595601
0.07953091 0.023671111 0.38800001 4278465039
0.080791138 0.023671111 0.38800001 4278530832
0.081839897 0.023610104 0.38700002 4278794004
0.083096869 0.023610104 0.38700002 4278794004
0.084353849 0.023610104 0.38700002 4278925590
0.085610822 0.023610104 0.38700002 4278530832
0.086867794 0.023610104 0.38700002 4278794004
0.088124774 0.023610104 0.38700002 4278859797
0.089381754 0.023610104 0.38700002 4278530832
0.090638727 0.023610104 0.38700002 4278859797
0.091895707 0.023610104 0.38700002 4278728211
0.093152687 0.023610104 0.38700002 4278859797
0.09440966 0.023610104 0.38700002 4278728211
0.095666632 0.023610104 0.38700002 4278596625
0.096923605 0.023610104 0.38700002 4278399246
0.098180585 0.023610104 0.38700002 4278991383
0.099694505 0.023671111 0.38800001 4278530832
0.10095473 0.023671111 0.38800001 4278399246
0.10300529 0.023854136 0.39100003 4278596625
0.10427526 0.023854136 0.39100003 4278991381
0.10527529 0.023793127 0.39000002 4278596623
0.10681519 0.023854136 0.39100003 4278530830
0.10808516 0.023854136 0.39100003 4278465037
0.1096348 0.023915144 0.39200002 4278530830
0.11119094 0.023976151 0.39300001 4278400529
0.11361212 0.024220183 0.39700001 4278532115
0.11519101 0.024281193 0.39800003 4278532113
0.11677638 0.0243422 0.39900002 4278400527
0.11896009 0.024525223 0.40200001 4278597904
0.033496205 0.025381563 0.39500001 4279640854
0.034691118 0.025317308 0.39400002 4279968534
0.03587953 0.02525305 0.39300001 4280100120
0.037155997 0.02525305 0.39300001 4279902739
0.038236879 0.025124537 0.39100003 4279639567
0.039405808 0.025060279 0.39000002 4279377678
0.04056824 0.024996022 0.38900003 4279313682
0.041724171 0.024931764 0.38800001 4279054357
0.042873617 0.024867509 0.38700002 4279120918
0.044016559 0.024803249 0.38600001 4278990613
0.045270287 0.024803249 0.38600001 4278728211
0.046403486 0.024738993 0.38500002 4278729494
0.047653969 0.024738993 0.38500002 4278532115
0.048904449 0.024738993 0.38500002 4278466833
0.050024655 0.024674736 0.384 4278203404
0.051271889 0.024674736 0.384 4278335249
0.052519117 0.024674736 0.384 4278335249
0.053766351 0.024674736 0.384 4278466835
0.055013586 0.024674736 0.384 4278466835
0.05626082 0.024674736 0.384 4278466835
0.057508048 0.024674736 0.384 4278335249
0.058755282 0.024674736 0.384 4278466835
0.060002517 0.024674736 0.384 4278334736
0.061249748 0.024674736 0.384 4278196225
0.062496983 0.024674736 0.384 4279185943
0.063744217 0.024674736 0.384 4278529808
0.064991444 0.024674736 0.384 4278198018
0.066238679 0.024674736 0.384 4278195459
0.067485914 0.024674736 0.384 4278194948
0.068912141 0.024738993 0.38500002 4278326021
0.070162617 0.024738993 0.38500002 4278326021
0.071598589 0.024803249 0.38600001 4278326021
0.072852321 0.024803249 0.38600001 4278391814
0.074298032 0.024867509 0.38700002 4278260228
0.075555012 0.024867509 0.38700002 4278260228
0.076811984 0.024867509 0.38700002 4278326021
0.078270689 0.024931764 0.38800001 4278195205
0.07953091 0.024931764 0.38800001 4278194432
0.080791138 0.024931764 0.38800001 4278791953
0.082051367 0.024931764 0.38800001 4278462990
0.083311588 0.024931764 0.38800001 4278856724
0.084571816 0.024931764 0.38800001 4278922517
0.085832037 0.024931764 0.38800001 4278725138
0.087092258 0.024931764 0.38800001 4278593552
0.088352486 0.024931764 0.38800001 4278593552
0.089843675 0.024996022 0.38900003 4278790931
0.091107145 0.024996022 0.38900003 4278790418
0.092370622 0.024996022 0.38900003 4278988051
0.093634091 0.024996022 0.38900003 4278856465
0.094897561 0.024996022 0.38900003 4278988051
0.096161038 0.024996022 0.38900003 4278988051
0.097424507 0.024996022 0.38900003 4278527500
0.098941676 0.025060279 0.39000002 4278856465
0.10020839 0.025060279 0.39000002 4278789902
0.10173532 0.025124537 0.39100003 4278460937
0.10353216 0.02525305 0.39300001 4278724109
0.10480863 0.02525305 0.39300001 4278460935
0.10581516 0.025188792 0.39200002 4278921486
0.10736155 0.02525305 0.39300001 4278592521
0.10863802 0.02525305 0.39300001 4278658062
0.11019417 0.025317308 0.39400002 4278194944
0.11175681 0.025381563 0.39500001 4278662677
0.11389831 0.025574338 0.39800003 4278728470
0.11548043 0.025638593 0.39900002 4278531345
0.11706904 0.025702849 0.40000001 4278531345
0.11896009 0.025831364 0.40200001 4278662929
0.12026579 0.025831364 0.40200001 4278794515
0.033496205 0.026664959 0.39500001 4279837463
0.034691118 0.026597453 0.39400002 4279705364
0.03587953 0.026529947 0.39300001 4279639571
0.037061453 0.026462441 0.39200002 4279639569
0.038236879 0.026394935 0.39100003 4279639567
0.039405808 0.026327427 0.39000002 4279443471
0.04056824 0.026259923 0.38900003 4279379475
0.041724171 0.026192416 0.38800001 4279185943
0.042873617 0.02612491 0.38700002 4279055892
0.044016559 0.026057404 0.38600001 4278727441
0.045270287 0.026057404 0.38600001 4278794004
0.046403486 0.025989898 0.38500002 4278663701
0.047653969 0.025989898 0.38500002 4278269456
0.048904449 0.025989898 0.38500002 4278269454
0.050154928 0.025989898 0.38500002 4278466833
0.051271889 0.02592239 0.384 4278269454
0.052519117 0.02592239 0.384 4278269454
0.053766351 0.02592239 0.384 4278532626
0.055013586 0.02592239 0.384 4278532626
0.05626082 0.02592239 0.384 4278335247
0.057508048 0.02592239 0.384 4278335247
0.058755282 0.02592239 0.384 4278334734
0.060002517 0.02592239 0.384 4278333966
0.061249748 0.02592239 0.384 4278194690
0.062496983 0.02592239 0.384 4278988051
0.063744217 0.02592239 0.384 4279318810
0.064991444 0.02592239 0.384 4278195971
0.066411175 0.025989898 0.38500002 4278391046
0.067661658 0.025989898 0.38500002 4278522121
0.068912141 0.025989898 0.38500002 4278456839
0.070344858 0.026057404 0.38600001 4278456839
0.071598589 0.026057404 0.38600001 4278391300
0.073041059 0.02612491 0.38700002 4278522886
0.074298032 0.02612491 0.38700002 4278456326
0.075555012 0.02612491 0.38700002 4278522632
0.077010468 0.026192416 0.38800001 4278522632
0.078270689 0.026192416 0.38800001 4278522632
0.07953091 0.026192416 0.38800001 4278657550
0.080791138 0.026192416 0.38800001 4278792466
0.082262844 0.026259923 0.38900003 4278661394
0.083526313 0.026259923 0.38900003 4278990359
0.084789783 0.026259923 0.38900003 4278924566
0.08605326 0.026259923 0.38900003 4278991129
0.087316729 0.026259923 0.38900003 4278858775
0.088807911 0.026327427 0.39000002 4278990361
0.090074636 0.026327427 0.39000002 4279055638
0.091341354 0.026327427 0.39000002 4279055638
0.092608072 0.026327427 0.39000002 4279450396
0.093874797 0.026327427 0.39000002 4279253271
0.095141515 0.026327427 0.39000002 4278991383
0.096655443 0.026394935 0.39100003 4278860310
0.097925402 0.026394935 0.39100003 4278925590
0.099195376 0.026394935 0.39100003 4278859797
0.10072229 0.026462441 0.39200002 4278924820
0.10199551 0.026462441 0.39200002 4278924820
0.1037956 0.026597453 0.39400002 4278727441
0.10507532 0.026597453 0.39400002 4278924820
0.10635503 0.026597453 0.39400002 4278727441
0.10790792 0.026664959 0.39500001 4278859027
0.10919088 0.026664959 0.39500001 4279055125
0.11075353 0.026732467 0.39600003 4278196225
0.11232267 0.026799971 0.39700001 4278793750
0.11418448 0.026934985 0.39900002 4278596625
0.11576986 0.027002489 0.40000001 4278531345
0.11736172 0.027069997 0.40100002 4278728724
0.11896009 0.027137503 0.40200001 4278662931
0.12026579 0.027137503 0.40200001 4278926103
0.026807161 0.027665334 0.39100003 4284512875
0.028148938 0.027736088 0.39200002 4284512875
0.029497208 0.027806843 0.39300001 4284249190
0.030851981 0.027877599 0.39400002 4283986272
0.033496205 0.027948353 0.39500001 4279378195
0.034691118 0.027877599 0.39400002 4279573778
0.03587953 0.027806843 0.39300001 4279967764
0.037061453 0.027736088 0.39200002 4279836178
0.038139086 0.027594578 0.39000002 4279705362
0.039304767 0.027523823 0.38900003 4279378191
0.04056824 0.027523823 0.38900003 4279249172
0.041724171 0.027453067 0.38800001 4279055125
0.042873617 0.027382312 0.38700002 4278792466
0.044016559 0.027311556 0.38600001 4278596625
0.045270287 0.027311556 0.38600001 4278859797
0.046403486 0.027240802 0.38500002 4278532628
0.047653969 0.027240802 0.38500002 4278532628
0.048904449 0.027240802 0.38500002 4278532628
0.050154928 0.027240802 0.38500002 4278466833
0.051405411 0.027240802 0.38500002 4278335247
0.052519117 0.027170045 0.384 4278532626
0.053766351 0.027170045 0.384 4278466833
0.055013586 0.027170045 0.384 4278269454
0.05626082 0.027170045 0.384 4278335249
0.057508048 0.027170045 0.384 4278466835
0.058755282 0.027170045 0.384 4278532626
0.060002517 0.027170045 0.384 4278794515
0.061249748 0.027170045 0.384 4278194944
0.062496983 0.027170045 0.384 4279251736
0.063744217 0.027170045 0.384 4279055127
0.065160699 0.027240802 0.38500002 4278195718
0.066411175 0.027240802 0.38500002 4279312916
0.067661658 0.027240802 0.38500002 4278654986
0.069091134 0.027311556 0.38600001 4278853135
0.070344858 0.027311556 0.38600001 4279313684
0.071784079 0.027382312 0.38700002 4278984719
0.073041059 0.027382312 0.38700002 4279248404
0.074298032 0.027382312 0.38700002 4278918926
0.075750239 0.027453067 0.38800001 4278852365
0.077010468 0.027453067 0.38800001 4279182100
0.078270689 0.027453067 0.38800001 4278523916
0.07973589 0.027523823 0.38900003 4278526476
0.080999367 0.027523823 0.38900003 4278727187
0.082262844 0.027523823 0.38900003 4278462988
0.083526313 0.027523823 0.38900003 4278197251
0.085007749 0.027594578 0.39000002 4278196742
0.086274475 0.027594578 0.39000002 4279317275
0.087541193 0.027594578 0.39000002 4278265611
0.08903563 0.027665334 0.39100003 4279120920
0.090305597 0.027665334 0.39100003 4278331150
0.091575563 0.027665334 0.39100003 4278199818
0.092845537 0.027665334 0.39100003 4279055638
0.094115503 0.027665334 0.39100003 4278199044
0.095629416 0.027736088 0.39200002 4278333199
0.096902639 0.027736088 0.39200002 4278727957
0.098175853 0.027736088 0.39200002 4278464785
0.099702761 0.027806843 0.39300001 4278200329
0.10097923 0.027806843 0.39300001 4278332169
0.10251589 0.027877599 0.39400002 4278198272
0.10405904 0.027948353 0.39500001 4278726673
0.10534201 0.027948353 0.39500001 4278198787
0.10662497 0.027948353 0.39500001 4278200069
0.10818111 0.028019112 0.39600003 4278727441
0.10946732 0.028019112 0.39600003 4278858259
0.11103321 0.028089866 0.39700001 4278789648
0.1126056 0.028160622 0.39800003 4278661394
0.11418448 0.028231377 0.39900002 4278728211
0.11576986 0.028302131 0.40000001 4278728211
0.11736172 0.028372888 0.40100002 4278662931
0.11896009 0.028443642 0.40200001 4278728724
0.12026579 0.028443642 0.40200001 4278794517
0.12187391 0.028514398 0.40300003 4279450398
0.032213245 0.029231749 0.39500001 4284052324
0.033496205 0.029231749 0.39500001 4284644975
0.035788238 0.029009737 0.39200002 4279705364
0.036966912 0.028935732 0.39100003 4279836948
0.038139086 0.028861728 0.39000002 4279771668
0.039304767 0.028787725 0.38900003 4279313684
0.04046395 0.028713718 0.38800001 4279184406
0.041616637 0.028639715 0.38700002 4279055127
0.042873617 0.028639715 0.38700002 4278989845
0.044016559 0.028565709 0.38600001 4278728211
0.045270287 0.028565709 0.38600001 4279254555
0.046524014 0.028565709 0.38600001 4278729494
0.047653969 0.028491706 0.38500002 4278203663
0.048904449 0.028491706 0.38500002 4278466833
0.050154928 0.028491706 0.38500002 4278335247
0.051405411 0.028491706 0.38500002 4278335247
0.052655887 0.028491706 0.38500002 4278466833
0.05390637 0.028491706 0.38500002 4278664212
0.055156853 0.028491706 0.38500002 4278927384
0.05626082 0.028417701 0.384 4278466833
0.057508048 0.028417701 0.384 4278335247
0.058755282 0.028417701 0.384 4278532113
0.060002517 0.028417701 0.384 4278399244
0.061409254 0.028491706 0.38500002 4278198281
0.062659733 0.028491706 0.38500002 4278858261
0.063910216 0.028491706 0.38500002 4278922004
0.065160699 0.028491706 0.38500002 4278194951
0.066411175 0.028491706 0.38500002 4278787855
0.067837402 0.028565709 0.38600001 4279314967
0.069091134 0.028565709 0.38600001 4278524681
0.070344858 0.028565709 0.38600001 4278985232
0.071784079 0.028639715 0.38700002 4278192896
0.073041059 0.028639715 0.38700002 4278655754
0.074490011 0.028713718 0.38800001 4278391812
0.075750239 0.028713718 0.38800001 4279708955
0.077010468 0.028713718 0.38800001 4278393865
0.078472421 0.028787725 0.38900003 4278392584
0.07973589 0.028787725 0.38900003 4279382809
0.080999367 0.028787725 0.38900003 4278398222
0.082474314 0.028861728 0.39000002 4278194688
0.083741032 0.028861728 0.39000002 4278458375
0.085007749 0.028861728 0.39000002 4278458377
0.08649569 0.028935732 0.39100003 4278723343
0.087765656 0.028935732 0.39100003 4279253019
0.08903563 0.028935732 0.39100003 4279055640
0.090536557 0.029009737 0.39200002 4278527759
0.091809772 0.029009737 0.39200002 4278856724
0.093082987 0.029009737 0.39200002 4278989845
0.094356209 0.029009737 0.39200002 4278198788
0.095873371 0.02908374 0.39300001 4278791185
0.097149834 0.02908374 0.39300001 4278396427
0.098426297 0.02908374 0.39300001 4278461453
0.09995646 0.029157747 0.39400002 4278856465
0.10123618 0.029157747 0.39400002 4279186711
0.10277608 0.029231749 0.39500001 4279121172
0.10432249 0.029305754 0.39600003 4278725392
0.1056087 0.029305754 0.39600003 4278987797
0.10689491 0.029305754 0.39600003 4278196992
0.10845429 0.029379759 0.39700001 4278990097
0.10974374 0.029379759 0.39700001 4279054355
0.11131289 0.029453764 0.39800003 4279449113
0.1126056 0.029453764 0.39800003 4278728211
0.11418448 0.029527768 0.39900002 4278794004
0.11576986 0.029601771 0.40000001 4278728724
0.11736172 0.029675776 0.40100002 4278662931
0.11896009 0.029749781 0.40200001 4278662931
0.12026579 0.029749781 0.40200001 4279189275
0.12187391 0.029823786 0.40300003 4279054103
0.034603067 0.030360637 0.39300001 4284776815
0.035696942 0.030206133 0.39100003 4284578409
0.036872365 0.030128878 0.39000002 4279246096
0.038041294 0.030051624 0.38900003 4279706645
0.039203726 0.029974369 0.38800001 4279249172
0.04046395 0.029974369 0.38800001 4278987797
0.041616637 0.029897118 0.38700002 4279186711
0.042873617 0.029897118 0.38700002 4278858773
0.044016559 0.029819863 0.38600001 4278596625
0.045270287 0.029819863 0.38600001 4278991896
0.046524014 0.029819863 0.38600001 4278400527
0.047653969 0.02974261 0.38500002 4278466833
0.048904449 0.02974261 0.38500002 4278532626
0.050154928 0.02974261 0.38500002 4278335247
0.051405411 0.02974261 0.38500002 4278532626
0.052655887 0.02974261 0.38500002 4278466833
0.05390637 0.02974261 0.38500002 4278335247
0.055156853 0.02974261 0.38500002 4278269454
0.056407336 0.02974261 0.38500002 4278269454
0.057657812 0.02974261 0.38500002 4278598419
0.058908295 0.02974261 0.38500002 4278532113
0.060158778 0.02974261 0.38500002 4278200074
0.061409254 0.02974261 0.38500002 4279053590
0.062659733 0.02974261 0.38500002 4278727189
0.063910216 0.02974261 0.38500002 4278196740
0.065160699 0.02974261 0.38500002 4278260998
0.066583671 0.029819863 0.38600001 4278391814
0.067837402 0.029819863 0.38600001 4278325767
0.069091134 0.029819863 0.38600001 4278391814
0.070527099 0.029897118 0.38700002 4278326021
0.071784079 0.029897118 0.38700002 4278522886
0.073041059 0.029897118 0.38700002 4278457093
0.074490011 0.029974369 0.38800001 4278522632
0.075750239 0.029974369 0.38800001 4278194948
0.077010468 0.029974369 0.38800001 4278194948
0.078472421 0.030051624 0.38900003 4278260744
0.07973589 0.030051624 0.38900003 4279187226
0.081207588 0.030128878 0.39000002 4278924566
0.082474314 0.030128878 0.39000002 4278260996
0.083741032 0.030128878 0.39000002 4278720265
0.085225724 0.030206133 0.39100003 4278392584
0.08649569 0.030206133 0.39100003 4279184408
0.08799012 0.030283384 0.39200002 4278196994
0.089263335 0.030283384 0.39200002 4278198533
0.090536557 0.030283384 0.39200002 4279055127
0.091809772 0.030283384 0.39200002 4278199047
0.093320444 0.030360637 0.39300001 4278264839
0.094596907 0.030360637 0.39300001 4279186711
0.095873371 0.030360637 0.39300001 4279186711
0.097397037 0.030437892 0.39400002 4278857746
0.098676749 0.030437892 0.39400002 4278726162
0.10021015 0.030515144 0.39500001 4279185943
0.10149312 0.030515144 0.39500001 4278725390
0.10303628 0.030592399 0.39600003 4278988562
0.10432249 0.030592399 0.39600003 4279054355
0.10587539 0.030669652 0.39700001 4278198534
0.10716484 0.030669652 0.39700001 4278856976
0.10845429 0.030669652 0.39700001 4279055379
0.11002018 0.030746907 0.39800003 4278197248
0.11131289 0.030746907 0.39800003 4279185941
0.11288852 0.030824158 0.39900002 4278794004
0.11418448 0.030824158 0.39900002 4278794004
0.11576986 0.030901412 0.40000001 4278662931
0.11736172 0.030978667 0.40100002 4278728724
0.11896009 0.03105592 0.40200001 4278794517
0.12026579 0.03105592 0.40200001 4279254555
0.035605643 0.031396028 0.39000002 4284644975
0.03677782 0.031315524 0.38900003 4285762942
0.038041294 0.031315524 0.38900003 4278918926
0.039203726 0.031235021 0.38800001 4279249685
0.040359661 0.031154519 0.38700002 4279119383
0.041616637 0.031154519 0.38700002 4279121433
0.042762831 0.031074015 0.38600001 4278727189
0.044016559 0.031074015 0.38600001 4278728470
0.045270287 0.031074015 0.38600001 4278926103
0.046524014 0.031074015 0.38600001 4278532626
0.047653969 0.030993514 0.38500002 4278598419
0.048904449 0.030993514 0.38500002 4278598419
0.050154928 0.030993514 0.38500002 4278466833
0.051405411 0.030993514 0.38500002 4278927384
0.052655887 0.030993514 0.38500002 4278598419
0.05390637 0.030993514 0.38500002 4278269454
0.055156853 0.030993514 0.38500002 4278664212
0.056407336 0.030993514 0.38500002 4278532626
0.057657812 0.030993514 0.38500002 4278335247
0.058908295 0.030993514 0.38500002 4278400529
0.060158778 0.030993514 0.38500002 4278198022
0.061409254 0.030993514 0.38500002 4278593554
0.062659733 0.030993514 0.38500002 4278661394
0.063910216 0.030993514 0.38500002 4278394376
0.065329939 0.031074015 0.38600001 4278522886
0.066583671 0.031074015 0.38600001 4278522632
0.067837402 0.031074015 0.38600001 4278587912
0.069091134 0.031074015 0.38600001 4278587912
0.070527099 0.031154519 0.38700002 4278785291
0.071784079 0.031154519 0.38700002 4278719498
0.07322979 0.031235021 0.38800001 4278587912
0.074490011 0.031235021 0.38800001 4278719498
0.075750239 0.031235021 0.38800001 4278587912
0.077208951 0.031315524 0.38900003 4278654218
0.078472421 0.031315524 0.38900003 4278259974
0.07973589 0.031315524 0.38900003 4279317529
0.081207588 0.031396028 0.39000002 4278988562
0.082474314 0.031396028 0.39000002 4279382039
0.08395575 0.031476531 0.39100003 4279578650
0.085225724 0.031476531 0.39100003 4279710236
0.086716905 0.031557031 0.39200002 4279513371
0.08799012 0.031557031 0.39200002 4279383838
0.089263335 0.031557031 0.39200002 4278923541
0.090767518 0.031637534 0.39300001 4279318299
0.092043974 0.031637534 0.39300001 4279055127
0.093320444 0.031637534 0.39300001 4279186711
0.094596907 0.031637534 0.39300001 4279252504
0.096117325 0.031718038 0.39400002 4278858259
0.097397037 0.031718038 0.39400002 4278989845
0.098927192 0.031798538 0.39500001 4279055638
0.10021015 0.031798538 0.39500001 4279252504
0.10149312 0.031798538 0.39500001 4279449113
0.10303628 0.031879045 0.39600003 4279054355
0.10432249 0.031879045 0.39600003 4278725390
0.10587539 0.031959545 0.39700001 4278922769
0.10716484 0.031959545 0.39700001 4278988562
0.10872748 0.032040048 0.39800003 4278856976
0.11002018 0.032040048 0.39800003 4278196225
0.11131289 0.032040048 0.39800003 4279252504
0.11288852 0.032120552 0.39900002 4278859795
0.11418448 0.032120552 0.39900002 4278728722
0.11576986 0.032201052 0.40000001 4278794517
0.11706904 0.032201052 0.40000001 4278860310
0.11896009 0.032362059 0.40200001 4279057176
0.11996662 0.032281555 0.40100002 4278923541
0.035514347 0.032579426 0.38900003 4284710768
0.036683276 0.032495674 0.38800001 4284644975
0.037943501 0.032495674 0.38800001 4283723359
0.039102685 0.032411922 0.38700002 4278723345
0.040359661 0.032411922 0.38700002 4279381787
0.041616637 0.032411922 0.38700002 4279253019
0.042762831 0.03232817 0.38600001 4278727187
0.044016559 0.03232817 0.38600001 4278794517
0.045270287 0.03232817 0.38600001 4278861080
0.046524014 0.03232817 0.38600001 4278664214
0.047777742 0.03232817 0.38600001 4278204433
0.04903147 0.03232817 0.38600001 4278466835
0.050285202 0.03232817 0.38600001 4278664214
0.051538929 0.03232817 0.38600001 4278532626
0.052792657 0.03232817 0.38600001 4278467603
0.054046385 0.03232817 0.38600001 4278467603
0.055300117 0.03232817 0.38600001 4278467603
0.056553848 0.03232817 0.38600001 4278204431
0.057807572 0.03232817 0.38600001 4278533398
0.0590613 0.03232817 0.38600001 4278268173
0.060315032 0.03232817 0.38600001 4278200586
0.061568756 0.03232817 0.38600001 4278529296
0.062822483 0.03232817 0.38600001 4278793752
0.064076215 0.03232817 0.38600001 4278858773
0.065329939 0.03232817 0.38600001 4278857748
0.066583671 0.03232817 0.38600001 4279250201
0.067837402 0.03232817 0.38600001 4279842338
0.069270127 0.032411922 0.38700002 4279644445
0.070527099 0.032411922 0.38700002 4279512859
0.071784079 0.032411922 0.38700002 4279512859
0.07322979 0.032495674 0.38800001 4279381273
0.074490011 0.032495674 0.38800001 4279381271
0.075750239 0.032495674 0.38800001 4279710236
0.077208951 0.032579426 0.38900003 4279841824
0.078472421 0.032579426 0.38900003 4279711522
0.07994087 0.032663178 0.39000002 4279185943
0.081207588 0.032663178 0.39000002 4279317529
0.082474314 0.032663178 0.39000002 4279317529
0.08395575 0.03274693 0.39100003 4279251736
0.085225724 0.03274693 0.39100003 4279185689
0.086716905 0.032830682 0.39200002 4279448861
0.08799012 0.032830682 0.39200002 4279382809
0.089491047 0.03291443 0.39300001 4279317016
0.090767518 0.03291443 0.39300001 4279251223
0.092043974 0.03291443 0.39300001 4279382809
0.093320444 0.03291443 0.39300001 4279777567
0.094837613 0.032998186 0.39400002 4279580188
0.096117325 0.032998186 0.39400002 4279580188
0.097397037 0.032998186 0.39400002 4279448602
0.098927192 0.033081934 0.39500001 4279448602
0.10021015 0.033081934 0.39500001 4279382039
0.10149312 0.033081934 0.39500001 4279514395
0.10303628 0.033165686 0.39600003 4279448602
0.10432249 0.033165686 0.39600003 4279974946
0.10587539 0.033249438 0.39700001 4279580188
0.10716484 0.033249438 0.39700001 4279382809
0.10845429 0.033249438 0.39700001 4279711774
0.11002018 0.03333319 0.39800003 4279450396
0.11131289 0.03333319 0.39800003 4278990613
0.1126056 0.03333319 0.39800003 4278860308
0.11418448 0.033416942 0.39900002 4278860308
0.11548043 0.033416942 0.39900002 4278926103
0.11677638 0.033416942 0.39900002 4278991896
0.11896009 0.033668198 0.40200001 4279121433
0.11966745 0.033500694 0.40000001 4284974960
0.035423048 0.033756323 0.38800001 4284710770
0.036683276 0.033756323 0.38800001 4284710770
0.037845708 0.033669323 0.38700002 4284644977
0.039102685 0.033669323 0.38700002 4285236852
0.040359661 0.033669323 0.38700002 4278657552
0.041509099 0.033582322 0.38600001 4279252765
0.042762831 0.033582322 0.38600001 4278859545
0.044016559 0.033582322 0.38600001 4278991896
0.045270287 0.033582322 0.38600001 4278992666
0.046524014 0.033582322 0.38600001 4278664214
0.047777742 0.033582322 0.38600001 4278730007
0.04903147 0.033582322 0.38600001 4278467605
0.050285202 0.033582322 0.38600001 4278401812
0.051538929 0.033582322 0.38600001 4278599189
0.052792657 0.033582322 0.38600001 4278467603
0.054046385 0.033582322 0.38600001 4278533396
0.055300117 0.033582322 0.38600001 4278467603
0.056553848 0.033582322 0.38600001 4278467605
0.057807572 0.033582322 0.38600001 4278467605
0.0590613 0.033582322 0.38600001 4278794263
0.060315032 0.033582322 0.38600001 4278595087
0.061568756 0.033582322 0.38600001 4278727189
0.062822483 0.033582322 0.38600001 4278925590
0.064076215 0.033582322 0.38600001 4278991383
0.065329939 0.033582322 0.38600001 4278991383
0.066583671 0.033582322 0.38600001 4278925590
0.067837402 0.033582322 0.38600001 4278926103
0.069270127 0.033669323 0.38700002 4279188762
0.070527099 0.033669323 0.38700002 4278991383
0.071784079 0.033669323 0.38700002 4278991383
0.07322979 0.033756323 0.38800001 4278991383
0.074490011 0.033756323 0.38800001 4278991383
0.075750239 0.033756323 0.38800001 4278925590
0.077208951 0.033843327 0.38900003 4279057176
0.078472421 0.033843327 0.38900003 4279056922
0.07994087 0.033930324 0.39000002 4279057174
0.081207588 0.033930324 0.39000002 4278991381
0.082685791 0.034017328 0.39100003 4278991381
0.08395575 0.034017328 0.39100003 4278859795
0.08544369 0.034104329 0.39200002 4279057176
0.086716905 0.034104329 0.39200002 4278991383
0.08799012 0.034104329 0.39200002 4279188762
0.089491047 0.034191329 0.39300001 4279188762
0.090767518 0.034191329 0.39300001 4279122199
0.092043974 0.034191329 0.39300001 4279122197
0.093557902 0.034278329 0.39400002 4279187990
0.094837613 0.034278329 0.39400002 4279319576
0.096117325 0.034278329 0.39400002 4279451162
0.097397037 0.034278329 0.39400002 4279187990
0.098676749 0.034278329 0.39400002 4279319576
0.10021015 0.03436533 0.39500001 4279319576
0.10149312 0.03436533 0.39500001 4279385369
0.10277608 0.03436533 0.39500001 4279385369
0.10432249 0.03445233 0.39600003 4279319576
0.1056087 0.03445233 0.39600003 4279451162
0.10716484 0.034539331 0.39700001 4279385369
0.10845429 0.034539331 0.39700001 4279319576
0.10974374 0.034539331 0.39700001 4279385369
0.11103321 0.034539331 0.39700001 4279385369
0.1126056 0.034626335 0.39800003 4278991381
0.11389831 0.034626335 0.39800003 4279320348
0.11519101 0.034626335 0.39800003 4279320348
0.1164837 0.034626335 0.39800003 4279055127
0.11906912 0.034626335 0.39800003 4285499509
0.11975699 0.03445233 0.39600003 4285564534
0.035423048 0.035016976 0.38800001 4284710770
0.036588732 0.034926727 0.38700002 4284776563
0.037845708 0.034926727 0.38700002 4284973428
0.039102685 0.034926727 0.38700002 4284841840
0.040255371 0.034836479 0.38600001 4285236852
0.041509099 0.034836479 0.38600001 4281488448
0.042762831 0.034836479 0.38600001 4278857498
0.044016559 0.034836479 0.38600001 4279056924
0.045270287 0.034836479 0.38600001 4279254814
0.046403486 0.03474623 0.38500002 4278927132
0.047777742 0.034836479 0.38600001 4278927132
0.04903147 0.034836479 0.38600001 4278992925
0.050285202 0.034836479 0.38600001 4278927902
0.051538929 0.034836479 0.38600001 4278599191
0.052792657 0.034836479 0.38600001 4278927386
0.054046385 0.034836479 0.38600001 4279058972
0.055300117 0.034836479 0.38600001 4278993179
0.056553848 0.034836479 0.38600001 4278795800
0.057807572 0.034836479 0.38600001 4278993179
0.0590613 0.034836479 0.38600001 4278993179
0.060315032 0.034836479 0.38600001 4279124252
0.061568756 0.034836479 0.38600001 4279058459
0.062822483 0.034836479 0.38600001 4278992664
0.064076215 0.034836479 0.38600001 4278992664
0.065329939 0.034836479 0.38600001 4279058457
0.066583671 0.034836479 0.38600001 4278992664
0.068013154 0.034926727 0.38700002 4278992664
0.069270127 0.034926727 0.38700002 4278992664
0.070527099 0.034926727 0.38700002 4279124250
0.071969569 0.035016976 0.38800001 4278992664
0.07322979 0.035016976 0.38800001 4279058457
0.074490011 0.035016976 0.38800001 4279123480
0.075750239 0.035016976 0.38800001 4278991896
0.077208951 0.035107229 0.38900003 4279123482
0.078472421 0.035107229 0.38900003 4279189273
0.07994087 0.035197478 0.39000002 4279123480
0.081207588 0.035197478 0.39000002 4279123480
0.082685791 0.03528773 0.39100003 4279255066
0.08395575 0.03528773 0.39100003 4278991894
0.08544369 0.035377979 0.39200002 4279189275
0.086716905 0.035377979 0.39200002 4278991896
0.088214584 0.035468228 0.39300001 4279123482
0.089491047 0.035468228 0.39300001 4278991896
0.090767518 0.035468228 0.39300001 4279254553
0.092043974 0.035468228 0.39300001 4279254553
0.093320444 0.035468228 0.39300001 4279385369
0.094596907 0.035468228 0.39300001 4279385369
0.095873371 0.035468228 0.39300001 4279451162
0.097397037 0.035558477 0.39400002 4279385369
0.098676749 0.035558477 0.39400002 4279319576
0.09995646 0.035558477 0.39400002 4278924818
0.10123618 0.035558477 0.39400002 4279451162
0.10277608 0.035648726 0.39500001 4279516957
0.10405904 0.035648726 0.39500001 4279451164
0.10534201 0.035648726 0.39500001 4279779361
0.10689491 0.035738979 0.39600003 4279318297
0.10818111 0.035738979 0.39600003 4278923539
0.10946732 0.035738979 0.39600003 4279251734
0.11075353 0.035738979 0.39600003 4279646492
0.11232267 0.035829227 0.39700001 4279843619
0.11361212 0.035829227 0.39700001 4281685312
0.11490158 0.035829227 0.39700001 4285236339
0.11619103 0.035829227 0.39700001 4286025085
0.11688864 0.035648726 0.39500001 4285761913
0.11876994 0.035829227 0.39700001 4285630327
0.11975699 0.035738979 0.39600003 4285827706
0.036588732 0.036184132 0.38700002 4284842354
0.037845708 0.036184132 0.38700002 4284842354
0.039001644 0.036090631 0.38600001 4284776561
0.040255371 0.036090631 0.38600001 4284974194
0.041509099 0.036090631 0.38600001 4285105266
0.042762831 0.036090631 0.38600001 4285368438
0.044016559 0.036090631 0.38600001 4283001687
0.045153007 0.035997134 0.38500002 4279318049
0.046403486 0.035997134 0.38500002 4278858007
0.047777742 0.036090631 0.38600001 4279385635
0.04903147 0.036090631 0.38600001 4279057953
0.050285202 0.036090631 0.38600001 4279189793
0.051538929 0.036090631 0.38600001 4279189791
0.052792657 0.036090631 0.38600001 4279189021
0.054046385 0.036090631 0.38600001 4279386400
0.055300117 0.036090631 0.38600001 4279320607
0.056553848 0.036090631 0.38600001 4279189021
0.057807572 0.036090631 0.38600001 4279254814
0.0590613 0.036090631 0.38600001 4279189275
0.060315032 0.036090631 0.38600001 4278991896
0.061568756 0.036090631 0.38600001 4279189275
0.062822483 0.036090631 0.38600001 4279320861
0.064076215 0.036090631 0.38600001 4279188762
0.065329939 0.036090631 0.38600001 4279254555
0.066583671 0.036090631 0.38600001 4279320094
0.068013154 0.036184132 0.38700002 4279056922
0.069270127 0.036184132 0.38700002 4279320094
0.070527099 0.036184132 0.38700002 4279056922
0.071969569 0.036277629 0.38800001 4279188762
0.07322979 0.036277629 0.38800001 4279254555
0.074490011 0.036277629 0.38800001 4279451934
0.075750239 0.036277629 0.38800001 4279451934
0.077208951 0.03637113 0.38900003 4279386141
0.078472421 0.03637113 0.38900003 4279188762
0.07994087 0.036464628 0.39000002 4279385371
0.081207588 0.036464628 0.39000002 4279582750
0.082685791 0.036558129 0.39100003 4279516703
0.08395575 0.036558129 0.39100003 4279385117
0.08544369 0.036651626 0.39200002 4279385117
0.086716905 0.036651626 0.39200002 4279516703
0.088214584 0.036745124 0.39300001 4279121945
0.089491047 0.036745124 0.39300001 4279121431
0.090767518 0.036745124 0.39300001 4279120918
0.092043974 0.036745124 0.39300001 4278923539
0.093320444 0.036745124 0.39300001 4279514647
0.094596907 0.036745124 0.39300001 4279514647
0.095873371 0.036745124 0.39300001 4280238118
0.097149834 0.036745124 0.39300001 4280830001
0.098426297 0.036745124 0.39300001 4282539849
0.099702761 0.036745124 0.39300001 4283789918
0.10097923 0.036745124 0.39300001 4284251239
0.10225569 0.036745124 0.39300001 4285237362
0.1037956 0.036838625 0.39400002 4285763192
0.10507532 0.036838625 0.39400002 4286092159
0.10635503 0.036838625 0.39400002 4285763194
0.10790792 0.036932122 0.39500001 4285828987
0.10919088 0.036932122 0.39500001 4285302643
0.11047384 0.036932122 0.39500001 4285434229
0.11175681 0.036932122 0.39500001 4285434231
0.11303977 0.036932122 0.39500001 4285565817
0.11432273 0.036932122 0.39500001 4285433718
0.11560568 0.036932122 0.39500001 4285893499
0.11688864 0.036932122 0.39500001 4285564280
0.11817161 0.036932122 0.39500001 4285827452
0.11945457 0.036932122 0.39500001 4285630327
0.08799012 0.037925273 0.39200002 4285763706
0.089263335 0.037925273 0.39200002 4285500534
0.090536557 0.037925273 0.39200002 4285566329
0.091809772 0.037925273 0.39200002 4285632124
0.093082987 0.037925273 0.39200002 4285566329
0.094356209 0.037925273 0.39200002 4285434229
0.095629416 0.037925273 0.39200002 4285434229
0.096902639 0.037925273 0.39200002 4285565815
0.098175853 0.037925273 0.39200002 4285302645
0.099449068 0.037925273 0.39200002 4285565817
0.10072229 0.037925273 0.39200002 4285302645
0.10199551 0.037925273 0.39200002 4285434231
0.10353216 0.038022023 0.39300001 4285565817
0.10480863 0.038022023 0.39300001 4285631610
0.10608509 0.038022023 0.39300001 4285565817
0.10763474 0.038118772 0.39400002 4285696890
0.10891445 0.038118772 0.39400002 4285761913
0.11019417 0.038118772 0.39400002 4285893499
0.11147388 0.038118772 0.39400002 4285630327
0.11275359 0.038118772 0.39400002 4285761913
0.11403331 0.038118772 0.39400002 4285761913
0.11531302 0.038118772 0.39400002 4285432948
0.11659273 0.038118772 0.39400002 4285761913
0.11817161 0.038215518 0.39500001 4285827706
0.089263335 0.03919892 0.39200002 4285434231
0.090536557 0.03919892 0.39200002 4285302645
0.091809772 0.03919892 0.39200002 4285434231
0.093082987 0.03919892 0.39200002 4285696890
0.094356209 0.03919892 0.39200002 4285696890
0.095385469 0.039098926 0.39100003 4285762683
0.096655443 0.039098926 0.39100003 4285433718
0.097925402 0.039098926 0.39100003 4285367925
0.099195376 0.039098926 0.39100003 4285499511
0.10046534 0.039098926 0.39100003 4285631097
0.10173532 0.039098926 0.39100003 4285499511
0.10326872 0.03919892 0.39200002 4285433718
0.10454194 0.03919892 0.39200002 4285696890
0.10608509 0.039298918 0.39300001 4285433718
0.10736155 0.039298918 0.39300001 4285696890
0.10863802 0.039298918 0.39300001 4285893499
0.10991448 0.039298918 0.39300001 4285761913
0.11147388 0.039398916 0.39400002 4285959292
0.11275359 0.039398916 0.39400002 4285761913
0.11403331 0.039398916 0.39400002 4285761913
0.11531302 0.039398916 0.39400002 4285827706
0.11659273 0.039398916 0.39400002 4285827706
0.095385469 0.040369324 0.39100003 4285761913
0.096408233 0.040266078 0.39000002 4285631097
0.097674951 0.040266078 0.39000002 4285696890
0.098941676 0.040266078 0.39000002 4285762683
0.10046534 0.040369324 0.39100003 4285631097
0.10173532 0.040369324 0.39100003 4285696890
0.10300529 0.040369324 0.39100003 4285499511
0.10427526 0.040369324 0.39100003 4285631097
0.10581516 0.040472571 0.39200002 4285631097
0.10736155 0.040575814 0.39300001 4285696890
0.10863802 0.040575814 0.39300001 4285893499
0.10991448 0.040575814 0.39300001 4285893499
0.11119094 0.040575814 0.39300001 4285564534
0.11246742 0.040575814 0.39300001 4285827706
0.11374388 0.040575814 0.39300001 4285827706
0.11502033 0.040575814 0.39300001 4285761913
0.10300529 0.041639723 0.39100003 4285433718
0.10427526 0.041639723 0.39100003 4285433718
0.074491404 0.028209638 0.38919324 4294967295
0.074491404 0.028209638 0.38919324 4294901760
0.074540302 0.027714137 0.38914752 4294901760
0.0745892 0.027218638 0.38910183 4294901760
0.074638098 0.026723139 0.38905612 4294901760
0.074686997 0.026227638 0.38901043 4294901760
0.074735895 0.025732137 0.38896471 4294901760
0.074784793 0.025236638 0.38891903 4294901760
0.074833691 0.024741139 0.38887331 4294901760
0.074882589 0.024245638 0.38882762 4294901760
0.074931495 0.023750138 0.38878191 4294901760
0.074980393 0.023254639 0.38873622 4294901760
0.075029291 0.02275914 0.3886905 4294901760
0.075078189 0.022263639 0.38864481 4294901760
0.075127088 0.02176814 0.3885991 4294901760
0.075175986 0.021272639 0.38855338 4294901760
0.075224884 0.020777138 0.38850769 4294901760
0.075273782 0.020281639 0.38846198 4294901760
0.07532268 0.019786138 0.38841629 4294901760
0.075371578 0.019290639 0.38837057 4294901760
0.075420476 0.01879514 0.38832489 4294901760
0.075469375 0.018299639 0.38827917 4294901760
0.075518273 0.017804138 0.38823348 4294901760
0.075567171 0.017308639 0.38818777 4294901760
0.075616069 0.01681314 0.38814208 4294901760
0.075664967 0.016317639 0.38809636 4294901760
0.075713873 0.015822139 0.38805068 4294901760
0.075762771 0.015326641 0.38800496 4294901760
0.075811669 0.014831139 0.38795924 4294901760
0.075860567 0.01433564 0.38791355 4294901760
0.075909466 0.01384014 0.38786784 4294901760
0.075958364 0.013344639 0.38782215 4294901760
0.076007262 0.01284914 0.38777643 4294901760
0.07605616 0.01235364 0.38773075 4294901760
0.076105058 0.011858139 0.38768503 4294901760
0.076153956 0.01136264 0.38763934 4294901760
0.076202855 0.010867141 0.38759363 4294901760
0.076251753 0.01037164 0.38754794 4294901760
0.076300651 0.0098761395 0.38750222 4294901760
0.076349549 0.0093806405 0.38745651 4294901760
0.076398447 0.0088851415 0.38741082 4294901760
0.076447345 0.0083896406 0.3873651 4294901760
0.076496243 0.0078941416 0.38731942 4294901760
0.076545149 0.0073986407 0.3872737 4294901760
0.076594047 0.0069031399 0.38722801 4294901760
0.076642945 0.0064076409 0.3871823 4294901760
0.076691844 0.0059121419 0.38713661 4294901760
0.076740742 0.005416641 0.38709089 4294901760
0.07678964 0.004921142 0.3870452 4294901760
0.076838538 0.0044256411 0.38699949 4294901760
0.076887436 0.0039301403 0.3869538 4294901760
0.076936334 0.0034346413 0.38690808 4294901760
0.076985233 0.0029391423 0.38686237 4294901760
0.077034131 0.0024436433 0.38681668 4294901760
0.077083029 0.0019481424 0.38677096 4294901760
0.077131927 0.0014526397 0.38672528 4294901760
0.077180825 0.0009571407 0.38667956 4294901760
0.077229723 0.0004616417 0.38663387 4294901760
0.077278621 -3.3857301e-05 0.38658816 4294901760
0.07732752 -0.00052935816 0.38654247 4294901760
0.077376425 -0.0010248572 0.38649675 4294901760
0.077425323 -0.0015203599 0.38645107 4294901760
0.077474222 -0.0020158589 0.38640535 4294901760
0.07752312 -0.0025113579 0.38635966 4294901760
0.077572018 -0.0030068569 0.38631395 4294901760
0.077620916 -0.0035023578 0.38626823 4294901760
0.077669814 -0.0039978549 0.38622254 4294901760
0.077718712 -0.0044933595 0.38617682 4294901760
0.077767611 -0.0049888566 0.38613114 4294901760
0.077816509 -0.0054843575 0.38608542 4294901760
0.077865407 -0.0059798583 0.38603973 4294901760
0.077914305 -0.0064753555 0.38599402 4294901760
0.077963203 -0.0069708563 0.38594833 4294901760
0.078012101 -0.0074663572 0.38590261 4294901760
0.078061 -0.0079618581 0.38585693 4294901760
0.078109898 -0.0084573589 0.38581121 4294901760
0.078158796 -0.0089528561 0.38576549 4294901760
0.078207701 -0.0094483569 0.38571981 4294901760
0.0782566 -0.0099438541 0.38567409 4294901760
0.078305498 -0.010439355 0.3856284 4294901760
0.078354396 -0.01093486 0.38558269 4294901760
0.078403294 -0.011430357 0.385537 4294901760
0.078452192 -0.011925858 0.38549128 4294901760
0.07850109 -0.012421355 0.38544559 4294901760
0.078549989 -0.012916856 0.38539988 4294901760
0.078598887 -0.013412356 0.38535419 4294901760
0.078647785 -0.013907857 0.38530847 4294901760
0.078696683 -0.014403358 0.38526279 4294901760
0.078745581 -0.014898855 0.38521707 4294901760
0.078794479 -0.015394356 0.38517135 4294901760
0.078843378 -0.015889857 0.38512567 4294901760
0.078892276 -0.016385354 0.38507995 4294901760
0.078941181 -0.016880859 0.38503426 4294901760
0.078990072 -0.017376356 0.38498855 4294901760
0.079038978 -0.017871857 0.38494286 4294901760
0.079087876 -0.018367354 0.38489714 4294901760
0.079136774 -0.018862855 0.38485146 4294901760
0.079185672 -0.019358356 0.38480574 4294901760
0.07923457 -0.019853856 0.38476005 4294901760
0.079283468 -0.020349357 0.38471434 4294901760
0.079332367 -0.020844854 0.38466865 4294901760
0.079381265 -0.021340355 0.38462293 4294901760
0.074491404 0.028209638 0.38919324 4278255360
0.074987084 0.028254107 0.38924146 4278255360
0.075482763 0.028298575 0.38928968 4278255360
0.075978443 0.028343046 0.3893379 4278255360
0.076474123 0.028387515 0.38938609 4278255360
0.076969802 0.028431984 0.38943431 4278255360
0.077465482 0.028476452 0.38948253 4278255360
0.077961162 0.028520921 0.38953075 4278255360
0.078456834 0.02856539 0.38957897 4278255360
0.078952514 0.028609861 0.38962719 4278255360
0.079448193 0.028654329 0.38967538 4278255360
0.079943873 0.028698798 0.3897236 4278255360
0.080439553 0.028743267 0.38977182 4278255360
0.080935232 0.028787736 0.38982004 4278255360
