# .PCD v0.7 - Point Cloud Data file format
VERSION 0.7
FIELDS x y z rgb
SIZE 4 4 4 4
TYPE F F F U
COUNT 1 1 1 1
WIDTH 624
HEIGHT 1
VIEWPOINT 0 0 0 1 0 0 0
POINTS 624
DATA ascii
-0.015148239 0.039896179 0.59100002 4284717948
-0.020942321 0.041887153 0.59200001 4278928668
-0.019019505 0.041887153 0.59200001 4278797595
-0.017067809 0.041816399 0.59100002 4278798365
-0.015096976 0.04167489 0.58900005 4278272282
-0.020836197 0.043588612 0.58900005 4278993947
-0.018923122 0.043588612 0.58900005 4278797082
-0.01698117 0.043514602 0.588 4278797595
-0.015020082 0.043366596 0.58600003 4278600218
-0.013027219 0.043070577 0.58200002 4278666011
-0.0090876687 0.042330533 0.57200003 4278797343
-0.0071918936 0.042108521 0.56900001 4278797343
-0.0053249979 0.041960511 0.56700003 4278863136
-0.0034772374 0.041886508 0.56600004 4279060515
-0.0016359726 0.041812502 0.565 4278600736
0.00019879578 0.041738499 0.56400001 4278402587
-0.02080082 0.045425076 0.588 4278993949
-0.018858867 0.045347821 0.58700001 4278994459
-0.016894532 0.045193318 0.58500004 4278862873
-0.014943186 0.045038808 0.583 4278928668
-0.012982452 0.04480705 0.58000004 4278862875
-0.011002934 0.044420782 0.57500005 4278862875
-0.0090717813 0.044111766 0.57100004 4278797084
-0.0071792542 0.043880004 0.56800002 4278402326
-0.0053156065 0.043725502 0.56600004 4278727957
-0.0034710935 0.043648243 0.565 4278860826
-0.0016330772 0.043570992 0.56400001 4278599964
0.00019879578 0.043570992 0.56400001 4278665757
0.0020270683 0.043493737 0.56300002 4278796830
-0.020730069 0.047174543 0.58600003 4278993949
-0.018794613 0.04709404 0.58500004 4279059740
-0.016836772 0.046933033 0.583 4278862873
-0.014891924 0.046772029 0.58100003 4278204429
-0.012937685 0.046530519 0.57800001 4278994461
-0.010964662 0.046128009 0.57300001 4278862875
-0.0090558939 0.045886502 0.57000005 4278862875
-0.0071792542 0.045725495 0.56800002 4279322912
-0.0053156065 0.045564491 0.56600004 4280240166
-0.0034710935 0.045483984 0.565 4279188762
-0.0016330772 0.045403484 0.56400001 4278993179
0.0001984433 0.045322981 0.56300002 4278860826
0.0020234678 0.045242481 0.56200004 4278729240
0.0038488447 0.045242481 0.56200004 4279321631
0.0056641256 0.045161977 0.56100005 4278796570
-0.020694694 0.048994765 0.58500004 4278862623
-0.018762486 0.048911016 0.58400005 4278796830
-0.016807893 0.048743509 0.58200002 4278665498
-0.014840662 0.048492257 0.57900006 4278797084
-0.012892918 0.048241001 0.57600003 4278731291
-0.010945526 0.047905993 0.57200003 4278862877
-0.0090400064 0.047654737 0.56900001 4278928668
-0.0071666148 0.047487233 0.56700003 4278401810
-0.0053062146 0.047319729 0.565 4278199561
-0.0034649502 0.047235977 0.56400001 4279582496
-0.0016301817 0.047152225 0.56300002 4278329869
0.0001984433 0.047152225 0.56300002 4278590476
0.0020234678 0.047068477 0.56200004 4278524429
0.0038419964 0.046984725 0.56100005 4278459406
0.0056641256 0.046984725 0.56100005 4278196999
0.0074729095 0.046900969 0.56 4278197512
0.009275198 0.046817217 0.55900002 4278198536
0.011070991 0.046733469 0.55800003 4278529042
0.012883376 0.046733469 0.55800003 4278597654
0.014669425 0.046649717 0.55700004 4279058718
0.016448978 0.046565969 0.55600005 4279124765
0.018254867 0.046565969 0.55600005 4278927386
0.020024672 0.046482213 0.55500001 4278468119
0.021827314 0.046482213 0.55500001 4278402324
0.02358738 0.046398461 0.55400002 4278533908
0.025386773 0.046398461 0.55400002 4278665494
-0.020659318 0.050808489 0.58400005 4278797084
-0.018730355 0.050721485 0.583 4278928670
-0.016750135 0.050460488 0.58000004 4278731291
-0.014815029 0.050286483 0.57800001 4278862877
-0.012870535 0.050025482 0.57500005 4278862877
-0.010926391 0.04967748 0.57100004 4278928670
-0.009024119 0.049416475 0.56800002 4278797084
-0.0071539758 0.049242474 0.56600004 4279783465
-0.0053062146 0.04915547 0.565 4279910949
-0.0034649502 0.04906847 0.56400001 4279780645
-0.0016301817 0.048981469 0.56300002 4278722830
0.00019809084 0.048894472 0.56200004 4278787855
0.0020234678 0.048894472 0.56200004 4278918676
0.0038419964 0.048807472 0.56100005 4278918674
0.0056540282 0.048720468 0.56 4278589709
0.0074729095 0.048720468 0.56 4278589709
0.009275198 0.048633467 0.55900002 4278655504
0.011070991 0.048546467 0.55800003 4278523916
0.012883376 0.048546467 0.55800003 4278462220
0.014669425 0.048459467 0.55700004 4279386402
0.016478563 0.048459467 0.55700004 4279188508
0.018254867 0.048372466 0.55600005 4278200072
0.020024672 0.048285462 0.55500001 4278197248
0.021827314 0.048285462 0.55500001 4278196736
0.02358738 0.048198462 0.55400002 4278198787
0.025386773 0.048198462 0.55400002 4278793750
0.027186166 0.048198462 0.55400002 4278925590
0.028933238 0.048111461 0.55300003 4279123480
0.030729383 0.048111461 0.55300003 4279058457
0.032525528 0.048111461 0.55300003 4278664212
0.034321673 0.048111461 0.55300003 4278599189
0.036117818 0.048111461 0.55300003 4278665496
0.037913963 0.048111461 0.55300003 4278533910
0.039710108 0.048111461 0.55300003 4278600216
0.041581307 0.048198462 0.55400002 4278797597
0.043380704 0.048198462 0.55400002 4278929183
0.045180093 0.048198462 0.55400002 4278929953
0.046979491 0.048198462 0.55400002 4278798113
0.04877888 0.048198462 0.55400002 4279521836
-0.022556152 0.05270597 0.58400005 4279254555
-0.020623941 0.052615717 0.583 4278797084
-0.018698229 0.052525468 0.58200002 4278797084
-0.016750135 0.05234497 0.58000004 4278731291
-0.014789398 0.052074216 0.57700002 4278862877
-0.01284815 0.051803466 0.574 4278862877
-0.010907256 0.05144247 0.57000005 4278862877
-0.009024119 0.051261969 0.56800002 4278928670
-0.0071539758 0.051081471 0.56600004 4278860826
-0.0053062146 0.050991215 0.565 4280306221
-0.0034588068 0.050810717 0.56300002 4279780647
-0.0016301817 0.050810717 0.56300002 4278195456
0.00019809084 0.050720468 0.56200004 4278985232
0.0020198673 0.050630223 0.56100005 4278195717
0.0038419964 0.050630223 0.56100005 4278985750
0.0056540282 0.050539967 0.56 4280498473
0.0074729095 0.050539967 0.56 4278853648
0.009275198 0.050449718 0.55900002 4279116820
0.011070991 0.050359469 0.55800003 4279642651
0.012883376 0.050359469 0.55800003 4278922004
0.014669425 0.05026922 0.55700004 4279254816
0.016478563 0.05026922 0.55700004 4278201356
0.018254867 0.050178971 0.55600005 4278726673
0.020060755 0.050178971 0.55600005 4279319578
0.021827314 0.050088719 0.55500001 4279648543
0.023629956 0.050088719 0.55500001 4279648289
0.025386773 0.04999847 0.55400002 4279450910
0.027186166 0.04999847 0.55400002 4279582496
0.028985558 0.04999847 0.55400002 4279187738
0.030729383 0.049908221 0.55300003 4278595601
0.032525528 0.049908221 0.55300003 4278198530
0.034321673 0.049908221 0.55300003 4278196992
0.036117818 0.049908221 0.55300003 4278196992
0.037913963 0.049908221 0.55300003 4278200072
0.039710108 0.049908221 0.55300003 4278727187
0.041506253 0.049908221 0.55300003 4278793750
0.043380704 0.04999847 0.55400002 4279190045
0.045180093 0.04999847 0.55400002 4278533910
0.046979491 0.04999847 0.55400002 4278731289
0.04877888 0.04999847 0.55400002 4278797082
0.05057827 0.04999847 0.55400002 4278797595
0.052472211 0.050088719 0.55500001 4279192101
-0.022556152 0.054603446 0.58400005 4279386400
-0.020623941 0.054509941 0.583 4278862877
-0.018698229 0.054416444 0.58200002 4278797084
-0.016750135 0.054229449 0.58000004 4278731291
-0.014789398 0.05394895 0.57700002 4278862877
-0.01284815 0.053668451 0.574 4278797084
-0.010907256 0.053294457 0.57000005 4278928670
-0.009024119 0.053107459 0.56800002 4278797084
-0.0071539758 0.052920461 0.56600004 4278267408
-0.0052968231 0.052733462 0.56400001 4278727189
-0.0034588068 0.052639961 0.56300002 4280240426
-0.0016272862 0.052546464 0.56200004 4278721549
0.00019809084 0.052546464 0.56200004 4278852365
0.0020198673 0.052452967 0.56100005 4278656015
0.0038351475 0.052359466 0.56 4278524429
0.0056540282 0.052359466 0.56 4278853394
0.0074595655 0.052265964 0.55900002 4278853394
0.009275198 0.052265964 0.55900002 4280104996
0.011070991 0.052172467 0.55800003 4278722832
0.012883376 0.052172467 0.55800003 4279712033
0.014695761 0.052172467 0.55800003 4279187740
0.016478563 0.05207897 0.55700004 4278460169
0.018254867 0.051985472 0.55600005 4278657550
0.020060755 0.051985472 0.55600005 4278922769
0.021827314 0.051891968 0.55500001 4279648289
0.023629956 0.051891968 0.55500001 4278200072
0.025386773 0.05179847 0.55400002 4278200072
0.027186166 0.05179847 0.55400002 4278198787
0.028985558 0.05179847 0.55400002 4279056922
0.030784952 0.05179847 0.55400002 4278861080
0.032525528 0.051704973 0.55300003 4278992666
0.034321673 0.051704973 0.55300003 4278991896
0.036117818 0.051704973 0.55300003 4279189275
0.037913963 0.051704973 0.55300003 4278860310
0.039710108 0.051704973 0.55300003 4279451934
0.041506253 0.051704973 0.55300003 4279319324
0.043302398 0.051704973 0.55300003 4278661396
0.045098543 0.051704973 0.55300003 4279124252
0.046979491 0.05179847 0.55400002 4278862361
0.04877888 0.05179847 0.55400002 4278665496
0.05057827 0.05179847 0.55400002 4278665496
0.052472211 0.051891968 0.55500001 4278665496
-0.022594776 0.056597669 0.58500004 4279320607
-0.020659318 0.056500919 0.58400005 4278862877
-0.018730355 0.05640417 0.583 4278797084
-0.016779013 0.056210674 0.58100003 4278797084
-0.014815029 0.05592043 0.57800001 4278994209
-0.01284815 0.055533435 0.574 4278862623
-0.010907256 0.055146448 0.57000005 4278862623
-0.009024119 0.054952946 0.56800002 4278664730
-0.0071539758 0.054759454 0.56600004 4278531091
-0.0052968231 0.054565955 0.56400001 4278859543
-0.0034588068 0.054469205 0.56300002 4279320607
-0.0016272862 0.05437246 0.56200004 4278790933
0.00019773837 0.054275714 0.56100005 4278854929
0.0020198673 0.054275714 0.56100005 4278524683
0.0038351475 0.054178961 0.56 4278524170
0.0056540282 0.054178961 0.56 4279049744
0.0074595655 0.054082215 0.55900002 4278786318
0.009275198 0.054082215 0.55900002 4278655502
0.011070991 0.053985465 0.55800003 4278589709
0.012883376 0.053985465 0.55800003 4280502319
0.014695761 0.053985465 0.55800003 4279516705
0.016478563 0.05388872 0.55700004 4278328072
0.0182877 0.05388872 0.55700004 4278524683
0.020060755 0.053791974 0.55600005 4279054357
0.021866644 0.053791974 0.55600005 4279055640
0.023629956 0.053695221 0.55500001 4278464017
0.025432596 0.053695221 0.55500001 4279450912
0.027186166 0.053598475 0.55400002 4279320094
0.028985558 0.053598475 0.55400002 4279385117
0.030784952 0.053598475 0.55400002 4278398222
0.032525528 0.053501725 0.55300003 4278529294
0.034321673 0.053501725 0.55300003 4278331917
0.036117818 0.053501725 0.55300003 4278199046
0.037913963 0.053501725 0.55300003 4278727959
0.039710108 0.053501725 0.55300003 4278398994
0.041506253 0.053501725 0.55300003 4279189275
0.043302398 0.053501725 0.55300003 4279649826
0.045098543 0.053501725 0.55300003 4279320861
0.046894688 0.053501725 0.55300003 4278795800
0.04877888 0.053598475 0.55400002 4278665496
0.05057827 0.053598475 0.55400002 4278731289
0.052472211 0.053695221 0.55500001 4278731289
0.05427485 0.053695221 0.55500001 4278731289
-0.020730069 0.058598388 0.58600003 4278993695
-0.018794613 0.058498394 0.58500004 4278927902
-0.016807893 0.0581984 0.58200002 4278862623
-0.014866293 0.057998408 0.58000004 4278731037
-0.012892918 0.057598416 0.57600003 4278731037
-0.010926391 0.05709843 0.57100004 4278731037
-0.009024119 0.056798436 0.56800002 4278927902
-0.0071539758 0.056598444 0.56600004 4279058718
-0.0052968231 0.056398448 0.56400001 4279123998
-0.0034588068 0.05629845 0.56300002 4278927132
-0.0016272862 0.056198455 0.56200004 4279190304
0.00019773837 0.056098457 0.56100005 4279058718
0.0020162668 0.055998456 0.56 4279123998
0.0038351475 0.055998456 0.56 4279386400
0.0056439321 0.055898461 0.55900002 4279845668
0.0074595655 0.055898461 0.55900002 4280239912
0.009275198 0.055898461 0.55900002 4280172838
0.011070991 0.055798467 0.55800003 4279054103
0.012883376 0.055798467 0.55800003 4279581730
0.014695761 0.055798467 0.55800003 4278197252
0.016478563 0.055698469 0.55700004 4278527248
0.0182877 0.055698469 0.55700004 4279447580
0.020060755 0.055598475 0.55600005 4279712803
0.021866644 0.055598475 0.55600005 4280108328
0.023672534 0.055598475 0.55600005 4279450912
0.025432596 0.055498473 0.55500001 4279056154
0.027235238 0.055498473 0.55500001 4278727959
0.028985558 0.055398475 0.55400002 4279254814
0.030784952 0.055398475 0.55400002 4279188508
0.032584343 0.055398475 0.55400002 4278595601
0.034321673 0.055298481 0.55300003 4278199303
0.036117818 0.055298481 0.55300003 4278397710
0.037913963 0.055298481 0.55300003 4278594322
0.039710108 0.055298481 0.55300003 4278660115
0.041506253 0.055298481 0.55300003 4279781158
0.043224096 0.055198483 0.55200005 4278465298
0.045016989 0.055198483 0.55200005 4279254814
0.046894688 0.055298481 0.55300003 4278795798
0.04877888 0.055398475 0.55400002 4278928154
0.05057827 0.055398475 0.55400002 4278862361
0.052472211 0.055498473 0.55500001 4278862361
-0.016894532 0.060399115 0.58500004 4279121695
-0.014917555 0.060089376 0.58200002 4278925599
-0.010945526 0.059056912 0.57200003 4279780906
-0.009024119 0.058643926 0.56800002 4279780906
-0.0071539758 0.058437437 0.56600004 4279583781
-0.0052968231 0.05823094 0.56400001 4279452965
-0.0034588068 0.058127694 0.56300002 4279255586
-0.0016272862 0.058024451 0.56200004 4278992927
0.00019773837 0.057921205 0.56100005 4278729755
0.0020162668 0.057817955 0.56 4278862111
0.0038351475 0.057817955 0.56 4278927902
0.0056439321 0.057714708 0.55900002 4278927132
0.0074595655 0.057714708 0.55900002 4279124765
0.0092586055 0.057611465 0.55800003 4278993179
0.011070991 0.057611465 0.55800003 4279058205
0.012883376 0.057611465 0.55800003 4279189791
0.014695761 0.057611465 0.55800003 4279189791
0.016478563 0.057508219 0.55700004 4279321379
0.0182877 0.057508219 0.55700004 4279386402
0.020096835 0.057508219 0.55700004 4279450912
0.021866644 0.057404973 0.55600005 4279253019
0.023672534 0.057404973 0.55600005 4278792214
0.025432596 0.057301722 0.55500001 4278331150
0.027235238 0.057301722 0.55500001 4278197764
0.028985558 0.057198476 0.55400002 4278197250
0.030784952 0.057198476 0.55400002 4278199303
0.032584343 0.057198476 0.55400002 4278529810
0.034321673 0.057095233 0.55300003 4279319326
0.036117818 0.057095233 0.55300003 4279648289
0.037913963 0.057095233 0.55300003 4279385117
0.039638299 0.056991987 0.55200005 4279582496
0.041431196 0.056991987 0.55200005 4279123228
0.043224096 0.056991987 0.55200005 4278201614
0.045016989 0.056991987 0.55200005 4279123228
0.046809889 0.056991987 0.55200005 4278796570
0.04877888 0.057198476 0.55400002 4278664982
0.05057827 0.057198476 0.55400002 4278862361
0.052472211 0.057301722 0.55500001 4278862361
-0.0090400064 0.060595911 0.56900001 4284711792
-0.0071539758 0.060276426 0.56600004 4283067480
-0.0052968231 0.060063433 0.56400001 4280633909
-0.0034588068 0.059956938 0.56300002 4279318047
-0.0016272862 0.059850447 0.56200004 4279779877
0.00019773837 0.059743952 0.56100005 4279451428
0.0020162668 0.05963745 0.56 4279519019
0.0038351475 0.05963745 0.56 4279453224
0.0056439321 0.059530959 0.55900002 4279453478
0.0074595655 0.059530959 0.55900002 4279256099
0.0092586055 0.059424464 0.55800003 4279387685
0.011070991 0.059424464 0.55800003 4278927134
0.012883376 0.059424464 0.55800003 4279058720
0.014669425 0.059317969 0.55700004 4279058720
0.016478563 0.059317969 0.55700004 4279058720
0.0182877 0.059317969 0.55700004 4279058720
0.020096835 0.059317969 0.55700004 4278992925
0.021866644 0.059211474 0.55600005 4279124511
0.023672534 0.059211474 0.55600005 4279124511
0.025478423 0.059211474 0.55600005 4278927132
0.027235238 0.059104975 0.55500001 4278992412
0.028985558 0.05899848 0.55400002 4279058205
0.030784952 0.05899848 0.55400002 4278860056
0.032584343 0.05899848 0.55400002 4279123228
0.034321673 0.058891986 0.55300003 4279846440
0.036117818 0.058891986 0.55300003 4279187740
0.037845407 0.058785491 0.55200005 4278200077
0.039638299 0.058785491 0.55200005 4278196993
0.041431196 0.058785491 0.55200005 4278196993
0.043145787 0.058678992 0.551 4278198278
0.044935435 0.058678992 0.551 4279255838
0.046725087 0.058678992 0.551 4278862363
0.04877888 0.05899848 0.55400002 4278862361
0.05057827 0.05899848 0.55400002 4278928152
0.052472211 0.059104975 0.55500001 4278993945
-0.009024119 0.062334906 0.56800002 4284907887
-0.0071539758 0.06211542 0.56600004 4284710508
-0.0052968231 0.061895926 0.56400001 4284710254
-0.0034588068 0.061786182 0.56300002 4284710508
-0.0016272862 0.061676439 0.56200004 4284711020
0.00019809084 0.061676439 0.56200004 4284843376
0.0020234678 0.061676439 0.56200004 4284974962
0.0038488447 0.061676439 0.56200004 4284645997
0.0056742216 0.061676439 0.56200004 4283067476
0.0074995994 0.061676439 0.56200004 4280700213
0.0092586055 0.061237462 0.55800003 4279713320
0.011070991 0.061237462 0.55800003 4279450148
0.012860288 0.061127719 0.55700004 4279517225
0.014669425 0.061127719 0.55700004 4279780395
0.016478563 0.061127719 0.55700004 4279715113
0.0182877 0.061127719 0.55700004 4279650090
0.020096835 0.061127719 0.55700004 4279518504
0.021905972 0.061127719 0.55700004 4279387431
0.023672534 0.061017975 0.55600005 4279387685
0.025478423 0.061017975 0.55600005 4279124513
0.027284313 0.061017975 0.55600005 4278795546
0.0290902 0.061017975 0.55600005 4279058718
0.03089609 0.061017975 0.55600005 4279058718
0.03270198 0.061017975 0.55600005 4278927132
0.034507867 0.061017975 0.55600005 4279058718
0.036313757 0.061017975 0.55600005 4279190304
0.037845407 0.060578994 0.55200005 4279124511
0.039566487 0.060469247 0.551 4279189791
0.041356135 0.060469247 0.551 4279058205
0.043145787 0.060469247 0.551 4279189791
0.044935435 0.060469247 0.551 4279058972
0.046725087 0.060469247 0.551 4279058970
0.048426684 0.060359504 0.55000001 4278993947
0.05057827 0.060798481 0.55400002 4278993947
0.052472211 0.060908224 0.55500001 4278928154
-0.0052968231 0.063728422 0.56400001 4284710254
-0.0034588068 0.063615426 0.56300002 4284644715
-0.0016272862 0.063502438 0.56200004 4284710508
0.00019809084 0.063502438 0.56200004 4284776301
0.0020234678 0.063502438 0.56200004 4284776301
0.0038488447 0.063502438 0.56200004 4284776301
0.016478563 0.062937468 0.55700004 4285238395
0.0182877 0.062937468 0.55700004 4284119916
0.020096835 0.062937468 0.55700004 4282607445
0.021905972 0.062937468 0.55700004 4280765241
0.023672534 0.062824473 0.55600005 4279516455
0.025478423 0.062824473 0.55600005 4278925088
0.027284313 0.062824473 0.55600005 4278662429
0.0290902 0.062824473 0.55600005 4278531613
0.03089609 0.062824473 0.55600005 4278925599
0.032643162 0.062711477 0.55500001 4279188769
0.034383737 0.062598482 0.55400002 4279649574
0.036117818 0.062485494 0.55300003 4279715113
0.037845407 0.062372498 0.55200005 4279649320
0.039566487 0.062259503 0.551 4279715113
0.041356135 0.062259503 0.551 4279715883
0.043067485 0.062146507 0.55000001 4279518506
0.044853885 0.062146507 0.55000001 4279519019
0.046640288 0.062146507 0.55000001 4279519017
0.048426684 0.062146507 0.55000001 4279585064
0.05057827 0.062598482 0.55400002 4279256099
0.052472211 0.062711477 0.55500001 4279451941
0.02371511 0.064747214 0.55700004 4284316010
0.025478423 0.064630978 0.55600005 4283855459
0.027284313 0.064630978 0.55600005 4283593572
0.0290902 0.064630978 0.55600005 4283593572
0.037776843 0.064049758 0.551 4285238649
0.039566487 0.064049758 0.551 4285107063
0.041281082 0.063933514 0.55000001 4284449903
0.043067485 0.063933514 0.55000001 4284318317
0.044853885 0.063933514 0.55000001 4283726180
0.014577718 0.053945757 0.56112093 4294967295
0.014577718 0.053945757 0.56112093 4294901760
0.014577718 0.053945757 0.56162095 4294901760
0.014577718 0.053945757 0.56212091 4294901760
0.014577718 0.053945757 0.56262094 4294901760
0.014577718 0.053945757 0.5631209 4294901760
0.014577718 0.053945757 0.56362092 4294901760
0.014577718 0.053945757 0.56412095 4294901760
0.014577718 0.053945757 0.56462091 4294901760
0.014577718 0.053945757 0.56512094 4294901760
0.014577718 0.053945757 0.5656209 4294901760
0.014577718 0.053945757 0.56612092 4294901760
0.014577718 0.053945757 0.56662095 4294901760
0.014577718 0.053945757 0.56712091 4294901760
0.014577718 0.053945757 0.56762093 4294901760
0.014577718 0.053945757 0.56812096 4294901760
0.014577718 0.053945757 0.56862092 4294901760
0.014577718 0.053945757 0.56912094 4294901760
0.014577718 0.053945757 0.56962091 4294901760
0.014577718 0.053945757 0.57012093 4294901760
0.014577718 0.053945757 0.57062095 4294901760
0.014577718 0.053945757 0.57112092 4294901760
0.014577718 0.053945757 0.57162094 4294901760
0.014577718 0.053945757 0.5721209 4294901760
0.014577718 0.053945757 0.57262093 4294901760
0.014577718 0.053945757 0.57312095 4294901760
0.014577718 0.053945757 0.57362092 4294901760
0.014577718 0.053945757 0.57412094 4294901760
0.014577718 0.053945757 0.5746209 4294901760
0.014577718 0.053945757 0.57512093 4294901760
0.014577718 0.053945757 0.57562095 4294901760
0.014577718 0.053945757 0.57612091 4294901760
0.014577718 0.053945757 0.57662094 4294901760
0.014577718 0.053945757 0.5771209 4294901760
0.014577718 0.053945757 0.57762092 4294901760
0.014577718 0.053945757 0.57812095 4294901760
0.014577718 0.053945757 0.57862091 4294901760
0.014577718 0.053945757 0.57912093 4294901760
0.014577718 0.053945757 0.57962096 4294901760
0.014577718 0.053945757 0.58012092 4294901760
0.014577718 0.053945757 0.58062094 4294901760
0.014577718 0.053945757 0.58112091 4294901760
0.014577718 0.053945757 0.58162093 4294901760
0.014577718 0.053945757 0.58212095 4294901760
0.014577718 0.053945757 0.58262092 4294901760
0.014577718 0.053945757 0.58312094 4294901760
0.014577718 0.053945757 0.58362091 4294901760
0.014577718 0.053945757 0.58412093 4294901760
0.014577718 0.053945757 0.58462095 4294901760
0.014577718 0.053945757 0.58512092 4294901760
0.014577718 0.053945757 0.58562094 4294901760
0.014577718 0.053945757 0.58612096 4294901760
0.014577718 0.053945757 0.58662093 4294901760
0.014577718 0.053945757 0.58712095 4294901760
0.014577718 0.053945757 0.58762091 4294901760
0.014577718 0.053945757 0.58812094 4294901760
0.014577718 0.053945757 0.58862096 4294901760
0.014577718 0.053945757 0.58912092 4294901760
0.014577718 0.053945757 0.58962095 4294901760
0.014577718 0.053945757 0.59012091 4294901760
0.014577718 0.053945757 0.59062093 4294901760
0.014577718 0.053945757 0.59112096 4294901760
0.014577718 0.053945757 0.59162092 4294901760
0.014577718 0.053945757 0.59212095 4294901760
0.014577718 0.053945757 0.59262091 4294901760
0.014577718 0.053945757 0.59312093 4294901760
0.014577718 0.053945757 0.59362096 4294901760
0.014577718 0.053945757 0.59412092 4294901760
0.014577718 0.053945757 0.59462094 4294901760
0.014577718 0.053945757 0.59512091 4294901760
0.014577718 0.053945757 0.59562093 4294901760
0.014577718 0.053945757 0.59612095 4294901760
0.014577718 0.053945757 0.59662092 4294901760
0.014577718 0.053945757 0.59712094 4294901760
0.014577718 0.053945757 0.59762096 4294901760
0.014577718 0.053945757 0.59812093 4294901760
0.014577718 0.053945757 0.59862095 4294901760
0.014577718 0.053945757 0.59912091 4294901760
0.014577718 0.053945757 0.59962094 4294901760
0.014577718 0.053945757 0.60012096 4294901760
0.014577718 0.053945757 0.60062093 4294901760
0.014577718 0.053945757 0.60112095 4294901760
0.014577718 0.053945757 0.60162091 4294901760
0.014577718 0.053945757 0.60212094 4294901760
0.014577718 0.053945757 0.60262096 4294901760
0.014577718 0.053945757 0.60312092 4294901760
0.014577718 0.053945757 0.60362095 4294901760
0.014577718 0.053945757 0.60412097 4294901760
0.014577718 0.053945757 0.60462093 4294901760
0.014577718 0.053945757 0.60512096 4294901760
0.014577718 0.053945757 0.60562092 4294901760
0.014577718 0.053945757 0.60612094 4294901760
0.014577718 0.053945757 0.60662097 4294901760
0.014577718 0.053945757 0.60712093 4294901760
0.014577718 0.053945757 0.60762095 4294901760
0.014577718 0.053945757 0.60812092 4294901760
0.014577718 0.053945757 0.60862094 4294901760
0.014577718 0.053945757 0.60912097 4294901760
0.014577718 0.053945757 0.60962093 4294901760
0.014577718 0.053945757 0.61012095 4294901760
0.014577718 0.053945757 0.61062092 4294901760
0.014577718 0.053945757 0.61112094 4294901760
0.014577718 0.053945757 0.56112093 4278255360
0.01470115 0.053888358 0.56160206 4278255360
0.014824583 0.053830959 0.56208313 4278255360
0.014948016 0.05377356 0.56256425 4278255360
0.015071449 0.053716157 0.56304538 4278255360
0.015194881 0.053658757 0.56352651 4278255360
0.015318314 0.053601358 0.56400758 4278255360
0.015441746 0.053543959 0.56448871 4278255360
0.015565179 0.05348656 0.56496984 4278255360
0.015688613 0.05342916 0.56545097 4278255360
0.015812045 0.053371761 0.56593204 4278255360
0.015935477 0.053314362 0.56641316 4278255360
0.016058911 0.053256959 0.56689429 4278255360
0.016182343 0.053199559 0.56737536 4278255360
0.016305776 0.05314216 0.56785649 4278255360
0.016429208 0.053084761 0.56833762 4278255360
0.016552642 0.053027362 0.56881875 4278255360
0.016676074 0.052969962 0.56929982 4278255360
0.016799506 0.052912563 0.56978095 4278255360
0.01692294 0.052855164 0.57026207 4278255360
0.017046371 0.052797761 0.5707432 4278255360
0.017169805 0.052740362 0.57122427 4278255360
0.017293237 0.052682962 0.5717054 4278255360
0.017416671 0.052625563 0.57218653 4278255360
0.017540103 0.052568164 0.57266766 4278255360
0.017663537 0.052510764 0.57314873 4278255360
0.017786968 0.052453365 0.57362986 4278255360
0.017910402 0.052395962 0.57411098 4278255360
0.018033834 0.052338563 0.57459205 4278255360
0.018157266 0.052281164 0.57507318 4278255360
0.0182807 0.052223764 0.57555431 4278255360
0.018404132 0.052166365 0.57603544 4278255360
0.018527566 0.052108966 0.57651651 4278255360
0.018650997 0.052051567 0.57699764 4278255360
0.018774431 0.051994167 0.57747877 4278255360
0.018897863 0.051936764 0.5779599 4278255360
0.019021295 0.051879365 0.57844096 4278255360
0.019144729 0.051821966 0.57892209 4278255360
0.019268163 0.051764566 0.57940322 4278255360
0.019391594 0.051707167 0.57988429 4278255360
0.019515026 0.051649768 0.58036542 4278255360
0.01963846 0.051592369 0.58084655 4278255360
0.019761892 0.051534969 0.58132768 4278255360
0.019885326 0.051477566 0.58180875 4278255360
0.020008758 0.051420167 0.58228987 4278255360
0.020132191 0.051362768 0.582771 4278255360
0.020255623 0.051305369 0.58325213 4278255360
0.020379055 0.051247969 0.5837332 4278255360
0.020502489 0.05119057 0.58421433 4278255360
0.020625921 0.051133171 0.58469546 4278255360
0.020749355 0.051075771 0.58517659 4278255360
0.020872787 0.051018368 0.58565766 4278255360
0.02099622 0.050960969 0.58613878 4278255360
0.021119652 0.05090357 0.58661991 4278255360
0.021243086 0.050846171 0.58710098 4278255360
0.021366518 0.050788771 0.58758211 4278255360
0.021489952 0.050731372 0.58806324 4278255360
0.021613384 0.050673973 0.58854437 4278255360
0.021736816 0.05061657 0.58902544 4278255360
0.021860249 0.050559171 0.58950657 4278255360
0.021983681 0.050501771 0.5899877 4278255360
0.022107115 0.050444372 0.59046882 4278255360
0.022230547 0.050386973 0.59094989 4278255360
0.022353981 0.050329573 0.59143102 4278255360
0.022477413 0.050272174 0.59191215 4278255360
0.022600845 0.050214775 0.59239322 4278255360
0.022724278 0.050157372 0.59287435 4278255360
0.022847712 0.050099973 0.59335548 4278255360
0.022971144 0.050042573 0.59383661 4278255360
0.023094576 0.049985174 0.59431767 4278255360
0.02321801 0.049927775 0.5947988 4278255360
0.023341442 0.049870376 0.59527993 4278255360
0.023464873 0.049812976 0.59576106 4278255360
0.023588307 0.049755573 0.59624213 4278255360
0.023711741 0.049698174 0.59672326 4278255360
0.023835173 0.049640775 0.59720439 4278255360
0.023958605 0.049583375 0.59768546 4278255360
0.024082039 0.049525976 0.59816658 4278255360
0.02420547 0.049468577 0.59864771 4278255360
0.024328904 0.049411178 0.59912884 4278255360
0.024452336 0.049353778 0.59960991 4278255360
0.02457577 0.049296379 0.60009104 4278255360
0.024699202 0.049238976 0.60057217 4278255360
0.024822634 0.049181577 0.6010533 4278255360
0.024946067 0.049124178 0.60153437 4278255360
0.025069501 0.049066778 0.6020155 4278255360
0.025192933 0.049009379 0.60249662 4278255360
0.025316365 0.04895198 0.60297775 4278255360
0.025439799 0.04889458 0.60345882 4278255360
0.025563231 0.048837177 0.60393995 4278255360
0.025686663 0.048779778 0.60442108 4278255360
0.025810096 0.048722379 0.60490215 4278255360
0.02593353 0.04866498 0.60538328 4278255360
0.026056962 0.04860758 0.60586441 4278255360
0.026180394 0.048550181 0.60634553 4278255360
0.026303828 0.048492782 0.6068266 4278255360
0.02642726 0.048435383 0.60730773 4278255360
0.026550693 0.04837798 0.60778886 4278255360
0.026674125 0.04832058 0.60826999 4278255360
0.026797559 0.048263181 0.60875106 4278255360
0.026920991 0.048205782 0.60923219 4278255360
