# .PCD v0.7 - Point Cloud Data file format
VERSION 0.7
FIELDS x y z rgb
SIZE 4 4 4 4
TYPE F F F U
COUNT 1 1 1 1
WIDTH 954
HEIGHT 1
VIEWPOINT 0 0 0 1 0 0 0
POINTS 954
DATA ascii
0.018604746 -0.0082091307 0.40600002 4279379992
0.028041249 -0.0069409059 0.40900001 4279970846
0.02532232 -0.005598302 0.40800002 4279970592
0.026712814 -0.0056120232 0.40900001 4279641627
0.028109811 -0.0056257448 0.41000003 4279641113
0.029513298 -0.005639466 0.41100001 4279838492
0.030923283 -0.0056531876 0.41200003 4280101918
0.026778128 -0.0042936131 0.41000003 4279510041
0.028178371 -0.0043040849 0.41100001 4279509014
0.029585108 -0.0043145572 0.41200003 4279772186
0.03099834 -0.0043250294 0.41300002 4280101151
0.032339767 -0.0043250294 0.41300002 4279838492
0.036187943 -0.0043040849 0.41100001 4279256349
0.037912354 -0.0041993628 0.40100002 4280047664
0.039117008 -0.0041888906 0.40000001 4280177969
0.025446448 -0.002961481 0.41000003 4279641113
0.02684344 -0.0029687041 0.41100001 4279377941
0.028246932 -0.0029759274 0.41200003 4279443221
0.029656915 -0.0029831503 0.41300002 4279837979
0.031073397 -0.0029903736 0.41400003 4279377428
0.032418072 -0.0029903736 0.41400003 4279837979
0.033762742 -0.0029903736 0.41400003 4280101664
0.035022616 -0.0029831503 0.41300002 4279445272
0.036099896 -0.002961481 0.41000003 4278925590
0.036883794 -0.0029181424 0.40400001 4278862361
0.037912354 -0.002896473 0.40100002 4278600986
0.039117008 -0.0028892497 0.40000001 4279127330
0.040416211 -0.0028892497 0.40000001 4279522088
0.04171541 -0.0028892497 0.40000001 4279126308
0.025446448 -0.0016293493 0.41000003 4279180562
0.02684344 -0.0016333233 0.41100001 4279509014
0.028246932 -0.0016372973 0.41200003 4279245842
0.029656915 -0.0016412713 0.41300002 4279640600
0.031073397 -0.0016452454 0.41400003 4279443221
0.032418072 -0.0016452454 0.41400003 4279772186
0.033762742 -0.0016452454 0.41400003 4279772953
0.035022616 -0.0016412713 0.41300002 4279576088
0.035307456 -0.001593583 0.40100002 4279384090
0.036701199 -0.001597557 0.40200001 4278794002
0.037912354 -0.001593583 0.40100002 4278533910
0.039117008 -0.001589609 0.40000001 4278798363
0.040416211 -0.001589609 0.40000001 4278273302
0.04171541 -0.001589609 0.40000001 4279391787
0.043014612 -0.001589609 0.40000001 4283141216
0.025384383 -0.00029649236 0.40900001 4279903772
0.02684344 -0.0002979422 0.41100001 4279311635
0.028246932 -0.00029866715 0.41200003 4279377428
0.029585108 -0.00029866715 0.41200003 4280166944
0.031073397 -0.00030011698 0.41400003 4279640600
0.032418072 -0.00030011698 0.41400003 4279837979
0.033762742 -0.00030011698 0.41400003 4279838746
0.035107419 -0.00030011698 0.41400003 4279510293
0.035307456 -0.00029069302 0.40100002 4279053842
0.036701199 -0.00029141793 0.40200001 4278990099
0.037912354 -0.00029069302 0.40100002 4278795283
0.039117008 -0.00028996807 0.40000001 4278401808
0.040416211 -0.00028996807 0.40000001 4278535191
0.04171541 -0.00028996807 0.40000001 4278667290
0.043014612 -0.00028996807 0.40000001 4278536476
0.044424601 -0.00029069302 0.40100002 4278602269
0.045727048 -0.00029069302 0.40100002 4278733855
0.047029499 -0.00029069302 0.40100002 4278997027
0.048331946 -0.00029069302 0.40100002 4278931234
0.049634393 -0.00029069302 0.40100002 4278734369
0.05093684 -0.00029069302 0.40100002 4278800160
0.052239291 -0.00029069302 0.40100002 4278668574
0.053541742 -0.00029069302 0.40100002 4278602781
0.054844186 -0.00029069302 0.40100002 4278734367
0.08140146 -0.00030736616 0.42400002 4278337812
0.097233281 -0.00030954092 0.42700002 4278535445
0.098620176 -0.00030954092 0.42700002 4278535704
0.10000707 -0.00030954092 0.42700002 4278469911
0.10139397 -0.00030954092 0.42700002 4278469911
0.10302158 -0.00031026587 0.42800003 4278666779
0.02532232 0.0010298663 0.40800002 4279772953
0.026712814 0.0010323904 0.40900001 4279640600
0.028109811 0.0010349146 0.41000003 4279771416
0.031073397 0.0010450114 0.41400003 4279772186
0.032418072 0.0010450114 0.41400003 4279903772
0.033762742 0.0010450114 0.41400003 4279707160
0.034089811 0.0010147212 0.40200001 4279511061
0.035307456 0.001012197 0.40100002 4279251223
0.036609907 0.001012197 0.40100002 4279252504
0.037912354 0.001012197 0.40100002 4278794515
0.039117008 0.0010096728 0.40000001 4278927384
0.040416211 0.0010096728 0.40000001 4278665494
0.04171541 0.0010096728 0.40000001 4278731800
0.043014612 0.0010096728 0.40000001 4278337812
0.044424601 0.001012197 0.40100002 4278600984
0.045727048 0.001012197 0.40100002 4278535191
0.047029499 0.001012197 0.40100002 4278535704
0.048331946 0.001012197 0.40100002 4278404118
0.049634393 0.001012197 0.40100002 4278206739
0.05093684 0.001012197 0.40100002 4278337812
0.052239291 0.001012197 0.40100002 4278469398
0.05367526 0.0010147212 0.40200001 4278469911
0.054980952 0.0010147212 0.40200001 4278404118
0.056286652 0.0010147212 0.40200001 4278206482
0.057592351 0.0010147212 0.40200001 4278469911
0.059044562 0.0010172453 0.40300003 4278469911
0.060503263 0.0010197696 0.40400001 4278272532
0.061815456 0.0010197696 0.40400001 4278404118
0.068558231 0.0010424872 0.41300002 4278469398
0.070068903 0.0010450114 0.41400003 4278469398
0.071586072 0.0010475356 0.41500002 4278272019
0.073109739 0.0010500597 0.41600001 4278272019
0.074639909 0.0010525839 0.41700003 4278337812
0.076358803 0.0010576323 0.41900003 4278272019
0.0779052 0.0010601565 0.42000002 4278337812
0.079458103 0.0010626807 0.42100003 4278205969
0.081209473 0.001067729 0.42300001 4278272019
0.082583375 0.001067729 0.42300001 4278206226
0.084155768 0.0010702532 0.42400002 4278205969
0.085734643 0.0010727773 0.42500001 4278402835
0.087115049 0.0010727773 0.42500001 4278270736
0.088703677 0.0010753016 0.42600003 4278468115
0.090298794 0.0010778258 0.42700002 4278402322
0.09168569 0.0010778258 0.42700002 4278665494
0.093072586 0.0010778258 0.42700002 4278665494
0.094459489 0.0010778258 0.42700002 4279126045
0.096070848 0.00108035 0.42800003 4278665494
0.097233281 0.0010778258 0.42700002 4278862873
0.098620176 0.0010778258 0.42700002 4278468115
0.10024128 0.00108035 0.42800003 4278797080
0.10163143 0.00108035 0.42800003 4278468628
0.10302158 0.00108035 0.42800003 4278600216
0.10441171 0.00108035 0.42800003 4278928668
0.10604906 0.0010828741 0.42900002 4279454498
0.025260255 0.0023497266 0.40700001 4279707160
0.026647503 0.0023554999 0.40800002 4279641367
0.027972691 0.0023554999 0.40800002 4279772440
0.02936968 0.0023612732 0.40900001 4280101405
0.03099834 0.0023843665 0.41300002 4280101405
0.032418072 0.0023901397 0.41400003 4279904026
0.032784112 0.0023208603 0.40200001 4279838746
0.034089811 0.0023208603 0.40200001 4279576856
0.035307456 0.002315087 0.40100002 4279185943
0.036609907 0.002315087 0.40100002 4279253017
0.037912354 0.002315087 0.40100002 4278728722
0.039214805 0.002315087 0.40100002 4278729492
0.040416211 0.0023093137 0.40000001 4278928152
0.04171541 0.0023093137 0.40000001 4278731287
0.04312215 0.002315087 0.40100002 4278533908
0.044424601 0.002315087 0.40100002 4278665748
0.045727048 0.002315087 0.40100002 4278665748
0.047029499 0.002315087 0.40100002 4278534162
0.048331946 0.002315087 0.40100002 4278732054
0.049634393 0.002315087 0.40100002 4278666261
0.05093684 0.002315087 0.40100002 4278600214
0.052369561 0.0023208603 0.40200001 4278600214
0.05367526 0.0023208603 0.40200001 4278600214
0.054980952 0.0023208603 0.40200001 4278202119
0.056286652 0.0023208603 0.40200001 4278200064
0.057735614 0.0023266335 0.40300003 4278664980
0.059044562 0.0023266335 0.40300003 4278468628
0.060503263 0.0023324068 0.40400001 4278402835
0.061968468 0.0023381801 0.40500003 4278600214
0.063908935 0.0023612732 0.40900001 4278402835
0.065396868 0.0023670467 0.41000003 4278731287
0.066891305 0.0023728197 0.41100001 4278270736
0.068558231 0.0023843665 0.41300002 4278665494
0.070068903 0.0023901397 0.41400003 4278862873
0.071413584 0.0023901397 0.41400003 4278731289
0.073109739 0.0024016863 0.41600001 4278797082
0.074639909 0.0024074595 0.41700003 4278204945
0.076176554 0.0024132328 0.41800001 4278993947
0.077719718 0.0024190061 0.41900003 4278927384
0.079458103 0.0024305528 0.42100003 4278729492
0.081017487 0.0024363259 0.42200002 4278532113
0.082388148 0.0024363259 0.42200002 4278531345
0.083957285 0.0024420992 0.42300001 4278201096
0.085532919 0.0024478727 0.42400002 4278200326
0.087115049 0.0024536457 0.42500001 4278197760
0.088703677 0.0024594192 0.42600003 4278197248
0.090087324 0.0024594192 0.42600003 4278196480
0.09168569 0.0024651925 0.42700002 4278195200
0.093072586 0.0024651925 0.42700002 4278194944
0.094459489 0.0024651925 0.42700002 4278197248
0.096070848 0.0024709657 0.42800003 4278198787
0.097460993 0.0024709657 0.42800003 4278199301
0.098851144 0.0024709657 0.42800003 4278331915
0.10024128 0.0024709657 0.42800003 4278991129
0.10163143 0.0024709657 0.42800003 4278796568
0.10302158 0.0024709657 0.42800003 4278928154
0.10465567 0.002476739 0.42900002 4278928156
0.10604906 0.002476739 0.42900002 4279322914
0.023761868 0.0036450441 0.40400001 4280365090
0.025136126 0.0036540665 0.40500003 4280232991
0.026451567 0.0036540665 0.40500003 4279838233
0.027835568 0.0036630889 0.40600002 4279904026
0.029154256 0.0036630889 0.40600002 4279969819
0.031556722 0.0036360216 0.40300003 4279772953
0.032784112 0.0036269992 0.40200001 4279970846
0.034089811 0.0036269992 0.40200001 4279446551
0.035307456 0.003617977 0.40100002 4279187224
0.036609907 0.003617977 0.40100002 4279121945
0.037912354 0.003617977 0.40100002 4278991383
0.039214805 0.003617977 0.40100002 4278729492
0.040517252 0.003617977 0.40100002 4278797082
0.041819703 0.003617977 0.40100002 4278533908
0.04312215 0.003617977 0.40100002 4278665494
0.044424601 0.003617977 0.40100002 4278665494
0.045727048 0.003617977 0.40100002 4278665494
0.047029499 0.003617977 0.40100002 4278665494
0.048331946 0.003617977 0.40100002 4278797080
0.049758166 0.0036269992 0.40200001 4278600468
0.051063862 0.0036269992 0.40200001 4278600214
0.052369561 0.0036269992 0.40200001 4278468628
0.05367526 0.0036269992 0.40200001 4278402322
0.054980952 0.0036269992 0.40200001 4278199808
0.05642667 0.0036360216 0.40300003 4279847203
0.057735614 0.0036360216 0.40300003 4279058457
0.059191074 0.0036450441 0.40400001 4278201607
0.060653023 0.0036540665 0.40500003 4278198528
0.062121473 0.0036630889 0.40600002 4278196992
0.063908935 0.0036901559 0.40900001 4278195456
0.065396868 0.0036991783 0.41000003 4278196224
0.066891305 0.0037082008 0.41100001 4278197254
0.068558231 0.0037262456 0.41300002 4278196226
0.069899656 0.0037262456 0.41300002 4278196997
0.071413584 0.003735268 0.41400003 4278196480
0.072933994 0.0037442902 0.41500002 4278530832
0.074460909 0.0037533126 0.41600001 4278200842
0.076176554 0.0037713575 0.41800001 4278858773
0.077719718 0.0037803799 0.41900003 4278924568
0.079269364 0.0037894021 0.42000002 4279187740
0.080825508 0.0037984247 0.42100003 4278990361
0.082388148 0.0038074469 0.42200002 4279450912
0.083957285 0.0038164693 0.42300001 4279582750
0.085532919 0.0038254918 0.42400002 4279187992
0.086910069 0.0038254918 0.42400002 4279845922
0.088495448 0.0038345142 0.42500001 4279187992
0.090087324 0.0038435366 0.42600003 4279187992
0.09168569 0.0038525588 0.42700002 4278991383
0.093072586 0.0038525588 0.42700002 4279452447
0.094459489 0.0038525588 0.42700002 4279123482
0.096070848 0.0038615814 0.42800003 4278992666
0.097460993 0.0038615814 0.42800003 4278992664
0.098851144 0.0038615814 0.42800003 4278200072
0.10024128 0.0038615814 0.42800003 4279056924
0.10163143 0.0038615814 0.42800003 4278796566
0.10326228 0.0038706036 0.42900002 4278928154
0.10465567 0.0038706036 0.42900002 4278993949
0.10604906 0.0038706036 0.42900002 4279388707
0.023703052 0.0049454099 0.40300003 4280036125
0.025011998 0.0049454099 0.40300003 4280298784
0.026320942 0.0049454099 0.40300003 4280101405
0.027698448 0.0049576815 0.40400001 4279969819
0.029010639 0.0049576815 0.40400001 4282469953
0.030247774 0.0049454099 0.40300003 4282667328
0.031478416 0.0049331384 0.40200001 4282667841
0.032784112 0.0049331384 0.40200001 4281222194
0.034089811 0.0049331384 0.40200001 4279184408
0.035307456 0.0049208668 0.40100002 4279385371
0.036609907 0.0049208668 0.40100002 4278925590
0.037912354 0.0049208668 0.40100002 4278795285
0.039214805 0.0049208668 0.40100002 4278992664
0.040517252 0.0049208668 0.40100002 4278862359
0.041819703 0.0049208668 0.40100002 4278599187
0.04312215 0.0049208668 0.40100002 4278533908
0.044424601 0.0049208668 0.40100002 4278533908
0.045727048 0.0049208668 0.40100002 4278468115
0.047029499 0.0049208668 0.40100002 4278665494
0.04845247 0.0049331384 0.40200001 4278665494
0.049758166 0.0049331384 0.40200001 4278600214
0.051063862 0.0049331384 0.40200001 4278600214
0.052369561 0.0049331384 0.40200001 4278468628
0.053808782 0.0049454099 0.40300003 4278795798
0.055117723 0.0049454099 0.40300003 4278198787
0.05642667 0.0049454099 0.40300003 4278992664
0.057878878 0.0049576815 0.40400001 4278200836
0.05933759 0.0049699531 0.40500003 4278327302
0.060802784 0.0049822242 0.40600002 4278392582
0.062274482 0.0049944958 0.40700001 4278523400
0.063908935 0.0050190389 0.40900001 4278523146
0.065396868 0.0050313105 0.41000003 4278785804
0.066891305 0.0050435816 0.41100001 4278654218
0.068392232 0.0050558536 0.41200003 4278654218
0.069899656 0.0050681247 0.41300002 4278720011
0.071413584 0.0050803963 0.41400003 4278262281
0.072933994 0.0050926679 0.41500002 4279516957
0.074460909 0.005104939 0.41600001 4278795287
0.07599432 0.005117211 0.41700003 4278663701
0.077534221 0.0051294821 0.41800001 4278991642
0.079080626 0.0051417537 0.41900003 4278794265
0.080633521 0.0051540253 0.42000002 4278267921
0.08219292 0.0051662968 0.42100003 4279386400
0.083758809 0.0051785684 0.42200002 4278199296
0.085331187 0.0051908395 0.42300001 4278333453
0.086910069 0.0052031111 0.42400002 4278794517
0.088495448 0.0052153827 0.42500001 4278794515
0.090087324 0.0052276542 0.42600003 4278465550
0.091470972 0.0052276542 0.42600003 4278399759
0.093072586 0.0052399258 0.42700002 4278793750
0.094459489 0.0052399258 0.42700002 4278333712
0.096070848 0.0052521974 0.42800003 4278201094
0.097460993 0.0052521974 0.42800003 4278927386
0.098851144 0.0052521974 0.42800003 4278200586
0.10024128 0.0052521974 0.42800003 4279255068
0.10186888 0.0052644685 0.42900002 4278862361
0.10326228 0.0052644685 0.42900002 4278928154
0.10465567 0.0052644685 0.42900002 4279125533
0.10629626 0.0052767401 0.43000001 4279190556
0.023644235 0.0062392773 0.40200001 4280036639
0.024949932 0.0062392773 0.40200001 4279969819
0.026255628 0.0062392773 0.40200001 4280034840
0.027561326 0.0062392773 0.40200001 4280101405
0.028867021 0.0062392773 0.40200001 4281614642
0.030322831 0.0062703188 0.40400001 4282339130
0.031478416 0.0062392773 0.40200001 4282931779
0.032784112 0.0062392773 0.40200001 4279906586
0.034089811 0.0062392773 0.40200001 4279513371
0.035395507 0.0062392773 0.40200001 4279122199
0.036609907 0.0062237573 0.40100002 4278925590
0.037912354 0.0062237573 0.40100002 4278729492
0.039214805 0.0062237573 0.40100002 4278795796
0.040517252 0.0062237573 0.40100002 4278928152
0.041819703 0.0062237573 0.40100002 4278731287
0.04312215 0.0062237573 0.40100002 4278665494
0.044424601 0.0062237573 0.40100002 4278731287
0.045841079 0.0062392773 0.40200001 4278533908
0.047146775 0.0062392773 0.40200001 4278731287
0.04845247 0.0062392773 0.40200001 4278402835
0.049758166 0.0062392773 0.40200001 4278468628
0.051063862 0.0062392773 0.40200001 4278666007
0.052499834 0.0062547983 0.40300003 4278402835
0.053808782 0.0062547983 0.40300003 4279846692
0.055117723 0.0062547983 0.40300003 4278723855
0.056566685 0.0062703188 0.40400001 4279320861
0.057878878 0.0062703188 0.40400001 4278199045
0.05933759 0.0062858397 0.40500003 4279116305
0.060802784 0.0063013597 0.40600002 4278654986
0.062274482 0.0063168802 0.40700001 4279049744
0.063908935 0.0063479217 0.40900001 4279774237
0.065396868 0.0063634426 0.41000003 4279840543
0.066891305 0.0063789627 0.41100001 4279840543
0.068392232 0.0063944836 0.41200003 4279051025
0.069899656 0.0064100041 0.41300002 4279774235
0.071413584 0.0064255251 0.41400003 4278723341
0.072933994 0.0064410456 0.41500002 4279122199
0.074460909 0.0064565656 0.41600001 4278199815
0.07599432 0.0064720865 0.41700003 4278197765
0.077534221 0.006487607 0.41800001 4279450146
0.079080626 0.006503128 0.41900003 4278727705
0.080633521 0.006518648 0.42000002 4278991131
0.081997685 0.006518648 0.42000002 4278398224
0.083560333 0.006534169 0.42100003 4279386139
0.085129462 0.0065496895 0.42200002 4278199554
0.086705089 0.0065652099 0.42300001 4278199044
0.088287227 0.0065807309 0.42400002 4278200074
0.089875855 0.0065962509 0.42500001 4278331917
0.091470972 0.0066117719 0.42600003 4279517473
0.093072586 0.0066272924 0.42700002 4278200586
0.094459489 0.0066272924 0.42700002 4278595087
0.096070848 0.0066428133 0.42800003 4278199559
0.097460993 0.0066428133 0.42800003 4278860826
0.098851144 0.0066428133 0.42800003 4278199556
0.10024128 0.0066428133 0.42800003 4279058459
0.10186888 0.0066583334 0.42900002 4278796568
0.10326228 0.0066583334 0.42900002 4278928154
0.10489962 0.0066738538 0.43000001 4279257119
0.10629626 0.0066738538 0.43000001 4278597908
0.024949932 0.0075454167 0.40200001 4280298014
0.026190316 0.0075266473 0.40100002 4280100635
0.027492767 0.0075266473 0.40100002 4280034840
0.028795214 0.0075266473 0.40100002 4282602048
0.030322831 0.007582956 0.40400001 4282602816
0.031478416 0.0075454167 0.40200001 4282931781
0.032784112 0.0075454167 0.40200001 4278920720
0.034089811 0.0075454167 0.40200001 4279448602
0.035395507 0.0075454167 0.40200001 4279319324
0.036701199 0.0075454167 0.40200001 4278859543
0.038006898 0.0075454167 0.40200001 4278861078
0.039312594 0.0075454167 0.40200001 4278927384
0.040618293 0.0075454167 0.40200001 4278928152
0.041923989 0.0075454167 0.40200001 4278533908
0.043229684 0.0075454167 0.40200001 4278533908
0.044535384 0.0075454167 0.40200001 4278665494
0.045841079 0.0075454167 0.40200001 4278665494
0.047146775 0.0075454167 0.40200001 4278862873
0.04845247 0.0075454167 0.40200001 4278468628
0.049881946 0.0075641866 0.40300003 4278468628
0.05119089 0.0075641866 0.40300003 4278600468
0.052499834 0.0075641866 0.40300003 4278665494
0.053808782 0.0075641866 0.40300003 4278200843
0.055254489 0.007582956 0.40400001 4279713055
0.056566685 0.007582956 0.40400001 4279451162
0.058022145 0.0076017259 0.40500003 4278196994
0.059484098 0.0076204957 0.40600002 4279445783
0.06095254 0.0076392652 0.40700001 4278919439
0.062427491 0.007658035 0.40800002 4279578141
0.063908935 0.0076768044 0.40900001 4278195717
0.065396868 0.0076955743 0.41000003 4278986004
0.066891305 0.0077143437 0.41100001 4278196234
0.068392232 0.0077331141 0.41200003 4279118101
0.069899656 0.0077518835 0.41300002 4278262792
0.071413584 0.0077706533 0.41400003 4279185943
0.072933994 0.0077894228 0.41500002 4279319578
0.074460909 0.0078081922 0.41600001 4278328072
0.075812072 0.0078081922 0.41600001 4278590476
0.077348739 0.0078269625 0.41700003 4278922519
0.078891888 0.0078457315 0.41800001 4278990107
0.080441535 0.0078645013 0.41900003 4278464017
0.081997685 0.0078832712 0.42000002 4278199303
0.083560333 0.0079020411 0.42100003 4278267406
0.085129462 0.007920811 0.42200002 4278925336
0.086705089 0.0079395799 0.42300001 4278198787
0.088287227 0.0079583498 0.42400002 4278200843
0.089875855 0.0079771196 0.42500001 4279318812
0.091470972 0.0079958895 0.42600003 4278397708
0.093072586 0.0080146594 0.42700002 4279187224
0.094459489 0.0080146594 0.42700002 4278792466
0.095846377 0.0080146594 0.42700002 4279386400
0.097460993 0.0080334293 0.42800003 4279254814
0.098851144 0.0080334293 0.42800003 4279189275
0.10024128 0.0080334293 0.42800003 4279058459
0.10186888 0.0080521982 0.42900002 4278862363
0.10326228 0.0080521982 0.42900002 4279257121
0.10489962 0.0080709681 0.43000001 4279979307
0.10629626 0.0080709681 0.43000001 4283791971
0.022338537 0.0088515552 0.40200001 4283524951
0.023644235 0.0088515552 0.40200001 4280168225
0.024949932 0.0088515552 0.40200001 4280034842
0.026190316 0.0088295368 0.40100002 4280363294
0.027492767 0.0088295368 0.40100002 4280167198
0.028795214 0.0088295368 0.40100002 4282667843
0.030322831 0.0088955928 0.40400001 4282537023
0.031478416 0.0088515552 0.40200001 4283195723
0.032784112 0.0088515552 0.40200001 4279251223
0.034089811 0.0088515552 0.40200001 4279253017
0.035395507 0.0088515552 0.40200001 4278991896
0.036701199 0.0088515552 0.40200001 4278991896
0.038006898 0.0088515552 0.40200001 4278203406
0.039312594 0.0088515552 0.40200001 4278862361
0.040618293 0.0088515552 0.40200001 4278797080
0.041923989 0.0088515552 0.40200001 4278665494
0.043229684 0.0088515552 0.40200001 4278533908
0.044535384 0.0088515552 0.40200001 4278665494
0.045841079 0.0088515552 0.40200001 4278533908
0.047146775 0.0088515552 0.40200001 4278731287
0.048573002 0.0088735744 0.40300003 4278468628
0.049881946 0.0088735744 0.40300003 4278468628
0.05119089 0.0088735744 0.40300003 4278600214
0.052499834 0.0088735744 0.40300003 4278666007
0.0539423 0.0088955928 0.40400001 4278196736
0.055254489 0.0088955928 0.40400001 4279844641
0.056706704 0.008917612 0.40500003 4280437545
0.058022145 0.008917612 0.40500003 4278524679
0.059484098 0.0089396304 0.40600002 4278721547
0.06095254 0.0089616496 0.40700001 4279249174
0.062427491 0.0089836689 0.40800002 4278920209
0.063908935 0.0090056872 0.40900001 4278262281
0.065396868 0.0090277065 0.41000003 4278458890
0.066891305 0.0090497248 0.41100001 4278524683
0.068392232 0.009071744 0.41200003 4278195717
0.069899656 0.0090937624 0.41300002 4278196488
0.071413584 0.0091157816 0.41400003 4279581982
0.072933994 0.0091378 0.41500002 4279319578
0.074281923 0.0091378 0.41500002 4278524683
0.075812072 0.0091598183 0.41600001 4278919439
0.077348739 0.0091818376 0.41700003 4279188510
0.078891888 0.0092038559 0.41800001 4279254814
0.080441535 0.0092258751 0.41900003 4278860310
0.081997685 0.0092478935 0.42000002 4279189275
0.083361842 0.0092478935 0.42000002 4279451934
0.08492773 0.0092699127 0.42100003 4279451934
0.086705089 0.0093139503 0.42300001 4279254553
0.088287227 0.0093359696 0.42400002 4279451932
0.089875855 0.0093579879 0.42500001 4278925590
0.091470972 0.0093800072 0.42600003 4278464015
0.092854619 0.0093800072 0.42600003 4278397708
0.094459489 0.0094020255 0.42700002 4278199044
0.095846377 0.0094020255 0.42700002 4278195712
0.097460993 0.0094240448 0.42800003 4278196480
0.098851144 0.0094240448 0.42800003 4278860826
0.10024128 0.0094240448 0.42800003 4279124765
0.10186888 0.0094460631 0.42900002 4278928156
0.10326228 0.0094460631 0.42900002 4279059742
0.10489962 0.0094680814 0.43000001 4279647010
0.024949932 0.010157694 0.40200001 4285367151
0.026255628 0.010157694 0.40200001 4280101916
0.027561326 0.010157694 0.40200001 4281154093
0.028938832 0.010182963 0.40300003 4282602052
0.030322831 0.01020823 0.40400001 4282472000
0.031478416 0.010157694 0.40200001 4282275904
0.032784112 0.010157694 0.40200001 4279055125
0.034089811 0.010157694 0.40200001 4279319064
0.035395507 0.010157694 0.40200001 4278861080
0.036701199 0.010157694 0.40200001 4278334736
0.038006898 0.010157694 0.40200001 4278927384
0.039312594 0.010157694 0.40200001 4278862359
0.040618293 0.010157694 0.40200001 4278862359
0.041923989 0.010157694 0.40200001 4278468115
0.043229684 0.010157694 0.40200001 4278600214
0.044535384 0.010157694 0.40200001 4278666007
0.045841079 0.010157694 0.40200001 4278666007
0.047264058 0.010182963 0.40300003 4278666007
0.048573002 0.010182963 0.40300003 4278665496
0.049881946 0.010182963 0.40300003 4278665496
0.05119089 0.010182963 0.40300003 4278533910
0.052630108 0.01020823 0.40400001 4278468117
0.0539423 0.01020823 0.40400001 4278198281
0.055254489 0.01020823 0.40400001 4278922517
0.056706704 0.010233498 0.40500003 4279515678
0.058022145 0.010233498 0.40500003 4278524168
0.059484098 0.010258766 0.40600002 4278720265
0.06095254 0.010284034 0.40700001 4278720265
0.062427491 0.010309302 0.40800002 4278720265
0.063908935 0.010334569 0.40900001 4278785804
0.065396868 0.010359838 0.41000003 4278785804
0.066891305 0.010385105 0.41100001 4278588939
0.068392232 0.010410374 0.41200003 4278588939
0.069899656 0.010435641 0.41300002 4278194951
0.071413584 0.010460909 0.41400003 4278858261
0.072933994 0.010486177 0.41500002 4278199046
0.074281923 0.010486177 0.41500002 4278197510
0.075812072 0.010511445 0.41600001 4278195712
0.077348739 0.010536713 0.41700003 4278196481
0.078891888 0.01056198 0.41800001 4278195968
0.080441535 0.010587249 0.41900003 4278195968
0.08180245 0.010587249 0.41900003 4278198017
0.083361842 0.010612517 0.42000002 4278199559
0.08492773 0.010637784 0.42100003 4278857746
0.086500116 0.010663052 0.42200002 4279252504
0.088078998 0.01068832 0.42300001 4279713055
0.089664385 0.010713588 0.42400002 4279384090
0.091256246 0.010738856 0.42500001 4279778850
0.092854619 0.010764124 0.42600003 4279515678
0.094459489 0.010789392 0.42700002 4279647777
0.095846377 0.010789392 0.42700002 4279648289
0.097460993 0.01081466 0.42800003 4279385887
0.098851144 0.01081466 0.42800003 4279452963
0.10024128 0.01081466 0.42800003 4279123998
0.10186888 0.010839928 0.42900002 4279058205
0.10326228 0.010839928 0.42900002 4279056152
0.027561326 0.011463834 0.40200001 4284972395
0.028938832 0.011492351 0.40300003 4280102432
0.030247774 0.011492351 0.40300003 4282340673
0.031556722 0.011492351 0.40300003 4280105248
0.032865666 0.011492351 0.40300003 4279318299
0.034089811 0.011463834 0.40200001 4279188508
0.035395507 0.011463834 0.40200001 4279189275
0.036701199 0.011463834 0.40200001 4278861078
0.038006898 0.011463834 0.40200001 4278993177
0.039312594 0.011463834 0.40200001 4278928154
0.040618293 0.011463834 0.40200001 4278862613
0.041923989 0.011463834 0.40200001 4278796820
0.043229684 0.011463834 0.40200001 4278732054
0.044535384 0.011463834 0.40200001 4278666007
0.045955114 0.011492351 0.40300003 4278731800
0.047264058 0.011492351 0.40300003 4278666009
0.048573002 0.011492351 0.40300003 4278600216
0.049881946 0.011492351 0.40300003 4278666009
0.051317912 0.011520868 0.40400001 4278665496
0.052630108 0.011520868 0.40400001 4278928154
0.0539423 0.011520868 0.40400001 4278924566
0.055391259 0.011549385 0.40500003 4279319324
0.056706704 0.011549385 0.40500003 4279450398
0.058022145 0.011549385 0.40500003 4278196740
0.059484098 0.011577902 0.40600002 4278524681
0.06095254 0.011606419 0.40700001 4278459658
0.062427491 0.011634936 0.40800002 4279249174
0.063908935 0.011663453 0.40900001 4279315480
0.065396868 0.01169197 0.41000003 4279710752
0.066891305 0.011720487 0.41100001 4279777313
0.068392232 0.011749004 0.41200003 4280304424
0.069899656 0.011777521 0.41300002 4280042020
0.071413584 0.011806038 0.41400003 4279121945
0.072758257 0.011806038 0.41400003 4279714852
0.074281923 0.011834555 0.41500002 4278991642
0.075812072 0.011863071 0.41600001 4278991642
0.077348739 0.01189159 0.41700003 4279451680
0.078891888 0.011920106 0.41800001 4278925849
0.080249548 0.011920106 0.41800001 4278926103
0.08180245 0.011948623 0.41900003 4279189275
0.083361842 0.01197714 0.42000002 4279189273
0.08492773 0.012005657 0.42100003 4279320859
0.086500116 0.012034174 0.42200002 4279123480
0.088078998 0.01206269 0.42300001 4279320859
0.089664385 0.012091208 0.42400002 4279452447
0.091256246 0.012119724 0.42500001 4279320861
0.092854619 0.012148242 0.42600003 4279452447
0.094459489 0.012176759 0.42700002 4279649826
0.095846377 0.012176759 0.42700002 4279451934
0.097460993 0.012205277 0.42800003 4279846692
0.098851144 0.012205277 0.42800003 4279385117
0.10024128 0.012205277 0.42800003 4279976488
0.10186888 0.012233793 0.42900002 4283330135
0.10326228 0.012233793 0.42900002 4286157439
0.030247774 0.012801739 0.40300003 4279708957
0.031556722 0.012801739 0.40300003 4279446553
0.032865666 0.012801739 0.40300003 4279187226
0.03417461 0.012801739 0.40300003 4279056922
0.035483554 0.012801739 0.40300003 4279123482
0.036792498 0.012801739 0.40300003 4278861078
0.038101446 0.012801739 0.40300003 4278993177
0.039312594 0.012769973 0.40200001 4278993947
0.040618293 0.012769973 0.40200001 4278928152
0.041923989 0.012769973 0.40200001 4278665494
0.043337222 0.012801739 0.40300003 4278665494
0.04464617 0.012801739 0.40300003 4278666007
0.045955114 0.012801739 0.40300003 4278731800
0.047264058 0.012801739 0.40300003 4278666007
0.048573002 0.012801739 0.40300003 4278797593
0.049881946 0.012801739 0.40300003 4278731800
0.051317912 0.012833506 0.40400001 4278862873
0.052630108 0.012833506 0.40400001 4278201862
0.0539423 0.012833506 0.40400001 4278398992
0.055391259 0.012865272 0.40500003 4279320607
0.056706704 0.012865272 0.40500003 4279190045
0.058022145 0.012865272 0.40500003 4279190045
0.059484098 0.012897038 0.40600002 4279189275
0.06095254 0.012928803 0.40700001 4279189275
0.062427491 0.01296057 0.40800002 4279649826
0.063908935 0.012992335 0.40900001 4279320861
0.065396868 0.013024103 0.41000003 4279058205
0.066891305 0.013055868 0.41100001 4279058205
0.068392232 0.013087635 0.41200003 4279124252
0.069730408 0.013087635 0.41200003 4278992666
0.071241081 0.0131194 0.41300002 4278993179
0.072758257 0.013151167 0.41400003 4279058972
0.074281923 0.013182933 0.41500002 4278993179
0.075812072 0.013214699 0.41600001 4278993179
0.077348739 0.013246465 0.41700003 4279124765
0.078703158 0.013246465 0.41700003 4279124765
0.080249548 0.013278231 0.41800001 4279124765
0.08180245 0.013309998 0.41900003 4279190556
0.083361842 0.013341763 0.42000002 4279321629
0.08492773 0.01337353 0.42100003 4279584801
0.086500116 0.013405296 0.42200002 4279649826
0.088078998 0.013437062 0.42300001 4279189275
0.089664385 0.013468828 0.42400002 4279451164
0.091256246 0.013500594 0.42500001 4280042535
0.092854619 0.01353236 0.42600003 4279910949
0.094459489 0.013564126 0.42700002 4282541902
0.095846377 0.013564126 0.42700002 4284580204
0.097460993 0.013595892 0.42800003 4286026882
0.098851144 0.013595892 0.42800003 4285697915
0.10024128 0.013595892 0.42800003 4285697401
0.031556722 0.014111128 0.40300003 4282079302
0.032865666 0.014111128 0.40300003 4278790933
0.03417461 0.014111128 0.40300003 4279318812
0.035483554 0.014111128 0.40300003 4278991896
0.036792498 0.014111128 0.40300003 4279189273
0.038101446 0.014111128 0.40300003 4279190041
0.03941039 0.014111128 0.40300003 4278927382
0.040719334 0.014111128 0.40300003 4278862873
0.042028278 0.014111128 0.40300003 4278731800
0.043337222 0.014111128 0.40300003 4278731800
0.04464617 0.014111128 0.40300003 4278731800
0.045955114 0.014111128 0.40300003 4278863386
0.047264058 0.014111128 0.40300003 4279258144
0.048573002 0.014111128 0.40300003 4278731800
0.049881946 0.014111128 0.40300003 4278929179
0.051317912 0.014146143 0.40400001 4278863388
0.052630108 0.014146143 0.40400001 4279257633
0.0539423 0.014146143 0.40400001 4279256351
0.055391259 0.014181159 0.40500003 4279256351
0.056706704 0.014181159 0.40500003 4279190556
0.058022145 0.014181159 0.40500003 4279256349
0.059484098 0.014216173 0.40600002 4279190556
0.06095254 0.014251187 0.40700001 4279256349
0.062427491 0.014286203 0.40800002 4279190556
0.063908935 0.014321218 0.40900001 4279387935
0.065237358 0.014321218 0.40900001 4279519521
0.066728555 0.014356234 0.41000003 4279387935
0.068226233 0.014391249 0.41100001 4279256349
0.069730408 0.014426265 0.41200003 4279453728
0.071241081 0.01446128 0.41300002 4279257119
0.072758257 0.014496296 0.41400003 4279387935
0.074281923 0.01453131 0.41500002 4279519521
0.075812072 0.014566325 0.41600001 4279453728
0.077163242 0.014566325 0.41600001 4279585316
0.078703158 0.014601341 0.41700003 4279124252
0.080249548 0.014636355 0.41800001 4279188508
0.08180245 0.014671371 0.41900003 4279187738
0.083163366 0.014671371 0.41900003 4280896048
0.084725998 0.014706386 0.42000002 4282672205
0.086295143 0.014741402 0.42100003 4285172341
0.088078998 0.014811431 0.42300001 4286355845
0.089664385 0.014846447 0.42400002 4286816396
0.035483554 0.015420516 0.40300003 4278857748
0.036792498 0.015420516 0.40300003 4279320094
0.038101446 0.015420516 0.40300003 4279320857
0.03941039 0.015420516 0.40300003 4279321627
0.040719334 0.015420516 0.40300003 4278994459
0.042028278 0.015420516 0.40300003 4278994459
0.043337222 0.015420516 0.40300003 4278928666
0.04464617 0.015420516 0.40300003 4279191838
0.045955114 0.015420516 0.40300003 4279191838
0.047264058 0.015420516 0.40300003 4279126045
0.048573002 0.015420516 0.40300003 4279126045
0.049881946 0.015420516 0.40300003 4279191838
0.051317912 0.015458779 0.40400001 4279322910
0.052630108 0.015458779 0.40400001 4279322910
0.0539423 0.015458779 0.40400001 4279387935
0.055254489 0.015458779 0.40400001 4279387935
0.056706704 0.015497045 0.40500003 4279453730
0.058022145 0.015497045 0.40500003 4279453730
0.059484098 0.015535308 0.40600002 4279453476
0.06095254 0.015573572 0.40700001 4279519269
0.062427491 0.015611837 0.40800002 4279321377
0.063752681 0.015611837 0.40800002 4279189021
0.065237358 0.015650101 0.40900001 4279188508
0.066728555 0.015688365 0.41000003 4279320094
0.068226233 0.01572663 0.41100001 4279582498
0.069730408 0.015764894 0.41200003 4279516705
0.071241081 0.015803158 0.41300002 4280371500
0.072758257 0.015841423 0.41400003 4281160249
0.074281923 0.015879687 0.41500002 4283068246
0.075629838 0.015879687 0.41500002 4284580715
0.077163242 0.015917951 0.41600001 4285896062
0.078703158 0.015956216 0.41700003 4286224259
0.080249548 0.01599448 0.41800001 4286092673
0.081607215 0.01599448 0.41800001 4285763708
0.083163366 0.016032744 0.41900003 4285763710
0.084725998 0.016071009 0.42000002 4285763710
0.038101446 0.016729904 0.40300003 4280435756
0.03941039 0.016729904 0.40300003 4279252506
0.040719334 0.016729904 0.40300003 4279452193
0.042028278 0.016729904 0.40300003 4279255584
0.043337222 0.016729904 0.40300003 4279124252
0.04464617 0.016729904 0.40300003 4279716389
0.045955114 0.016729904 0.40300003 4279584033
0.047264058 0.016729904 0.40300003 4279255068
0.048573002 0.016729904 0.40300003 4279385371
0.049881946 0.016729904 0.40300003 4279779875
0.051317912 0.016771417 0.40400001 4279779623
0.052630108 0.016771417 0.40400001 4280503348
0.0539423 0.016771417 0.40400001 4281423936
0.055254489 0.016771417 0.40400001 4282279247
0.056706704 0.01681293 0.40500003 4283660898
0.058022145 0.01681293 0.40500003 4284582000
0.059484098 0.016854443 0.40600002 4285371001
0.06095254 0.016895955 0.40700001 4285831552
0.062427491 0.01693747 0.40800002 4286028933
0.063752681 0.01693747 0.40800002 4286161032
0.065237358 0.016978983 0.40900001 4286226314
0.066728555 0.017020497 0.41000003 4285896577
0.068226233 0.01706201 0.41100001 4285830271
0.069730408 0.017103525 0.41200003 4285764478
0.071241081 0.017145038 0.41300002 4286225029
0.072582506 0.017145038 0.41300002 4285830271
0.074281923 0.017228065 0.41500002 4285830273
0.075629838 0.017228065 0.41500002 4285896066
0.077163242 0.017269578 0.41600001 4285961089
0.078703158 0.017311091 0.41700003 4285961089
0.080249548 0.017352603 0.41800001 4285961089
0.081607215 0.017352603 0.41800001 4285961089
0.083163366 0.017394118 0.41900003 4285960835
0.084725998 0.017435631 0.42000002 4285960835
0.060867786 0.007359148 0.4111267 4294967295
0.060867786 0.007359148 0.4111267 4294901760
0.060867786 0.007359148 0.4116267 4294901760
0.060867786 0.007359148 0.41212669 4294901760
0.060867786 0.007359148 0.41262671 4294901760
0.060867786 0.007359148 0.41312671 4294901760
0.060867786 0.007359148 0.4136267 4294901760
0.060867786 0.007359148 0.41412669 4294901760
0.060867786 0.007359148 0.41462672 4294901760
0.060867786 0.007359148 0.41512671 4294901760
0.060867786 0.007359148 0.4156267 4294901760
0.060867786 0.007359148 0.4161267 4294901760
0.060867786 0.007359148 0.41662669 4294901760
0.060867786 0.007359148 0.41712672 4294901760
0.060867786 0.007359148 0.41762671 4294901760
0.060867786 0.007359148 0.4181267 4294901760
0.060867786 0.007359148 0.4186267 4294901760
0.060867786 0.007359148 0.41912669 4294901760
0.060867786 0.007359148 0.41962671 4294901760
0.060867786 0.007359148 0.42012671 4294901760
0.060867786 0.007359148 0.4206267 4294901760
0.060867786 0.007359148 0.42112669 4294901760
0.060867786 0.007359148 0.42162672 4294901760
0.060867786 0.007359148 0.42212671 4294901760
0.060867786 0.007359148 0.4226267 4294901760
0.060867786 0.007359148 0.4231267 4294901760
0.060867786 0.007359148 0.42362672 4294901760
0.060867786 0.007359148 0.42412671 4294901760
0.060867786 0.007359148 0.42462671 4294901760
0.060867786 0.007359148 0.4251267 4294901760
0.060867786 0.007359148 0.4256267 4294901760
0.060867786 0.007359148 0.42612672 4294901760
0.060867786 0.007359148 0.42662671 4294901760
0.060867786 0.007359148 0.42712671 4294901760
0.060867786 0.007359148 0.4276267 4294901760
0.060867786 0.007359148 0.42812669 4294901760
0.060867786 0.007359148 0.42862672 4294901760
0.060867786 0.007359148 0.42912671 4294901760
0.060867786 0.007359148 0.4296267 4294901760
0.060867786 0.007359148 0.4301267 4294901760
0.060867786 0.007359148 0.43062672 4294901760
0.060867786 0.007359148 0.43112671 4294901760
0.060867786 0.007359148 0.43162671 4294901760
0.060867786 0.007359148 0.4321267 4294901760
0.060867786 0.007359148 0.43262672 4294901760
0.060867786 0.007359148 0.43312672 4294901760
0.060867786 0.007359148 0.43362671 4294901760
0.060867786 0.007359148 0.4341267 4294901760
0.060867786 0.007359148 0.4346267 4294901760
0.060867786 0.007359148 0.43512672 4294901760
0.060867786 0.007359148 0.43562672 4294901760
0.060867786 0.007359148 0.43612671 4294901760
0.060867786 0.007359148 0.4366267 4294901760
0.060867786 0.007359148 0.4371267 4294901760
0.060867786 0.007359148 0.43762672 4294901760
0.060867786 0.007359148 0.43812671 4294901760
0.060867786 0.007359148 0.43862671 4294901760
0.060867786 0.007359148 0.4391267 4294901760
0.060867786 0.007359148 0.43962669 4294901760
0.060867786 0.007359148 0.44012672 4294901760
0.060867786 0.007359148 0.44062671 4294901760
0.060867786 0.007359148 0.4411267 4294901760
0.060867786 0.007359148 0.4416267 4294901760
0.060867786 0.007359148 0.44212672 4294901760
0.060867786 0.007359148 0.44262671 4294901760
0.060867786 0.007359148 0.44312671 4294901760
0.060867786 0.007359148 0.4436267 4294901760
0.060867786 0.007359148 0.44412673 4294901760
0.060867786 0.007359148 0.44462672 4294901760
0.060867786 0.007359148 0.44512671 4294901760
0.060867786 0.007359148 0.44562671 4294901760
0.060867786 0.007359148 0.4461267 4294901760
0.060867786 0.007359148 0.44662672 4294901760
0.060867786 0.007359148 0.44712672 4294901760
0.060867786 0.007359148 0.44762671 4294901760
0.060867786 0.007359148 0.4481267 4294901760
0.060867786 0.007359148 0.4486267 4294901760
0.060867786 0.007359148 0.44912672 4294901760
0.060867786 0.007359148 0.44962671 4294901760
0.060867786 0.007359148 0.45012671 4294901760
0.060867786 0.007359148 0.4506267 4294901760
0.060867786 0.007359148 0.45112672 4294901760
0.060867786 0.007359148 0.45162672 4294901760
0.060867786 0.007359148 0.45212671 4294901760
0.060867786 0.007359148 0.45262671 4294901760
0.060867786 0.007359148 0.4531267 4294901760
0.060867786 0.007359148 0.45362672 4294901760
0.060867786 0.007359148 0.45412672 4294901760
0.060867786 0.007359148 0.45462671 4294901760
0.060867786 0.007359148 0.4551267 4294901760
0.060867786 0.007359148 0.45562673 4294901760
0.060867786 0.007359148 0.45612672 4294901760
0.060867786 0.007359148 0.45662671 4294901760
0.060867786 0.007359148 0.45712671 4294901760
0.060867786 0.007359148 0.4576267 4294901760
0.060867786 0.007359148 0.45812672 4294901760
0.060867786 0.007359148 0.45862672 4294901760
0.060867786 0.007359148 0.45912671 4294901760
0.060867786 0.007359148 0.4596267 4294901760
0.060867786 0.007359148 0.46012673 4294901760
0.060867786 0.007359148 0.46062672 4294901760
0.060867786 0.007359148 0.46112671 4294901760
0.060867786 0.007359148 0.4111267 4278255360
0.06062492 0.0074241459 0.4115589 4278255360
0.060382053 0.0074891443 0.41199109 4278255360
0.060139187 0.0075541423 0.41242328 4278255360
0.05989632 0.0076191402 0.41285548 4278255360
0.059653454 0.0076841386 0.41328767 4278255360
0.059410587 0.0077491365 0.41371986 4278255360
0.05916772 0.0078141345 0.41415206 4278255360
0.058924854 0.0078791324 0.41458425 4278255360
0.058681987 0.0079441313 0.41501644 4278255360
0.058439121 0.0080091292 0.41544864 4278255360
0.058196254 0.0080741271 0.41588083 4278255360
0.057953387 0.0081391251 0.41631302 4278255360
0.057710521 0.008204123 0.41674522 4278255360
0.057467654 0.0082691209 0.41717741 4278255360
0.057224788 0.0083341198 0.4176096 4278255360
0.056981921 0.0083991177 0.4180418 4278255360
0.056739055 0.0084641157 0.41847399 4278255360
0.056496188 0.0085291136 0.41890618 4278255360
0.056253321 0.0085941115 0.41933838 4278255360
0.056010455 0.0086591095 0.41977057 4278255360
0.055767588 0.0087241083 0.42020276 4278255360
0.055524722 0.0087891063 0.42063496 4278255360
0.055281855 0.0088541042 0.42106715 4278255360
0.055038989 0.0089191021 0.42149934 4278255360
0.054796122 0.0089841001 0.42193154 4278255360
0.054553255 0.009049098 0.42236373 4278255360
0.054310389 0.0091140969 0.42279592 4278255360
0.054067522 0.0091790948 0.42322811 4278255360
0.053824656 0.0092440927 0.42366031 4278255360
0.053581789 0.0093090907 0.4240925 4278255360
0.053338923 0.0093740886 0.42452469 4278255360
0.053096056 0.0094390865 0.42495689 4278255360
0.052853189 0.0095040854 0.42538908 4278255360
0.052610323 0.0095690833 0.42582127 4278255360
0.052367456 0.0096340813 0.42625347 4278255360
0.05212459 0.0096990792 0.42668566 4278255360
0.051881723 0.0097640771 0.42711785 4278255360
0.051638857 0.009829076 0.42755005 4278255360
0.05139599 0.009894073 0.42798224 4278255360
0.051153123 0.0099590719 0.42841443 4278255360
0.050910257 0.01002407 0.42884663 4278255360
0.05066739 0.010089068 0.42927882 4278255360
0.050424524 0.010154066 0.42971101 4278255360
0.050181657 0.010219064 0.43014321 4278255360
0.049938791 0.010284062 0.4305754 4278255360
0.049695924 0.01034906 0.43100759 4278255360
0.049453057 0.010414058 0.43143979 4278255360
0.049210191 0.010479056 0.43187198 4278255360
0.048967324 0.010544054 0.43230417 4278255360
0.048724458 0.010609053 0.43273637 4278255360
0.048481591 0.01067405 0.43316856 4278255360
0.048238724 0.010739049 0.43360075 4278255360
0.047995858 0.010804047 0.43403295 4278255360
0.047752991 0.010869045 0.43446514 4278255360
0.047510125 0.010934044 0.43489733 4278255360
0.047267258 0.010999041 0.43532953 4278255360
0.047024392 0.01106404 0.43576172 4278255360
0.046781525 0.011129037 0.43619391 4278255360
0.046538658 0.011194035 0.43662611 4278255360
0.046295792 0.011259033 0.4370583 4278255360
0.046052925 0.011324031 0.43749049 4278255360
0.045810059 0.01138903 0.43792269 4278255360
0.045567192 0.011454027 0.43835488 4278255360
0.045324326 0.011519026 0.43878707 4278255360
0.045081459 0.011584024 0.43921927 4278255360
0.044838592 0.011649022 0.43965146 4278255360
0.044595726 0.011714021 0.44008365 4278255360
0.044352859 0.011779018 0.44051585 4278255360
0.044109993 0.011844017 0.44094804 4278255360
0.043867126 0.011909015 0.44138023 4278255360
0.04362426 0.011974012 0.44181243 4278255360
0.043381393 0.012039011 0.44224462 4278255360
0.043138526 0.012104008 0.44267681 4278255360
0.04289566 0.012169007 0.44310901 4278255360
0.042652793 0.012234005 0.4435412 4278255360
0.042409927 0.012299003 0.44397339 4278255360
0.04216706 0.012364001 0.44440559 4278255360
0.041924194 0.012428999 0.44483778 4278255360
0.041681327 0.012493998 0.44526997 4278255360
0.04143846 0.012558995 0.44570217 4278255360
0.041195594 0.012623994 0.44613436 4278255360
0.040952727 0.012688992 0.44656655 4278255360
0.040709861 0.01275399 0.44699875 4278255360
0.040466994 0.012818987 0.44743094 4278255360
0.040224127 0.012883985 0.44786313 4278255360
0.039981261 0.012948984 0.44829533 4278255360
0.039738394 0.013013982 0.44872752 4278255360
0.039495528 0.01307898 0.44915971 4278255360
0.039252661 0.013143978 0.4495919 4278255360
0.039009795 0.013208976 0.4500241 4278255360
0.038766928 0.013273975 0.45045629 4278255360
0.038524061 0.013338973 0.45088848 4278255360
0.038281195 0.013403971 0.45132068 4278255360
0.038038328 0.013468969 0.45175287 4278255360
0.037795462 0.013533967 0.45218506 4278255360
0.037552595 0.013598965 0.45261726 4278255360
0.037309729 0.013663962 0.45304945 4278255360
0.037066862 0.013728961 0.45348164 4278255360
0.036823995 0.013793959 0.45391384 4278255360
0.036581129 0.013858957 0.45434603 4278255360
