# .PCD v0.7 - Point Cloud Data file format
VERSION 0.7
FIELDS x y z rgb
SIZE 4 4 4 4
TYPE F F F U
COUNT 1 1 1 1
WIDTH 1052
HEIGHT 1
VIEWPOINT 0 0 0 1 0 0 0
POINTS 1052
DATA ascii
0.064148679 0.011181668 0.35200003 4280036385
0.065291978 0.011181668 0.35200003 4279314969
0.066246539 0.011149902 0.35100001 4279776029
0.067386582 0.011149902 0.35100001 4278530578
0.068526633 0.011149902 0.35100001 4278530578
0.069666684 0.011149902 0.35100001 4278398992
0.070806727 0.011149902 0.35100001 4278859543
0.071741804 0.011118136 0.35000002 4279778859
0.096155822 0.011594627 0.36500001 4285367405
0.097341344 0.011594627 0.36500001 4285103979
0.098526873 0.011594627 0.36500001 4284512612
0.099439196 0.011562862 0.36400002 4283459924
0.10062148 0.011562862 0.36400002 4282868041
0.10180375 0.011562862 0.36400002 4282144318
0.10298602 0.011562862 0.36400002 4280762924
0.10388211 0.011531095 0.36300001 4280499754
0.10506114 0.011531095 0.36300001 4279710750
0.10624015 0.011531095 0.36300001 4279842590
0.10741919 0.011531095 0.36300001 4280039969
0.10859821 0.011531095 0.36300001 4279579418
0.10977723 0.011531095 0.36300001 4279973662
0.11095626 0.011531095 0.36300001 4280171041
0.11213529 0.011531095 0.36300001 4279841822
0.13125119 0.01165816 0.36700001 4279382809
0.1324432 0.01165816 0.36700001 4279448602
0.13363522 0.01165816 0.36700001 4279514395
0.13482724 0.01165816 0.36700001 4279053842
0.13601926 0.01165816 0.36700001 4279382807
0.13721128 0.01165816 0.36700001 4279317014
0.13802618 0.011626394 0.36600003 4279317527
0.13921493 0.011626394 0.36600003 4279317529
0.1404037 0.011626394 0.36600003 4279383322
0.14159247 0.011626394 0.36600003 4279383320
0.14278124 0.011626394 0.36600003 4279185941
0.14397001 0.011626394 0.36600003 4279317527
0.14515878 0.011626394 0.36600003 4279317527
0.039217725 0.012395382 0.354 4280695087
0.04151731 0.012395382 0.354 4280629805
0.042667102 0.012395382 0.354 4280694315
0.043816894 0.012395382 0.354 4284313954
0.044966683 0.012395382 0.354 4284313952
0.062213577 0.012395382 0.354 4279970844
0.063184381 0.012360367 0.35300002 4279971362
0.064148679 0.012325352 0.35200003 4279511065
0.065291978 0.012325352 0.35200003 4279184408
0.066246539 0.012290337 0.35100001 4279383322
0.067386582 0.012290337 0.35100001 4278727957
0.068526633 0.012290337 0.35100001 4278530578
0.069666684 0.012290337 0.35100001 4278727957
0.070806727 0.012290337 0.35100001 4278530578
0.071946777 0.012290337 0.35100001 4278924314
0.073086828 0.012290337 0.35100001 4279384867
0.093784779 0.012780549 0.36500001 4279711772
0.094970301 0.012780549 0.36500001 4279645209
0.096155822 0.012780549 0.36500001 4280105500
0.097341344 0.012780549 0.36500001 4279776535
0.098256938 0.012745535 0.36400002 4279842588
0.099439196 0.012745535 0.36400002 4279580186
0.10062148 0.012745535 0.36400002 4279580186
0.10180375 0.012745535 0.36400002 4279711772
0.10270309 0.012710519 0.36300001 4279514906
0.10388211 0.012710519 0.36300001 4279251734
0.10506114 0.012710519 0.36300001 4279778078
0.10624015 0.012710519 0.36300001 4279251734
0.10741919 0.012710519 0.36300001 4279252504
0.10859821 0.012710519 0.36300001 4279055125
0.10977723 0.012710519 0.36300001 4279120918
0.11095626 0.012710519 0.36300001 4279120920
0.11213529 0.012710519 0.36300001 4278792468
0.11331432 0.012710519 0.36300001 4278726675
0.11449333 0.012710519 0.36300001 4278858261
0.11599102 0.012745535 0.36400002 4278923539
0.11717329 0.012745535 0.36400002 4278923539
0.11835556 0.012745535 0.36400002 4278791953
0.12682776 0.012885596 0.36800003 4278726160
0.12802303 0.012885596 0.36800003 4278923539
0.12886716 0.01285058 0.36700001 4278791953
0.13005918 0.01285058 0.36700001 4278726160
0.13125119 0.01285058 0.36700001 4278923539
0.1324432 0.01285058 0.36700001 4278923539
0.13363522 0.01285058 0.36700001 4278791953
0.13482724 0.01285058 0.36700001 4278857746
0.13601926 0.01285058 0.36700001 4278923539
0.13683741 0.012815565 0.36600003 4278660880
0.13802618 0.012815565 0.36600003 4278792466
0.13921493 0.012815565 0.36600003 4278858259
0.1404037 0.012815565 0.36600003 4278792466
0.14159247 0.012815565 0.36600003 4278990099
0.14278124 0.012815565 0.36600003 4279055892
0.14397001 0.012815565 0.36600003 4278990099
0.14476217 0.012780549 0.36500001 4279055125
0.14594768 0.012780549 0.36500001 4278923539
0.14673011 0.012745535 0.36400002 4279187224
0.063443795 0.013813416 0.36100003 4280562979
0.063005388 0.013469037 0.35200003 4279906334
0.064148679 0.013469037 0.35200003 4279314967
0.065291978 0.013469037 0.35200003 4278856726
0.066435277 0.013469037 0.35200003 4278857748
0.067386582 0.013430771 0.35100001 4279779361
0.068526633 0.013430771 0.35100001 4278727187
0.069666684 0.013430771 0.35100001 4278860056
0.070806727 0.013430771 0.35100001 4278991642
0.071946777 0.013430771 0.35100001 4278662677
0.073086828 0.013430771 0.35100001 4278794265
0.074226879 0.013430771 0.35100001 4278596373
0.075581647 0.013469037 0.35200003 4278793498
0.076724946 0.013469037 0.35200003 4279121179
0.077868246 0.013469037 0.35200003 4279055386
0.091163293 0.013928208 0.36400002 4278989593
0.092345566 0.013928208 0.36400002 4279055386
0.093784779 0.013966472 0.36500001 4278989593
0.094970301 0.013966472 0.36500001 4279187226
0.096155822 0.013966472 0.36500001 4278989845
0.097074665 0.013928208 0.36400002 4279055125
0.098256938 0.013928208 0.36400002 4279055125
0.099439196 0.013928208 0.36400002 4279055125
0.10034504 0.013889942 0.36300001 4278923539
0.10152406 0.013889942 0.36300001 4278923539
0.10270309 0.013889942 0.36300001 4278989845
0.10388211 0.013889942 0.36300001 4278792466
0.10506114 0.013889942 0.36300001 4278792466
0.10624015 0.013889942 0.36300001 4278792466
0.10712326 0.013851679 0.36200002 4278792466
0.10829905 0.013851679 0.36200002 4278989845
0.10947482 0.013851679 0.36200002 4278792466
0.1106506 0.013851679 0.36200002 4278858259
0.11182638 0.013851679 0.36200002 4279056152
0.11331432 0.013889942 0.36300001 4278924566
0.11449333 0.013889942 0.36300001 4278661394
0.11567236 0.013889942 0.36300001 4278727187
0.11717329 0.013928208 0.36400002 4278989845
0.11835556 0.013928208 0.36400002 4278792466
0.12682776 0.014081265 0.36800003 4278727187
0.12767515 0.014043001 0.36700001 4279252504
0.12886716 0.014043001 0.36700001 4279252504
0.13005918 0.014043001 0.36700001 4279384344
0.13125119 0.014043001 0.36700001 4279186965
0.1324432 0.014043001 0.36700001 4279318551
0.1332711 0.014004736 0.36600003 4279318551
0.13445987 0.014004736 0.36600003 4279253271
0.13564864 0.014004736 0.36600003 4279253271
0.13683741 0.014004736 0.36600003 4279121945
0.13802618 0.014004736 0.36600003 4279121945
0.13921493 0.014004736 0.36600003 4279319324
0.1404037 0.014004736 0.36600003 4279122199
0.14159247 0.014004736 0.36600003 4279319064
0.14278124 0.014004736 0.36600003 4279516957
0.14357665 0.013966472 0.36500001 4279385371
0.14476217 0.013966472 0.36500001 4279451164
0.14594768 0.013966472 0.36500001 4279121945
0.1471332 0.013966472 0.36500001 4279056152
0.063443795 0.014986341 0.36100003 4278853131
0.064616323 0.014986341 0.36100003 4279381273
0.063966438 0.014571206 0.35100001 4279184408
0.065477468 0.014654233 0.35300002 4278923289
0.066435277 0.01461272 0.35200003 4279055127
0.067578569 0.01461272 0.35200003 4279187224
0.068721868 0.01461272 0.35200003 4279253017
0.069865167 0.01461272 0.35200003 4278860056
0.071008459 0.01461272 0.35200003 4278598167
0.072151758 0.01461272 0.35200003 4279913514
0.073295057 0.01461272 0.35200003 4279058205
0.074438356 0.01461272 0.35200003 4278267919
0.075581647 0.01461272 0.35200003 4278465300
0.076942913 0.014654233 0.35300002 4278728472
0.078089461 0.014654233 0.35300002 4278531093
0.079460464 0.014695746 0.354 4278531093
0.080837972 0.01473726 0.35500002 4278530580
0.088066891 0.014986341 0.36100003 4278727187
0.089486621 0.015027854 0.36200002 4278661394
0.090912841 0.015069366 0.36300001 4278661394
0.092345566 0.015110881 0.36400002 4278924568
0.093527839 0.015110881 0.36400002 4278596373
0.094710112 0.015110881 0.36400002 4278859545
0.095892385 0.015110881 0.36400002 4278991129
0.097074665 0.015110881 0.36400002 4278596371
0.097986996 0.015069366 0.36300001 4278727957
0.099166013 0.015069366 0.36300001 4278991129
0.10034504 0.015069366 0.36300001 4278991129
0.10124438 0.015027854 0.36200002 4278596371
0.10242017 0.015027854 0.36200002 4278925336
0.10359594 0.015027854 0.36200002 4278793750
0.10477172 0.015027854 0.36200002 4278464785
0.10594749 0.015027854 0.36200002 4278793750
0.10712326 0.015027854 0.36200002 4279057176
0.10829905 0.015027854 0.36200002 4279254555
0.10947482 0.015027854 0.36200002 4278925590
0.1106506 0.015027854 0.36200002 4279255068
0.11182638 0.015027854 0.36200002 4279123228
0.11300216 0.015027854 0.36200002 4279320607
0.11449333 0.015069366 0.36300001 4279320607
0.11567236 0.015069366 0.36300001 4279715365
0.11685138 0.015069366 0.36300001 4279385887
0.11835556 0.015110881 0.36400002 4279254301
0.12648313 0.01523542 0.36700001 4279319324
0.12767515 0.01523542 0.36700001 4279450910
0.12886716 0.01523542 0.36700001 4279319324
0.13005918 0.01523542 0.36700001 4279319324
0.13089356 0.015193908 0.36600003 4279450910
0.13208233 0.015193908 0.36600003 4279516957
0.1332711 0.015193908 0.36600003 4279451164
0.13445987 0.015193908 0.36600003 4279187992
0.13564864 0.015193908 0.36600003 4279451164
0.13683741 0.015193908 0.36600003 4279516703
0.13764904 0.015152394 0.36500001 4279385117
0.13883457 0.015152394 0.36500001 4279648289
0.1404037 0.015193908 0.36600003 4279713568
0.14159247 0.015193908 0.36600003 4279647516
0.14278124 0.015193908 0.36600003 4280173860
0.14357665 0.015152394 0.36500001 4279911201
0.14476217 0.015152394 0.36500001 4279910947
0.14594768 0.015152394 0.36500001 4280568877
0.1471332 0.015152394 0.36500001 4280371498
0.063443795 0.016159266 0.36100003 4280037918
0.064616323 0.016159266 0.36100003 4278987799
0.064148679 0.015756404 0.35200003 4279054105
0.06566295 0.015845928 0.354 4279054875
0.066624016 0.015801165 0.35300002 4278923287
0.067770556 0.015801165 0.35300002 4279648291
0.068917103 0.015801165 0.35300002 4279452193
0.070063643 0.015801165 0.35300002 4279255584
0.071008459 0.015756404 0.35200003 4278992925
0.072151758 0.015756404 0.35200003 4278730007
0.073295057 0.015756404 0.35200003 4283664480
0.074649826 0.015801165 0.35300002 4279452447
0.075796366 0.015801165 0.35300002 4278860826
0.076942913 0.015801165 0.35300002 4278663447
0.078310676 0.015845928 0.354 4278663447
0.079684928 0.015890691 0.35500002 4278729240
0.080837972 0.015890691 0.35500002 4278597654
0.082452938 0.015980216 0.35700002 4278663447
0.083612472 0.015980216 0.35700002 4278729240
0.085009463 0.016024979 0.35800001 4278400275
0.086412959 0.016069742 0.35900003 4278992412
0.087822936 0.016114503 0.36000001 4279058205
0.089239419 0.016159266 0.36100003 4278860826
0.09066239 0.016204027 0.36200002 4278926103
0.092091866 0.016248791 0.36300001 4279058459
0.09327089 0.016248791 0.36300001 4279058205
0.094449915 0.016248791 0.36300001 4279124513
0.09562894 0.016248791 0.36300001 4279058720
0.096807972 0.016248791 0.36300001 4279058718
0.097986996 0.016248791 0.36300001 4279321377
0.09889283 0.016204027 0.36200002 4279123998
0.10006861 0.016204027 0.36200002 4278992412
0.10124438 0.016204027 0.36200002 4279058205
0.10242017 0.016204027 0.36200002 4279123998
0.10330977 0.016159266 0.36100003 4278860826
0.1044823 0.016159266 0.36100003 4278202639
0.10565482 0.016159266 0.36100003 4279123998
0.10682735 0.016159266 0.36100003 4278795033
0.10799988 0.016159266 0.36100003 4278925849
0.10917241 0.016159266 0.36100003 4279123228
0.11034494 0.016159266 0.36100003 4279321377
0.11151747 0.016159266 0.36100003 4279584549
0.11300216 0.016204027 0.36200002 4279847205
0.11417793 0.016204027 0.36200002 4279517727
0.11567236 0.016248791 0.36300001 4279912485
0.11685138 0.016248791 0.36300001 4279978024
0.11835556 0.016293554 0.36400002 4279517473
0.12648313 0.016427841 0.36700001 4280371752
0.12767515 0.016427841 0.36700001 4280240166
0.12886716 0.016427841 0.36700001 4280239912
0.12970479 0.016383078 0.36600003 4280765743
0.13089356 0.016383078 0.36600003 4280436778
0.13208233 0.016383078 0.36600003 4280568364
0.1332711 0.016383078 0.36600003 4280436778
0.13409248 0.016338315 0.36500001 4281160501
0.135278 0.016338315 0.36500001 4280305192
0.13646352 0.016338315 0.36500001 4280567594
0.13764904 0.016338315 0.36500001 4280633387
0.13883457 0.016338315 0.36500001 4280633387
0.14002009 0.016338315 0.36500001 4280961839
0.14120561 0.016338315 0.36500001 4281225778
0.14239113 0.016338315 0.36500001 4281159985
0.14357665 0.016338315 0.36500001 4281029169
0.14476217 0.016338315 0.36500001 4280765997
0.14594768 0.016338315 0.36500001 4281685816
0.1471332 0.016338315 0.36500001 4282539074
0.06443733 0.017284181 0.36000001 4279381787
0.065424368 0.017236169 0.35900003 4279185691
0.06603393 0.017092135 0.35600001 4279054875
0.067001484 0.017044123 0.35500002 4279253019
0.067962535 0.016996112 0.354 4279845670
0.069112331 0.016996112 0.354 4279780645
0.070262127 0.016996112 0.354 4279716387
0.071411915 0.016996112 0.354 4279256349
0.072356731 0.0169481 0.35300002 4279058970
0.073503278 0.0169481 0.35300002 4278203661
0.074861296 0.016996112 0.354 4278993179
0.076011084 0.016996112 0.354 4279190558
0.07716088 0.016996112 0.354 4278795800
0.078531891 0.017044123 0.35500002 4278927386
0.079684928 0.017044123 0.35500002 4278993179
0.081065685 0.017092135 0.35600001 4278993179
0.082452938 0.017140146 0.35700002 4279190558
0.083612472 0.017140146 0.35700002 4279124765
0.085009463 0.017188158 0.35800001 4279058972
0.086412959 0.017236169 0.35900003 4278993179
0.087822936 0.017284181 0.36000001 4279058718
0.088992216 0.017284181 0.36000001 4278927386
0.090411946 0.017332194 0.36100003 4279190558
0.091584474 0.017332194 0.36100003 4279256351
0.09301395 0.017380204 0.36200002 4279453476
0.094189726 0.017380204 0.36200002 4279650855
0.095365502 0.017380204 0.36200002 4279255584
0.096541286 0.017380204 0.36200002 4279518756
0.097717062 0.017380204 0.36200002 4279452963
0.09889283 0.017380204 0.36200002 4279584549
0.099792175 0.017332194 0.36100003 4279584549
0.10096471 0.017332194 0.36100003 4280307756
0.10213724 0.017332194 0.36100003 4279715619
0.10330977 0.017332194 0.36100003 4279847205
0.1044823 0.017332194 0.36100003 4280044330
0.10565482 0.017332194 0.36100003 4279913514
0.10682735 0.017332194 0.36100003 4280374065
0.10799988 0.017332194 0.36100003 4279846951
0.10917241 0.017332194 0.36100003 4280175916
0.11034494 0.017332194 0.36100003 4280110123
0.11151747 0.017332194 0.36100003 4280372782
0.11269 0.017332194 0.36100003 4280372012
0.11417793 0.017380204 0.36200002 4280766770
0.1153537 0.017380204 0.36200002 4280569391
0.11685138 0.017428216 0.36300001 4280832563
0.11835556 0.017476227 0.36400002 4280569131
0.12970479 0.017572252 0.36600003 4280566311
0.13089356 0.017572252 0.36600003 4280631590
0.13208233 0.017572252 0.36600003 4281355315
0.13290696 0.017524239 0.36500001 4281618233
0.13409248 0.017524239 0.36500001 4281092657
0.135278 0.017524239 0.36500001 4281225011
0.13646352 0.017524239 0.36500001 4281092909
0.13764904 0.017524239 0.36500001 4280828456
0.13883457 0.017524239 0.36500001 4281618485
0.14002009 0.017524239 0.36500001 4281486899
0.14120561 0.017524239 0.36500001 4281290804
0.14239113 0.017524239 0.36500001 4281225524
0.14357665 0.017524239 0.36500001 4281620282
0.14476217 0.017524239 0.36500001 4281553976
0.14594768 0.017524239 0.36500001 4283262027
0.1471332 0.017524239 0.36500001 4286681982
0.06443733 0.018453857 0.36000001 4279578904
0.065424368 0.018402597 0.35900003 4279514908
0.066219419 0.018300075 0.35700002 4278858007
0.067378961 0.018300075 0.35700002 4279845670
0.068346508 0.018248815 0.35600001 4280043047
0.069307566 0.018197555 0.35500002 4279977508
0.07046061 0.018197555 0.35500002 4279847205
0.071613647 0.018197555 0.35500002 4279913768
0.072766684 0.018197555 0.35500002 4279914281
0.073919728 0.018197555 0.35500002 4279849258
0.075072773 0.018197555 0.35500002 4280045867
0.07622581 0.018197555 0.35500002 4279585316
0.077378854 0.018197555 0.35500002 4279585316
0.078531891 0.018197555 0.35500002 4279256351
0.079909392 0.018248815 0.35600001 4279585316
0.081065685 0.018248815 0.35600001 4279453730
0.082452938 0.018300075 0.35700002 4279914281
0.083612472 0.018300075 0.35700002 4279716389
0.085009463 0.018351335 0.35800001 4279716389
0.086172245 0.018351335 0.35800001 4279716389
0.087578982 0.018402597 0.35900003 4279847205
0.08874502 0.018402597 0.35900003 4280307756
0.090161495 0.018453857 0.36000001 4279913768
0.091330774 0.018453857 0.36000001 4279913768
0.092757009 0.018505119 0.36100003 4280110377
0.093929537 0.018505119 0.36100003 4280307243
0.095102072 0.018505119 0.36100003 4280307243
0.096274599 0.018505119 0.36100003 4280241196
0.097447127 0.018505119 0.36100003 4280241196
0.098619647 0.018505119 0.36100003 4280241196
0.099792175 0.018505119 0.36100003 4280570163
0.10096471 0.018505119 0.36100003 4280570161
0.10185431 0.018453857 0.36000001 4280700977
0.10302359 0.018453857 0.36000001 4280239912
0.10419287 0.018453857 0.36000001 4280633387
0.10536214 0.018453857 0.36000001 4279843873
0.10653143 0.018453857 0.36000001 4280964151
0.10770071 0.018453857 0.36000001 4280108840
0.10886999 0.018453857 0.36000001 4280173606
0.11003927 0.018453857 0.36000001 4279909664
0.11120855 0.018453857 0.36000001 4280304163
0.11269 0.018505119 0.36100003 4281093425
0.11386252 0.018505119 0.36100003 4280830768
0.1153537 0.018556379 0.36200002 4280764975
0.11685138 0.018607639 0.36300001 4280830255
0.11835556 0.018658901 0.36400002 4280764462
0.13089356 0.018761422 0.36600003 4280632106
0.13172144 0.018710161 0.36500001 4279842336
0.13290696 0.018710161 0.36500001 4280894510
0.13409248 0.018710161 0.36500001 4280961071
0.135278 0.018710161 0.36500001 4281356597
0.13646352 0.018710161 0.36500001 4280632104
0.13764904 0.018710161 0.36500001 4281289261
0.13883457 0.018710161 0.36500001 4281552433
0.14002009 0.018710161 0.36500001 4281749812
0.14120561 0.018710161 0.36500001 4281947191
0.14239113 0.018710161 0.36500001 4281421360
0.14357665 0.018710161 0.36500001 4282539076
0.14476217 0.018710161 0.36500001 4286287740
0.14594768 0.018710161 0.36500001 4286220150
0.1471332 0.018710161 0.36500001 4286483322
0.06443733 0.019623535 0.36000001 4282144064
0.065606602 0.019623535 0.36000001 4279382039
0.066404909 0.019514514 0.35800001 4279779877
0.067567699 0.019514514 0.35800001 4279977256
0.068538494 0.019460006 0.35700002 4279912231
0.069698036 0.019460006 0.35700002 4279912744
0.07085757 0.019460006 0.35700002 4279846951
0.071815372 0.019405494 0.35600001 4280045100
0.072971664 0.019405494 0.35600001 4280111406
0.07412795 0.019405494 0.35600001 4280045613
0.075284243 0.019405494 0.35600001 4279914027
0.076440528 0.019405494 0.35600001 4279979820
0.077596813 0.019405494 0.35600001 4279913768
0.078753106 0.019405494 0.35600001 4279913768
0.080133863 0.019460006 0.35700002 4279913768
0.081293397 0.019460006 0.35700002 4279650596
0.082452938 0.019460006 0.35700002 4279979561
0.083612472 0.019460006 0.35700002 4280110377
0.085009463 0.019514514 0.35800001 4280044584
0.086172245 0.019514514 0.35800001 4279516957
0.087335028 0.019514514 0.35800001 4280108326
0.08874502 0.019569024 0.35900003 4280568877
0.089911051 0.019569024 0.35900003 4280372012
0.091330774 0.019623535 0.36000001 4279121433
0.092500061 0.019623535 0.36000001 4278855181
0.09366934 0.019623535 0.36000001 4279118353
0.094838627 0.019623535 0.36000001 4279183379
0.096274599 0.019678045 0.36100003 4279117588
0.097447127 0.019678045 0.36100003 4279315219
0.098619647 0.019678045 0.36100003 4279578391
0.099515744 0.019623535 0.36000001 4279842338
0.10068502 0.019623535 0.36000001 4280499754
0.10185431 0.019623535 0.36000001 4280038688
0.10302359 0.019623535 0.36000001 4280565286
0.10419287 0.019623535 0.36000001 4279840026
0.10536214 0.019623535 0.36000001 4281026098
0.10653143 0.019623535 0.36000001 4280700465
0.10770071 0.019623535 0.36000001 4280042535
0.10886999 0.019623535 0.36000001 4280236319
0.11003927 0.019623535 0.36000001 4279841561
0.11120855 0.019623535 0.36000001 4279842590
0.11269 0.019678045 0.36100003 4280829485
0.11386252 0.019678045 0.36100003 4281224243
0.1153537 0.019732554 0.36200002 4281026864
0.11685138 0.019787064 0.36300001 4281684794
0.11835556 0.019841574 0.36400002 4280763692
0.135278 0.019896083 0.36500001 4281880374
0.13646352 0.019896083 0.36500001 4281683249
0.13764904 0.019896083 0.36500001 4282604097
0.13883457 0.019896083 0.36500001 4283722578
0.14002009 0.019896083 0.36500001 4284710243
0.14120561 0.019896083 0.36500001 4286288507
0.14239113 0.019896083 0.36500001 4286353533
0.14357665 0.019896083 0.36500001 4285827189
0.14476217 0.019896083 0.36500001 4286155384
0.14594768 0.019896083 0.36500001 4286221177
0.065606602 0.020793211 0.36000001 4280171041
0.066590399 0.020735452 0.35900003 4279911463
0.067756437 0.020735452 0.35900003 4279978024
0.068730474 0.020677693 0.35800001 4280044330
0.069893263 0.020677693 0.35800001 4279912744
0.071056046 0.020677693 0.35800001 4279913514
0.072017103 0.020619934 0.35700002 4280176686
0.073176645 0.020619934 0.35700002 4279979820
0.074336179 0.020619934 0.35700002 4280045613
0.07549572 0.020619934 0.35700002 4280045100
0.076655254 0.020619934 0.35700002 4280110123
0.077814788 0.020619934 0.35700002 4280044584
0.078974329 0.020619934 0.35700002 4279781412
0.080133863 0.020619934 0.35700002 4279781412
0.081293397 0.020619934 0.35700002 4279781412
0.082452938 0.020619934 0.35700002 4279715619
0.083612472 0.020619934 0.35700002 4280176170
0.084772006 0.020619934 0.35700002 4280108326
0.086172245 0.020677693 0.35800001 4279382807
0.087335028 0.020677693 0.35800001 4280700977
0.088497818 0.020677693 0.35800001 4280569391
0.089911051 0.020735452 0.35900003 4279709723
0.091077082 0.020735452 0.35900003 4281156399
0.09224312 0.020735452 0.35900003 4280827436
0.09366934 0.020793211 0.36000001 4280498473
0.094838627 0.020793211 0.36000001 4280432680
0.096007906 0.020793211 0.36000001 4280235301
0.097177185 0.020793211 0.36000001 4280761132
0.098346457 0.020793211 0.36000001 4279971614
0.099515744 0.020793211 0.36000001 4279577369
0.10068502 0.020793211 0.36000001 4280959790
0.10185431 0.020793211 0.36000001 4280631079
0.10302359 0.020793211 0.36000001 4279446035
0.10419287 0.020793211 0.36000001 4281881919
0.10536214 0.020793211 0.36000001 4281093686
0.10653143 0.020793211 0.36000001 4281027893
0.10770071 0.020793211 0.36000001 4280303657
0.10886999 0.020793211 0.36000001 4281090606
0.11003927 0.020793211 0.36000001 4280959274
0.11120855 0.020793211 0.36000001 4280697385
0.11269 0.020850971 0.36100003 4280368934
0.11386252 0.020850971 0.36100003 4280500266
0.1153537 0.020908728 0.36200002 4281026864
0.11685138 0.020966487 0.36300001 4280763176
0.11835556 0.021024248 0.36400002 4281223727
0.135278 0.021082005 0.36500001 4285893236
0.13646352 0.021082005 0.36500001 4285893236
0.13764904 0.021082005 0.36500001 4285893236
0.13883457 0.021082005 0.36500001 4286024822
0.14002009 0.021082005 0.36500001 4286024822
0.14120561 0.021082005 0.36500001 4285959029
0.14239113 0.021082005 0.36500001 4286024822
0.14357665 0.021082005 0.36500001 4286287224
0.14476217 0.021082005 0.36500001 4286221431
0.14594768 0.021082005 0.36500001 4286352503
0.066775888 0.021962887 0.36000001 4280039967
0.067945167 0.021962887 0.36000001 4280108840
0.06892246 0.021901879 0.35900003 4279846951
0.070088498 0.021901879 0.35900003 4280045100
0.071254529 0.021901879 0.35900003 4280110893
0.07242056 0.021901879 0.35900003 4280176686
0.073381618 0.02184087 0.35800001 4280111406
0.0745444 0.02184087 0.35800001 4280506164
0.07570719 0.02184087 0.35800001 4280045354
0.076869972 0.02184087 0.35800001 4280110377
0.077814788 0.021779863 0.35700002 4279912998
0.078974329 0.021779863 0.35700002 4279649826
0.080133863 0.021779863 0.35700002 4279452447
0.081293397 0.021779863 0.35700002 4279584033
0.082452938 0.021779863 0.35700002 4279649826
0.083612472 0.021779863 0.35700002 4278596625
0.084772006 0.021779863 0.35700002 4278527246
0.086172245 0.02184087 0.35800001 4280238116
0.087335028 0.02184087 0.35800001 4280436778
0.088497818 0.02184087 0.35800001 4278527759
0.089660592 0.02184087 0.35800001 4279446553
0.091077082 0.021901879 0.35900003 4279379990
0.09224312 0.021901879 0.35900003 4279840539
0.093409151 0.021901879 0.35900003 4279445781
0.094575189 0.021901879 0.35900003 4280037920
0.096007906 0.021962887 0.36000001 4280827436
0.097177185 0.021962887 0.36000001 4280828206
0.098346457 0.021962887 0.36000001 4281684028
0.099515744 0.021962887 0.36000001 4281947200
0.10068502 0.021962887 0.36000001 4281881405
0.10185431 0.021962887 0.36000001 4282144318
0.10302359 0.021962887 0.36000001 4281683767
0.10419287 0.021962887 0.36000001 4281815864
0.10536214 0.021962887 0.36000001 4281947964
0.10653143 0.021962887 0.36000001 4281225011
0.10740154 0.021901879 0.35900003 4282146115
0.10856757 0.021901879 0.35900003 4282079038
0.11003927 0.021962887 0.36000001 4282868041
0.11120855 0.021962887 0.36000001 4282736455
0.11269 0.022023896 0.36100003 4283919959
0.11386252 0.022023896 0.36100003 4284381539
0.1153537 0.022084903 0.36200002 4285565813
0.11685138 0.02214591 0.36300001 4285499761
0.11835556 0.022206919 0.36400002 4285762933
0.13646352 0.022267926 0.36500001 4286155384
0.13764904 0.022267926 0.36500001 4286023798
0.13883457 0.022267926 0.36500001 4286155638
0.14002009 0.022267926 0.36500001 4286089845
0.14120561 0.022267926 0.36500001 4286155638
0.14239113 0.022267926 0.36500001 4286155638
0.14357665 0.022267926 0.36500001 4286286710
0.067945167 0.023132564 0.36000001 4281815612
0.069114447 0.023132564 0.36000001 4280372530
0.070283726 0.023132564 0.36000001 4280570422
0.071453013 0.023132564 0.36000001 4280373813
0.07242056 0.023068309 0.35900003 4280176688
0.073586598 0.023068309 0.35900003 4280110893
0.074752629 0.023068309 0.35900003 4280045100
0.07570719 0.023004051 0.35800001 4279781928
0.076869972 0.023004051 0.35800001 4279518756
0.078032754 0.023004051 0.35800001 4279452963
0.079195544 0.023004051 0.35800001 4279123998
0.080358319 0.023004051 0.35800001 4279320607
0.081521109 0.023004051 0.35800001 4279452193
0.082683891 0.023004051 0.35800001 4278661396
0.083846673 0.023004051 0.35800001 4279450398
0.084772006 0.022939794 0.35700002 4279778596
0.085931547 0.022939794 0.35700002 4279975975
0.087335028 0.023004051 0.35800001 4279713057
0.088497818 0.023004051 0.35800001 4280041768
0.089660592 0.023004051 0.35800001 4280041770
0.090823382 0.023004051 0.35800001 4279843110
0.09224312 0.023068309 0.35900003 4280499754
0.093409151 0.023068309 0.35900003 4281289782
0.094575189 0.023068309 0.35900003 4282013245
0.09574122 0.023068309 0.35900003 4282670662
0.097177185 0.023132564 0.36000001 4283525971
0.098346457 0.023132564 0.36000001 4284184160
0.099515744 0.023132564 0.36000001 4284644713
0.10068502 0.023132564 0.36000001 4284842092
0.10185431 0.023132564 0.36000001 4284513127
0.10302359 0.023132564 0.36000001 4284973678
0.10419287 0.023132564 0.36000001 4285170796
0.10536214 0.023132564 0.36000001 4285104233
0.10653143 0.023132564 0.36000001 4285169513
0.10770071 0.023132564 0.36000001 4285235306
0.10886999 0.023132564 0.36000001 4285169513
0.11003927 0.023132564 0.36000001 4285235306
0.11120855 0.023132564 0.36000001 4285432685
0.11269 0.023196824 0.36100003 4285432685
0.11386252 0.023196824 0.36100003 4285498224
0.1153537 0.02326108 0.36200002 4285564017
0.11685138 0.023325335 0.36300001 4285498224
0.11835556 0.023389595 0.36400002 4285564017
0.070283726 0.024302242 0.36000001 4282079298
0.071453013 0.024302242 0.36000001 4281161276
0.072622284 0.024302242 0.36000001 4280109358
0.073586598 0.024234736 0.35900003 4279385635
0.074752629 0.024234736 0.35900003 4279254049
0.075918667 0.024234736 0.35900003 4279714600
0.076869972 0.024167228 0.35800001 4279187486
0.078032754 0.024167228 0.35800001 4279384865
0.079195544 0.024167228 0.35800001 4279319072
0.080358319 0.024167228 0.35800001 4279450144
0.081521109 0.024167228 0.35800001 4279647525
0.082683891 0.024167228 0.35800001 4280435247
0.083846673 0.024167228 0.35800001 4279974696
0.085009463 0.024167228 0.35800001 4280172075
0.085931547 0.024099724 0.35700002 4280106541
0.087335028 0.024167228 0.35800001 4280106543
0.088497818 0.024167228 0.35800001 4280303409
0.089660592 0.024167228 0.35800001 4280498989
0.090823382 0.024167228 0.35800001 4283590744
0.09224312 0.024234736 0.35900003 4284051293
0.093409151 0.024234736 0.35900003 4284182879
0.094575189 0.024234736 0.35900003 4284511844
0.09574122 0.024234736 0.35900003 4284511844
0.096907258 0.024234736 0.35900003 4284577637
0.098346457 0.024302242 0.36000001 4284643430
0.099515744 0.024302242 0.36000001 4284840809
0.10068502 0.024302242 0.36000001 4284906602
0.10185431 0.024302242 0.36000001 4284972395
0.10302359 0.024302242 0.36000001 4284906602
0.10419287 0.024302242 0.36000001 4284906602
0.10536214 0.024302242 0.36000001 4285235052
0.10653143 0.024302242 0.36000001 4285235306
0.10770071 0.024302242 0.36000001 4285169513
0.10886999 0.024302242 0.36000001 4285300075
0.11003927 0.024302242 0.36000001 4285629040
0.11120855 0.024302242 0.36000001 4285563247
0.11269 0.024369748 0.36100003 4285629040
0.11386252 0.024369748 0.36100003 4285497454
0.1153537 0.024437254 0.36200002 4285760626
0.11685138 0.02450476 0.36300001 4285563247
0.11835556 0.024572266 0.36400002 4285826419
0.087664656 0.012988506 0.35884744 4294967295
0.087664656 0.012988506 0.35884744 4294901760
0.087736636 0.012497946 0.35891202 4294901760
0.087808624 0.012007385 0.35897657 4294901760
0.087880604 0.011516825 0.35904115 4294901760
0.087952591 0.011026265 0.35910571 4294901760
0.088024572 0.010535705 0.35917029 4294901760
0.088096559 0.010045145 0.35923484 4294901760
0.088168539 0.0095545845 0.35929942 4294901760
0.088240527 0.0090640243 0.35936397 4294901760
0.088312507 0.0085734632 0.35942855 4294901760
0.088384487 0.0080829039 0.35949314 4294901760
0.088456474 0.0075923433 0.35955769 4294901760
0.088528454 0.0071017831 0.35962227 4294901760
0.088600442 0.0066112229 0.35968682 4294901760
0.088672422 0.0061206627 0.3597514 4294901760
0.088744409 0.005630102 0.35981596 4294901760
0.088816389 0.0051395427 0.35988054 4294901760
0.08888837 0.0046489816 0.35994512 4294901760
0.088960357 0.0041584214 0.36000967 4294901760
0.089032337 0.0036678612 0.36007425 4294901760
0.089104325 0.003177301 0.3601388 4294901760
0.089176305 0.0026867418 0.36020339 4294901760
0.089248292 0.0021961806 0.36026794 4294901760
0.089320272 0.0017056204 0.36033252 4294901760
0.08939226 0.0012150602 0.36039707 4294901760
0.08946424 0.00072450005 0.36046165 4294901760
0.08953622 0.00023393985 0.36052623 4294901760
0.089608207 -0.00025662128 0.36059079 4294901760
0.089680187 -0.00074718054 0.36065537 4294901760
0.089752175 -0.0012377407 0.36071992 4294901760
0.089824155 -0.0017283019 0.3607845 4294901760
0.089896142 -0.0022188611 0.36084905 4294901760
0.089968123 -0.0027094204 0.36091363 4294901760
0.09004011 -0.0031999834 0.36097819 4294901760
0.09011209 -0.0036905427 0.36104277 4294901760
0.09018407 -0.0041811019 0.36110735 4294901760
0.090256058 -0.004671663 0.3611719 4294901760
0.090328038 -0.0051622223 0.36123648 4294901760
0.090400025 -0.0056527834 0.36130103 4294901760
0.090472005 -0.0061433427 0.36136562 4294901760
0.090543993 -0.0066339038 0.36143017 4294901760
0.090615973 -0.0071244631 0.36149475 4294901760
0.090687953 -0.0076150224 0.36155933 4294901760
0.09075994 -0.0081055854 0.36162388 4294901760
0.090831921 -0.0085961446 0.36168846 4294901760
0.090903908 -0.0090867039 0.36175302 4294901760
0.090975888 -0.009577265 0.3618176 4294901760
0.091047876 -0.010067824 0.36188215 4294901760
0.091119856 -0.010558385 0.36194673 4294901760
0.091191843 -0.011048947 0.36201128 4294901760
0.091263823 -0.011539506 0.36207587 4294901760
0.091335803 -0.012030065 0.36214045 4294901760
0.091407791 -0.012520626 0.362205 4294901760
0.091479771 -0.013011185 0.36226958 4294901760
0.091551758 -0.013501748 0.36233413 4294901760
0.091623738 -0.013992308 0.36239871 4294901760
0.091695726 -0.014482867 0.36246327 4294901760
0.091767706 -0.014973426 0.36252785 4294901760
0.091839686 -0.015463987 0.3625924 4294901760
0.091911674 -0.015954547 0.36265698 4294901760
0.091983654 -0.01644511 0.36272156 4294901760
0.092055641 -0.016935669 0.36278611 4294901760
0.092127621 -0.017426228 0.3628507 4294901760
0.092199609 -0.017916789 0.36291525 4294901760
0.092271589 -0.018407347 0.36297983 4294901760
0.092343576 -0.018897908 0.36304438 4294901760
0.092415556 -0.019388473 0.36310896 4294901760
0.092487544 -0.01987903 0.36317354 4294901760
0.092559524 -0.020369591 0.3632381 4294901760
0.092631504 -0.020860149 0.36330268 4294901760
0.092703491 -0.02135071 0.36336723 4294901760
0.092775472 -0.021841271 0.36343181 4294901760
0.092847459 -0.022331832 0.36349636 4294901760
0.092919439 -0.022822393 0.36356094 4294901760
0.092991427 -0.023312951 0.3636255 4294901760
0.093063407 -0.023803512 0.36369008 4294901760
0.093135387 -0.024294073 0.36375466 4294901760
0.093207374 -0.02478463 0.36381921 4294901760
0.093279354 -0.025275191 0.36388379 4294901760
0.093351342 -0.025765752 0.36394835 4294901760
0.093423322 -0.026256314 0.36401293 4294901760
0.093495309 -0.026746875 0.36407748 4294901760
0.093567289 -0.027237432 0.36414206 4294901760
0.093639269 -0.027727993 0.36420661 4294901760
0.093711257 -0.028218551 0.36427119 4294901760
0.093783237 -0.028709115 0.36433578 4294901760
0.093855225 -0.029199677 0.36440033 4294901760
0.093927205 -0.029690234 0.36446491 4294901760
0.093999192 -0.030180795 0.36452946 4294901760
0.094071172 -0.030671353 0.36459404 4294901760
0.09414316 -0.031161914 0.36465859 4294901760
0.09421514 -0.03165248 0.36472318 4294901760
0.094287127 -0.032143034 0.36478776 4294901760
0.094359107 -0.032633595 0.36485231 4294901760
0.094431087 -0.033124156 0.36491689 4294901760
0.094503075 -0.033614717 0.36498144 4294901760
0.094575055 -0.034105279 0.36504602 4294901760
0.094647042 -0.03459584 0.36511058 4294901760
0.094719023 -0.035086401 0.36517516 4294901760
0.09479101 -0.035576954 0.36523971 4294901760
0.09486299 -0.036067516 0.36530429 4294901760
0.087664656 0.012988506 0.35884744 4278255360
0.088154443 0.013068407 0.35890844 4278255360
0.088644236 0.013148308 0.35896948 4278255360
0.089134023 0.013228209 0.35903049 4278255360
0.089623809 0.01330811 0.35909149 4278255360
0.090113603 0.01338801 0.3591525 4278255360
0.090603389 0.013467911 0.35921353 4278255360
0.091093183 0.013547812 0.35927454 4278255360
0.091582969 0.013627713 0.35933554 4278255360
0.092072755 0.013707614 0.35939655 4278255360
0.092562549 0.013787515 0.35945758 4278255360
0.093052335 0.013867415 0.35951859 4278255360
0.093542121 0.013947316 0.35957959 4278255360
0.094031915 0.014027217 0.3596406 4278255360
0.094521701 0.014107118 0.35970163 4278255360
0.095011495 0.014187019 0.35976264 4278255360
0.095501281 0.014266919 0.35982364 4278255360
0.095991068 0.01434682 0.35988465 4278255360
0.096480861 0.014426721 0.35994568 4278255360
0.096970648 0.014506622 0.36000669 4278255360
0.097460434 0.014586523 0.3600677 4278255360
0.097950228 0.014666424 0.3601287 4278255360
0.098440014 0.014746325 0.36018974 4278255360
0.098929808 0.014826226 0.36025074 4278255360
0.099419594 0.014906127 0.36031175 4278255360
0.09990938 0.014986027 0.36037278 4278255360
0.10039917 0.015065928 0.36043379 4278255360
0.10088896 0.015145829 0.36049479 4278255360
0.10137875 0.01522573 0.3605558 4278255360
0.10186854 0.015305631 0.36061683 4278255360
0.10235833 0.015385532 0.36067784 4278255360
0.10284811 0.015465433 0.36073884 4278255360
0.10333791 0.015545334 0.36079985 4278255360
0.10382769 0.015625235 0.36086088 4278255360
0.10431749 0.015705135 0.36092189 4278255360
0.10480727 0.015785037 0.36098289 4278255360
0.10529706 0.015864937 0.3610439 4278255360
0.10578685 0.015944839 0.36110494 4278255360
0.10627664 0.016024739 0.36116594 4278255360
0.10676643 0.016104639 0.36122695 4278255360
0.10725622 0.01618454 0.36128795 4278255360
0.10774601 0.01626444 0.36134899 4278255360
0.10823579 0.016344342 0.36140999 4278255360
0.10872559 0.016424242 0.361471 4278255360
0.10921537 0.016504144 0.361532 4278255360
0.10970517 0.016584044 0.36159304 4278255360
0.11019495 0.016663946 0.36165404 4278255360
0.11068474 0.016743846 0.36171505 4278255360
0.11117453 0.016823746 0.36177605 4278255360
0.11166432 0.016903648 0.36183709 4278255360
0.11215411 0.01698355 0.36189809 4278255360
0.1126439 0.01706345 0.3619591 4278255360
0.11313368 0.01714335 0.36202013 4278255360
0.11362347 0.017223252 0.36208114 4278255360
0.11411326 0.017303154 0.36214215 4278255360
0.11460306 0.017383054 0.36220315 4278255360
0.11509284 0.017462954 0.36226419 4278255360
0.11558263 0.017542854 0.36232519 4278255360
0.11607242 0.017622756 0.3623862 4278255360
0.11656221 0.017702658 0.3624472 4278255360
0.117052 0.017782558 0.36250824 4278255360
0.11754179 0.017862458 0.36256924 4278255360
0.11803158 0.01794236 0.36263025 4278255360
0.11852136 0.01802226 0.36269125 4278255360
0.11901115 0.018102162 0.36275229 4278255360
0.11950094 0.018182062 0.36281329 4278255360
0.11999074 0.018261964 0.3628743 4278255360
0.12048052 0.018341864 0.3629353 4278255360
0.12097031 0.018421765 0.36299634 4278255360
0.1214601 0.018501665 0.36305735 4278255360
0.12194989 0.018581565 0.36311835 4278255360
0.12243968 0.018661467 0.36317936 4278255360
0.12292947 0.018741369 0.36324039 4278255360
0.12341926 0.018821269 0.3633014 4278255360
0.12390904 0.018901169 0.3633624 4278255360
0.12439884 0.018981071 0.36342341 4278255360
0.12488862 0.019060971 0.36348444 4278255360
0.12537841 0.019140873 0.36354545 4278255360
0.1258682 0.019220773 0.36360645 4278255360
0.12635799 0.019300675 0.36366749 4278255360
0.12684777 0.019380575 0.36372849 4278255360
0.12733757 0.019460477 0.3637895 4278255360
0.12782736 0.019540377 0.3638505 4278255360
0.12831715 0.019620277 0.36391154 4278255360
0.12880693 0.019700179 0.36397254 4278255360
0.12929672 0.019780079 0.36403355 4278255360
0.12978652 0.019859981 0.36409456 4278255360
0.13027629 0.019939881 0.36415559 4278255360
0.13076609 0.020019781 0.3642166 4278255360
0.13125588 0.020099683 0.3642776 4278255360
0.13174567 0.020179585 0.36433861 4278255360
0.13223547 0.020259485 0.36439964 4278255360
0.13272524 0.020339385 0.36446065 4278255360
0.13321504 0.020419287 0.36452165 4278255360
0.13370483 0.020499187 0.36458266 4278255360
0.13419461 0.020579088 0.36464369 4278255360
0.1346844 0.020658989 0.3647047 4278255360
0.13517419 0.02073889 0.3647657 4278255360
0.13566399 0.02081879 0.36482671 4278255360
0.13615377 0.020898692 0.36488774 4278255360
0.13664356 0.020978592 0.36494875 4278255360
0.087664656 0.012988506 0.35884744 4278190335
0.08760725 0.013045033 0.35934091 4278190335
0.08754985 0.013101562 0.35983437 4278190335
0.087492444 0.013158089 0.36032784 4278190335
0.087435044 0.013214618 0.36082131 4278190335
0.087377638 0.013271146 0.36131477 4278190335
0.087320238 0.013327674 0.36180824 4278190335
0.087262832 0.013384202 0.36230171 4278190335
0.087205425 0.01344073 0.36279517 4278190335
0.087148026 0.013497258 0.36328864 4278190335
0.087090619 0.013553786 0.36378211 4278190335
0.08703322 0.013610314 0.36427557 4278190335
0.086975813 0.013666842 0.36476904 4278190335
0.086918414 0.01372337 0.36526251 4278190335
0.086861007 0.013779897 0.36575598 4278190335
0.0868036 0.013836426 0.36624944 4278190335
0.086746201 0.013892953 0.36674291 4278190335
0.086688794 0.013949482 0.36723638 4278190335
0.086631395 0.014006009 0.36772984 4278190335
0.086573988 0.014062538 0.36822331 4278190335
0.086516589 0.014119065 0.36871678 4278190335
0.086459182 0.014175594 0.36921024 4278190335
0.086401775 0.014232121 0.36970371 4278190335
0.086344376 0.01428865 0.37019718 4278190335
0.086286969 0.014345177 0.37069064 4278190335
0.08622957 0.014401706 0.37118411 4278190335
0.086172163 0.014458233 0.37167758 4278190335
0.086114764 0.014514761 0.37217104 4278190335
0.086057357 0.01457129 0.37266451 4278190335
0.085999951 0.014627817 0.37315798 4278190335
0.085942551 0.014684346 0.37365144 4278190335
0.085885145 0.014740873 0.37414491 4278190335
0.085827745 0.014797402 0.37463838 4278190335
0.085770339 0.014853929 0.37513185 4278190335
0.08571294 0.014910458 0.37562531 4278190335
0.085655533 0.014966985 0.37611878 4278190335
0.085598126 0.015023514 0.37661225 4278190335
0.085540727 0.015080041 0.37710571 4278190335
0.08548332 0.01513657 0.37759918 4278190335
0.085425921 0.015193097 0.37809265 4278190335
0.085368514 0.015249625 0.37858611 4278190335
0.085311115 0.015306153 0.37907958 4278190335
0.085253708 0.015362681 0.37957305 4278190335
0.085196301 0.015419209 0.38006651 4278190335
0.085138902 0.015475737 0.38055998 4278190335
0.085081495 0.015532265 0.38105345 4278190335
0.085024096 0.015588793 0.38154691 4278190335
0.084966689 0.015645321 0.38204038 4278190335
0.08490929 0.015701849 0.38253385 4278190335
0.084851883 0.015758377 0.38302732 4278190335
0.084794477 0.015814904 0.38352078 4278190335
0.084737077 0.015871434 0.38401425 4278190335
0.084679671 0.015927961 0.38450772 4278190335
0.084622271 0.015984489 0.38500118 4278190335
0.084564865 0.016041018 0.38549465 4278190335
0.084507465 0.016097546 0.38598812 4278190335
0.084450059 0.016154073 0.38648158 4278190335
0.084392652 0.016210601 0.38697505 4278190335
0.084335253 0.016267128 0.38746852 4278190335
0.084277846 0.016323656 0.38796198 4278190335
0.084220447 0.016380185 0.38845545 4278190335
0.08416304 0.016436713 0.38894892 4278190335
0.084105641 0.01649324 0.38944238 4278190335
0.084048234 0.01654977 0.38993585 4278190335
0.083990835 0.016606297 0.39042932 4278190335
0.083933428 0.016662825 0.39092278 4278190335
0.083876021 0.016719352 0.39141625 4278190335
0.083818622 0.01677588 0.39190972 4278190335
0.083761215 0.016832409 0.39240319 4278190335
0.083703816 0.016888937 0.39289665 4278190335
0.083646409 0.016945465 0.39339012 4278190335
0.08358901 0.017001992 0.39388359 4278190335
0.083531603 0.017058522 0.39437705 4278190335
0.083474196 0.017115049 0.39487052 4278190335
0.083416797 0.017171577 0.39536399 4278190335
0.08335939 0.017228104 0.39585745 4278190335
0.083301991 0.017284632 0.39635092 4278190335
0.083244585 0.017341161 0.39684439 4278190335
0.083187185 0.017397689 0.39733785 4278190335
0.083129779 0.017454216 0.39783132 4278190335
0.083072372 0.017510746 0.39832479 4278190335
0.083014973 0.017567273 0.39881825 4278190335
0.082957566 0.017623801 0.39931172 4278190335
0.082900167 0.017680328 0.39980519 4278190335
0.08284276 0.017736856 0.40029866 4278190335
0.082785361 0.017793383 0.40079212 4278190335
0.082727954 0.017849913 0.40128559 4278190335
0.082670547 0.01790644 0.40177906 4278190335
0.082613148 0.017962968 0.40227252 4278190335
0.082555741 0.018019497 0.40276599 4278190335
0.082498342 0.018076025 0.40325946 4278190335
0.082440935 0.018132553 0.40375292 4278190335
0.082383536 0.01818908 0.40424639 4278190335
0.082326129 0.018245608 0.40473986 4278190335
0.082268722 0.018302135 0.40523332 4278190335
0.082211323 0.018358665 0.40572679 4278190335
0.082153916 0.018415192 0.40622026 4278190335
0.082096517 0.018471722 0.40671372 4278190335
0.08203911 0.018528249 0.40720719 4278190335
0.081981711 0.018584777 0.40770066 4278190335
0.081924304 0.018641304 0.40819412 4278190335
0.087664656 0.012988506 0.35884744 4294967295
0.088009074 0.012649338 0.35588664 4294967295
0.0883535 0.01231017 0.35292584 4294967295
0.088697918 0.011971002 0.34996504 4294967295
0.089042343 0.011631834 0.34700423 4294967295
0.089386761 0.011292666 0.34404343 4294967295
0.089731187 0.010953498 0.34108263 4294967295
0.090075605 0.01061433 0.33812183 4294967295
0.09042003 0.010275163 0.33516103 4294967295
0.090764448 0.0099359946 0.33220023 4294967295
0.091108873 0.0095968265 0.32923943 4294967295
0.091453291 0.0092576584 0.32627863 4294967295
0.091797709 0.0089184903 0.32331783 4294967295
0.092142135 0.0085793231 0.32035702 4294967295
0.092486553 0.0082401549 0.31739622 4294967295
0.092830978 0.0079009868 0.31443542 4294967295
0.093175396 0.0075618192 0.31147462 4294967295
0.093519822 0.007222651 0.30851382 4294967295
0.09386424 0.0068834829 0.30555302 4294967295
0.094208665 0.0065443153 0.30259222 4294967295
0.094553083 0.0062051471 0.29963142 4294967295
0.094897501 0.0058659795 0.29667062 4294967295
0.095241927 0.0055268114 0.29370981 4294967295
0.095586345 0.0051876432 0.29074901 4294967295
0.09593077 0.0048484756 0.28778821 4294967295
0.096275188 0.0045093074 0.28482741 4294967295
0.096619613 0.0041701403 0.28186661 4294967295
0.096964031 0.0038309712 0.27890581 4294967295
0.097308457 0.003491804 0.27594501 4294967295
0.097652875 0.0031526359 0.27298424 4294967295
0.097997293 0.0028134678 0.27002341 4294967295
0.098341718 0.0024742996 0.2670626 4294967295
0.098686136 0.0021351324 0.26410183 4294967295
0.099030562 0.0017959634 0.261141 4294967295
0.09937498 0.0014567962 0.25818023 4294967295
0.099719405 0.0011176281 0.25521943 4294967295
0.10006382 0.00077845994 0.2522586 4294967295
0.10040825 0.00043929182 0.24929783 4294967295
0.10075267 0.00010012463 0.24633703 4294967295
0.10109709 -0.0002390435 0.24337623 4294967295
0.10144151 -0.00057821162 0.24041542 4294967295
0.10178593 -0.00091737974 0.23745462 4294967295
0.10213035 -0.0012565469 0.23449382 4294967295
0.10247477 -0.001595716 0.23153302 4294967295
0.1028192 -0.0019348832 0.22857222 4294967295
0.10316361 -0.0022740513 0.22561142 4294967295
0.10350804 -0.0026132194 0.22265062 4294967295
0.10385246 -0.0029523876 0.21968982 4294967295
0.10419688 -0.0032915547 0.21672902 4294967295
0.1045413 -0.0036307238 0.21376821 4294967295
0.10488573 -0.003969891 0.21080741 4294967295
0.10523015 -0.0043090582 0.20784661 4294967295
0.10557456 -0.0046482254 0.20488581 4294967295
0.10591899 -0.0049873944 0.20192502 4294967295
0.10626341 -0.0053265635 0.19896421 4294967295
0.10660783 -0.0056657307 0.19600341 4294967295
0.10695225 -0.0060048979 0.19304261 4294967295
0.10729668 -0.0063440669 0.1900818 4294967295
0.10764109 -0.0066832341 0.18712102 4294967295
0.10798551 -0.0070224013 0.18416022 4294967295
0.10832994 -0.0073615704 0.1811994 4294967295
0.10867436 -0.0077007394 0.1782386 4294967295
0.10901878 -0.0080399066 0.1752778 4294967295
0.1093632 -0.0083790738 0.17231701 4294967295
0.10970762 -0.008718241 0.16935621 4294967295
0.11005204 -0.0090574101 0.16639541 4294967295
0.11039647 -0.0093965791 0.16343459 4294967295
0.11074089 -0.0097357463 0.16047379 4294967295
0.11108531 -0.010074914 0.15751301 4294967295
0.11142973 -0.010414083 0.15455221 4294967295
0.11177415 -0.01075325 0.15159141 4294967295
0.11211857 -0.011092417 0.1486306 4294967295
0.112463 -0.011431586 0.14566979 4294967295
0.11280742 -0.011770755 0.142709 4294967295
0.11315183 -0.012109922 0.1397482 4294967295
0.11349626 -0.012449089 0.1367874 4294967295
0.11384068 -0.012788257 0.1338266 4294967295
0.11418509 -0.013127424 0.1308658 4294967295
0.11452952 -0.013466593 0.12790501 4294967295
0.11487395 -0.013805762 0.1249442 4294967295
0.11521836 -0.014144929 0.12198339 4294967295
0.11556278 -0.014484096 0.11902259 4294967295
0.11590721 -0.014823265 0.11606179 4294967295
0.11625163 -0.015162433 0.11310101 4294967295
0.11659605 -0.0155016 0.1101402 4294967295
0.11694047 -0.015840769 0.10717937 4294967295
0.11728489 -0.016179938 0.1042186 4294967295
0.11762931 -0.016519105 0.1012578 4294967295
0.11797373 -0.016858272 0.098297 4294967295
0.11831816 -0.017197439 0.095336199 4294967295
0.11866258 -0.017536609 0.092375398 4294967295
0.119007 -0.017875778 0.089414597 4294967295
0.11935142 -0.018214945 0.086453795 4294967295
0.11969584 -0.018554112 0.083492994 4294967295
0.12004027 -0.018893281 0.080532193 4294967295
0.12038468 -0.019232446 0.077571392 4294967295
0.1207291 -0.019571615 0.074610591 4294967295
0.12107353 -0.019910784 0.07164979 4294967295
0.12141795 -0.020249953 0.068688989 4294967295
0.12176237 -0.020589119 0.065728188 4294967295
