# .PCD v0.7 - Point Cloud Data file format
VERSION 0.7
FIELDS x y z rgb
SIZE 4 4 4 4
TYPE F F F U
COUNT 1 1 1 1
WIDTH 810
HEIGHT 1
VIEWPOINT 0 0 0 1 0 0 0
POINTS 810
DATA ascii
-0.043159962 0.0023324068 0.40400001 4287540121
-0.041847765 0.0023324068 0.40400001 4284513389
-0.04063591 0.0023381801 0.40500003 4285762944
-0.03922338 0.0023324068 0.40400001 4288066211
-0.037911188 0.0023324068 0.40400001 4287870369
-0.036598995 0.0023324068 0.40400001 4287410847
-0.035286803 0.0023324068 0.40400001 4287674273
-0.034058709 0.0023381801 0.40500003 4287937445
-0.047096539 0.0036450441 0.40400001 4283130711
-0.045897674 0.0036540665 0.40500003 4282472781
-0.044582233 0.0036540665 0.40500003 4283459423
-0.043266792 0.0036540665 0.40500003 4283326807
-0.041951351 0.0036540665 0.40500003 4282669390
-0.04063591 0.0036540665 0.40500003 4282143046
-0.03922338 0.0036450441 0.40400001 4282208839
-0.037911188 0.0036450441 0.40400001 4282275400
-0.036598995 0.0036450441 0.40400001 4281881409
-0.035286803 0.0036450441 0.40400001 4281816128
-0.03397461 0.0036450441 0.40400001 4281092405
-0.032743264 0.0036540665 0.40500003 4280175664
-0.031427827 0.0036540665 0.40500003 4280639036
-0.030112386 0.0036540665 0.40500003 4280773448
-0.028796943 0.0036540665 0.40500003 4282219351
-0.027549358 0.0036630889 0.40600002 4285045883
-0.047213115 0.0049699531 0.40500003 4282472779
-0.045897674 0.0049699531 0.40500003 4283328088
-0.044692311 0.0049822242 0.40600002 4283920225
-0.043373622 0.0049822242 0.40600002 4282866254
-0.042054933 0.0049822242 0.40600002 4281813566
-0.040736247 0.0049822242 0.40600002 4281616187
-0.03922338 0.0049576815 0.40400001 4281814333
-0.037911188 0.0049576815 0.40400001 4281814331
-0.036598995 0.0049576815 0.40400001 4282603847
-0.035286803 0.0049576815 0.40400001 4282011710
-0.03397461 0.0049576815 0.40400001 4282142783
-0.032743264 0.0049699531 0.40500003 4282144577
-0.031427827 0.0049699531 0.40500003 4280437807
-0.030112386 0.0049699531 0.40500003 4279261224
-0.028868046 0.0049822242 0.40600002 4279590959
-0.027549358 0.0049822242 0.40600002 4279854131
-0.026295278 0.0049944958 0.40700001 4279590961
-0.024973338 0.0049944958 0.40700001 4282221146
-0.023709515 0.0050067673 0.40800002 4280247358
-0.022384331 0.0050067673 0.40800002 4280641348
-0.02111076 0.0050190389 0.40900001 4281759061
-0.019782327 0.0050190389 0.40900001 4283138656
-0.018453894 0.0050190389 0.40900001 4284257137
-0.017167335 0.0050313105 0.41000003 4285112446
-0.015835654 0.0050313105 0.41000003 4285638536
-0.047213115 0.0062858397 0.40500003 4283327309
-0.046010997 0.0063013597 0.40600002 4282473029
-0.04480239 0.0063168802 0.40700001 4282802511
-0.043480452 0.0063168802 0.40700001 4282142785
-0.042158514 0.0063168802 0.40700001 4281419062
-0.04083658 0.0063168802 0.40700001 4281353269
-0.039805908 0.0063634426 0.41000003 4281419062
-0.038474228 0.0063634426 0.41000003 4280761130
-0.036598995 0.0062703188 0.40400001 4282076990
-0.035286803 0.0062703188 0.40400001 4281484083
-0.03397461 0.0062703188 0.40400001 4281484083
-0.032743264 0.0062858397 0.40500003 4281091378
-0.031427827 0.0062858397 0.40500003 4280302887
-0.030112386 0.0062858397 0.40500003 4279389221
-0.028868046 0.0063013597 0.40600002 4279062818
-0.027549358 0.0063013597 0.40600002 4279130662
-0.026295278 0.0063168802 0.40700001 4279065382
-0.024973338 0.0063168802 0.40700001 4278606378
-0.023709515 0.0063324012 0.40800002 4281105999
-0.022384331 0.0063324012 0.40800002 4281697620
-0.02111076 0.0063479217 0.40900001 4280447555
-0.019782327 0.0063479217 0.40900001 4280448067
-0.018499015 0.0063634426 0.41000003 4280250686
-0.017167335 0.0063634426 0.41000003 4280118840
-0.015874278 0.0063789627 0.41100001 4280447805
-0.014539349 0.0063789627 0.41100001 4280381758
-0.013236548 0.0063944836 0.41200003 4279789623
-0.011898371 0.0063944836 0.41200003 4280249404
-0.04732969 0.0076204957 0.40600002 4282206513
-0.046237655 0.007658035 0.40800002 4285630829
-0.044912472 0.007658035 0.40800002 4281223729
-0.043587286 0.007658035 0.40800002 4280366883
-0.042365681 0.0076768044 0.40900001 4281287985
-0.04103725 0.0076768044 0.40900001 4281353267
-0.039805908 0.0076955743 0.41000003 4280432167
-0.038474228 0.0076955743 0.41000003 4281221681
-0.037142549 0.0076955743 0.41000003 4281878839
-0.035810865 0.0076955743 0.41000003 4281483821
-0.034058709 0.0076017259 0.40500003 4281154856
-0.032743264 0.0076017259 0.40500003 4280761641
-0.031427827 0.0076017259 0.40500003 4280368934
-0.030112386 0.0076017259 0.40500003 4279649824
-0.028868046 0.0076204957 0.40600002 4279652389
-0.027549358 0.0076204957 0.40600002 4279063586
-0.026295278 0.0076392652 0.40700001 4279064099
-0.024973338 0.0076392652 0.40700001 4278934566
-0.023709515 0.007658035 0.40800002 4279198252
-0.022384331 0.007658035 0.40800002 4279067949
-0.02111076 0.0076768044 0.40900001 4279989051
-0.019782327 0.0076768044 0.40900001 4279067695
-0.018499015 0.0076955743 0.41000003 4279331121
-0.017209206 0.0077143437 0.41100001 4279528750
-0.015874278 0.0077143437 0.41100001 4279397164
-0.014574725 0.0077331141 0.41200003 4279396912
-0.013236548 0.0077331141 0.41200003 4278936363
-0.011927251 0.0077518835 0.41300002 4279265328
-0.010585826 0.0077518835 0.41300002 4279331121
-0.0092220176 0.0077331141 0.41200003 4278936363
-0.0078838412 0.0077331141 0.41200003 4279462707
-0.0065456638 0.0077331141 0.41200003 4279527730
-0.04732969 0.0089396304 0.40600002 4282337314
-0.046350982 0.0090056872 0.40900001 4282799922
-0.045022547 0.0090056872 0.40900001 4281287976
-0.043694116 0.0090056872 0.40900001 4280302114
-0.042365681 0.0090056872 0.40900001 4280959020
-0.04103725 0.0090056872 0.40900001 4281024302
-0.039805908 0.0090277065 0.41000003 4281024302
-0.038286548 0.0089836689 0.40800002 4281221681
-0.03687077 0.0089616496 0.40700001 4282076218
-0.035461489 0.0089396304 0.40600002 4282931517
-0.034058709 0.008917612 0.40500003 4281483819
-0.032743264 0.008917612 0.40500003 4280827688
-0.031427827 0.008917612 0.40500003 4280303139
-0.030112386 0.008917612 0.40500003 4279650594
-0.028868046 0.0089396304 0.40600002 4279257885
-0.027549358 0.0089396304 0.40600002 4279127582
-0.026295278 0.0089616496 0.40700001 4279325474
-0.024973338 0.0089616496 0.40700001 4279064099
-0.023709515 0.0089836689 0.40800002 4279131175
-0.022439193 0.0090056872 0.40900001 4279198252
-0.02111076 0.0090056872 0.40900001 4279198765
-0.019830696 0.0090277065 0.41000003 4279331634
-0.018499015 0.0090277065 0.41000003 4279068460
-0.017209206 0.0090497248 0.41100001 4279002408
-0.015912902 0.009071744 0.41200003 4279528752
-0.0146101 0.0090937624 0.41300002 4279528498
-0.013268675 0.0090937624 0.41300002 4279133740
-0.01195613 0.0091157816 0.41400003 4279265326
-0.010611458 0.0091157816 0.41400003 4279133740
-0.009244401 0.0090937624 0.41300002 4279331119
-0.0078838412 0.009071744 0.41200003 4278607396
-0.0065456638 0.009071744 0.41200003 4278475040
-0.046464309 0.010359838 0.41000003 4282533673
-0.04513263 0.010359838 0.41000003 4282205996
-0.04380095 0.010359838 0.41000003 4280892968
-0.042469267 0.010359838 0.41000003 4280826921
-0.04103725 0.010334569 0.40900001 4280826923
-0.039708816 0.010334569 0.40900001 4280761130
-0.038286548 0.010309302 0.40800002 4280562981
-0.03687077 0.010284034 0.40700001 4281352495
-0.035461489 0.010258766 0.40600002 4282076210
-0.034058709 0.010233498 0.40500003 4281089315
-0.032743264 0.010233498 0.40500003 4280498723
-0.031427827 0.010233498 0.40500003 4280303141
-0.030112386 0.010233498 0.40500003 4278993179
-0.028868046 0.010258766 0.40600002 4279257635
-0.027549358 0.010258766 0.40600002 4279127328
-0.026295278 0.010284034 0.40700001 4279193375
-0.0250347 0.010309302 0.40800002 4279392549
-0.023709515 0.010309302 0.40800002 4279130660
-0.022439193 0.010334569 0.40900001 4279264043
-0.02111076 0.010334569 0.40900001 4279593010
-0.019830696 0.010359838 0.41000003 4279001386
-0.018544134 0.010385105 0.41100001 4279001384
-0.017251078 0.010410374 0.41200003 4279264556
-0.015912902 0.010410374 0.41200003 4279198763
-0.0146101 0.010435641 0.41300002 4278208274
-0.013300803 0.010460909 0.41400003 4279460140
-0.01198501 0.010486177 0.41500002 4279132970
-0.01066272 0.010511445 0.41600001 4279067177
-0.0092667853 0.010460909 0.41400003 4279001386
-0.0079029761 0.010435641 0.41300002 4279198765
-0.0065456638 0.010410374 0.41200003 4279198765
-0.046464309 0.01169197 0.41000003 4282665509
-0.04513263 0.01169197 0.41000003 4282206248
-0.04380095 0.01169197 0.41000003 4281154856
-0.042469267 0.01169197 0.41000003 4280694565
-0.04103725 0.011663453 0.40900001 4280694567
-0.039708816 0.011663453 0.40900001 4280761130
-0.038286548 0.011634936 0.40800002 4281023530
-0.03687077 0.011606419 0.40700001 4281220649
-0.035461489 0.011577902 0.40600002 4281418280
-0.034058709 0.011549385 0.40500003 4280957729
-0.032743264 0.011549385 0.40500003 4280432930
-0.031427827 0.011549385 0.40500003 4280303139
-0.030186737 0.011577902 0.40600002 4279125535
-0.028868046 0.011577902 0.40600002 4279191840
-0.027617212 0.011606419 0.40700001 4279061535
-0.026295278 0.011606419 0.40700001 4278930462
-0.0250347 0.011634936 0.40800002 4279524135
-0.023709515 0.011634936 0.40800002 4279130660
-0.022439193 0.011663453 0.40900001 4278803494
-0.021162378 0.01169197 0.41000003 4279527217
-0.019830696 0.01169197 0.41000003 4279000871
-0.018544134 0.011720487 0.41100001 4279000871
-0.017251078 0.011749004 0.41200003 4278408734
-0.015951525 0.011777521 0.41300002 4279000871
-0.014680851 0.011834555 0.41500002 4278207510
-0.013365057 0.011863071 0.41600001 4279655469
-0.012042769 0.01189159 0.41700003 4279591724
-0.010739615 0.011948623 0.41900003 4279394345
-0.0094906203 0.012091208 0.42400002 4279131945
-0.0081708739 0.012176759 0.42700002 4279263531
-0.0068475269 0.012290827 0.43100002 4278934566
-0.005485557 0.012376377 0.43400002 4278671394
-0.0041040988 0.012461929 0.43700001 4278934566
-0.0027031526 0.01254748 0.44000003 4279000359
-0.0012798229 0.012604514 0.44200003 4279000357
0.00015685128 0.012690065 0.44500002 4279131943
0.0016130134 0.012775616 0.44800001 4278803492
0.0030749668 0.012804133 0.44900003 4279067177
-0.045022547 0.012992335 0.40900001 4282468650
-0.043694116 0.012992335 0.40900001 4280825891
-0.042365681 0.012992335 0.40900001 4280957737
-0.04103725 0.012992335 0.40900001 4281089325
-0.039611731 0.01296057 0.40800002 4281023532
-0.038192704 0.012928803 0.40700001 4281550128
-0.036780179 0.012897038 0.40600002 4281418542
-0.035461489 0.012897038 0.40600002 4281549101
-0.034058709 0.012865272 0.40500003 4281088550
-0.032743264 0.012865272 0.40500003 4280301344
-0.031427827 0.012865272 0.40500003 4280436262
-0.030186737 0.012897038 0.40600002 4279322912
-0.028868046 0.012897038 0.40600002 4279389471
-0.027617212 0.012928803 0.40700001 4279456547
-0.026295278 0.012928803 0.40700001 4279325474
-0.0250347 0.01296057 0.40800002 4279458855
-0.023767626 0.012992335 0.40900001 4279328039
-0.022439193 0.012992335 0.40900001 4279197736
-0.021162378 0.013024103 0.41000003 4279790387
-0.019879064 0.013055868 0.41100001 4278540574
-0.018589254 0.013087635 0.41200003 4279066918
-0.01729295 0.0131194 0.41300002 4279197990
-0.015990149 0.013151167 0.41400003 4279329576
-0.014716227 0.013214699 0.41600001 4278208536
-0.013397185 0.013246465 0.41700003 4279787309
-0.012100528 0.013309998 0.41900003 4278267660
-0.010790878 0.01337353 0.42100003 4278266636
-0.0095130038 0.013500594 0.42500001 4278397710
-0.0081900097 0.013595892 0.42800003 4278331917
-0.0068634143 0.013722956 0.43200001 4278336017
-0.0054981969 0.013818256 0.43500003 4278201861
-0.0041040988 0.013881787 0.43700001 4278201354
-0.0027031526 0.013977085 0.44000003 4278203153
-0.0012827184 0.014072384 0.44300002 4278271253
0.00015720376 0.014167681 0.44600001 4278468630
0.0016130134 0.014231214 0.44800001 4278205971
0.0030818151 0.014294746 0.45000002 4278864671
-0.044912472 0.014286203 0.40800002 4284443473
-0.043587286 0.014286203 0.40800002 4281614642
-0.0422621 0.014286203 0.40800002 4281417776
-0.040936917 0.014286203 0.40800002 4281615667
-0.039611731 0.014286203 0.40800002 4281615667
-0.038192704 0.014251187 0.40700001 4281550128
-0.036780179 0.014216173 0.40600002 4281286442
-0.035461489 0.014216173 0.40600002 4281154343
-0.034058709 0.014181159 0.40500003 4281089063
-0.032743264 0.014181159 0.40500003 4280302625
-0.031505425 0.014216173 0.40600002 4280042787
-0.030186737 0.014216173 0.40600002 4279322914
-0.028939148 0.014251187 0.40700001 4279192351
-0.027617212 0.014251187 0.40700001 4279522853
-0.026359886 0.014286203 0.40800002 4279522851
-0.0250347 0.014286203 0.40800002 4279722029
-0.023767626 0.014321218 0.40900001 4279854898
-0.022494059 0.014356234 0.41000003 4279592494
-0.021162378 0.014356234 0.41000003 4279264043
-0.019879064 0.014391249 0.41100001 4279001123
-0.018589254 0.014426265 0.41200003 4279000609
-0.017334823 0.014496296 0.41400003 4279000609
-0.016028773 0.01453131 0.41500002 4279591978
-0.014751602 0.014601341 0.41700003 4278204429
-0.013461441 0.014671371 0.41900003 4278335247
-0.012158288 0.014741402 0.42100003 4278789650
-0.010842141 0.014811431 0.42300001 4279052308
-0.0095353872 0.014916478 0.42600003 4279183383
-0.0082282797 0.015056537 0.43000001 4279379992
-0.0068793017 0.015161584 0.43300003 4278531861
-0.0054981969 0.015231614 0.43500003 4279850281
-0.0041134907 0.01533666 0.43800002 4279258914
-0.0027092961 0.015441705 0.44100001 4279785771
-0.001285614 0.015546751 0.44400004 4279720750
0.00015755623 0.015651796 0.44700003 4279785775
0.0016166139 0.015721828 0.44900003 4279851314
0.003095512 0.015826873 0.45200002 4280312119
0.004603995 0.015966933 0.45600003 4280048434
0.0061117732 0.016036965 0.45800003 4280048434
-0.050013091 0.014770022 0.38600001 4282143044
-0.045217704 0.015267458 0.39900002 4283195723
-0.044692311 0.015535308 0.40600002 4283129930
-0.043480452 0.015573572 0.40700001 4282470976
-0.042158514 0.015573572 0.40700001 4281615155
-0.040936917 0.015611837 0.40800002 4282339644
-0.039514642 0.015573572 0.40700001 4282339644
-0.038192704 0.015573572 0.40700001 4282077242
-0.036780179 0.015535308 0.40600002 4281154856
-0.035461489 0.015535308 0.40600002 4281088550
-0.034142803 0.015535308 0.40600002 4281285927
-0.03282411 0.015535308 0.40600002 4279909151
-0.031505425 0.015535308 0.40600002 4279583779
-0.030261086 0.015573572 0.40700001 4279192355
-0.028939148 0.015573572 0.40700001 4279127328
-0.027617212 0.015573572 0.40700001 4279391267
-0.026359886 0.015611837 0.40800002 4279391783
-0.025096059 0.015650101 0.40900001 4279261224
-0.023767626 0.015650101 0.40900001 4279065128
-0.022494059 0.015688365 0.41000003 4279198252
-0.021213992 0.01572663 0.41100001 4279329838
-0.019927431 0.015764894 0.41200003 4279461676
-0.018634373 0.015803158 0.41300002 4279066918
-0.017334823 0.015841423 0.41400003 4279197990
-0.016067395 0.015917951 0.41600001 4279460138
-0.014786977 0.01599448 0.41800001 4278928668
-0.013493568 0.016071009 0.42000002 4278200066
-0.012187166 0.016147537 0.42200002 4278594322
-0.010893404 0.01626233 0.42500001 4280369963
-0.0095801549 0.016377123 0.42800003 4281093686
-0.0082474155 0.016491916 0.43100002 4280896309
-0.0068793017 0.016568445 0.43300003 4280308785
-0.0055108359 0.016683238 0.43600002 4278535195
-0.0041228822 0.016798031 0.43900001 4278732574
-0.0027092961 0.016874559 0.44100001 4278205970
-0.001285614 0.016989352 0.44400004 4278205198
0.00015755623 0.017104145 0.44700003 4279392299
0.0016202144 0.017218938 0.45000002 4279393582
0.0031023605 0.017333731 0.45300001 4278998824
0.004603995 0.017448524 0.45600003 4279525168
0.0061117732 0.017525053 0.45800003 4278208025
0.0076159495 0.017563317 0.45900002 4279327019
-0.046970848 0.016273256 0.39200002 4283392078
-0.045217704 0.01656385 0.39900002 4281617722
-0.044472151 0.016771417 0.40400001 4281617204
-0.043266792 0.01681293 0.40500003 4281748275
-0.042054933 0.016854443 0.40600002 4282537023
-0.04083658 0.016895955 0.40700001 4281945656
-0.039514642 0.016895955 0.40700001 4282076988
-0.038192704 0.016895955 0.40700001 4281748023
-0.036780179 0.016854443 0.40600002 4281023530
-0.035461489 0.016854443 0.40600002 4281418028
-0.034142803 0.016854443 0.40600002 4280825891
-0.03282411 0.016854443 0.40600002 4280107043
-0.031583022 0.016895955 0.40700001 4279846438
-0.030261086 0.016895955 0.40700001 4279389221
-0.028939148 0.016895955 0.40700001 4279192353
-0.02768507 0.01693747 0.40800002 4279193634
-0.026359886 0.01693747 0.40800002 4279326506
-0.025096059 0.016978983 0.40900001 4279261224
-0.023825739 0.017020497 0.41000003 4278933796
-0.022494059 0.017020497 0.41000003 4279198252
-0.021213992 0.01706201 0.41100001 4278869287
-0.019927431 0.017103525 0.41200003 4278803492
-0.018634373 0.017145038 0.41300002 4278935591
-0.017376693 0.017228065 0.41500002 4279329324
-0.016106019 0.017311091 0.41700003 4279525166
-0.014786977 0.017352603 0.41800001 4280705592
-0.013525696 0.017477145 0.42100003 4278203409
-0.012216046 0.017560171 0.42300001 4279450658
-0.010919035 0.017684711 0.42600003 4278199051
-0.0096025383 0.017809251 0.42900002 4278198792
-0.0082665514 0.017933792 0.43200001 4278726935
-0.0068951892 0.018016819 0.43400002 4280835901
-0.0055234754 0.018141359 0.43700001 4278201611
-0.0041228822 0.018224385 0.43900001 4278598937
-0.0027154398 0.018348927 0.44200003 4278666011
-0.001285614 0.018431954 0.44400004 4280377145
0.00015755623 0.018556494 0.44700003 4278732320
0.0016202144 0.018681033 0.45000002 4278601249
0.0031023605 0.018805573 0.45300001 4278601247
0.004603995 0.018930115 0.45600003 4278997029
0.0061117732 0.01901314 0.45800003 4278206228
0.0076159495 0.019054655 0.45900002 4279523885
-0.048244067 0.017546903 0.39200002 4282470980
-0.047210496 0.01763643 0.39400002 4282406216
-0.046397086 0.01781548 0.39800003 4282078534
-0.045331031 0.017905002 0.40000001 4282605130
-0.044362072 0.018039292 0.40300003 4281748536
-0.043266792 0.018128816 0.40500003 4281682230
-0.042054933 0.018173579 0.40600002 4282208828
-0.040736247 0.018173579 0.40600002 4282800965
-0.039514642 0.01821834 0.40700001 4282274621
-0.038192704 0.01821834 0.40700001 4282340160
-0.03687077 0.01821834 0.40700001 4281155888
-0.035548832 0.01821834 0.40700001 4281352495
-0.034226898 0.01821834 0.40700001 4280892198
-0.032904956 0.01821834 0.40700001 4280107043
-0.031583022 0.01821834 0.40700001 4279781158
-0.030261086 0.01821834 0.40700001 4279323428
-0.029010253 0.018263103 0.40800002 4279521318
-0.02768507 0.018263103 0.40800002 4279193634
-0.026359886 0.018263103 0.40800002 4279260711
-0.025096059 0.018307867 0.40900001 4279130408
-0.023825739 0.01835263 0.41000003 4279262507
-0.022548921 0.018397391 0.41100001 4279263791
-0.021213992 0.018397391 0.41100001 4279198252
-0.019927431 0.018442154 0.41200003 4278869285
-0.018679494 0.01853168 0.41400003 4279066664
-0.017376693 0.018576441 0.41500002 4279328554
-0.016106019 0.018665968 0.41700003 4278470681
-0.014822354 0.018755492 0.41900003 4280640571
-0.013525696 0.018845016 0.42100003 4278730007
-0.012244926 0.018979304 0.42400002 4278725910
-0.010919035 0.01906883 0.42600003 4278594326
-0.0096025383 0.019203117 0.42900002 4278462738
-0.0082665514 0.019337403 0.43200001 4279911209
-0.0069110771 0.019471692 0.43500003 4280440119
-0.0055234754 0.019561216 0.43700001 4278267154
-0.0041228822 0.019650741 0.43900001 4278664730
-0.0027154398 0.01978503 0.44200003 4278863136
-0.001285614 0.019874554 0.44400004 4278337562
0.0001579087 0.020053605 0.44800001 4278337562
0.0016202144 0.020143129 0.45000002 4278928931
0.0031023605 0.020277416 0.45300001 4278731552
0.004603995 0.020411704 0.45600003 4279193386
0.0061117732 0.02050123 0.45800003 4278207004
0.0076159495 0.020545991 0.45900002 4279458607
-0.04745014 0.0190126 0.39600003 4282209607
-0.046513662 0.019156635 0.39900002 4282406986
-0.045331031 0.019204644 0.40000001 4281946948
-0.044362072 0.019348681 0.40300003 4282274369
-0.043159962 0.019396693 0.40400001 4282273597
-0.041951351 0.019444704 0.40500003 4282602562
-0.040736247 0.019492716 0.40600002 4282603586
-0.039417554 0.019492716 0.40600002 4281879863
-0.038192704 0.019540727 0.40700001 4281155888
-0.03687077 0.019540727 0.40700001 4281484085
-0.035548832 0.019540727 0.40700001 4281484335
-0.034226898 0.019540727 0.40700001 4280761382
-0.032904956 0.019540727 0.40700001 4280437805
-0.031583022 0.019540727 0.40700001 4279257121
-0.030261086 0.019540727 0.40700001 4279258146
-0.029010253 0.019588739 0.40800002 4279127330
-0.02768507 0.019588739 0.40800002 4279325992
-0.026424494 0.01963675 0.40900001 4279261226
-0.025096059 0.01963675 0.40900001 4279130921
-0.023825739 0.019684762 0.41000003 4279131691
-0.022548921 0.019732773 0.41100001 4279265074
-0.021265609 0.019780785 0.41200003 4279001902
-0.019975798 0.019828796 0.41300002 4278672673
-0.018679494 0.01987681 0.41400003 4279000611
-0.017376693 0.019924819 0.41500002 4280051762
-0.016106019 0.020020844 0.41700003 4278203142
-0.014822354 0.020116867 0.41900003 4280705342
-0.013525696 0.020212891 0.42100003 4278398740
-0.012244926 0.020356925 0.42400002 4279118103
-0.010919035 0.020452948 0.42600003 4279183642
-0.0096249208 0.020644994 0.43000001 4279117338
-0.0082665514 0.020741018 0.43200001 4278196232
-0.0069110771 0.020885052 0.43500003 4280440371
-0.0055234754 0.020981075 0.43700001 4279650344
-0.0041228822 0.021077098 0.43900001 4280047412
-0.0027154398 0.021221135 0.44200003 4279851314
-0.001285614 0.021317158 0.44400004 4279523373
0.00015755623 0.021461193 0.44700003 4279983924
0.0016202144 0.021605227 0.45000002 4279654959
0.0031023605 0.02174926 0.45300001 4280181303
0.004603995 0.021893296 0.45600003 4280115510
0.0060984283 0.021941308 0.45700002 4279194154
0.0076159495 0.022037331 0.45900002 4279852598
-0.047689788 0.020401767 0.39800003 4282998607
-0.045444362 0.020555547 0.40100002 4283195986
-0.044362072 0.020658068 0.40300003 4282538056
-0.043159962 0.020709328 0.40400001 4283195219
-0.041951351 0.02076059 0.40500003 4283261266
-0.04063591 0.02076059 0.40500003 4282997324
-0.039417554 0.02081185 0.40600002 4282865220
-0.038098868 0.02081185 0.40600002 4282536255
-0.03687077 0.02086311 0.40700001 4281746741
-0.035548832 0.02086311 0.40700001 4281615667
-0.034226898 0.02086311 0.40700001 4280761641
-0.032904956 0.02086311 0.40700001 4279847205
-0.031583022 0.02086311 0.40700001 4279520291
-0.030261086 0.02086311 0.40700001 4279192353
-0.029010253 0.020914372 0.40800002 4279323939
-0.02768507 0.020914372 0.40800002 4279062820
-0.026424494 0.020965632 0.40900001 4279261226
-0.025096059 0.020965632 0.40900001 4278933544
-0.023825739 0.021016894 0.41000003 4279131691
-0.022548921 0.021068154 0.41100001 4279265074
-0.021265609 0.021119416 0.41200003 4279067695
-0.019975798 0.021170676 0.41300002 4279132972
-0.018679494 0.021221938 0.41400003 4279264045
-0.017376693 0.021273198 0.41500002 4279460140
-0.016106019 0.021375719 0.41700003 4278208025
-0.014822354 0.021478241 0.41900003 4279654189
-0.013525696 0.021580761 0.42100003 4279191588
-0.012216046 0.021683281 0.42300001 4279517221
-0.010919035 0.021837065 0.42600003 4279254051
-0.0096249208 0.022042107 0.43000001 4279977004
-0.0082665514 0.022144629 0.43200001 4278859806
-0.0069110771 0.022298412 0.43500003 4278531863
-0.0055234754 0.022400932 0.43700001 4278597656
-0.0041228822 0.022503454 0.43900001 4278335513
-0.0027092961 0.022605976 0.44100001 4278401306
-0.001285614 0.022759758 0.44400004 4278664732
0.00015755623 0.02291354 0.44700003 4278401560
0.0016202144 0.023067322 0.45000002 4278335767
0.0031023605 0.023221103 0.45300001 4278467099
0.004603995 0.023374887 0.45600003 4278336794
0.0060984283 0.023426147 0.45700002 4279654705
-0.04063591 0.022076476 0.40500003 4283130193
-0.039417554 0.022130987 0.40600002 4283327059
-0.038098868 0.022130987 0.40600002 4283063113
-0.03687077 0.022185495 0.40700001 4282734918
-0.035548832 0.022185495 0.40700001 4282209857
-0.034226898 0.022185495 0.40700001 4280830514
-0.032904956 0.022185495 0.40700001 4279781928
-0.031583022 0.022185495 0.40700001 4279650855
-0.030261086 0.022185495 0.40700001 4279323941
-0.029010253 0.022240005 0.40800002 4279587111
-0.02768507 0.022240005 0.40800002 4279456808
-0.026424494 0.022294514 0.40900001 4279392299
-0.025096059 0.022294514 0.40900001 4279854646
-0.023825739 0.022349026 0.41000003 4279329070
-0.022548921 0.022403535 0.41100001 4279461170
-0.021265609 0.022458045 0.41200003 4278672167
-0.019975798 0.022512555 0.41300002 4278738214
-0.018679494 0.022567065 0.41400003 4279000873
-0.017376693 0.022621574 0.41500002 4279655982
-0.016106019 0.022730595 0.41700003 4278206226
-0.014786977 0.022785103 0.41800001 4279524650
-0.013493568 0.022894124 0.42000002 4279195685
-0.012187166 0.023003142 0.42200002 4279458605
-0.010893404 0.023166671 0.42500001 4279327021
-0.0096249208 0.023439221 0.43000001 4278867240
-0.0082665514 0.02354824 0.43200001 4278669091
-0.0069110771 0.023711771 0.43500003 4279392299
-0.0055234754 0.02382079 0.43700001 4279326506
-0.0041228822 0.02392981 0.43900001 4279260715
-0.0027092961 0.024038829 0.44100001 4279260715
-0.0012827184 0.02414785 0.44300002 4279392299
0.00015720376 0.024311379 0.44600001 4279392299
0.0016166139 0.024474908 0.44900003 4279392301
0.0031023605 0.024692947 0.45300001 4279589680
0.004614091 0.024910986 0.45700002 4279655473
0.0060984283 0.024910986 0.45700002 4279852852
-0.039417554 0.023450121 0.40600002 4286684812
-0.038098868 0.023450121 0.40600002 4281223991
-0.036780179 0.023450121 0.40600002 4281421370
-0.035548832 0.02350788 0.40700001 4281093688
-0.034226898 0.02350788 0.40700001 4280502834
-0.032904956 0.02350788 0.40700001 4279913262
-0.031583022 0.02350788 0.40700001 4279716650
-0.030261086 0.02350788 0.40700001 4279389480
-0.029010253 0.023565639 0.40800002 4279916848
-0.02768507 0.023565639 0.40800002 4279720750
-0.026424494 0.023623398 0.40900001 4279523885
-0.025096059 0.023623398 0.40900001 4279196201
-0.023825739 0.023681156 0.41000003 4279263277
-0.022548921 0.023738915 0.41100001 4279460656
-0.021265609 0.023796676 0.41200003 4279329070
-0.019975798 0.023854433 0.41300002 4279329070
-0.018679494 0.023912193 0.41400003 4279131175
-0.017376693 0.023969952 0.41500002 4279196453
-0.016067395 0.024027709 0.41600001 4279196453
-0.014786977 0.024143228 0.41800001 4279131945
-0.013461441 0.024200987 0.41900003 4279329070
-0.012158288 0.024316506 0.42100003 4278736933
-0.010842141 0.024432022 0.42300001 4278868519
-0.0096249208 0.024836333 0.43000001 4278868519
-0.0082665514 0.024951853 0.43200001 4279000105
-0.0068951892 0.02506737 0.43400002 4279130921
-0.0055108359 0.025182888 0.43600002 4279393580
-0.0041134907 0.025298407 0.43800002 4279327789
-0.0027031526 0.025413925 0.44000003 4279130410
-0.0012798229 0.025529442 0.44200003 4279064617
0.00015685128 0.025702719 0.44500002 4279129640
0.001609413 0.025818236 0.44700003 4279458607
-0.032904956 0.024830263 0.40700001 4281227841
-0.031583022 0.024830263 0.40700001 4280241459
-0.030261086 0.024830263 0.40700001 4279584560
-0.029010253 0.024891272 0.40800002 4279782963
-0.02768507 0.024891272 0.40800002 4279719217
-0.026424494 0.024952279 0.40900001 4280312635
-0.025096059 0.024952279 0.40900001 4279984438
-0.023825739 0.025013288 0.41000003 4280116022
-0.022548921 0.025074296 0.41100001 4279327019
-0.021265609 0.025135305 0.41200003 4279590959
-0.019975798 0.025196312 0.41300002 4279459373
-0.018679494 0.025257321 0.41400003 4279788338
-0.017376693 0.025318328 0.41500002 4280050740
-0.016067395 0.025379336 0.41600001 4279655982
-0.014751602 0.025440345 0.41700003 4279788853
-0.013461441 0.025562361 0.41900003 4279130925
-0.012129407 0.025623368 0.42000002 4278801960
-0.01081651 0.025745384 0.42200002 4278933544
-0.0096025383 0.02617244 0.42900002 4279327787
-0.0082665514 0.026355464 0.43200001 4279525166
-0.0068951892 0.02647748 0.43400002 4279261226
-0.0055108359 0.026599497 0.43600002 4279458605
-0.0041134907 0.026721513 0.43800002 4279589680
-0.0026970091 0.02678252 0.43900001 4279457326
-0.0012769274 0.026904536 0.44100001 4279521068
0.00015685128 0.027148569 0.44500002 4279980338
0.001609413 0.027270585 0.44700003 4283136349
-0.053881187 0.025445823 0.39600003 4282470203
-0.026424494 0.026281163 0.40900001 4284121963
-0.025096059 0.026281163 0.40900001 4282412626
-0.023825739 0.026345422 0.41000003 4281558089
-0.022548921 0.026409678 0.41100001 4281163844
-0.021265609 0.026473936 0.41200003 4280308535
-0.019975798 0.026538193 0.41300002 4280440121
-0.018679494 0.026602451 0.41400003 4280440119
-0.017376693 0.026666706 0.41500002 4279980338
-0.016067395 0.026730964 0.41600001 4279980340
-0.014751602 0.026795221 0.41700003 4280046133
-0.013429312 0.026859477 0.41800001 4280111156
-0.012129407 0.026987992 0.42000002 4280637500
-0.010790878 0.027052252 0.42100003 4280900672
-0.022849126 0.015485501 0.41610691 4294967295
-0.022849126 0.015485501 0.41610691 4294901760
-0.022849126 0.015485501 0.4166069 4294901760
-0.022849126 0.015485501 0.4171069 4294901760
-0.022849126 0.015485501 0.41760692 4294901760
-0.022849126 0.015485501 0.41810691 4294901760
-0.022849126 0.015485501 0.41860691 4294901760
-0.022849126 0.015485501 0.4191069 4294901760
-0.022849126 0.015485501 0.41960692 4294901760
-0.022849126 0.015485501 0.42010692 4294901760
-0.022849126 0.015485501 0.42060691 4294901760
-0.022849126 0.015485501 0.4211069 4294901760
-0.022849126 0.015485501 0.4216069 4294901760
-0.022849126 0.015485501 0.42210692 4294901760
-0.022849126 0.015485501 0.42260692 4294901760
-0.022849126 0.015485501 0.42310691 4294901760
-0.022849126 0.015485501 0.4236069 4294901760
-0.022849126 0.015485501 0.4241069 4294901760
-0.022849126 0.015485501 0.42460692 4294901760
-0.022849126 0.015485501 0.42510691 4294901760
-0.022849126 0.015485501 0.42560691 4294901760
-0.022849126 0.015485501 0.4261069 4294901760
-0.022849126 0.015485501 0.42660692 4294901760
-0.022849126 0.015485501 0.42710692 4294901760
-0.022849126 0.015485501 0.42760691 4294901760
-0.022849126 0.015485501 0.4281069 4294901760
-0.022849126 0.015485501 0.42860693 4294901760
-0.022849126 0.015485501 0.42910692 4294901760
-0.022849126 0.015485501 0.42960691 4294901760
-0.022849126 0.015485501 0.43010691 4294901760
-0.022849126 0.015485501 0.4306069 4294901760
-0.022849126 0.015485501 0.43110693 4294901760
-0.022849126 0.015485501 0.43160692 4294901760
-0.022849126 0.015485501 0.43210691 4294901760
-0.022849126 0.015485501 0.43260691 4294901760
-0.022849126 0.015485501 0.4331069 4294901760
-0.022849126 0.015485501 0.43360692 4294901760
-0.022849126 0.015485501 0.43410692 4294901760
-0.022849126 0.015485501 0.43460691 4294901760
-0.022849126 0.015485501 0.4351069 4294901760
-0.022849126 0.015485501 0.43560693 4294901760
-0.022849126 0.015485501 0.43610692 4294901760
-0.022849126 0.015485501 0.43660691 4294901760
-0.022849126 0.015485501 0.43710691 4294901760
-0.022849126 0.015485501 0.43760693 4294901760
-0.022849126 0.015485501 0.43810692 4294901760
-0.022849126 0.015485501 0.43860692 4294901760
-0.022849126 0.015485501 0.43910691 4294901760
-0.022849126 0.015485501 0.4396069 4294901760
-0.022849126 0.015485501 0.44010693 4294901760
-0.022849126 0.015485501 0.44060692 4294901760
-0.022849126 0.015485501 0.44110692 4294901760
-0.022849126 0.015485501 0.44160691 4294901760
-0.022849126 0.015485501 0.4421069 4294901760
-0.022849126 0.015485501 0.44260693 4294901760
-0.022849126 0.015485501 0.44310692 4294901760
-0.022849126 0.015485501 0.44360691 4294901760
-0.022849126 0.015485501 0.44410691 4294901760
-0.022849126 0.015485501 0.4446069 4294901760
-0.022849126 0.015485501 0.44510692 4294901760
-0.022849126 0.015485501 0.44560692 4294901760
-0.022849126 0.015485501 0.44610691 4294901760
-0.022849126 0.015485501 0.4466069 4294901760
-0.022849126 0.015485501 0.44710693 4294901760
-0.022849126 0.015485501 0.44760692 4294901760
-0.022849126 0.015485501 0.44810691 4294901760
-0.022849126 0.015485501 0.44860691 4294901760
-0.022849126 0.015485501 0.44910693 4294901760
-0.022849126 0.015485501 0.44960693 4294901760
-0.022849126 0.015485501 0.45010692 4294901760
-0.022849126 0.015485501 0.45060691 4294901760
-0.022849126 0.015485501 0.45110691 4294901760
-0.022849126 0.015485501 0.45160693 4294901760
-0.022849126 0.015485501 0.45210692 4294901760
-0.022849126 0.015485501 0.45260692 4294901760
-0.022849126 0.015485501 0.45310691 4294901760
-0.022849126 0.015485501 0.4536069 4294901760
-0.022849126 0.015485501 0.45410693 4294901760
-0.022849126 0.015485501 0.45460692 4294901760
-0.022849126 0.015485501 0.45510691 4294901760
-0.022849126 0.015485501 0.45560691 4294901760
-0.022849126 0.015485501 0.45610693 4294901760
-0.022849126 0.015485501 0.45660692 4294901760
-0.022849126 0.015485501 0.45710692 4294901760
-0.022849126 0.015485501 0.45760691 4294901760
-0.022849126 0.015485501 0.45810691 4294901760
-0.022849126 0.015485501 0.45860693 4294901760
-0.022849126 0.015485501 0.45910692 4294901760
-0.022849126 0.015485501 0.45960692 4294901760
-0.022849126 0.015485501 0.46010691 4294901760
-0.022849126 0.015485501 0.46060693 4294901760
-0.022849126 0.015485501 0.46110693 4294901760
-0.022849126 0.015485501 0.46160692 4294901760
-0.022849126 0.015485501 0.46210691 4294901760
-0.022849126 0.015485501 0.46260691 4294901760
-0.022849126 0.015485501 0.46310693 4294901760
-0.022849126 0.015485501 0.46360692 4294901760
-0.022849126 0.015485501 0.46410692 4294901760
-0.022849126 0.015485501 0.46460691 4294901760
-0.022849126 0.015485501 0.46510693 4294901760
-0.022849126 0.015485501 0.46560693 4294901760
-0.022849126 0.015485501 0.46610692 4294901760
-0.022849126 0.015485501 0.41610691 4278255360
-0.023044983 0.015415793 0.41656163 4278255360
-0.02324084 0.015346085 0.41701639 4278255360
-0.023436695 0.015276377 0.41747111 4278255360
-0.023632552 0.015206669 0.41792583 4278255360
-0.02382841 0.015136961 0.41838056 4278255360
-0.024024267 0.015067252 0.41883531 4278255360
-0.024220124 0.014997545 0.41929004 4278255360
-0.024415981 0.014927836 0.41974476 4278255360
-0.024611838 0.014858129 0.42019948 4278255360
-0.024807693 0.01478842 0.42065424 4278255360
-0.025003551 0.014718712 0.42110896 4278255360
-0.025199408 0.014649004 0.42156368 4278255360
-0.025395265 0.014579296 0.42201841 4278255360
-0.025591122 0.014509588 0.42247316 4278255360
-0.025786977 0.01443988 0.42292789 4278255360
-0.025982834 0.014370171 0.42338261 4278255360
-0.026178692 0.014300464 0.42383733 4278255360
-0.026374549 0.014230755 0.42429209 4278255360
-0.026570406 0.014161048 0.42474681 4278255360
-0.026766263 0.014091339 0.42520154 4278255360
-0.026962118 0.014021631 0.42565626 4278255360
-0.027157975 0.013951924 0.42611101 4278255360
-0.027353832 0.013882215 0.42656574 4278255360
-0.02754969 0.013812507 0.42702046 4278255360
-0.027745547 0.013742799 0.42747521 4278255360
-0.027941402 0.013673091 0.42792994 4278255360
-0.028137259 0.013603383 0.42838466 4278255360
-0.028333116 0.013533674 0.42883939 4278255360
-0.028528973 0.013463967 0.42929414 4278255360
-0.028724831 0.013394259 0.42974886 4278255360
-0.028920688 0.01332455 0.43020359 4278255360
-0.029116545 0.013254843 0.43065831 4278255360
-0.029312402 0.013185134 0.43111306 4278255360
-0.029508257 0.013115427 0.43156779 4278255360
-0.029704114 0.013045718 0.43202251 4278255360
-0.029899972 0.012976009 0.43247724 4278255360
-0.030095829 0.012906302 0.43293199 4278255360
-0.030291684 0.012836594 0.43338671 4278255360
-0.030487541 0.012766887 0.43384144 4278255360
-0.030683398 0.012697178 0.43429616 4278255360
-0.030879255 0.012627469 0.43475091 4278255360
-0.031075113 0.012557762 0.43520564 4278255360
-0.03127097 0.012488053 0.43566036 4278255360
-0.031466827 0.012418346 0.43611509 4278255360
-0.03166268 0.012348637 0.43656984 4278255360
-0.031858541 0.012278929 0.43702456 4278255360
-0.032054394 0.012209222 0.43747929 4278255360
-0.032250252 0.012139513 0.43793401 4278255360
-0.032446109 0.012069805 0.43838876 4278255360
-0.032641966 0.012000097 0.43884349 4278255360
-0.032837823 0.011930389 0.43929821 4278255360
-0.03303368 0.011860681 0.43975294 4278255360
-0.033229537 0.011790973 0.44020769 4278255360
-0.033425394 0.011721265 0.44066241 4278255360
-0.033621252 0.011651557 0.44111714 4278255360
-0.033817109 0.011581848 0.44157189 4278255360
-0.034012966 0.01151214 0.44202662 4278255360
-0.034208819 0.011442432 0.44248134 4278255360
-0.034404676 0.011372725 0.44293606 4278255360
-0.034600534 0.011303016 0.44339082 4278255360
-0.034796394 0.011233307 0.44384554 4278255360
-0.034992248 0.0111636 0.44430026 4278255360
-0.035188105 0.011093892 0.44475499 4278255360
-0.035383962 0.011024185 0.44520974 4278255360
-0.035579819 0.010954476 0.44566447 4278255360
-0.035775676 0.010884767 0.44611919 4278255360
-0.035971534 0.01081506 0.44657391 4278255360
-0.036167391 0.010745352 0.44702867 4278255360
-0.036363244 0.010675644 0.44748339 4278255360
-0.036559105 0.010605935 0.44793811 4278255360
-0.036754958 0.010536227 0.44839284 4278255360
-0.036950819 0.010466519 0.44884759 4278255360
-0.037146673 0.010396811 0.44930232 4278255360
-0.03734253 0.010327103 0.44975704 4278255360
-0.037538387 0.010257395 0.45021176 4278255360
-0.037734244 0.010187687 0.45066652 4278255360
-0.037930101 0.010117979 0.45112124 4278255360
-0.038125958 0.010048271 0.45157596 4278255360
-0.038321815 0.0099785626 0.45203072 4278255360
-0.038517673 0.009908855 0.45248544 4278255360
-0.03871353 0.0098391464 0.45294017 4278255360
-0.038909383 0.0097694378 0.45339489 4278255360
-0.039105244 0.0096997302 0.45384961 4278255360
-0.039301097 0.0096300226 0.45430437 4278255360
-0.039496958 0.009560314 0.45475909 4278255360
-0.039692812 0.0094906054 0.45521381 4278255360
-0.039888669 0.0094208978 0.45566857 4278255360
-0.040084526 0.0093511902 0.45612329 4278255360
-0.040280383 0.0092814825 0.45657802 4278255360
-0.04047624 0.009211774 0.45703274 4278255360
-0.040672097 0.0091420654 0.45748749 4278255360
-0.040867954 0.0090723578 0.45794222 4278255360
-0.041063808 0.0090026502 0.45839694 4278255360
-0.041259669 0.0089329416 0.45885167 4278255360
-0.041455522 0.008863233 0.45930642 4278255360
-0.041651379 0.0087935254 0.45976114 4278255360
-0.041847236 0.0087238168 0.46021587 4278255360
-0.042043097 0.0086541092 0.46067059 4278255360
-0.042238951 0.0085844006 0.46112534 4278255360
-0.042434808 0.008514693 0.46158007 4278255360
