# .PCD v0.7 - Point Cloud Data file format
VERSION 0.7
FIELDS x y z rgb
SIZE 4 4 4 4
TYPE F F F U
COUNT 1 1 1 1
WIDTH 809
HEIGHT 1
VIEWPOINT 0 0 0 1 0 0 0
POINTS 809
DATA ascii
-0.072366096 0.011036579 0.588 4283786324
-0.070576094 0.011055349 0.58900005 4283852369
-0.068779595 0.011074119 0.59000003 4283983442
-0.066976599 0.011092889 0.59100002 4282602312
-0.065167114 0.011111658 0.59200001 4282404935
-0.063351132 0.011130429 0.59300005 4282144078
-0.059699669 0.011167968 0.59500003 4285894528
-0.072119951 0.012903014 0.58600003 4286288255
-0.070336446 0.012925033 0.58700001 4283917658
-0.065057032 0.013013108 0.59100002 4283261276
-0.063244298 0.013035126 0.59200001 4282603346
-0.061425064 0.013057146 0.59300005 4281222461
-0.059599336 0.013079165 0.59400004 4282537804
-0.057767108 0.013101183 0.59500003 4282537802
-0.077431485 0.014731183 0.583 4282538323
-0.075667478 0.014756452 0.58400005 4284315247
-0.073770642 0.014756452 0.58400005 4288064933
-0.071996883 0.01478172 0.58500004 4283260761
-0.070216626 0.014806988 0.58600003 4293590012
-0.068429872 0.014832254 0.58700001 4283261026
-0.064836875 0.014882792 0.58900005 4282208839
-0.063137464 0.014933326 0.59100002 4282800976
-0.061321478 0.014958594 0.59200001 4281617472
-0.059599336 0.015009131 0.59400004 4282933330
-0.057767108 0.015034398 0.59500003 4281420091
-0.055928387 0.015059666 0.59600002 4281616954
-0.054083169 0.015084933 0.597 4283721813
-0.052231457 0.015110203 0.59800005 4280959024
-0.050289154 0.015110203 0.59800005 4281156149
-0.048346847 0.015110203 0.59800005 4282933580
-0.046482142 0.01513547 0.59900004 4280503086
-0.044536591 0.01513547 0.59900004 4279521838
-0.075537905 0.01662541 0.583 4283591009
-0.073644318 0.01662541 0.583 4282536521
-0.071873814 0.016653929 0.58400005 4286089860
-0.063030638 0.01682503 0.59000003 4286288246
-0.061217893 0.016853547 0.59100002 4282867017
-0.057767108 0.016967615 0.59500003 4280695598
-0.055928387 0.016996132 0.59600002 4280958511
-0.054083169 0.017024647 0.597 4280497190
-0.05214411 0.017024647 0.597 4281024302
-0.050289154 0.017053166 0.59800005 4281155886
-0.046482142 0.017081684 0.59900004 4280434727
-0.044536591 0.017081684 0.59900004 4279126562
-0.042662136 0.017110201 0.60000002 4278930466
-0.040781192 0.017138716 0.60100001 4278865957
-0.038893756 0.017167235 0.60200006 4279589678
-0.036938455 0.017167235 0.60200006 4280050229
-0.035041269 0.017195752 0.60300004 4280181815
-0.033082724 0.017195752 0.60300004 4279591476
-0.03112418 0.017195752 0.60300004 4279591476
-0.029117268 0.017167235 0.60200006 4279985721
-0.027161969 0.017167235 0.60200006 4279984697
-0.025206674 0.017167235 0.60200006 4279984697
-0.023251377 0.017167235 0.60200006 4279589939
-0.021296078 0.017167235 0.60200006 4279129390
-0.073644318 0.018519638 0.583 4284643178
-0.071750738 0.018519638 0.583 4283919457
-0.069976978 0.018551406 0.58400005 4283984989
-0.061217893 0.018773766 0.59100002 4282800193
-0.05767002 0.018869067 0.59400004 4279840289
-0.055834547 0.018900832 0.59500003 4280300329
-0.053992577 0.018932598 0.59600002 4280431145
-0.05214411 0.018964363 0.597 4280957739
-0.050205056 0.018964363 0.597 4280365600
-0.048346847 0.018996131 0.59800005 4281419310
-0.046404541 0.018996131 0.59800005 4280434979
-0.044536591 0.019027896 0.59900004 4279388707
-0.042662136 0.019059662 0.60000002 4279060769
-0.040781192 0.019091427 0.60100001 4278996257
-0.038893756 0.019123195 0.60200006 4279260199
-0.036999814 0.01915496 0.60300004 4279129892
-0.035041269 0.01915496 0.60300004 4279525420
-0.033082724 0.01915496 0.60300004 4279131691
-0.03112418 0.01915496 0.60300004 4278868521
-0.029165635 0.01915496 0.60300004 4278867751
-0.027207088 0.01915496 0.60300004 4279130410
-0.025248544 0.01915496 0.60300004 4278999335
-0.023289999 0.01915496 0.60300004 4278801956
-0.021331454 0.01915496 0.60300004 4278802728
-0.019437162 0.019218491 0.60500002 4278934314
-0.017501002 0.019250257 0.60600001 4279262509
-0.013653958 0.019377323 0.61000001 4279525683
-0.007722754 0.019409088 0.611 4279655219
-0.073644318 0.020413864 0.583 4285103981
-0.071750738 0.020413864 0.583 4284577639
-0.069976978 0.02044888 0.58400005 4282733638
-0.061114311 0.020658972 0.59000003 4284114510
-0.05767002 0.020799031 0.59400004 4280694317
-0.055834547 0.020834047 0.59500003 4280365350
-0.053992577 0.020869061 0.59600002 4280102178
-0.05214411 0.020904077 0.597 4280695339
-0.050205056 0.020904077 0.597 4280366370
-0.048346847 0.020939093 0.59800005 4280236319
-0.046404541 0.020939093 0.59800005 4279975711
-0.044536591 0.020974107 0.59900004 4279453728
-0.042662136 0.021009123 0.60000002 4279257633
-0.040781192 0.021044137 0.60100001 4279193636
-0.038893756 0.021079155 0.60200006 4279194406
-0.036999814 0.021114169 0.60300004 4279260711
-0.035041269 0.021114169 0.60300004 4279458603
-0.033082724 0.021114169 0.60300004 4278669857
-0.03112418 0.021114169 0.60300004 4278998822
-0.029165635 0.021114169 0.60300004 4279195433
-0.027207088 0.021114169 0.60300004 4278601499
-0.025290417 0.021149185 0.60400003 4279261224
-0.023328623 0.021149185 0.60400003 4278735650
-0.021402204 0.021184199 0.60500002 4278735650
-0.019469289 0.021219213 0.60600001 4278801956
-0.017529882 0.02125423 0.60700005 4278671142
-0.015635239 0.021359274 0.61000001 4278671142
-0.013676342 0.02139429 0.611 4278868519
-0.011710948 0.021429306 0.61200005 4278802726
-0.0097390581 0.02146432 0.61300004 4278934312
-0.0077480334 0.02146432 0.61300004 4278802728
-0.0057945745 0.021604382 0.61700004 4278671144
-0.0038028443 0.021674411 0.61900002 4279394097
-0.0017981223 0.021744443 0.62100005 4280117307
0.00021959179 0.021814473 0.62300003 4279984697
0.0022502977 0.021884501 0.625 4280113721
-0.073644318 0.022308089 0.583 4285367153
-0.071750738 0.022308089 0.583 4284511846
-0.069976978 0.022346355 0.58400005 4283063117
-0.06808015 0.022346355 0.58400005 4282667582
-0.061114311 0.022575941 0.59000003 4284115280
-0.059398662 0.022652468 0.59200001 4282997324
-0.05767002 0.022728998 0.59400004 4280825903
-0.055834547 0.022767263 0.59500003 4280693803
-0.053992577 0.022805527 0.59600002 4280035871
-0.05214411 0.022843789 0.597 4280366120
-0.050205056 0.022843789 0.597 4280826925
-0.048346847 0.022882055 0.59800005 4280302627
-0.046404541 0.022882055 0.59800005 4279713568
-0.044536591 0.02292032 0.59900004 4279256349
-0.042733241 0.022996847 0.60100001 4279191840
-0.040849052 0.023035113 0.60200006 4279127330
-0.038958363 0.023073377 0.60300004 4279456808
-0.036999814 0.023073377 0.60300004 4279194920
-0.03509938 0.023111641 0.60400003 4279261226
-0.03313759 0.023111641 0.60400003 4279129638
-0.031175794 0.023111641 0.60400003 4278998052
-0.029214 0.023111641 0.60400003 4279129125
-0.027252207 0.023111641 0.60400003 4279718697
-0.025332287 0.023149906 0.60500002 4279587879
-0.023405869 0.023188168 0.60600001 4278600214
-0.02143758 0.023188168 0.60600001 4279323426
-0.019533547 0.023264699 0.60800004 4279850285
-0.017587641 0.023302963 0.60900003 4279325994
-0.015660869 0.02337949 0.611 4279260713
-0.013698726 0.023417756 0.61200005 4278800673
-0.011749219 0.023494285 0.61400002 4278669857
-0.009770833 0.023532547 0.61500001 4278669857
-0.0077859522 0.023570813 0.61600006 4278867236
-0.0058133574 0.023685604 0.61900002 4278735650
-0.0038151315 0.023762135 0.62100005 4278538273
-0.0018039133 0.023838663 0.62300003 4278998824
0.00022064922 0.023953456 0.62600005 4279130410
0.0022574987 0.023991721 0.62700003 4279130410
0.0043213898 0.024144778 0.63100004 4279196203
-0.075537905 0.024202315 0.583 4285694573
-0.071873814 0.024243832 0.58400005 4284511331
-0.068196721 0.024285344 0.58500004 4282404933
-0.06640996 0.024326857 0.58600003 4280890147
-0.064726792 0.024409883 0.588 4280955681
-0.061217893 0.024534423 0.59100002 4282340162
-0.059499003 0.024617452 0.59300005 4283787356
-0.05767002 0.024658965 0.59400004 4280958257
-0.055928387 0.02474199 0.59600002 4281286452
-0.053992577 0.02474199 0.59600002 4280364836
-0.05214411 0.024783503 0.597 4281023534
-0.050205056 0.024783503 0.597 4281155888
-0.048346847 0.024825018 0.59800005 4280040739
-0.046482142 0.024866531 0.59900004 4279780129
-0.04461094 0.024908045 0.60000002 4278928156
-0.042733241 0.024949558 0.60100001 4279389221
-0.040849052 0.024991073 0.60200006 4279258916
-0.038958363 0.025032585 0.60300004 4279325222
-0.037061173 0.025074098 0.60400003 4278865441
-0.03509938 0.025074098 0.60400003 4279655984
-0.033192452 0.025115611 0.60500002 4278998306
-0.03122741 0.025115611 0.60500002 4279064099
-0.029262368 0.025115611 0.60500002 4280377910
-0.027297327 0.025115611 0.60500002 4278467605
-0.025374157 0.025157124 0.60600001 4278199556
-0.023444494 0.02519864 0.60700005 4278593039
-0.021508332 0.025240153 0.60800004 4278789138
-0.019565674 0.025281666 0.60900003 4278854929
-0.017645398 0.025364691 0.611 4278789650
-0.015712133 0.025447719 0.61300004 4278594835
-0.013743492 0.025489232 0.61400002 4278928670
-0.011768354 0.025530744 0.61500001 4278202377
-0.0098026078 0.025613774 0.61700004 4278201349
-0.0078112311 0.025655286 0.61800003 4278199808
-0.0058321408 0.025779827 0.62100005 4278199298
-0.0038274184 0.025862852 0.62300003 4278202123
-0.0018125999 0.025987394 0.62600005 4279192355
0.00022135416 0.02607042 0.62800002 4279652904
0.0022719007 0.02619496 0.63100004 4279851566
0.0043419348 0.0263195 0.634 4279325992
0.0064415541 0.026485553 0.63800001 4278998824
-0.071996883 0.026186068 0.58500004 4282867019
-0.070216626 0.026230831 0.58600003 4286025081
-0.068429872 0.026275592 0.58700001 4282603334
-0.066636615 0.026320355 0.588 4282734402
-0.064836875 0.026365118 0.58900005 4282602816
-0.063137464 0.026454642 0.59100002 4282340677
-0.061321478 0.026499404 0.59200001 4283393881
-0.059599336 0.026588932 0.59400004 4282735435
-0.057767108 0.026633693 0.59500003 4281024050
-0.055928387 0.026678454 0.59600002 4280958257
-0.054083169 0.026723217 0.597 4280958257
-0.05214411 0.026723217 0.597 4280826155
-0.050289154 0.026767982 0.59800005 4281090610
-0.048346847 0.026767982 0.59800005 4279843873
-0.046482142 0.026812743 0.59900004 4279714852
-0.04461094 0.026857505 0.60000002 4279322660
-0.042804345 0.026947033 0.60200006 4279257635
-0.040916905 0.026991794 0.60300004 4279390502
-0.039022967 0.027036555 0.60400003 4279456806
-0.037061173 0.027036555 0.60400003 4279260711
-0.035157491 0.027081318 0.60500002 4279327017
-0.033192452 0.027081318 0.60500002 4279063845
-0.03122741 0.027081318 0.60500002 4278998306
-0.029262368 0.027081318 0.60500002 4280180018
-0.027342446 0.027126079 0.60600001 4280309809
-0.025416031 0.027170844 0.60700005 4278198789
-0.023483116 0.027215606 0.60800004 4279448348
-0.021543706 0.027260369 0.60900003 4279842338
-0.019629927 0.027349891 0.611 4281026612
-0.01767428 0.027394656 0.61200005 4279973926
-0.015737765 0.02748418 0.61400002 4279647012
-0.013765875 0.027528942 0.61500001 4279125535
-0.011806626 0.02761847 0.61700004 4278993949
-0.0098184953 0.027663231 0.61800003 4278402326
-0.0078365095 0.027752755 0.62 4279718186
-0.0058509237 0.027887043 0.62300003 4279521320
-0.0038397054 0.027976567 0.625 4279653676
-0.0018183909 0.028110856 0.62800002 4279456297
0.0002224116 0.028245144 0.63100004 4279850031
0.0022791016 0.028334668 0.63300002 4279717932
0.0043556322 0.028468955 0.63600004 4278201610
0.006451651 0.028603245 0.63900006 4278866986
0.0085404692 0.028648006 0.64000005 4278866986
-0.072119951 0.028134806 0.58600003 4283195469
-0.068546444 0.028230827 0.588 4282997060
-0.065057032 0.028374864 0.59100002 4282536769
-0.063244298 0.028422875 0.59200001 4281353015
-0.061528649 0.0285189 0.59400004 4282669388
-0.059699669 0.02856691 0.59500003 4281484601
-0.054173764 0.028710946 0.59800005 4281484601
-0.052231457 0.028710946 0.59800005 4281222196
-0.050289154 0.028710946 0.59800005 4281551159
-0.048427694 0.028758958 0.59900004 4279910695
-0.04655974 0.028806968 0.60000002 4279715113
-0.044685289 0.028854979 0.60100001 4279388453
-0.042804345 0.028902993 0.60200006 4279389732
-0.040984761 0.028999016 0.60400003 4279193636
-0.039022967 0.028999016 0.60400003 4279720748
-0.037122533 0.029047025 0.60500002 4279327017
-0.035157491 0.029047025 0.60500002 4278998052
-0.033192452 0.029047025 0.60500002 4278735134
-0.031279024 0.029095037 0.60600001 4279524650
-0.029310735 0.029095037 0.60600001 4279849772
-0.027387567 0.02914305 0.60700005 4280769336
-0.025457902 0.029191062 0.60800004 4278265359
-0.02352174 0.029239073 0.60900003 4279646242
-0.021579081 0.029287085 0.61000001 4278198028
-0.019662056 0.029383108 0.61200005 4278198283
-0.017703159 0.02943112 0.61300004 4280239149
-0.015763396 0.029527143 0.61500001 4280963897
-0.013810643 0.029623168 0.61700004 4278198534
-0.011825761 0.029671177 0.61800003 4278660882
-0.0098502701 0.0297672 0.62 4279782182
-0.0078617893 0.029863225 0.62200004 4278928156
-0.0058603152 0.029959247 0.62400001 4278600218
-0.0038519925 0.030103283 0.62700003 4278468632
-0.0018241821 0.030247318 0.63000005 4278204689
0.00022276407 0.030343341 0.63200003 4278731804
0.0022863026 0.030487375 0.63500005 4279982641
0.0043624807 0.030583398 0.63700002 4278468378
0.006461747 0.030727433 0.64000005 4278996775
0.0085671572 0.030823456 0.64200002 4279194668
-0.068779595 0.030243823 0.59000003 4281021987
-0.066976599 0.030295083 0.59100002 4284247127
-0.065277196 0.030397605 0.59300005 4286353787
-0.063457966 0.030448865 0.59400004 4285498739
-0.054264355 0.030705169 0.59900004 4283524697
-0.0523188 0.030705169 0.59900004 4283722328
-0.050373249 0.030705169 0.59900004 4283657303
-0.04850854 0.030756429 0.60000002 4280108842
-0.046637338 0.030807689 0.60100001 4279846953
-0.044759646 0.030858953 0.60200006 4279454246
-0.04287545 0.030910213 0.60300004 4279521320
-0.040984761 0.030961473 0.60400003 4279062822
-0.039087575 0.031012733 0.60500002 4279194920
-0.037122533 0.031012733 0.60500002 4279787055
-0.035215601 0.031063993 0.60600001 4279129638
-0.033247314 0.031063993 0.60600001 4278800673
-0.031279024 0.031063993 0.60600001 4279129892
-0.029310735 0.031063993 0.60600001 4279652906
-0.027387567 0.031115256 0.60700005 4279783211
-0.025457902 0.031166516 0.60800004 4278396945
-0.02352174 0.031217776 0.60900003 4279118617
-0.021614457 0.031320296 0.611 4279117336
-0.019662056 0.03137156 0.61200005 4279117336
-0.017732039 0.03147408 0.61400002 4278592273
-0.015789028 0.031576604 0.61600006 4280964151
-0.013810643 0.031627864 0.61700004 4278397970
-0.011844897 0.031730384 0.61900002 4280766518
-0.0098661585 0.031832907 0.62100005 4279124511
-0.0078744283 0.031935427 0.62300003 4278533398
-0.0058697066 0.032037947 0.625 4279521320
-0.003858136 0.032191727 0.62800002 4278797597
-0.0018270776 0.032345511 0.63100004 4278533398
0.000223469 0.032499291 0.634 4278401812
0.0022899031 0.032601815 0.63600004 4280309555
0.0043761777 0.032755598 0.63900006 4279126308
0.0064718435 0.032858118 0.64100003 4279457578
0.0085805021 0.032960638 0.64300001 4279391785
-0.067203261 0.032324322 0.59300005 4283392080
-0.050457343 0.032705892 0.60000002 4280565295
-0.048589386 0.0327604 0.60100001 4280240428
-0.046714943 0.032814912 0.60200006 4279781928
-0.044833995 0.032869421 0.60300004 4279849004
-0.042946551 0.032923929 0.60400003 4279652139
-0.041052613 0.032978438 0.60500002 4279456810
-0.039087575 0.032978438 0.60500002 4279391787
-0.037183892 0.033032946 0.60600001 4279326506
-0.035215601 0.033032946 0.60600001 4279129640
-0.033247314 0.033032946 0.60600001 4279129640
-0.031279024 0.033032946 0.60600001 4278734369
-0.029310735 0.033032946 0.60600001 4278600218
-0.027387567 0.033087462 0.60700005 4279587883
-0.025457902 0.033141971 0.60800004 4279981617
-0.023560364 0.033250988 0.61000001 4280244789
-0.021614457 0.033305496 0.611 4281032508
-0.019694183 0.033414517 0.61300004 4280308785
-0.017732039 0.033469029 0.61400002 4280439860
-0.015789028 0.033578049 0.61600006 4279914029
-0.013833026 0.033687066 0.61800003 4278269204
-0.011864032 0.033796087 0.62 4278201099
-0.0098820459 0.033905108 0.62200004 4278199557
-0.0078870682 0.034014124 0.62400001 4278199298
-0.0058790985 0.034123145 0.62600005 4278199554
-0.0038642795 0.034286674 0.62900001 4278201611
-0.0018270776 0.034395695 0.63100004 4278533660
0.000223469 0.034559224 0.634 4280046897
0.0022935036 0.034722753 0.63700002 4279586346
0.0043761777 0.034831773 0.63900006 4279586859
0.0064718435 0.034940794 0.64100003 4279194406
0.0085805021 0.035049811 0.64300001 4279062050
-0.069129325 0.034251042 0.59300005 4281746741
-0.046792541 0.034828629 0.60300004 4279910445
-0.044908348 0.034886386 0.60400003 4279385898
-0.043017656 0.034944147 0.60500002 4280308537
-0.041052613 0.034944147 0.60500002 4279784240
-0.039152183 0.035001904 0.60600001 4279719217
-0.037183892 0.035001904 0.60600001 4279523119
-0.035215601 0.035001904 0.60600001 4279392047
-0.033247314 0.035001904 0.60600001 4279326254
-0.031279024 0.035001904 0.60600001 4279392047
-0.029310735 0.035001904 0.60600001 4279720498
-0.027387567 0.035059664 0.60700005 4279325740
-0.025457902 0.035117425 0.60800004 4279391787
-0.023560364 0.035232939 0.61000001 4279325994
-0.021614457 0.035290699 0.611 4279391785
-0.019694183 0.035406217 0.61300004 4279391785
-0.017760918 0.035521735 0.61500001 4279654187
-0.015789028 0.035579495 0.61600006 4279391017
-0.013833026 0.035695013 0.61800003 4279522603
-0.011864032 0.035810526 0.62 4279391017
-0.0098820459 0.035926048 0.62200004 4279587883
-0.0078870682 0.036041565 0.62400001 4279456297
-0.0058790985 0.036157083 0.62600005 4279521320
-0.0038642795 0.036330357 0.62900001 4279783979
-0.0018299731 0.036503635 0.63200003 4279850285
0.000223469 0.036619153 0.634 4279784492
0.0022935036 0.036792431 0.63700002 4279850031
0.0043761777 0.036907952 0.63900006 4279719469
0.0064819399 0.037081227 0.64200002 4279587883
-0.027387567 0.03703187 0.60700005 4279848754
-0.025457902 0.037092876 0.60800004 4279717682
-0.023560364 0.03721489 0.61000001 4279717682
-0.021614457 0.037275899 0.611 4279651887
-0.019694183 0.037397917 0.61300004 4279981619
-0.017760918 0.037519932 0.61500001 4279718447
-0.015789028 0.037580941 0.61600006 4279719217
-0.013833026 0.037702955 0.61800003 4279588144
-0.011864032 0.03782497 0.62 4279851316
-0.0098820459 0.037946988 0.62200004 4279588144
-0.0078870682 0.038069002 0.62400001 4279456558
-0.00588849 0.03825203 0.62700003 4279588144
-0.0038642795 0.038374044 0.62900001 4279258666
-0.0018299731 0.038557068 0.63200003 4279719217
0.000223469 0.038679082 0.634 4279850803
0.0022935036 0.038862109 0.63700002 4279719217
0.0043761777 0.038984127 0.63900006 4278928931
0.0064718435 0.039106142 0.64100003 4279911981
-0.017760918 0.039518133 0.61500001 4285897347
-0.0078870682 0.040096447 0.62400001 4286095237
-0.00588849 0.040289219 0.62700003 4286029962
-0.0038642795 0.040417731 0.62900001 4286490513
0.000223469 0.040739015 0.634 4287082650
0.0022935036 0.040931787 0.63700002 4287542687
-0.032838054 0.026176125 0.60701978 4294967295
-0.032838054 0.026176125 0.60701978 4294901760
-0.032710984 0.025697935 0.60694778 4294901760
-0.032583911 0.025219746 0.60687572 4294901760
-0.032456841 0.024741555 0.60680372 4294901760
-0.032329768 0.024263365 0.60673171 4294901760
-0.032202698 0.023785176 0.60665965 4294901760
-0.032075629 0.023306986 0.60658765 4294901760
-0.031948555 0.022828795 0.60651565 4294901760
-0.031821486 0.022350606 0.60644358 4294901760
-0.031694416 0.021872416 0.60637158 4294901760
-0.031567343 0.021394227 0.60629952 4294901760
-0.031440273 0.020916037 0.60622752 4294901760
-0.0313132 0.020437846 0.60615551 4294901760
-0.03118613 0.019959657 0.60608345 4294901760
-0.031059058 0.019481465 0.60601145 4294901760
-0.030931987 0.019003276 0.60593945 4294901760
-0.030804917 0.018525086 0.60586739 4294901760
-0.030677846 0.018046897 0.60579538 4294901760
-0.030550774 0.017568707 0.60572338 4294901760
-0.030423703 0.017090518 0.60565132 4294901760
-0.030296633 0.016612327 0.60557932 4294901760
-0.030169562 0.016134137 0.60550731 4294901760
-0.03004249 0.015655948 0.60543525 4294901760
-0.029915418 0.015177757 0.60536325 4294901760
-0.029788349 0.014699568 0.60529125 4294901760
-0.029661277 0.014221378 0.60521919 4294901760
-0.029534206 0.013743188 0.60514718 4294901760
-0.029407134 0.013264997 0.60507518 4294901760
-0.029280063 0.012786807 0.60500312 4294901760
-0.029152993 0.012308619 0.60493112 4294901760
-0.029025922 0.011830428 0.60485911 4294901760
-0.02889885 0.011352238 0.60478705 4294901760
-0.02877178 0.010874049 0.60471505 4294901760
-0.028644707 0.010395858 0.60464299 4294901760
-0.028517637 0.009917669 0.60457098 4294901760
-0.028390566 0.0094394796 0.60449898 4294901760
-0.028263494 0.0089612883 0.60442692 4294901760
-0.028136425 0.0084830988 0.60435492 4294901760
-0.028009353 0.0080049094 0.60428292 4294901760
-0.027882282 0.0075267199 0.60421085 4294901760
-0.02775521 0.0070485286 0.60413885 4294901760
-0.027628139 0.0065703392 0.60406685 4294901760
-0.027501069 0.0060921498 0.60399479 4294901760
-0.027373997 0.0056139585 0.60392278 4294901760
-0.027246926 0.0051357709 0.60385078 4294901760
-0.027119856 0.0046575814 0.60377872 4294901760
-0.026992783 0.0041793901 0.60370672 4294901760
-0.026865713 0.0037012007 0.60363472 4294901760
-0.026738642 0.0032230113 0.60356265 4294901760
-0.02661157 0.00274482 0.60349065 4294901760
-0.026484501 0.0022666305 0.60341859 4294901760
-0.026357429 0.0017884411 0.60334659 4294901760
-0.026230358 0.0013102517 0.60327458 4294901760
-0.026103288 0.00083206221 0.60320252 4294901760
-0.025976215 0.00035386905 0.60313052 4294901760
-0.025849145 -0.00012432039 0.60305852 4294901760
-0.025722073 -0.00060250983 0.60298645 4294901760
-0.025595002 -0.0010806974 0.60291445 4294901760
-0.025467932 -0.0015588868 0.60284245 4294901760
-0.025340861 -0.0020370763 0.60277039 4294901760
-0.025213789 -0.0025152694 0.60269839 4294901760
-0.025086718 -0.0029934589 0.60262638 4294901760
-0.024959646 -0.0034716483 0.60255432 4294901760
-0.024832577 -0.0039498378 0.60248232 4294901760
-0.024705505 -0.0044280272 0.60241032 4294901760
-0.024578433 -0.0049062166 0.60233825 4294901760
-0.024451362 -0.0053844079 0.60226625 4294901760
-0.02432429 -0.0058625974 0.60219425 4294901760
-0.024197221 -0.0063407868 0.60212219 4294901760
-0.024070149 -0.0068189763 0.60205019 4294901760
-0.023943078 -0.0072971657 0.60197818 4294901760
-0.023816008 -0.0077753551 0.60190612 4294901760
-0.023688935 -0.0082535483 0.60183412 4294901760
-0.023561865 -0.0087317377 0.60176206 4294901760
-0.023434794 -0.0092099272 0.60169005 4294901760
-0.023307722 -0.0096881166 0.60161805 4294901760
-0.023180652 -0.010166306 0.60154599 4294901760
-0.023053581 -0.010644495 0.60147399 4294901760
-0.022926509 -0.011122685 0.60140198 4294901760
-0.022799438 -0.011600878 0.60132992 4294901760
-0.022672366 -0.012079068 0.60125792 4294901760
-0.022545297 -0.012557257 0.60118592 4294901760
-0.022418225 -0.013035446 0.60111386 4294901760
-0.022291154 -0.013513636 0.60104185 4294901760
-0.022164084 -0.013991825 0.60096985 4294901760
-0.022037011 -0.014470018 0.60089779 4294901760
-0.021909941 -0.014948208 0.60082579 4294901760
-0.021782869 -0.015426397 0.60075378 4294901760
-0.021655798 -0.015904583 0.60068172 4294901760
-0.021528728 -0.016382772 0.60060972 4294901760
-0.021401657 -0.016860962 0.60053766 4294901760
-0.021274585 -0.017339155 0.60046566 4294901760
-0.021147514 -0.017817345 0.60039365 4294901760
-0.021020442 -0.018295534 0.60032159 4294901760
-0.020893373 -0.018773723 0.60024959 4294901760
-0.020766301 -0.019251913 0.60017759 4294901760
-0.02063923 -0.019730102 0.60010552 4294901760
-0.020512158 -0.020208295 0.60003352 4294901760
-0.020385087 -0.020686485 0.59996152 4294901760
-0.020258017 -0.021164674 0.59988946 4294901760
-0.020130945 -0.021642864 0.59981745 4294901760
-0.032838054 0.026176125 0.60701978 4278255360
-0.032415248 0.026249843 0.60727632 4278255360
-0.031992443 0.026323561 0.6075328 4278255360
-0.031569634 0.026397279 0.60778934 4278255360
-0.031146828 0.026470998 0.60804588 4278255360
-0.030724023 0.026544716 0.60830235 4278255360
-0.030301217 0.026618434 0.60855889 4278255360
-0.02987841 0.026692152 0.60881537 4278255360
-0.029455604 0.02676587 0.60907191 4278255360
-0.029032797 0.026839588 0.60932845 4278255360
-0.028609991 0.026913306 0.60958493 4278255360
-0.028187186 0.026987026 0.60984147 4278255360
-0.02776438 0.027060743 0.610098 4278255360
-0.027341573 0.027134461 0.61035448 4278255360
-0.026918767 0.027208179 0.61061102 4278255360
-0.02649596 0.027281897 0.6108675 4278255360
-0.026073154 0.027355615 0.61112404 4278255360
-0.025650349 0.027429333 0.61138058 4278255360
-0.025227541 0.027503053 0.61163706 4278255360
-0.024804736 0.027576771 0.61189359 4278255360
-0.024381928 0.027650489 0.61215013 4278255360
-0.023959123 0.027724206 0.61240661 4278255360
-0.023536317 0.027797924 0.61266315 4278255360
-0.02311351 0.027871642 0.61291963 4278255360
-0.022690704 0.02794536 0.61317617 4278255360
-0.022267897 0.028019078 0.61343271 4278255360
-0.021845091 0.028092798 0.61368918 4278255360
-0.021422286 0.028166516 0.61394572 4278255360
-0.02099948 0.028240234 0.61420226 4278255360
-0.020576673 0.028313952 0.61445874 4278255360
-0.020153865 0.028387669 0.61471528 4278255360
-0.01973106 0.028461387 0.61497182 4278255360
-0.019308254 0.028535105 0.6152283 4278255360
-0.018885447 0.028608825 0.61548483 4278255360
-0.018462641 0.028682543 0.61574131 4278255360
-0.018039836 0.028756261 0.61599785 4278255360
-0.017617028 0.028829979 0.61625439 4278255360
-0.017194223 0.028903697 0.61651087 4278255360
-0.016771417 0.028977415 0.61676741 4278255360
-0.016348612 0.029051133 0.61702394 4278255360
-0.015925804 0.029124852 0.61728042 4278255360
-0.015502999 0.02919857 0.61753696 4278255360
-0.015080191 0.029272288 0.61779344 4278255360
-0.014657384 0.029346006 0.61804998 4278255360
-0.014234578 0.029419724 0.61830652 4278255360
-0.013811773 0.029493442 0.618563 4278255360
-0.013388965 0.02956716 0.61881953 4278255360
-0.01296616 0.029640879 0.61907607 4278255360
-0.012543354 0.029714597 0.61933255 4278255360
-0.012120547 0.029788315 0.61958909 4278255360
-0.011697741 0.029862033 0.61984563 4278255360
-0.011274936 0.029935751 0.62010211 4278255360
-0.01085213 0.030009469 0.62035865 4278255360
-0.010429325 0.030083187 0.62061512 4278255360
-0.010006515 0.030156907 0.62087166 4278255360
-0.0095837098 0.030230625 0.6211282 4278255360
-0.0091609042 0.030304343 0.62138468 4278255360
-0.0087380987 0.03037806 0.62164122 4278255360
-0.0083152913 0.030451778 0.62189776 4278255360
-0.0078924857 0.030525496 0.62215424 4278255360
-0.0074696783 0.030599214 0.62241077 4278255360
-0.0070468709 0.030672934 0.62266725 4278255360
-0.0066240653 0.030746652 0.62292379 4278255360
-0.0062012598 0.03082037 0.62318033 4278255360
-0.0057784542 0.030894088 0.62343681 4278255360
-0.0053556487 0.030967806 0.62369335 4278255360
-0.0049328394 0.031041523 0.62394989 4278255360
-0.0045100339 0.031115241 0.62420636 4278255360
-0.0040872283 0.031188961 0.6244629 4278255360
-0.0036644228 0.031262677 0.62471938 4278255360
-0.0032416172 0.031336397 0.62497592 4278255360
-0.0028188117 0.031410113 0.62523246 4278255360
-0.0023960024 0.031483833 0.62548894 4278255360
-0.0019731969 0.031557553 0.62574548 4278255360
-0.0015503913 0.031631269 0.62600201 4278255360
-0.0011275858 0.031704988 0.62625849 4278255360
-0.00070478022 0.031778704 0.62651503 4278255360
-0.00028197467 0.031852424 0.62677157 4278255360
0.00014083087 0.03192614 0.62702805 4278255360
0.00056364015 0.03199986 0.62728459 4278255360
0.0009864457 0.03207358 0.62754107 4278255360
0.0014092512 0.032147296 0.6277976 4278255360
0.0018320568 0.032221016 0.62805414 4278255360
0.0022548661 0.032294732 0.62831062 4278255360
0.0026776716 0.032368451 0.62856716 4278255360
0.0031004772 0.032442167 0.6288237 4278255360
0.0035232864 0.032515887 0.62908018 4278255360
0.003946092 0.032589607 0.62933671 4278255360
0.0043688975 0.032663323 0.62959319 4278255360
0.0047917031 0.032737043 0.62984973 4278255360
0.0052145086 0.032810759 0.63010627 4278255360
0.0056373179 0.032884479 0.63036275 4278255360
0.0060601234 0.032958195 0.63061929 4278255360
0.006482929 0.033031914 0.63087583 4278255360
0.0069057345 0.033105634 0.6311323 4278255360
0.0073285401 0.03317935 0.63138884 4278255360
0.0077513456 0.03325307 0.63164532 4278255360
0.0081741549 0.033326786 0.63190186 4278255360
0.0085969605 0.033400506 0.6321584 4278255360
0.009019766 0.033474222 0.63241488 4278255360
0.0094425716 0.033547942 0.63267142 4278255360
-0.032838054 0.026176125 0.60701978 4278190335
-0.033043541 0.026055321 0.60745931 4278190335
-0.033249028 0.025934516 0.60789883 4278190335
-0.033454519 0.025813712 0.60833836 4278190335
-0.033660006 0.025692906 0.60877788 4278190335
-0.033865493 0.025572103 0.60921741 4278190335
-0.03407098 0.025451297 0.60965693 4278190335
-0.034276471 0.025330493 0.61009645 4278190335
-0.034481958 0.025209688 0.61053598 4278190335
-0.034687445 0.025088884 0.6109755 4278190335
-0.034892932 0.024968078 0.61141503 4278190335
-0.035098419 0.024847275 0.61185455 4278190335
-0.035303909 0.024726469 0.61229408 4278190335
-0.035509396 0.024605665 0.6127336 4278190335
-0.035714883 0.02448486 0.61317313 4278190335
-0.03592037 0.024364056 0.61361265 4278190335
-0.036125861 0.02424325 0.61405218 4278190335
-0.036331348 0.024122447 0.6144917 4278190335
-0.036536835 0.024001641 0.61493123 4278190335
-0.036742322 0.023880837 0.61537075 4278190335
-0.036947809 0.023760032 0.61581028 4278190335
-0.0371533 0.023639228 0.6162498 4278190335
-0.037358787 0.023518423 0.61668932 4278190335
-0.037564274 0.023397619 0.61712885 4278190335
-0.037769761 0.023276813 0.61756837 4278190335
-0.037975252 0.02315601 0.6180079 4278190335
-0.038180739 0.023035204 0.61844736 4278190335
-0.038386226 0.0229144 0.61888689 4278190335
-0.038591713 0.022793595 0.61932641 4278190335
-0.0387972 0.022672791 0.61976594 4278190335
-0.03900269 0.022551985 0.62020546 4278190335
-0.039208177 0.022431182 0.62064499 4278190335
-0.039413664 0.022310376 0.62108451 4278190335
-0.039619152 0.022189572 0.62152404 4278190335
-0.039824642 0.022068767 0.62196356 4278190335
-0.040030129 0.021947963 0.62240309 4278190335
-0.040235616 0.021827158 0.62284261 4278190335
-0.040441103 0.021706354 0.62328213 4278190335
-0.04064659 0.02158555 0.62372166 4278190335
-0.040852077 0.021464745 0.62416118 4278190335
-0.041057568 0.021343939 0.62460071 4278190335
-0.041263055 0.021223135 0.62504023 4278190335
-0.041468542 0.021102332 0.62547976 4278190335
-0.041674033 0.020981526 0.62591928 4278190335
-0.04187952 0.02086072 0.62635881 4278190335
-0.042085007 0.020739917 0.62679833 4278190335
-0.042290494 0.020619113 0.62723786 4278190335
-0.042495981 0.020498307 0.62767738 4278190335
-0.042701468 0.020377502 0.62811691 4278190335
-0.042906959 0.020256698 0.62855643 4278190335
-0.043112446 0.020135894 0.62899595 4278190335
-0.043317933 0.020015089 0.62943548 4278190335
-0.04352342 0.019894285 0.629875 4278190335
-0.04372891 0.01977348 0.63031453 4278190335
-0.043934397 0.019652676 0.63075405 4278190335
-0.044139884 0.01953187 0.63119358 4278190335
-0.044345371 0.019411065 0.6316331 4278190335
-0.044550858 0.019290261 0.63207263 4278190335
-0.044756349 0.019169457 0.63251215 4278190335
-0.044961836 0.019048652 0.63295168 4278190335
-0.045167323 0.018927846 0.6333912 4278190335
-0.045372814 0.018807042 0.63383073 4278190335
-0.045578301 0.018686239 0.63427025 4278190335
-0.045783788 0.018565433 0.63470978 4278190335
-0.045989275 0.018444629 0.6351493 4278190335
-0.046194762 0.018323824 0.63558882 4278190335
-0.046400253 0.01820302 0.63602835 4278190335
-0.04660574 0.018082215 0.63646787 4278190335
-0.046811227 0.017961409 0.6369074 4278190335
-0.047016714 0.017840605 0.63734692 4278190335
-0.047222201 0.017719802 0.63778645 4278190335
-0.047427692 0.017598998 0.63822597 4278190335
-0.047633179 0.01747819 0.6386655 4278190335
-0.047838666 0.017357387 0.63910502 4278190335
-0.048044153 0.017236583 0.63954449 4278190335
-0.04824964 0.017115777 0.63998401 4278190335
-0.04845513 0.016994974 0.64042354 4278190335
-0.048660617 0.016874168 0.64086306 4278190335
-0.048866104 0.016753364 0.64130259 4278190335
-0.049071595 0.016632559 0.64174211 4278190335
-0.049277082 0.016511753 0.64218163 4278190335
-0.049482569 0.016390949 0.64262116 4278190335
-0.049688056 0.016270146 0.64306068 4278190335
-0.049893543 0.016149342 0.64350021 4278190335
-0.05009903 0.016028536 0.64393973 4278190335
-0.050304521 0.015907731 0.64437926 4278190335
-0.050510008 0.015786927 0.64481878 4278190335
-0.050715495 0.015666123 0.64525831 4278190335
-0.050920986 0.015545318 0.64569783 4278190335
-0.051126473 0.015424513 0.64613736 4278190335
-0.05133196 0.015303709 0.64657688 4278190335
-0.051537447 0.015182903 0.64701641 4278190335
-0.051742934 0.015062099 0.64745593 4278190335
-0.051948421 0.014941295 0.64789546 4278190335
-0.052153908 0.01482049 0.64833498 4278190335
-0.052359398 0.014699685 0.6487745 4278190335
-0.052564885 0.014578881 0.64921403 4278190335
-0.052770376 0.014458076 0.64965355 4278190335
-0.052975863 0.014337271 0.65009308 4278190335
-0.05318135 0.014216467 0.6505326 4278190335
-0.053386837 0.014095662 0.65097213 4278190335
-0.032838054 0.026176125 0.60701978 4294967295
-0.031605128 0.026900953 0.60438263 4294967295
-0.030372201 0.027625781 0.60174549 4294967295
-0.029139273 0.028350608 0.59910834 4294967295
-0.027906347 0.029075436 0.59647119 4294967295
-0.026673419 0.029800264 0.59383404 4294967295
-0.025440494 0.030525092 0.59119695 4294967295
-0.024207566 0.03124992 0.58855981 4294967295
-0.02297464 0.031974748 0.58592266 4294967295
-0.021741711 0.032699574 0.58328551 4294967295
-0.020508785 0.033424404 0.58064836 4294967295
-0.019275859 0.03414923 0.57801121 4294967295
-0.018042933 0.034874059 0.57537407 4294967295
-0.016810006 0.035598885 0.57273692 4294967295
-0.015577078 0.036323715 0.57009977 4294967295
-0.01434415 0.037048541 0.56746268 4294967295
-0.013111224 0.037773371 0.56482553 4294967295
-0.011878297 0.038498197 0.56218839 4294967295
-0.010645369 0.039223026 0.55955124 4294967295
-0.0094124451 0.039947852 0.55691409 4294967295
-0.0081795175 0.040672682 0.55427694 4294967295
-0.0069465917 0.041397508 0.5516398 4294967295
-0.005713664 0.042122334 0.54900265 4294967295
-0.0044807363 0.042847164 0.5463655 4294967295
-0.0032478105 0.043571994 0.54372835 4294967295
-0.0020148829 0.04429682 0.5410912 4294967295
-0.00078195706 0.045021646 0.53845412 4294967295
0.00045097247 0.045746475 0.53581697 4294967295
0.0016838983 0.046471305 0.53317982 4294967295
0.0029168241 0.047196131 0.53054267 4294967295
0.0041497536 0.047920957 0.52790552 4294967295
0.0053826794 0.048645787 0.52526838 4294967295
0.0066156052 0.049370613 0.52263123 4294967295
0.0078485347 0.050095443 0.51999408 4294967295
0.0090814605 0.050820269 0.51735693 4294967295
0.010314386 0.051545098 0.51471984 4294967295
0.011547316 0.052269928 0.5120827 4294967295
0.012780242 0.052994754 0.50944555 4294967295
0.014013164 0.05371958 0.5068084 4294967295
0.01524609 0.05444441 0.50417125 4294967295
0.016479019 0.05516924 0.5015341 4294967295
0.017711945 0.055894062 0.49889696 4294967295
0.018944871 0.056618892 0.49625981 4294967295
0.0201778 0.057343721 0.49362266 4294967295
0.021410726 0.058068547 0.49098554 4294967295
0.022643652 0.058793373 0.48834839 4294967295
0.023876581 0.059518203 0.48571125 4294967295
0.025109507 0.060243033 0.48307413 4294967295
0.026342433 0.060967859 0.48043698 4294967295
0.027575362 0.061692689 0.47779983 4294967295
0.028808288 0.062417515 0.47516268 4294967295
0.03004121 0.063142344 0.47252554 4294967295
0.03127414 0.063867167 0.46988839 4294967295
0.032507062 0.064591996 0.46725127 4294967295
0.033739999 0.065316826 0.46461409 4294967295
0.034972921 0.066041656 0.46197698 4294967295
0.036205851 0.066766486 0.45933983 4294967295
0.037438773 0.067491308 0.45670271 4294967295
0.038671702 0.068216138 0.45406556 4294967295
0.039904624 0.068940967 0.45142841 4294967295
0.041137561 0.06966579 0.44879127 4294967295
0.042370483 0.070390627 0.44615412 4294967295
0.043603413 0.071115449 0.44351697 4294967295
0.044836335 0.071840271 0.44087982 4294967295
0.046069264 0.072565101 0.4382427 4294967295
0.047302186 0.073289931 0.43560556 4294967295
0.048535123 0.074014761 0.43296841 4294967295
0.049768046 0.07473959 0.43033129 4294967295
0.051000975 0.075464413 0.42769414 4294967295
0.052233897 0.076189242 0.42505699 4294967295
0.053466827 0.076914072 0.42241985 4294967295
0.054699749 0.077638894 0.4197827 4294967295
0.055932686 0.078363732 0.41714555 4294967295
0.057165608 0.079088554 0.4145084 4294967295
0.058398537 0.079813384 0.41187125 4294967295
0.059631459 0.080538213 0.40923414 4294967295
0.060864381 0.081263036 0.40659702 4294967295
0.062097311 0.081987865 0.40395987 4294967295
0.063330233 0.082712695 0.40132272 4294967295
0.06456317 0.083437517 0.39868557 4294967295
0.065796092 0.084162354 0.39604843 4294967295
0.067029022 0.084887177 0.39341128 4294967295
0.068261944 0.085611999 0.39077413 4294967295
0.069494873 0.086336836 0.38813698 4294967295
0.070727795 0.087061659 0.38549986 4294967295
0.071960732 0.087786488 0.38286272 4294967295
0.073193654 0.088511318 0.38022557 4294967295
0.074426584 0.08923614 0.37758845 4294967295
0.075659506 0.08996097 0.3749513 4294967295
0.076892436 0.0906858 0.37231416 4294967295
0.078125358 0.091410622 0.36967701 4294967295
0.079358295 0.092135459 0.36703986 4294967295
0.080591217 0.092860281 0.36440271 4294967295
0.081824146 0.093585111 0.36176556 4294967295
0.083057068 0.094309941 0.35912845 4294967295
0.084289998 0.095034763 0.3564913 4294967295
0.08552292 0.095759593 0.35385415 4294967295
0.086755857 0.096484423 0.351217 4294967295
0.087988779 0.097209252 0.34857985 4294967295
0.089221708 0.097934075 0.34594274 4294967295
0.090454631 0.098658904 0.34330559 4294967295
