# .PCD v0.7 - Point Cloud Data file format
VERSION 0.7
FIELDS x y z rgb
SIZE 4 4 4 4
TYPE F F F U
COUNT 1 1 1 1
WIDTH 1067
HEIGHT 1
VIEWPOINT 0 0 0 1 0 0 0
POINTS 1067
DATA ascii
0.11236804 0.041744251 0.32300001 4278927382
0.11341714 0.041744251 0.32300001 4279058968
0.11446625 0.041744251 0.32300001 4279058709
0.11551534 0.041744251 0.32300001 4279190295
0.11656445 0.041744251 0.32300001 4279190295
0.11761356 0.041744251 0.32300001 4279124502
0.11866266 0.041744251 0.32300001 4279124502
0.11971177 0.041744251 0.32300001 4279123478
0.12076088 0.041744251 0.32300001 4279582748
0.038220666 0.045708455 0.34500003 4279704844
0.039341226 0.045708455 0.34500003 4279573258
0.040344507 0.045575965 0.34400001 4279573258
0.041461818 0.045575965 0.34400001 4279507981
0.042455353 0.045443479 0.34300002 4279642129
0.043569416 0.045443479 0.34300002 4279648543
0.044683482 0.045443479 0.34300002 4278925590
0.045797549 0.045443479 0.34300002 4278794517
0.046774838 0.045310989 0.34200001 4278992666
0.047885656 0.045310989 0.34200001 4279124250
0.055278186 0.044118594 0.333 4279452447
0.056359768 0.044118594 0.333 4279584033
0.057441354 0.044118594 0.333 4279188508
0.05852294 0.044118594 0.333 4278529294
0.059604526 0.044118594 0.333 4279054357
0.060686108 0.044118594 0.333 4279384090
0.061767694 0.044118594 0.333 4279517727
0.062849283 0.044118594 0.333 4279189275
0.063930862 0.044118594 0.333 4279320861
0.065012448 0.044118594 0.333 4279452447
0.099495076 0.043588642 0.32900003 4278663697
0.10056367 0.043588642 0.32900003 4278992662
0.10163227 0.043588642 0.32900003 4278861076
0.10238869 0.043456152 0.32800001 4278729490
0.10313863 0.043323666 0.32700002 4278729490
0.10388206 0.043191176 0.32600001 4278795283
0.10461901 0.04305869 0.32500002 4278663697
0.10567461 0.04305869 0.32500002 4278729490
0.10640181 0.0429262 0.324 4278664210
0.10712252 0.04279371 0.32300001 4278730003
0.10817161 0.04279371 0.32300001 4278663697
0.10922072 0.04279371 0.32300001 4278729490
0.10992844 0.042661224 0.32200003 4278861076
0.1109743 0.042661224 0.32200003 4278795283
0.11236804 0.04279371 0.32300001 4278795283
0.11341714 0.04279371 0.32300001 4279058455
0.11446625 0.04279371 0.32300001 4278992662
0.11551534 0.04279371 0.32300001 4278992662
0.11656445 0.04279371 0.32300001 4278861076
0.11761356 0.04279371 0.32300001 4279255834
0.11866266 0.04279371 0.32300001 4279190041
0.11971177 0.04279371 0.32300001 4279189271
0.12076088 0.04279371 0.32300001 4279254551
0.12180998 0.04279371 0.32300001 4278595851
0.038331449 0.04696513 0.34600002 4279442442
0.039341226 0.046829391 0.34500003 4279507981
0.04046179 0.046829391 0.34500003 4279442188
0.041461818 0.046693653 0.34400001 4279507981
0.042579129 0.046693653 0.34400001 4279642129
0.043569416 0.046557918 0.34300002 4279648543
0.044683482 0.046557918 0.34300002 4278596625
0.045797549 0.046557918 0.34300002 4278926103
0.046911612 0.046557918 0.34300002 4279123482
0.047885656 0.04642218 0.34200001 4279058459
0.055278186 0.045200542 0.333 4279386654
0.056359768 0.045200542 0.333 4279452447
0.057441354 0.045200542 0.333 4279451934
0.05852294 0.045200542 0.333 4278330634
0.059604526 0.045200542 0.333 4278198535
0.060686108 0.045200542 0.333 4279975457
0.061767694 0.045200542 0.333 4279517727
0.062849283 0.045200542 0.333 4279386141
0.063930862 0.045200542 0.333 4279320094
0.065012448 0.045200542 0.333 4279254301
0.066094033 0.045200542 0.333 4279779875
0.067175612 0.045200542 0.333 4279779875
0.068257198 0.045200542 0.333 4279713822
0.069338784 0.045200542 0.333 4279319064
0.076216996 0.04479333 0.33000001 4279188762
0.077288836 0.04479333 0.33000001 4279254555
0.079432517 0.04479333 0.33000001 4279123480
0.080504358 0.04479333 0.33000001 4278991894
0.081576198 0.04479333 0.33000001 4279320346
0.082648039 0.04479333 0.33000001 4278926103
0.083719879 0.04479333 0.33000001 4278991896
0.08479172 0.04479333 0.33000001 4279123482
0.098426484 0.044657595 0.32900003 4278926101
0.099495076 0.044657595 0.32900003 4279123480
0.10056367 0.044657595 0.32900003 4278991894
0.10132334 0.044521853 0.32800001 4278926101
0.10238869 0.044521853 0.32800001 4279123480
0.10313863 0.044386119 0.32700002 4278861078
0.10388206 0.04425038 0.32600001 4278861078
0.10494091 0.04425038 0.32600001 4279123478
0.10567461 0.044114646 0.32500002 4278991892
0.10640181 0.043978903 0.324 4279188758
0.10712252 0.043843169 0.32300001 4278991379
0.10817161 0.043843169 0.32300001 4279320598
0.10922072 0.043843169 0.32300001 4279254805
0.11026983 0.043843169 0.32300001 4279188758
0.11131893 0.043843169 0.32300001 4279057172
0.11236804 0.043843169 0.32300001 4278991379
0.11341714 0.043843169 0.32300001 4279057172
0.11446625 0.043843169 0.32300001 4279123478
0.11551534 0.043843169 0.32300001 4279123478
0.11656445 0.043843169 0.32300001 4278795283
0.11797769 0.043978903 0.324 4278795283
0.11903004 0.043978903 0.324 4278795283
0.12008239 0.043978903 0.324 4278861076
0.12076088 0.043843169 0.32300001 4278926099
0.12180998 0.043843169 0.32300001 4278925586
0.038331449 0.048089322 0.34600002 4279244809
0.039455257 0.048089322 0.34600002 4279442188
0.04046179 0.047950335 0.34500003 4279376395
0.041582346 0.047950335 0.34500003 4279376395
0.042579129 0.047811348 0.34400001 4279312652
0.043696441 0.047811348 0.34400001 4279911199
0.044813756 0.047811348 0.34400001 4279057174
0.045931067 0.047811348 0.34400001 4278728724
0.047048379 0.047811348 0.34400001 4278992666
0.048445724 0.048089322 0.34600002 4279124252
0.055278186 0.046282496 0.333 4279649826
0.056529019 0.046421483 0.33400002 4279584033
0.057613853 0.046421483 0.33400002 4279452193
0.058698688 0.046421483 0.33400002 4278593552
0.059783522 0.046421483 0.33400002 4278394376
0.060686108 0.046282496 0.333 4279974946
0.061767694 0.046282496 0.333 4279648289
0.062849283 0.046282496 0.333 4279121431
0.063930862 0.046282496 0.333 4278655756
0.065012448 0.046282496 0.333 4278786058
0.066094033 0.046282496 0.333 4278588939
0.067175612 0.046282496 0.333 4278654732
0.068257198 0.046282496 0.333 4278589193
0.069338784 0.046282496 0.333 4278720777
0.0702089 0.046143509 0.33200002 4278524166
0.071287237 0.046143509 0.33200002 4278524166
0.072365575 0.046143509 0.33200002 4278458375
0.073443912 0.046143509 0.33200002 4278458375
0.074297786 0.046004526 0.33100003 4278524166
0.075372875 0.046004526 0.33100003 4278654982
0.076447964 0.046004526 0.33100003 4278524170
0.077288836 0.045865536 0.33000001 4278524683
0.078360677 0.045865536 0.33000001 4278198280
0.079432517 0.045865536 0.33000001 4279121431
0.080504358 0.045865536 0.33000001 4278195712
0.081576198 0.045865536 0.33000001 4278196225
0.082648039 0.045865536 0.33000001 4278196740
0.083719879 0.045865536 0.33000001 4278195200
0.08479172 0.045865536 0.33000001 4278194432
0.08586356 0.045865536 0.33000001 4278195456
0.097061962 0.045587562 0.32800001 4279186711
0.098127306 0.045587562 0.32800001 4279055125
0.099495076 0.045726553 0.32900003 4278594828
0.100258 0.045587562 0.32800001 4279384344
0.10132334 0.045587562 0.32800001 4279121172
0.10238869 0.045587562 0.32800001 4278858000
0.10313863 0.045448579 0.32700002 4279186711
0.10388206 0.045309588 0.32600001 4279055379
0.10494091 0.045309588 0.32600001 4279384344
0.10567461 0.045170605 0.32500002 4279252758
0.10640181 0.045031615 0.324 4279582236
0.10745417 0.045031615 0.324 4279253271
0.10817161 0.044892631 0.32300001 4279252756
0.10922072 0.044892631 0.32300001 4279252756
0.11026983 0.044892631 0.32300001 4279319062
0.11131893 0.044892631 0.32300001 4279187988
0.11236804 0.044892631 0.32300001 4279319574
0.11341714 0.044892631 0.32300001 4279187988
0.11446625 0.044892631 0.32300001 4279451160
0.11587297 0.045031615 0.324 4279319574
0.11692533 0.045031615 0.324 4278925586
0.11797769 0.045031615 0.324 4279188760
0.11903004 0.045031615 0.324 4279254551
0.12008239 0.045031615 0.324 4278991892
0.12113474 0.045031615 0.324 4279057172
0.1221871 0.045031615 0.324 4279055888
0.12285908 0.044892631 0.32300001 4278789127
0.038331449 0.049213514 0.34600002 4279507465
0.039455257 0.049213514 0.34600002 4279507211
0.040579066 0.049213514 0.34600002 4279507211
0.041582346 0.049071278 0.34500003 4279442190
0.042702906 0.049071278 0.34500003 4279706643
0.043823466 0.049071278 0.34500003 4280042272
0.044813756 0.048929039 0.34400001 4279056404
0.045931067 0.048929039 0.34400001 4278794515
0.047185149 0.049071278 0.34500003 4279123480
0.048445724 0.049213514 0.34600002 4279058457
0.049569536 0.049213514 0.34600002 4279058457
0.055444192 0.047506686 0.33400002 4279452447
0.056529019 0.047506686 0.33400002 4279452193
0.057613853 0.047506686 0.33400002 4279452193
0.058698688 0.047506686 0.33400002 4279647264
0.059783522 0.047506686 0.33400002 4278657037
0.060868353 0.047506686 0.33400002 4279974692
0.061953187 0.047506686 0.33400002 4279779875
0.062849283 0.047364447 0.333 4278988564
0.063930862 0.047364447 0.333 4278917131
0.065012448 0.047364447 0.333 4278982670
0.066094033 0.047364447 0.333 4278916877
0.067175612 0.047364447 0.333 4278916877
0.068257198 0.047364447 0.333 4278916877
0.069338784 0.047364447 0.333 4278917131
0.07042037 0.047364447 0.333 4278851338
0.071287237 0.047222216 0.33200002 4279048717
0.072365575 0.047222216 0.33200002 4278917644
0.073443912 0.047222216 0.33200002 4278917644
0.074297786 0.04707998 0.33100003 4278917644
0.075372875 0.04707998 0.33100003 4278916877
0.076447964 0.04707998 0.33100003 4278982670
0.077523045 0.04707998 0.33100003 4278851084
0.078598142 0.04707998 0.33100003 4278591759
0.079432517 0.046937741 0.33000001 4279713057
0.080504358 0.046937741 0.33000001 4279713570
0.081576198 0.046937741 0.33000001 4279516191
0.082648039 0.046937741 0.33000001 4279647264
0.083719879 0.046937741 0.33000001 4279647264
0.08479172 0.046937741 0.33000001 4279712285
0.08586356 0.046937741 0.33000001 4279778078
0.086935401 0.046937741 0.33000001 4279843871
0.087740563 0.04679551 0.32900003 4280107043
0.088809155 0.04679551 0.32900003 4279646492
0.091735244 0.046653271 0.32800001 4279777819
0.092800587 0.046653271 0.32800001 4279514908
0.093865931 0.046653271 0.32800001 4279975459
0.094931282 0.046653271 0.32800001 4279843871
0.095996618 0.046653271 0.32800001 4279646492
0.097061962 0.046653271 0.32800001 4279383320
0.098127306 0.046653271 0.32800001 4279646492
0.099192657 0.046653271 0.32800001 4279646492
0.100258 0.046653271 0.32800001 4279909151
0.10132334 0.046653271 0.32800001 4279777565
0.10207654 0.046511035 0.32700002 4279448600
0.10313863 0.046511035 0.32700002 4279579418
0.10388206 0.0463688 0.32600001 4279579418
0.10494091 0.0463688 0.32600001 4280039455
0.10567461 0.046226565 0.32500002 4279513111
0.10640181 0.046084326 0.324 4279579418
0.10745417 0.046084326 0.324 4279645211
0.10850651 0.046084326 0.324 4279250453
0.10955886 0.046084326 0.324 4279250453
0.11026983 0.045942094 0.32300001 4278196224
0.11131893 0.045942094 0.32300001 4279712539
0.11236804 0.045942094 0.32300001 4279516439
0.11376828 0.046084326 0.324 4279516439
0.11482063 0.046084326 0.324 4279450648
0.11587297 0.046084326 0.324 4279319060
0.11692533 0.046084326 0.324 4279450646
0.11797769 0.046084326 0.324 4279385367
0.11903004 0.046084326 0.324 4279187988
0.12008239 0.046084326 0.324 4278924816
0.12113474 0.046084326 0.324 4279122195
0.1221871 0.046084326 0.324 4279253267
0.12323944 0.046084326 0.324 4279448854
0.038442232 0.050483182 0.347 4279704074
0.039569288 0.050483182 0.347 4279704074
0.040579066 0.050337698 0.34600002 4279507465
0.041702874 0.050337698 0.34600002 4279376395
0.042702906 0.050192215 0.34500003 4279377678
0.043823466 0.050192215 0.34500003 4280173858
0.044944029 0.050192215 0.34500003 4279187990
0.046064593 0.050192215 0.34500003 4278794002
0.047185149 0.050192215 0.34500003 4279189273
0.048445724 0.050337698 0.34600002 4279058455
0.049569536 0.050337698 0.34600002 4278861076
0.056698266 0.048737366 0.33500001 4279386654
0.057786349 0.048737366 0.33500001 4279386654
0.058874432 0.048737366 0.33500001 4279844641
0.059783522 0.048591882 0.33400002 4278854927
0.060868353 0.048591882 0.33400002 4279844389
0.061953187 0.048591882 0.33400002 4279517473
0.063038021 0.048591882 0.33400002 4279449115
0.064122848 0.048591882 0.33400002 4278917131
0.065207683 0.048591882 0.33400002 4280694055
0.066094033 0.048446395 0.333 4278852363
0.067175612 0.048446395 0.333 4280101918
0.068257198 0.048446395 0.333 4279576088
0.069338784 0.048446395 0.333 4280037409
0.07042037 0.048446395 0.333 4279840030
0.071287237 0.048300914 0.33200002 4279642651
0.072365575 0.048300914 0.33200002 4280367657
0.073443912 0.048300914 0.33200002 4279445785
0.074522242 0.048300914 0.33200002 4280234018
0.075372875 0.048155431 0.33100003 4279510295
0.076447964 0.048155431 0.33100003 4280234016
0.077523045 0.048155431 0.33100003 4278983435
0.078598142 0.048155431 0.33100003 4278525451
0.079673231 0.048155431 0.33100003 4279581471
0.080748312 0.048155431 0.33100003 4279581982
0.081576198 0.048009943 0.33000001 4279582236
0.082648039 0.048009943 0.33000001 4278789386
0.083719879 0.048009943 0.33000001 4278723080
0.08479172 0.048009943 0.33000001 4278197251
0.08586356 0.048009943 0.33000001 4279778078
0.086935401 0.048009943 0.33000001 4279778332
0.087740563 0.047864459 0.32900003 4278198018
0.088809155 0.047864459 0.32900003 4278330119
0.08987774 0.047864459 0.32900003 4279514906
0.090946332 0.047864459 0.32900003 4279318297
0.091735244 0.047718972 0.32800001 4278528011
0.092800587 0.047718972 0.32800001 4278330634
0.093865931 0.047718972 0.32800001 4279514908
0.094931282 0.047718972 0.32800001 4279384090
0.095996618 0.047718972 0.32800001 4279581723
0.097061962 0.047718972 0.32800001 4279582236
0.098127306 0.047718972 0.32800001 4279450650
0.099192657 0.047718972 0.32800001 4279319064
0.100258 0.047718972 0.32800001 4279450650
0.10132334 0.047718972 0.32800001 4279319064
0.10207654 0.047573492 0.32700002 4279253271
0.10313863 0.047573492 0.32700002 4279450650
0.10388206 0.047428004 0.32600001 4279516443
0.10494091 0.047428004 0.32600001 4279450650
0.10567461 0.047282521 0.32500002 4279450650
0.10673022 0.047282521 0.32500002 4279582234
0.10745417 0.047137033 0.324 4279647514
0.10850651 0.047137033 0.324 4279647514
0.10955886 0.047137033 0.324 4279515928
0.11061122 0.047137033 0.324 4278525451
0.11166357 0.047137033 0.324 4279645211
0.11271592 0.047137033 0.324 4279450648
0.11376828 0.047137033 0.324 4279450648
0.11482063 0.047137033 0.324 4279582234
0.11623061 0.047282521 0.32500002 4279450646
0.11728621 0.047282521 0.32500002 4279516439
0.11834182 0.047282521 0.32500002 4279450646
0.11939742 0.047282521 0.32500002 4279187988
0.12045302 0.047282521 0.32500002 4279187988
0.12113474 0.047137033 0.324 4278990609
0.1221871 0.047137033 0.324 4278924816
0.12323944 0.047137033 0.324 4279449365
0.038442232 0.051610623 0.347 4279704074
0.039569288 0.051610623 0.347 4279638027
0.040696345 0.051610623 0.347 4279507211
0.041702874 0.05146189 0.34600002 4279244809
0.042826682 0.05146189 0.34600002 4278982922
0.043950491 0.05146189 0.34600002 4280370469
0.045074299 0.05146189 0.34600002 4279451162
0.046198111 0.05146189 0.34600002 4278794515
0.047321916 0.05146189 0.34600002 4279189273
0.048585739 0.051610623 0.347 4279255064
0.049712799 0.051610623 0.347 4279123478
0.051132884 0.051908091 0.34900001 4279124248
0.05226643 0.051908091 0.34900001 4279321629
0.056867518 0.049974553 0.33600003 4279320861
0.057786349 0.049825817 0.33500001 4279452447
0.058874432 0.049825817 0.33500001 4279581723
0.059962511 0.049825817 0.33500001 4278194944
0.06105059 0.049825817 0.33500001 4279778080
0.062138673 0.049825817 0.33500001 4279451680
0.063038021 0.049677085 0.33400002 4279581471
0.064122848 0.049677085 0.33400002 4278917644
0.065207683 0.049677085 0.33400002 4280562981
0.066292517 0.049677085 0.33400002 4278195202
0.067175612 0.049528349 0.333 4280235299
0.068257198 0.049528349 0.333 4279182098
0.069338784 0.049528349 0.333 4280893229
0.07042037 0.049528349 0.333 4278786572
0.071501955 0.049528349 0.333 4279445272
0.072365575 0.049379617 0.33200002 4278985234
0.073443912 0.049379617 0.33200002 4278917131
0.074522242 0.049379617 0.33200002 4279445270
0.075600579 0.049379617 0.33200002 4280170276
0.076447964 0.049230885 0.33100003 4278194432
0.077523045 0.049230885 0.33100003 4278983435
0.078598142 0.049230885 0.33100003 4278195713
0.079673231 0.049230885 0.33100003 4279516189
0.080748312 0.049230885 0.33100003 4279581982
0.081823401 0.049230885 0.33100003 4278724109
0.082648039 0.049082149 0.33000001 4278851849
0.083719879 0.049082149 0.33000001 4278983437
0.08479172 0.049082149 0.33000001 4278983435
0.08586356 0.049082149 0.33000001 4279709725
0.086935401 0.049082149 0.33000001 4278395914
0.087740563 0.048933417 0.32900003 4279712285
0.088809155 0.048933417 0.32900003 4279581469
0.08987774 0.048933417 0.32900003 4278395912
0.090946332 0.048933417 0.32900003 4279382039
0.091735244 0.048784681 0.32800001 4279777567
0.092800587 0.048784681 0.32800001 4279647264
0.093865931 0.048784681 0.32800001 4279515678
0.094931282 0.048784681 0.32800001 4278593545
0.095996618 0.048784681 0.32800001 4278264839
0.097061962 0.048784681 0.32800001 4279317529
0.098127306 0.048784681 0.32800001 4278197507
0.099192657 0.048784681 0.32800001 4279580188
0.100258 0.048784681 0.32800001 4278197764
0.10101444 0.048635948 0.32700002 4278988051
0.10207654 0.048635948 0.32700002 4278198021
0.10313863 0.048635948 0.32700002 4278198276
0.10388206 0.048487213 0.32600001 4279185941
0.10494091 0.048487213 0.32600001 4279646492
0.10599976 0.048487213 0.32600001 4278198532
0.10673022 0.04833848 0.32500002 4278528011
0.10778581 0.04833848 0.32500002 4279318549
0.10884141 0.04833848 0.32500002 4279385369
0.10989701 0.04833848 0.32500002 4279056404
0.11095262 0.04833848 0.32500002 4278394376
0.11200821 0.04833848 0.32500002 4279645211
0.11306382 0.04833848 0.32500002 4279319576
0.11411942 0.04833848 0.32500002 4279187990
0.11517502 0.04833848 0.32500002 4279385369
0.11623061 0.04833848 0.32500002 4279319576
0.11728621 0.04833848 0.32500002 4279385367
0.11834182 0.04833848 0.32500002 4279122195
0.11939742 0.04833848 0.32500002 4279122195
0.12045302 0.04833848 0.32500002 4279122195
0.12150862 0.04833848 0.32500002 4279253269
0.12256423 0.04833848 0.32500002 4279252756
0.038553018 0.052890044 0.34800002 4279506695
0.039683323 0.052890044 0.34800002 4279506441
0.040696345 0.052738059 0.347 4279309062
0.041823402 0.052738059 0.347 4279047432
0.042950459 0.052738059 0.347 4279048715
0.043950491 0.052586075 0.34600002 4280566311
0.045074299 0.052586075 0.34600002 4279516957
0.046198111 0.052586075 0.34600002 4278794517
0.047458682 0.052738059 0.347 4279320859
0.048585739 0.052738059 0.347 4279320857
0.049856067 0.052890044 0.34800002 4279189271
0.051132884 0.053042024 0.34900001 4279058709
0.052416194 0.053194009 0.35000002 4279321627
0.053552996 0.053194009 0.35000002 4279584803
0.054689799 0.053194009 0.35000002 4279584803
0.056867518 0.05106625 0.33600003 4279452447
0.057958849 0.05106625 0.33600003 4279517727
0.059050176 0.05106625 0.33600003 4278198275
0.060141508 0.05106625 0.33600003 4278853133
0.06105059 0.050914265 0.33500001 4278657035
0.062138673 0.050914265 0.33500001 4279647775
0.063226752 0.050914265 0.33500001 4279778080
0.064122848 0.050762285 0.33400002 4278851851
0.065207683 0.050762285 0.33400002 4278917390
0.066292517 0.050762285 0.33400002 4278851597
0.067377344 0.050762285 0.33400002 4278851597
0.068257198 0.050610296 0.333 4278851851
0.069338784 0.050610296 0.333 4278786058
0.07042037 0.050610296 0.333 4279047947
0.071501955 0.050610296 0.333 4278917390
0.072583541 0.050610296 0.333 4278785804
0.073443912 0.050458316 0.33200002 4278916877
0.074522242 0.050458316 0.33200002 4278589963
0.075600579 0.050458316 0.33200002 4278458886
0.076678924 0.050458316 0.33200002 4278194432
0.077523045 0.050306335 0.33100003 4278983947
0.078598142 0.050306335 0.33100003 4278656519
0.079673231 0.050306335 0.33100003 4279647262
0.080748312 0.050306335 0.33100003 4279647264
0.081823401 0.050306335 0.33100003 4278723341
0.08289849 0.050306335 0.33100003 4278917131
0.083719879 0.050154351 0.33000001 4279180303
0.08479172 0.050154351 0.33000001 4278983437
0.08586356 0.050154351 0.33000001 4279972127
0.086935401 0.050154351 0.33000001 4278790418
0.088007249 0.050154351 0.33000001 4279251223
0.088809155 0.05000237 0.32900003 4279317527
0.08987774 0.05000237 0.32900003 4278593804
0.090946332 0.05000237 0.32900003 4279448602
0.092014931 0.05000237 0.32900003 4278988051
0.092800587 0.049850386 0.32800001 4279778080
0.093865931 0.049850386 0.32800001 4278331404
0.094931282 0.049850386 0.32800001 4279251734
0.095996618 0.049850386 0.32800001 4279514906
0.097061962 0.049850386 0.32800001 4278591757
0.098127306 0.049850386 0.32800001 4280104483
0.099192657 0.049850386 0.32800001 4278854416
0.100258 0.049850386 0.32800001 4279842336
0.10101444 0.049698401 0.32700002 4278460683
0.10207654 0.049698401 0.32700002 4279908129
0.10313863 0.049698401 0.32700002 4280039967
0.10420072 0.049698401 0.32700002 4278789900
0.10494091 0.049546417 0.32600001 4278526730
0.10599976 0.049546417 0.32600001 4279907102
0.10705861 0.049546417 0.32600001 4279117586
0.10811746 0.049546417 0.32600001 4279448600
0.10884141 0.049394436 0.32500002 4279122197
0.10989701 0.049394436 0.32500002 4279319576
0.11095262 0.049394436 0.32500002 4278592009
0.11200821 0.049394436 0.32500002 4279711004
0.1134117 0.049546417 0.32600001 4279450648
0.11447055 0.049546417 0.32600001 4279319576
0.1155294 0.049546417 0.32600001 4279122197
0.11658824 0.049546417 0.32600001 4279451162
0.11764709 0.049546417 0.32600001 4279187988
0.11870594 0.049546417 0.32600001 4279385367
0.11976479 0.049546417 0.32600001 4279122195
0.12082364 0.049546417 0.32600001 4279385367
0.12150862 0.049394436 0.32500002 4279253267
0.12256423 0.049394436 0.32500002 4279253267
0.038553018 0.054020733 0.34800002 4279638281
0.039683323 0.054020733 0.34800002 4279243271
0.040813629 0.054020733 0.34800002 4279244043
0.041823402 0.0538655 0.347 4279179279
0.042950459 0.0538655 0.347 4279376660
0.044077512 0.0538655 0.347 4278195457
0.045204572 0.0538655 0.347 4279975711
0.046331629 0.0538655 0.347 4278794517
0.047458682 0.0538655 0.347 4279189275
0.048725758 0.054020733 0.34800002 4279255064
0.049856067 0.054020733 0.34800002 4279189525
0.051132884 0.054175962 0.34900001 4279058455
0.052416194 0.054331198 0.35000002 4279255836
0.053552996 0.054331198 0.35000002 4279519010
0.054689799 0.054331198 0.35000002 4279584803
0.056108195 0.052468415 0.33800003 4279649826
0.057036765 0.052313179 0.33700001 4279649826
0.058131341 0.052313179 0.33700001 4279715106
0.059050176 0.05215795 0.33600003 4279713055
0.060141508 0.05215795 0.33600003 4279644443
0.061232831 0.05215795 0.33600003 4279908129
0.062138673 0.052002717 0.33500001 4279779875
0.063226752 0.052002717 0.33500001 4279450910
0.064314827 0.052002717 0.33500001 4278524681
0.065207683 0.051847484 0.33400002 4278852365
0.066292517 0.051847484 0.33400002 4278851084
0.067377344 0.051847484 0.33400002 4279048463
0.068462178 0.051847484 0.33400002 4279048463
0.069547012 0.051847484 0.33400002 4278982670
0.07042037 0.051692251 0.333 4279048463
0.071501955 0.051692251 0.333 4278982672
0.072583541 0.051692251 0.333 4279114771
0.073665127 0.051692251 0.333 4278851599
0.074522242 0.051537022 0.33200002 4278917390
0.075600579 0.051537022 0.33200002 4278917131
0.076678924 0.051537022 0.33200002 4279048717
0.077757254 0.051537022 0.33200002 4279180303
0.078835592 0.051537022 0.33200002 4278393093
0.079673231 0.051381789 0.33100003 4279712285
0.080748312 0.051381789 0.33100003 4279778850
0.081823401 0.051381789 0.33100003 4279711004
0.08289849 0.051381789 0.33100003 4280366883
0.083973579 0.051381789 0.33100003 4279708953
0.08479172 0.051226556 0.33000001 4280170276
0.08586356 0.051226556 0.33000001 4280171301
0.086935401 0.051226556 0.33000001 4279778080
0.088007249 0.051226556 0.33000001 4279975459
0.089079089 0.051226556 0.33000001 4279778078
0.08987774 0.051071327 0.32900003 4279712285
0.090946332 0.051071327 0.32900003 4279712539
0.092014931 0.051071327 0.32900003 4279844125
0.093083523 0.051071327 0.32900003 4279514395
0.093865931 0.050916091 0.32800001 4279909664
0.094931282 0.050916091 0.32800001 4279581723
0.095996618 0.050916091 0.32800001 4279319064
0.097061962 0.050916091 0.32800001 4279318812
0.098127306 0.050916091 0.32800001 4279515678
0.099192657 0.050916091 0.32800001 4279318045
0.100258 0.050916091 0.32800001 4279581471
0.10132334 0.050916091 0.32800001 4279712287
0.10207654 0.050760861 0.32700002 4279843873
0.10313863 0.050760861 0.32700002 4280238116
0.10420072 0.050760861 0.32700002 4279711002
0.10526282 0.050760861 0.32700002 4279580186
0.10599976 0.050605629 0.32600001 4279448600
0.10705861 0.050605629 0.32600001 4279842590
0.10811746 0.050605629 0.32600001 4279711772
0.1091763 0.050605629 0.32600001 4279450650
0.11023515 0.050605629 0.32600001 4279121685
0.111294 0.050605629 0.32600001 4278195970
0.11235285 0.050605629 0.32600001 4279973662
0.1134117 0.050605629 0.32600001 4279581719
0.11447055 0.050605629 0.32600001 4279581719
0.1155294 0.050605629 0.32600001 4279516439
0.11658824 0.050605629 0.32600001 4279450646
0.11764709 0.050605629 0.32600001 4279385367
0.11870594 0.050605629 0.32600001 4279122195
0.11976479 0.050605629 0.32600001 4279253269
0.12082364 0.050605629 0.32600001 4279319062
0.12188249 0.050605629 0.32600001 4279253269
0.12256423 0.050450396 0.32500002 4279187476
0.038553018 0.055151418 0.34800002 4279244043
0.039683323 0.055151418 0.34800002 4279178766
0.040813629 0.055151418 0.34800002 4279376145
0.041943934 0.055151418 0.34800002 4279508246
0.042950459 0.054992933 0.347 4279442453
0.044077512 0.054992933 0.347 4279377941
0.045204572 0.054992933 0.347 4279445270
0.046331629 0.054992933 0.347 4279451164
0.047458682 0.054992933 0.347 4279386141
0.048725758 0.055151418 0.34800002 4279386654
0.049856067 0.055151418 0.34800002 4279255066
0.051132884 0.055309895 0.34900001 4279124250
0.052416194 0.05546838 0.35000002 4279453217
0.053552996 0.05546838 0.35000002 4279584549
0.054689799 0.05546838 0.35000002 4279650342
0.055335868 0.053883567 0.34 4279584549
0.056274194 0.053725086 0.33900002 4279715365
0.057206016 0.053566609 0.33800003 4279649572
0.058131341 0.053408124 0.33700001 4279780645
0.059225921 0.053408124 0.33700001 4278594576
0.060320497 0.053408124 0.33700001 4279052820
0.061232831 0.053249646 0.33600003 4278197254
0.062324163 0.053249646 0.33600003 4279582496
0.063226752 0.053091161 0.33500001 4279648289
0.064314827 0.053091161 0.33500001 4279976229
0.06540291 0.053091161 0.33500001 4280239401
0.066292517 0.052932683 0.33400002 4280238631
0.067377344 0.052932683 0.33400002 4280238631
0.068462178 0.052932683 0.33400002 4279843360
0.069547012 0.052932683 0.33400002 4280303911
0.070631847 0.052932683 0.33400002 4280632622
0.071501955 0.052774198 0.333 4280435243
0.072583541 0.052774198 0.333 4280501036
0.073665127 0.052774198 0.333 4280434473
0.074746706 0.052774198 0.333 4280171041
0.075828291 0.052774198 0.333 4280565799
0.076678924 0.052615721 0.33200002 4280302373
0.077757254 0.052615721 0.33200002 4279973408
0.078835592 0.052615721 0.33200002 4279908899
0.079673231 0.052457239 0.33100003 4279712033
0.080748312 0.052457239 0.33100003 4279448348
0.081823401 0.052457239 0.33100003 4279447578
0.08289849 0.052457239 0.33100003 4279118099
0.083973579 0.052457239 0.33100003 4278854927
0.085048668 0.052457239 0.33100003 4278657548
0.08586356 0.052298758 0.33000001 4278460169
0.086935401 0.052298758 0.33000001 4278195969
0.088007249 0.052298758 0.33000001 4278195712
0.089079089 0.052298758 0.33000001 4278329097
0.090150923 0.052298758 0.33000001 4278197511
0.090946332 0.052140277 0.32900003 4278196224
0.092014931 0.052140277 0.32900003 4278195712
0.093083523 0.052140277 0.32900003 4278197251
0.094152115 0.052140277 0.32900003 4278195456
0.094931282 0.051981796 0.32800001 4278195968
0.095996618 0.051981796 0.32800001 4278196480
0.097061962 0.051981796 0.32800001 4278196997
0.098127306 0.051981796 0.32800001 4278196997
0.099192657 0.051981796 0.32800001 4278196997
0.100258 0.051981796 0.32800001 4278328583
0.10132334 0.051981796 0.32800001 4278197765
0.10207654 0.051823314 0.32700002 4278197510
0.10313863 0.051823314 0.32700002 4278723855
0.10420072 0.051823314 0.32700002 4278329351
0.10526282 0.051823314 0.32700002 4278921488
0.10632492 0.051823314 0.32700002 4278987281
0.10705861 0.051664833 0.32600001 4279118613
0.10811746 0.051664833 0.32600001 4278789902
0.1091763 0.051664833 0.32600001 4279184658
0.11023515 0.051664833 0.32600001 4278592521
0.111294 0.051664833 0.32600001 4278195969
0.1126975 0.051823314 0.32700002 4279646492
0.11375959 0.051823314 0.32700002 4279516439
0.11482169 0.051823314 0.32700002 4279582232
0.11588379 0.051823314 0.32700002 4279450646
0.11694588 0.051823314 0.32700002 4279582232
0.11800798 0.051823314 0.32700002 4279253267
0.11907008 0.051823314 0.32700002 4279582232
0.12013218 0.051823314 0.32700002 4279713820
0.12119427 0.051823314 0.32700002 4279450648
0.12188249 0.051664833 0.32600001 4279252758
0.039683323 0.056282107 0.34800002 4279376660
0.040813629 0.056282107 0.34800002 4279442453
0.041943934 0.056282107 0.34800002 4279508246
0.042950459 0.056120373 0.347 4279639832
0.044077512 0.056120373 0.347 4279706395
0.045204572 0.056120373 0.347 4280167459
0.046331629 0.056120373 0.347 4280369704
0.047595453 0.056282107 0.34800002 4279778848
0.048725758 0.056282107 0.34800002 4279976994
0.049999326 0.056443837 0.34900001 4279780129
0.051132884 0.056443837 0.34900001 4279320348
0.052416194 0.05660557 0.35000002 4279649313
0.053552996 0.05660557 0.35000002 4279846438
0.054689799 0.05660557 0.35000002 4279846951
0.055335868 0.054988265 0.34 4279518756
0.056274194 0.054826535 0.33900002 4279649572
0.057206016 0.054664806 0.33800003 4279715365
0.05830384 0.054664806 0.33800003 4279715365
0.059225921 0.054503076 0.33700001 4279845668
0.060320497 0.054503076 0.33700001 4279976740
0.061415073 0.054503076 0.33700001 4280239912
0.062324163 0.054341346 0.33600003 4279845922
0.06341549 0.054341346 0.33600003 4279845922
0.064314827 0.054179613 0.33500001 4279911715
0.06540291 0.054179613 0.33500001 4279845922
0.066490993 0.054179613 0.33500001 4279845922
0.067377344 0.054017887 0.33400002 4279780129
0.068462178 0.054017887 0.33400002 4279648543
0.069547012 0.054017887 0.33400002 4279780129
0.070631847 0.054017887 0.33400002 4279714852
0.071716674 0.054017887 0.33400002 4279649059
0.072801508 0.054017887 0.33400002 4279714852
0.073665127 0.053856153 0.333 4279517727
0.074746706 0.053856153 0.333 4279516957
0.075828291 0.053856153 0.333 4279516957
0.076678924 0.053694423 0.33200002 4279911201
0.077757254 0.053694423 0.33200002 4279648029
0.078835592 0.053694423 0.33200002 4279779615
0.079913929 0.053694423 0.33200002 4279779615
0.080748312 0.053532697 0.33100003 4279779615
0.081823401 0.053532697 0.33100003 4279713822
0.08289849 0.053532697 0.33100003 4279713822
0.083973579 0.053532697 0.33100003 4279779615
0.085048668 0.053532697 0.33100003 4279713309
0.086123757 0.053532697 0.33100003 4279779102
0.086935401 0.053370964 0.33000001 4279779102
0.088007249 0.053370964 0.33000001 4279647516
0.089079089 0.053370964 0.33000001 4279778332
0.090150923 0.053370964 0.33000001 4279843871
0.090946332 0.053209234 0.32900003 4279778848
0.092014931 0.053209234 0.32900003 4279713055
0.093083523 0.053209234 0.32900003 4279843871
0.094152115 0.053209234 0.32900003 4279843871
0.095220707 0.053209234 0.32900003 4279909664
0.095996618 0.053047501 0.32800001 4279909664
0.097061962 0.053047501 0.32800001 4280040737
0.098127306 0.053047501 0.32800001 4279843358
0.099192657 0.053047501 0.32800001 4279843612
0.100258 0.053047501 0.32800001 4279843612
0.10132334 0.053047501 0.32800001 4279712285
0.10238869 0.053047501 0.32800001 4279843873
0.10313863 0.052885775 0.32700002 4279843873
0.10420072 0.052885775 0.32700002 4279975457
0.10526282 0.052885775 0.32700002 4279974944
0.10632492 0.052885775 0.32700002 4280105760
0.10738701 0.052885775 0.32700002 4279842590
0.10844912 0.052885775 0.32700002 4279711004
0.1095112 0.052885775 0.32700002 4280105762
0.1105733 0.052885775 0.32700002 4279974946
0.1116354 0.052885775 0.32700002 4279581469
0.1126975 0.052885775 0.32700002 4279582236
0.11375959 0.052885775 0.32700002 4279385369
0.11482169 0.052885775 0.32700002 4279451162
0.11588379 0.052885775 0.32700002 4279582746
0.11730351 0.053047501 0.32800001 4279319574
0.11836886 0.053047501 0.32800001 4279450646
0.1194342 0.053047501 0.32800001 4279516439
0.12049954 0.053047501 0.32800001 4279253269
0.12156489 0.053047501 0.32800001 4279515928
0.056274194 0.055927977 0.33900002 4279910949
0.057206016 0.055763002 0.33800003 4279779363
0.05830384 0.055763002 0.33800003 4279910947
0.059401669 0.055763002 0.33800003 4279976740
0.060320497 0.055598021 0.33700001 4279779361
0.061415073 0.055598021 0.33700001 4279647775
0.062324163 0.055433042 0.33600003 4279779615
0.06341549 0.055433042 0.33600003 4279648029
0.064314827 0.05526806 0.33500001 4279582236
0.06540291 0.05526806 0.33500001 4279976994
0.066490993 0.05526806 0.33500001 4279780129
0.067579068 0.05526806 0.33500001 4279648543
0.068462178 0.055103082 0.33400002 4279911715
0.069547012 0.055103082 0.33400002 4279845922
0.070631847 0.055103082 0.33400002 4279779875
0.071716674 0.055103082 0.33400002 4279648289
0.072801508 0.055103082 0.33400002 4279845668
0.073886342 0.055103082 0.33400002 4279648289
0.074746706 0.0549381 0.333 4279516957
0.075828291 0.0549381 0.333 4279582750
0.076909877 0.0549381 0.333 4279516957
0.077757254 0.054773122 0.33200002 4280108580
0.078835592 0.054773122 0.33200002 4279911201
0.079913929 0.054773122 0.33200002 4279779615
0.080748312 0.054608148 0.33100003 4279516955
0.081823401 0.054608148 0.33100003 4279516955
0.08289849 0.054608148 0.33100003 4279648541
0.083973579 0.054608148 0.33100003 4279516955
0.085048668 0.054608148 0.33100003 4279648541
0.086123757 0.054608148 0.33100003 4279516957
0.086935401 0.054443166 0.33000001 4279648543
0.088007249 0.054443166 0.33000001 4279713822
0.089079089 0.054443166 0.33000001 4279779615
0.090150923 0.054443166 0.33000001 4279648029
0.091222763 0.054443166 0.33000001 4279648543
0.092014931 0.054278187 0.32900003 4279516957
0.093083523 0.054278187 0.32900003 4279582236
0.094152115 0.054278187 0.32900003 4279648029
0.095220707 0.054278187 0.32900003 4279648029
0.095996618 0.054113206 0.32800001 4279648029
0.097061962 0.054113206 0.32800001 4279648029
0.098127306 0.054113206 0.32800001 4279713822
0.099192657 0.054113206 0.32800001 4279581721
0.100258 0.054113206 0.32800001 4279779100
0.10132334 0.054113206 0.32800001 4279648027
0.10238869 0.054113206 0.32800001 4279648027
0.10313863 0.053948227 0.32700002 4279516441
0.10420072 0.053948227 0.32700002 4279648027
0.10526282 0.053948227 0.32700002 4279909916
0.10632492 0.053948227 0.32700002 4279975711
0.10738701 0.053948227 0.32700002 4279844125
0.10844912 0.053948227 0.32700002 4279844125
0.1095112 0.053948227 0.32700002 4279975711
0.1105733 0.053948227 0.32700002 4279647516
0.1116354 0.053948227 0.32700002 4279713309
0.1126975 0.053948227 0.32700002 4279713309
0.11375959 0.053948227 0.32700002 4279713822
0.11517283 0.054113206 0.32800001 4279385117
0.11623817 0.054113206 0.32800001 4279648029
0.11730351 0.054113206 0.32800001 4279648029
0.11836886 0.054113206 0.32800001 4279712537
0.1194342 0.054113206 0.32800001 4279251473
0.12049954 0.054113206 0.32800001 4280170780
0.12156489 0.054113206 0.32800001 4284051284
0.066490993 0.056356512 0.33500001 4282999627
0.067579068 0.056356512 0.33500001 4283197006
0.068667151 0.056356512 0.33500001 4283065166
0.069547012 0.056188285 0.33400002 4282999373
0.070631847 0.056188285 0.33400002 4282539076
0.071716674 0.056188285 0.33400002 4282473283
0.072801508 0.056188285 0.33400002 4281946939
0.073886342 0.056188285 0.33400002 4281157936
0.074971177 0.056188285 0.33400002 4281092657
0.075828291 0.056020055 0.333 4280434473
0.087198846 0.055683602 0.33100003 4279580186
0.088007249 0.055515371 0.33000001 4279514393
0.089079089 0.055515371 0.33000001 4279712026
0.090150923 0.055515371 0.33000001 4279448854
0.091222763 0.055515371 0.33000001 4279514647
0.092294604 0.055515371 0.33000001 4279712026
0.093083523 0.055347145 0.32900003 4279645463
0.094152115 0.055347145 0.32900003 4279513877
0.095220707 0.055347145 0.32900003 4279317527
0.096289292 0.055347145 0.32900003 4279317527
0.097357891 0.055347145 0.32900003 4279382807
0.098426484 0.055347145 0.32900003 4279579416
0.099495076 0.055347145 0.32900003 4280039967
0.10056367 0.055347145 0.32900003 4280171553
0.10163227 0.055347145 0.32900003 4279711774
0.10270086 0.055347145 0.32900003 4279909153
0.10376944 0.055347145 0.32900003 4279644957
0.10483804 0.055347145 0.32900003 4280566313
0.10590663 0.055347145 0.32900003 4280762663
0.10632492 0.055010688 0.32700002 4280960555
0.10738701 0.055010688 0.32700002 4281355313
0.10844912 0.055010688 0.32700002 4281618485
0.1095112 0.055010688 0.32700002 4282275902
0.1105733 0.055010688 0.32700002 4282144318
0.1116354 0.055010688 0.32700002 4282868039
0.1126975 0.055010688 0.32700002 4283722578
0.11410748 0.055178914 0.32800001 4283525199
0.11517283 0.055178914 0.32800001 4284249176
0.11623817 0.055178914 0.32800001 4284708960
0.11730351 0.055178914 0.32800001 4285301612
0.11836886 0.055178914 0.32800001 4285367405
0.1194342 0.055178914 0.32800001 4285038440
0.12086693 0.055347145 0.32900003 4284774501
0.087198846 0.056759052 0.33100003 4283524947
0.088007249 0.056587569 0.33000001 4283787860
0.089079089 0.056587569 0.33000001 4283985239
0.090150923 0.056587569 0.33000001 4284116825
0.091222763 0.056587569 0.33000001 4284577635
0.092294604 0.056587569 0.33000001 4284248670
0.093366444 0.056587569 0.33000001 4284511842
0.094438292 0.056587569 0.33000001 4285301358
0.095510133 0.056587569 0.33000001 4284577635
0.096581966 0.056587569 0.33000001 4284643428
0.097653806 0.056587569 0.33000001 4284708962
0.098725647 0.056587569 0.33000001 4284643169
0.099797487 0.056587569 0.33000001 4284512096
0.10086933 0.056587569 0.33000001 4284708962
0.10194118 0.056587569 0.33000001 4284577122
0.10301302 0.056587569 0.33000001 4285037675
0.10408485 0.056587569 0.33000001 4284906089
0.10515669 0.056587569 0.33000001 4284708710
0.10622853 0.056587569 0.33000001 4284905319
0.10730037 0.056587569 0.33000001 4285036905
0.10837222 0.056587569 0.33000001 4284971882
0.10944406 0.056587569 0.33000001 4284906087
0.11051589 0.056587569 0.33000001 4284971880
0.11158773 0.056587569 0.33000001 4285103466
0.11265957 0.056587569 0.33000001 4284971880
0.11373141 0.056587569 0.33000001 4285102698
0.11480326 0.056587569 0.33000001 4285102698
0.1158751 0.056587569 0.33000001 4285102696
0.11694694 0.056587569 0.33000001 4285102696
0.11730351 0.056244615 0.32800001 4285168489
0.11872974 0.056416094 0.32900003 4285102696
0.083039686 0.049636193 0.332149 4294967295
0.083039686 0.049636193 0.332149 4294901760
0.083039686 0.049636193 0.33264899 4294901760
0.083039686 0.049636193 0.33314899 4294901760
0.083039686 0.049636193 0.33364901 4294901760
0.083039686 0.049636193 0.334149 4294901760
0.083039686 0.049636193 0.334649 4294901760
0.083039686 0.049636193 0.33514899 4294901760
0.083039686 0.049636193 0.33564901 4294901760
0.083039686 0.049636193 0.33614901 4294901760
0.083039686 0.049636193 0.336649 4294901760
0.083039686 0.049636193 0.33714899 4294901760
0.083039686 0.049636193 0.33764899 4294901760
0.083039686 0.049636193 0.33814901 4294901760
0.083039686 0.049636193 0.338649 4294901760
0.083039686 0.049636193 0.339149 4294901760
0.083039686 0.049636193 0.33964899 4294901760
0.083039686 0.049636193 0.34014899 4294901760
0.083039686 0.049636193 0.34064901 4294901760
0.083039686 0.049636193 0.341149 4294901760
0.083039686 0.049636193 0.341649 4294901760
0.083039686 0.049636193 0.34214899 4294901760
0.083039686 0.049636193 0.34264901 4294901760
0.083039686 0.049636193 0.34314901 4294901760
0.083039686 0.049636193 0.343649 4294901760
0.083039686 0.049636193 0.34414899 4294901760
0.083039686 0.049636193 0.34464902 4294901760
0.083039686 0.049636193 0.34514901 4294901760
0.083039686 0.049636193 0.345649 4294901760
0.083039686 0.049636193 0.346149 4294901760
0.083039686 0.049636193 0.34664899 4294901760
0.083039686 0.049636193 0.34714901 4294901760
0.083039686 0.049636193 0.34764901 4294901760
0.083039686 0.049636193 0.348149 4294901760
0.083039686 0.049636193 0.348649 4294901760
0.083039686 0.049636193 0.34914899 4294901760
0.083039686 0.049636193 0.34964901 4294901760
0.083039686 0.049636193 0.35014901 4294901760
0.083039686 0.049636193 0.350649 4294901760
0.083039686 0.049636193 0.35114899 4294901760
0.083039686 0.049636193 0.35164902 4294901760
0.083039686 0.049636193 0.35214901 4294901760
0.083039686 0.049636193 0.352649 4294901760
0.083039686 0.049636193 0.353149 4294901760
0.083039686 0.049636193 0.35364902 4294901760
0.083039686 0.049636193 0.35414901 4294901760
0.083039686 0.049636193 0.35464901 4294901760
0.083039686 0.049636193 0.355149 4294901760
0.083039686 0.049636193 0.35564899 4294901760
0.083039686 0.049636193 0.35614902 4294901760
0.083039686 0.049636193 0.35664901 4294901760
0.083039686 0.049636193 0.357149 4294901760
0.083039686 0.049636193 0.357649 4294901760
0.083039686 0.049636193 0.35814899 4294901760
0.083039686 0.049636193 0.35864902 4294901760
0.083039686 0.049636193 0.35914901 4294901760
0.083039686 0.049636193 0.359649 4294901760
0.083039686 0.049636193 0.360149 4294901760
0.083039686 0.049636193 0.36064899 4294901760
0.083039686 0.049636193 0.36114901 4294901760
0.083039686 0.049636193 0.36164901 4294901760
0.083039686 0.049636193 0.362149 4294901760
0.083039686 0.049636193 0.36264899 4294901760
0.083039686 0.049636193 0.36314902 4294901760
0.083039686 0.049636193 0.36364901 4294901760
0.083039686 0.049636193 0.364149 4294901760
0.083039686 0.049636193 0.364649 4294901760
0.083039686 0.049636193 0.36514902 4294901760
0.083039686 0.049636193 0.36564901 4294901760
0.083039686 0.049636193 0.36614901 4294901760
0.083039686 0.049636193 0.366649 4294901760
0.083039686 0.049636193 0.367149 4294901760
0.083039686 0.049636193 0.36764902 4294901760
0.083039686 0.049636193 0.36814901 4294901760
0.083039686 0.049636193 0.36864901 4294901760
0.083039686 0.049636193 0.369149 4294901760
0.083039686 0.049636193 0.36964899 4294901760
0.083039686 0.049636193 0.37014902 4294901760
0.083039686 0.049636193 0.37064901 4294901760
0.083039686 0.049636193 0.371149 4294901760
0.083039686 0.049636193 0.371649 4294901760
0.083039686 0.049636193 0.37214902 4294901760
0.083039686 0.049636193 0.37264901 4294901760
0.083039686 0.049636193 0.37314901 4294901760
0.083039686 0.049636193 0.373649 4294901760
0.083039686 0.049636193 0.37414899 4294901760
0.083039686 0.049636193 0.37464902 4294901760
0.083039686 0.049636193 0.37514901 4294901760
0.083039686 0.049636193 0.37564901 4294901760
0.083039686 0.049636193 0.376149 4294901760
0.083039686 0.049636193 0.37664902 4294901760
0.083039686 0.049636193 0.37714902 4294901760
0.083039686 0.049636193 0.37764901 4294901760
0.083039686 0.049636193 0.378149 4294901760
0.083039686 0.049636193 0.378649 4294901760
0.083039686 0.049636193 0.37914902 4294901760
0.083039686 0.049636193 0.37964901 4294901760
0.083039686 0.049636193 0.38014901 4294901760
0.083039686 0.049636193 0.380649 4294901760
0.083039686 0.049636193 0.38114902 4294901760
0.083039686 0.049636193 0.38164902 4294901760
0.083039686 0.049636193 0.38214901 4294901760
0.083039686 0.049636193 0.332149 4278255360
0.083126247 0.049558848 0.33263534 4278255360
0.083212808 0.049481507 0.33312169 4278255360
0.083299376 0.049404163 0.333608 4278255360
0.083385937 0.049326822 0.33409435 4278255360
0.083472498 0.049249478 0.33458069 4278255360
0.083559059 0.049172137 0.33506703 4278255360
0.083645619 0.049094792 0.33555338 4278255360
0.083732188 0.049017452 0.33603969 4278255360
0.083818749 0.048940107 0.33652604 4278255360
0.083905309 0.048862763 0.33701238 4278255360
0.08399187 0.048785422 0.33749872 4278255360
0.084078439 0.048708078 0.33798507 4278255360
0.084164999 0.048630737 0.33847141 4278255360
0.08425156 0.048553392 0.33895773 4278255360
0.084338121 0.048476052 0.33944407 4278255360
0.084424682 0.048398707 0.33993042 4278255360
0.08451125 0.048321363 0.34041676 4278255360
0.084597811 0.048244022 0.3409031 4278255360
0.084684372 0.048166677 0.34138942 4278255360
0.084770933 0.048089337 0.34187576 4278255360
0.084857494 0.048011992 0.34236211 4278255360
0.084944062 0.047934651 0.34284845 4278255360
0.085030623 0.047857307 0.34333479 4278255360
0.085117184 0.047779966 0.34382111 4278255360
0.085203744 0.047702622 0.34430745 4278255360
0.085290305 0.047625277 0.3447938 4278255360
0.085376874 0.047547936 0.34528014 4278255360
0.085463434 0.047470592 0.34576648 4278255360
0.085549995 0.047393251 0.3462528 4278255360
0.085636556 0.047315907 0.34673914 4278255360
0.085723117 0.047238566 0.34722549 4278255360
0.085809685 0.047161222 0.34771183 4278255360
0.085896246 0.047083877 0.34819818 4278255360
0.085982807 0.047006536 0.34868452 4278255360
0.086069368 0.046929192 0.34917083 4278255360
0.086155936 0.046851851 0.34965718 4278255360
0.086242497 0.046774507 0.35014352 4278255360
0.086329058 0.046697166 0.35062987 4278255360
0.086415619 0.046619821 0.35111621 4278255360
0.08650218 0.046542481 0.35160252 4278255360
0.086588748 0.046465136 0.35208887 4278255360
0.086675309 0.046387792 0.35257521 4278255360
0.086761869 0.046310451 0.35306156 4278255360
0.08684843 0.046233106 0.3535479 4278255360
0.086934991 0.046155766 0.35403422 4278255360
0.087021559 0.046078421 0.35452056 4278255360
0.08710812 0.04600108 0.3550069 4278255360
0.087194681 0.045923736 0.35549325 4278255360
0.087281242 0.045846395 0.35597959 4278255360
0.087367803 0.045769051 0.35646594 4278255360
0.087454371 0.045691706 0.35695225 4278255360
0.087540932 0.045614365 0.35743859 4278255360
0.087627493 0.045537021 0.35792494 4278255360
0.087714054 0.04545968 0.35841128 4278255360
0.087800622 0.045382336 0.35889763 4278255360
0.087887183 0.045304995 0.35938394 4278255360
0.087973744 0.045227651 0.35987028 4278255360
0.088060305 0.04515031 0.36035663 4278255360
0.088146865 0.045072965 0.36084297 4278255360
0.088233434 0.044995621 0.36132932 4278255360
0.088319995 0.04491828 0.36181563 4278255360
0.088406555 0.044840936 0.36230198 4278255360
0.088493116 0.044763595 0.36278832 4278255360
0.088579677 0.04468625 0.36327466 4278255360
0.088666245 0.04460891 0.36376101 4278255360
0.088752806 0.044531565 0.36424732 4278255360
0.088839367 0.044454224 0.36473367 4278255360
0.088925928 0.04437688 0.36522001 4278255360
0.089012489 0.044299535 0.36570635 4278255360
0.089099057 0.044222195 0.3661927 4278255360
0.089185618 0.04414485 0.36667901 4278255360
0.089272179 0.044067509 0.36716536 4278255360
0.08935874 0.043990165 0.3676517 4278255360
0.089445308 0.043912821 0.36813805 4278255360
0.089531869 0.04383548 0.36862439 4278255360
0.08961843 0.043758139 0.3691107 4278255360
0.08970499 0.043680795 0.36959705 4278255360
0.089791551 0.04360345 0.37008339 4278255360
0.08987812 0.043526109 0.37056974 4278255360
0.08996468 0.043448765 0.37105608 4278255360
0.090051241 0.043371424 0.37154242 4278255360
0.090137802 0.04329408 0.37202874 4278255360
0.090224363 0.043216735 0.37251508 4278255360
0.090310931 0.043139394 0.37300143 4278255360
0.090397492 0.04306205 0.37348777 4278255360
0.090484053 0.042984709 0.37397411 4278255360
0.090570614 0.042907365 0.37446046 4278255360
0.090657175 0.042830024 0.37494677 4278255360
0.090743743 0.042752679 0.37543312 4278255360
0.090830304 0.042675339 0.37591946 4278255360
0.090916865 0.042597994 0.37640581 4278255360
0.091003425 0.04252065 0.37689215 4278255360
0.091089994 0.042443309 0.37737846 4278255360
0.091176555 0.042365965 0.37786481 4278255360
0.091263115 0.042288624 0.37835115 4278255360
0.091349676 0.042211279 0.3788375 4278255360
0.091436237 0.042133939 0.37932384 4278255360
