# .PCD v0.7 - Point Cloud Data file format
VERSION 0.7
FIELDS x y z rgb
SIZE 4 4 4 4
TYPE F F F U
COUNT 1 1 1 1
WIDTH 818
HEIGHT 1
VIEWPOINT 0 0 0 1 0 0 0
POINTS 818
DATA ascii
0.04443593 -0.030882273 0.47000003 4287279000
0.045962486 -0.030882273 0.47000003 4286489484
0.047489051 -0.030882273 0.47000003 4285766272
0.049119897 -0.03094798 0.47100002 4284649077
0.042818066 -0.029292736 0.46900001 4281033540
0.04443593 -0.029355196 0.47000003 4280113455
0.045962486 -0.029355196 0.47000003 4280771385
0.047489051 -0.029355196 0.47000003 4280377912
0.049015611 -0.029355196 0.47000003 4280247096
0.050649706 -0.029417653 0.47100002 4280049977
0.052179515 -0.029417653 0.47100002 4279260209
-0.007922112 -0.024512429 0.41400003 4285434231
-0.0065774391 -0.024512429 0.41400003 4286355847
0.04120671 -0.0277097 0.46800002 4279328304
0.042818066 -0.027768908 0.46900001 4279394865
0.044341382 -0.027768908 0.46900001 4279394863
0.045864694 -0.027768908 0.46900001 4279065128
0.047489051 -0.027828118 0.47000003 4279919924
0.049015611 -0.027828118 0.47000003 4279327787
0.050542168 -0.027828118 0.47000003 4279262509
0.052179515 -0.027887326 0.47100002 4279130925
-0.016957978 -0.022663662 0.40500003 4282142003
-0.015758408 -0.022831541 0.40800002 4282932297
-0.014433222 -0.022831541 0.40800002 4282670158
-0.013140164 -0.0228875 0.40900001 4282407751
-0.010560194 -0.02305538 0.41200003 4282538824
-0.009244401 -0.02311134 0.41300002 4282144329
-0.007922112 -0.023167299 0.41400003 4282933592
-0.0065774391 -0.023167299 0.41400003 4282999385
-0.0038974853 -0.023223259 0.41500002 4282208839
-0.0025557079 -0.023279218 0.41600001 4282604367
-0.0012045392 -0.023279218 0.41600001 4283330139
0.0015013987 -0.023335177 0.41700003 4282608726
0.0028558155 -0.023335177 0.41700003 4285240446
0.0042102323 -0.023335177 0.41700003 4286687890
0.0055646491 -0.023335177 0.41700003 4286490511
0.0069190655 -0.023335177 0.41700003 4286489486
0.0082734823 -0.023335177 0.41700003 4286489232
0.04120671 -0.02618912 0.46800002 4278934314
0.04272677 -0.02618912 0.46800002 4278868519
0.044246837 -0.02618912 0.46800002 4278539806
0.045864694 -0.02624508 0.46900001 4278474013
0.04738801 -0.02624508 0.46900001 4278671392
0.049015611 -0.026301039 0.47000003 4278604829
0.050542168 -0.026301039 0.47000003 4278868003
0.052068733 -0.026301039 0.47000003 4279261226
-0.015681161 -0.021400485 0.40600002 4281945402
-0.014397847 -0.021453194 0.40700001 4281156919
-0.013108037 -0.021505907 0.40800002 4281288505
-0.011811732 -0.021558616 0.40900001 4281222196
-0.010534562 -0.021664038 0.41100001 4280893231
-0.009244401 -0.021769458 0.41300002 4281156149
-0.007922112 -0.021822169 0.41400003 4282340425
-0.0065774391 -0.021822169 0.41400003 4283064148
-0.0039068768 -0.02192759 0.41600001 4281418810
-0.0025557079 -0.02192759 0.41600001 4280958772
-0.0012045392 -0.02192759 0.41600001 4281485884
0.00014698198 -0.021980301 0.41700003 4281355065
0.0015013987 -0.021980301 0.41700003 4281224763
0.0028558155 -0.021980301 0.41700003 4280172586
0.0042102323 -0.021980301 0.41700003 4280044848
0.0055646491 -0.021980301 0.41700003 4280507711
0.0069190655 -0.021980301 0.41700003 4281428813
0.0082734823 -0.021980301 0.41700003 4284059508
0.0096278992 -0.021980301 0.41700003 4286293904
0.010982316 -0.021980301 0.41700003 4286161548
0.039432243 -0.024510408 0.46500003 4278539808
0.041118659 -0.024615828 0.46700001 4278473245
0.042635474 -0.024615828 0.46700001 4278539038
0.044246837 -0.024668539 0.46800002 4278802210
0.045766901 -0.024668539 0.46800002 4278341659
0.04738801 -0.02472125 0.46900001 4278735904
0.048911318 -0.02472125 0.46900001 4278471195
0.050542168 -0.024773961 0.47000003 4279129127
0.052068733 -0.024773961 0.47000003 4279457326
-0.018138058 -0.019883504 0.40200001 4282075956
-0.014362471 -0.020081351 0.40600002 4282867019
-0.01307591 -0.020130811 0.40700001 4280827438
-0.011782853 -0.020180274 0.40800002 4280958257
-0.010534562 -0.020328658 0.41100001 4280826925
-0.009244401 -0.020427579 0.41300002 4280694317
-0.007922112 -0.020477042 0.41400003 4282603595
-0.0052454062 -0.020526502 0.41500002 4280892464
-0.0039068768 -0.020575963 0.41600001 4280892464
-0.0025557079 -0.020575963 0.41600001 4280892718
-0.0012074348 -0.020625426 0.41700003 4280630059
0.00014698198 -0.020625426 0.41700003 4281222196
0.0015013987 -0.020625426 0.41700003 4281419058
0.0028558155 -0.020625426 0.41700003 4281615921
0.0042102323 -0.020625426 0.41700003 4281156653
0.0055646491 -0.020625426 0.41700003 4280832051
0.0069190655 -0.020625426 0.41700003 4279064365
0.0082734823 -0.020625426 0.41700003 4279460406
0.0096278992 -0.020625426 0.41700003 4279591222
0.010982316 -0.020625426 0.41700003 4279524148
0.012366317 -0.020674886 0.41800001 4280507963
0.013723982 -0.020674886 0.41800001 4282086480
0.015117726 -0.020724349 0.41900003 4281692237
0.016517967 -0.020773809 0.42000002 4281298508
0.017924706 -0.020823272 0.42100003 4281103950
0.019337939 -0.020872733 0.42200002 4280051514
0.020757668 -0.020922193 0.42300001 4280051512
0.022183893 -0.020971656 0.42400002 4280380477
0.023616614 -0.021021117 0.42500001 4279987004
0.025055833 -0.021070579 0.42600003 4279000623
0.026501546 -0.02112004 0.42700002 4278409767
0.027888441 -0.02112004 0.42700002 4278344487
0.029275339 -0.02112004 0.42700002 4278212387
0.037758816 -0.022900652 0.46300003 4278276382
0.039347444 -0.022950115 0.46400002 4278472991
0.041030612 -0.023049036 0.46600002 4278538525
0.042635474 -0.023098499 0.46700001 4278933283
0.044152293 -0.023098499 0.46700001 4279194658
0.045766901 -0.023147959 0.46800002 4278200320
0.04738801 -0.02319742 0.46900001 4278402072
0.048911318 -0.02319742 0.46900001 4278731037
0.050542168 -0.023246882 0.47000003 4279785775
0.052068733 -0.023246882 0.47000003 4279390250
-0.021890558 -0.018438729 0.39900002 4282009650
-0.019347019 -0.018484941 0.40000001 4282141751
-0.010534562 -0.018993275 0.41100001 4282471748
-0.009244401 -0.019085702 0.41300002 4281484855
-0.007922112 -0.019131914 0.41400003 4283853403
-0.0065933261 -0.019178126 0.41500002 4283524951
-0.0052580452 -0.019224338 0.41600001 4280826925
-0.0039162682 -0.01927055 0.41700003 4280432167
-0.0025618516 -0.01927055 0.41700003 4280300581
-0.0012074348 -0.01927055 0.41700003 4280497190
0.00014733446 -0.019316763 0.41800001 4281155118
0.0015049991 -0.019316763 0.41800001 4281023270
0.0028626637 -0.019316763 0.41800001 4281483306
0.0042203283 -0.019316763 0.41800001 4281220647
0.0055779936 -0.019316763 0.41800001 4280499491
0.0069190655 -0.01927055 0.41700003 4279325222
0.0082734823 -0.01927055 0.41700003 4278735650
0.0096278992 -0.01927055 0.41700003 4278342689
0.010982316 -0.01927055 0.41700003 4279394863
0.012366317 -0.019316763 0.41800001 4283602537
0.013756815 -0.019362975 0.41900003 4281759563
0.015117726 -0.019362975 0.41900003 4280117053
0.016517967 -0.019409187 0.42000002 4279527226
0.017924706 -0.019455401 0.42100003 4279528250
0.019337939 -0.019501612 0.42200002 4278936109
0.020757668 -0.019547824 0.42300001 4279001386
0.022183893 -0.019594038 0.42400002 4279132972
0.023616614 -0.019640248 0.42500001 4279198765
0.025055833 -0.019686462 0.42600003 4278540581
0.026563611 -0.019778887 0.42800003 4278343202
0.028019065 -0.019825099 0.42900002 4278277411
0.029275339 -0.019732675 0.42700002 4278540583
0.03586347 -0.021165257 0.45800003 4278407968
0.037595712 -0.021303894 0.46100003 4278867236
0.039262641 -0.021396318 0.46300003 4278470683
0.040942565 -0.021488745 0.46500003 4278201349
0.042544179 -0.021534955 0.46600002 4278204433
0.044152293 -0.021581167 0.46700001 4279323937
0.045766901 -0.02162738 0.46800002 4279127328
0.04738801 -0.021673592 0.46900001 4279127330
0.048911318 -0.021673592 0.46900001 4278204943
0.050542168 -0.021719806 0.47000003 4279061539
0.052068733 -0.021719806 0.47000003 4278731298
-0.020594606 -0.017142337 0.39900002 4282997322
-0.01674862 -0.017185299 0.40000001 4282538824
-0.010534562 -0.017657895 0.41100001 4282735435
-0.007941247 -0.017829748 0.41500002 4281486647
-0.0066092135 -0.017872712 0.41600001 4281222196
-0.0052706851 -0.017915675 0.41700003 4280169508
-0.0039256597 -0.017958637 0.41800001 4280497190
-0.0025679951 -0.017958637 0.41800001 4280496676
-0.0012103303 -0.017958637 0.41800001 4280496676
0.00014768694 -0.018001603 0.41900003 4281878327
0.0015085997 -0.018001603 0.41900003 4280760096
0.0028695124 -0.018001603 0.41900003 4281484073
0.0042203283 -0.017958637 0.41800001 4281155108
0.0055779936 -0.017958637 0.41800001 4280564255
0.0069356579 -0.017958637 0.41800001 4279059738
0.0082933232 -0.017958637 0.41800001 4278864923
0.0096509876 -0.017958637 0.41800001 4278735134
0.011008652 -0.017958637 0.41800001 4278999076
0.012366317 -0.017958637 0.41800001 4278868519
0.013756815 -0.018001603 0.41900003 4278540583
0.015153807 -0.018044565 0.42000002 4278870318
0.016557297 -0.018087529 0.42100003 4279791418
0.017967282 -0.018130491 0.42200002 4279199794
0.019383764 -0.018173454 0.42300001 4278607657
0.020806741 -0.018216418 0.42400002 4278541605
0.022236213 -0.01825938 0.42500001 4278540835
0.023672184 -0.018302346 0.42600003 4278606115
0.025173465 -0.018388271 0.42800003 4278277150
0.026625674 -0.018431233 0.42900002 4278737187
0.02814969 -0.018517161 0.43100002 4278802980
0.030372307 -0.01903272 0.44300002 4279065382
0.032026596 -0.019161608 0.44600001 4279524650
0.03377543 -0.019333463 0.45000002 4279325990
0.035706859 -0.019591242 0.45600003 4278200576
0.037432604 -0.019720132 0.45900002 4278533144
0.039177842 -0.019849021 0.46200001 4279980844
0.040854514 -0.019934949 0.46400002 4279257121
0.042544179 -0.020020874 0.46600002 4279389219
0.044152293 -0.020063836 0.46700001 4279126558
0.045766901 -0.020106802 0.46800002 4279258144
0.04738801 -0.020149764 0.46900001 4278666779
0.049015611 -0.020192727 0.47000003 4278272023
0.050542168 -0.020192727 0.47000003 4279258918
0.052068733 -0.020192727 0.47000003 4282282323
-0.011609576 -0.015965087 0.40200001 4282669388
-0.010560194 -0.016362229 0.41200003 4281221429
-0.0092891688 -0.016481372 0.41500002 4281355579
-0.0079603828 -0.016521085 0.41600001 4280960821
-0.0066251014 -0.0165608 0.41700003 4280499243
-0.0052833245 -0.016600514 0.41800001 4280432167
-0.0039350516 -0.016640229 0.41900003 4280234018
-0.0025741386 -0.016640229 0.41900003 4280627749
-0.0012161214 -0.016679943 0.42000002 4280562467
0.00014803941 -0.016679943 0.42000002 4281154602
0.0015122001 -0.016679943 0.42000002 4281154854
0.0028763607 -0.016679943 0.42000002 4281351204
0.0042405212 -0.016679943 0.42000002 4281220388
0.005591338 -0.016640229 0.41900003 4280563483
0.0069522504 -0.016640229 0.41900003 4279320857
0.0083131632 -0.016640229 0.41900003 4278862359
0.0096509876 -0.016600514 0.41800001 4278732570
0.011034989 -0.016640229 0.41900003 4278601497
0.012395903 -0.016640229 0.41900003 4279262761
0.013789647 -0.016679943 0.42000002 4278671394
0.015153807 -0.016679943 0.42000002 4278671908
0.016557297 -0.016719656 0.42100003 4278803494
0.017967282 -0.016759371 0.42200002 4278869287
0.019383764 -0.016799085 0.42300001 4278737701
0.020806741 -0.016838798 0.42400002 4279460140
0.022288535 -0.016918227 0.42600003 4279328554
0.02372775 -0.016957941 0.42700002 4278602269
0.025232282 -0.017037369 0.42900002 4279918127
0.026749803 -0.017116798 0.43100002 4279984688
0.028345628 -0.01723594 0.43400002 4279127328
0.030303748 -0.017553654 0.44200003 4278398222
0.032026596 -0.017712509 0.44600001 4278331404
0.033700373 -0.017831653 0.44900003 4280375600
0.035550252 -0.018030224 0.45400003 4280047662
0.037351053 -0.01818908 0.45800003 4279784490
0.03909304 -0.018308222 0.46100003 4278535193
0.040766466 -0.018387651 0.46300003 4278928668
0.042452883 -0.01846708 0.46500003 4278665496
0.044152293 -0.018546507 0.46700001 4278993177
0.045766901 -0.018586222 0.46800002 4279124763
0.04738801 -0.018625936 0.46900001 4280836153
0.049015611 -0.018665651 0.47000003 4279389734
0.050542168 -0.018665651 0.47000003 4279586346
0.052179515 -0.018705364 0.47100002 4284912762
-0.023070287 -0.014476622 0.39700001 4282537802
-0.021780832 -0.014476622 0.39700001 4280563499
-0.010585826 -0.015060063 0.41300002 4281155890
-0.0093339356 -0.015205923 0.41700003 4283722578
-0.0079986537 -0.015242388 0.41800001 4280697385
-0.0066568768 -0.015278853 0.41900003 4280762415
-0.0053086034 -0.015315318 0.42000002 4280235301
-0.0039444431 -0.015315318 0.42000002 4280168225
-0.0025864257 -0.015351783 0.42100003 4280694055
-0.0012190168 -0.015351783 0.42100003 4280759333
0.00014839189 -0.015351783 0.42100003 4281680433
0.0015158006 -0.015351783 0.42100003 4281351204
0.0028832094 -0.015351783 0.42100003 4281416995
0.0042506182 -0.015351783 0.42100003 4281154593
0.0056046825 -0.015315318 0.42000002 4280366874
0.0069688428 -0.015315318 0.42000002 4279188758
0.0083330041 -0.015315318 0.42000002 4279256347
0.0096740769 -0.015278853 0.41900003 4278929179
0.011034989 -0.015278853 0.41900003 4279060765
0.012425486 -0.015315318 0.42000002 4279260197
0.013789647 -0.015315318 0.42000002 4278867490
0.015189888 -0.015351783 0.42100003 4278670624
0.016596625 -0.015388248 0.42200002 4278671394
0.018009858 -0.015424713 0.42300001 4278737187
0.019429589 -0.015461178 0.42400002 4279328300
0.020855812 -0.015497643 0.42500001 4278801958
0.022340855 -0.015570574 0.42700002 4280314684
0.023838889 -0.015643504 0.42900002 4278206486
0.025349915 -0.015716434 0.43100002 4279521320
0.026873933 -0.015789364 0.43300003 4278527761
0.028476253 -0.015898759 0.43600002 4279052310
0.030303748 -0.016117549 0.44200003 4279116566
0.031954788 -0.016226944 0.44500002 4278656785
0.033700373 -0.016372805 0.44900003 4280307502
0.035471946 -0.016518664 0.45300001 4278200839
0.037269499 -0.016664524 0.45700002 4278599191
0.039008241 -0.016773919 0.46000001 4278599191
0.040766466 -0.016883316 0.46300003 4278862875
0.042452883 -0.016956246 0.46500003 4278533910
0.044152293 -0.017029174 0.46700001 4279520291
0.045766901 -0.017065641 0.46800002 4280507186
0.04738801 -0.017102106 0.46900001 4278927902
0.049015611 -0.017138571 0.47000003 4279652139
0.050542168 -0.017138571 0.47000003 4279059238
-0.024359744 -0.013186729 0.39700001 4281615671
-0.023070287 -0.013186729 0.39700001 4281549624
-0.021780832 -0.013186729 0.39700001 4279641881
-0.0066727637 -0.013950695 0.42000002 4281155886
-0.0053212433 -0.013983912 0.42100003 4280958507
-0.0039538345 -0.013983912 0.42100003 4280694567
-0.0025925692 -0.014017127 0.42200002 4281286704
-0.0012248078 -0.014050343 0.42300001 4281615407
0.00014909683 -0.014050343 0.42300001 4281615407
0.0015230015 -0.014050343 0.42300001 4281219618
0.0028969061 -0.014050343 0.42300001 4281548068
0.0042708106 -0.014050343 0.42300001 4281483558
0.0056313714 -0.014017127 0.42200002 4280236571
0.0069854357 -0.013983912 0.42100003 4279320859
0.008352845 -0.013983912 0.42100003 4279256349
0.0096971644 -0.013950695 0.42000002 4278929181
0.011061325 -0.013950695 0.42000002 4278929949
0.012455071 -0.013983912 0.42100003 4278865953
0.01382248 -0.013983912 0.42100003 4278865953
0.015225968 -0.014017127 0.42200002 4278670624
0.016635953 -0.014050343 0.42300001 4278868003
0.018052435 -0.01408356 0.42400002 4278999335
0.019475412 -0.014116775 0.42500001 4279394095
0.020904887 -0.014149992 0.42600003 4279459377
0.022393174 -0.014216423 0.42800003 4279458605
0.023894455 -0.014282854 0.43000001 4279718445
0.02540873 -0.014349286 0.43200001 4278199557
0.026998062 -0.014448935 0.43500003 4278854931
0.028606879 -0.014548583 0.43800002 4280631856
0.030303748 -0.014681446 0.44200003 4280238379
0.031954788 -0.014781094 0.44500002 4279185691
0.033700373 -0.014913958 0.44900003 4280570422
0.03539364 -0.015013605 0.45200002 4278200077
0.037187949 -0.01514647 0.45600003 4278860826
0.038923439 -0.015246117 0.45900002 4279322660
0.040678415 -0.015345764 0.46200001 4279915563
0.042452883 -0.015445413 0.46500003 4279191840
0.044152293 -0.015511844 0.46700001 4278199298
0.045766901 -0.015545061 0.46800002 4278467353
0.04738801 -0.015578276 0.46900001 4280178231
0.049015611 -0.015611493 0.47000003 4280046899
0.050649706 -0.015644709 0.47100002 4284713075
-0.024359744 -0.011896836 0.39700001 4281813048
-0.023070287 -0.011896836 0.39700001 4280233504
-0.021780832 -0.011896836 0.39700001 4280694055
-0.019201918 -0.011896836 0.39700001 4279773467
-0.0066886516 -0.01261604 0.42100003 4281484333
-0.0053338828 -0.012646006 0.42200002 4281418542
-0.003963226 -0.012646006 0.42200002 4281352495
-0.0025987127 -0.012675973 0.42300001 4281352495
-0.0012277034 -0.012705941 0.42400002 4281484335
0.00014944932 -0.012705941 0.42400002 4281220647
0.0015302025 -0.012735907 0.42500001 4281416997
0.0029106031 -0.012735907 0.42500001 4281482788
0.0042809076 -0.012705941 0.42400002 4281352999
0.0056580603 -0.012705941 0.42400002 4280171805
0.0070186201 -0.012675973 0.42300001 4279190556
0.0083726849 -0.012646006 0.42200002 4279190556
0.0097433422 -0.012646006 0.42200002 4278994459
0.011087662 -0.01261604 0.42100003 4279061535
0.012484656 -0.012646006 0.42200002 4278931746
0.013855312 -0.012646006 0.42200002 4278800927
0.015262048 -0.012675973 0.42300001 4278867490
0.016675282 -0.012705941 0.42400002 4278802210
0.018095011 -0.012735907 0.42500001 4279065132
0.019521238 -0.012765874 0.42600003 4279130925
0.020953959 -0.01279584 0.42700002 4279064617
0.022445494 -0.012855775 0.42900002 4279260713
0.023894455 -0.012885741 0.43000001 4281230657
0.025467549 -0.012975642 0.43300003 4278991131
0.027060125 -0.013065542 0.43600002 4278790933
0.028606879 -0.013125476 0.43800002 4279712035
0.030303748 -0.013245343 0.44200003 4280436526
0.031954788 -0.013335244 0.44500002 4278200077
0.033625316 -0.013425144 0.44800001 4279978026
0.03539364 -0.013545012 0.45200002 4279517475
0.037106395 -0.013634912 0.45500001 4280571698
0.03883864 -0.013724813 0.45800003 4278400529
0.040590368 -0.013814714 0.46100003 4278204433
0.042361584 -0.013904613 0.46400002 4280046637
0.044057749 -0.013964548 0.46600002 4280046897
0.045766901 -0.014024481 0.46800002 4280178483
0.04738801 -0.014054447 0.46900001 4279847986
-0.025649203 -0.010606942 0.39700001 4281682484
-0.024359744 -0.010606942 0.39700001 4281682232
-0.023070287 -0.010606942 0.39700001 4280562983
-0.019201918 -0.010606942 0.39700001 4280037407
-0.0066886516 -0.011248169 0.42100003 4281746732
-0.0053338828 -0.011274885 0.42200002 4281483819
-0.0039726174 -0.011301603 0.42300001 4281418540
-0.0026048562 -0.011328321 0.42400002 4281352749
-0.0012305989 -0.011355039 0.42500001 4281352749
0.00014980178 -0.011355039 0.42500001 4280957989
0.0015338031 -0.011381757 0.42600003 4281483560
0.0029174518 -0.011381757 0.42600003 4281286179
0.0043011005 -0.011381757 0.42600003 4280235286
0.0056714048 -0.011355039 0.42500001 4279909914
0.0070352126 -0.011328321 0.42400002 4279059740
0.0083925249 -0.011301603 0.42300001 4279125533
0.0097664297 -0.011301603 0.42300001 4279060767
0.011113998 -0.011274885 0.42200002 4279193634
0.012514239 -0.011301603 0.42300001 4279064099
0.013888145 -0.011301603 0.42300001 4278669339
0.015298129 -0.011328321 0.42400002 4278933794
0.01671461 -0.011355039 0.42500001 4278933794
0.018095011 -0.011355039 0.42500001 4279065128
0.019521238 -0.011381757 0.42600003 4279591474
0.021003032 -0.011435192 0.42800003 4279459375
0.022445494 -0.01146191 0.42900002 4278339099
0.023950025 -0.011515345 0.43100002 4280638520
0.025467549 -0.011568781 0.43300003 4279254303
0.027060125 -0.011648934 0.43600002 4280435758
0.02867219 -0.011729087 0.43900001 4278922006
0.030303748 -0.011809241 0.44200003 4278789650
0.031954788 -0.011889393 0.44500002 4279975975
0.033625316 -0.011969547 0.44800001 4279320096
0.035315339 -0.0120497 0.45100003 4278267408
0.037106395 -0.012156571 0.45500001 4280505651
0.03883864 -0.012236725 0.45800003 4280244016
0.040502317 -0.012290159 0.46000001 4279981867
0.042361584 -0.01239703 0.46400002 4279784488
0.044057749 -0.012450466 0.46600002 4279387683
-0.023070287 -0.0093170479 0.39700001 4279840030
-0.021780832 -0.0093170479 0.39700001 4285565826
-0.020491375 -0.0093170479 0.39700001 4281947211
-0.019201918 -0.0093170479 0.39700001 4282406468
-0.0066727637 -0.0098568266 0.42000002 4281746730
-0.0053212433 -0.009880296 0.42100003 4281483306
-0.0039726174 -0.0099272327 0.42300001 4281352749
-0.0026048562 -0.0099507011 0.42400002 4281286956
-0.0012305989 -0.0099741695 0.42500001 4281286442
0.00015015426 -0.0099976389 0.42600003 4281220647
0.0015374034 -0.010021107 0.42700002 4281220388
0.0029243 -0.010021107 0.42700002 4281351972
0.004311197 -0.010021107 0.42700002 4279644432
0.0056847497 -0.0099976389 0.42600003 4279648539
0.007051805 -0.0099741695 0.42500001 4279058968
0.0084123658 -0.0099507011 0.42400002 4278533394
0.009789519 -0.0099507011 0.42400002 4278995742
0.011140334 -0.0099272327 0.42300001 4279193121
0.012543825 -0.0099507011 0.42400002 4278931998
0.013920978 -0.0099507011 0.42400002 4278800925
0.015334209 -0.0099741695 0.42500001 4278999074
0.01671461 -0.0099741695 0.42500001 4278933794
0.018137589 -0.0099976389 0.42600003 4279065382
0.019567061 -0.010021107 0.42700002 4279393580
0.021003032 -0.010044577 0.42800003 4279918129
0.022497814 -0.010091512 0.43000001 4278204430
0.023950025 -0.010114982 0.43100002 4280045613
0.025467549 -0.01016192 0.43300003 4278725912
0.027060125 -0.010232325 0.43600002 4279117336
0.02867219 -0.010302731 0.43900001 4278985750
0.030303748 -0.010373137 0.44200003 4278197771
0.031954788 -0.010443543 0.44500002 4280700725
0.033550262 -0.01049048 0.44700003 4280967485
0.035237033 -0.010560886 0.45000002 4280770106
0.037024844 -0.010654761 0.45400003 4279718697
0.038753837 -0.010725167 0.45700002 4279981869
0.04041427 -0.010772103 0.45900002 4279256351
-0.028370321 -0.0080675939 0.39900002 4281546771
-0.027074369 -0.0080675939 0.39900002 4281218585
-0.025778418 -0.0080675939 0.39900002 4281812271
-0.019201918 -0.008027155 0.39700001 4281355063
-0.0066568768 -0.0084719844 0.41900003 4281745962
-0.0053086034 -0.0084922044 0.42000002 4281614892
-0.003963226 -0.0085326433 0.42200002 4281352747
-0.0026048562 -0.0085730823 0.42400002 4281155370
-0.0012305989 -0.0085933013 0.42500001 4281418026
0.00015015426 -0.0086135212 0.42600003 4281418026
0.0015374034 -0.0086337412 0.42700002 4281549099
0.0029243 -0.0086337412 0.42700002 4281418280
0.004311197 -0.0086337412 0.42700002 4279581721
0.0056980937 -0.0086337412 0.42700002 4279190043
0.0070683979 -0.0086135212 0.42600003 4279125533
0.0084322058 -0.0085933013 0.42500001 4278994459
0.0098126074 -0.0085933013 0.42500001 4279126558
0.011166671 -0.0085730823 0.42400002 4279258914
0.012573409 -0.0085933013 0.42500001 4279260451
0.01395381 -0.0085933013 0.42500001 4279063586
0.015334209 -0.0085933013 0.42500001 4279064867
0.01675394 -0.0086135212 0.42600003 4278802208
0.018180164 -0.0086337412 0.42700002 4279130921
0.019567061 -0.0086337412 0.42700002 4279788338
0.021003032 -0.0086539611 0.42800003 4280970049
0.022497814 -0.0086943991 0.43000001 4278201866
0.023950025 -0.0087146191 0.43100002 4278201358
0.025467549 -0.0087550581 0.43300003 4278197770
0.027060125 -0.008815717 0.43600002 4280568116
0.028606879 -0.0088561559 0.43800002 4280636217
0.030235186 -0.0089168139 0.44100001 4280244789
0.031882979 -0.0089774737 0.44400004 4280377399
0.033475202 -0.0090179117 0.44600001 4280508985
0.035158731 -0.0090785706 0.44900003 4279522090
-0.025778418 -0.0067712017 0.39900002 4281219103
-0.024482463 -0.0067712017 0.39900002 4281549360
-0.02318651 -0.0067712017 0.39900002 4280365600
-0.019250287 -0.0067542316 0.39800003 4280630057
-0.01281889 -0.0067712017 0.39900002 4282537275
-0.0090653328 -0.0068730246 0.40500003 4282602554
-0.0053086034 -0.0071275807 0.42000002 4281614892
-0.003963226 -0.0071615218 0.42200002 4281681198
-0.0025987127 -0.0071784919 0.42300001 4281154856
-0.0012305989 -0.0072124326 0.42500001 4281351722
0.00015015426 -0.0072294036 0.42600003 4281549101
0.0015374034 -0.0072463737 0.42700002 4281746732
0.0029243 -0.0072463737 0.42700002 4281023522
0.004311197 -0.0072463737 0.42700002 4279845922
0.0056980937 -0.0072463737 0.42700002 4279190045
0.0070683979 -0.0072294036 0.42600003 4279059740
0.0084520467 -0.0072294036 0.42600003 4278994459
0.0098126074 -0.0072124326 0.42500001 4279061789
0.011193007 -0.0072124326 0.42500001 4279193888
0.012573409 -0.0072124326 0.42500001 4278866720
0.013986642 -0.0072294036 0.42600003 4278933283
0.01537029 -0.0072294036 0.42600003 4279196455
0.016793268 -0.0072463737 0.42700002 4278538525
0.018180164 -0.0072463737 0.42700002 4279262507
0.019612886 -0.0072633442 0.42800003 4279328300
0.021052103 -0.0072803148 0.42900002 4279654959
0.022497814 -0.0072972849 0.43000001 4280114227
0.023950025 -0.0073142555 0.43100002 4279785521
0.025467549 -0.0073481966 0.43300003 4279916594
0.026998062 -0.0073821372 0.43500003 4279916594
0.028541565 -0.0074160779 0.43700001 4279785521
0.030235186 -0.0074839597 0.44100001 4279523373
0.03181117 -0.0075179008 0.44300002 4279720752
0.033400148 -0.0075518414 0.44500002 4279453994
-0.025907634 -0.0055022528 0.40100002 4281349917
-0.024543822 -0.0054885312 0.40000001 4281812525
-0.023244621 -0.0054885312 0.40000001 4284312405
-0.021945423 -0.0054885312 0.40000001 4281878327
-0.020594606 -0.00547481 0.39900002 4286419328
-0.019298652 -0.00547481 0.39900002 4279445785
-0.010380774 -0.0055571385 0.40500003 4284117338
-0.009132484 -0.005598302 0.40800002 4281090608
-0.007922112 -0.0056806304 0.41400003 4281419573
-0.0066092135 -0.0057080728 0.41600001 4282142781
-0.0012277034 -0.0058178436 0.42400002 4281812019
0.00014980178 -0.0058315648 0.42500001 4281746226
0.0015338031 -0.0058452864 0.42600003 4281614122
0.0029243 -0.0058590076 0.42700002 4280826657
0.004311197 -0.0058590076 0.42700002 4279779615
0.0056980937 -0.0058590076 0.42700002 4279452445
0.0070683979 -0.0058452864 0.42600003 4279124761
0.0084520467 -0.0058452864 0.42600003 4279191838
0.0098356958 -0.0058452864 0.42600003 4279127328
0.011219344 -0.0058452864 0.42600003 4279457576
0.012602993 -0.0058452864 0.42600003 4278867236
0.013986642 -0.0058452864 0.42600003 4278999335
0.01540637 -0.0058590076 0.42700002 4278802726
0.016793268 -0.0058590076 0.42700002 4278671140
0.018180164 -0.0058590076 0.42700002 4279328302
0.019612886 -0.0058727288 0.42800003 4279327789
0.021052103 -0.0058864499 0.42900002 4278733087
0.022445494 -0.0058864499 0.42900002 4279653422
0.023950025 -0.0059138928 0.43100002 4279325994
0.02540873 -0.0059276139 0.43200001 4279391787
0.026998062 -0.0059687784 0.43500003 4279523373
0.028476253 -0.0059824996 0.43600002 4279391017
0.030235186 -0.0060511059 0.44100001 4279979822
0.03181117 -0.0060785487 0.44300002 4285043063
0.033400148 -0.0061059915 0.44500002 4286357646
-0.022000287 -0.0041993628 0.40100002 4281944118
-0.019395389 -0.0041993628 0.40100002 4280499243
0.0015338031 -0.0044611688 0.42600003 4281484333
0.0029174518 -0.0044611688 0.42600003 4280236573
0.004311197 -0.0044716406 0.42700002 4279649311
0.0056980937 -0.0044716406 0.42700002 4279452443
0.0070683979 -0.0044611688 0.42600003 4279453726
0.0084520467 -0.0044611688 0.42600003 4279191838
0.0098356958 -0.0044611688 0.42600003 4279062048
0.011219344 -0.0044611688 0.42600003 4279062818
0.012632578 -0.0044716406 0.42700002 4278800673
0.014019474 -0.0044716406 0.42700002 4279130408
0.01540637 -0.0044716406 0.42700002 4278999335
0.016793268 -0.0044716406 0.42700002 4279262507
0.018222742 -0.0044821128 0.42800003 4279394865
0.019612886 -0.0044821128 0.42800003 4279788853
0.021003032 -0.0044821128 0.42800003 4279720750
0.022445494 -0.0044925851 0.42900002 4279654187
0.023894455 -0.0045030573 0.43000001 4279588394
0.025349915 -0.0045135296 0.43100002 4279322660
-0.027345791 -0.0029109193 0.40300003 4281349394
-0.020801069 -0.0029109193 0.40300003 4281941804
-0.018183179 -0.0029109193 0.40300003 4281944624
-0.011782853 -0.0029470348 0.40800002 4282340162
0.0015302025 -0.0030698278 0.42500001 4280171553
0.0029174518 -0.0030770511 0.42600003 4279909664
0.0043011005 -0.0030770511 0.42600003 4279320861
0.0056847497 -0.0030770511 0.42600003 4279255836
0.0070683979 -0.0030770511 0.42600003 4279257117
0.0084520467 -0.0030770511 0.42600003 4278994459
0.0098587843 -0.0030842742 0.42700002 4279391013
0.011245681 -0.0030842742 0.42700002 4279325990
0.012632578 -0.0030842742 0.42700002 4279327017
0.014019474 -0.0030842742 0.42700002 4279130408
0.015442451 -0.0030914973 0.42800003 4278735650
0.016832596 -0.0030914973 0.42800003 4279196201
0.018222742 -0.0030914973 0.42800003 4279327019
0.019612886 -0.0030914973 0.42800003 4279458605
0.021003032 -0.0030914973 0.42800003 4279585062
-0.023535181 -0.0016094792 0.40500003 4281283354
-0.022219742 -0.0016094792 0.40500003 4281217306
0.0056847497 -0.0016929336 0.42600003 4279385887
0.0070683979 -0.0016929336 0.42600003 4279125533
0.0084520467 -0.0016929336 0.42600003 4279455012
0.0098587843 -0.0016969076 0.42700002 4279522601
0.011245681 -0.0016969076 0.42700002 4279654957
0.012632578 -0.0016969076 0.42700002 4279524396
0.014052308 -0.0017008816 0.42800003 4279458603
0.015442451 -0.0017008816 0.42800003 4279195431
0.016832596 -0.0017008816 0.42800003 4278733855
0.018222742 -0.0017008816 0.42800003 4280175666
0.019612886 -0.0017008816 0.42800003 4286424204
-0.024911981 -0.00029431761 0.40600002 4281151765
-0.019685593 -0.00029504253 0.40700001 4281349396
0.0070683979 -0.00030881603 0.42600003 4284647278
0.0084520467 -0.00030881603 0.42600003 4281687620
0.0098587843 -0.00030954092 0.42700002 4279912494
0.011245681 -0.00030954092 0.42700002 4280110125
0.012632578 -0.00030954092 0.42700002 4279652141
-0.022439193 0.0010323904 0.40900001 4281282581
0.014200778 -0.014245241 0.43020803 4294967295
0.014200778 -0.014245241 0.43020803 4294901760
0.014200778 -0.014245241 0.43070802 4294901760
0.014200778 -0.014245241 0.43120801 4294901760
0.014200778 -0.014245241 0.43170804 4294901760
0.014200778 -0.014245241 0.43220803 4294901760
0.014200778 -0.014245241 0.43270802 4294901760
0.014200778 -0.014245241 0.43320802 4294901760
0.014200778 -0.014245241 0.43370804 4294901760
0.014200778 -0.014245241 0.43420804 4294901760
0.014200778 -0.014245241 0.43470803 4294901760
0.014200778 -0.014245241 0.43520802 4294901760
0.014200778 -0.014245241 0.43570802 4294901760
0.014200778 -0.014245241 0.43620804 4294901760
0.014200778 -0.014245241 0.43670803 4294901760
0.014200778 -0.014245241 0.43720803 4294901760
0.014200778 -0.014245241 0.43770802 4294901760
0.014200778 -0.014245241 0.43820804 4294901760
0.014200778 -0.014245241 0.43870804 4294901760
0.014200778 -0.014245241 0.43920803 4294901760
0.014200778 -0.014245241 0.43970802 4294901760
0.014200778 -0.014245241 0.44020802 4294901760
0.014200778 -0.014245241 0.44070804 4294901760
0.014200778 -0.014245241 0.44120803 4294901760
0.014200778 -0.014245241 0.44170803 4294901760
0.014200778 -0.014245241 0.44220802 4294901760
0.014200778 -0.014245241 0.44270802 4294901760
0.014200778 -0.014245241 0.44320804 4294901760
0.014200778 -0.014245241 0.44370803 4294901760
0.014200778 -0.014245241 0.44420803 4294901760
0.014200778 -0.014245241 0.44470802 4294901760
0.014200778 -0.014245241 0.44520804 4294901760
0.014200778 -0.014245241 0.44570804 4294901760
0.014200778 -0.014245241 0.44620803 4294901760
0.014200778 -0.014245241 0.44670802 4294901760
0.014200778 -0.014245241 0.44720805 4294901760
0.014200778 -0.014245241 0.44770804 4294901760
0.014200778 -0.014245241 0.44820803 4294901760
0.014200778 -0.014245241 0.44870803 4294901760
0.014200778 -0.014245241 0.44920802 4294901760
0.014200778 -0.014245241 0.44970804 4294901760
0.014200778 -0.014245241 0.45020804 4294901760
0.014200778 -0.014245241 0.45070803 4294901760
0.014200778 -0.014245241 0.45120803 4294901760
0.014200778 -0.014245241 0.45170802 4294901760
0.014200778 -0.014245241 0.45220804 4294901760
0.014200778 -0.014245241 0.45270804 4294901760
0.014200778 -0.014245241 0.45320803 4294901760
0.014200778 -0.014245241 0.45370802 4294901760
0.014200778 -0.014245241 0.45420805 4294901760
0.014200778 -0.014245241 0.45470804 4294901760
0.014200778 -0.014245241 0.45520803 4294901760
0.014200778 -0.014245241 0.45570803 4294901760
0.014200778 -0.014245241 0.45620802 4294901760
0.014200778 -0.014245241 0.45670804 4294901760
0.014200778 -0.014245241 0.45720804 4294901760
0.014200778 -0.014245241 0.45770803 4294901760
0.014200778 -0.014245241 0.45820802 4294901760
0.014200778 -0.014245241 0.45870805 4294901760
0.014200778 -0.014245241 0.45920804 4294901760
0.014200778 -0.014245241 0.45970803 4294901760
0.014200778 -0.014245241 0.46020803 4294901760
0.014200778 -0.014245241 0.46070802 4294901760
0.014200778 -0.014245241 0.46120805 4294901760
0.014200778 -0.014245241 0.46170804 4294901760
0.014200778 -0.014245241 0.46220803 4294901760
0.014200778 -0.014245241 0.46270803 4294901760
0.014200778 -0.014245241 0.46320805 4294901760
0.014200778 -0.014245241 0.46370804 4294901760
0.014200778 -0.014245241 0.46420804 4294901760
0.014200778 -0.014245241 0.46470803 4294901760
0.014200778 -0.014245241 0.46520802 4294901760
0.014200778 -0.014245241 0.46570805 4294901760
0.014200778 -0.014245241 0.46620804 4294901760
0.014200778 -0.014245241 0.46670803 4294901760
0.014200778 -0.014245241 0.46720803 4294901760
0.014200778 -0.014245241 0.46770805 4294901760
0.014200778 -0.014245241 0.46820804 4294901760
0.014200778 -0.014245241 0.46870804 4294901760
0.014200778 -0.014245241 0.46920803 4294901760
0.014200778 -0.014245241 0.46970803 4294901760
0.014200778 -0.014245241 0.47020805 4294901760
0.014200778 -0.014245241 0.47070804 4294901760
0.014200778 -0.014245241 0.47120804 4294901760
0.014200778 -0.014245241 0.47170803 4294901760
0.014200778 -0.014245241 0.47220802 4294901760
0.014200778 -0.014245241 0.47270805 4294901760
0.014200778 -0.014245241 0.47320804 4294901760
0.014200778 -0.014245241 0.47370803 4294901760
0.014200778 -0.014245241 0.47420803 4294901760
0.014200778 -0.014245241 0.47470802 4294901760
0.014200778 -0.014245241 0.47520804 4294901760
0.014200778 -0.014245241 0.47570804 4294901760
0.014200778 -0.014245241 0.47620803 4294901760
0.014200778 -0.014245241 0.47670805 4294901760
0.014200778 -0.014245241 0.47720805 4294901760
0.014200778 -0.014245241 0.47770804 4294901760
0.014200778 -0.014245241 0.47820804 4294901760
0.014200778 -0.014245241 0.47870803 4294901760
0.014200778 -0.014245241 0.47920805 4294901760
0.014200778 -0.014245241 0.47970805 4294901760
0.014200778 -0.014245241 0.48020804 4294901760
0.014200778 -0.014245241 0.43020803 4278255360
0.014195423 -0.014540979 0.43061116 4278255360
0.014190067 -0.014836716 0.43101427 4278255360
0.014184712 -0.015132453 0.43141741 4278255360
0.014179356 -0.015428191 0.43182054 4278255360
0.014174 -0.015723929 0.43222365 4278255360
0.014168645 -0.016019667 0.43262678 4278255360
0.01416329 -0.016315404 0.43302992 4278255360
0.014157934 -0.01661114 0.43343303 4278255360
0.014152579 -0.01690688 0.43383616 4278255360
0.014147224 -0.017202616 0.4342393 4278255360
0.014141868 -0.017498353 0.4346424 4278255360
0.014136513 -0.017794091 0.43504554 4278255360
0.014131158 -0.018089829 0.43544868 4278255360
0.014125802 -0.018385567 0.43585178 4278255360
0.014120447 -0.018681305 0.43625492 4278255360
0.014115091 -0.018977042 0.43665805 4278255360
0.014109735 -0.019272778 0.43706116 4278255360
0.01410438 -0.019568518 0.4374643 4278255360
0.014099025 -0.019864254 0.43786743 4278255360
0.014093669 -0.020159991 0.43827054 4278255360
0.014088314 -0.020455729 0.43867368 4278255360
0.014082959 -0.020751467 0.43907681 4278255360
0.014077603 -0.021047205 0.43947992 4278255360
0.014072248 -0.021342941 0.43988305 4278255360
0.014066893 -0.02163868 0.44028616 4278255360
0.014061537 -0.021934416 0.4406893 4278255360
0.014056182 -0.022230156 0.44109243 4278255360
0.014050826 -0.022525892 0.44149554 4278255360
0.01404547 -0.022821629 0.44189867 4278255360
0.014040115 -0.023117367 0.44230181 4278255360
0.01403476 -0.023413105 0.44270492 4278255360
0.014029404 -0.023708843 0.44310805 4278255360
0.014024049 -0.024004579 0.44351119 4278255360
0.014018694 -0.024300318 0.44391429 4278255360
0.014013338 -0.024596054 0.44431743 4278255360
0.014007983 -0.024891794 0.44472057 4278255360
0.014002628 -0.02518753 0.44512367 4278255360
0.013997272 -0.025483267 0.44552681 4278255360
0.013991917 -0.025779005 0.44592994 4278255360
0.013986561 -0.026074743 0.44633305 4278255360
0.013981205 -0.026370481 0.44673619 4278255360
0.01397585 -0.026666217 0.44713932 4278255360
0.013970495 -0.026961956 0.44754243 4278255360
0.013965139 -0.027257692 0.44794556 4278255360
0.013959784 -0.02755343 0.4483487 4278255360
0.013954429 -0.027849168 0.44875181 4278255360
0.013949074 -0.028144905 0.44915494 4278255360
0.013943718 -0.028440643 0.44955808 4278255360
0.013938363 -0.028736381 0.44996119 4278255360
0.013933007 -0.029032119 0.45036432 4278255360
0.013927652 -0.029327855 0.45076746 4278255360
0.013922296 -0.029623592 0.45117056 4278255360
0.013916941 -0.02991933 0.4515737 4278255360
0.013911585 -0.03021507 0.45197684 4278255360
0.01390623 -0.030510806 0.45237994 4278255360
0.013900875 -0.030806541 0.45278308 4278255360
0.013895519 -0.031102281 0.45318621 4278255360
0.013890164 -0.031398017 0.45358932 4278255360
0.013884809 -0.031693757 0.45399246 4278255360
0.013879453 -0.031989492 0.45439559 4278255360
0.013874098 -0.032285232 0.4547987 4278255360
0.013868743 -0.032580968 0.45520183 4278255360
0.013863387 -0.032876704 0.45560497 4278255360
0.013858031 -0.033172444 0.45600808 4278255360
0.013852676 -0.033468179 0.45641121 4278255360
0.01384732 -0.033763919 0.45681435 4278255360
0.013841965 -0.034059655 0.45721745 4278255360
0.01383661 -0.034355395 0.45762059 4278255360
0.013831254 -0.03465113 0.45802373 4278255360
0.013825899 -0.034946866 0.45842683 4278255360
0.013820544 -0.035242606 0.45882997 4278255360
0.013815188 -0.035538346 0.45923311 4278255360
0.013809833 -0.035834081 0.45963621 4278255360
0.013804478 -0.036129817 0.46003935 4278255360
0.013799122 -0.036425557 0.46044248 4278255360
0.013793766 -0.036721293 0.46084559 4278255360
0.013788411 -0.037017029 0.46124873 4278255360
0.013783055 -0.037312768 0.46165186 4278255360
0.0137777 -0.037608508 0.46205497 4278255360
0.013772345 -0.037904244 0.4624581 4278255360
0.013766989 -0.03819998 0.46286124 4278255360
0.013761634 -0.038495719 0.46326435 4278255360
0.013756279 -0.038791455 0.46366748 4278255360
0.013750923 -0.039087195 0.46407059 4278255360
0.013745568 -0.039382931 0.46447372 4278255360
0.013740213 -0.03967867 0.46487686 4278255360
0.013734857 -0.039974406 0.46527997 4278255360
0.013729502 -0.040270142 0.4656831 4278255360
0.013724146 -0.040565882 0.46608624 4278255360
0.01371879 -0.040861618 0.46648934 4278255360
0.013713435 -0.041157357 0.46689248 4278255360
0.01370808 -0.041453093 0.46729562 4278255360
0.013702724 -0.041748833 0.46769872 4278255360
0.013697369 -0.042044569 0.46810186 4278255360
0.013692014 -0.042340305 0.468505 4278255360
0.013686658 -0.042636044 0.4689081 4278255360
0.013681303 -0.042931784 0.46931124 4278255360
0.013675948 -0.04322752 0.46971437 4278255360
0.013670592 -0.043523256 0.47011748 4278255360
0.013665237 -0.043818995 0.47052062 4278255360
