# .PCD v0.7 - Point Cloud Data file format
VERSION 0.7
FIELDS x y z rgb
SIZE 4 4 4 4
TYPE F F F U
COUNT 1 1 1 1
WIDTH 1040
HEIGHT 1
VIEWPOINT 0 0 0 1 0 0 0
POINTS 1040
DATA ascii
0.086671658 0.00092132646 0.36500001 4278597908
0.087857179 0.00092132646 0.36500001 4278795285
0.089042693 0.00092132646 0.36500001 4278861078
0.090475425 0.00092385069 0.36600003 4278795285
0.091664188 0.00092385069 0.36600003 4278992664
0.092852958 0.00092385069 0.36600003 4278861078
0.094041727 0.00092385069 0.36600003 4279058457
0.095230497 0.00092385069 0.36600003 4278861078
0.096419267 0.00092385069 0.36600003 4279058457
0.097874723 0.00092637481 0.36700001 4279190043
0.099066742 0.00092637481 0.36700001 4279190043
0.10025875 0.00092637481 0.36700001 4279190043
0.10145077 0.00092637481 0.36700001 4279255836
0.10264279 0.00092637481 0.36700001 4279190043
0.10383481 0.00092637481 0.36700001 4279190558
0.10502683 0.00092637481 0.36700001 4279058972
0.10621884 0.00092637481 0.36700001 4278993177
0.10741085 0.00092637481 0.36700001 4278992664
0.10860287 0.00092637481 0.36700001 4278861078
0.13218549 0.00094151992 0.37300003 4278860308
0.13339698 0.00094151992 0.37300003 4278991894
0.13460849 0.00094151992 0.37300003 4278926101
0.13582 0.00094151992 0.37300003 4279123480
0.1370315 0.00094151992 0.37300003 4278991892
0.138243 0.00094151992 0.37300003 4278926099
0.13945451 0.00094151992 0.37300003 4279320344
0.027395627 0.0021072486 0.36500001 4281218585
0.028502844 0.0021014756 0.36400002 4282536248
0.029685117 0.0021014756 0.36400002 4283393102
0.03086739 0.0021014756 0.36400002 4283064650
0.032049663 0.0021014756 0.36400002 4282866758
0.033231933 0.0021014756 0.36400002 4281615919
0.034414209 0.0021014756 0.36400002 4283917897
0.035596479 0.0021014756 0.36400002 4282008871
0.036879793 0.0021072486 0.36500001 4282008101
0.038065314 0.0021072486 0.36500001 4283126582
0.03935837 0.0021130221 0.36600003 4283391807
0.04054714 0.0021130221 0.36600003 4283063617
0.041849941 0.0021187954 0.36700001 4283657305
0.043159239 0.0021245687 0.36800003 4284052065
0.044595558 0.0021361152 0.37 4283920738
0.045921095 0.0021418885 0.37100002 4283920738
0.047126103 0.0021418885 0.37100002 4284184424
0.048461385 0.0021476618 0.37200001 4283921252
0.049669642 0.0021476618 0.37200001 4283986531
0.050877895 0.0021476618 0.37200001 4284183910
0.051946141 0.0021418885 0.37100002 4284249957
0.053007882 0.0021361152 0.37 4282406468
0.054063134 0.0021303419 0.36900002 4280034327
0.054962121 0.0021187954 0.36700001 4280232221
0.056001134 0.0021130221 0.36600003 4280167198
0.057033643 0.0021072486 0.36500001 4280497188
0.058219161 0.0021072486 0.36500001 4279249939
0.059241932 0.0021014756 0.36400002 4279382039
0.060424209 0.0021014756 0.36400002 4279317527
0.061437227 0.0020957021 0.36300001 4278791953
0.062616251 0.0020957021 0.36300001 4278792466
0.063619532 0.0020899288 0.36200002 4278793750
0.064795315 0.0020899288 0.36200002 4278334995
0.065971084 0.0020899288 0.36200002 4278203922
0.067146868 0.0020899288 0.36200002 4278862109
0.068322644 0.0020899288 0.36200002 4278729753
0.069690399 0.0020957021 0.36300001 4278729240
0.070869423 0.0020957021 0.36300001 4278663447
0.072048448 0.0020957021 0.36300001 4278663701
0.073227473 0.0020957021 0.36300001 4278597908
0.081256181 0.0020899288 0.36200002 4278992664
0.082659669 0.0020957021 0.36300001 4278861078
0.083838694 0.0020957021 0.36300001 4278861080
0.085251927 0.0021014756 0.36400002 4278992666
0.0864342 0.0021014756 0.36400002 4279321629
0.087857179 0.0021072486 0.36500001 4278992664
0.089042693 0.0021072486 0.36500001 4279058457
0.090475425 0.0021130221 0.36600003 4278992664
0.091664188 0.0021130221 0.36600003 4278861078
0.092852958 0.0021130221 0.36600003 4278532113
0.094041727 0.0021130221 0.36600003 4278597906
0.095230497 0.0021130221 0.36600003 4278663699
0.096419267 0.0021130221 0.36600003 4278597906
0.097608037 0.0021130221 0.36600003 4278795285
0.099066742 0.0021187954 0.36700001 4278729492
0.10025875 0.0021187954 0.36700001 4278729492
0.10145077 0.0021187954 0.36700001 4278992664
0.10264279 0.0021187954 0.36700001 4278663699
0.10383481 0.0021187954 0.36700001 4278663699
0.10502683 0.0021187954 0.36700001 4278795285
0.10621884 0.0021187954 0.36700001 4278992664
0.10741085 0.0021187954 0.36700001 4278991894
0.10860287 0.0021187954 0.36700001 4279386139
0.10979488 0.0021187954 0.36700001 4279254553
0.1109869 0.0021187954 0.36700001 4279057176
0.12117984 0.0021303419 0.36900002 4279254555
0.12271 0.0021361152 0.37 4279319578
0.12391175 0.0021361152 0.37 4279319062
0.12511352 0.0021361152 0.37 4279582234
0.12665668 0.0021418885 0.37100002 4279451160
0.12786168 0.0021418885 0.37100002 4279385369
0.12941457 0.0021476618 0.37200001 4279451162
0.13062283 0.0021476618 0.37200001 4279451162
0.13218549 0.002153435 0.37300003 4279516955
0.13339698 0.002153435 0.37300003 4279385369
0.13460849 0.002153435 0.37300003 4279385369
0.13582 0.002153435 0.37300003 4279516955
0.1370315 0.002153435 0.37300003 4279516955
0.138243 0.002153435 0.37300003 4279582748
0.13945451 0.002153435 0.37300003 4279911713
0.028502844 0.0032841486 0.36400002 4280230670
0.029685117 0.0032841486 0.36400002 4281219366
0.03086739 0.0032841486 0.36400002 4282865472
0.032049663 0.0032841486 0.36400002 4283130441
0.033231933 0.0032841486 0.36400002 4282735683
0.034414209 0.0032841486 0.36400002 4282867271
0.035694271 0.0032931708 0.36500001 4282801476
0.036879793 0.0032931708 0.36500001 4283524686
0.038065314 0.0032931708 0.36500001 4283327307
0.041849941 0.0033112157 0.36700001 4284249444
0.043276519 0.0033292605 0.36900002 4283854686
0.044595558 0.0033382827 0.37 4283986785
0.045921095 0.0033473053 0.37100002 4284184164
0.047253128 0.0033563275 0.37200001 4284315750
0.048461385 0.0033563275 0.37200001 4284381543
0.049669642 0.0033563275 0.37200001 4284250217
0.050877895 0.0033563275 0.37200001 4284579182
0.051946141 0.0033473053 0.37100002 4284184424
0.053007882 0.0033382827 0.37 4284513389
0.054063134 0.0033292605 0.36900002 4279969819
0.055111885 0.0033202383 0.36800003 4280232221
0.056154139 0.0033112157 0.36700001 4280233504
0.057189904 0.0033021935 0.36600003 4279970844
0.058219161 0.0032931708 0.36500001 4280105248
0.059404682 0.0032931708 0.36500001 4279447832
0.060424209 0.0032841486 0.36400002 4279317268
0.061606478 0.0032841486 0.36400002 4279251988
0.062616251 0.003275126 0.36300001 4278726927
0.063795276 0.003275126 0.36300001 4278925336
0.064974301 0.003275126 0.36300001 4278991896
0.066153325 0.003275126 0.36300001 4278662931
0.06733235 0.003275126 0.36300001 4278597908
0.068511374 0.003275126 0.36300001 4278532115
0.069690399 0.003275126 0.36300001 4278400529
0.070869423 0.003275126 0.36300001 4278597908
0.072048448 0.003275126 0.36300001 4278203148
0.073025748 0.0032661038 0.36200002 4278334734
0.074201524 0.0032661038 0.36200002 4278203148
0.0753773 0.0032661038 0.36200002 4278729492
0.076341607 0.0032570816 0.36100003 4278202889
0.077514134 0.0032570816 0.36100003 4278400525
0.078686662 0.0032570816 0.36100003 4278400525
0.080080412 0.0032661038 0.36200002 4278597904
0.081256181 0.0032661038 0.36200002 4278663699
0.082659669 0.003275126 0.36300001 4278597908
0.083838694 0.003275126 0.36300001 4278795287
0.085251927 0.0032841486 0.36400002 4279124252
0.0864342 0.0032841486 0.36400002 4278795287
0.087857179 0.0032931708 0.36500001 4278992666
0.089042693 0.0032931708 0.36500001 4278992666
0.090228222 0.0032931708 0.36500001 4278861080
0.091664188 0.0033021935 0.36600003 4279123482
0.092852958 0.0033021935 0.36600003 4279189275
0.094041727 0.0033021935 0.36600003 4278991894
0.095230497 0.0033021935 0.36600003 4278991894
0.096419267 0.0033021935 0.36600003 4279189273
0.097608037 0.0033021935 0.36600003 4279649824
0.099066742 0.0033112157 0.36700001 4279386652
0.10025875 0.0033112157 0.36700001 4279123480
0.10145077 0.0033112157 0.36700001 4279189273
0.10264279 0.0033112157 0.36700001 4279386139
0.10383481 0.0033112157 0.36700001 4279320346
0.10502683 0.0033112157 0.36700001 4279188760
0.10621884 0.0033112157 0.36700001 4279254553
0.10741085 0.0033112157 0.36700001 4279319576
0.10860287 0.0033112157 0.36700001 4279451162
0.11009406 0.0033202383 0.36800003 4279319578
0.11128933 0.0033202383 0.36800003 4279385371
0.11248459 0.0033202383 0.36800003 4279451164
0.11398876 0.0033292605 0.36900002 4279386141
0.11701661 0.0033473053 0.37100002 4279254555
0.12150824 0.0033382827 0.37 4279319064
0.12271 0.0033382827 0.37 4279515930
0.12391175 0.0033382827 0.37 4279844895
0.12545167 0.0033473053 0.37100002 4279384344
0.12665668 0.0033473053 0.37100002 4279449367
0.12786168 0.0033473053 0.37100002 4278923023
0.12941457 0.0033563275 0.37200001 4278396425
0.13062283 0.0033563275 0.37200001 4279383320
0.13218549 0.0033653502 0.37300003 4279647514
0.13339698 0.0033653502 0.37300003 4279648027
0.13460849 0.0033653502 0.37300003 4279648027
0.13582 0.0033653502 0.37300003 4279713820
0.1370315 0.0033653502 0.37300003 4279713820
0.138243 0.0033653502 0.37300003 4279779613
0.13945451 0.0033653502 0.37300003 4280502571
0.034414209 0.0044668219 0.36400002 4279970321
0.036879793 0.0044790935 0.36500001 4279903758
0.038065314 0.0044790935 0.36500001 4279969297
0.04471609 0.0045527224 0.37100002 4284052578
0.045921095 0.0045527224 0.37100002 4284249957
0.047253128 0.0045649935 0.37200001 4284315750
0.048461385 0.0045649935 0.37200001 4284447336
0.049669642 0.0045649935 0.37200001 4284250471
0.050877895 0.0045649935 0.37200001 4284250471
0.051946141 0.0045527224 0.37100002 4284250471
0.053007882 0.0045404509 0.37 4284184424
0.054063134 0.0045281793 0.36900002 4284972913
0.055111885 0.0045159082 0.36800003 4279641113
0.056154139 0.0045036362 0.36700001 4280234016
0.057346158 0.0045036362 0.36700001 4279576856
0.05837867 0.004491365 0.36600003 4279579418
0.05956744 0.004491365 0.36600003 4279382039
0.060590208 0.0044790935 0.36500001 4279317014
0.061775722 0.0044790935 0.36500001 4278988816
0.062788747 0.0044668219 0.36400002 4279055892
0.063971028 0.0044668219 0.36400002 4279385371
0.065153301 0.0044668219 0.36400002 4279056406
0.066335566 0.0044668219 0.36400002 4279451164
0.06733235 0.0044545503 0.36300001 4279386141
0.068511374 0.0044545503 0.36300001 4279188762
0.069690399 0.0044545503 0.36300001 4279451934
0.070869423 0.0044545503 0.36300001 4278926103
0.072048448 0.0044545503 0.36300001 4278926103
0.073025748 0.0044422788 0.36200002 4278926103
0.074201524 0.0044422788 0.36200002 4278860310
0.0753773 0.0044422788 0.36200002 4278991642
0.076341607 0.0044300077 0.36100003 4279189275
0.077514134 0.0044300077 0.36100003 4279057176
0.078686662 0.0044300077 0.36100003 4279188762
0.080080412 0.0044422788 0.36200002 4278991383
0.081256181 0.0044422788 0.36200002 4279385371
0.082659669 0.0044545503 0.36300001 4279319578
0.083838694 0.0044545503 0.36300001 4279057176
0.085251927 0.0044668219 0.36400002 4279320348
0.0864342 0.0044668219 0.36400002 4279320348
0.087857179 0.0044790935 0.36500001 4279057176
0.089042693 0.0044790935 0.36500001 4279188762
0.090228222 0.0044790935 0.36500001 4279057176
0.091664188 0.004491365 0.36600003 4279254555
0.092852958 0.004491365 0.36600003 4279188762
0.094041727 0.004491365 0.36600003 4279319578
0.095230497 0.004491365 0.36600003 4279385371
0.096419267 0.004491365 0.36600003 4279319578
0.097608037 0.004491365 0.36600003 4279319578
0.099066742 0.0045036362 0.36700001 4279385371
0.10025875 0.0045036362 0.36700001 4279319578
0.10145077 0.0045036362 0.36700001 4279385371
0.10264279 0.0045036362 0.36700001 4279451164
0.10383481 0.0045036362 0.36700001 4279516443
0.10502683 0.0045036362 0.36700001 4279582236
0.10621884 0.0045036362 0.36700001 4279318551
0.10741085 0.0045036362 0.36700001 4279055125
0.10860287 0.0045036362 0.36700001 4279120920
0.11009406 0.0045159082 0.36800003 4278725908
0.11128933 0.0045159082 0.36800003 4278462220
0.11248459 0.0045159082 0.36800003 4278396427
0.11398876 0.0045281793 0.36900002 4278196992
0.11549944 0.0045404509 0.37 4278198532
0.11701661 0.0045527224 0.37100002 4278658314
0.11822161 0.0045527224 0.37100002 4278987281
0.11974853 0.0045649935 0.37200001 4279053074
0.12095679 0.0045649935 0.37200001 4279579418
0.12183665 0.0045527224 0.37100002 4279382039
0.12304165 0.0045527224 0.37100002 4279777565
0.12424666 0.0045527224 0.37100002 4279909151
0.12545167 0.0045527224 0.37100002 4279777565
0.12699807 0.0045649935 0.37200001 4279777565
0.12820633 0.0045649935 0.37200001 4279843358
0.12941457 0.0045649935 0.37200001 4279842590
0.13097398 0.0045772656 0.37300003 4279644443
0.13218549 0.0045772656 0.37300003 4279778332
0.13339698 0.0045772656 0.37300003 4279844123
0.13460849 0.0045772656 0.37300003 4279713307
0.13582 0.0045772656 0.37300003 4279713307
0.1370315 0.0045772656 0.37300003 4279976481
0.138243 0.0045772656 0.37300003 4280568618
0.13945451 0.0045772656 0.37300003 4280961069
0.048591658 0.0057891808 0.37300003 4284250217
0.049669642 0.0057736598 0.37200001 4284513389
0.050877895 0.0057736598 0.37200001 4284382057
0.051946141 0.0057581393 0.37100002 4284645229
0.053151149 0.0057581393 0.37100002 4284118885
0.054209646 0.0057426183 0.37 4283855459
0.055261642 0.0057270983 0.36900002 4279577371
0.056307152 0.0057115778 0.36800003 4279642647
0.057502419 0.0057115778 0.36800003 4279906332
0.058538172 0.0056960569 0.36700001 4279513625
0.059730191 0.0056960569 0.36700001 4279382807
0.06075621 0.0056805364 0.36600003 4279449113
0.061944973 0.0056805364 0.36600003 4278791953
0.062961243 0.0056650154 0.36500001 4279516443
0.064146765 0.0056650154 0.36500001 4279055892
0.065332286 0.0056650154 0.36500001 4279187478
0.066335566 0.0056494954 0.36400002 4280108580
0.067517839 0.0056494954 0.36400002 4279648543
0.06870012 0.0056494954 0.36400002 4279254555
0.069882385 0.0056494954 0.36400002 4279057176
0.070869423 0.0056339744 0.36300001 4278925590
0.072048448 0.0056339744 0.36300001 4279057176
0.073227473 0.0056339744 0.36300001 4279057176
0.074201524 0.005618454 0.36200002 4279254555
0.0753773 0.005618454 0.36200002 4278991383
0.076553077 0.005618454 0.36200002 4279187992
0.077514134 0.0056029335 0.36100003 4278990613
0.078904629 0.005618454 0.36200002 4279054355
0.080080412 0.005618454 0.36200002 4278856978
0.081256181 0.005618454 0.36200002 4279384344
0.082659669 0.0056339744 0.36300001 4279253271
0.083838694 0.0056339744 0.36300001 4279582236
0.085251927 0.0056494954 0.36400002 4279253271
0.0864342 0.0056494954 0.36400002 4279516443
0.087857179 0.0056650154 0.36500001 4279450650
0.089042693 0.0056650154 0.36500001 4279581469
0.090228222 0.0056650154 0.36500001 4279055127
0.091664188 0.0056805364 0.36600003 4279383322
0.092852958 0.0056805364 0.36600003 4278725392
0.094041727 0.0056805364 0.36600003 4278856465
0.095230497 0.0056805364 0.36600003 4278461707
0.096419267 0.0056805364 0.36600003 4278196997
0.097608037 0.0056805364 0.36600003 4278196740
0.099066742 0.0056960569 0.36700001 4279450398
0.10025875 0.0056960569 0.36700001 4278331917
0.10145077 0.0056960569 0.36700001 4278988051
0.10264279 0.0056960569 0.36700001 4279513625
0.10383481 0.0056960569 0.36700001 4279382809
0.10502683 0.0056960569 0.36700001 4279712287
0.10621884 0.0056960569 0.36700001 4279712287
0.10741085 0.0056960569 0.36700001 4280106791
0.1088988 0.0057115778 0.36800003 4279908899
0.11009406 0.0057115778 0.36800003 4280303911
0.11128933 0.0057115778 0.36800003 4279317016
0.11279026 0.0057270983 0.36900002 4279843360
0.11398876 0.0057270983 0.36900002 4279843358
0.11549944 0.0057426183 0.37 4279974944
0.11701661 0.0057581393 0.37100002 4279909151
0.11822161 0.0057581393 0.37100002 4279909151
0.11974853 0.0057736598 0.37200001 4279843871
0.12095679 0.0057736598 0.37200001 4279909664
0.12216504 0.0057736598 0.37200001 4279777565
0.1233733 0.0057736598 0.37200001 4279843358
0.12458155 0.0057736598 0.37200001 4279251988
0.12578981 0.0057736598 0.37200001 4279119889
0.12699807 0.0057736598 0.37200001 4279844123
0.12855096 0.0057891808 0.37300003 4279844123
0.12976247 0.0057891808 0.37300003 4278789388
0.13097398 0.0057891808 0.37300003 4280368932
0.13218549 0.0057891808 0.37300003 4279974944
0.13375461 0.0058047008 0.37400001 4279778078
0.13496937 0.0058047008 0.37400001 4279843871
0.13582 0.0057891808 0.37300003 4280173606
0.1370315 0.0057891808 0.37300003 4279976229
0.138243 0.0057891808 0.37300003 4280566313
0.048591658 0.0070010959 0.37300003 4284315496
0.049669642 0.006982326 0.37200001 4284316010
0.050877895 0.006982326 0.37200001 4284250217
0.052086156 0.006982326 0.37200001 4284513643
0.053151149 0.0069635562 0.37100002 4284382057
0.054209646 0.0069447863 0.37 4284316264
0.055261642 0.0069260169 0.36900002 4281420345
0.056460157 0.0069260169 0.36900002 4279249172
0.057502419 0.0069072475 0.36800003 4279578904
0.058697678 0.0069072475 0.36800003 4279382037
0.059892945 0.0069072475 0.36800003 4279382807
0.060922209 0.0068884776 0.36700001 4278791953
0.06211422 0.0068884776 0.36700001 4279121431
0.063133746 0.0068697082 0.36600003 4279318810
0.064322516 0.0068697082 0.36600003 4279318810
0.065511286 0.0068697082 0.36600003 4279385117
0.066517808 0.0068509378 0.36500001 4279582496
0.067703329 0.0068509378 0.36500001 4279451164
0.068888851 0.0068509378 0.36500001 4279122199
0.069882385 0.0068321684 0.36400002 4279648543
0.071064658 0.0068321684 0.36400002 4279187990
0.072048448 0.0068133986 0.36300001 4279385369
0.073227473 0.0068133986 0.36300001 4279187990
0.074201524 0.0067946292 0.36200002 4279187990
0.0753773 0.0067946292 0.36200002 4279187990
0.076553077 0.0067946292 0.36200002 4279122199
0.077728853 0.0067946292 0.36200002 4279318810
0.078904629 0.0067946292 0.36200002 4278922004
0.080080412 0.0067946292 0.36200002 4279646240
0.081256181 0.0067946292 0.36200002 4279318297
0.082659669 0.0068133986 0.36300001 4278528011
0.083838694 0.0068133986 0.36300001 4278656265
0.085251927 0.0068321684 0.36400002 4278656265
0.0864342 0.0068321684 0.36400002 4278787853
0.087857179 0.0068509378 0.36500001 4278721547
0.089042693 0.0068509378 0.36500001 4279049744
0.090228222 0.0068509378 0.36500001 4278852365
0.091664188 0.0068697082 0.36600003 4278983951
0.092852958 0.0068697082 0.36600003 4279049744
0.094041727 0.0068697082 0.36600003 4279049744
0.095230497 0.0068697082 0.36600003 4279115535
0.096419267 0.0068697082 0.36600003 4278853133
0.097874723 0.0068884776 0.36700001 4279314965
0.099066742 0.0068884776 0.36700001 4279581982
0.10025875 0.0068884776 0.36700001 4279187224
0.10145077 0.0068884776 0.36700001 4278988051
0.10264279 0.0068884776 0.36700001 4278789648
0.10383481 0.0068884776 0.36700001 4278329867
0.10502683 0.0068884776 0.36700001 4279185689
0.10621884 0.0068884776 0.36700001 4278856978
0.10741085 0.0068884776 0.36700001 4279251223
0.1088988 0.0069072475 0.36800003 4280434213
0.11009406 0.0069072475 0.36800003 4279513111
0.11128933 0.0069072475 0.36800003 4280171041
0.11279026 0.0069260169 0.36900002 4279118353
0.11398876 0.0069260169 0.36900002 4279184660
0.11549944 0.0069447863 0.37 4279447832
0.11701661 0.0069635562 0.37100002 4278987281
0.11822161 0.0069635562 0.37100002 4279382039
0.11974853 0.006982326 0.37200001 4279184660
0.12095679 0.006982326 0.37200001 4279974176
0.12216504 0.006982326 0.37200001 4278592523
0.1233733 0.006982326 0.37200001 4278724107
0.12458155 0.006982326 0.37200001 4279644695
0.12612796 0.0070010959 0.37300003 4279250451
0.12733947 0.0070010959 0.37300003 4279909405
0.12855096 0.0070010959 0.37300003 4279053326
0.12976247 0.0070010959 0.37300003 4280238370
0.13132511 0.0070198653 0.37400001 4279975198
0.13253987 0.0070198653 0.37400001 4280172577
0.13375461 0.0070198653 0.37400001 4280040991
0.13496937 0.0070198653 0.37400001 4280107043
0.13618413 0.0070198653 0.37400001 4280042020
0.047380153 0.0082130106 0.37300003 4284250217
0.048591658 0.0082130106 0.37300003 4284250217
0.049803168 0.0082130106 0.37300003 4284250217
0.050877895 0.0081909914 0.37200001 4284513389
0.052086156 0.0081909914 0.37200001 4284381803
0.053151149 0.008168973 0.37100002 4284513389
0.054356162 0.008168973 0.37100002 4284513643
0.055411402 0.0081469538 0.37 4285499509
0.056460157 0.0081249354 0.36900002 4278789134
0.057658672 0.0081249354 0.36900002 4279644697
0.05885718 0.0081249354 0.36900002 4279447832
0.059892945 0.0081029171 0.36800003 4279449113
0.061088212 0.0081029171 0.36800003 4278923539
0.062283471 0.0081029171 0.36800003 4279318810
0.063306242 0.0080808979 0.36700001 4279187224
0.064498261 0.0080808979 0.36700001 4279385117
0.065690279 0.0080808979 0.36700001 4279779875
0.066700049 0.0080588795 0.36600003 4279582496
0.067888819 0.0080588795 0.36600003 4279516957
0.068888851 0.0080368603 0.36500001 4279319578
0.070074365 0.0080368603 0.36500001 4279319578
0.071064658 0.0080148419 0.36400002 4279056406
0.072246931 0.0080148419 0.36400002 4279187990
0.073227473 0.0079928227 0.36300001 4279385369
0.074406497 0.0079928227 0.36300001 4279122197
0.0753773 0.0079708034 0.36200002 4279187990
0.076553077 0.0079708034 0.36200002 4279121683
0.077728853 0.0079708034 0.36200002 4278659086
0.078904629 0.0079708034 0.36200002 4279447578
0.080080412 0.0079708034 0.36200002 4279383068
0.081480645 0.0079928227 0.36300001 4279118613
0.082659669 0.0079928227 0.36300001 4278589963
0.083838694 0.0079928227 0.36300001 4279312914
0.085251927 0.0080148419 0.36400002 4279049742
0.0864342 0.0080148419 0.36400002 4280036637
0.087857179 0.0080368603 0.36500001 4280036637
0.089042693 0.0080368603 0.36500001 4279444500
0.090228222 0.0080368603 0.36500001 4279905051
0.091664188 0.0080588795 0.36600003 4279970846
0.092852958 0.0080588795 0.36600003 4279247123
0.094041727 0.0080588795 0.36600003 4279444500
0.095230497 0.0080588795 0.36600003 4279576084
0.096682705 0.0080808979 0.36700001 4279049740
0.097874723 0.0080808979 0.36700001 4280236834
0.099066742 0.0080808979 0.36700001 4280304424
0.10025875 0.0080808979 0.36700001 4278395660
0.10145077 0.0080808979 0.36700001 4278984719
0.10264279 0.0080808979 0.36700001 4279312916
0.10383481 0.0080808979 0.36700001 4279710238
0.10502683 0.0080808979 0.36700001 4280170789
0.10621884 0.0080808979 0.36700001 4279909666
0.10741085 0.0080808979 0.36700001 4279119637
0.10860287 0.0080808979 0.36700001 4279250453
0.11009406 0.0081029171 0.36800003 4279184406
0.11128933 0.0081029171 0.36800003 4279447832
0.11279026 0.0081249354 0.36900002 4279843360
0.11398876 0.0081249354 0.36900002 4279448600
0.11549944 0.0081469538 0.37 4279909151
0.11701661 0.008168973 0.37100002 4279908381
0.11822161 0.008168973 0.37100002 4279909151
0.11974853 0.0081909914 0.37200001 4279777565
0.12095679 0.0081909914 0.37200001 4279448602
0.12249345 0.0082130106 0.37300003 4280040737
0.12370495 0.0082130106 0.37300003 4280172323
0.12491645 0.0082130106 0.37300003 4280895276
0.12612796 0.0082130106 0.37300003 4280171553
0.12733947 0.0082130106 0.37300003 4279710488
0.12855096 0.0082130106 0.37300003 4279513623
0.13011035 0.0082350289 0.37400001 4280172577
0.13132511 0.0082350289 0.37400001 4279975198
0.13253987 0.0082350289 0.37400001 4280304163
0.13375461 0.0082350289 0.37400001 4279843612
0.13496937 0.0082350289 0.37400001 4280303911
0.047380153 0.0094249258 0.37300003 4284381803
0.048591658 0.0094249258 0.37300003 4284184424
0.049803168 0.0094249258 0.37300003 4284250217
0.050877895 0.0093996571 0.37200001 4284448366
0.052086156 0.0093996571 0.37200001 4284382573
0.053294413 0.0093996571 0.37200001 4284514159
0.054356162 0.0093743894 0.37100002 4284645229
0.055411402 0.0093491217 0.37 4284382057
0.056613166 0.0093491217 0.37 4281947200
0.057814926 0.0093491217 0.37 4279578904
0.05885718 0.009323854 0.36900002 4279382809
0.060055695 0.009323854 0.36900002 4279252504
0.061254211 0.009323854 0.36900002 4279055638
0.062283471 0.0092985863 0.36800003 4279516189
0.063478738 0.0092985863 0.36800003 4279121945
0.064674005 0.0092985863 0.36800003 4279319324
0.065690279 0.0092733176 0.36700001 4279779875
0.06688229 0.0092733176 0.36700001 4279516703
0.068074308 0.0092733176 0.36700001 4279451164
0.069077589 0.0092480499 0.36600003 4279319578
0.070266359 0.0092480499 0.36600003 4279319578
0.071259893 0.0092227822 0.36500001 4279319578
0.072246931 0.0091975145 0.36400002 4279319578
0.073429205 0.0091975145 0.36400002 4279122199
0.074406497 0.0091722459 0.36300001 4279187992
0.075585522 0.0091722459 0.36300001 4279450650
0.076764546 0.0091722459 0.36300001 4279515930
0.077943571 0.0091722459 0.36300001 4278460937
0.079122595 0.0091722459 0.36300001 4279514395
0.08030162 0.0091722459 0.36300001 4279449113
0.081480645 0.0091722459 0.36300001 4278590474
0.082659669 0.0091722459 0.36300001 4279641113
0.084069662 0.0091975145 0.36400002 4278984719
0.085251927 0.0091975145 0.36400002 4280300579
0.0864342 0.0091975145 0.36400002 4279116305
0.087857179 0.0092227822 0.36500001 4279116305
0.089042693 0.0092227822 0.36500001 4279181328
0.090475425 0.0092480499 0.36600003 4279181330
0.091664188 0.0092480499 0.36600003 4278983697
0.092852958 0.0092480499 0.36600003 4279707672
0.094041727 0.0092480499 0.36600003 4279576854
0.095230497 0.0092480499 0.36600003 4279182096
0.096682705 0.0092733176 0.36700001 4279578137
0.097874723 0.0092733176 0.36700001 4279974174
0.099066742 0.0092733176 0.36700001 4279645211
0.10025875 0.0092733176 0.36700001 4279183379
0.10145077 0.0092733176 0.36700001 4279182100
0.10264279 0.0092733176 0.36700001 4280366374
0.10411774 0.0092985863 0.36800003 4279908131
0.10502683 0.0092733176 0.36700001 4279777313
0.10621884 0.0092733176 0.36700001 4280238118
0.10741085 0.0092733176 0.36700001 4279711774
0.10860287 0.0092733176 0.36700001 4279645211
0.11009406 0.0092985863 0.36800003 4279381785
0.11128933 0.0092985863 0.36800003 4279184406
0.11248459 0.0092985863 0.36800003 4278658062
0.11398876 0.009323854 0.36900002 4278658062
0.11549944 0.0093491217 0.37 4278196997
0.11701661 0.0093743894 0.37100002 4278263304
0.11822161 0.0093743894 0.37100002 4279053074
0.11974853 0.0093996571 0.37200001 4279447830
0.12095679 0.0093996571 0.37200001 4279645209
0.12249345 0.0094249258 0.37300003 4280368934
0.12370495 0.0094249258 0.37300003 4280303141
0.12491645 0.0094249258 0.37300003 4280303139
0.12612796 0.0094249258 0.37300003 4280236832
0.12733947 0.0094249258 0.37300003 4280500004
0.12889561 0.0094501935 0.37400001 4280565797
0.13011035 0.0094501935 0.37400001 4280105760
0.13132511 0.0094501935 0.37400001 4280236832
0.13253987 0.0094501935 0.37400001 4281092141
0.13375461 0.0094501935 0.37400001 4282934093
0.047507178 0.010665358 0.37400001 4284053608
0.048591658 0.010636841 0.37300003 4284119401
0.049803168 0.010636841 0.37300003 4284250987
0.051014666 0.010636841 0.37300003 4284382573
0.052086156 0.010608324 0.37200001 4284382573
0.053294413 0.010608324 0.37200001 4284448366
0.054356162 0.010579807 0.37100002 4284513389
0.055561166 0.010579807 0.37100002 4284513643
0.056766175 0.010579807 0.37100002 4284842608
0.057814926 0.01055129 0.37 4279644443
0.059016682 0.01055129 0.37 4279317529
0.060218446 0.01055129 0.37 4279187224
0.061254211 0.010522773 0.36900002 4279121431
0.062452719 0.010522773 0.36900002 4279450396
0.063651234 0.010522773 0.36900002 4279450396
0.064674005 0.010494256 0.36800003 4279516703
0.065869272 0.010494256 0.36800003 4279780645
0.067064531 0.010494256 0.36800003 4279320094
0.068074308 0.010465739 0.36700001 4278925336
0.069266327 0.010465739 0.36700001 4279057176
0.070266359 0.010437222 0.36600003 4278991383
0.071455128 0.010437222 0.36600003 4279320348
0.072445415 0.010408705 0.36500001 4279451164
0.073429205 0.010380188 0.36400002 4279385117
0.074611478 0.010380188 0.36400002 4279187738
0.075793751 0.010380188 0.36400002 4279450650
0.076764546 0.010351671 0.36300001 4279250451
0.077943571 0.010351671 0.36300001 4278460423
0.079122595 0.010351671 0.36300001 4279646746
0.08030162 0.010351671 0.36300001 4279383574
0.081705116 0.010380188 0.36400002 4278918926
0.082887389 0.010380188 0.36400002 4279115023
0.084069662 0.010380188 0.36400002 4279115023
0.085251927 0.010380188 0.36400002 4279180816
0.086671658 0.010408705 0.36500001 4279180816
0.087857179 0.010408705 0.36500001 4279115023
0.089042693 0.010408705 0.36500001 4279246609
0.090475425 0.010437222 0.36600003 4279246609
0.091664188 0.010437222 0.36600003 4279246609
0.092852958 0.010437222 0.36600003 4279312402
0.094041727 0.010437222 0.36600003 4279312400
0.095490687 0.010465739 0.36700001 4279049742
0.096682705 0.010465739 0.36700001 4280105248
0.097874723 0.010465739 0.36700001 4278263556
0.099066742 0.010465739 0.36700001 4278460935
0.10025875 0.010465739 0.36700001 4278855181
0.10172721 0.010494256 0.36800003 4279709723
0.10292247 0.010494256 0.36800003 4279775516
0.10411774 0.010494256 0.36800003 4280170787
0.105313 0.010494256 0.36800003 4279973408
0.10650827 0.010494256 0.36800003 4280434727
0.10741085 0.010465739 0.36700001 4280171555
0.10860287 0.010465739 0.36700001 4280039715
0.11009406 0.010494256 0.36800003 4280500266
0.11128933 0.010494256 0.36800003 4279909153
0.11248459 0.010494256 0.36800003 4280172325
0.11398876 0.010522773 0.36900002 4280303141
0.11549944 0.01055129 0.37 4280303139
0.11670119 0.01055129 0.37 4280500520
0.11822161 0.010579807 0.37100002 4280172325
0.11974853 0.010608324 0.37200001 4279711774
0.12095679 0.010608324 0.37200001 4279908383
0.12249345 0.010636841 0.37300003 4280105246
0.12370495 0.010636841 0.37300003 4281222446
0.12491645 0.010636841 0.37300003 4281881405
0.12612796 0.010636841 0.37300003 4284184160
0.12733947 0.010636841 0.37300003 4286157437
0.12889561 0.010665358 0.37400001 4286683783
0.13011035 0.010665358 0.37400001 4286486919
0.047507178 0.011880523 0.37400001 4284118631
0.048721932 0.011880523 0.37400001 4284250217
0.049936686 0.011880523 0.37400001 4284513389
0.051014666 0.011848757 0.37300003 4284579182
0.052226175 0.011848757 0.37300003 4284513389
0.053294413 0.011816991 0.37200001 4284644975
0.05450267 0.011816991 0.37200001 4284644975
0.055561166 0.011785224 0.37100002 4284644975
0.056766175 0.011785224 0.37100002 4284513643
0.057971187 0.011785224 0.37100002 4284579436
0.059016682 0.011753458 0.37 4279053592
0.060218446 0.011753458 0.37 4279318045
0.06142021 0.011753458 0.37 4279516443
0.062621966 0.011753458 0.37 4279253271
0.063651234 0.011721692 0.36900002 4279385371
0.064849749 0.011721692 0.36900002 4279780129
0.066048265 0.011721692 0.36900002 4279648289
0.067064531 0.011689926 0.36800003 4279319324
0.068259798 0.011689926 0.36800003 4279385117
0.069266327 0.01165816 0.36700001 4279319324
0.070458338 0.01165816 0.36700001 4279121945
0.071455128 0.011626394 0.36600003 4279319578
0.072643898 0.011626394 0.36600003 4279451164
0.073630929 0.011594627 0.36500001 4279385117
0.07481645 0.011594627 0.36500001 4279187738
0.075793751 0.011562862 0.36400002 4279187224
0.076976024 0.011562862 0.36400002 4279052306
0.078158297 0.011562862 0.36400002 4280039969
0.07934057 0.011562862 0.36400002 4279646492
0.080522843 0.011562862 0.36400002 4279449113
0.081705116 0.011562862 0.36400002 4279446551
0.082887389 0.011562862 0.36400002 4279774748
0.084069662 0.011562862 0.36400002 4279972127
0.085486136 0.011594627 0.36500001 4279840541
0.086671658 0.011594627 0.36500001 4280696620
0.087857179 0.011594627 0.36500001 4280104483
0.089286655 0.011626394 0.36600003 4279907102
0.090475425 0.011626394 0.36600003 4280565545
0.091664188 0.011626394 0.36600003 4280368680
0.092852958 0.011626394 0.36600003 4280171301
0.094298668 0.01165816 0.36700001 4280302887
0.095490687 0.01165816 0.36700001 4280040739
0.096682705 0.01165816 0.36700001 4279843871
0.097874723 0.01165816 0.36700001 4279975711
0.099066742 0.01165816 0.36700001 4279975711
0.10053194 0.011689926 0.36800003 4279909664
0.10172721 0.011689926 0.36800003 4279909151
0.10292247 0.011689926 0.36800003 4280303909
0.10411774 0.011689926 0.36800003 4279843358
0.105313 0.011689926 0.36800003 4279974944
0.10650827 0.011689926 0.36800003 4280172323
0.10741085 0.01165816 0.36700001 4279909153
0.10860287 0.01165816 0.36700001 4280172071
0.11009406 0.011689926 0.36800003 4280039715
0.11128933 0.011689926 0.36800003 4280960303
0.11248459 0.011689926 0.36800003 4282144577
0.11398876 0.011721692 0.36900002 4283460437
0.11549944 0.011753458 0.37 4284249955
0.11670119 0.011753458 0.37 4285565815
0.11822161 0.011785224 0.37100002 4286223745
0.11974853 0.011816991 0.37200001 4286552197
0.12095679 0.011816991 0.37200001 4286223234
0.12216504 0.011816991 0.37200001 4285828474
0.12370495 0.011848757 0.37300003 4286091646
0.12491645 0.011848757 0.37300003 4286091646
0.12612796 0.011848757 0.37300003 4286157439
0.12733947 0.011848757 0.37300003 4286157441
0.047507178 0.013095686 0.37400001 4284185194
0.048721932 0.013095686 0.37400001 4284382573
0.049936686 0.013095686 0.37400001 4284448366
0.051151432 0.013095686 0.37400001 4284644975
0.052226175 0.013060671 0.37300003 4284710254
0.05343768 0.013060671 0.37300003 4284841840
0.05450267 0.013025655 0.37200001 4284644975
0.055710923 0.013025655 0.37200001 4284448366
0.056766175 0.012990641 0.37100002 4284514159
0.057971187 0.012990641 0.37100002 4284251241
0.059176192 0.012990641 0.37100002 4283725408
0.060218446 0.012955626 0.37 4279317275
0.06142021 0.012955626 0.37 4279581982
0.062621966 0.012955626 0.37 4279318810
0.06382373 0.012955626 0.37 4279320094
0.065025486 0.012955626 0.37 4279780645
0.066048265 0.012920611 0.36900002 4279451680
0.067246772 0.012920611 0.36900002 4279320094
0.068259798 0.012885596 0.36800003 4279056922
0.069455065 0.012885596 0.36800003 4279188508
0.070458338 0.01285058 0.36700001 4279254301
0.071650356 0.01285058 0.36700001 4279188508
0.072643898 0.012815565 0.36600003 4279254301
0.073832661 0.012815565 0.36600003 4279320094
0.07481645 0.012780549 0.36500001 4279450396
0.076001972 0.012780549 0.36500001 4278594574
0.076976024 0.012745535 0.36400002 4279514395
0.078158297 0.012745535 0.36400002 4279777567
0.07934057 0.012745535 0.36400002 4279713309
0.080522843 0.012745535 0.36400002 4279844895
0.081705116 0.012745535 0.36400002 4279909918
0.083115093 0.012780549 0.36500001 4280107297
0.084300615 0.012780549 0.36500001 4279778078
0.085486136 0.012780549 0.36500001 4280107043
0.086671658 0.012780549 0.36500001 4280107043
0.087857179 0.012780549 0.36500001 4280172838
0.089286655 0.012815565 0.36600003 4280107045
0.090475425 0.012815565 0.36600003 4279712287
0.091664188 0.012815565 0.36600003 4280107045
0.092852958 0.012815565 0.36600003 4280370217
0.094298668 0.01285058 0.36700001 4279909153
0.095490687 0.01285058 0.36700001 4279843360
0.096682705 0.01285058 0.36700001 4279711774
0.097874723 0.01285058 0.36700001 4280369704
0.099336684 0.012885596 0.36800003 4280434473
0.10053194 0.012885596 0.36800003 4280830001
0.10200363 0.012920611 0.36900002 4281685310
0.10320215 0.012920611 0.36900002 4283395160
0.10440066 0.012920611 0.36900002 4284580206
0.105313 0.012885596 0.36800003 4285435515
0.10650827 0.012885596 0.36800003 4286355847
0.10770353 0.012885596 0.36800003 4286224261
0.10860287 0.01285058 0.36700001 4286158468
0.11009406 0.012885596 0.36800003 4285828989
0.11128933 0.012885596 0.36800003 4285763196
0.11248459 0.012885596 0.36800003 4285763196
0.11398876 0.012920611 0.36900002 4285828989
0.11549944 0.012955626 0.37 4285828989
0.11670119 0.012955626 0.37 4285697403
0.11822161 0.012990641 0.37100002 4285631610
0.11974853 0.013025655 0.37200001 4286026368
0.12095679 0.013025655 0.37200001 4285828989
0.12216504 0.013025655 0.37200001 4285894782
0.047634203 0.014349115 0.37500003 4284250987
0.048852205 0.014349115 0.37500003 4284382573
0.049936686 0.014310851 0.37400001 4284579182
0.051151432 0.014310851 0.37400001 4284644975
0.05236619 0.014310851 0.37400001 4284644975
0.05343768 0.014272586 0.37300003 4284710768
0.054649185 0.014272586 0.37300003 4284710768
0.055710923 0.014234321 0.37200001 4284644975
0.056919184 0.014234321 0.37200001 4284644975
0.057971187 0.014196058 0.37100002 4284513389
0.059176192 0.014196058 0.37100002 4284579436
0.0603812 0.014196058 0.37100002 4284842606
0.061586212 0.014196058 0.37100002 4281092403
0.062621966 0.014157793 0.37 4279711520
0.06382373 0.014157793 0.37 4279976742
0.065025486 0.014157793 0.37 4279779877
0.06622725 0.014157793 0.37 4279648291
0.067246772 0.014119529 0.36900002 4279516703
0.068445288 0.014119529 0.36900002 4279582496
0.069455065 0.014081265 0.36800003 4279516703
0.070650324 0.014081265 0.36800003 4279713568
0.071650356 0.014043001 0.36700001 4279910947
0.072842374 0.014043001 0.36700001 4279910947
0.073832661 0.014004736 0.36600003 4279779361
0.075021431 0.014004736 0.36600003 4280107043
0.076001972 0.013966472 0.36500001 4279711772
0.077187493 0.013966472 0.36500001 4279843360
0.078373015 0.013966472 0.36500001 4279514141
0.07934057 0.013928208 0.36400002 4279448602
0.080522843 0.013928208 0.36400002 4279580188
0.081929572 0.013966472 0.36500001 4279843360
0.083115093 0.013966472 0.36500001 4281158966
0.084300615 0.013966472 0.36500001 4281751105
0.085486136 0.013966472 0.36500001 4283001172
0.086671658 0.013966472 0.36500001 4283855709
0.088097885 0.014004736 0.36600003 4284710504
0.089286655 0.014004736 0.36600003 4285105778
0.090475425 0.014004736 0.36600003 4285500538
0.091664188 0.014004736 0.36600003 4285106296
0.092852958 0.014004736 0.36600003 4285632640
0.094298668 0.014043001 0.36700001 4285435513
0.095490687 0.014043001 0.36700001 4285501306
0.096682705 0.014043001 0.36700001 4285763708
0.098141417 0.014081265 0.36800003 4285500534
0.099336684 0.014081265 0.36800003 4285631606
0.10053194 0.014081265 0.36800003 4285434743
0.10200363 0.014119529 0.36900002 4285632124
0.10320215 0.014119529 0.36900002 4285566077
0.10440066 0.014119529 0.36900002 4285762942
0.10559918 0.014119529 0.36900002 4285762942
0.1067977 0.014119529 0.36900002 4285894015
0.1079962 0.014119529 0.36900002 4286091394
0.10919471 0.014119529 0.36900002 4285828476
0.048852205 0.015567528 0.37500003 4284448366
0.049936686 0.015526014 0.37400001 4285040503
0.051151432 0.015526014 0.37400001 4284644975
0.05236619 0.015526014 0.37400001 4284513389
0.05343768 0.015484502 0.37300003 4284579182
0.054649185 0.015484502 0.37300003 4284513389
0.055710923 0.015442987 0.37200001 4284644975
0.056919184 0.015442987 0.37200001 4284710254
0.057971187 0.015401474 0.37100002 4284644461
0.059176192 0.015401474 0.37100002 4284644461
0.0603812 0.015401474 0.37100002 4284579182
0.061586212 0.015401474 0.37100002 4284579434
0.062791213 0.015401474 0.37100002 4285237364
0.06382373 0.01535996 0.37 4284514413
0.065025486 0.01535996 0.37 4282540623
0.06622725 0.01535996 0.37 4281356347
0.067246772 0.015318448 0.36900002 4280895796
0.068445288 0.015318448 0.36900002 4280830003
0.069455065 0.015276935 0.36800003 4281685825
0.070650324 0.015276935 0.36800003 4282738513
0.071845591 0.015276935 0.36800003 4284185959
0.072842374 0.01523542 0.36700001 4284712042
0.074034385 0.01523542 0.36700001 4285237616
0.075021431 0.015193908 0.36600003 4285434743
0.076210201 0.015193908 0.36600003 4285106548
0.077398971 0.015193908 0.36600003 4285040757
0.078587733 0.015193908 0.36600003 4284711792
0.079776511 0.015193908 0.36600003 4284974192
0.080965281 0.015193908 0.36600003 4284974190
0.082154043 0.015193908 0.36600003 4285105262
0.083342813 0.015193908 0.36600003 4285237364
0.084531583 0.015193908 0.36600003 4285040757
0.085720345 0.015193908 0.36600003 4285172343
0.086909115 0.015193908 0.36600003 4285500538
0.088097885 0.015193908 0.36600003 4285565817
0.089286655 0.015193908 0.36600003 4285434231
0.090475425 0.015193908 0.36600003 4285434231
0.091664188 0.015193908 0.36600003 4285368184
0.092852958 0.015193908 0.36600003 4285368184
0.094298668 0.01523542 0.36700001 4285631356
0.095490687 0.01523542 0.36700001 4285565817
0.096682705 0.01523542 0.36700001 4285631608
0.098141417 0.015276935 0.36800003 4285696888
0.099336684 0.015276935 0.36800003 4285762681
0.0603812 0.016606892 0.37100002 4284513389
0.061586212 0.016606892 0.37100002 4284513643
0.062791213 0.016606892 0.37100002 4284579436
0.06382373 0.016562128 0.37 4284513389
0.065025486 0.016562128 0.37 4284513389
0.06622725 0.016562128 0.37 4284645229
0.067246772 0.016517365 0.36900002 4284907887
0.068445288 0.016517365 0.36900002 4284776301
0.069643795 0.016517365 0.36900002 4284645229
0.070650324 0.016472604 0.36800003 4284514413
0.071845591 0.016472604 0.36800003 4284645999
0.072842374 0.016427841 0.36700001 4284776813
0.074034385 0.016427841 0.36700001 4284842606
0.075226404 0.016427841 0.36700001 4284776815
0.076210201 0.016383078 0.36600003 4285105780
0.077398971 0.016383078 0.36600003 4284974194
0.078587733 0.016383078 0.36600003 4284974194
0.079776511 0.016383078 0.36600003 4284974194
0.080965281 0.016383078 0.36600003 4285302645
0.082154043 0.016383078 0.36600003 4285236852
0.083342813 0.016383078 0.36600003 4285434231
0.063996226 0.01781231 0.37100002 4284644975
0.065025486 0.017764296 0.37 4284644975
0.06622725 0.017764296 0.37 4284776047
0.067246772 0.017716285 0.36900002 4284841840
0.068445288 0.017716285 0.36900002 4284842608
0.069455065 0.017668275 0.36800003 4284711022
0.070650324 0.017668275 0.36800003 4284711022
0.071845591 0.017668275 0.36800003 4284776815
0.072842374 0.017620262 0.36700001 4285171059
0.074034385 0.017620262 0.36700001 4284907887
0.075226404 0.017620262 0.36700001 4285105266
0.076418422 0.017620262 0.36700001 4285105266
0.072556056 0.0033710732 0.36730886 4294967295
0.072556056 0.0033710732 0.36730886 4294901760
0.072556056 0.0033710732 0.36780885 4294901760
0.072556056 0.0033710732 0.36830884 4294901760
0.072556056 0.0033710732 0.36880887 4294901760
0.072556056 0.0033710732 0.36930886 4294901760
0.072556056 0.0033710732 0.36980885 4294901760
0.072556056 0.0033710732 0.37030885 4294901760
0.072556056 0.0033710732 0.37080887 4294901760
0.072556056 0.0033710732 0.37130886 4294901760
0.072556056 0.0033710732 0.37180886 4294901760
0.072556056 0.0033710732 0.37230885 4294901760
0.072556056 0.0033710732 0.37280884 4294901760
0.072556056 0.0033710732 0.37330887 4294901760
0.072556056 0.0033710732 0.37380886 4294901760
0.072556056 0.0033710732 0.37430885 4294901760
0.072556056 0.0033710732 0.37480885 4294901760
0.072556056 0.0033710732 0.37530887 4294901760
0.072556056 0.0033710732 0.37580886 4294901760
0.072556056 0.0033710732 0.37630886 4294901760
0.072556056 0.0033710732 0.37680885 4294901760
0.072556056 0.0033710732 0.37730885 4294901760
0.072556056 0.0033710732 0.37780887 4294901760
0.072556056 0.0033710732 0.37830886 4294901760
0.072556056 0.0033710732 0.37880886 4294901760
0.072556056 0.0033710732 0.37930885 4294901760
0.072556056 0.0033710732 0.37980884 4294901760
0.072556056 0.0033710732 0.38030887 4294901760
0.072556056 0.0033710732 0.38080886 4294901760
0.072556056 0.0033710732 0.38130885 4294901760
0.072556056 0.0033710732 0.38180885 4294901760
0.072556056 0.0033710732 0.38230887 4294901760
0.072556056 0.0033710732 0.38280886 4294901760
0.072556056 0.0033710732 0.38330886 4294901760
0.072556056 0.0033710732 0.38380885 4294901760
0.072556056 0.0033710732 0.38430887 4294901760
0.072556056 0.0033710732 0.38480887 4294901760
0.072556056 0.0033710732 0.38530886 4294901760
0.072556056 0.0033710732 0.38580886 4294901760
0.072556056 0.0033710732 0.38630885 4294901760
0.072556056 0.0033710732 0.38680887 4294901760
0.072556056 0.0033710732 0.38730887 4294901760
0.072556056 0.0033710732 0.38780886 4294901760
0.072556056 0.0033710732 0.38830885 4294901760
0.072556056 0.0033710732 0.38880885 4294901760
0.072556056 0.0033710732 0.38930887 4294901760
0.072556056 0.0033710732 0.38980886 4294901760
0.072556056 0.0033710732 0.39030886 4294901760
0.072556056 0.0033710732 0.39080885 4294901760
0.072556056 0.0033710732 0.39130887 4294901760
0.072556056 0.0033710732 0.39180887 4294901760
0.072556056 0.0033710732 0.39230886 4294901760
0.072556056 0.0033710732 0.39280885 4294901760
0.072556056 0.0033710732 0.39330885 4294901760
0.072556056 0.0033710732 0.39380887 4294901760
0.072556056 0.0033710732 0.39430887 4294901760
0.072556056 0.0033710732 0.39480886 4294901760
0.072556056 0.0033710732 0.39530885 4294901760
0.072556056 0.0033710732 0.39580888 4294901760
0.072556056 0.0033710732 0.39630887 4294901760
0.072556056 0.0033710732 0.39680886 4294901760
0.072556056 0.0033710732 0.39730886 4294901760
0.072556056 0.0033710732 0.39780885 4294901760
0.072556056 0.0033710732 0.39830887 4294901760
0.072556056 0.0033710732 0.39880887 4294901760
0.072556056 0.0033710732 0.39930886 4294901760
0.072556056 0.0033710732 0.39980885 4294901760
0.072556056 0.0033710732 0.40030888 4294901760
0.072556056 0.0033710732 0.40080887 4294901760
0.072556056 0.0033710732 0.40130886 4294901760
0.072556056 0.0033710732 0.40180886 4294901760
0.072556056 0.0033710732 0.40230885 4294901760
0.072556056 0.0033710732 0.40280887 4294901760
0.072556056 0.0033710732 0.40330887 4294901760
0.072556056 0.0033710732 0.40380886 4294901760
0.072556056 0.0033710732 0.40430886 4294901760
0.072556056 0.0033710732 0.40480888 4294901760
0.072556056 0.0033710732 0.40530887 4294901760
0.072556056 0.0033710732 0.40580887 4294901760
0.072556056 0.0033710732 0.40630886 4294901760
0.072556056 0.0033710732 0.40680885 4294901760
0.072556056 0.0033710732 0.40730888 4294901760
0.072556056 0.0033710732 0.40780887 4294901760
0.072556056 0.0033710732 0.40830886 4294901760
0.072556056 0.0033710732 0.40880886 4294901760
0.072556056 0.0033710732 0.40930885 4294901760
0.072556056 0.0033710732 0.40980887 4294901760
0.072556056 0.0033710732 0.41030887 4294901760
0.072556056 0.0033710732 0.41080886 4294901760
0.072556056 0.0033710732 0.41130885 4294901760
0.072556056 0.0033710732 0.41180885 4294901760
0.072556056 0.0033710732 0.41230887 4294901760
0.072556056 0.0033710732 0.41280887 4294901760
0.072556056 0.0033710732 0.41330886 4294901760
0.072556056 0.0033710732 0.41380888 4294901760
0.072556056 0.0033710732 0.41430888 4294901760
0.072556056 0.0033710732 0.41480887 4294901760
0.072556056 0.0033710732 0.41530886 4294901760
0.072556056 0.0033710732 0.41580886 4294901760
0.072556056 0.0033710732 0.41630888 4294901760
0.072556056 0.0033710732 0.41680887 4294901760
0.072556056 0.0033710732 0.41730887 4294901760
0.072556056 0.0033710732 0.36730886 4278255360
0.072458357 0.0032642563 0.36778745 4278255360
0.072360665 0.0031574392 0.36826602 4278255360
0.072262965 0.0030506223 0.36874461 4278255360
0.072165266 0.0029438054 0.36922321 4278255360
0.072067574 0.0028369883 0.3697018 4278255360
0.071969874 0.0027301714 0.37018037 4278255360
0.071872175 0.0026233546 0.37065896 4278255360
0.071774483 0.0025165374 0.37113756 4278255360
0.071676783 0.0024097206 0.37161613 4278255360
0.071579084 0.0023029037 0.37209472 4278255360
0.071481392 0.0021960866 0.37257332 4278255360
0.071383692 0.0020892699 0.37305191 4278255360
0.071285993 0.0019824528 0.37353048 4278255360
0.071188301 0.0018756358 0.37400907 4278255360
0.071090601 0.0017688188 0.37448767 4278255360
0.070992902 0.0016620019 0.37496623 4278255360
0.07089521 0.001555185 0.37544483 4278255360
0.07079751 0.001448368 0.37592342 4278255360
0.070699811 0.0013415511 0.37640202 4278255360
0.070602119 0.001234734 0.37688059 4278255360
0.07050442 0.0011279173 0.37735918 4278255360
0.07040672 0.0010211002 0.37783778 4278255360
0.070309028 0.0009142831 0.37831634 4278255360
0.070211329 0.00080746645 0.37879494 4278255360
0.070113629 0.00070064934 0.37927353 4278255360
0.070015937 0.00059383246 0.3797521 4278255360
0.069918238 0.00048701535 0.3802307 4278255360
0.069820546 0.00038019847 0.38070929 4278255360
0.069722846 0.00027338159 0.38118789 4278255360
0.069625147 0.00016656448 0.38166645 4278255360
0.069527455 5.9747603e-05 0.38214505 4278255360
0.069429755 -4.7069276e-05 0.38262364 4278255360
0.069332056 -0.00015388639 0.38310221 4278255360
0.069234364 -0.00026070327 0.3835808 4278255360
0.069136664 -0.00036752014 0.3840594 4278255360
0.069038965 -0.00047433726 0.38453799 4278255360
0.068941273 -0.00058115437 0.38501656 4278255360
0.068843573 -0.00068797101 0.38549516 4278255360
0.068745874 -0.00079478766 0.38597375 4278255360
0.068648182 -0.00090160524 0.38645232 4278255360
0.068550482 -0.0010084219 0.38693091 4278255360
