# .PCD v0.7 - Point Cloud Data file format
VERSION 0.7
FIELDS x y z rgb
SIZE 4 4 4 4
TYPE F F F U
COUNT 1 1 1 1
WIDTH 825
HEIGHT 1
VIEWPOINT 0 0 0 1 0 0 0
POINTS 825
DATA ascii
0.041030612 -0.026077202 0.46600002 4278802980
0.042544179 -0.026077202 0.46600002 4278474015
0.044152293 -0.026133161 0.46700001 4278606115
0.045669109 -0.026133161 0.46700001 4278408736
0.047286969 -0.02618912 0.46800002 4278802980
0.048911318 -0.02624508 0.46900001 4278342175
0.050542168 -0.026301039 0.47000003 4278933544
0.052068733 -0.026301039 0.47000003 4278866468
0.0042203283 -0.022033012 0.41800001 4280045363
0.0055779936 -0.022033012 0.41800001 4280574274
0.037758816 -0.024404988 0.46300003 4278343456
0.039347444 -0.024457697 0.46400002 4278540322
0.040942565 -0.024510408 0.46500003 4278539806
0.042544179 -0.024563119 0.46600002 4278210070
0.044057749 -0.024563119 0.46600002 4278933796
0.045669109 -0.024615828 0.46700001 4278670111
0.047286969 -0.024668539 0.46800002 4278669341
0.048911318 -0.02472125 0.46900001 4278668574
0.050542168 -0.024773961 0.47000003 4278997029
0.052068733 -0.024773961 0.47000003 4279194408
0.0055779936 -0.020674886 0.41800001 4279716137
0.0069356579 -0.020674886 0.41800001 4279854133
0.0082933232 -0.020674886 0.41800001 4280117305
0.0096509876 -0.020674886 0.41800001 4279327791
0.011008652 -0.020674886 0.41800001 4280247610
0.012366317 -0.020674886 0.41800001 4280639295
0.013756815 -0.020724349 0.41900003 4281889364
0.015117726 -0.020724349 0.41900003 4281824339
0.016517967 -0.020773809 0.42000002 4281034823
0.017924706 -0.020823272 0.42100003 4281232969
0.019337939 -0.020872733 0.42200002 4280378428
0.020757668 -0.020922193 0.42300001 4280117820
0.022131572 -0.020922193 0.42300001 4279789625
0.023561046 -0.020971656 0.42400002 4279330617
0.024997015 -0.021021117 0.42500001 4279067445
0.037595712 -0.022801731 0.46100003 4278407450
0.039262641 -0.022900652 0.46300003 4278539036
0.040854514 -0.022950115 0.46400002 4278473243
0.042452883 -0.022999575 0.46500003 4278670109
0.044057749 -0.023049036 0.46600002 4278996257
0.045669109 -0.023098499 0.46700001 4278201089
0.047286969 -0.023147959 0.46800002 4278665498
0.048911318 -0.02319742 0.46900001 4279454760
0.05043463 -0.02319742 0.46900001 4278865189
0.052068733 -0.023246882 0.47000003 4279194154
-0.0039162682 -0.01927055 0.41700003 4279774237
-0.0025618516 -0.01927055 0.41700003 4280562983
-0.0012103303 -0.019316763 0.41800001 4280366374
0.0055779936 -0.019316763 0.41800001 4280302625
0.0069356579 -0.019316763 0.41800001 4279127841
0.0082933232 -0.019316763 0.41800001 4278931998
0.0096509876 -0.019316763 0.41800001 4279131173
0.011008652 -0.019316763 0.41800001 4279197738
0.012395903 -0.019362975 0.41900003 4283604332
0.013756815 -0.019362975 0.41900003 4281762130
0.015153807 -0.019409187 0.42000002 4280380225
0.016517967 -0.019409187 0.42000002 4279920187
0.017924706 -0.019455401 0.42100003 4279658551
0.019337939 -0.019501612 0.42200002 4279592756
0.020757668 -0.019547824 0.42300001 4279461170
0.022183893 -0.019594038 0.42400002 4279198511
0.023616614 -0.019640248 0.42500001 4279001904
0.025055833 -0.019686462 0.42600003 4278475560
0.026563611 -0.019778887 0.42800003 4278474790
0.028019065 -0.019825099 0.42900002 4278540583
0.035706859 -0.021072833 0.45600003 4278670370
0.037514158 -0.021257682 0.46000001 4278735134
0.03909304 -0.021303894 0.46100003 4278274070
0.040766466 -0.021396318 0.46300003 4278201091
0.042361584 -0.021442531 0.46400002 4278204693
0.044057749 -0.021534955 0.46600002 4279717932
0.045669109 -0.021581167 0.46700001 4279389221
0.047286969 -0.02162738 0.46800002 4279127332
0.048911318 -0.021673592 0.46900001 4278337046
0.05043463 -0.021673592 0.46900001 4279061285
0.052068733 -0.021719806 0.47000003 4279192103
-0.0052706851 -0.017915675 0.41700003 4280497958
-0.0039256597 -0.017958637 0.41800001 4280497958
-0.0025679951 -0.017958637 0.41800001 4280168223
-0.0012132258 -0.018001603 0.41900003 4280365602
0.0015085997 -0.018001603 0.41900003 4280496924
0.005591338 -0.018001603 0.41900003 4280366876
0.0069522504 -0.018001603 0.41900003 4279124763
0.0083131632 -0.018001603 0.41900003 4278863386
0.0096740769 -0.018001603 0.41900003 4278996507
0.011034989 -0.018001603 0.41900003 4278997277
0.012395903 -0.018001603 0.41900003 4278868003
0.013789647 -0.018044565 0.42000002 4278802726
0.015153807 -0.018044565 0.42000002 4279198765
0.016557297 -0.018087529 0.42100003 4279527728
0.017967282 -0.018130491 0.42200002 4279528498
0.019337939 -0.018130491 0.42200002 4278738212
0.020757668 -0.018173454 0.42300001 4278606628
0.022236213 -0.01825938 0.42500001 4278540835
0.023672184 -0.018302346 0.42600003 4278802980
0.025114648 -0.018345308 0.42700002 4278736935
0.026625674 -0.018431233 0.42900002 4278867749
0.02814969 -0.018517161 0.43100002 4278933542
0.029755263 -0.01864605 0.43400002 4279327787
0.032242022 -0.019290499 0.44900003 4279590959
0.033850487 -0.019376427 0.45100003 4280115508
0.035628553 -0.019548278 0.45500001 4278201090
0.037351053 -0.01967717 0.45800003 4278203662
0.039008241 -0.019763093 0.46000001 4279717670
0.040678415 -0.019849021 0.46200001 4279850283
0.042361584 -0.019934949 0.46400002 4279127330
0.043963205 -0.019977912 0.46500003 4279522601
0.045669109 -0.020063836 0.46700001 4278797595
0.047286969 -0.020106802 0.46800002 4278336529
0.048911318 -0.020149764 0.46900001 4278402326
0.05043463 -0.020149764 0.46900001 4279586859
0.052068733 -0.020192727 0.47000003 4281427784
-0.0052833245 -0.016600514 0.41800001 4280432165
-0.0039350516 -0.016640229 0.41900003 4280102430
-0.0025741386 -0.016640229 0.41900003 4280365602
-0.0012161214 -0.016679943 0.42000002 4280234016
0.00014803941 -0.016679943 0.42000002 4280628772
0.0056046825 -0.016679943 0.42000002 4280103704
0.0069688428 -0.016679943 0.42000002 4279255838
0.0083330041 -0.016679943 0.42000002 4279059740
0.0096740769 -0.016640229 0.41900003 4278667031
0.011061325 -0.016679943 0.42000002 4279062302
0.012425486 -0.016679943 0.42000002 4278998052
0.013789647 -0.016679943 0.42000002 4278999335
0.015189888 -0.016719656 0.42100003 4278540320
0.016557297 -0.016719656 0.42100003 4278277661
0.017967282 -0.016759371 0.42200002 4279001384
0.019383764 -0.016799085 0.42300001 4278804007
0.020806741 -0.016838798 0.42400002 4278802726
0.022236213 -0.016878514 0.42500001 4278999589
0.02372775 -0.016957941 0.42700002 4279062820
0.025232282 -0.017037369 0.42900002 4279852336
0.026749803 -0.017116798 0.43100002 4279852334
0.028280316 -0.017196227 0.43300003 4279916846
0.029892383 -0.017315369 0.43600002 4278199817
0.032098405 -0.017752225 0.44700003 4278527759
0.03377543 -0.017871367 0.45000002 4279125281
0.035471946 -0.017990509 0.45300001 4279784492
0.037187949 -0.018109651 0.45600003 4279060769
0.038923439 -0.018228794 0.45900002 4278270740
0.040590368 -0.018308222 0.46100003 4279718184
0.042270292 -0.018387651 0.46300003 4278402324
0.043963205 -0.01846708 0.46500003 4278204947
0.045669109 -0.018546507 0.46700001 4279322914
0.047286969 -0.018586222 0.46800002 4280704565
0.048911318 -0.018625936 0.46900001 4279718184
0.050542168 -0.018665651 0.47000003 4279389480
0.052068733 -0.018665651 0.47000003 4284650358
-0.0052959644 -0.015278853 0.41900003 4280301094
-0.0039444431 -0.015315318 0.42000002 4280365602
-0.002580282 -0.015315318 0.42000002 4280562981
-0.0012190168 -0.015351783 0.42100003 4280101914
0.0056180274 -0.015351783 0.42100003 4279775252
0.0069688428 -0.015315318 0.42000002 4279190558
0.0083330041 -0.015315318 0.42000002 4278797082
0.0096971644 -0.015315318 0.42000002 4278732570
0.011061325 -0.015315318 0.42000002 4278798363
0.012425486 -0.015315318 0.42000002 4278800160
0.01382248 -0.015351783 0.42100003 4278734880
0.015189888 -0.015351783 0.42100003 4278210073
0.016596625 -0.015388248 0.42200002 4278802980
0.018009858 -0.015424713 0.42300001 4279262759
0.019429589 -0.015461178 0.42400002 4279393834
0.020855812 -0.015497643 0.42500001 4279459373
0.022288535 -0.015534109 0.42600003 4279590959
0.023783321 -0.015607039 0.42800003 4278206228
0.025291096 -0.015679969 0.43000001 4279718697
0.026873933 -0.015789364 0.43300003 4278660369
0.028410941 -0.015862294 0.43500003 4278789648
0.030029505 -0.015971689 0.43800002 4279051027
0.032026596 -0.016263409 0.44600001 4278787855
0.033700373 -0.016372805 0.44900003 4280834616
0.03539364 -0.016482199 0.45200002 4278201606
0.037106395 -0.016591594 0.45500001 4278928156
0.03883864 -0.01670099 0.45800003 4278796570
0.040502317 -0.016773919 0.46000001 4279257121
0.042270292 -0.016883316 0.46300003 4279125535
0.043963205 -0.016956246 0.46500003 4280046635
0.045669109 -0.017029174 0.46700001 4280178221
0.047286969 -0.017065641 0.46800002 4278994463
0.048911318 -0.017102106 0.46900001 4279719215
0.050542168 -0.017138571 0.47000003 4279585064
0.0056180274 -0.013983912 0.42100003 4279907606
0.0069854357 -0.013983912 0.42100003 4279124763
0.008352845 -0.013983912 0.42100003 4278928668
0.0097202538 -0.013983912 0.42100003 4278863388
0.011087662 -0.013983912 0.42100003 4278995744
0.012455071 -0.013983912 0.42100003 4278931746
0.01382248 -0.013983912 0.42100003 4279064099
0.015225968 -0.014017127 0.42200002 4278472732
0.016596625 -0.014017127 0.42200002 4278933283
0.018009858 -0.014050343 0.42300001 4279129892
0.019429589 -0.01408356 0.42400002 4279458603
0.020904887 -0.014149992 0.42600003 4279458603
0.022340855 -0.014183206 0.42700002 4279984947
0.023838889 -0.014249639 0.42900002 4278270486
0.025349915 -0.014316071 0.43100002 4278200327
0.026935996 -0.014415719 0.43400002 4278921236
0.028541565 -0.014515366 0.43700001 4280236582
0.030166626 -0.014615014 0.44000003 4280632622
0.031954788 -0.014781094 0.44500002 4279383068
0.033625316 -0.014880742 0.44800001 4281031227
0.035315339 -0.01498039 0.45100003 4278595603
0.037024844 -0.015080038 0.45400003 4278992927
0.038753837 -0.015179685 0.45700002 4279388707
0.040502317 -0.015279333 0.46000001 4279455014
0.042178992 -0.015345764 0.46200001 4279323428
0.043963205 -0.015445413 0.46500003 4278203919
0.045669109 -0.015511844 0.46700001 4278334995
0.047286969 -0.015545061 0.46800002 4280047160
0.048911318 -0.015578276 0.46900001 4279783988
0.050542168 -0.015611493 0.47000003 4284187244
0.0056313714 -0.012646006 0.42200002 4279974426
0.0070020277 -0.012646006 0.42200002 4279124761
0.0083726849 -0.012646006 0.42200002 4278994459
0.0097202538 -0.01261604 0.42100003 4278731800
0.011087662 -0.01261604 0.42100003 4279061537
0.012455071 -0.01261604 0.42100003 4279194406
0.013855312 -0.012646006 0.42200002 4278734880
0.015225968 -0.012646006 0.42200002 4278802210
0.016635953 -0.012675973 0.42300001 4278933796
0.018052435 -0.012705941 0.42400002 4279196455
0.019475412 -0.012735907 0.42500001 4279656236
0.020904887 -0.012765874 0.42600003 4279590189
0.022393174 -0.012825808 0.42800003 4279983922
0.023894455 -0.012885741 0.43000001 4281623362
0.02540873 -0.012945674 0.43200001 4279516705
0.026998062 -0.013035576 0.43500003 4278527759
0.028606879 -0.013125476 0.43800002 4279514141
0.030235186 -0.013215376 0.44100001 4280567596
0.031954788 -0.013335244 0.44500002 4279253019
0.033550262 -0.013395178 0.44700003 4280438577
0.035237033 -0.013485078 0.45000002 4279319072
0.03694329 -0.013574978 0.45300001 4280571446
0.038669039 -0.013664879 0.45600003 4278663960
0.04041427 -0.013754779 0.45900002 4278201096
0.042178992 -0.01384468 0.46200001 4280506934
0.043963205 -0.013934581 0.46500003 4280112690
0.045669109 -0.013994514 0.46700001 4280112692
0.047286969 -0.014024481 0.46800002 4279322410
0.048911318 -0.014054447 0.46900001 4285043067
0.0042708106 -0.011301603 0.42300001 4280498975
0.0056447159 -0.011301603 0.42300001 4279844125
0.0070020277 -0.011274885 0.42200002 4279058968
0.0083726849 -0.011274885 0.42200002 4279059738
0.0097433422 -0.011274885 0.42200002 4278929433
0.011113998 -0.011274885 0.42200002 4279128095
0.012484656 -0.011274885 0.42200002 4278668828
0.013855312 -0.011274885 0.42200002 4278735904
0.015262048 -0.011301603 0.42300001 4278671140
0.016675282 -0.011328321 0.42400002 4278802980
0.018095011 -0.011355039 0.42500001 4279065382
0.019521238 -0.011381757 0.42600003 4279394093
0.020953959 -0.011408474 0.42700002 4279525166
0.022445494 -0.01146191 0.42900002 4278865441
0.023950025 -0.011515345 0.43100002 4281426755
0.025467549 -0.011568781 0.43300003 4278990107
0.027060125 -0.011648934 0.43600002 4280896311
0.028606879 -0.01170237 0.43800002 4279119387
0.030235186 -0.011782522 0.44100001 4278592271
0.031882979 -0.011862677 0.44400004 4279646240
0.033550262 -0.011942829 0.44700003 4279320355
0.035237033 -0.012022982 0.45000002 4278530326
0.036861736 -0.012076418 0.45200002 4280439860
0.038584236 -0.012156571 0.45500001 4280440373
0.04041427 -0.012263442 0.45900002 4280047410
0.042087696 -0.012316878 0.46100003 4279981617
0.0042708106 -0.0099272327 0.42300001 4280302366
0.0056447159 -0.0099272327 0.42300001 4279975711
0.0070186201 -0.0099272327 0.42300001 4279255836
0.0083925249 -0.0099272327 0.42300001 4279190554
0.0097433422 -0.0099037644 0.42200002 4279061019
0.011113998 -0.0099037644 0.42200002 4279127582
0.012484656 -0.0099037644 0.42200002 4278866207
0.013888145 -0.0099272327 0.42300001 4278735904
0.015262048 -0.0099272327 0.42300001 4278670370
0.016675282 -0.0099507011 0.42400002 4278473761
0.018095011 -0.0099741695 0.42500001 4278802728
0.019521238 -0.0099976389 0.42600003 4279130923
0.021003032 -0.010044577 0.42800003 4279524398
0.022445494 -0.010068044 0.42900002 4278204428
0.023950025 -0.010114982 0.43100002 4280833848
0.025467549 -0.01016192 0.43300003 4278922006
0.027060125 -0.010232325 0.43600002 4278985750
0.028606879 -0.010279262 0.43800002 4278985752
0.030235186 -0.010349668 0.44100001 4278197771
0.031882979 -0.010420075 0.44400004 4281161530
0.033475202 -0.010467011 0.44600001 4280112692
0.035158731 -0.010537418 0.44900003 4279850033
0.036780186 -0.010584354 0.45100003 4280113203
0.038499437 -0.010654761 0.45400003 4279784238
0.0042809076 -0.0085730823 0.42400002 4280040221
0.0056580603 -0.0085730823 0.42400002 4279713822
0.0070186201 -0.0085528623 0.42300001 4279124252
0.0083925249 -0.0085528623 0.42300001 4279059738
0.0097664297 -0.0085528623 0.42300001 4279061535
0.011140334 -0.0085528623 0.42300001 4279127843
0.012514239 -0.0085528623 0.42300001 4278734367
0.013888145 -0.0085528623 0.42300001 4279063845
0.015298129 -0.0085730823 0.42400002 4278735650
0.01671461 -0.0085933013 0.42500001 4278933544
0.018137589 -0.0086135212 0.42600003 4279130923
0.019567061 -0.0086337412 0.42700002 4279459375
0.021003032 -0.0086539611 0.42800003 4280247096
0.022445494 -0.0086741801 0.42900002 4278201866
0.023950025 -0.0087146191 0.43100002 4279582244
0.025467549 -0.0087550581 0.43300003 4278395664
0.027060125 -0.008815717 0.43600002 4280304940
0.028606879 -0.0088561559 0.43800002 4280833594
0.030235186 -0.0089168139 0.44100001 4280113203
0.03181117 -0.0089572538 0.44300002 4279916594
0.033400148 -0.0089976927 0.44500002 4279523119
0.035080422 -0.0090583507 0.44800001 4279457326
0.036698632 -0.0090987897 0.45000002 4279256867
0.0042809076 -0.0071954625 0.42400002 4280040991
0.0056580603 -0.0071954625 0.42400002 4279517727
0.0070352126 -0.0071954625 0.42400002 4279059742
0.0083925249 -0.0071784919 0.42300001 4278993947
0.0097664297 -0.0071784919 0.42300001 4278995744
0.011140334 -0.0071784919 0.42300001 4279193636
0.012514239 -0.0071784919 0.42300001 4278405402
0.013920978 -0.0071954625 0.42400002 4279063845
0.015298129 -0.0071954625 0.42400002 4278999335
0.01671461 -0.0072124326 0.42500001 4278670372
0.018137589 -0.0072294036 0.42600003 4279262509
0.019567061 -0.0072463737 0.42700002 4279590961
0.021003032 -0.0072633442 0.42800003 4280246842
0.022445494 -0.0072803148 0.42900002 4280113973
0.023950025 -0.0073142555 0.43100002 4280113975
0.025467549 -0.0073481966 0.43300003 4279982387
0.026998062 -0.0073821372 0.43500003 4280048434
0.028606879 -0.0074330484 0.43800002 4279917361
0.030235186 -0.0074839597 0.44100001 4279654959
0.03181117 -0.0075179008 0.44300002 4279654959
0.033400148 -0.0075518414 0.44500002 4279389228
0.0042809076 -0.0058178436 0.42400002 4280042787
0.0056580603 -0.0058178436 0.42400002 4279190045
0.0070352126 -0.0058178436 0.42400002 4278862361
0.0084123658 -0.0058178436 0.42400002 4279322912
0.009789519 -0.0058178436 0.42400002 4279127330
0.011166671 -0.0058178436 0.42400002 4279325222
0.012543825 -0.0058178436 0.42400002 4278998052
0.013920978 -0.0058178436 0.42400002 4279129638
0.015298129 -0.0058178436 0.42400002 4278867749
0.01671461 -0.0058315648 0.42500001 4279130921
0.018137589 -0.0058452864 0.42600003 4279459886
0.019567061 -0.0058590076 0.42700002 4279525683
0.021003032 -0.0058727288 0.42800003 4278403870
0.022445494 -0.0058864499 0.42900002 4279456045
0.023894455 -0.0059001711 0.43000001 4279918131
0.02540873 -0.0059276139 0.43200001 4279654957
0.026998062 -0.0059687784 0.43500003 4279457578
0.028541565 -0.0059962207 0.43700001 4279062052
0.030235186 -0.0060511059 0.44100001 4279781160
0.03181117 -0.0060785487 0.44300002 4284122731
0.0029037548 -0.0044402243 0.42400002 4280236573
0.0042809076 -0.0044402243 0.42400002 4279583779
0.0056580603 -0.0044402243 0.42400002 4279124765
0.0070352126 -0.0044402243 0.42400002 4279059740
0.0084123658 -0.0044402243 0.42400002 4279126047
0.009789519 -0.0044402243 0.42400002 4279127330
0.011166671 -0.0044402243 0.42400002 4279325222
0.012543825 -0.0044402243 0.42400002 4279063845
0.013920978 -0.0044402243 0.42400002 4279064615
0.015334209 -0.0044506961 0.42500001 4279130408
0.01671461 -0.0044506961 0.42500001 4278933542
0.018137589 -0.0044611688 0.42600003 4279525681
0.019567061 -0.0044716406 0.42700002 4279328304
0.021003032 -0.0044821128 0.42800003 4279393584
0.022445494 -0.0044925851 0.42900002 4279327021
0.023894455 -0.0045030573 0.43000001 4279457580
0.025349915 -0.0045135296 0.43100002 4279257894
0.026998062 -0.0045554186 0.43500003 4282741080
0.028541565 -0.0045763627 0.43700001 4286622099
0.030235186 -0.0046182517 0.44100001 4286555279
0.03181117 -0.0046391962 0.44300002 4286226314
0.0015266021 -0.0030626049 0.42400002 4280302625
0.0029037548 -0.0030626049 0.42400002 4280172577
0.0042910036 -0.0030698278 0.42500001 4279255838
0.0056714048 -0.0030698278 0.42500001 4279190558
0.0070352126 -0.0030626049 0.42400002 4279257119
0.0084123658 -0.0030626049 0.42400002 4279652391
0.009789519 -0.0030626049 0.42400002 4279522088
0.011166671 -0.0030626049 0.42400002 4279062820
0.012543825 -0.0030626049 0.42400002 4279195431
0.013920978 -0.0030626049 0.42400002 4279196201
0.015334209 -0.0030698278 0.42500001 4278867749
0.01671461 -0.0030698278 0.42500001 4279065130
0.018137589 -0.0030770511 0.42600003 4279394095
0.019567061 -0.0030842742 0.42700002 4279196205
0.021003032 -0.0030914973 0.42800003 4279192619
0.022393174 -0.0030914973 0.42800003 4281097538
0.023838889 -0.0030987205 0.42900002 4286489999
0.025291096 -0.0031059433 0.43000001 4286818964
0.026998062 -0.0031420593 0.43500003 4286489999
0.028541565 -0.0031565053 0.43700001 4286489486
0.030235186 -0.0031853979 0.44100001 4286488716
0.03181117 -0.0031998442 0.44300002 4286422923
0.0015266021 -0.0016849856 0.42400002 4286225029
0.0029106031 -0.0016889595 0.42500001 4281356858
0.0042910036 -0.0016889595 0.42500001 4279121431
0.0056714048 -0.0016889595 0.42500001 4279516703
0.0070352126 -0.0016849856 0.42400002 4279255838
0.0084123658 -0.0016849856 0.42400002 4279519521
0.009789519 -0.0016849856 0.42400002 4279258916
0.011166671 -0.0016849856 0.42400002 4279654187
0.012543825 -0.0016849856 0.42400002 4279655471
0.01395381 -0.0016889595 0.42500001 4279984436
0.015334209 -0.0016889595 0.42500001 4279327021
0.01671461 -0.0016889595 0.42500001 4278800164
0.018137589 -0.0016929336 0.42600003 4280044850
0.019521238 -0.0016929336 0.42600003 4285833353
0.0042910036 -0.00030809108 0.42500001 4286226314
0.0070352126 -0.00030736616 0.42400002 4284449903
0.0084123658 -0.00030736616 0.42400002 4281489731
0.009789519 -0.00030736616 0.42400002 4279912494
0.011166671 -0.00030736616 0.42400002 4279650603
0.012543825 -0.00030736616 0.42400002 4280045613
0.01395381 -0.00030809108 0.42500001 4280704313
0.015334209 -0.00030809108 0.42500001 4284846969
0.022745119 -0.013168365 0.43524683 4294967295
0.022745119 -0.013168365 0.43524683 4294901760
0.02281992 -0.013640377 0.43509981 4294901760
0.022894718 -0.014112389 0.43495283 4294901760
0.022969518 -0.014584401 0.43480581 4294901760
0.023044316 -0.015056413 0.43465883 4294901760
0.023119116 -0.015528426 0.43451181 4294901760
0.023193916 -0.016000437 0.43436483 4294901760
0.023268715 -0.01647245 0.43421781 4294901760
0.023343515 -0.016944461 0.4340708 4294901760
0.023418313 -0.017416473 0.43392381 4294901760
0.023493113 -0.017888486 0.4337768 4294901760
0.023567911 -0.018360497 0.43362981 4294901760
0.023642711 -0.018832508 0.4334828 4294901760
0.023717511 -0.019304521 0.43333578 4294901760
0.02379231 -0.019776534 0.4331888 4294901760
0.02386711 -0.020248545 0.43304178 4294901760
0.023941908 -0.020720556 0.4328948 4294901760
0.024016708 -0.021192569 0.43274778 4294901760
0.024091508 -0.021664582 0.4326008 4294901760
0.024166306 -0.022136593 0.43245378 4294901760
0.024241107 -0.022608606 0.43230677 4294901760
0.024315905 -0.023080617 0.43215978 4294901760
0.024390705 -0.02355263 0.43201277 4294901760
0.024465505 -0.024024643 0.43186578 4294901760
0.024540303 -0.024496654 0.43171877 4294901760
0.024615103 -0.024968665 0.43157178 4294901760
0.024689902 -0.025440678 0.43142477 4294901760
0.024764702 -0.025912691 0.43127775 4294901760
0.024839502 -0.026384702 0.43113077 4294901760
0.0249143 -0.026856713 0.43098375 4294901760
0.0249891 -0.027328726 0.43083677 4294901760
0.025063898 -0.027800739 0.43068975 4294901760
0.025138699 -0.02827275 0.43054274 4294901760
0.025213499 -0.028744763 0.43039575 4294901760
0.025288297 -0.029216774 0.43024874 4294901760
0.025363097 -0.029688787 0.43010175 4294901760
0.025437895 -0.0301608 0.42995474 4294901760
0.025512695 -0.030632811 0.42980775 4294901760
0.025587494 -0.031104822 0.42966074 4294901760
0.025662294 -0.031576835 0.42951372 4294901760
0.025737094 -0.032048848 0.42936674 4294901760
0.025811892 -0.03252086 0.42921972 4294901760
0.025886692 -0.03299287 0.42907274 4294901760
0.02596149 -0.033464883 0.42892572 4294901760
0.02603629 -0.033936895 0.42877871 4294901760
0.026111089 -0.034408905 0.42863172 4294901760
0.026185889 -0.034880921 0.42848471 4294901760
0.026260689 -0.03535293 0.42833772 4294901760
0.026335487 -0.035824943 0.42819071 4294901760
0.026410287 -0.036296956 0.42804372 4294901760
0.026485085 -0.036768965 0.42789671 4294901760
0.026559886 -0.037240978 0.42774969 4294901760
0.026634686 -0.037712991 0.42760271 4294901760
0.026709484 -0.038185 0.42745569 4294901760
0.026784284 -0.038657017 0.42730871 4294901760
0.026859082 -0.039129026 0.42716169 4294901760
0.026933882 -0.039601039 0.42701471 4294901760
0.027008682 -0.040073052 0.42686769 4294901760
0.027083481 -0.040545061 0.42672068 4294901760
0.027158281 -0.041017074 0.42657369 4294901760
0.027233079 -0.041489087 0.42642668 4294901760
0.027307879 -0.0419611 0.42627969 4294901760
0.027382679 -0.042433113 0.42613268 4294901760
0.027457478 -0.042905122 0.42598566 4294901760
0.027532278 -0.043377135 0.42583868 4294901760
0.027607076 -0.043849148 0.42569166 4294901760
0.027681876 -0.044321161 0.42554468 4294901760
0.027756676 -0.044793174 0.42539766 4294901760
0.027831474 -0.045265183 0.42525068 4294901760
0.027906274 -0.045737196 0.42510366 4294901760
0.027981073 -0.046209209 0.42495665 4294901760
0.028055873 -0.046681218 0.42480966 4294901760
0.028130673 -0.047153234 0.42466265 4294901760
0.028205471 -0.047625244 0.42451566 4294901760
0.028280271 -0.048097257 0.42436865 4294901760
0.028355069 -0.048569269 0.42422163 4294901760
0.02842987 -0.049041279 0.42407465 4294901760
0.028504668 -0.049513292 0.42392763 4294901760
0.028579468 -0.049985304 0.42378065 4294901760
0.028654268 -0.050457317 0.42363364 4294901760
0.028729066 -0.05092933 0.42348665 4294901760
0.028803866 -0.051401339 0.42333964 4294901760
0.028878665 -0.051873352 0.42319262 4294901760
0.028953465 -0.052345365 0.42304564 4294901760
0.029028263 -0.052817374 0.42289862 4294901760
0.029103063 -0.053289391 0.42275164 4294901760
0.029177863 -0.0537614 0.42260462 4294901760
0.029252661 -0.054233413 0.42245764 4294901760
0.029327461 -0.054705426 0.42231062 4294901760
0.02940226 -0.055177435 0.42216361 4294901760
0.02947706 -0.055649448 0.42201662 4294901760
0.02955186 -0.056121461 0.42186961 4294901760
0.029626658 -0.056593474 0.42172262 4294901760
0.029701458 -0.057065487 0.42157561 4294901760
0.029776257 -0.057537496 0.42142859 4294901760
0.029851057 -0.058009509 0.42128161 4294901760
0.029925857 -0.058481522 0.42113459 4294901760
0.030000655 -0.058953535 0.42098761 4294901760
0.030075455 -0.059425548 0.42084059 4294901760
0.030150253 -0.059897557 0.42069361 4294901760
0.030225053 -0.06036957 0.42054659 4294901760
0.022745119 -0.013168365 0.43524683 4278255360
0.023060616 -0.013237253 0.43562856 4278255360
0.023376115 -0.01330614 0.43601027 4278255360
0.023691611 -0.013375028 0.43639201 4278255360
0.02400711 -0.013443915 0.43677375 4278255360
0.024322607 -0.013512803 0.43715546 4278255360
0.024638105 -0.013581691 0.43753719 4278255360
0.024953602 -0.013650578 0.43791893 4278255360
0.0252691 -0.013719467 0.43830064 4278255360
0.025584597 -0.013788354 0.43868238 4278255360
0.025900096 -0.013857242 0.43906409 4278255360
0.026215592 -0.01392613 0.43944582 4278255360
0.026531091 -0.013995017 0.43982756 4278255360
0.026846588 -0.014063905 0.44020927 4278255360
0.027162086 -0.014132792 0.44059101 4278255360
0.027477583 -0.01420168 0.44097275 4278255360
0.02779308 -0.014270568 0.44135445 4278255360
0.028108578 -0.014339455 0.44173619 4278255360
0.028424077 -0.014408343 0.44211793 4278255360
0.028739573 -0.014477231 0.44249964 4278255360
0.029055072 -0.014546119 0.44288138 4278255360
0.029370569 -0.014615007 0.44326311 4278255360
0.029686067 -0.014683894 0.44364482 4278255360
0.030001564 -0.014752782 0.44402656 4278255360
0.030317061 -0.014821669 0.4444083 4278255360
0.030632559 -0.014890557 0.44479001 4278255360
0.030948058 -0.014959445 0.44517174 4278255360
0.031263553 -0.015028332 0.44555348 4278255360
0.031579051 -0.01509722 0.44593519 4278255360
0.03189455 -0.015166108 0.44631693 4278255360
0.032210048 -0.015234996 0.44669867 4278255360
0.032525547 -0.015303884 0.44708037 4278255360
0.032841042 -0.015372771 0.44746211 4278255360
0.03315654 -0.015441659 0.44784382 4278255360
0.033472039 -0.015510546 0.44822556 4278255360
0.033787534 -0.015579434 0.4486073 4278255360
0.034103032 -0.015648322 0.448989 4278255360
0.034418531 -0.01571721 0.44937074 4278255360
0.034734026 -0.015786096 0.44975248 4278255360
0.035049524 -0.015854985 0.45013419 4278255360
0.035365023 -0.015923873 0.45051593 4278255360
0.035680521 -0.015992761 0.45089766 4278255360
0.03599602 -0.016061649 0.45127937 4278255360
0.036311515 -0.016130535 0.45166111 4278255360
0.036627013 -0.016199423 0.45204285 4278255360
0.036942512 -0.016268311 0.45242456 4278255360
0.037258007 -0.016337199 0.45280629 4278255360
0.037573505 -0.016406087 0.45318803 4278255360
0.037889004 -0.016474973 0.45356974 4278255360
0.038204502 -0.016543861 0.45395148 4278255360
0.038520001 -0.01661275 0.45433319 4278255360
0.038835496 -0.016681638 0.45471492 4278255360
0.039150994 -0.016750526 0.45509666 4278255360
0.039466493 -0.016819412 0.45547837 4278255360
0.039781988 -0.0168883 0.45586011 4278255360
0.04009749 -0.016957188 0.45624185 4278255360
0.040412985 -0.017026076 0.45662355 4278255360
0.04072848 -0.017094962 0.45700529 4278255360
0.041043982 -0.01716385 0.45738703 4278255360
0.041359477 -0.017232738 0.45776874 4278255360
0.041674975 -0.017301627 0.45815048 4278255360
0.041990474 -0.017370515 0.45853221 4278255360
0.042305969 -0.017439403 0.45891392 4278255360
0.042621467 -0.017508291 0.45929566 4278255360
0.042936966 -0.017577177 0.4596774 4278255360
0.043252461 -0.017646065 0.46005911 4278255360
0.043567963 -0.017714953 0.46044084 4278255360
0.043883458 -0.017783841 0.46082258 4278255360
0.044198956 -0.017852727 0.46120429 4278255360
0.044514455 -0.017921615 0.46158603 4278255360
0.04482995 -0.017990503 0.46196777 4278255360
0.045145448 -0.018059392 0.46234947 4278255360
0.045460947 -0.01812828 0.46273121 4278255360
0.045776442 -0.018197168 0.46311295 4278255360
0.046091944 -0.018266054 0.46349466 4278255360
0.046407439 -0.018334942 0.4638764 4278255360
0.046722934 -0.01840383 0.4642581 4278255360
0.047038436 -0.018472716 0.46463984 4278255360
0.047353931 -0.018541604 0.46502158 4278255360
0.047669429 -0.018610492 0.46540329 4278255360
0.047984928 -0.01867938 0.46578503 4278255360
0.048300423 -0.018748268 0.46616676 4278255360
0.048615921 -0.018817157 0.46654847 4278255360
0.04893142 -0.018886043 0.46693021 4278255360
0.049246915 -0.018954931 0.46731195 4278255360
0.049562417 -0.019023819 0.46769366 4278255360
0.049877912 -0.019092707 0.46807539 4278255360
0.05019341 -0.019161593 0.4684571 4278255360
0.050508909 -0.019230481 0.46883884 4278255360
0.050824404 -0.019299369 0.46922058 4278255360
0.051139902 -0.019368257 0.46960229 4278255360
0.051455401 -0.019437145 0.46998402 4278255360
0.051770896 -0.019506034 0.47036576 4278255360
0.052086398 -0.019574922 0.47074747 4278255360
0.052401893 -0.019643808 0.47112921 4278255360
0.052717388 -0.019712696 0.47151095 4278255360
0.05303289 -0.019781584 0.47189265 4278255360
0.053348385 -0.019850472 0.47227439 4278255360
0.053663883 -0.019919358 0.47265613 4278255360
0.053979382 -0.019988246 0.47303784 4278255360
0.054294877 -0.020057134 0.47341958 4278255360
0.022745119 -0.013168365 0.43524683 4278190335
0.022686571 -0.013324452 0.43571821 4278190335
0.02262802 -0.013480539 0.43618959 4278190335
0.022569472 -0.013636625 0.43666101 4278190335
0.022510922 -0.013792713 0.43713239 4278190335
0.022452373 -0.0139488 0.43760377 4278190335
0.022393825 -0.014104887 0.43807516 4278190335
0.022335274 -0.014260974 0.43854657 4278190335
0.022276726 -0.014417061 0.43901795 4278190335
0.022218175 -0.014573148 0.43948933 4278190335
0.022159627 -0.014729234 0.43996072 4278190335
0.022101078 -0.014885321 0.44043213 4278190335
0.022042528 -0.015041409 0.44090351 4278190335
0.021983979 -0.015197496 0.4413749 4278190335
0.021925431 -0.015353583 0.44184628 4278190335
0.02186688 -0.01550967 0.44231769 4278190335
0.021808332 -0.015665757 0.44278908 4278190335
0.021749781 -0.015821844 0.44326046 4278190335
0.021691233 -0.01597793 0.44373184 4278190335
0.021632684 -0.016134018 0.44420326 4278190335
0.021574134 -0.016290104 0.44467464 4278190335
0.021515585 -0.016446192 0.44514602 4278190335
0.021457035 -0.016602278 0.44561741 4278190335
0.021398487 -0.016758366 0.44608882 4278190335
0.021339938 -0.016914453 0.4465602 4278190335
0.021281388 -0.017070539 0.44703159 4278190335
0.021222839 -0.017226627 0.44750297 4278190335
0.021164289 -0.017382715 0.44797438 4278190335
0.02110574 -0.017538801 0.44844577 4278190335
0.021047192 -0.017694887 0.44891715 4278190335
0.020988641 -0.017850975 0.44938853 4278190335
0.020930093 -0.018007062 0.44985992 4278190335
0.020871544 -0.018163148 0.45033133 4278190335
0.020812994 -0.018319236 0.45080271 4278190335
0.020754445 -0.018475324 0.4512741 4278190335
0.020695895 -0.01863141 0.45174548 4278190335
0.020637346 -0.018787498 0.45221689 4278190335
0.020578798 -0.018943584 0.45268828 4278190335
0.020520248 -0.019099671 0.45315966 4278190335
0.020461699 -0.019255757 0.45363104 4278190335
0.020403149 -0.019411845 0.45410246 4278190335
0.0203446 -0.019567931 0.45457384 4278190335
0.020286052 -0.019724019 0.45504522 4278190335
0.020227501 -0.019880105 0.45551661 4278190335
0.020168953 -0.020036193 0.45598802 4278190335
0.020110402 -0.02019228 0.4564594 4278190335
0.020051854 -0.020348366 0.45693079 4278190335
0.019993305 -0.020504454 0.45740217 4278190335
0.019934755 -0.02066054 0.45787358 4278190335
0.019876206 -0.020816628 0.45834497 4278190335
0.019817658 -0.020972714 0.45881635 4278190335
0.019759107 -0.021128802 0.45928773 4278190335
0.019700559 -0.021284889 0.45975912 4278190335
0.019642008 -0.021440975 0.46023053 4278190335
0.01958346 -0.021597063 0.46070191 4278190335
0.01952491 -0.021753151 0.4611733 4278190335
0.019466361 -0.021909237 0.46164468 4278190335
0.019407813 -0.022065323 0.46211609 4278190335
0.019349262 -0.022221411 0.46258748 4278190335
0.019290714 -0.022377498 0.46305886 4278190335
0.019232165 -0.022533584 0.46353024 4278190335
0.019173615 -0.022689672 0.46400166 4278190335
0.019115066 -0.02284576 0.46447304 4278190335
0.019056518 -0.023001846 0.46494442 4278190335
0.018997967 -0.023157932 0.46541581 4278190335
0.018939419 -0.02331402 0.46588722 4278190335
0.018880868 -0.023470107 0.4663586 4278190335
0.01882232 -0.023626193 0.46682999 4278190335
0.018763769 -0.023782281 0.46730137 4278190335
0.018705221 -0.023938369 0.46777278 4278190335
0.018646672 -0.024094455 0.46824417 4278190335
0.018588122 -0.024250541 0.46871555 4278190335
0.018529573 -0.024406631 0.46918693 4278190335
0.018471025 -0.024562716 0.46965832 4278190335
0.018412475 -0.024718802 0.47012973 4278190335
0.018353926 -0.02487489 0.47060111 4278190335
0.018295377 -0.025030976 0.47107249 4278190335
0.018236827 -0.025187064 0.47154391 4278190335
0.018178279 -0.02534315 0.47201529 4278190335
0.018119728 -0.025499238 0.47248667 4278190335
0.01806118 -0.025655326 0.47295806 4278190335
0.018002629 -0.025811411 0.47342944 4278190335
0.017944081 -0.025967497 0.47390085 4278190335
0.017885532 -0.026123585 0.47437224 4278190335
0.017826982 -0.026279673 0.47484362 4278190335
0.017768433 -0.026435759 0.47531503 4278190335
0.017709885 -0.026591847 0.47578642 4278190335
0.017651334 -0.026747935 0.4762578 4278190335
0.017592786 -0.02690402 0.47672918 4278190335
0.017534235 -0.027060106 0.47720057 4278190335
0.017475687 -0.027216194 0.47767198 4278190335
0.017417137 -0.027372282 0.47814336 4278190335
0.017358588 -0.027528368 0.47861475 4278190335
0.01730004 -0.027684456 0.47908613 4278190335
0.017241489 -0.027840544 0.47955751 4278190335
0.017182941 -0.027996629 0.48002893 4278190335
0.017124392 -0.028152715 0.48050031 4278190335
0.017065842 -0.028308805 0.48097169 4278190335
0.017007293 -0.028464891 0.48144311 4278190335
0.016948743 -0.028620977 0.48191449 4278190335
0.016890194 -0.028777065 0.48238587 4278190335
0.022745119 -0.013168365 0.43524683 4294967295
0.023096414 -0.012231843 0.4324185 4294967295
0.023447711 -0.01129532 0.42959014 4294967295
0.023799006 -0.010358799 0.42676181 4294967295
0.024150303 -0.0094222762 0.42393345 4294967295
0.024501598 -0.008485755 0.42110512 4294967295
0.024852892 -0.0075492328 0.41827679 4294967295
0.025204189 -0.0066127107 0.41544843 4294967295
0.025555484 -0.0056761885 0.4126201 4294967295
0.025906781 -0.0047396664 0.40979174 4294967295
0.026258076 -0.0038031442 0.40696341 4294967295
0.02660937 -0.0028666221 0.40413505 4294967295
0.026960667 -0.0019301008 0.40130672 4294967295
0.027311962 -0.00099357869 0.39847839 4294967295
0.027663257 -5.7056546e-05 0.39565003 4294967295
0.028014554 0.00087946653 0.3928217 4294967295
0.028365849 0.0018159878 0.38999337 4294967295
0.028717145 0.0027525108 0.38716501 4294967295
0.02906844 0.003689032 0.38433665 4294967295
0.029419735 0.0046255533 0.38150832 4294967295
0.029771032 0.0055620763 0.37867999 4294967295
0.030122327 0.0064985976 0.37585163 4294967295
0.030473623 0.0074351206 0.3730233 4294967295
0.030824918 0.0083716419 0.37019497 4294967295
0.031176213 0.0093081631 0.36736661 4294967295
0.031527512 0.010244686 0.36453828 4294967295
0.031878807 0.011181207 0.36170995 4294967295
0.032230102 0.01211773 0.35888159 4294967295
0.032581396 0.013054252 0.35605323 4294967295
0.032932691 0.013990773 0.3532249 4294967295
0.033283986 0.014927298 0.35039657 4294967295
0.033635285 0.015863819 0.34756821 4294967295
0.03398658 0.01680034 0.34473988 4294967295
0.034337875 0.017736863 0.34191152 4294967295
0.034689169 0.018673386 0.33908319 4294967295
0.035040468 0.019609906 0.33625486 4294967295
0.035391763 0.020546429 0.33342651 4294967295
0.035743058 0.021482952 0.33059818 4294967295
0.036094353 0.022419471 0.32776982 4294967295
0.036445647 0.023355994 0.32494149 4294967295
0.036796942 0.024292517 0.32211316 4294967295
0.037148241 0.025229037 0.3192848 4294967295
0.037499536 0.02616556 0.31645647 4294967295
0.037850831 0.027102083 0.31362811 4294967295
0.038202126 0.028038606 0.31079978 4294967295
0.038553424 0.028975125 0.30797142 4294967295
0.038904719 0.029911648 0.30514309 4294967295
0.039256014 0.030848172 0.30231476 4294967295
0.039607309 0.031784691 0.2994864 4294967295
0.039958604 0.032721218 0.29665807 4294967295
0.040309899 0.033657737 0.29382974 4294967295
0.040661193 0.034594256 0.29100138 4294967295
0.041012488 0.03553078 0.28817305 4294967295
0.041363787 0.036467299 0.28534472 4294967295
0.041715086 0.037403826 0.28251636 4294967295
0.04206638 0.038340349 0.279688 4294967295
0.042417675 0.039276868 0.27685967 4294967295
0.04276897 0.040213391 0.27403134 4294967295
0.043120265 0.041149911 0.27120298 4294967295
0.04347156 0.042086434 0.26837465 4294967295
0.043822855 0.04302296 0.26554629 4294967295
0.044174153 0.04395948 0.26271796 4294967295
0.044525448 0.044896003 0.2598896 4294967295
0.044876743 0.045832522 0.25706127 4294967295
0.045228038 0.046769045 0.25423294 4294967295
0.045579337 0.047705565 0.25140458 4294967295
0.045930631 0.048642091 0.24857624 4294967295
0.046281926 0.049578615 0.24574791 4294967295
0.046633221 0.050515138 0.24291956 4294967295
0.046984516 0.051451653 0.24009122 4294967295
0.047335811 0.052388176 0.23726289 4294967295
0.047687106 0.053324699 0.23443455 4294967295
0.048038404 0.054261222 0.23160619 4294967295
0.048389703 0.055197746 0.22877786 4294967295
0.048740998 0.056134269 0.22594951 4294967295
0.049092293 0.057070792 0.22312117 4294967295
0.049443588 0.058007307 0.22029284 4294967295
0.049794883 0.05894383 0.21746449 4294967295
0.050146177 0.059880354 0.21463616 4294967295
0.050497472 0.060816877 0.2118078 4294967295
0.050848767 0.0617534 0.20897946 4294967295
0.051200062 0.062689923 0.20615113 4294967295
0.051551361 0.063626438 0.20332278 4294967295
0.051902656 0.064562961 0.20049444 4294967295
0.05225395 0.065499485 0.19766611 4294967295
0.052605249 0.066436008 0.19483775 4294967295
0.052956544 0.067372531 0.1920094 4294967295
0.053307839 0.068309054 0.18918107 4294967295
0.053659134 0.069245577 0.18635273 4294967295
0.054010428 0.070182092 0.1835244 4294967295
0.054361723 0.071118616 0.18069604 4294967295
0.054713018 0.072055146 0.17786768 4294967295
0.055064321 0.072991662 0.17503935 4294967295
0.055415615 0.073928185 0.17221102 4294967295
0.05576691 0.074864708 0.16938266 4294967295
0.056118205 0.075801231 0.16655433 4294967295
0.0564695 0.076737747 0.163726 4294967295
0.056820795 0.077674277 0.16089764 4294967295
0.05717209 0.0786108 0.15806931 4294967295
0.057523385 0.079547316 0.15524095 4294967295
0.05787468 0.080483839 0.15241262 4294967295
