# .PCD v0.7 - Point Cloud Data file format
VERSION 0.7
FIELDS x y z rgb
SIZE 4 4 4 4
TYPE F F F U
COUNT 1 1 1 1
WIDTH 657
HEIGHT 1
VIEWPOINT 0 0 0 1 0 0 0
POINTS 657
DATA ascii
0.085707098 -0.040256202 0.43900001 4281033542
0.088760577 -0.040347904 0.44000003 4280770883
0.080185853 -0.038918301 0.44000003 4280968260
0.087331459 -0.038918301 0.44000003 4279261228
0.084473215 -0.037488695 0.44000003 4278933031
0.085902333 -0.037488695 0.44000003 4278604066
0.087331459 -0.037488695 0.44000003 4278933031
0.074346021 -0.033921152 0.43100002 4278998824
0.075921655 -0.033999857 0.43200001 4278998824
0.077324793 -0.033999857 0.43200001 4278735652
0.078910165 -0.034078561 0.43300003 4278669859
0.081911676 -0.034157261 0.43400002 4278734882
0.083321303 -0.034157261 0.43400002 4278931748
0.084730938 -0.034157261 0.43400002 4278800162
0.086339056 -0.034235965 0.43500003 4279062820
0.068108447 -0.032218974 0.42700002 4278209563
0.069658101 -0.032294426 0.42800003 4278671140
0.071214244 -0.032369882 0.42900002 4278736933
0.072776876 -0.032445334 0.43000001 4278670370
0.074346021 -0.03252079 0.43100002 4278538271
0.075921655 -0.032596242 0.43200001 4278800673
0.077324793 -0.032596242 0.43200001 4278603294
0.078910165 -0.032671697 0.43300003 4279194918
0.080316551 -0.032671697 0.43300003 4278203924
0.081911676 -0.032747153 0.43400002 4278202897
0.083321303 -0.032747153 0.43400002 4278202895
0.084926173 -0.032822609 0.43500003 4279323428
0.086339056 -0.032822609 0.43500003 4279389732
0.047779635 -0.030253965 0.41900003 4286356617
0.049257826 -0.030326169 0.42000002 4286357130
0.050621986 -0.030326169 0.42000002 4283069793
0.052109923 -0.030398376 0.42100003 4281821776
0.053477332 -0.030398376 0.42100003 4280640067
0.054975014 -0.03047058 0.42200002 4279917627
0.056345671 -0.03047058 0.42200002 4279524918
0.057716325 -0.03047058 0.42200002 4279130673
0.059086982 -0.03047058 0.42200002 4279459636
0.060457643 -0.03047058 0.42200002 4279394867
0.061974812 -0.030542785 0.42300001 4279197488
0.063348711 -0.030542785 0.42300001 4278868521
0.066565298 -0.030759402 0.42600003 4278933542
0.068108447 -0.030831605 0.42700002 4278604577
0.069658101 -0.030903812 0.42800003 4278538271
0.071214244 -0.030976016 0.42900002 4278604064
0.072607629 -0.030976016 0.42900002 4278406685
0.074346021 -0.031120427 0.43100002 4278931232
0.075921655 -0.031192631 0.43200001 4278205970
0.077324793 -0.031192631 0.43200001 4278199553
0.078910165 -0.031264838 0.43300003 4279256097
0.080502041 -0.031337041 0.43400002 4279388453
0.081911676 -0.031337041 0.43400002 4279125281
0.083321303 -0.031337041 0.43400002 4278204176
0.084926173 -0.031409249 0.43500003 4279520293
0.086339056 -0.031409249 0.43500003 4279323428
0.040192727 -0.028340943 0.41100001 4286224777
0.0416287 -0.0284099 0.41200003 4286356363
0.043071162 -0.028478855 0.41300002 4286290570
0.044627659 -0.028616767 0.41500002 4286948500
0.046086367 -0.028685723 0.41600001 4284910452
0.0476656 -0.028823635 0.41800001 4281361221
0.049140546 -0.028892592 0.41900003 4280968260
0.050501458 -0.028892592 0.41900003 4279853631
0.051986147 -0.028961547 0.42000002 4279393591
0.053350307 -0.028961547 0.42000002 4279130671
0.054714467 -0.028961547 0.42000002 4279131441
0.056212153 -0.029030504 0.42100003 4279000109
0.057579558 -0.029030504 0.42100003 4278934316
0.058946967 -0.029030504 0.42100003 4278276384
0.060457643 -0.029099459 0.42200002 4278671142
0.0618283 -0.029099459 0.42200002 4278539556
0.063348711 -0.029168414 0.42300001 4278407200
0.064875633 -0.029237373 0.42400002 4278998822
0.066409037 -0.029306328 0.42500001 4278669087
0.067948945 -0.029375285 0.42600003 4278603294
0.069495343 -0.02944424 0.42700002 4278669087
0.072607629 -0.029582152 0.42900002 4278201603
0.074346021 -0.029720064 0.43100002 4278664214
0.075921655 -0.029789019 0.43200001 4279717672
0.077324793 -0.029789019 0.43200001 4279192353
0.080502041 -0.029926931 0.43400002 4278402324
0.081911676 -0.029926931 0.43400002 4279125795
0.08351329 -0.029995888 0.43500003 4279323428
0.084926173 -0.029995888 0.43500003 4279455014
0.086339056 -0.029995888 0.43500003 4280045613
0.036975093 -0.026611321 0.40500003 4286290572
0.038479622 -0.026742734 0.40700001 4286290570
0.039997142 -0.026874147 0.40900001 4286422156
0.041527659 -0.027005563 0.41100001 4285897349
0.042966876 -0.027071269 0.41200003 4282674517
0.044412587 -0.027136976 0.41300002 4281230919
0.045864798 -0.027202684 0.41400003 4280574526
0.047437534 -0.027334096 0.41600001 4279524916
0.048905987 -0.027399804 0.41700003 4278801706
0.05038093 -0.027465511 0.41800001 4278868783
0.051738594 -0.027465511 0.41800001 4279066162
0.053223282 -0.027531218 0.41900003 4278803244
0.054584198 -0.027531218 0.41900003 4278671658
0.055945113 -0.027531218 0.41900003 4278737449
0.057442788 -0.027596924 0.42000002 4278407968
0.058806948 -0.027596924 0.42000002 4278342175
0.06031438 -0.027662633 0.42100003 4278276382
0.061681788 -0.027662633 0.42100003 4278538784
0.063198954 -0.02772834 0.42200002 4278538271
0.06472262 -0.027794044 0.42300001 4278800160
0.066409037 -0.02792546 0.42500001 4279194404
0.067948945 -0.027991166 0.42600003 4278203918
0.069495343 -0.028056873 0.42700002 4278203665
0.071048245 -0.028122582 0.42800003 4280045613
0.074346021 -0.028319702 0.43100002 4279256351
0.075921655 -0.028385408 0.43200001 4279190558
0.077503785 -0.028451117 0.43300003 4278202890
0.078910165 -0.028451117 0.43300003 4278730005
0.080502041 -0.028516822 0.43400002 4279125281
0.081911676 -0.028516822 0.43400002 4278203665
0.08351329 -0.02858253 0.43500003 4279454760
0.084926173 -0.02858253 0.43500003 4279586600
0.027081402 -0.024670856 0.39500001 4278801960
0.028364362 -0.024670856 0.39500001 4279854648
0.02972238 -0.024733314 0.39600003 4280378176
0.03100859 -0.024733314 0.39600003 4281428813
0.032376349 -0.024795771 0.39700001 4285176452
0.033750609 -0.024858231 0.39800003 4286359958
0.035219409 -0.024983143 0.40000001 4286425238
0.036792498 -0.02517052 0.40300003 4286029710
0.038290534 -0.025295435 0.40500003 4283005283
0.039801557 -0.025420349 0.40700001 4281230409
0.041224536 -0.025482807 0.40800002 4280639547
0.042758297 -0.025607724 0.41000003 4280377145
0.044197515 -0.025670182 0.41100001 4279260974
0.045643229 -0.02573264 0.41200003 4279328304
0.047209471 -0.025857557 0.41400003 4278803244
0.048671424 -0.025920013 0.41500002 4278342693
0.05013987 -0.025982469 0.41600001 4278803244
0.051491037 -0.025982469 0.41600001 4278342693
0.052969232 -0.026044929 0.41700003 4278342691
0.054453921 -0.026107386 0.41800001 4278276896
0.055811588 -0.026107386 0.41800001 4278407198
0.057306021 -0.026169846 0.41900003 4278933029
0.058666933 -0.026169846 0.41900003 4278472482
0.060171112 -0.026232302 0.42000002 4278866470
0.061681788 -0.02629476 0.42100003 4279523371
0.063198954 -0.026357219 0.42200002 4278270738
0.06472262 -0.026419675 0.42300001 4278200322
0.066252783 -0.026482133 0.42400002 4279388707
0.067948945 -0.02660705 0.42600003 4279257121
0.069495343 -0.026669508 0.42700002 4279257121
0.071048245 -0.026731966 0.42800003 4278202380
0.072776876 -0.026856881 0.43000001 4279190304
0.074346021 -0.026919339 0.43100002 4278202641
0.075921655 -0.026981795 0.43200001 4278861080
0.077503785 -0.027044255 0.43300003 4279058459
0.078910165 -0.027044255 0.43300003 4279782182
0.080502041 -0.027106712 0.43400002 4279256097
0.082100414 -0.027169172 0.43500003 4279125281
0.08351329 -0.027169172 0.43500003 4279717418
0.084926173 -0.027169172 0.43500003 4279388453
0.027081402 -0.02338746 0.39500001 4278800164
0.028436171 -0.02344667 0.39600003 4278735654
0.02972238 -0.02344667 0.39600003 4278999339
0.03100859 -0.02344667 0.39600003 4279525429
0.032376349 -0.023505878 0.39700001 4279393078
0.033750609 -0.023565087 0.39800003 4279194931
0.035131361 -0.023624295 0.39900002 4279917625
0.036701199 -0.023801921 0.40200001 4280181051
0.038101446 -0.023861131 0.40300003 4278734630
0.039605975 -0.023979548 0.40500003 4279327539
0.041022457 -0.024038756 0.40600002 4279328304
0.042549722 -0.024157174 0.40800002 4279262509
0.043982439 -0.024216382 0.40900001 4279131693
0.04542166 -0.024275592 0.41000003 4278934314
0.046867371 -0.024334799 0.41100001 4278605863
0.048436861 -0.024453219 0.41300002 4278671656
0.049898818 -0.024512429 0.41400003 4278539556
0.051243488 -0.024512429 0.41400003 4278604579
0.052715182 -0.024571637 0.41500002 4278801958
0.054193377 -0.024630845 0.41600001 4278801956
0.05567807 -0.024690054 0.41700003 4279063845
0.057169247 -0.024749262 0.41800001 4278734882
0.058526915 -0.024749262 0.41800001 4279587629
0.060027849 -0.024808472 0.41900003 4278202123
0.061535276 -0.02486768 0.42000002 4279716387
0.063049197 -0.02492689 0.42100003 4280571696
0.064569615 -0.024986098 0.42200002 4279913766
0.067789435 -0.025163723 0.42500001 4278664214
0.072776876 -0.025459766 0.43000001 4278203152
0.077503785 -0.025637394 0.43300003 4278400275
0.079092406 -0.025696602 0.43400002 4278333712
0.080502041 -0.025696602 0.43400002 4280176688
0.082100414 -0.025755811 0.43500003 4279585064
0.027149964 -0.022160025 0.39600003 4278797597
0.028436171 -0.022160025 0.39600003 4278404120
0.02972238 -0.022160025 0.39600003 4278669859
0.03100859 -0.022160025 0.39600003 4278604066
0.032376349 -0.022215985 0.39700001 4281893977
0.033750609 -0.022271946 0.39800003 4283340658
0.035131361 -0.022327904 0.39900002 4279326769
0.036609907 -0.022439824 0.40100002 4279524916
0.038006898 -0.022495782 0.40200001 4279263277
0.039508179 -0.022607703 0.40400001 4279526965
0.040921416 -0.022663662 0.40500003 4278803242
0.042341143 -0.022719622 0.40600002 4278605863
0.043767367 -0.022775581 0.40700001 4278671654
0.045200091 -0.022831541 0.40800002 4278276896
0.046753339 -0.022943461 0.41000003 4278670370
0.048202302 -0.022999419 0.41100001 4278933542
0.049657758 -0.02305538 0.41200003 4279063845
0.051119711 -0.02311134 0.41300002 4279326504
0.052588161 -0.023167299 0.41400003 4279391783
0.054063104 -0.023223259 0.41500002 4279654185
0.055544548 -0.023279218 0.41600001 4278729494
0.057032481 -0.023335177 0.41700003 4278266636
0.058526915 -0.023391137 0.41800001 4278527246
0.060027849 -0.023447098 0.41900003 4278988310
0.061535276 -0.023503058 0.42000002 4280045865
0.063049197 -0.023559017 0.42100003 4278465039
0.066252783 -0.023726895 0.42400002 4280505905
0.067789435 -0.023782855 0.42500001 4279321631
0.069495343 -0.023894774 0.42700002 4278729494
0.071048245 -0.023950735 0.42800003 4280111406
0.074346021 -0.024118613 0.43100002 4278201099
0.075921655 -0.024174573 0.43200001 4279321379
0.077503785 -0.024230532 0.43300003 4280176688
0.027149964 -0.020873381 0.39600003 4278928156
0.028436171 -0.020873381 0.39600003 4278863390
0.02972238 -0.020873381 0.39600003 4278864671
0.03100859 -0.020873381 0.39600003 4278865441
0.032376349 -0.02092609 0.39700001 4278669859
0.033750609 -0.020978801 0.39800003 4279328304
0.035131361 -0.021031512 0.39900002 4278934316
0.036518607 -0.021084221 0.40000001 4279132205
0.037912354 -0.021136932 0.40100002 4278540581
0.039312594 -0.021189643 0.40200001 4278277663
0.040820375 -0.021295063 0.40400001 4278210329
0.042236857 -0.021347774 0.40500003 4278671394
0.043659832 -0.021400485 0.40600002 4278670370
0.045089304 -0.021453194 0.40700001 4279065128
0.046525273 -0.021505907 0.40800002 4278404118
0.047967739 -0.021558616 0.40900001 4278995744
0.049416702 -0.021611327 0.41000003 4280048943
0.050995935 -0.021716749 0.41200003 4279454498
0.052461132 -0.021769458 0.41300002 4278264587
0.053932834 -0.021822169 0.41400003 4278658064
0.05541103 -0.02187488 0.41500002 4278920211
0.056895711 -0.02192759 0.41600001 4278986004
0.0583869 -0.021980301 0.41700003 4280105510
0.059884582 -0.022033012 0.41800001 4281028665
0.062899433 -0.022138434 0.42000002 4278923289
0.066096522 -0.022296565 0.42300001 4279189791
0.067789435 -0.022401985 0.42500001 4280111147
0.069495343 -0.022507407 0.42700002 4278795287
0.071048245 -0.022560118 0.42800003 4278728470
0.077503785 -0.022823671 0.43300003 4281227841
0.027149964 -0.019586736 0.39600003 4279190558
0.028436171 -0.019586736 0.39600003 4278993949
0.02972238 -0.019586736 0.39600003 4278797597
0.031086894 -0.019636197 0.39700001 4278929953
0.032376349 -0.019636197 0.39700001 4279062820
0.033750609 -0.01968566 0.39800003 4279063334
0.035131361 -0.01973512 0.39900002 4278735650
0.036518607 -0.019784581 0.40000001 4278538784
0.037912354 -0.019834043 0.40100002 4278671140
0.039312594 -0.019883504 0.40200001 4278670370
0.040719334 -0.019932967 0.40300003 4278933283
0.042132568 -0.019982427 0.40400001 4278867490
0.043552294 -0.020031888 0.40500003 4278537755
0.044978522 -0.020081351 0.40600002 4280641850
0.046411239 -0.020130811 0.40700001 4278928670
0.049416702 -0.020279195 0.41000003 4278199041
0.050872158 -0.020328658 0.41100001 4278920720
0.052334111 -0.020378118 0.41200003 4279116820
0.053802561 -0.020427579 0.41300002 4280828208
0.055277511 -0.020477042 0.41400003 4281223993
0.056895711 -0.020575963 0.41600001 4279842338
0.0583869 -0.020625426 0.41700003 4278658834
0.059884582 -0.020674886 0.41800001 4281358141
0.061388765 -0.020724349 0.41900003 4278331665
0.062899433 -0.020773809 0.42000002 4280106793
0.064569615 -0.020872733 0.42200002 4280570163
0.066096522 -0.020922193 0.42300001 4278202128
0.067789435 -0.021021117 0.42500001 4280504883
0.072776876 -0.021268424 0.43000001 4280176686
0.025929065 -0.018346304 0.39700001 4279909916
0.027218524 -0.018346304 0.39700001 4279124763
0.02850798 -0.018346304 0.39700001 4279125533
0.029797435 -0.018346304 0.39700001 4278797595
0.031086894 -0.018346304 0.39700001 4279061539
0.032376349 -0.018346304 0.39700001 4279260199
0.033750609 -0.018392516 0.39800003 4278734369
0.035131361 -0.018438729 0.39900002 4279129638
0.036518607 -0.018484941 0.40000001 4279129638
0.037912354 -0.018531153 0.40100002 4279063845
0.039312594 -0.018577365 0.40200001 4278998052
0.040719334 -0.018623577 0.40300003 4279392551
0.042132568 -0.01866979 0.40400001 4279326758
0.043552294 -0.018716002 0.40500003 4279391783
0.044978522 -0.018762214 0.40600002 4279654187
0.046411239 -0.018808426 0.40700001 4278201353
0.04929617 -0.018900851 0.40900001 4278987281
0.050748382 -0.018947065 0.41000003 4279446805
0.052334111 -0.019039489 0.41200003 4280762926
0.053802561 -0.019085702 0.41300002 4280039717
0.055277511 -0.019131914 0.41400003 4279250201
0.056758944 -0.019178126 0.41500002 4279843106
0.0583869 -0.01927055 0.41700003 4278265357
0.069332592 -0.019686462 0.42600003 4280111154
0.025929065 -0.017056409 0.39700001 4279713820
0.027218524 -0.017056409 0.39700001 4278928154
0.02850798 -0.017056409 0.39700001 4278862875
0.029797435 -0.017056409 0.39700001 4278797595
0.031165199 -0.017099373 0.39800003 4279127330
0.032457903 -0.017099373 0.39800003 4279193636
0.033750609 -0.017099373 0.39800003 4278997027
0.035131361 -0.017142337 0.39900002 4279260711
0.036518607 -0.017185299 0.40000001 4279523883
0.037912354 -0.017228262 0.40100002 4279326758
0.039312594 -0.017271226 0.40200001 4278931746
0.040719334 -0.01731419 0.40300003 4278932000
0.042132568 -0.017357152 0.40400001 4279392551
0.043552294 -0.017400118 0.40500003 4279523623
0.044978522 -0.01744308 0.40600002 4278929181
0.046411239 -0.017486041 0.40700001 4280835129
0.04785046 -0.017529005 0.40800002 4279058205
0.04929617 -0.017571969 0.40900001 4280436008
0.050748382 -0.017614933 0.41000003 4280830766
0.052207083 -0.017657895 0.41100001 4279513625
0.053672288 -0.01770086 0.41200003 4278723341
0.055277511 -0.017786786 0.41400003 4279248406
0.056758944 -0.017829748 0.41500002 4279051025
0.065940268 -0.018130491 0.42200002 4279914799
0.024701675 -0.015806232 0.39800003 4279974426
0.025994379 -0.015806232 0.39800003 4279386652
0.027287085 -0.015806232 0.39800003 4278797084
0.028579788 -0.015806232 0.39800003 4278797080
0.029872492 -0.015806232 0.39800003 4278863640
0.031165199 -0.015806232 0.39800003 4279259168
0.032457903 -0.015806232 0.39800003 4279588392
0.033835407 -0.015845945 0.39900002 4279654955
0.035219409 -0.015885659 0.40000001 4279457576
0.036609907 -0.015925374 0.40100002 4279457576
0.038006898 -0.015965087 0.40200001 4279392551
0.03941039 -0.016004803 0.40300003 4279129379
0.040820375 -0.016044516 0.40400001 4279392551
0.042132568 -0.016044516 0.40400001 4279260711
0.043552294 -0.016084231 0.40500003 4279457576
0.044978522 -0.016123945 0.40600002 4278204431
0.04785046 -0.016203372 0.40800002 4278201356
0.04929617 -0.016243087 0.40900001 4279381525
0.050748382 -0.016282801 0.41000003 4279118099
0.052207083 -0.016322514 0.41100001 4278788623
0.053672288 -0.016362229 0.41200003 4278722832
0.055143986 -0.016401943 0.41300002 4280106795
0.056758944 -0.016481372 0.41500002 4281227069
0.024701675 -0.014513087 0.39800003 4279779100
0.025994379 -0.014513087 0.39800003 4279190043
0.027287085 -0.014513087 0.39800003 4278928154
0.028579788 -0.014513087 0.39800003 4278862875
0.029872492 -0.014513087 0.39800003 4278930203
0.031243503 -0.014549552 0.39900002 4279456547
0.032539453 -0.014549552 0.39900002 4279194658
0.03392021 -0.014586017 0.40000001 4279457830
0.035219409 -0.014586017 0.40000001 4279721002
0.036609907 -0.014622482 0.40100002 4279457830
0.038006898 -0.014658947 0.40200001 4279457830
0.03941039 -0.014695412 0.40300003 4279325990
0.040820375 -0.014731877 0.40400001 4279457576
0.042236857 -0.014768342 0.40500003 4279457576
0.043659832 -0.014804807 0.40600002 4279522599
0.044978522 -0.014804807 0.40600002 4278203146
0.04785046 -0.014877737 0.40800002 4278595089
0.04929617 -0.014914203 0.40900001 4278854418
0.050624602 -0.014914203 0.40900001 4279447582
0.024763739 -0.013253161 0.39900002 4279648541
0.026059691 -0.013253161 0.39900002 4279190043
0.027355645 -0.013253161 0.39900002 4278993179
0.028651597 -0.013253161 0.39900002 4278928154
0.029947549 -0.013253161 0.39900002 4279192353
0.031243503 -0.013253161 0.39900002 4279390500
0.032621007 -0.013286376 0.40000001 4278865693
0.03392021 -0.013286376 0.40000001 4279523623
0.035307456 -0.013319593 0.40100002 4279523623
0.036701199 -0.013352809 0.40200001 4279654955
0.038101446 -0.013386025 0.40300003 4279457576
0.039508179 -0.01341924 0.40400001 4279654955
0.040921416 -0.013452456 0.40500003 4279786541
0.042236857 -0.013452456 0.40500003 4279654955
0.043659832 -0.013485672 0.40600002 4279256867
0.044978522 -0.013485672 0.40600002 4279320609
0.024825802 -0.011986735 0.40000001 4279516955
0.026125003 -0.011986735 0.40000001 4279386652
0.027424205 -0.011986735 0.40000001 4279124765
0.028723404 -0.011986735 0.40000001 4278928670
0.030022604 -0.011986735 0.40000001 4279258146
0.031321805 -0.011986735 0.40000001 4279522088
0.032621007 -0.011986735 0.40000001 4279127843
0.034005009 -0.012016703 0.40100002 4279523371
0.035395507 -0.01204667 0.40200001 4279391785
0.036792498 -0.012076637 0.40300003 4279523371
0.03819599 -0.012106603 0.40400001 4279720748
0.039508179 -0.012106603 0.40400001 4279654955
0.040921416 -0.01213657 0.40500003 4279654955
0.042341143 -0.012166537 0.40600002 4279523369
0.043659832 -0.012166537 0.40600002 4279389221
0.045089304 -0.012196504 0.40700001 4279388453
0.051953036 -0.012256437 0.40900001 4281096257
0.024825802 -0.010687095 0.40000001 4279517725
0.026125003 -0.010687095 0.40000001 4279321631
0.027424205 -0.010687095 0.40000001 4278862363
0.028723404 -0.010687095 0.40000001 4278994463
0.030022604 -0.010687095 0.40000001 4279258918
0.031321805 -0.010687095 0.40000001 4279391017
0.032702558 -0.010713813 0.40100002 4279720752
0.034005009 -0.010713813 0.40100002 4280247094
0.035395507 -0.010740531 0.40200001 4279654955
0.036792498 -0.010767248 0.40300003 4279654955
0.03819599 -0.010793966 0.40400001 4279523369
0.039605975 -0.010820684 0.40500003 4279720748
0.040921416 -0.010820684 0.40500003 4279654955
0.042341143 -0.010847402 0.40600002 4279852336
0.020980522 -0.0094109224 0.40100002 4280236067
0.02358542 -0.0094109224 0.40100002 4279975711
0.024887869 -0.0094109224 0.40100002 4279321631
0.026190316 -0.0094109224 0.40100002 4279190558
0.027492767 -0.0094109224 0.40100002 4279059742
0.028795214 -0.0094109224 0.40100002 4279323428
0.030097662 -0.0094109224 0.40100002 4279587113
0.031400111 -0.0094109224 0.40100002 4279192355
0.032702558 -0.0094109224 0.40100002 4280115510
0.034089811 -0.0094343908 0.40200001 4279523373
0.035395507 -0.0094343908 0.40200001 4279457576
0.036792498 -0.0094578601 0.40300003 4279523369
0.03819599 -0.0094813285 0.40400001 4279654955
0.039605975 -0.0095047979 0.40500003 4279720750
0.040921416 -0.0095047979 0.40500003 4279918131
0.042341143 -0.0095282663 0.40600002 4279983154
0.024887869 -0.0081080329 0.40100002 4279320096
0.026190316 -0.0081080329 0.40100002 4279255584
0.027492767 -0.0081080329 0.40100002 4278928416
0.028795214 -0.0081080329 0.40100002 4279258148
0.030097662 -0.0081080329 0.40100002 4279850283
0.031400111 -0.0081080329 0.40100002 4279587879
0.032702558 -0.0081080329 0.40100002 4279851564
0.034089811 -0.0081282528 0.40200001 4279786543
0.035395507 -0.0081282528 0.40200001 4279786541
0.036792498 -0.0081484718 0.40300003 4279457576
0.03819599 -0.0081686918 0.40400001 4279983152
0.039605975 -0.0081889117 0.40500003 4279982900
0.027492767 -0.0068051429 0.40100002 4279256869
0.028795214 -0.0068051429 0.40100002 4279389221
0.030097662 -0.0068051429 0.40100002 4279521320
0.031400111 -0.0068051429 0.40100002 4279851055
0.032702558 -0.0068051429 0.40100002 4279917359
0.034089811 -0.0068221129 0.40200001 4279983152
0.035395507 -0.0068221129 0.40200001 4279522601
0.03819599 -0.0068560536 0.40400001 4282149195
0.049844716 -0.021500848 0.41243166 4294967295
0.049844716 -0.021500848 0.41243166 4294901760
0.049844716 -0.021500848 0.41293165 4294901760
0.049844716 -0.021500848 0.41343164 4294901760
0.049844716 -0.021500848 0.41393167 4294901760
0.049844716 -0.021500848 0.41443166 4294901760
0.049844716 -0.021500848 0.41493165 4294901760
0.049844716 -0.021500848 0.41543165 4294901760
0.049844716 -0.021500848 0.41593167 4294901760
0.049844716 -0.021500848 0.41643167 4294901760
0.049844716 -0.021500848 0.41693166 4294901760
0.049844716 -0.021500848 0.41743165 4294901760
0.049844716 -0.021500848 0.41793165 4294901760
0.049844716 -0.021500848 0.41843167 4294901760
0.049844716 -0.021500848 0.41893166 4294901760
0.049844716 -0.021500848 0.41943166 4294901760
0.049844716 -0.021500848 0.41993165 4294901760
0.049844716 -0.021500848 0.42043167 4294901760
0.049844716 -0.021500848 0.42093167 4294901760
0.049844716 -0.021500848 0.42143166 4294901760
0.049844716 -0.021500848 0.42193165 4294901760
0.049844716 -0.021500848 0.42243165 4294901760
0.049844716 -0.021500848 0.42293167 4294901760
0.049844716 -0.021500848 0.42343166 4294901760
0.049844716 -0.021500848 0.42393166 4294901760
0.049844716 -0.021500848 0.42443165 4294901760
0.049844716 -0.021500848 0.42493165 4294901760
0.049844716 -0.021500848 0.42543167 4294901760
0.049844716 -0.021500848 0.42593166 4294901760
0.049844716 -0.021500848 0.42643166 4294901760
0.049844716 -0.021500848 0.42693165 4294901760
0.049844716 -0.021500848 0.42743167 4294901760
0.049844716 -0.021500848 0.42793167 4294901760
0.049844716 -0.021500848 0.42843166 4294901760
0.049844716 -0.021500848 0.42893165 4294901760
0.049844716 -0.021500848 0.42943168 4294901760
0.049844716 -0.021500848 0.42993167 4294901760
0.049844716 -0.021500848 0.43043166 4294901760
0.049844716 -0.021500848 0.43093166 4294901760
0.049844716 -0.021500848 0.43143165 4294901760
0.049844716 -0.021500848 0.43193167 4294901760
0.049844716 -0.021500848 0.43243167 4294901760
0.049844716 -0.021500848 0.43293166 4294901760
0.049844716 -0.021500848 0.43343166 4294901760
0.049844716 -0.021500848 0.43393165 4294901760
0.049844716 -0.021500848 0.43443167 4294901760
0.049844716 -0.021500848 0.43493167 4294901760
0.049844716 -0.021500848 0.43543166 4294901760
0.049844716 -0.021500848 0.43593165 4294901760
0.049844716 -0.021500848 0.43643168 4294901760
0.049844716 -0.021500848 0.43693167 4294901760
0.049844716 -0.021500848 0.43743166 4294901760
0.049844716 -0.021500848 0.43793166 4294901760
0.049844716 -0.021500848 0.43843165 4294901760
0.049844716 -0.021500848 0.43893167 4294901760
0.049844716 -0.021500848 0.43943167 4294901760
0.049844716 -0.021500848 0.43993166 4294901760
0.049844716 -0.021500848 0.44043165 4294901760
0.049844716 -0.021500848 0.44093168 4294901760
0.049844716 -0.021500848 0.44143167 4294901760
0.049844716 -0.021500848 0.44193166 4294901760
0.049844716 -0.021500848 0.44243166 4294901760
0.049844716 -0.021500848 0.44293165 4294901760
0.049844716 -0.021500848 0.44343168 4294901760
0.049844716 -0.021500848 0.44393167 4294901760
0.049844716 -0.021500848 0.44443166 4294901760
0.049844716 -0.021500848 0.44493166 4294901760
0.049844716 -0.021500848 0.44543168 4294901760
0.049844716 -0.021500848 0.44593167 4294901760
0.049844716 -0.021500848 0.44643167 4294901760
0.049844716 -0.021500848 0.44693166 4294901760
0.049844716 -0.021500848 0.44743165 4294901760
0.049844716 -0.021500848 0.44793168 4294901760
0.049844716 -0.021500848 0.44843167 4294901760
0.049844716 -0.021500848 0.44893166 4294901760
0.049844716 -0.021500848 0.44943166 4294901760
0.049844716 -0.021500848 0.44993168 4294901760
0.049844716 -0.021500848 0.45043167 4294901760
0.049844716 -0.021500848 0.45093167 4294901760
0.049844716 -0.021500848 0.45143166 4294901760
0.049844716 -0.021500848 0.45193166 4294901760
0.049844716 -0.021500848 0.45243168 4294901760
0.049844716 -0.021500848 0.45293167 4294901760
0.049844716 -0.021500848 0.45343167 4294901760
0.049844716 -0.021500848 0.45393166 4294901760
0.049844716 -0.021500848 0.45443165 4294901760
0.049844716 -0.021500848 0.45493168 4294901760
0.049844716 -0.021500848 0.45543167 4294901760
0.049844716 -0.021500848 0.45593166 4294901760
0.049844716 -0.021500848 0.45643166 4294901760
0.049844716 -0.021500848 0.45693165 4294901760
0.049844716 -0.021500848 0.45743167 4294901760
0.049844716 -0.021500848 0.45793167 4294901760
0.049844716 -0.021500848 0.45843166 4294901760
0.049844716 -0.021500848 0.45893168 4294901760
0.049844716 -0.021500848 0.45943168 4294901760
0.049844716 -0.021500848 0.45993167 4294901760
0.049844716 -0.021500848 0.46043167 4294901760
0.049844716 -0.021500848 0.46093166 4294901760
0.049844716 -0.021500848 0.46143168 4294901760
0.049844716 -0.021500848 0.46193168 4294901760
0.049844716 -0.021500848 0.46243167 4294901760
0.049844716 -0.021500848 0.41243166 4278255360
0.049539506 -0.021455089 0.41282505 4278255360
0.049234301 -0.021409327 0.41321844 4278255360
0.048929092 -0.021363568 0.41361183 4278255360
0.048623886 -0.021317806 0.41400522 4278255360
0.048318677 -0.021272046 0.41439861 4278255360
0.048013471 -0.021226287 0.414792 4278255360
0.047708262 -0.021180525 0.41518536 4278255360
0.047403056 -0.021134766 0.41557875 4278255360
0.047097847 -0.021089004 0.41597214 4278255360
0.046792641 -0.021043245 0.41636553 4278255360
0.046487432 -0.020997485 0.41675892 4278255360
0.046182226 -0.020951724 0.41715232 4278255360
0.045877017 -0.020905964 0.41754571 4278255360
0.045571811 -0.020860203 0.4179391 4278255360
0.045266602 -0.020814443 0.41833249 4278255360
0.044961397 -0.020768683 0.41872588 4278255360
0.044656187 -0.020722922 0.41911927 4278255360
0.044350982 -0.020677162 0.41951266 4278255360
0.044045772 -0.020631401 0.41990602 4278255360
0.043740567 -0.020585641 0.42029941 4278255360
0.043435358 -0.020539882 0.4206928 4278255360
0.043130152 -0.02049412 0.42108619 4278255360
0.042824943 -0.020448361 0.42147958 4278255360
0.042519737 -0.020402599 0.42187297 4278255360
0.042214528 -0.02035684 0.42226636 4278255360
0.041909322 -0.02031108 0.42265975 4278255360
0.041604113 -0.020265318 0.42305315 4278255360
0.041298907 -0.020219559 0.42344654 4278255360
0.040993698 -0.020173797 0.42383993 4278255360
0.040688492 -0.020128038 0.42423332 4278255360
0.040383283 -0.020082278 0.42462671 4278255360
0.040078077 -0.020036517 0.42502007 4278255360
0.039772868 -0.019990757 0.42541346 4278255360
0.039467663 -0.019944996 0.42580685 4278255360
0.039162453 -0.019899236 0.42620024 4278255360
0.038857248 -0.019853476 0.42659363 4278255360
0.038552038 -0.019807715 0.42698702 4278255360
0.038246833 -0.019761955 0.42738041 4278255360
0.037941627 -0.019716194 0.4277738 4278255360
0.037636418 -0.019670434 0.42816719 4278255360
0.037331209 -0.019624675 0.42856058 4278255360
0.037026003 -0.019578913 0.42895398 4278255360
0.036720794 -0.019533154 0.42934737 4278255360
0.036415588 -0.019487392 0.42974073 4278255360
0.036110379 -0.019441633 0.43013412 4278255360
0.035805173 -0.019395873 0.43052751 4278255360
0.035499964 -0.019350111 0.4309209 4278255360
0.035194758 -0.019304352 0.43131429 4278255360
0.034889549 -0.01925859 0.43170768 4278255360
0.034584343 -0.019212831 0.43210107 4278255360
0.034279134 -0.019167071 0.43249446 4278255360
0.033973929 -0.01912131 0.43288785 4278255360
0.033668719 -0.01907555 0.43328124 4278255360
0.033363514 -0.019029789 0.43367463 4278255360
0.033058304 -0.018984029 0.43406802 4278255360
0.032753095 -0.018938269 0.43446141 4278255360
0.032447889 -0.018892508 0.43485478 4278255360
0.032142684 -0.018846748 0.43524817 4278255360
0.031837478 -0.018800989 0.43564156 4278255360
0.031532265 -0.018755227 0.43603495 4278255360
0.03122706 -0.018709468 0.43642834 4278255360
0.030921852 -0.018663706 0.43682173 4278255360
0.030616645 -0.018617947 0.43721512 4278255360
0.030311439 -0.018572185 0.43760851 4278255360
0.030006232 -0.018526426 0.4380019 4278255360
0.029701022 -0.018480666 0.43839529 4278255360
0.029395815 -0.018434905 0.43878868 4278255360
0.029090608 -0.018389145 0.43918207 4278255360
0.0287854 -0.018343383 0.43957543 4278255360
0.028480193 -0.018297624 0.43996882 4278255360
0.028174987 -0.018251864 0.44036222 4278255360
0.027869778 -0.018206103 0.44075561 4278255360
0.02756457 -0.018160343 0.441149 4278255360
0.027259363 -0.018114582 0.44154239 4278255360
0.026954155 -0.018068822 0.44193578 4278255360
0.026648948 -0.018023062 0.44232917 4278255360
0.026343742 -0.017977301 0.44272256 4278255360
0.026038535 -0.017931541 0.44311595 4278255360
0.025733326 -0.01788578 0.44350934 4278255360
0.025428118 -0.01784002 0.44390273 4278255360
0.025122911 -0.017794261 0.44429612 4278255360
0.024817703 -0.017748499 0.44468948 4278255360
0.024512496 -0.01770274 0.44508287 4278255360
0.02420729 -0.017656978 0.44547626 4278255360
0.023902081 -0.017611219 0.44586965 4278255360
0.023596874 -0.017565459 0.44626305 4278255360
0.023291666 -0.017519698 0.44665644 4278255360
0.022986459 -0.017473938 0.44704983 4278255360
0.022681251 -0.017428178 0.44744322 4278255360
0.022376044 -0.017382417 0.44783661 4278255360
0.022070836 -0.017336655 0.44823 4278255360
0.021765629 -0.017290896 0.44862339 4278255360
0.021460421 -0.017245136 0.44901678 4278255360
0.021155214 -0.017199375 0.44941014 4278255360
0.020850006 -0.017153615 0.44980353 4278255360
0.020544799 -0.017107856 0.45019692 4278255360
0.020239592 -0.017062094 0.45059031 4278255360
0.019934384 -0.017016334 0.4509837 4278255360
0.019629177 -0.016970575 0.45137709 4278255360
0.019323969 -0.016924813 0.45177048 4278255360
