# .PCD v0.7 - Point Cloud Data file format
VERSION 0.7
FIELDS x y z rgb
SIZE 4 4 4 4
TYPE F F F U
COUNT 1 1 1 1
WIDTH 630
HEIGHT 1
VIEWPOINT 0 0 0 1 0 0 0
POINTS 630
DATA ascii
-0.088952452 0.02034157 0.49000001 4281096255
-0.087360933 0.02034157 0.49000001 4283068248
-0.13657574 0.023858419 0.53300005 4279584803
-0.13459156 0.023813654 0.53200001 4279585314
-0.13261388 0.023768893 0.53100002 4279387933
-0.1306427 0.023724129 0.53000003 4279387933
-0.12819152 0.023589842 0.52700001 4279387933
-0.12623982 0.023545079 0.52600002 4279190556
-0.12429462 0.023500318 0.52500004 4278925590
-0.089133993 0.021978391 0.49100003 4279718699
-0.087360933 0.021933628 0.49000001 4279849772
-0.085769407 0.021933628 0.49000001 4280243762
-0.084177889 0.021933628 0.49000001 4280375350
-0.08258637 0.021933628 0.49000001 4279847982
-0.13580702 0.025446156 0.53000003 4279519008
-0.13357958 0.025350131 0.528 4279716898
-0.13161491 0.02530212 0.52700001 4279585566
-0.12965672 0.02525411 0.52600002 4279453726
-0.12746178 0.025158087 0.52400005 4279256347
-0.12551981 0.025110073 0.523 4279519006
-0.12358436 0.025062062 0.52200001 4279320346
-0.1216554 0.025014052 0.52100003 4279451932
-0.11973294 0.024966041 0.52000004 4279321629
-0.11668193 0.024677968 0.514 4279189273
-0.1147887 0.024629958 0.51300001 4279650594
-0.11290196 0.024581946 0.51200002 4279124763
-0.092887618 0.023717737 0.49400002 4279060767
-0.089133993 0.023573702 0.49100003 4278797595
-0.087539218 0.023573702 0.49100003 4278929181
-0.085769407 0.023525691 0.49000001 4279126560
-0.084177889 0.023525691 0.49000001 4279060765
-0.08258637 0.023525691 0.49000001 4279389730
-0.081160143 0.023573702 0.49100003 4279587111
-0.079565383 0.023573702 0.49100003 4280179248
-0.077970609 0.023573702 0.49100003 4280113203
-0.13529454 0.027065657 0.528 4279453215
-0.13307361 0.026963137 0.52600002 4279387933
-0.13111542 0.026911877 0.52500004 4279387933
-0.12891723 0.026809353 0.523 4279453726
-0.12673202 0.026706833 0.52100003 4279387933
-0.12479982 0.026655573 0.52000004 4278794515
-0.12287412 0.026604313 0.51900005 4278198787
-0.12095489 0.02655305 0.51800001 4279649059
-0.11904217 0.02650179 0.51700002 4278918924
-0.11645492 0.026296746 0.51300001 4278852363
-0.11456494 0.026245486 0.51200002 4278590474
-0.11246094 0.026142966 0.51000005 4278459658
-0.11036994 0.026040444 0.50800002 4278196999
-0.10850593 0.025989184 0.50700003 4278196999
-0.10664843 0.025937922 0.50600004 4278198281
-0.10479741 0.02588666 0.505 4278858261
-0.10274863 0.02578414 0.50300002 4279386400
-0.10091387 0.02573288 0.50200003 4279715365
-0.099085592 0.02568162 0.50100005 4279321377
-0.097069286 0.025579097 0.49900001 4279058718
-0.095065974 0.025476575 0.49700001 4278993949
-0.093075655 0.025374055 0.49500003 4278993949
-0.091283113 0.025322793 0.49400002 4278993949
-0.089315526 0.025220271 0.49200001 4279059742
-0.087539218 0.025169011 0.49100003 4279125533
-0.085944451 0.025169011 0.49100003 4279257119
-0.084349684 0.025169011 0.49100003 4279323164
-0.082754917 0.025169011 0.49100003 4278928920
-0.081160143 0.025169011 0.49100003 4279191838
-0.079565383 0.025169011 0.49100003 4279126045
-0.077970609 0.025169011 0.49100003 4278732572
-0.076531388 0.025220271 0.49200001 4279127330
-0.07493338 0.025220271 0.49200001 4279390504
-0.073335357 0.025220271 0.49200001 4279587629
-0.071737342 0.025220271 0.49200001 4280310069
-0.1350383 0.028726673 0.52700001 4279649822
-0.13282062 0.028617654 0.52500004 4279584799
-0.13061593 0.028508633 0.523 4279585312
-0.12842424 0.028399615 0.52100003 4279387933
-0.12648879 0.028345106 0.52000004 4279453726
-0.12431981 0.028236084 0.51800001 4279912483
-0.1224006 0.028181575 0.51700002 4280503084
-0.12048788 0.028127067 0.51600003 4280568877
-0.11858166 0.028072556 0.51500005 4279050512
-0.11622792 0.027909027 0.51200002 4279181330
-0.11434118 0.027854517 0.51100004 4278786572
-0.11246094 0.027800009 0.51000005 4278983951
-0.11036994 0.027690986 0.50800002 4278983951
-0.10850593 0.027636478 0.50700003 4278983697
-0.10664843 0.027581969 0.50600004 4278918674
-0.10458989 0.027472947 0.50400001 4278854418
-0.10274863 0.027418438 0.50300002 4279516191
-0.10091387 0.027363928 0.50200003 4280239914
-0.099085592 0.02730942 0.50100005 4279055640
-0.097069286 0.027200399 0.49900001 4278199817
-0.095257252 0.027145889 0.49800003 4278197504
-0.093263686 0.02703687 0.49600002 4278197248
-0.091283113 0.026927849 0.49400002 4278199303
-0.089497067 0.026873341 0.49300003 4278989847
-0.087717503 0.026818831 0.49200001 4279846438
-0.085944451 0.02676432 0.49100003 4280044584
-0.084349684 0.02676432 0.49100003 4279124252
-0.082754917 0.02676432 0.49100003 4279256349
-0.081160143 0.02676432 0.49100003 4279125533
-0.079565383 0.02676432 0.49100003 4279257119
-0.077970609 0.02676432 0.49100003 4279126560
-0.076531388 0.026818831 0.49200001 4279192353
-0.07493338 0.026818831 0.49200001 4279192353
-0.073335357 0.026818831 0.49200001 4279126562
-0.071737342 0.026818831 0.49200001 4279257894
-0.070139319 0.026818831 0.49200001 4278732322
-0.068541311 0.026818831 0.49200001 4284585850
-0.066943288 0.026818831 0.49200001 4279584812
-0.1350383 0.03043895 0.52700001 4279649822
-0.13256763 0.030265674 0.52400005 4279584799
-0.13036619 0.030150155 0.52200001 4279519521
-0.12842424 0.030092398 0.52100003 4279387935
-0.12624554 0.02997688 0.51900005 4279453728
-0.12407982 0.029861361 0.51700002 4280109864
-0.12216385 0.029803602 0.51600003 4279976740
-0.12025438 0.029745845 0.51500005 4280371498
-0.11812114 0.029630324 0.51300001 4278788623
-0.11600091 0.029514808 0.51100004 4279907104
-0.11411743 0.029457049 0.51000005 4279445785
-0.11224042 0.029399289 0.509 4278393097
-0.11015267 0.029283771 0.50700003 4279774750
-0.10829192 0.029226014 0.50600004 4279116820
-0.10643765 0.029168252 0.505 4280498473
-0.10458989 0.029110495 0.50400001 4279314967
-0.10274863 0.029052736 0.50300002 4279385117
-0.10091387 0.028994977 0.50200003 4278464015
-0.099085592 0.028937221 0.50100005 4279647775
-0.097263813 0.028879458 0.5 4279386141
-0.095257252 0.028763942 0.49800003 4279517727
-0.093263686 0.028648423 0.49600002 4279385887
-0.091467902 0.028590666 0.49500003 4279451680
-0.089497067 0.028475147 0.49300003 4279780645
-0.087717503 0.028417388 0.49200001 4280109610
-0.086119488 0.028417388 0.49200001 4279846438
-0.084349684 0.028359629 0.49100003 4279056154
-0.082754917 0.028359629 0.49100003 4278595603
-0.081160143 0.028359629 0.49100003 4278200074
-0.079565383 0.028359629 0.49100003 4278198018
-0.077970609 0.028359629 0.49100003 4278198532
-0.076531388 0.028417388 0.49200001 4278595601
-0.07493338 0.028417388 0.49200001 4279256351
-0.073335357 0.028417388 0.49200001 4279387937
-0.071737342 0.028417388 0.49200001 4279126049
-0.070139319 0.028417388 0.49200001 4279126049
-0.068541311 0.028417388 0.49200001 4279323428
-0.066943288 0.028417388 0.49200001 4279256867
-0.065345272 0.028417388 0.49200001 4279451428
-0.1350383 0.032151226 0.52700001 4279321629
-0.13282062 0.032029212 0.52500004 4279519521
-0.13036619 0.031846184 0.52200001 4279519523
-0.12817775 0.03172417 0.52000004 4279453730
-0.12600228 0.031602152 0.51800001 4279387935
-0.12407982 0.031541146 0.51700002 4278199555
-0.1219271 0.031419132 0.51500005 4279252506
-0.12002087 0.031358119 0.514 4279910949
-0.11789089 0.031236107 0.51200002 4278788623
-0.11600091 0.031175099 0.51100004 4278853648
-0.11411743 0.031114092 0.51000005 4279380762
-0.11201991 0.030992074 0.50800002 4278525453
-0.11015267 0.030931067 0.50700003 4278195204
-0.10829192 0.03087006 0.50600004 4280170276
-0.10643765 0.030809049 0.505 4278656269
-0.10458989 0.030748041 0.50400001 4279841824
-0.10274863 0.030687034 0.50300002 4279450912
-0.10111488 0.030687034 0.50300002 4278527246
-0.099085592 0.03056502 0.50100005 4278196994
-0.097263813 0.030504009 0.5 4278725392
-0.095448531 0.030443002 0.49900001 4279451680
-0.093451716 0.030320985 0.49700001 4279649061
-0.091467902 0.030198971 0.49500003 4279123230
-0.0896786 0.030137962 0.49400002 4278991644
-0.087895796 0.030076955 0.49300003 4279255584
-0.086119488 0.030015945 0.49200001 4279255584
-0.084521472 0.030015945 0.49200001 4279189791
-0.082754917 0.029954938 0.49100003 4279452963
-0.081160143 0.029954938 0.49100003 4279583779
-0.079565383 0.029954938 0.49100003 4279452195
-0.077970609 0.029954938 0.49100003 4279649061
-0.076531388 0.030015945 0.49200001 4279846440
-0.07493338 0.030015945 0.49200001 4280110125
-0.073335357 0.030015945 0.49200001 4279256351
-0.071737342 0.030015945 0.49200001 4279125533
-0.070139319 0.030015945 0.49200001 4278928154
-0.068541311 0.030015945 0.49200001 4278994461
-0.066943288 0.030015945 0.49200001 4278928154
-0.065345272 0.030015945 0.49200001 4279254814
-0.13529454 0.033927761 0.528 4279321629
-0.13307361 0.03379925 0.52600002 4279453728
-0.13061593 0.033606477 0.523 4279256349
-0.12842424 0.033477962 0.52100003 4279322912
-0.12600228 0.033285189 0.51800001 4279257119
-0.12407982 0.033220932 0.51700002 4279847205
-0.1219271 0.033092421 0.51500005 4280042535
-0.11978737 0.032963905 0.51300001 4279910949
-0.11789089 0.032899648 0.51200002 4278854418
-0.11577391 0.032771137 0.51000005 4278984721
-0.11389366 0.032706875 0.509 4278983951
-0.11201991 0.032642618 0.50800002 4278721295
-0.11015267 0.032578364 0.50700003 4278918674
-0.10829192 0.032514106 0.50600004 4278589709
-0.10643765 0.032449845 0.505 4278853394
-0.10458989 0.032385591 0.50400001 4280170791
-0.1029529 0.032385591 0.50400001 4279976229
-0.10111488 0.032321334 0.50300002 4278657550
-0.099283367 0.032257076 0.50200003 4278460171
-0.097263813 0.032128561 0.5 4278593806
-0.095448531 0.032064304 0.49900001 4280108328
-0.093451716 0.031935789 0.49700001 4278726675
-0.091652684 0.031871535 0.49600002 4279516703
-0.089860134 0.031807277 0.49500003 4279187740
-0.087895796 0.031678762 0.49300003 4279187740
-0.086294532 0.031678762 0.49300003 4278661142
-0.084521472 0.031614505 0.49200001 4278991131
-0.082754917 0.031550247 0.49100003 4278267408
-0.081160143 0.031550247 0.49100003 4279912233
-0.079565383 0.031550247 0.49100003 4278399253
-0.077970609 0.031550247 0.49100003 4279452963
-0.076375842 0.031550247 0.49100003 4278991642
-0.07493338 0.031614505 0.49200001 4279781158
-0.073335357 0.031614505 0.49200001 4279190304
-0.071737342 0.031614505 0.49200001 4279059488
-0.070139319 0.031614505 0.49200001 4279059742
-0.068541311 0.031614505 0.49200001 4279125533
-0.066943288 0.031614505 0.49200001 4279256349
-0.065345272 0.031614505 0.49200001 4279254814
-0.13580702 0.035778299 0.53000003 4279386654
-0.13357958 0.035643287 0.528 4279519008
-0.13111542 0.035440769 0.52500004 4279387935
-0.12842424 0.035170745 0.52100003 4279190556
-0.12624554 0.035035733 0.51900005 4278993947
-0.12407982 0.034900717 0.51700002 4278202380
-0.1219271 0.034765709 0.51500005 4278990359
-0.11978737 0.034630693 0.51300001 4279649059
-0.11789089 0.034563188 0.51200002 4279648289
-0.11577391 0.034428179 0.51000005 4279844643
-0.11389366 0.03436067 0.509 4280303911
-0.11201991 0.034293164 0.50800002 4279316762
-0.11015267 0.034225658 0.50700003 4278393863
-0.10829192 0.034158152 0.50600004 4278656267
-0.10643765 0.034090642 0.505 4278524683
-0.10458989 0.034023136 0.50400001 4280566063
-0.1029529 0.034023136 0.50400001 4279384092
-0.10111488 0.033955634 0.50300002 4280303911
-0.099283367 0.033888128 0.50200003 4280369963
-0.097458348 0.033820622 0.50100005 4279976742
-0.095448531 0.033685606 0.49900001 4280043047
-0.093639746 0.0336181 0.49800003 4279911461
-0.091652684 0.033483088 0.49600002 4278530062
-0.089860134 0.033415582 0.49500003 4279517727
-0.088074081 0.033348076 0.49400002 4278530578
-0.086294532 0.03328057 0.49300003 4278397708
-0.084521472 0.033213064 0.49200001 4279252504
-0.082923457 0.033213064 0.49200001 4279581469
-0.081160143 0.033145558 0.49100003 4279318812
-0.079565383 0.033145558 0.49100003 4278989593
-0.077970609 0.033145558 0.49100003 4279583779
-0.076375842 0.033145558 0.49100003 4278859543
-0.074781075 0.033145558 0.49100003 4279584549
-0.073335357 0.033213064 0.49200001 4278862109
-0.071737342 0.033213064 0.49200001 4279125283
-0.070139319 0.033213064 0.49200001 4279059490
-0.068541311 0.033213064 0.49200001 4278993949
-0.066943288 0.033213064 0.49200001 4279190043
-0.065345272 0.033213064 0.49200001 4279452447
-0.12891723 0.037005037 0.523 4279190556
-0.12648879 0.036792774 0.52000004 4279190043
-0.12407982 0.036580503 0.51700002 4279519008
-0.1219271 0.036438994 0.51500005 4279452445
-0.11978737 0.036297482 0.51300001 4279190043
-0.11789089 0.036226727 0.51200002 4279519008
-0.11577391 0.036085218 0.51000005 4279124252
-0.11389366 0.03601446 0.509 4279452447
-0.11201991 0.035943706 0.50800002 4279386654
-0.11015267 0.035872951 0.50700003 4279386141
-0.10829192 0.035802197 0.50600004 4279582750
-0.10643765 0.035731439 0.505 4279451934
-0.10479741 0.035731439 0.505 4279517473
-0.1029529 0.035660684 0.50400001 4280043047
-0.10111488 0.03558993 0.50300002 4280042533
-0.099283367 0.035519175 0.50200003 4279778596
-0.097458348 0.035448421 0.50100005 4278331404
-0.09563981 0.035377663 0.5 4278198019
-0.093639746 0.035236154 0.49800003 4278196992
-0.091837466 0.035165396 0.49700001 4278198534
-0.089860134 0.035023887 0.49500003 4278791955
-0.088074081 0.034953132 0.49400002 4279581984
-0.086294532 0.034882378 0.49300003 4279516705
-0.084521472 0.03481162 0.49200001 4280108840
-0.082923457 0.03481162 0.49200001 4279648289
-0.081160143 0.034740865 0.49100003 4279845668
-0.079565383 0.034740865 0.49100003 4279779875
-0.077970609 0.034740865 0.49100003 4279649059
-0.076375842 0.034740865 0.49100003 4278596371
-0.074781075 0.034740865 0.49100003 4279321377
-0.073186301 0.034740865 0.49100003 4279125281
-0.071737342 0.03481162 0.49200001 4279256867
-0.070139319 0.03481162 0.49200001 4278993695
-0.068541311 0.03481162 0.49200001 4279059742
-0.066943288 0.03481162 0.49200001 4279058972
-0.065345272 0.03481162 0.49200001 4278861080
-0.12431981 0.038334295 0.51800001 4279254551
-0.12216385 0.038186286 0.51600003 4279386650
-0.12002087 0.038038276 0.514 4279255064
-0.11789089 0.037890267 0.51200002 4279189273
-0.11577391 0.037742261 0.51000005 4279190045
-0.11389366 0.037668254 0.509 4279058459
-0.11201991 0.037594251 0.50800002 4279255838
-0.11015267 0.037520245 0.50700003 4279190043
-0.10829192 0.037446242 0.50600004 4279058970
-0.10643765 0.037372235 0.505 4279190558
-0.10479741 0.037372235 0.505 4279190558
-0.1029529 0.037298232 0.50400001 4279256351
-0.10111488 0.037224229 0.50300002 4279058972
-0.099283367 0.037150223 0.50200003 4279256351
-0.097458348 0.03707622 0.50100005 4279256351
-0.09563981 0.037002213 0.5 4279321631
-0.093639746 0.036854208 0.49800003 4279584033
-0.091837466 0.036780201 0.49700001 4279648543
-0.089860134 0.036632195 0.49500003 4279780129
-0.088074081 0.036558188 0.49400002 4280569131
-0.086294532 0.036484186 0.49300003 4280503598
-0.084521472 0.036410179 0.49200001 4278990107
-0.082923457 0.036410179 0.49200001 4278199820
-0.081160143 0.036336176 0.49100003 4278197504
-0.079565383 0.036336176 0.49100003 4278196992
-0.077970609 0.036336176 0.49100003 4278198019
-0.076375842 0.036336176 0.49100003 4278197765
-0.074781075 0.036336176 0.49100003 4279321379
-0.073186301 0.036336176 0.49100003 4279125797
-0.071591534 0.036336176 0.49100003 4278994211
-0.070139319 0.036410179 0.49200001 4278928418
-0.068541311 0.036410179 0.49200001 4279059742
-0.066943288 0.036410179 0.49200001 4278927386
-0.065345272 0.036410179 0.49200001 4279055900
-0.12216385 0.039862823 0.51600003 4278985482
-0.12002087 0.039708313 0.514 4279710229
-0.11789089 0.03955381 0.51200002 4279712026
-0.11577391 0.039399303 0.51000005 4279909918
-0.11389366 0.039322045 0.509 4279385371
-0.11201991 0.039244793 0.50800002 4279188762
-0.11015267 0.039167542 0.50700003 4279189273
-0.10829192 0.039090287 0.50600004 4279123480
-0.10643765 0.039013032 0.505 4278992666
-0.10479741 0.039013032 0.505 4279058459
-0.1029529 0.038935781 0.50400001 4279124765
-0.10111488 0.038858525 0.50300002 4279256351
-0.099283367 0.038781274 0.50200003 4279256351
-0.097458348 0.038704023 0.50100005 4279256351
-0.09563981 0.038626764 0.5 4279256351
-0.093639746 0.038472258 0.49800003 4279190558
-0.091837466 0.038395002 0.49700001 4279453217
-0.089860134 0.0382405 0.49500003 4279321631
-0.088074081 0.038163245 0.49400002 4279320607
-0.086294532 0.038085993 0.49300003 4279518756
-0.084521472 0.038008738 0.49200001 4279452963
-0.082923457 0.038008738 0.49200001 4279518756
-0.081160143 0.037931483 0.49100003 4279321377
-0.079565383 0.037931483 0.49100003 4279583779
-0.077970609 0.037931483 0.49100003 4279978024
-0.076375842 0.037931483 0.49100003 4279714854
-0.074781075 0.037931483 0.49100003 4279452195
-0.073186301 0.037931483 0.49100003 4279255586
-0.071591534 0.037931483 0.49100003 4279256869
-0.069996759 0.037931483 0.49100003 4279059490
-0.068402 0.037931483 0.49100003 4279388453
-0.066807225 0.037931483 0.49100003 4278860826
-0.065212458 0.037931483 0.49100003 4278594324
-0.11766063 0.041136846 0.51100004 4279376908
-0.11577391 0.041056346 0.51000005 4279377162
-0.11389366 0.040975839 0.509 4278983687
-0.11201991 0.040895335 0.50800002 4278919176
-0.11015267 0.040814836 0.50700003 4279118092
-0.10829192 0.040734332 0.50600004 4278855433
-0.10664843 0.040734332 0.50600004 4279251221
-0.10479741 0.040653829 0.505 4279711520
-0.1029529 0.040573325 0.50400001 4279711774
-0.10111488 0.040492825 0.50300002 4279450912
-0.099283367 0.040412322 0.50200003 4279649574
-0.097458348 0.040331822 0.50100005 4279714854
-0.09563981 0.040251315 0.5 4280109610
-0.093639746 0.040090311 0.49800003 4279714852
-0.091652684 0.039929304 0.49600002 4279715367
-0.089860134 0.039848804 0.49500003 4279649574
-0.088074081 0.039768301 0.49400002 4279518504
-0.086294532 0.039687797 0.49300003 4279518504
-0.084521472 0.039607294 0.49200001 4279518758
-0.082923457 0.039607294 0.49200001 4279452965
-0.081160143 0.039526794 0.49100003 4279518756
-0.079565383 0.039526794 0.49100003 4279518756
-0.077970609 0.039526794 0.49100003 4279584549
-0.076375842 0.039526794 0.49100003 4279584551
-0.074781075 0.039526794 0.49100003 4279584551
-0.073186301 0.039526794 0.49100003 4279584551
-0.071591534 0.039526794 0.49100003 4279452965
-0.069996759 0.039526794 0.49100003 4279189793
-0.068402 0.039526794 0.49100003 4279255586
-0.066807225 0.039526794 0.49100003 4279254301
-0.065212458 0.039526794 0.49100003 4281618237
-0.11389366 0.042629629 0.509 4279442188
-0.093639746 0.041708365 0.49800003 4284644711
-0.091652684 0.041540861 0.49600002 4283527518
-0.089860134 0.041457109 0.49500003 4282475343
-0.088074081 0.041373357 0.49400002 4281882952
-0.086294532 0.041289605 0.49300003 4281225022
-0.084521472 0.041205853 0.49200001 4280171821
-0.082754917 0.041122101 0.49100003 4280040489
-0.081160143 0.041122101 0.49100003 4279908901
-0.079565383 0.041122101 0.49100003 4279975207
-0.077970609 0.041122101 0.49100003 4279581732
-0.076375842 0.041122101 0.49100003 4279581732
-0.074781075 0.041122101 0.49100003 4279581734
-0.073186301 0.041122101 0.49100003 4279910699
-0.071591534 0.041122101 0.49100003 4279450662
-0.069996759 0.041122101 0.49100003 4279450662
-0.068402 0.041122101 0.49100003 4279252256
-0.066807225 0.041122101 0.49100003 4282539853
-0.084521472 0.042804409 0.49200001 4285960062
-0.082754917 0.042717412 0.49100003 4286091648
-0.081160143 0.042717412 0.49100003 4285959808
-0.079565383 0.042717412 0.49100003 4285828222
-0.077970609 0.042717412 0.49100003 4285697149
-0.076375842 0.042717412 0.49100003 4286355079
-0.074781075 0.042717412 0.49100003 4286223747
-0.073186301 0.042717412 0.49100003 4285894780
-0.071591534 0.042717412 0.49100003 4286355331
-0.069996759 0.042717412 0.49100003 4285434229
-0.068402 0.042717412 0.49100003 4285433977
-0.096433409 0.032657057 0.50149149 4294967295
-0.096433409 0.032657057 0.50149149 4294901760
-0.096433409 0.032657057 0.50199151 4294901760
-0.096433409 0.032657057 0.50249147 4294901760
-0.096433409 0.032657057 0.5029915 4294901760
-0.096433409 0.032657057 0.50349146 4294901760
-0.096433409 0.032657057 0.50399148 4294901760
-0.096433409 0.032657057 0.50449151 4294901760
-0.096433409 0.032657057 0.50499147 4294901760
-0.096433409 0.032657057 0.5054915 4294901760
-0.096433409 0.032657057 0.50599146 4294901760
-0.096433409 0.032657057 0.50649148 4294901760
-0.096433409 0.032657057 0.50699151 4294901760
-0.096433409 0.032657057 0.50749147 4294901760
-0.096433409 0.032657057 0.50799149 4294901760
-0.096433409 0.032657057 0.50849152 4294901760
-0.096433409 0.032657057 0.50899148 4294901760
-0.096433409 0.032657057 0.5094915 4294901760
-0.096433409 0.032657057 0.50999147 4294901760
-0.096433409 0.032657057 0.51049149 4294901760
-0.096433409 0.032657057 0.51099151 4294901760
-0.096433409 0.032657057 0.51149148 4294901760
-0.096433409 0.032657057 0.5119915 4294901760
-0.096433409 0.032657057 0.51249146 4294901760
-0.096433409 0.032657057 0.51299149 4294901760
-0.096433409 0.032657057 0.51349151 4294901760
-0.096433409 0.032657057 0.51399148 4294901760
-0.096433409 0.032657057 0.5144915 4294901760
-0.096433409 0.032657057 0.51499146 4294901760
-0.096433409 0.032657057 0.51549149 4294901760
-0.096433409 0.032657057 0.51599151 4294901760
-0.096433409 0.032657057 0.51649147 4294901760
-0.096433409 0.032657057 0.5169915 4294901760
-0.096433409 0.032657057 0.51749146 4294901760
-0.096433409 0.032657057 0.51799148 4294901760
-0.096433409 0.032657057 0.51849151 4294901760
-0.096433409 0.032657057 0.51899147 4294901760
-0.096433409 0.032657057 0.51949149 4294901760
-0.096433409 0.032657057 0.51999152 4294901760
-0.096433409 0.032657057 0.52049148 4294901760
-0.096433409 0.032657057 0.5209915 4294901760
-0.096433409 0.032657057 0.52149147 4294901760
-0.096433409 0.032657057 0.52199149 4294901760
-0.096433409 0.032657057 0.52249151 4294901760
-0.096433409 0.032657057 0.52299148 4294901760
-0.096433409 0.032657057 0.5234915 4294901760
-0.096433409 0.032657057 0.52399147 4294901760
-0.096433409 0.032657057 0.52449149 4294901760
-0.096433409 0.032657057 0.52499151 4294901760
-0.096433409 0.032657057 0.52549148 4294901760
-0.096433409 0.032657057 0.5259915 4294901760
-0.096433409 0.032657057 0.52649152 4294901760
-0.096433409 0.032657057 0.52699149 4294901760
-0.096433409 0.032657057 0.52749151 4294901760
-0.096433409 0.032657057 0.52799147 4294901760
-0.096433409 0.032657057 0.5284915 4294901760
-0.096433409 0.032657057 0.52899152 4294901760
-0.096433409 0.032657057 0.52949148 4294901760
-0.096433409 0.032657057 0.52999151 4294901760
-0.096433409 0.032657057 0.53049147 4294901760
-0.096433409 0.032657057 0.53099149 4294901760
-0.096433409 0.032657057 0.53149152 4294901760
-0.096433409 0.032657057 0.53199148 4294901760
-0.096433409 0.032657057 0.53249151 4294901760
-0.096433409 0.032657057 0.53299147 4294901760
-0.096433409 0.032657057 0.53349149 4294901760
-0.096433409 0.032657057 0.53399152 4294901760
-0.096433409 0.032657057 0.53449148 4294901760
-0.096433409 0.032657057 0.5349915 4294901760
-0.096433409 0.032657057 0.53549147 4294901760
-0.096433409 0.032657057 0.53599149 4294901760
-0.096433409 0.032657057 0.53649151 4294901760
-0.096433409 0.032657057 0.53699148 4294901760
-0.096433409 0.032657057 0.5374915 4294901760
-0.096433409 0.032657057 0.53799152 4294901760
-0.096433409 0.032657057 0.53849149 4294901760
-0.096433409 0.032657057 0.53899151 4294901760
-0.096433409 0.032657057 0.53949147 4294901760
-0.096433409 0.032657057 0.5399915 4294901760
-0.096433409 0.032657057 0.54049152 4294901760
-0.096433409 0.032657057 0.54099149 4294901760
-0.096433409 0.032657057 0.54149151 4294901760
-0.096433409 0.032657057 0.54199147 4294901760
-0.096433409 0.032657057 0.5424915 4294901760
-0.096433409 0.032657057 0.54299152 4294901760
-0.096433409 0.032657057 0.54349148 4294901760
-0.096433409 0.032657057 0.54399151 4294901760
-0.096433409 0.032657057 0.54449153 4294901760
-0.096433409 0.032657057 0.54499149 4294901760
-0.096433409 0.032657057 0.54549152 4294901760
-0.096433409 0.032657057 0.54599148 4294901760
-0.096433409 0.032657057 0.5464915 4294901760
-0.096433409 0.032657057 0.54699153 4294901760
-0.096433409 0.032657057 0.54749149 4294901760
-0.096433409 0.032657057 0.54799151 4294901760
-0.096433409 0.032657057 0.54849148 4294901760
-0.096433409 0.032657057 0.5489915 4294901760
-0.096433409 0.032657057 0.54949152 4294901760
-0.096433409 0.032657057 0.54999149 4294901760
-0.096433409 0.032657057 0.55049151 4294901760
-0.096433409 0.032657057 0.55099148 4294901760
-0.096433409 0.032657057 0.5514915 4294901760
-0.096433409 0.032657057 0.50149149 4278255360
-0.096184924 0.032659885 0.50192535 4278255360
-0.09593644 0.032662708 0.50235921 4278255360
-0.095687963 0.032665536 0.50279313 4278255360
-0.095439479 0.032668363 0.503227 4278255360
-0.095190994 0.032671187 0.50366086 4278255360
-0.09494251 0.032674015 0.50409472 4278255360
-0.094694026 0.032676842 0.50452864 4278255360
-0.094445549 0.032679666 0.5049625 4278255360
-0.094197065 0.032682493 0.50539637 4278255360
-0.09394858 0.032685321 0.50583023 4278255360
-0.093700096 0.032688145 0.50626415 4278255360
-0.093451612 0.032690972 0.50669801 4278255360
-0.093203135 0.0326938 0.50713187 4278255360
-0.092954651 0.032696627 0.50756574 4278255360
-0.092706166 0.032699451 0.5079996 4278255360
-0.092457682 0.032702278 0.50843352 4278255360
-0.092209198 0.032705106 0.50886738 4278255360
-0.091960721 0.03270793 0.50930125 4278255360
-0.091712236 0.032710757 0.50973511 4278255360
-0.091463752 0.032713585 0.51016903 4278255360
-0.091215268 0.032716408 0.51060289 4278255360
-0.090966783 0.032719236 0.51103675 4278255360
-0.090718307 0.032722063 0.51147062 4278255360
-0.090469822 0.032724887 0.51190454 4278255360
-0.090221338 0.032727715 0.5123384 4278255360
-0.089972854 0.032730542 0.51277226 4278255360
-0.089724369 0.032733366 0.51320612 4278255360
-0.089475892 0.032736193 0.51363999 4278255360
-0.089227408 0.032739021 0.51407391 4278255360
-0.088978924 0.032741845 0.51450777 4278255360
-0.08873044 0.032744672 0.51494163 4278255360
-0.088481955 0.0327475 0.51537549 4278255360
-0.088233471 0.032750323 0.51580942 4278255360
-0.087984994 0.032753151 0.51624328 4278255360
-0.08773651 0.032755978 0.51667714 4278255360
-0.087488025 0.032758802 0.517111 4278255360
-0.087239541 0.03276163 0.51754487 4278255360
-0.086991064 0.032764457 0.51797879 4278255360
-0.08674258 0.032767285 0.51841265 4278255360
-0.086494096 0.032770108 0.51884651 4278255360
-0.086245611 0.032772936 0.51928037 4278255360
-0.085997134 0.032775763 0.5197143 4278255360
-0.08574865 0.032778587 0.52014816 4278255360
-0.085500166 0.032781415 0.52058202 4278255360
-0.085251682 0.032784242 0.52101588 4278255360
-0.085003197 0.032787066 0.5214498 4278255360
-0.084754713 0.032789893 0.52188367 4278255360
-0.084506236 0.032792721 0.52231753 4278255360
-0.084257752 0.032795545 0.52275139 4278255360
-0.084009267 0.032798372 0.52318525 4278255360
-0.083760783 0.0328012 0.52361917 4278255360
-0.083512306 0.032804023 0.52405304 4278255360
-0.083263822 0.032806851 0.5244869 4278255360
-0.083015338 0.032809678 0.52492076 4278255360
-0.082766853 0.032812502 0.52535468 4278255360
-0.082518369 0.03281533 0.52578855 4278255360
-0.082269885 0.032818157 0.52622241 4278255360
-0.082021408 0.032820981 0.52665627 4278255360
-0.081772923 0.032823808 0.52709019 4278255360
-0.081524439 0.032826636 0.52752405 4278255360
-0.081275955 0.03282946 0.52795792 4278255360
-0.081027471 0.032832287 0.52839178 4278255360
-0.080778986 0.032835115 0.52882564 4278255360
-0.080530509 0.032837942 0.52925956 4278255360
-0.080282025 0.032840766 0.52969342 4278255360
-0.080033541 0.032843594 0.53012729 4278255360
-0.079785056 0.032846421 0.53056115 4278255360
-0.079536572 0.032849245 0.53099507 4278255360
-0.079288095 0.032852072 0.53142893 4278255360
-0.079039611 0.0328549 0.5318628 4278255360
-0.078791127 0.032857724 0.53229666 4278255360
-0.078542642 0.032860551 0.53273058 4278255360
-0.078294158 0.032863379 0.53316444 4278255360
-0.078045681 0.032866202 0.5335983 4278255360
-0.077797197 0.03286903 0.53403217 4278255360
-0.077548712 0.032871857 0.53446603 4278255360
-0.077300236 0.032874681 0.53489995 4278255360
-0.077051751 0.032877509 0.53533381 4278255360
-0.076803267 0.032880336 0.53576767 4278255360
-0.076554783 0.03288316 0.53620154 4278255360
-0.076306298 0.032885987 0.53663546 4278255360
-0.076057822 0.032888815 0.53706932 4278255360
-0.075809337 0.032891639 0.53750318 4278255360
-0.075560853 0.032894466 0.53793705 4278255360
-0.075312369 0.032897294 0.53837097 4278255360
-0.075063884 0.032900117 0.53880483 4278255360
-0.074815407 0.032902945 0.53923869 4278255360
-0.074566916 0.032905772 0.53967255 4278255360
-0.074318439 0.0329086 0.54010642 4278255360
-0.074069954 0.032911424 0.54054034 4278255360
-0.07382147 0.032914251 0.5409742 4278255360
-0.073572986 0.032917079 0.54140806 4278255360
-0.073324502 0.032919902 0.54184192 4278255360
-0.073076025 0.03292273 0.54227585 4278255360
-0.07282754 0.032925557 0.54270971 4278255360
-0.072579056 0.032928381 0.54314357 4278255360
-0.072330572 0.032931209 0.54357743 4278255360
-0.072082087 0.032934036 0.54401135 4278255360
-0.071833611 0.03293686 0.54444522 4278255360
-0.071585126 0.032939687 0.54487908 4278255360
