# .PCD v0.7 - Point Cloud Data file format
VERSION 0.7
FIELDS x y z rgb
SIZE 4 4 4 4
TYPE F F F U
COUNT 1 1 1 1
WIDTH 1040
HEIGHT 1
VIEWPOINT 0 0 0 1 0 0 0
POINTS 1040
DATA ascii
0.0071227346 0.038231868 0.35900003 4278663699
0.0082887672 0.038231868 0.35900003 4278663699
0.0094284629 0.03812537 0.35800001 4278532113
0.010591248 0.03812537 0.35800001 4278664214
0.011754032 0.03812537 0.35800001 4278730007
0.012916816 0.03812537 0.35800001 4278664214
0.014079601 0.03812537 0.35800001 4278598421
0.015242386 0.03812537 0.35800001 4278530578
0.016405171 0.03812537 0.35800001 4278194432
0.017567955 0.03812537 0.35800001 4278858007
0.018730739 0.03812537 0.35800001 4278596373
0.019949093 0.038231868 0.35900003 4278328072
0.021115126 0.038231868 0.35900003 4278654472
0.022281159 0.038231868 0.35900003 4278720011
0.023447191 0.038231868 0.35900003 4278654220
0.024681784 0.038338363 0.36000001 4278720013
0.025851065 0.038338363 0.36000001 4278654220
0.027095402 0.038444858 0.36100003 4278720013
0.028267931 0.038444858 0.36100003 4278654218
0.029440459 0.038444858 0.36100003 4278719498
0.030697789 0.038551353 0.36200002 4278719498
0.031873565 0.038551353 0.36200002 4278719498
0.033049341 0.038551353 0.36200002 4278719498
0.034225117 0.038551353 0.36200002 4278197001
0.035400894 0.038551353 0.36200002 4278923287
0.036677711 0.038657848 0.36300001 4278858775
0.037856735 0.038657848 0.36300001 4278858775
0.03903576 0.038657848 0.36300001 4278792468
0.040214784 0.038657848 0.36300001 4279318299
0.041393809 0.038657848 0.36300001 4279186713
0.042572834 0.038657848 0.36300001 4279252252
0.043751858 0.038657848 0.36300001 4279777826
0.044930883 0.038657848 0.36300001 4278988310
0.046236932 0.038764346 0.36400002 4278396173
0.047419205 0.038764346 0.36400002 4278196740
0.048601482 0.038764346 0.36400002 4278195200
0.049920518 0.038870838 0.36500001 4278195457
0.051106039 0.038870838 0.36500001 4278195970
0.052291561 0.038870838 0.36500001 4278196226
0.053623598 0.038977336 0.36600003 4278195968
0.054812364 0.038977336 0.36600003 4278196224
0.056154139 0.039083831 0.36700001 4278199818
0.057346158 0.039083831 0.36700001 4278331917
0.058538172 0.039083831 0.36700001 4279253017
0.060218446 0.039403316 0.37 4278661394
0.061752211 0.039616309 0.37200001 4278398992
0.063129716 0.039722804 0.37300003 4278727957
0.064513713 0.039829299 0.37400001 4278532115
0.065904215 0.039935797 0.37500003 4278599191
0.067301206 0.040042289 0.37600002 4278401812
0.068886936 0.040255282 0.37800002 4278533398
0.07011468 0.040255282 0.37800002 4278467603
0.071531162 0.040361777 0.37900001 4278467603
0.072762154 0.040361777 0.37900001 4278796568
0.073993146 0.040361777 0.37900001 4278862363
0.075224139 0.040361777 0.37900001 4279844391
-0.011822936 0.040385999 0.36800003 4279574037
-0.010598792 0.040276252 0.36700001 4279968282
-0.0093811434 0.040166508 0.36600003 4280034075
-0.008169991 0.040056761 0.36500001 4280297247
-0.006965335 0.039947018 0.36400002 4279968795
-0.0057671745 0.039837271 0.36300001 4279707160
-0.004575511 0.039727528 0.36200002 4279445270
-0.0033903427 0.039617784 0.36100003 4278988564
-0.0022178141 0.039617784 0.36100003 4279187224
-0.0010423897 0.039508041 0.36000001 4278728211
0.00012689093 0.039508041 0.36000001 4278860310
0.0012961716 0.039508041 0.36000001 4278730007
0.0024654521 0.039508041 0.36000001 4278598421
0.0036246362 0.039398298 0.35900003 4278532628
0.0047906693 0.039398298 0.35900003 4278466835
0.0059567015 0.039398298 0.35900003 4278532628
0.0071227346 0.039398298 0.35900003 4278532115
0.0082887672 0.039398298 0.35900003 4278532115
0.0094284629 0.039288551 0.35800001 4278663699
0.010591248 0.039288551 0.35800001 4278532113
0.011754032 0.039288551 0.35800001 4278663701
0.012916816 0.039288551 0.35800001 4278729494
0.014079601 0.039288551 0.35800001 4278597908
0.015242386 0.039288551 0.35800001 4279054873
0.016405171 0.039288551 0.35800001 4278195200
0.017567955 0.039288551 0.35800001 4278989847
0.018730739 0.039288551 0.35800001 4278727189
0.019949093 0.039398298 0.35900003 4278458890
0.021115126 0.039398298 0.35900003 4279246869
0.022281159 0.039398298 0.35900003 4278392843
0.023447191 0.039398298 0.35900003 4278984467
0.024681784 0.039508041 0.36000001 4278918928
0.025851065 0.039508041 0.36000001 4279050514
0.027095402 0.039617784 0.36100003 4279051027
0.028267931 0.039617784 0.36100003 4279643934
0.029440459 0.039617784 0.36100003 4278787601
0.030697789 0.039727528 0.36200002 4278918674
0.031873565 0.039727528 0.36200002 4279313432
0.033049341 0.039727528 0.36200002 4278786318
0.034319662 0.039837271 0.36300001 4279118103
0.035498686 0.039837271 0.36300001 4278989847
0.036677711 0.039837271 0.36300001 4278596371
0.037856735 0.039837271 0.36300001 4278201356
0.03903576 0.039837271 0.36300001 4278529294
0.040325571 0.039947018 0.36400002 4279253019
0.041507844 0.039947018 0.36400002 4278727189
0.042690117 0.039947018 0.36400002 4278858775
0.04387239 0.039947018 0.36400002 4278858775
0.045054659 0.039947018 0.36400002 4278858775
0.046363954 0.040056761 0.36500001 4278924568
0.047549479 0.040056761 0.36500001 4278858775
0.048735 0.040056761 0.36500001 4278858775
0.050057288 0.040166508 0.36600003 4279055640
0.051246058 0.040166508 0.36600003 4278989847
0.052434828 0.040166508 0.36600003 4279121433
0.05377011 0.040276252 0.36700001 4278989847
0.054962121 0.040276252 0.36700001 4279121433
0.056307152 0.040385999 0.36800003 4278923287
0.057502419 0.040385999 0.36800003 4279054103
0.05885718 0.040495742 0.36900002 4279250969
0.0603812 0.040715229 0.37100002 4278790418
0.061752211 0.040824972 0.37200001 4278329869
0.063129716 0.040934719 0.37300003 4278198024
0.064513713 0.041044462 0.37400001 4278195456
0.065904215 0.04115421 0.37500003 4278858773
0.067301206 0.041263953 0.37600002 4278663701
0.068886936 0.041483443 0.37800002 4278532115
0.07011468 0.041483443 0.37800002 4278532115
0.071531162 0.041593187 0.37900001 4278532628
0.072762154 0.041593187 0.37900001 4278664214
0.073993146 0.041593187 0.37900001 4278730007
0.075224139 0.041593187 0.37900001 4278266386
-0.011822936 0.041581668 0.36800003 4280101151
-0.010598792 0.041468672 0.36700001 4280231967
-0.0093811434 0.041355681 0.36600003 4280758311
-0.008169991 0.041242685 0.36500001 4280297760
-0.006965335 0.04112969 0.36400002 4280297760
-0.0057671745 0.041016694 0.36300001 4279838744
-0.004575511 0.040903702 0.36200002 4279445783
-0.0033903427 0.040790711 0.36100003 4279251736
-0.0022178141 0.040790711 0.36100003 4279187224
-0.0010423897 0.040677715 0.36000001 4278794004
0.00012689093 0.040677715 0.36000001 4278662931
0.0012961716 0.040677715 0.36000001 4278730007
0.0024654521 0.040677715 0.36000001 4278533398
0.0036246362 0.040564723 0.35900003 4279059742
0.0047906693 0.040564723 0.35900003 4278335249
0.0059567015 0.040564723 0.35900003 4278532115
0.0071227346 0.040564723 0.35900003 4278663701
0.0082887672 0.040564723 0.35900003 4278334736
0.0094547998 0.040564723 0.35900003 4278663701
0.010591248 0.040451728 0.35800001 4278597908
0.011754032 0.040451728 0.35800001 4278663701
0.012916816 0.040451728 0.35800001 4278597908
0.014079601 0.040451728 0.35800001 4278663447
0.015242386 0.040451728 0.35800001 4279317275
0.016405171 0.040451728 0.35800001 4278195972
0.017567955 0.040451728 0.35800001 4278924566
0.018730739 0.040451728 0.35800001 4279121945
0.019949093 0.040564723 0.35900003 4278654986
0.021115126 0.040564723 0.35900003 4279510811
0.022281159 0.040564723 0.35900003 4278459660
0.023512503 0.040677715 0.36000001 4278920211
0.024681784 0.040677715 0.36000001 4279248406
0.025851065 0.040677715 0.36000001 4278327304
0.027095402 0.040790711 0.36100003 4278393097
0.028267931 0.040790711 0.36100003 4278458890
0.029522011 0.040903702 0.36200002 4278654472
0.030697789 0.040903702 0.36200002 4278919441
0.031873565 0.040903702 0.36200002 4279116820
0.033140637 0.041016694 0.36300001 4278524170
0.034319662 0.041016694 0.36300001 4278921236
0.035498686 0.041016694 0.36300001 4278727189
0.036778755 0.04112969 0.36400002 4278331917
0.037961025 0.04112969 0.36400002 4278198021
0.039143298 0.04112969 0.36400002 4278262281
0.040325571 0.04112969 0.36400002 4278591757
0.041507844 0.04112969 0.36400002 4278593806
0.042807397 0.041242685 0.36500001 4278791955
0.043992914 0.041242685 0.36500001 4278198279
0.045178436 0.041242685 0.36500001 4278726421
0.046363954 0.041242685 0.36500001 4278198536
0.047679752 0.041355681 0.36600003 4278196994
0.048868522 0.041355681 0.36600003 4278661394
0.050057288 0.041355681 0.36600003 4278727187
0.051386073 0.041468672 0.36700001 4278596371
0.052578092 0.041468672 0.36700001 4278530578
0.053916626 0.041581668 0.36800003 4278727957
0.055111885 0.041581668 0.36800003 4278793750
0.056460157 0.04169466 0.36900002 4278925336
0.057658672 0.04169466 0.36900002 4278793750
0.059016682 0.041807652 0.37 4278727957
0.060543951 0.042033639 0.37200001 4278727957
0.061918214 0.042146634 0.37300003 4278727957
0.063298963 0.042259626 0.37400001 4279056152
0.064513713 0.042259626 0.37400001 4278790418
0.066079959 0.042485613 0.37600002 4279317529
0.067480199 0.042598605 0.377 4278728211
0.068704695 0.042598605 0.377 4278662931
0.07011468 0.042711601 0.37800002 4278663701
0.071531162 0.042824596 0.37900001 4278597908
0.072762154 0.042824596 0.37900001 4278532115
0.073993146 0.042824596 0.37900001 4278729494
0.075224139 0.042824596 0.37900001 4278463765
-0.015450601 0.042893577 0.36900002 4284775536
-0.014252089 0.042893577 0.36900002 4283393883
-0.013053576 0.042893577 0.36900002 4281944131
-0.011822936 0.042777337 0.36800003 4279904034
-0.010598792 0.042661093 0.36700001 4279639832
-0.0093555115 0.042428605 0.36500001 4279508246
-0.0081476076 0.042312365 0.36400002 4279968797
-0.0069461991 0.042196121 0.36300001 4279771416
-0.0057512871 0.042079877 0.36200002 4279444502
-0.0045628715 0.041963637 0.36100003 4279314967
-0.0033903427 0.041963637 0.36100003 4279186713
-0.0022116704 0.041847393 0.36000001 4279121431
-0.0010423897 0.041847393 0.36000001 4278794004
0.00012689093 0.041847393 0.36000001 4278794004
0.0012961716 0.041847393 0.36000001 4278861080
0.0024654521 0.041847393 0.36000001 4278598421
0.0036246362 0.041731153 0.35900003 4278598421
0.0047906693 0.041731153 0.35900003 4278532628
0.0059567015 0.041731153 0.35900003 4278598421
0.0071227346 0.041731153 0.35900003 4278598421
0.0082887672 0.041731153 0.35900003 4278532115
0.0094547998 0.041731153 0.35900003 4278334736
0.010591248 0.041614905 0.35800001 4278597908
0.011754032 0.041614905 0.35800001 4278663701
0.012916816 0.041614905 0.35800001 4278795287
0.014079601 0.041614905 0.35800001 4278597908
0.015242386 0.041614905 0.35800001 4278591755
0.016405171 0.041614905 0.35800001 4278590474
0.017567955 0.041614905 0.35800001 4278727187
0.018730739 0.041614905 0.35800001 4278924566
0.019949093 0.041731153 0.35900003 4278589193
0.021115126 0.041731153 0.35900003 4278786058
0.022281159 0.041731153 0.35900003 4278523400
0.023447191 0.041731153 0.35900003 4278458377
0.024681784 0.041847393 0.36000001 4278918928
0.025851065 0.041847393 0.36000001 4278458377
0.027095402 0.041963637 0.36100003 4279115537
0.028267931 0.041963637 0.36100003 4278523400
0.029522011 0.042079877 0.36200002 4278983949
0.030697789 0.042079877 0.36200002 4279907102
0.031873565 0.042079877 0.36200002 4279644443
0.033140637 0.042196121 0.36300001 4278260998
0.034319662 0.042196121 0.36300001 4279514141
0.035596479 0.042312365 0.36400002 4279385117
0.036778755 0.042312365 0.36400002 4278196997
0.037961025 0.042312365 0.36400002 4278458375
0.039143298 0.042312365 0.36400002 4278720779
0.040436354 0.042428605 0.36500001 4278195205
0.041621875 0.042428605 0.36500001 4278395660
0.042807397 0.042428605 0.36500001 4279186713
0.043992914 0.042428605 0.36500001 4279186459
0.045302216 0.042544849 0.36600003 4278461966
0.046490982 0.042544849 0.36600003 4279055127
0.047679752 0.042544849 0.36600003 4279055125
0.04900204 0.042661093 0.36700001 4278199045
0.050194055 0.042661093 0.36700001 4278198533
0.051386073 0.042661093 0.36700001 4278726162
0.052721359 0.042777337 0.36800003 4278199816
0.053916626 0.042777337 0.36800003 4278199045
0.055261642 0.042893577 0.36900002 4278199816
0.056613166 0.043009818 0.37 4278198273
0.057814926 0.043009818 0.37 4278661394
0.059176192 0.043126062 0.37100002 4278529810
0.060543951 0.043242306 0.37200001 4278529810
0.061918214 0.043358549 0.37300003 4278728470
0.063298963 0.04347479 0.37400001 4278531345
0.064686216 0.043591034 0.37500003 4278198022
0.066079959 0.043707278 0.37600002 4278923287
0.067480199 0.043823518 0.377 4278859797
0.068704695 0.043823518 0.377 4278859797
0.07011468 0.043939762 0.37800002 4278728724
0.071342431 0.043939762 0.37800002 4278794517
0.072762154 0.044056002 0.37900001 4278662931
0.073993146 0.044056002 0.37900001 4278794517
0.075224139 0.044056002 0.37900001 4278858007
-0.019200986 0.044450969 0.37200001 4280164623
-0.013053576 0.044092495 0.36900002 4284841842
-0.011822936 0.043973006 0.36800003 4284841327
-0.010598792 0.04385351 0.36700001 4284643180
-0.0093555115 0.043614529 0.36500001 4279772962
-0.0081252242 0.043375544 0.36300001 4280034590
-0.0069270642 0.043256052 0.36200002 4279968795
-0.0057353997 0.043136563 0.36100003 4279445270
-0.0045628715 0.043136563 0.36100003 4279446553
-0.003380951 0.043017067 0.36000001 4279251736
-0.0022116704 0.043017067 0.36000001 4279253017
-0.0010423897 0.043017067 0.36000001 4278859797
0.00012689093 0.043017067 0.36000001 4278991896
0.0012961716 0.043017067 0.36000001 4278795287
0.0024586036 0.042897578 0.35900003 4278597908
0.0036246362 0.042897578 0.35900003 4278532628
0.0047906693 0.042897578 0.35900003 4278598421
0.0059567015 0.042897578 0.35900003 4278664214
0.0071227346 0.042897578 0.35900003 4278532628
0.0082887672 0.042897578 0.35900003 4278466835
0.0094547998 0.042897578 0.35900003 4278466835
0.010591248 0.042778086 0.35800001 4278203406
0.011754032 0.042778086 0.35800001 4278466835
0.012916816 0.042778086 0.35800001 4278466835
0.014079601 0.042778086 0.35800001 4278532115
0.015242386 0.042778086 0.35800001 4278394376
0.016405171 0.042778086 0.35800001 4279183381
0.017567955 0.042778086 0.35800001 4278990359
0.018730739 0.042778086 0.35800001 4278727187
0.019893523 0.042778086 0.35800001 4278851851
0.021056309 0.042778086 0.35800001 4278785804
0.022281159 0.042897578 0.35900003 4278654218
0.023447191 0.042897578 0.35900003 4278654218
0.024681784 0.043017067 0.36000001 4278654218
0.025851065 0.043017067 0.36000001 4278719498
0.027095402 0.043136563 0.36100003 4278587912
0.028267931 0.043136563 0.36100003 4278719498
0.029522011 0.043256052 0.36200002 4278588166
0.030697789 0.043256052 0.36200002 4278522886
0.031961612 0.043375544 0.36300001 4278523400
0.033140637 0.043375544 0.36300001 4278589193
0.034319662 0.043375544 0.36300001 4279712287
0.035596479 0.043495037 0.36400002 4278989845
0.036778755 0.043495037 0.36400002 4278195200
0.037961025 0.043495037 0.36400002 4278523398
0.039250832 0.043614529 0.36500001 4278720265
0.040436354 0.043614529 0.36500001 4279116820
0.041621875 0.043614529 0.36500001 4278395662
0.04292468 0.043734021 0.36600003 4278856211
0.044113446 0.043734021 0.36600003 4278331150
0.045302216 0.043734021 0.36600003 4278791701
0.046618003 0.04385351 0.36700001 4278857748
0.047810022 0.04385351 0.36700001 4279318810
0.04900204 0.04385351 0.36700001 4278595087
0.050194055 0.04385351 0.36700001 4278397197
0.051526092 0.043973006 0.36800003 4278460937
0.052721359 0.043973006 0.36800003 4278460683
0.054063134 0.044092495 0.36900002 4279118867
0.055261642 0.044092495 0.36900002 4278791185
0.056613166 0.044211987 0.37 4279317275
0.057971187 0.04433148 0.37100002 4278593552
0.059335694 0.044450969 0.37200001 4278198793
0.060706709 0.044570465 0.37300003 4278923287
0.061918214 0.044570465 0.37300003 4278596371
0.063298963 0.044689953 0.37400001 4278399505
0.064686216 0.044809449 0.37500003 4278195712
0.066079959 0.044928938 0.37600002 4279186711
0.067480199 0.045048431 0.377 4278794263
0.068704695 0.045048431 0.377 4278728470
0.07011468 0.045167923 0.37800002 4278531345
0.071342431 0.045167923 0.37800002 4278728724
0.072570167 0.045167923 0.37800002 4278728724
0.073993146 0.045287412 0.37900001 4278860310
0.075224139 0.045287412 0.37900001 4278858007
-0.019304216 0.045905117 0.37400001 4280098832
-0.018669873 0.047378011 0.38600001 4282536773
-0.017416146 0.047378011 0.38600001 4284841327
-0.016162418 0.047378011 0.38600001 4284907382
-0.014908689 0.047378011 0.38600001 4284907382
-0.013654959 0.047378011 0.38600001 4284972915
-0.011855063 0.045291413 0.36900002 4284775536
-0.010656551 0.045291413 0.36900002 4284512364
-0.0093298806 0.044677708 0.36400002 4284315498
-0.0081028407 0.044432227 0.36200002 4284379755
-0.0069270642 0.044432227 0.36200002 4279641629
-0.0057353997 0.044309489 0.36100003 4279446553
-0.0045502316 0.044186745 0.36000001 4279184406
-0.003380951 0.044186745 0.36000001 4279318810
-0.0022116704 0.044186745 0.36000001 4279056406
-0.0010423897 0.044186745 0.36000001 4278728724
0.00012653845 0.044064008 0.35900003 4278794517
0.0012925711 0.044064008 0.35900003 4278992666
0.0024586036 0.044064008 0.35900003 4278795287
0.0036246362 0.044064008 0.35900003 4278663701
0.0047906693 0.044064008 0.35900003 4278664214
0.0059567015 0.044064008 0.35900003 4278532628
0.0071227346 0.044064008 0.35900003 4278532628
0.0082887672 0.044064008 0.35900003 4278532628
0.0094547998 0.044064008 0.35900003 4278598421
0.010591248 0.043941263 0.35800001 4278598421
0.011754032 0.043941263 0.35800001 4278532628
0.012916816 0.043941263 0.35800001 4278729494
0.014079601 0.043941263 0.35800001 4278531861
0.015242386 0.043941263 0.35800001 4278791955
0.016405171 0.043941263 0.35800001 4278593806
0.017567955 0.043941263 0.35800001 4278990361
0.018730739 0.043941263 0.35800001 4278859545
0.019893523 0.043941263 0.35800001 4278921236
0.021056309 0.043941263 0.35800001 4278458636
0.022219094 0.043941263 0.35800001 4278392330
0.023447191 0.044064008 0.35900003 4278588939
0.024613226 0.044064008 0.35900003 4278720011
0.025851065 0.044186745 0.36000001 4278720011
0.027020345 0.044186745 0.36000001 4278785804
0.028267931 0.044309489 0.36100003 4278719498
0.029440459 0.044309489 0.36100003 4278851084
0.030697789 0.044432227 0.36200002 4278719498
0.031873565 0.044432227 0.36200002 4278719498
0.033140637 0.044554967 0.36300001 4278456326
0.034319662 0.044554967 0.36300001 4278988564
0.035596479 0.044677708 0.36400002 4278989847
0.036778755 0.044677708 0.36400002 4279184406
0.037961025 0.044677708 0.36400002 4279117588
0.039250832 0.044800449 0.36500001 4279643932
0.040436354 0.044800449 0.36500001 4279053590
0.041621875 0.044800449 0.36500001 4278923287
0.04292468 0.044923194 0.36600003 4279054873
0.044113446 0.044923194 0.36600003 4278989847
0.045302216 0.044923194 0.36600003 4278727189
0.046618003 0.045045931 0.36700001 4278858261
0.047810022 0.045045931 0.36700001 4278595089
0.04900204 0.045045931 0.36700001 4278858259
0.050330825 0.045168675 0.36800003 4278989845
0.051526092 0.045168675 0.36800003 4278791953
0.052721359 0.045168675 0.36800003 4278330634
0.054063134 0.045291413 0.36900002 4279778080
0.055261642 0.045291413 0.36900002 4278198277
0.056613166 0.045414153 0.37 4278196738
0.057971187 0.045536898 0.37100002 4279251482
0.059335694 0.045659635 0.37200001 4278198280
0.060706709 0.04578238 0.37300003 4278198026
0.061918214 0.04578238 0.37300003 4278858775
0.063298963 0.045905117 0.37400001 4278727187
0.064686216 0.046027862 0.37500003 4278198018
0.066079959 0.046150602 0.37600002 4279055638
0.067301206 0.046150602 0.37600002 4278728470
0.068704695 0.04627334 0.377 4278662677
0.07011468 0.046396084 0.37800002 4278662677
0.071342431 0.046396084 0.37800002 4278662931
0.072570167 0.046396084 0.37800002 4278728724
0.073797919 0.046396084 0.37800002 4278794004
0.075025663 0.046396084 0.37800002 4278857496
-0.021791834 0.047246277 0.37500003 4280164620
-0.020628696 0.047372267 0.37600002 4279703820
-0.019459063 0.047498256 0.377 4280098578
-0.018669873 0.048632164 0.38600001 4284577385
-0.017416146 0.048632164 0.38600001 4284775534
-0.016162418 0.048632164 0.38600001 4284907382
-0.014908689 0.048632164 0.38600001 4284907382
-0.013654959 0.048632164 0.38600001 4284775796
-0.012401231 0.048632164 0.38600001 4284710003
-0.011147503 0.048632164 0.38600001 4284644463
-0.0098937741 0.048632164 0.38600001 4284183912
-0.0080804573 0.045482416 0.36100003 4283854947
-0.0069079287 0.045482416 0.36100003 4283195734
-0.0057195118 0.045356423 0.36000001 4278657552
-0.0045502316 0.045356423 0.36000001 4279447582
-0.003380951 0.045356423 0.36000001 4279515678
-0.0022116704 0.045356423 0.36000001 4278990359
-0.0010394942 0.045230437 0.35900003 4278925590
0.00012653845 0.045230437 0.35900003 4279123482
0.0012925711 0.045230437 0.35900003 4279058459
0.0024586036 0.045230437 0.35900003 4278729494
0.0036246362 0.045230437 0.35900003 4278795287
0.0047906693 0.045230437 0.35900003 4278729494
0.0059567015 0.045230437 0.35900003 4278532115
0.0071227346 0.045230437 0.35900003 4278663701
0.0082887672 0.045230437 0.35900003 4278597908
0.0094547998 0.045230437 0.35900003 4278861080
0.010591248 0.045104444 0.35800001 4278663701
0.011754032 0.045104444 0.35800001 4278795287
0.012916816 0.045104444 0.35800001 4278861080
0.014079601 0.045104444 0.35800001 4278333966
0.01519981 0.044978455 0.35700002 4278528013
0.016359346 0.044978455 0.35700002 4278199564
0.017518884 0.044978455 0.35700002 4279189023
0.018678419 0.044978455 0.35700002 4278728472
0.019837957 0.044978455 0.35700002 4278860058
0.021056309 0.045104444 0.35800001 4278925338
0.022219094 0.045104444 0.35800001 4278990361
0.023381878 0.045104444 0.35800001 4279121947
0.024613226 0.045230437 0.35900003 4279253019
0.025779257 0.045230437 0.35900003 4279120920
0.027020345 0.045356423 0.36000001 4279448602
0.028267931 0.045482416 0.36100003 4279580188
0.029440459 0.045482416 0.36100003 4279317016
0.030697789 0.045608405 0.36200002 4279842336
0.031873565 0.045608405 0.36200002 4279579166
0.033140637 0.045734394 0.36300001 4279118101
0.034319662 0.045734394 0.36300001 4279449115
0.035596479 0.045860387 0.36400002 4278197510
0.036778755 0.045860387 0.36400002 4278196740
0.037961025 0.045860387 0.36400002 4278195200
0.039250832 0.045986373 0.36500001 4278194945
0.040436354 0.045986373 0.36500001 4278195973
0.041621875 0.045986373 0.36500001 4278195715
0.04292468 0.046112366 0.36600003 4278195972
0.044113446 0.046112366 0.36600003 4278197767
0.045302216 0.046112366 0.36600003 4278197767
0.046618003 0.046238355 0.36700001 4278593806
0.047810022 0.046238355 0.36700001 4278857748
0.04900204 0.046238355 0.36700001 4278791955
0.050330825 0.046364348 0.36800003 4279186711
0.051526092 0.046364348 0.36800003 4278792466
0.052721359 0.046364348 0.36800003 4279056152
0.054063134 0.046490334 0.36900002 4278727187
0.055261642 0.046490334 0.36900002 4278858773
0.056613166 0.046616323 0.37 4278990359
0.057971187 0.046742316 0.37100002 4278727187
0.059335694 0.046868306 0.37200001 4278727187
0.060706709 0.046994295 0.37300003 4279385117
0.061918214 0.046994295 0.37300003 4278793750
0.063298963 0.047120284 0.37400001 4278793750
0.064686216 0.047246277 0.37500003 4278197510
0.066079959 0.047372267 0.37600002 4278727187
0.067301206 0.047372267 0.37600002 4278925849
0.068704695 0.047498256 0.377 4278662677
0.06992919 0.047498256 0.377 4278860056
0.071342431 0.047624245 0.37800002 4278662677
0.072570167 0.047624245 0.37800002 4278728470
0.073797919 0.047624245 0.37800002 4278925849
0.075025663 0.047624245 0.37800002 4279974696
-0.023071194 0.048593923 0.37600002 4280164877
-0.021966169 0.048852403 0.37800002 4279835660
-0.020793287 0.04898164 0.37900001 4279703820
-0.01961391 0.049110882 0.38000003 4280230936
-0.018621508 0.049757078 0.38500002 4285432183
-0.017416146 0.049886316 0.38600001 4284907122
-0.016162418 0.049886316 0.38600001 4284972662
-0.014908689 0.049886316 0.38600001 4284907382
-0.013654959 0.049886316 0.38600001 4284775796
-0.012401231 0.049886316 0.38600001 4284710003
-0.011147503 0.049886316 0.38600001 4284512624
-0.0098937741 0.049886316 0.38600001 4283986533
-0.0080804573 0.046655338 0.36100003 4283920740
-0.0069079287 0.046655338 0.36100003 4283920227
-0.0057195118 0.046526097 0.36000001 4283788641
-0.0045502316 0.046526097 0.36000001 4281881155
-0.003380951 0.046526097 0.36000001 4278856215
-0.0022055269 0.046396859 0.35900003 4279448861
-0.0010394942 0.046396859 0.35900003 4279121945
0.00012653845 0.046396859 0.35900003 4279451680
0.0012925711 0.046396859 0.35900003 4279123228
0.0024586036 0.046396859 0.35900003 4278860826
0.0036246362 0.046396859 0.35900003 4278860828
0.0047906693 0.046396859 0.35900003 4278992412
0.0059567015 0.046396859 0.35900003 4278400275
0.0071227346 0.046396859 0.35900003 4278729240
0.0082887672 0.046396859 0.35900003 4278795033
0.0094547998 0.046396859 0.35900003 4278597654
0.010591248 0.046267621 0.35800001 4278597654
0.011754032 0.046267621 0.35800001 4278729240
0.012916816 0.046267621 0.35800001 4278663701
0.014040273 0.046138383 0.35700002 4278663701
0.01519981 0.046138383 0.35700002 4278794004
0.016359346 0.046138383 0.35700002 4278925590
0.017518884 0.046138383 0.35700002 4278926103
0.018678419 0.046138383 0.35700002 4278794517
0.019837957 0.046138383 0.35700002 4279058459
0.020997493 0.046138383 0.35700002 4278597908
0.022219094 0.046267621 0.35800001 4278860056
0.023381878 0.046267621 0.35800001 4278794263
0.024544664 0.046267621 0.35800001 4278794263
0.025779257 0.046396859 0.35900003 4278925849
0.027020345 0.046526097 0.36000001 4278925849
0.028189626 0.046526097 0.36000001 4278794263
0.029440459 0.046655338 0.36100003 4278860056
0.030697789 0.046784576 0.36200002 4278925849
0.031873565 0.046784576 0.36200002 4278925849
0.033049341 0.046784576 0.36200002 4278925336
0.034319662 0.046913814 0.36300001 4278859543
0.035498686 0.046913814 0.36300001 4278925336
0.036778755 0.047043055 0.36400002 4278924566
0.037961025 0.047043055 0.36400002 4278727187
0.039143298 0.047043055 0.36400002 4278990359
0.040436354 0.047172293 0.36500001 4279055640
0.041621875 0.047172293 0.36500001 4279120666
0.04292468 0.047301535 0.36600003 4279054873
0.044113446 0.047301535 0.36600003 4279515424
0.045302216 0.047301535 0.36600003 4279251482
0.046618003 0.047430772 0.36700001 4279579934
0.047810022 0.047430772 0.36700001 4279382555
0.04900204 0.047430772 0.36700001 4278856211
0.050330825 0.047560014 0.36800003 4278723855
0.051526092 0.047560014 0.36800003 4278592269
0.052721359 0.047560014 0.36800003 4278195969
0.054063134 0.047689252 0.36900002 4278195200
0.055261642 0.047689252 0.36900002 4278194944
0.056613166 0.047818489 0.37 4278193920
0.057971187 0.047947731 0.37100002 4278194944
0.059335694 0.048076969 0.37200001 4278195971
0.060543951 0.048076969 0.37200001 4278196227
0.061918214 0.04820621 0.37300003 4278197253
0.063298963 0.048335448 0.37400001 4278197510
0.064686216 0.048464689 0.37500003 4278726162
0.066079959 0.048593923 0.37600002 4278990359
0.067301206 0.048593923 0.37600002 4278794517
0.068704695 0.048723161 0.377 4278794517
0.06992919 0.048723161 0.377 4278794517
0.071342431 0.048852403 0.37800002 4278794517
0.072570167 0.048852403 0.37800002 4278794263
0.073797919 0.048852403 0.37800002 4278793752
0.075025663 0.048852403 0.37800002 4285040503
-0.023193913 0.050080568 0.37800002 4280230416
-0.022024279 0.050213054 0.37900001 4279769867
-0.020848151 0.050345544 0.38000003 4279704592
-0.019665526 0.05047803 0.38100001 4280033557
-0.018573139 0.050875496 0.384 4280693288
-0.017416146 0.051140472 0.38600001 4285169522
-0.016162418 0.051140472 0.38600001 4285103731
-0.014908689 0.051140472 0.38600001 4284906869
-0.013654959 0.051140472 0.38600001 4284972662
-0.012401231 0.051140472 0.38600001 4284710003
-0.011147503 0.051140472 0.38600001 4284446831
-0.0098937741 0.051140472 0.38600001 4284183659
-0.0086400453 0.051140472 0.38600001 4283986533
-0.0057195118 0.047695778 0.36000001 4283788641
-0.0045375922 0.047563292 0.35900003 4284051560
-0.0033715598 0.047563292 0.35900003 4285039735
-0.0022055269 0.047563292 0.35900003 4283790436
-0.0010394942 0.047563292 0.35900003 4280172588
0.00012653845 0.047563292 0.35900003 4279251484
0.0012925711 0.047563292 0.35900003 4279384865
0.0024586036 0.047563292 0.35900003 4279319844
0.0036246362 0.047563292 0.35900003 4279320357
0.0047906693 0.047563292 0.35900003 4279057955
0.0059567015 0.047563292 0.35900003 4278860574
0.0071227346 0.047563292 0.35900003 4279057953
0.0082887672 0.047563292 0.35900003 4278992160
0.0094284629 0.047430802 0.35800001 4278992160
0.010591248 0.047430802 0.35800001 4278992160
0.011754032 0.047430802 0.35800001 4279058207
0.012880736 0.047298312 0.35700002 4279123998
0.014040273 0.047298312 0.35700002 4278860826
0.01519981 0.047298312 0.35700002 4278729242
0.016359346 0.047298312 0.35700002 4278795033
0.01746981 0.047165822 0.35600001 4278861080
0.018626098 0.047165822 0.35600001 4278795287
0.019837957 0.047298312 0.35700002 4278662931
0.020997493 0.047298312 0.35700002 4278794517
0.02215703 0.047298312 0.35700002 4278925849
0.023381878 0.047430802 0.35800001 4278860056
0.024544664 0.047430802 0.35800001 4278728470
0.025779257 0.047563292 0.35900003 4278400275
0.026945289 0.047563292 0.35900003 4278597654
0.028189626 0.047695778 0.36000001 4278729240
0.029440459 0.047828268 0.36100003 4278597654
0.03061299 0.047828268 0.36100003 4278597654
0.031873565 0.047960754 0.36200002 4278597654
0.033049341 0.047960754 0.36200002 4278531861
0.034319662 0.048093241 0.36300001 4278663447
0.035498686 0.048093241 0.36300001 4278794263
0.036677711 0.048093241 0.36300001 4278794263
0.037961025 0.048225731 0.36400002 4278728470
0.039143298 0.048225731 0.36400002 4278728470
0.040436354 0.048358217 0.36500001 4278794263
0.041621875 0.048358217 0.36500001 4278728470
0.04292468 0.048490711 0.36600003 4278794263
0.044113446 0.048490711 0.36600003 4278727957
0.045302216 0.048490711 0.36600003 4278859545
0.046618003 0.048623197 0.36700001 4279385889
0.047810022 0.048623197 0.36700001 4278859545
0.04900204 0.048623197 0.36700001 4278727959
0.050194055 0.048623197 0.36700001 4278859545
0.051526092 0.048755687 0.36800003 4278924568
0.052721359 0.048755687 0.36800003 4279121947
0.053916626 0.048755687 0.36800003 4279056154
0.055261642 0.048888173 0.36900002 4278990361
0.056613166 0.049020659 0.37 4278924568
0.057814926 0.049020659 0.37 4279055640
0.059176192 0.049153149 0.37100002 4279121433
0.060543951 0.049285635 0.37200001 4279187226
0.061918214 0.049418125 0.37300003 4278988564
0.063298963 0.049550612 0.37400001 4279646494
0.064686216 0.049683105 0.37500003 4279121433
0.065904215 0.049683105 0.37500003 4278858773
0.067301206 0.049815591 0.37600002 4278925590
0.068704695 0.049948078 0.377 4278859797
0.06992919 0.049948078 0.377 4278926103
0.071153685 0.049948078 0.377 4278860310
0.072570167 0.050080568 0.37800002 4278925849
0.073797919 0.050080568 0.37800002 4279121179
0.075025663 0.050080568 0.37800002 4284776561
-0.023316633 0.051580202 0.38000003 4280361745
-0.022140503 0.051715937 0.38100001 4279967246
-0.02095788 0.051851675 0.38200003 4279638799
-0.019768758 0.05198741 0.38300002 4280100122
-0.018621508 0.052258886 0.38500002 4280034588
-0.017416146 0.052394621 0.38600001 4285629562
-0.016162418 0.052394621 0.38600001 4285038708
-0.014908689 0.052394621 0.38600001 4284972915
-0.013654959 0.052394621 0.38600001 4284841076
-0.012401231 0.052394621 0.38600001 4284906869
-0.011147503 0.052394621 0.38600001 4284577904
-0.0098937741 0.052394621 0.38600001 4284248939
-0.0057036243 0.048729714 0.35900003 4283919974
-0.0045375922 0.048729714 0.35900003 4284117353
-0.0033715598 0.048729714 0.35900003 4284381038
-0.0022055269 0.048729714 0.35900003 4284513391
-0.0010394942 0.048729714 0.35900003 4284644977
0.00012653845 0.048729714 0.35900003 4284973942
0.0012925711 0.048729714 0.35900003 4284974710
0.0024586036 0.048729714 0.35900003 4284514159
0.0036246362 0.048729714 0.35900003 4283133019
0.0047906693 0.048729714 0.35900003 4281554757
0.0059567015 0.048729714 0.35900003 4280304690
0.0071227346 0.048729714 0.35900003 4279712553
0.0082887672 0.048729714 0.35900003 4279120670
0.0094284629 0.048593976 0.35800001 4278726425
0.010591248 0.048593976 0.35800001 4278595099
0.011754032 0.048593976 0.35800001 4279055650
0.012880736 0.048458241 0.35700002 4278990111
0.014040273 0.048458241 0.35700002 4279319076
0.01519981 0.048458241 0.35700002 4279319844
0.016313521 0.048322503 0.35600001 4279254051
0.01746981 0.048322503 0.35600001 4279188769
0.018626098 0.048322503 0.35600001 4279189023
0.019782387 0.048322503 0.35600001 4279189023
0.020997493 0.048458241 0.35700002 4278925851
0.02215703 0.048458241 0.35700002 4279123230
0.023316566 0.048458241 0.35700002 4279254303
0.024544664 0.048593976 0.35800001 4278925851
0.025779257 0.048729714 0.35900003 4279123230
0.026945289 0.048729714 0.35900003 4278991644
0.028189626 0.048865452 0.36000001 4279189023
0.029440459 0.049001191 0.36100003 4278991644
0.03061299 0.049001191 0.36100003 4278925851
0.031873565 0.049136925 0.36200002 4278860058
0.033049341 0.049136925 0.36200002 4278794263
0.034225117 0.049136925 0.36200002 4278925849
0.035498686 0.049272664 0.36300001 4278860056
0.036677711 0.049272664 0.36300001 4278925849
0.037961025 0.049408402 0.36400002 4278728470
0.039143298 0.049408402 0.36400002 4278794263
0.040436354 0.049544137 0.36500001 4278794263
0.041621875 0.049544137 0.36500001 4278662677
0.04292468 0.049679875 0.36600003 4278662677
0.044113446 0.049679875 0.36600003 4278925849
0.045302216 0.049679875 0.36600003 4278860056
0.046618003 0.049815614 0.36700001 4278794263
0.047810022 0.049815614 0.36700001 4278794263
0.04900204 0.049815614 0.36700001 4278794263
0.050194055 0.049815614 0.36700001 4278728470
0.051526092 0.049951352 0.36800003 4278728470
0.052721359 0.049951352 0.36800003 4278925336
0.053916626 0.049951352 0.36800003 4278925336
0.055261642 0.050087087 0.36900002 4278991129
0.056460157 0.050087087 0.36900002 4278925336
0.057814926 0.050222825 0.37 4278925336
0.059176192 0.050358564 0.37100002 4278925336
0.060543951 0.050494298 0.37200001 4278793750
0.061918214 0.050630037 0.37300003 4278727957
0.063298963 0.050765775 0.37400001 4278793750
0.064686216 0.050901514 0.37500003 4278859543
0.065904215 0.050901514 0.37500003 4278991129
0.067301206 0.051037248 0.37600002 4279056922
0.068522453 0.051037248 0.37600002 4278925336
0.06992919 0.051172987 0.377 4278991129
0.071153685 0.051172987 0.377 4279056922
0.072378181 0.051172987 0.377 4279120666
0.073797919 0.051308725 0.37800002 4284580206
-0.023316633 0.05281486 0.38000003 4280361745
-0.022140503 0.052953847 0.38100001 4280230418
-0.02095788 0.053092834 0.38200003 4279902741
-0.019768758 0.05323182 0.38300002 4280165915
-0.018621508 0.053509794 0.38500002 4279903002
-0.017416146 0.053648777 0.38600001 4285826941
-0.016162418 0.053648777 0.38600001 4285038708
-0.014908689 0.053648777 0.38600001 4284841329
-0.013654959 0.053648777 0.38600001 4284906869
0.0024586036 0.049896147 0.35900003 4284842354
0.0036246362 0.049896147 0.35900003 4284973940
0.0047906693 0.049896147 0.35900003 4284776561
0.0059567015 0.049896147 0.35900003 4284776561
0.0071227346 0.049896147 0.35900003 4284842354
0.0082887672 0.049896147 0.35900003 4284842354
0.0094284629 0.049757157 0.35800001 4284908919
0.010591248 0.049757157 0.35800001 4285172091
0.011754032 0.049757157 0.35800001 4285369468
0.012880736 0.049618173 0.35700002 4285435261
0.014040273 0.049618173 0.35700002 4284909430
0.015157233 0.049479183 0.35600001 4284580465
0.016313521 0.049479183 0.35600001 4284054121
0.01746981 0.049479183 0.35600001 4283264605
0.018626098 0.049479183 0.35600001 4281686343
0.019782387 0.049479183 0.35600001 4280370996
0.020938676 0.049479183 0.35600001 4279515941
0.02215703 0.049618173 0.35700002 4279186974
0.023316566 0.049618173 0.35700002 4278858009
0.024544664 0.049757157 0.35800001 4278858011
0.025707448 0.049757157 0.35800001 4279055390
0.026945289 0.049896147 0.35900003 4278858011
0.028189626 0.05003513 0.36000001 4279186974
0.029358907 0.05003513 0.36000001 4279252765
0.03061299 0.050174121 0.36100003 4279450144
0.031785518 0.050174121 0.36100003 4279055900
0.033049341 0.050313104 0.36200002 4279187486
0.034225117 0.050313104 0.36200002 4279187740
0.035498686 0.050452087 0.36300001 4279187738
0.036677711 0.050452087 0.36300001 4279319324
0.037961025 0.050591078 0.36400002 4279121945
0.039143298 0.050591078 0.36400002 4278991642
0.040436354 0.050730061 0.36500001 4278991642
0.041621875 0.050730061 0.36500001 4278925849
0.042807397 0.050730061 0.36500001 4279189021
0.044113446 0.050869051 0.36600003 4279123230
0.045302216 0.050869051 0.36600003 4278925851
0.046490982 0.050869051 0.36600003 4278991642
0.047810022 0.051008034 0.36700001 4278991642
0.04900204 0.051008034 0.36700001 4279188508
0.050194055 0.051008034 0.36700001 4279123228
0.051526092 0.051147025 0.36800003 4279123228
0.052721359 0.051147025 0.36800003 4279056922
0.053916626 0.051147025 0.36800003 4279056922
0.055261642 0.051286008 0.36900002 4278925338
0.056460157 0.051286008 0.36900002 4279517475
0.057814926 0.051424995 0.37 4279056924
0.059176192 0.051563982 0.37100002 4279056922
0.060543951 0.051702969 0.37200001 4279056922
0.061918214 0.051841956 0.37300003 4279188508
0.063298963 0.051980942 0.37400001 4279056922
0.064513713 0.051980942 0.37400001 4279385117
0.065904215 0.052119929 0.37500003 4279187738
0.067301206 0.052258916 0.37600002 4278924566
0.068522453 0.052258916 0.37600002 4279385119
0.06992919 0.052397899 0.377 4279516705
0.071153685 0.052397899 0.377 4278989595
0.072378181 0.052397899 0.377 4284250471
-0.02337799 0.054191757 0.38100001 4279967244
-0.022198614 0.054333996 0.38200003 4280033809
-0.021012742 0.054476228 0.38300002 4280232219
-0.019768758 0.054476228 0.38300002 4280232221
-0.018621508 0.054760698 0.38500002 4280034588
-0.017371027 0.054760698 0.38500002 4285695355
-0.016162418 0.054902934 0.38600001 4284907122
0.03061299 0.051347047 0.36100003 4284776563
0.031785518 0.051347047 0.36100003 4284316010
0.033049341 0.051489282 0.36200002 4283593311
0.034225117 0.051489282 0.36200002 4283001687
0.035498686 0.051631514 0.36300001 4281817413
0.036677711 0.051631514 0.36300001 4281027897
0.037856735 0.051631514 0.36300001 4280304174
0.039143298 0.051773753 0.36400002 4279975207
0.040325571 0.051773753 0.36400002 4279647012
0.041621875 0.051915988 0.36500001 4279515428
0.042807397 0.051915988 0.36500001 4279515428
0.044113446 0.052058224 0.36600003 4279580967
0.045302216 0.052058224 0.36600003 4279515174
0.046490982 0.052058224 0.36600003 4279383588
0.047810022 0.052200459 0.36700001 4279711783
0.04900204 0.052200459 0.36700001 4279580967
0.050194055 0.052200459 0.36700001 4279515428
0.051386073 0.052200459 0.36700001 4279712807
0.052721359 0.052342698 0.36800003 4279777830
0.053916626 0.052342698 0.36800003 4279777828
0.055261642 0.05248493 0.36900002 4279712035
0.056460157 0.05248493 0.36900002 4280172586
0.057814926 0.052627165 0.37 4279777828
0.059176192 0.052769404 0.37100002 4279909414
0.060543951 0.052911635 0.37200001 4280172586
0.061918214 0.053053875 0.37300003 4280172073
0.063298963 0.053196106 0.37400001 4280830003
0.064513713 0.053196106 0.37400001 4280961589
0.065904215 0.053338345 0.37500003 4281158968
0.067301206 0.05348058 0.37600002 4281948486
0.068522453 0.05348058 0.37600002 4282869588
0.06992919 0.053622812 0.377 4284973940
0.071153685 0.053622812 0.377 4285105528
-0.02337799 0.05542966 0.38100001 4279966987
-0.022198614 0.055575147 0.38200003 4280099348
-0.02095788 0.055575147 0.38200003 4280100633
-0.019768758 0.055720631 0.38300002 4280100633
-0.018573139 0.055866115 0.384 4279377430
-0.017371027 0.056011602 0.38500002 4285366390
0.068522453 0.054702237 0.37600002 4285170805
-0.023316633 0.056518842 0.38000003 4279966987
-0.022140503 0.056667574 0.38100001 4280427543
-0.02095788 0.05681631 0.38200003 4280100631
-0.019768758 0.056965042 0.38300002 4280232219
-0.018573139 0.05711377 0.384 4279377430
-0.023316633 0.057753496 0.38000003 4279967244
-0.022140503 0.057905477 0.38100001 4280099602
-0.02095788 0.058057461 0.38200003 4280232217
-0.019717142 0.058057461 0.38200003 4280232217
-0.023316633 0.058988158 0.38000003 4279966987
-0.022140503 0.059143387 0.38100001 4280230934
-0.020903014 0.059143387 0.38100001 4280100633
-0.019717142 0.059298623 0.38200003 4280363805
-0.023316633 0.060222812 0.38000003 4279901194
-0.022140503 0.060381293 0.38100001 4280296727
-0.020903014 0.060381293 0.38100001 4280100118
-0.019665526 0.060381293 0.38100001 4280363292
-0.023316633 0.061457474 0.38000003 4279835403
-0.022140503 0.061619204 0.38100001 4280230934
-0.020903014 0.061619204 0.38100001 4280165913
-0.024550874 0.062692128 0.38000003 4280164618
-0.023316633 0.062692128 0.38000003 4279901453
-0.022140503 0.062857106 0.38100001 4280165911
-0.024615481 0.06409502 0.38100001 4280230159
-0.02337799 0.06409502 0.38100001 4279835406
-0.022140503 0.06409502 0.38100001 4280297501
-0.052938409 0.065161444 0.38000003 4279639571
-0.051568102 0.064989969 0.37900001 4279638799
-0.024680089 0.065504402 0.38200003 4279901451
-0.023439351 0.065504402 0.38200003 4280098578
-0.022198614 0.065504402 0.38200003 4280691487
-0.02095788 0.065504402 0.38200003 4280364323
-0.052938409 0.06639611 0.38000003 4280363294
-0.051568102 0.066221379 0.37900001 4279836950
-0.024744697 0.066920288 0.38300002 4279835658
-0.023500711 0.066920288 0.38300002 4280099350
-0.022256725 0.066920288 0.38300002 4283062088
-0.051568102 0.067452788 0.37900001 4279968536
-0.050204292 0.067274816 0.37800002 4279573524
-0.048846982 0.067096837 0.377 4279441940
-0.047622483 0.067096837 0.377 4279441938
-0.024809303 0.068342671 0.384 4279638029
-0.02356207 0.068342671 0.384 4282074171
-0.022314835 0.068342671 0.384 4284181344
-0.051568102 0.068684198 0.37900001 4280298784
-0.050204292 0.068502977 0.37800002 4280363555
-0.048846982 0.06832175 0.377 4280034590
-0.047622483 0.06832175 0.377 4279903004
-0.046274919 0.068140522 0.37600002 4279442453
-0.045053668 0.068140522 0.37600002 4279376658
-0.043832421 0.068140522 0.37600002 4279376658
-0.042611171 0.068140522 0.37600002 4279507731
-0.041389924 0.068140522 0.37600002 4279639317
-0.040275507 0.06832175 0.377 4279836696
-0.039051007 0.06832175 0.377 4279836696
-0.037826512 0.06832175 0.377 4280494628
-0.036699105 0.068502977 0.37800002 4279705110
-0.035471361 0.068502977 0.37800002 4279638547
-0.034334205 0.068684198 0.37900001 4279704340
-0.024873912 0.069771551 0.38500002 4279506961
-0.023684788 0.069952771 0.38600001 4281548859
-0.022314835 0.069590323 0.384 4281088822
-0.050204292 0.069731139 0.37800002 4280167457
-0.048846982 0.069546662 0.377 4280166946
-0.047622483 0.069546662 0.377 4280166946
-0.046397988 0.069546662 0.377 4280166946
-0.045173492 0.069546662 0.377 4280101153
-0.043948997 0.069546662 0.377 4279903774
-0.042724498 0.069546662 0.377 4279969567
-0.041500002 0.069546662 0.377 4279772188
-0.040382341 0.069731139 0.37800002 4279640602
-0.039154593 0.069731139 0.37800002 4279377430
-0.037926849 0.069731139 0.37800002 4279640602
-0.03679619 0.069915608 0.37900001 4279640602
-0.035565197 0.069915608 0.37900001 4279377430
-0.0344248 0.070100084 0.38000003 4279443223
-0.033277899 0.07028456 0.38100001 4279311637
-0.032040413 0.07028456 0.38100001 4279311637
-0.03088377 0.070469037 0.38200003 4279376660
-0.029720634 0.070653506 0.38300002 4279442453
-0.027374871 0.071022458 0.38500002 4279310867
-0.026192246 0.071206927 0.38600001 4279310867
-0.025003128 0.071391404 0.38700002 4280165663
-0.02374615 0.071391404 0.38700002 4279640862
-0.046397988 0.070771568 0.377 4280297509
-0.045173492 0.070771568 0.377 4280100900
-0.043948997 0.070771568 0.377 4279904034
-0.042724498 0.070771568 0.377 4280167206
-0.041610084 0.0709593 0.37800002 4280167206
-0.030964617 0.071897909 0.38300002 4279903774
-0.029798232 0.072085634 0.384 4279837981
-0.028625354 0.072273359 0.38500002 4279706395
-0.027445974 0.072461076 0.38600001 4279509016
-0.026260102 0.072648801 0.38700002 4279509016
-0.025067734 0.072836526 0.38800001 4279377430
-0.023807507 0.072836526 0.38800001 4281154615
-0.029875834 0.073524266 0.38500002 4279837728
-0.028699704 0.073715232 0.38600001 4279837728
-0.027517078 0.073906206 0.38700002 4279903521
-0.026327958 0.074097179 0.38800001 4279969567
-0.022663506 0.074479125 0.39000002 4282075970
-0.022605395 0.084399357 0.38900003 4282075203
-0.022605395 0.085663259 0.38900003 4282140996
0.019506861 0.044197846 0.36615872 4294967295
0.019506861 0.044197846 0.36615872 4294901760
0.019506861 0.044197846 0.36665872 4294901760
0.019506861 0.044197846 0.36715871 4294901760
0.019506861 0.044197846 0.36765873 4294901760
0.019506861 0.044197846 0.36815873 4294901760
0.019506861 0.044197846 0.36865872 4294901760
0.019506861 0.044197846 0.36915872 4294901760
0.019506861 0.044197846 0.36965874 4294901760
0.019506861 0.044197846 0.37015873 4294901760
0.019506861 0.044197846 0.37065873 4294901760
0.019506861 0.044197846 0.37115872 4294901760
0.019506861 0.044197846 0.37165871 4294901760
0.019506861 0.044197846 0.37215874 4294901760
0.019506861 0.044197846 0.37265873 4294901760
0.019506861 0.044197846 0.37315872 4294901760
0.019506861 0.044197846 0.37365872 4294901760
0.019506861 0.044197846 0.37415874 4294901760
0.019506861 0.044197846 0.37465873 4294901760
0.019506861 0.044197846 0.37515873 4294901760
0.019506861 0.044197846 0.37565872 4294901760
0.019506861 0.044197846 0.37615871 4294901760
0.019506861 0.044197846 0.37665874 4294901760
0.019506861 0.044197846 0.37715873 4294901760
0.019506861 0.044197846 0.37765872 4294901760
0.019506861 0.044197846 0.37815872 4294901760
0.019506861 0.044197846 0.37865871 4294901760
0.019506861 0.044197846 0.37915874 4294901760
0.019506861 0.044197846 0.37965873 4294901760
0.019506861 0.044197846 0.38015872 4294901760
0.019506861 0.044197846 0.38065872 4294901760
0.019506861 0.044197846 0.38115874 4294901760
0.019506861 0.044197846 0.38165873 4294901760
0.019506861 0.044197846 0.38215873 4294901760
0.019506861 0.044197846 0.38265872 4294901760
0.019506861 0.044197846 0.38315874 4294901760
0.019506861 0.044197846 0.38365874 4294901760
0.019506861 0.044197846 0.38415873 4294901760
0.019506861 0.044197846 0.38465872 4294901760
0.019506861 0.044197846 0.38515872 4294901760
0.019506861 0.044197846 0.38565874 4294901760
0.019506861 0.044197846 0.38615873 4294901760
0.019506861 0.044197846 0.38665873 4294901760
0.019506861 0.044197846 0.38715872 4294901760
0.019506861 0.044197846 0.38765872 4294901760
0.019506861 0.044197846 0.38815874 4294901760
0.019506861 0.044197846 0.38865873 4294901760
0.019506861 0.044197846 0.38915873 4294901760
0.019506861 0.044197846 0.38965872 4294901760
0.019506861 0.044197846 0.39015874 4294901760
0.019506861 0.044197846 0.39065874 4294901760
0.019506861 0.044197846 0.39115873 4294901760
0.019506861 0.044197846 0.39165872 4294901760
0.019506861 0.044197846 0.39215872 4294901760
0.019506861 0.044197846 0.39265874 4294901760
0.019506861 0.044197846 0.39315873 4294901760
0.019506861 0.044197846 0.39365873 4294901760
0.019506861 0.044197846 0.39415872 4294901760
0.019506861 0.044197846 0.39465874 4294901760
0.019506861 0.044197846 0.39515874 4294901760
0.019506861 0.044197846 0.39565873 4294901760
0.019506861 0.044197846 0.39615873 4294901760
0.019506861 0.044197846 0.39665872 4294901760
0.019506861 0.044197846 0.39715874 4294901760
0.019506861 0.044197846 0.39765874 4294901760
0.019506861 0.044197846 0.39815873 4294901760
0.019506861 0.044197846 0.39865872 4294901760
0.019506861 0.044197846 0.39915875 4294901760
0.019506861 0.044197846 0.39965874 4294901760
0.019506861 0.044197846 0.40015873 4294901760
0.019506861 0.044197846 0.40065873 4294901760
0.019506861 0.044197846 0.40115872 4294901760
0.019506861 0.044197846 0.40165874 4294901760
0.019506861 0.044197846 0.40215874 4294901760
0.019506861 0.044197846 0.40265873 4294901760
0.019506861 0.044197846 0.40315872 4294901760
0.019506861 0.044197846 0.40365875 4294901760
