# .PCD v0.7 - Point Cloud Data file format
VERSION 0.7
FIELDS x y z rgb
SIZE 4 4 4 4
TYPE F F F U
COUNT 1 1 1 1
WIDTH 729
HEIGHT 1
VIEWPOINT 0 0 0 1 0 0 0
POINTS 729
DATA ascii
-0.02499623 0.03739845 0.55400002 4284773733
-0.023154967 0.037330944 0.55300003 4284576872
-0.015999265 0.03739845 0.55400002 4284642145
-0.014225503 0.037465956 0.55500001 4283918422
-0.012445248 0.037533466 0.55600005 4281418542
-0.02124295 0.038915429 0.55000001 4281418810
-0.019456549 0.038915429 0.55000001 4281024050
-0.017670147 0.038915429 0.55000001 4281221429
-0.015912626 0.038986184 0.551 4281748538
-0.01414861 0.039056942 0.55200005 4281552694
-0.012378097 0.039127696 0.55300003 4280568877
-0.010620221 0.039269205 0.55500001 4280239912
-0.0088493563 0.039410718 0.55700004 4281223216
-0.024770632 0.040628433 0.54900002 4283656537
-0.022945609 0.04055443 0.54800004 4280036385
-0.021165704 0.04055443 0.54800004 4280431145
-0.0193858 0.04055443 0.54800004 4280563499
-0.017605893 0.04055443 0.54800004 4281155636
-0.015825989 0.04055443 0.54800004 4281883202
-0.014071715 0.040628433 0.54900002 4279715619
-0.012310945 0.040702436 0.55000001 4279191840
-0.010562816 0.040850446 0.55200005 4279389732
-0.024680395 0.042257685 0.54700005 4284511592
-0.022903739 0.042257685 0.54700005 4280496938
-0.021088457 0.042180426 0.546 4281944384
-0.019315047 0.042180426 0.546 4281221431
-0.017541638 0.042180426 0.546 4280826925
-0.015768228 0.042180426 0.546 4280371500
-0.013994819 0.042180426 0.546 4279321631
-0.012243796 0.042257685 0.54700005 4278929181
-0.010486274 0.042334937 0.54800004 4278798365
-0.024635272 0.043954436 0.546 4284050782
-0.022861864 0.043954436 0.546 4280562731
-0.021049833 0.043873936 0.54500002 4280628010
-0.019279672 0.043873936 0.54500002 4280364838
-0.017477384 0.043793432 0.54400003 4281221429
-0.015710471 0.043793432 0.54400003 4280437805
-0.013917926 0.043712933 0.54300004 4279255838
-0.012154262 0.043712933 0.54300004 4278797595
-0.010390596 0.043712933 0.54300004 4278731802
-0.022819994 0.045644693 0.54500002 4280102178
-0.021011209 0.045560945 0.54400003 4280628010
-0.019244296 0.045560945 0.54400003 4280101666
-0.017445255 0.045477193 0.54300004 4280827184
-0.015652712 0.045393441 0.54200006 4279977254
-0.013866662 0.045309685 0.54100001 4279124765
-0.01208711 0.045225937 0.54000002 4278797082
-0.010314054 0.045142185 0.53900003 4278862875
-0.024635272 0.047502454 0.546 4281089325
-0.022819994 0.047415454 0.54500002 4280299043
-0.021011209 0.047328454 0.54400003 4280035871
-0.019208921 0.047241457 0.54300004 4279773215
-0.017413128 0.047154456 0.54200006 4280959024
-0.015594952 0.046980452 0.54000002 4279846692
-0.013815399 0.046893451 0.53900003 4279190558
-0.012019959 0.046719447 0.537 4279059742
-0.0048835962 0.045240436 0.52000004 4278797084
-0.0031823479 0.045066431 0.51800001 4278862363
-0.0014969874 0.044979431 0.51700002 4278200586
0.000181877 0.04489243 0.51600003 4279123998
0.0018542454 0.044805434 0.51500005 4278730007
0.0035269663 0.044805434 0.51500005 4278927384
-0.022819994 0.049186219 0.54500002 4281220397
-0.021011209 0.04909597 0.54400003 4279904026
-0.019208921 0.049005721 0.54300004 4280365350
-0.017380999 0.048825219 0.54100001 4280959022
-0.015566073 0.048644722 0.53900003 4279715106
-0.013764136 0.04846422 0.537 4279124765
-0.01195281 0.048193473 0.53400004 4279059742
-0.006597836 0.047110472 0.52200001 4278731291
-0.0048835962 0.046929974 0.52000004 4278797084
-0.0031823479 0.046749469 0.51800001 4278928156
-0.0014969874 0.04665922 0.51700002 4278197504
0.000181877 0.046568971 0.51600003 4278794263
0.0018542454 0.046478722 0.51500005 4278197504
0.0035201176 0.04638847 0.514 4278198021
0.0051693977 0.046207972 0.51200002 4278196740
0.0068190307 0.046117723 0.51100004 4278196997
0.0084621664 0.046027474 0.51000005 4278198533
0.010098807 0.045937221 0.509 4278923539
0.011728952 0.045846973 0.50800002 4279056152
0.0133526 0.045756724 0.50700003 4278794517
0.014999337 0.045756724 0.50700003 4278795798
0.016613243 0.045666475 0.50600004 4278730005
0.018220648 0.045576219 0.505 4278599189
0.01986089 0.045576219 0.505 4278665496
0.021458555 0.04548597 0.50400001 4278731291
0.023049723 0.045395721 0.50300002 4278665498
0.024634397 0.045305472 0.50200003 4278533912
0.026264893 0.045305472 0.50200003 4278666011
-0.026457051 0.051143982 0.54700005 4281155120
-0.024635272 0.051050477 0.546 4280957739
-0.022819994 0.050956979 0.54500002 4281615153
-0.021011209 0.050863482 0.54400003 4280298780
-0.019173546 0.050676487 0.54200006 4281089327
-0.017348872 0.050489485 0.54000002 4281156401
-0.015537194 0.050302491 0.53800005 4279517727
-0.013712874 0.050021991 0.53500003 4279190556
-0.011908042 0.049741492 0.53200001 4278862875
-0.010122699 0.049460996 0.52900004 4278797084
-0.0083568422 0.049180496 0.52600002 4278797084
-0.0065851966 0.048713002 0.52100003 4278731291
-0.0048742048 0.048526008 0.51900005 4278862877
-0.0031823479 0.048432503 0.51800001 4279453730
-0.0014940919 0.048245508 0.51600003 4278198276
0.00018152452 0.048152011 0.51500005 4279648291
0.0018506448 0.048058506 0.514 4278262794
0.0035132691 0.047965009 0.51300001 4278523146
0.0051693977 0.047871511 0.51200002 4278720525
0.0068190307 0.047778014 0.51100004 4278852365
0.0084621664 0.047684517 0.51000005 4278588939
0.010098807 0.047591012 0.509 4278720779
0.011728952 0.047497515 0.50800002 4278523916
0.013378936 0.047497515 0.50800002 4278589963
0.014999337 0.047404017 0.50700003 4278196224
0.016613243 0.04731052 0.50600004 4278331915
0.018220648 0.047217015 0.505 4278196992
0.01986089 0.047217015 0.505 4278200845
0.021458555 0.047123518 0.50400001 4278201356
0.023049723 0.047030021 0.50300002 4278662677
0.024634397 0.046936523 0.50200003 4278598421
0.026212573 0.046843026 0.50100005 4278664984
0.027839823 0.046843026 0.50100005 4278664982
0.030783996 0.046375528 0.49600002 4278533910
0.032395005 0.046375528 0.49600002 4278665498
-0.030120092 0.053114735 0.54900002 4284116055
-0.028336938 0.053114735 0.54900002 4280694305
-0.024680395 0.052921239 0.54700005 4280627745
-0.022861864 0.052824486 0.546 4280627747
-0.021011209 0.052630994 0.54400003 4281351470
-0.019173546 0.052437499 0.54200006 4280958511
-0.017348872 0.052244 0.54000002 4281090608
-0.015508313 0.051953752 0.537 4279649311
-0.013687242 0.051663514 0.53400004 4279124763
-0.011885659 0.051373266 0.53100002 4278862875
-0.010103562 0.051083021 0.528 4278731289
-0.0083250673 0.05069603 0.52400005 4278797084
-0.0065851966 0.050405785 0.52100003 4278862877
-0.0048742048 0.05021229 0.51900005 4278797084
-0.0031762044 0.050018791 0.51700002 4279650596
-0.0014940919 0.049922045 0.51600003 4278199815
0.00018152452 0.0498253 0.51500005 4279188508
0.0018506448 0.049728546 0.514 4278195203
0.0035132691 0.049631801 0.51300001 4279248406
0.0051693977 0.049535051 0.51200002 4279511065
0.0068190307 0.049438305 0.51100004 4279774237
0.0084621664 0.049341559 0.51000005 4279840028
0.010098807 0.049244806 0.509 4279642649
0.011728952 0.049148057 0.50800002 4279115535
0.013378936 0.049148057 0.50800002 4278786570
0.014999337 0.049051311 0.50700003 4278195716
0.016613243 0.048954565 0.50600004 4279581217
0.018256729 0.048954565 0.50600004 4279320096
0.01986089 0.048857812 0.505 4279451682
0.021458555 0.048761066 0.50400001 4278990361
0.023049723 0.048664317 0.50300002 4279450912
0.024634397 0.048567571 0.50200003 4278397710
0.026212573 0.048470825 0.50100005 4278266124
0.027784251 0.048374072 0.5 4278196736
0.02929062 0.048180576 0.49800003 4278198018
0.030846059 0.048083827 0.49700001 4278200331
0.032395005 0.047987081 0.49600002 4279056924
0.033800334 0.047696836 0.49300003 4279254814
0.035329789 0.047600087 0.49200001 4279058459
0.039960731 0.047406591 0.49000001 4278600218
0.041637056 0.047503341 0.49100003 4278600218
0.043319874 0.047600087 0.49200001 4278599964
0.044917889 0.047600087 0.49200001 4278796830
0.046610452 0.047696836 0.49300003 4278862625
0.048309509 0.047793586 0.49400002 4279125029
0.050015066 0.047890335 0.49500003 4281821511
0.051727112 0.047987081 0.49600002 4280966715
0.053338118 0.047987081 0.49600002 4279520039
-0.026553785 0.054898489 0.54900002 4281680169
-0.021049833 0.054498501 0.54500002 4282010165
-0.019173546 0.054198511 0.54200006 4280957737
-0.017316746 0.053898517 0.53900003 4280959020
-0.015479434 0.053598523 0.53600001 4279649824
-0.013661611 0.053298537 0.53300005 4278928154
-0.011863275 0.052998543 0.53000003 4278797082
-0.010084427 0.052698549 0.52700001 4278797082
-0.0083250673 0.052398562 0.52400005 4278928668
-0.0065851966 0.052098569 0.52100003 4278797082
-0.0048742048 0.051898576 0.51900005 4278665496
-0.0031762044 0.051698577 0.51700002 4278662931
-0.0014940919 0.051598582 0.51600003 4278660369
0.00018152452 0.051498584 0.51500005 4279649059
0.0018506448 0.051398583 0.514 4278656269
0.0035132691 0.051298589 0.51300001 4278853648
0.0051693977 0.051198591 0.51200002 4279774750
0.0068190307 0.051098596 0.51100004 4279380760
0.0084621664 0.050998598 0.51000005 4278590476
0.010098807 0.050898597 0.509 4278590476
0.01175204 0.050898597 0.509 4278657035
0.013378936 0.050798602 0.50800002 4279183379
0.014999337 0.050698604 0.50700003 4278196486
0.016613243 0.05059861 0.50600004 4279121433
0.018256729 0.05059861 0.50600004 4278398740
0.01986089 0.050498608 0.505 4278199563
0.021458555 0.050398611 0.50400001 4278464787
0.023049723 0.050298616 0.50300002 4278727959
0.024634397 0.050198622 0.50200003 4278925338
0.026212573 0.050098624 0.50100005 4279188510
0.027784251 0.049998622 0.5 4279188510
0.029349437 0.049898628 0.49900001 4279188510
0.030846059 0.049698632 0.49700001 4279385887
0.032395005 0.049598634 0.49600002 4279187738
0.033868894 0.049398642 0.49400002 4279385117
0.035401598 0.049298644 0.49300003 4278200845
0.03677769 0.04899865 0.49000001 4278198275
0.038369212 0.04899865 0.49000001 4278196992
0.040042285 0.049098648 0.49100003 4278197248
0.041721858 0.049198646 0.49200001 4278529296
0.043407921 0.049298644 0.49300003 4279254814
0.045009185 0.049298644 0.49300003 4278795033
0.046704996 0.049398642 0.49400002 4278928156
0.048407301 0.04949864 0.49500003 4278993949
0.050116103 0.049598634 0.49600002 4278928156
0.051727112 0.049598634 0.49600002 4278797084
0.053445652 0.049698632 0.49700001 4278863390
0.055059914 0.049698632 0.49700001 4278928670
-0.019208921 0.056062769 0.54300004 4281220136
-0.017316746 0.055649783 0.53900003 4280037659
-0.015479434 0.055340044 0.53600001 4279321629
-0.013661611 0.055030309 0.53300005 4279124761
-0.011863275 0.054720566 0.53000003 4278862873
-0.010084427 0.054410826 0.52700001 4278862873
-0.0083091799 0.053997841 0.523 4278731289
-0.0065851966 0.053791348 0.52100003 4278797082
-0.0048742048 0.053584859 0.51900005 4278731289
-0.0031762044 0.053378362 0.51700002 4279453217
-0.0014940919 0.05327512 0.51600003 4279252765
0.00018152452 0.053171873 0.51500005 4279582244
0.0018506448 0.053068623 0.514 4278787853
0.0035132691 0.052965377 0.51300001 4278655756
0.0051693977 0.05286213 0.51200002 4278786318
0.0068190307 0.052758887 0.51100004 4278786318
0.0084621664 0.052655641 0.51000005 4278720525
0.010098807 0.052552391 0.509 4278654732
0.01175204 0.052552391 0.509 4279183381
0.013378936 0.052449144 0.50800002 4279644443
0.014999337 0.052345902 0.50700003 4278328585
0.016613243 0.052242655 0.50600004 4279450398
0.018256729 0.052242655 0.50600004 4278460685
0.01986089 0.052139405 0.505 4278590476
0.021458555 0.052036159 0.50400001 4278461455
0.023049723 0.051932916 0.50300002 4279121179
0.024634397 0.05182967 0.50200003 4278858521
0.026212573 0.051726423 0.50100005 4278463763
0.027784251 0.051623173 0.5 4279121693
0.029349437 0.051519927 0.49900001 4278200588
0.030908126 0.051416684 0.49800003 4279254301
0.032395005 0.051210191 0.49600002 4279320094
0.033937454 0.051106945 0.49500003 4278860826
0.035473406 0.051003698 0.49400002 4278992666
0.036927804 0.050797205 0.49200001 4278992666
0.038525824 0.050797205 0.49200001 4279123482
0.040205393 0.050900452 0.49300003 4279451934
0.041806657 0.050900452 0.49300003 4279845922
0.043495968 0.051003698 0.49400002 4280240426
0.04510048 0.051003698 0.49400002 4278398224
0.046799541 0.051106945 0.49500003 4279058970
0.048505094 0.051210191 0.49600002 4278993177
0.050116103 0.051210191 0.49600002 4279059740
0.051831398 0.051313434 0.49700001 4278862363
0.053445652 0.051313434 0.49700001 4278468117
0.055059914 0.051313434 0.49700001 4278731289
0.056674168 0.051313434 0.49700001 4278661142
-0.017348872 0.057507545 0.54000002 4280497692
-0.015508313 0.057188056 0.537 4279453215
-0.013661611 0.056762081 0.53300005 4278993177
-0.011863275 0.056442592 0.53000003 4278993945
-0.010103562 0.056229595 0.528 4278599187
-0.0083250673 0.055803619 0.52400005 4278862361
-0.0065851966 0.055484131 0.52100003 4278796568
-0.0048835962 0.055377636 0.52000004 4278468117
-0.0031823479 0.055164643 0.51800001 4278202896
-0.0014969874 0.055058148 0.51700002 4278200077
0.00018152452 0.054845162 0.51500005 4279385889
0.0018506448 0.054738659 0.514 4279911461
0.0035132691 0.054632165 0.51300001 4279053844
0.0051693977 0.054525673 0.51200002 4278591757
0.0068190307 0.054419179 0.51100004 4278459658
0.0084621664 0.054312684 0.51000005 4278720779
0.010098807 0.054206181 0.509 4278852111
0.01175204 0.054206181 0.509 4278655756
0.013378936 0.05409969 0.50800002 4278721549
0.014999337 0.053993195 0.50700003 4278592269
0.016613243 0.0538867 0.50600004 4279187226
0.018220648 0.053780202 0.505 4278723345
0.01986089 0.053780202 0.505 4278393097
0.021458555 0.053673707 0.50400001 4279974694
0.023049723 0.053567212 0.50300002 4278462736
0.024634397 0.053460717 0.50200003 4278529042
0.026212573 0.053354222 0.50100005 4278726421
0.027784251 0.053247724 0.5 4279450912
0.029349437 0.053141229 0.49900001 4278199303
0.030908126 0.053034734 0.49800003 4278594576
0.032460317 0.052928239 0.49700001 4278199047
0.034006014 0.052821744 0.49600002 4278199561
0.035545215 0.052715249 0.49500003 4278199046
0.037077915 0.052608754 0.49400002 4278199043
0.038604129 0.05250226 0.49300003 4279386141
0.040286943 0.052608754 0.49400002 4278926101
0.041891459 0.052608754 0.49400002 4279386652
0.043584019 0.052715249 0.49500003 4279780899
0.04519178 0.052715249 0.49500003 4278726673
0.046894085 0.052821744 0.49600002 4279321631
0.048505094 0.052821744 0.49600002 4279256351
0.050217144 0.052928239 0.49700001 4278928156
0.051831398 0.052928239 0.49700001 4278796570
0.053445652 0.052928239 0.49700001 4278796568
0.055059914 0.052928239 0.49700001 4278270740
0.056674168 0.052928239 0.49700001 4278727707
-0.015537194 0.059042573 0.53800005 4279713309
-0.013712874 0.058713336 0.53500003 4278991896
-0.0083409548 0.057615891 0.52500004 4278729492
-0.006597836 0.057286657 0.52200001 4278730005
-0.0048835962 0.057067171 0.52000004 4278730005
-0.0031884916 0.056957427 0.51900005 4278730007
-0.0014969874 0.056737933 0.51700002 4279320607
0.000181877 0.05662819 0.51600003 4278992412
0.0018542454 0.056518447 0.51500005 4278795546
0.0035132691 0.056298956 0.51300001 4278992412
0.0051693977 0.056189213 0.51200002 4279056922
0.0068190307 0.05607947 0.51100004 4279254301
0.0084621664 0.055969726 0.51000005 4279385117
0.010098807 0.055859976 0.509 4279450396
0.01175204 0.055859976 0.509 4279844389
0.013378936 0.055750232 0.50800002 4279448861
0.014999337 0.055640489 0.50700003 4278988310
0.016613243 0.055530746 0.50600004 4278195968
0.018220648 0.055420995 0.505 4278197768
0.01982156 0.055311255 0.50400001 4278527248
0.021415979 0.055201512 0.50300002 4278987799
0.0230039 0.055091769 0.50200003 4279712033
0.024634397 0.055091769 0.50200003 4279516189
0.026212573 0.054982025 0.50100005 4279779361
0.027784251 0.054872274 0.5 4278989845
0.029349437 0.054762531 0.49900001 4279450396
0.030908126 0.054652788 0.49800003 4278989847
0.032460317 0.054543041 0.49700001 4279713570
0.034006014 0.054433297 0.49600002 4279055127
0.035545215 0.054323554 0.49500003 4278331150
0.037077915 0.054213811 0.49400002 4278397710
0.038682431 0.054213811 0.49400002 4278397710
0.040368497 0.054323554 0.49500003 4278858261
0.041976258 0.054323554 0.49500003 4279648289
0.043584019 0.054323554 0.49500003 4279452193
0.045283075 0.054433297 0.49600002 4279451682
0.046894085 0.054433297 0.49600002 4279255838
0.048602883 0.054543041 0.49700001 4279255838
0.050217144 0.054543041 0.49700001 4279058970
0.051831398 0.054543041 0.49700001 4278927384
0.053445652 0.054543041 0.49700001 4278730005
0.055059914 0.054543041 0.49700001 4278664214
0.056674168 0.054543041 0.49700001 4279188769
-0.006610475 0.059095681 0.523 4279122197
-0.0048929877 0.058869693 0.52100003 4278925588
-0.0031884916 0.05864371 0.51900005 4279123480
-0.0014998829 0.058530711 0.51800001 4278992664
0.000181877 0.058304727 0.51600003 4279058457
0.0018542454 0.058191735 0.51500005 4278992925
0.0035201176 0.058078736 0.514 4279387683
0.0051794942 0.057965744 0.51300001 4279124511
0.0068190307 0.057739761 0.51100004 4279058718
0.0084621664 0.057626769 0.51000005 4278992925
0.010098807 0.05751377 0.509 4278992925
0.01175204 0.05751377 0.509 4279058718
0.0133526 0.057287782 0.50700003 4279058718
0.014999337 0.057287782 0.50700003 4279058205
0.016613243 0.057174791 0.50600004 4278992412
0.018220648 0.057061791 0.505 4278992412
0.01982156 0.0569488 0.50400001 4279254816
0.021415979 0.056835808 0.50300002 4279648807
0.0230039 0.056722816 0.50200003 4279911209
0.024585325 0.056609824 0.50100005 4278989593
0.026160249 0.056496825 0.5 4278197250
0.027784251 0.056496825 0.5 4278196224
0.029349437 0.056383833 0.49900001 4278196224
0.030908126 0.056270842 0.49800003 4278265870
0.032460317 0.056157846 0.49700001 4279779363
0.034006014 0.056044854 0.49600002 4278858773
0.035617024 0.056044854 0.49600002 4279451680
0.037152976 0.055931862 0.49500003 4279320607
0.038760737 0.055931862 0.49500003 4279254814
0.040368497 0.055931862 0.49500003 4279450910
0.042061061 0.056044854 0.49600002 4279385889
0.043672066 0.056044854 0.49600002 4279978026
0.045283075 0.056044854 0.49600002 4279187486
0.046988629 0.056157846 0.49700001 4279124252
0.048602883 0.056157846 0.49700001 4279255838
0.050217144 0.056157846 0.49700001 4279058970
0.051831398 0.056157846 0.49700001 4278993177
0.053445652 0.056157846 0.49700001 4278795798
0.055059914 0.056157846 0.49700001 4278664214
0.056674168 0.056157846 0.49700001 4279384865
-0.003194635 0.060446236 0.52000004 4278920461
-0.0014998829 0.060213745 0.51800001 4278988310
0.00018222946 0.060097504 0.51700002 4279054875
0.0018542454 0.059865024 0.51500005 4278990627
0.0035201176 0.059748773 0.514 4279451178
0.0051794942 0.059632532 0.51300001 4279452713
0.0068323747 0.059516292 0.51200002 4279452711
0.0084787589 0.059400052 0.51100004 4279058466
0.010118648 0.059283808 0.51000005 4279190052
0.011728952 0.05905132 0.50800002 4279190052
0.0133526 0.05893508 0.50700003 4279058466
0.014969753 0.058818836 0.50600004 4278927134
0.016580408 0.058702588 0.505 4278992925
0.018184567 0.058586348 0.50400001 4278992925
0.019782232 0.058470108 0.50300002 4278795546
0.021415979 0.058470108 0.50300002 4278992925
0.0230039 0.058353864 0.50200003 4279058718
0.024585325 0.058237623 0.50100005 4278795546
0.026160249 0.058121376 0.5 4278860826
0.027728682 0.058005136 0.49900001 4278992412
0.02929062 0.057888892 0.49800003 4279058205
0.030908126 0.057888892 0.49800003 4279517475
0.032460317 0.057772648 0.49700001 4279779877
0.034006014 0.057656407 0.49600002 4279253019
0.035617024 0.057656407 0.49600002 4278331150
0.037152976 0.057540167 0.49500003 4278197508
0.038760737 0.057540167 0.49500003 4278195968
0.040450048 0.057656407 0.49600002 4278198022
0.042061061 0.057656407 0.49600002 4278462738
0.043672066 0.057656407 0.49600002 4278857496
0.045374371 0.057772648 0.49700001 4279779623
0.046988629 0.057772648 0.49700001 4279189791
0.048700679 0.057888892 0.49800003 4279255838
0.050318185 0.057888892 0.49800003 4279124765
0.051935688 0.057888892 0.49800003 4279059742
0.053553194 0.057888892 0.49800003 4278927386
0.055059914 0.057772648 0.49700001 4278795287
0.056674168 0.057772648 0.49700001 4279252254
0.0035201176 0.061418813 0.514 4285764480
0.0051794942 0.06129932 0.51300001 4285501567
0.0068323747 0.061179832 0.51200002 4284448881
0.0084787589 0.061060343 0.51100004 4280962882
0.010118648 0.060940851 0.51000005 4279450410
0.011728952 0.060701862 0.50800002 4279318562
0.0133526 0.060582373 0.50700003 4279648039
0.014969753 0.060462881 0.50600004 4279188769
0.016580408 0.060343385 0.505 4279320355
0.018184567 0.060223896 0.50400001 4279189539
0.019782232 0.060104404 0.50300002 4279189793
0.021373402 0.059984915 0.50200003 4278927134
0.022958076 0.059865423 0.50100005 4278992927
0.024585325 0.059865423 0.50100005 4278927132
0.026160249 0.059745926 0.5 4278795546
0.027728682 0.059626438 0.49900001 4278993179
0.02929062 0.059506945 0.49800003 4279058972
0.030846059 0.059387453 0.49700001 4279124252
0.032460317 0.059387453 0.49700001 4278861080
0.034006014 0.05926796 0.49600002 4278992666
0.035617024 0.05926796 0.49600002 4279124252
0.037228029 0.05926796 0.49600002 4279124252
0.038839042 0.05926796 0.49600002 4279320607
0.040450048 0.05926796 0.49600002 4278991129
0.042145859 0.059387453 0.49700001 4279320096
0.043760113 0.059387453 0.49700001 4279385635
0.045374371 0.059387453 0.49700001 4279254303
0.047083173 0.059506945 0.49800003 4279058718
0.048700679 0.059506945 0.49800003 4279387683
0.050318185 0.059506945 0.49800003 4279058972
0.051935688 0.059506945 0.49800003 4278862363
0.053553194 0.059506945 0.49800003 4278664984
0.055059914 0.059387453 0.49700001 4278729240
0.056674168 0.059387453 0.49700001 4279316766
0.0133526 0.062229667 0.50700003 4285763710
0.014940167 0.061984181 0.505 4285500538
0.016580408 0.061984181 0.505 4284184424
0.018184567 0.061861441 0.50400001 4282079818
0.019782232 0.061738703 0.50300002 4280369967
0.021373402 0.061615963 0.50200003 4279055388
0.022958076 0.061493225 0.50100005 4279121695
0.02453625 0.061370477 0.5 4279254312
0.026160249 0.061370477 0.5 4279254566
0.027728682 0.061247736 0.49900001 4279583527
0.02929062 0.061124999 0.49800003 4279254816
0.030846059 0.061002254 0.49700001 4279320609
0.032460317 0.061002254 0.49700001 4279386402
0.034006014 0.060879517 0.49600002 4279386402
0.035617024 0.060879517 0.49600002 4279189023
0.037228029 0.060879517 0.49600002 4279320607
0.038839042 0.060879517 0.49600002 4279189791
0.040450048 0.060879517 0.49600002 4279189793
0.042145859 0.061002254 0.49700001 4279189793
0.043760113 0.061002254 0.49700001 4278992414
0.045465667 0.061124999 0.49800003 4278860826
0.047083173 0.061124999 0.49800003 4278862109
0.048700679 0.061124999 0.49800003 4278927902
0.050318185 0.061124999 0.49800003 4278927902
0.051935688 0.061124999 0.49800003 4278598167
0.053553194 0.061124999 0.49800003 4278860826
0.055059914 0.061002254 0.49700001 4278728470
0.056674168 0.061002254 0.49700001 4283854945
0.014940167 0.063624978 0.505 4285170805
0.016547576 0.063498996 0.50400001 4284907633
0.018148487 0.063373007 0.50300002 4284710254
0.019782232 0.063373007 0.50300002 4284644715
0.021373402 0.063247018 0.50200003 4284644713
0.022958076 0.063121028 0.50100005 4285105264
0.02453625 0.062995031 0.5 4284119653
0.02610793 0.062869042 0.49900001 4284909169
0.027728682 0.062869042 0.49900001 4284645999
0.02929062 0.062743053 0.49800003 4284382827
0.030846059 0.062617064 0.49700001 4283724643
0.032460317 0.062617064 0.49700001 4282210634
0.034006014 0.062491074 0.49600002 4281289784
0.035617024 0.062491074 0.49600002 4280040485
0.037228029 0.062491074 0.49600002 4279252769
0.038839042 0.062491074 0.49600002 4278989857
0.040531598 0.062617064 0.49700001 4278859556
0.042145859 0.062617064 0.49700001 4278793761
0.043848164 0.062743053 0.49800003 4279188519
0.045465667 0.062743053 0.49800003 4279254566
0.047083173 0.062743053 0.49800003 4279648809
0.048798468 0.062869042 0.49900001 4280240944
0.050419223 0.062869042 0.49900001 4279649574
0.052039977 0.062869042 0.49900001 4279517475
0.053660728 0.062869042 0.49900001 4278989593
0.048798468 0.064490341 0.49900001 4285435261
0.050419223 0.064490341 0.49900001 4284974964
0.052039977 0.064490341 0.49900001 4284382827
0.053660728 0.064490341 0.49900001 4284579182
0.016247941 0.053020731 0.51149583 4294967295
0.016247941 0.053020731 0.51149583 4294901760
0.016247941 0.053020731 0.51199585 4294901760
0.016247941 0.053020731 0.51249582 4294901760
0.016247941 0.053020731 0.51299584 4294901760
0.016247941 0.053020731 0.5134958 4294901760
0.016247941 0.053020731 0.51399583 4294901760
0.016247941 0.053020731 0.51449585 4294901760
0.016247941 0.053020731 0.51499581 4294901760
0.016247941 0.053020731 0.51549584 4294901760
0.016247941 0.053020731 0.5159958 4294901760
0.016247941 0.053020731 0.51649582 4294901760
0.016247941 0.053020731 0.51699585 4294901760
0.016247941 0.053020731 0.51749581 4294901760
0.016247941 0.053020731 0.51799583 4294901760
0.016247941 0.053020731 0.51849586 4294901760
0.016247941 0.053020731 0.51899582 4294901760
0.016247941 0.053020731 0.51949584 4294901760
0.016247941 0.053020731 0.51999581 4294901760
0.016247941 0.053020731 0.52049583 4294901760
0.016247941 0.053020731 0.52099586 4294901760
0.016247941 0.053020731 0.52149582 4294901760
0.016247941 0.053020731 0.52199584 4294901760
0.016247941 0.053020731 0.52249581 4294901760
0.016247941 0.053020731 0.52299583 4294901760
0.016247941 0.053020731 0.52349585 4294901760
0.016247941 0.053020731 0.52399582 4294901760
0.016247941 0.053020731 0.52449584 4294901760
0.016247941 0.053020731 0.5249958 4294901760
0.016247941 0.053020731 0.52549583 4294901760
0.016247941 0.053020731 0.52599585 4294901760
0.016247941 0.053020731 0.52649581 4294901760
0.016247941 0.053020731 0.52699584 4294901760
0.016247941 0.053020731 0.52749586 4294901760
0.016247941 0.053020731 0.52799582 4294901760
0.016247941 0.053020731 0.52849585 4294901760
0.016247941 0.053020731 0.52899581 4294901760
0.016247941 0.053020731 0.52949584 4294901760
0.016247941 0.053020731 0.52999586 4294901760
0.016247941 0.053020731 0.53049582 4294901760
0.016247941 0.053020731 0.53099585 4294901760
0.016247941 0.053020731 0.53149581 4294901760
0.016247941 0.053020731 0.53199583 4294901760
0.016247941 0.053020731 0.53249586 4294901760
0.016247941 0.053020731 0.53299582 4294901760
0.016247941 0.053020731 0.53349584 4294901760
0.016247941 0.053020731 0.53399581 4294901760
0.016247941 0.053020731 0.53449583 4294901760
0.016247941 0.053020731 0.53499585 4294901760
0.016247941 0.053020731 0.53549582 4294901760
0.016247941 0.053020731 0.53599584 4294901760
0.016247941 0.053020731 0.5364958 4294901760
0.016247941 0.053020731 0.53699583 4294901760
0.016247941 0.053020731 0.53749585 4294901760
0.016247941 0.053020731 0.53799582 4294901760
0.016247941 0.053020731 0.53849584 4294901760
0.016247941 0.053020731 0.53899586 4294901760
0.016247941 0.053020731 0.53949583 4294901760
0.016247941 0.053020731 0.53999585 4294901760
0.016247941 0.053020731 0.54049581 4294901760
0.016247941 0.053020731 0.54099584 4294901760
0.016247941 0.053020731 0.54149586 4294901760
0.016247941 0.053020731 0.54199582 4294901760
0.016247941 0.053020731 0.54249585 4294901760
0.016247941 0.053020731 0.54299581 4294901760
0.016247941 0.053020731 0.54349583 4294901760
0.016247941 0.053020731 0.54399586 4294901760
0.016247941 0.053020731 0.54449582 4294901760
0.016247941 0.053020731 0.54499584 4294901760
0.016247941 0.053020731 0.54549587 4294901760
0.016247941 0.053020731 0.54599583 4294901760
0.016247941 0.053020731 0.54649585 4294901760
0.016247941 0.053020731 0.54699582 4294901760
0.016247941 0.053020731 0.54749584 4294901760
0.016247941 0.053020731 0.54799587 4294901760
0.016247941 0.053020731 0.54849583 4294901760
0.016247941 0.053020731 0.54899585 4294901760
0.016247941 0.053020731 0.54949582 4294901760
0.016247941 0.053020731 0.54999584 4294901760
0.016247941 0.053020731 0.55049586 4294901760
0.016247941 0.053020731 0.55099583 4294901760
0.016247941 0.053020731 0.55149585 4294901760
0.016247941 0.053020731 0.55199581 4294901760
0.016247941 0.053020731 0.55249584 4294901760
0.016247941 0.053020731 0.55299586 4294901760
0.016247941 0.053020731 0.55349582 4294901760
0.016247941 0.053020731 0.55399585 4294901760
0.016247941 0.053020731 0.55449581 4294901760
0.016247941 0.053020731 0.55499583 4294901760
0.016247941 0.053020731 0.55549586 4294901760
0.016247941 0.053020731 0.55599582 4294901760
0.016247941 0.053020731 0.55649585 4294901760
0.016247941 0.053020731 0.55699587 4294901760
0.016247941 0.053020731 0.55749583 4294901760
0.016247941 0.053020731 0.55799586 4294901760
0.016247941 0.053020731 0.55849582 4294901760
0.016247941 0.053020731 0.55899584 4294901760
0.016247941 0.053020731 0.55949587 4294901760
0.016247941 0.053020731 0.55999583 4294901760
0.016247941 0.053020731 0.56049585 4294901760
0.016247941 0.053020731 0.56099582 4294901760
0.016247941 0.053020731 0.56149584 4294901760
0.016247941 0.053020731 0.51149583 4278255360
0.016501158 0.0530487 0.51192605 4278255360
0.016754376 0.053076666 0.51235628 4278255360
0.017007591 0.053104635 0.51278651 4278255360
0.017260808 0.053132605 0.51321673 4278255360
0.017514026 0.053160571 0.51364696 4278255360
0.017767243 0.05318854 0.51407719 4278255360
0.01802046 0.053216506 0.51450747 4278255360
0.018273678 0.053244475 0.5149377 4278255360
0.018526893 0.053272445 0.51536793 4278255360
0.01878011 0.053300411 0.51579815 4278255360
0.019033328 0.05332838 0.51622838 4278255360
0.019286545 0.053356349 0.5166586 4278255360
0.019539762 0.053384315 0.51708883 4278255360
0.01979298 0.053412285 0.51751906 4278255360
0.020046197 0.053440254 0.51794928 4278255360
0.020299412 0.05346822 0.51837951 4278255360
0.02055263 0.053496189 0.51880974 4278255360
0.020805847 0.053524159 0.51923996 4278255360
0.021059064 0.053552125 0.51967025 4278255360
0.021312281 0.053580094 0.52010047 4278255360
0.021565497 0.05360806 0.5205307 4278255360
0.021818714 0.053636029 0.52096093 4278255360
0.022071932 0.053663999 0.52139115 4278255360
0.022325149 0.053691965 0.52182138 4278255360
0.022578366 0.053719934 0.52225161 4278255360
0.022831582 0.053747904 0.52268183 4278255360
0.023084801 0.053775869 0.52311206 4278255360
0.023338016 0.053803839 0.52354228 4278255360
0.023591233 0.053831808 0.52397251 4278255360
0.023844451 0.053859774 0.52440274 4278255360
0.024097668 0.053887744 0.52483296 4278255360
0.024350885 0.053915709 0.52526325 4278255360
0.024604101 0.053943679 0.52569348 4278255360
0.02485732 0.053971648 0.5261237 4278255360
0.025110535 0.053999614 0.52655393 4278255360
0.025363753 0.054027583 0.52698416 4278255360
0.02561697 0.054055553 0.52741438 4278255360
0.025870185 0.054083519 0.52784461 4278255360
0.026123403 0.054111488 0.52827483 4278255360
0.02637662 0.054139458 0.52870506 4278255360
0.026629837 0.054167423 0.52913529 4278255360
0.026883055 0.054195393 0.52956551 4278255360
0.027136272 0.054223362 0.52999574 4278255360
0.027389489 0.054251328 0.53042603 4278255360
0.027642705 0.054279298 0.53085625 4278255360
0.027895924 0.054307263 0.53128648 4278255360
0.028149139 0.054335233 0.5317167 4278255360
0.028402355 0.054363202 0.53214693 4278255360
0.028655574 0.054391168 0.53257716 4278255360
0.028908789 0.054419138 0.53300738 4278255360
0.029162006 0.054447107 0.53343761 4278255360
0.029415224 0.054475073 0.53386784 4278255360
0.029668439 0.054503042 0.53429806 4278255360
0.029921658 0.054531012 0.53472829 4278255360
0.030174876 0.054558977 0.53515851 4278255360
0.030428093 0.054586947 0.53558874 4278255360
0.030681308 0.054614913 0.53601903 4278255360
0.030934526 0.054642882 0.53644925 4278255360
0.031187743 0.054670852 0.53687948 4278255360
0.031440958 0.054698817 0.53730971 4278255360
0.031694178 0.054726787 0.53773993 4278255360
0.031947397 0.054754756 0.53817016 4278255360
0.032200612 0.054782722 0.53860039 4278255360
0.032453828 0.054810692 0.53903061 4278255360
0.032707043 0.054838661 0.53946084 4278255360
0.032960262 0.054866627 0.53989106 4278255360
0.033213481 0.054894596 0.54032129 4278255360
0.033466697 0.054922566 0.54075152 4278255360
0.033719912 0.054950532 0.5411818 4278255360
0.033973128 0.054978501 0.54161203 4278255360
0.034226347 0.055006467 0.54204226 4278255360
0.034479566 0.055034436 0.54247248 4278255360
0.034732781 0.055062406 0.54290271 4278255360
0.034985997 0.055090372 0.54333293 4278255360
0.035239212 0.055118341 0.54376316 4278255360
0.035492431 0.05514631 0.54419339 4278255360
0.035745651 0.055174276 0.54462361 4278255360
0.035998866 0.055202246 0.54505384 4278255360
0.036252081 0.055230215 0.54548407 4278255360
0.036505301 0.055258181 0.54591429 4278255360
0.036758516 0.05528615 0.54634452 4278255360
0.037011735 0.055314116 0.5467748 4278255360
0.037264951 0.055342086 0.54720503 4278255360
0.037518166 0.055370055 0.54763526 4278255360
0.037771385 0.055398021 0.54806548 4278255360
0.038024604 0.05542599 0.54849571 4278255360
0.03827782 0.05545396 0.54892594 4278255360
0.038531035 0.055481926 0.54935616 4278255360
0.038784251 0.055509895 0.54978639 4278255360
0.039037466 0.055537865 0.55021662 4278255360
0.039290689 0.05556583 0.55064684 4278255360
0.039543904 0.0555938 0.55107707 4278255360
0.03979712 0.055621766 0.55150729 4278255360
0.040050335 0.055649735 0.55193758 4278255360
0.040303554 0.055677705 0.55236781 4278255360
0.04055677 0.05570567 0.55279803 4278255360
0.040809989 0.05573364 0.55322826 4278255360
0.041063204 0.055761609 0.55365849 4278255360
0.04131642 0.055789575 0.55408871 4278255360
0.041569639 0.055817544 0.55451894 4278255360
