# .PCD v0.7 - Point Cloud Data file format
VERSION 0.7
FIELDS x y z rgb
SIZE 4 4 4 4
TYPE F F F U
COUNT 1 1 1 1
WIDTH 836
HEIGHT 1
VIEWPOINT 0 0 0 1 0 0 0
POINTS 836
DATA ascii
0.27024341 -0.042746335 0.39600003 4279242764
0.27152961 -0.042746335 0.39600003 4278784010
0.27281582 -0.042746335 0.39600003 4278783757
0.26767099 -0.041459691 0.39600003 4278652684
0.2689572 -0.041459691 0.39600003 4278784010
0.27024341 -0.041459691 0.39600003 4279045642
0.27152961 -0.041459691 0.39600003 4279046412
0.27281582 -0.041459691 0.39600003 4279046159
0.27410203 -0.041459691 0.39600003 4279046929
0.26767099 -0.040173046 0.39600003 4278915343
0.2689572 -0.040173046 0.39600003 4279046929
0.27024341 -0.040173046 0.39600003 4278981389
0.27152961 -0.040173046 0.39600003 4279047180
0.27281582 -0.040173046 0.39600003 4278915594
0.27410203 -0.040173046 0.39600003 4278914826
0.27538824 -0.040173046 0.39600003 4278981389
0.26767099 -0.038886402 0.39600003 4279046412
0.2689572 -0.038886402 0.39600003 4278915596
0.27024341 -0.038886402 0.39600003 4278784262
0.27152961 -0.038886402 0.39600003 4278915594
0.27281582 -0.038886402 0.39600003 4279178766
0.27410203 -0.038886402 0.39600003 4279177996
0.27538824 -0.038886402 0.39600003 4278849033
0.26767099 -0.037599761 0.39600003 4278915596
0.2689572 -0.037599761 0.39600003 4278784008
0.27024341 -0.037599761 0.39600003 4278718215
0.27152961 -0.037599761 0.39600003 4278981387
0.27281582 -0.037599761 0.39600003 4278652422
0.27410203 -0.037599761 0.39600003 4279112203
0.2689572 -0.036313117 0.39600003 4278915594
0.27092585 -0.036404815 0.39700001 4279047180
0.27221528 -0.036404815 0.39700001 4278784008
0.27350473 -0.036404815 0.39700001 4279046410
-0.047961261 0.01248234 0.49400002 4279390504
-0.046450593 0.012507609 0.49500003 4278998056
-0.044933423 0.012532877 0.49600002 4279327021
-0.043497097 0.012583412 0.49800003 4279393332
-0.041963689 0.01260868 0.49900001 4283733101
-0.040423781 0.012633948 0.5 4280116801
-0.038877383 0.012659216 0.50100005 4280051775
-0.037324488 0.012684484 0.50200003 4279788603
-0.04946544 0.014058881 0.49300003 4279978024
-0.047961261 0.014087398 0.49400002 4279520039
-0.046450593 0.014115916 0.49500003 4279062052
-0.044933423 0.014144432 0.49600002 4279062822
-0.043497097 0.014201466 0.49800003 4278999339
-0.041963689 0.014229983 0.49900001 4278801958
-0.040504631 0.014287017 0.50100005 4279394863
-0.038954984 0.014315534 0.50200003 4279658551
-0.037398838 0.014344051 0.50300002 4279526965
-0.035836194 0.014372568 0.50400001 4279000621
-0.034199201 0.014372568 0.50400001 4278869035
-0.032626819 0.014401084 0.505 4279198000
-0.030986575 0.014401084 0.505 4279263793
-0.026220702 0.014486636 0.50800002 4279723832
-0.024619082 0.014515152 0.509 4280446531
-0.022965848 0.014515152 0.509 4279525429
-0.021354491 0.01454367 0.51000005 4280117307
-0.018076904 0.014572187 0.51100004 4280378680
-0.016417174 0.014572187 0.51100004 4279786545
-0.04946544 0.015660688 0.49300003 4279846692
-0.047961261 0.015692456 0.49400002 4279388707
-0.046450593 0.015724221 0.49500003 4278798367
-0.044933423 0.015755987 0.49600002 4279127843
-0.043497097 0.01581952 0.49800003 4279194920
-0.041963689 0.015851285 0.49900001 4278998052
-0.040504631 0.015914818 0.50100005 4278737187
-0.038954984 0.015946584 0.50200003 4279263531
-0.037398838 0.015978349 0.50300002 4279130921
-0.035836194 0.016010115 0.50400001 4278999335
-0.034267057 0.01604188 0.505 4279131175
-0.032626819 0.01604188 0.505 4278999335
-0.030986575 0.01604188 0.505 4279130923
-0.029404448 0.016073648 0.50600004 4278868519
-0.027815823 0.016105415 0.50700003 4279197484
-0.026220702 0.016137181 0.50800002 4279131691
-0.024619082 0.016168946 0.509 4279197484
-0.023010971 0.016200714 0.51000005 4279131691
-0.021396363 0.016232479 0.51100004 4278934566
-0.019775257 0.016264245 0.51200002 4279197736
-0.018112279 0.016264245 0.51200002 4279263529
-0.016449302 0.016264245 0.51200002 4278934566
-0.014815205 0.01629601 0.51300001 4278737447
-0.013148979 0.01629601 0.51300001 4279329586
-0.011482755 0.01629601 0.51300001 4279592506
-0.0098356651 0.016327776 0.514 4279591224
-0.0081661912 0.016327776 0.514 4279852600
-0.051066704 0.017262496 0.49300003 4280565284
-0.04946544 0.017262496 0.49300003 4279649313
-0.047961261 0.01729751 0.49400002 4279453730
-0.046450593 0.017332526 0.49500003 4278929951
-0.044933423 0.017367542 0.49600002 4279127330
-0.043497097 0.017437572 0.49800003 4279194404
-0.042047784 0.017507602 0.5 4279260711
-0.040504631 0.017542619 0.50100005 4279064615
-0.039032582 0.017612647 0.50300002 4279130921
-0.037473191 0.017647663 0.50400001 4279130923
-0.035836194 0.017647663 0.50400001 4278999337
-0.034267057 0.017682677 0.505 4278999335
-0.032626819 0.017682677 0.505 4279656752
-0.031047937 0.017717695 0.50600004 4278338845
-0.029462559 0.017752709 0.50700003 4278866468
-0.027815823 0.017752709 0.50700003 4278933542
-0.026220702 0.017787723 0.50800002 4278933542
-0.024619082 0.017822739 0.509 4278999589
-0.023010971 0.017857755 0.51000005 4278933796
-0.021396363 0.01789277 0.51100004 4279131175
-0.019813878 0.0179628 0.51300001 4278802210
-0.018147655 0.0179628 0.51300001 4278999587
-0.016513556 0.017997814 0.514 4278933794
-0.014844083 0.017997814 0.514 4278867749
-0.013200243 0.018032832 0.51500005 4279065128
-0.011527522 0.018032832 0.51500005 4279000619
-0.009854801 0.018032832 0.51500005 4278672167
-0.008197967 0.018067846 0.51600003 4278803753
-0.0065219989 0.018067846 0.51600003 4279132718
-0.051066704 0.018864304 0.49300003 4280302373
-0.04946544 0.018864304 0.49300003 4279715619
-0.047961261 0.018902566 0.49400002 4279585316
-0.046450593 0.018940832 0.49500003 4279126558
-0.045024011 0.019017359 0.49700001 4279522340
-0.043497097 0.019055625 0.49800003 4279392035
-0.042047784 0.019132152 0.5 4279392035
-0.040585477 0.019208683 0.50200003 4279130660
-0.039032582 0.019246945 0.50300002 4279525420
-0.037473191 0.019285209 0.50400001 4278867751
-0.035907295 0.019323474 0.505 4278670372
-0.034267057 0.019323474 0.505 4278933542
-0.032691427 0.01936174 0.50600004 4279262507
-0.031047937 0.01936174 0.50600004 4279325224
-0.029462559 0.019400004 0.50700003 4279522601
-0.027870687 0.019438267 0.50800002 4279193121
-0.026272316 0.019476531 0.509 4279784490
-0.024667453 0.019514797 0.51000005 4279456293
-0.02305609 0.019553062 0.51100004 4279918127
-0.021438234 0.019591324 0.51200002 4279260711
-0.019852502 0.019667853 0.514 4278800673
-0.018183028 0.019667853 0.514 4279195431
-0.016545685 0.019706119 0.51500005 4278998822
-0.014901844 0.019744383 0.51600003 4278867236
-0.013251506 0.019782646 0.51700002 4278933029
-0.011572289 0.019782646 0.51700002 4278867238
-0.0099122068 0.01982091 0.51800001 4278867238
-0.0082456302 0.019859176 0.51900005 4278867749
-0.0065725571 0.01989744 0.52000004 4278736933
-0.0015433159 0.020394877 0.53300005 4278869033
0.00018857402 0.020471403 0.53500003 4279000621
0.0019334558 0.020547932 0.537 4279394615
-0.051066704 0.02046611 0.49300003 4280237864
-0.049565777 0.020507623 0.49400002 4279715619
-0.047961261 0.020507623 0.49400002 4279453728
-0.046450593 0.020549137 0.49500003 4279192351
-0.045024011 0.020632163 0.49700001 4279193121
-0.043497097 0.020673677 0.49800003 4279063332
-0.042047784 0.020756703 0.5 4279129638
-0.040585477 0.02083973 0.50200003 4279393580
-0.039032582 0.020881243 0.50300002 4279459373
-0.037473191 0.020922758 0.50400001 4279196201
-0.035907295 0.02096427 0.505 4279064615
-0.034267057 0.02096427 0.505 4278933542
-0.032691427 0.021005785 0.50600004 4278206483
-0.031109296 0.021047298 0.50700003 4278204687
-0.029462559 0.021047298 0.50700003 4278203660
-0.027870687 0.021088811 0.50800002 4278921236
-0.026323933 0.02117184 0.51000005 4278920722
-0.024715818 0.021213353 0.51100004 4278920209
-0.023101209 0.021254865 0.51200002 4278921234
-0.021521976 0.021337891 0.514 4278658834
-0.019891128 0.021379406 0.51500005 4278199046
-0.018253781 0.021420918 0.51600003 4278201349
-0.016609939 0.021462431 0.51700002 4278201095
-0.014959602 0.021503944 0.51800001 4278199553
-0.01330277 0.02154546 0.51900005 4278199296
-0.011617057 0.02154546 0.51900005 4278731039
-0.0099696144 0.021628486 0.52100003 4278994211
-0.0082932925 0.021669999 0.52200001 4279390504
-0.0066231154 0.021753026 0.52400005 4279587881
-0.0049681198 0.021960594 0.52900004 4279457578
-0.0032683571 0.022085132 0.53200001 4279326506
-0.0015491069 0.022209672 0.53500003 4278603296
0.00018927896 0.0222927 0.537 4278999337
0.0019370564 0.022334214 0.53800005 4278868521
0.0036981781 0.02241724 0.54000002 4278868521
-0.051170286 0.022112679 0.49400002 4279778596
-0.049565777 0.022112679 0.49400002 4279651107
-0.04805835 0.022157442 0.49500003 4278533910
-0.046544429 0.022202205 0.49600002 4279258146
-0.045024011 0.022246966 0.49700001 4279587881
-0.04358444 0.022336492 0.49900001 4279326504
-0.042047784 0.022381254 0.5 4279195431
-0.040585477 0.02247078 0.50200003 4279458857
-0.039032582 0.022515543 0.50300002 4279590443
-0.037473191 0.022560304 0.50400001 4279064869
-0.035907295 0.022605065 0.505 4278669857
-0.034267057 0.022605065 0.505 4279064615
-0.032691427 0.02264983 0.50600004 4278667294
-0.031109296 0.022694593 0.50700003 4280112944
-0.02952067 0.022739355 0.50800002 4278199042
-0.027925549 0.022784116 0.509 4278198285
-0.026323933 0.022828881 0.51000005 4279381787
-0.024764186 0.022918405 0.51200002 4279841824
-0.023146328 0.022963166 0.51300001 4278854929
-0.021563848 0.023052692 0.51500005 4279314969
-0.01992975 0.023097456 0.51600003 4279383070
-0.018289156 0.023142217 0.51700002 4279587111
-0.016642066 0.02318698 0.51800001 4280245041
-0.014988483 0.023231743 0.51900005 4279390502
-0.013354031 0.023321267 0.52100003 4279456297
-0.011684206 0.023366028 0.52200001 4279784492
-0.010007884 0.023410792 0.523 4279915565
-0.0083409548 0.023500318 0.52500004 4279718186
-0.0066610333 0.023589842 0.52700001 4280310323
-0.0049869027 0.023768893 0.53100002 4279783725
-0.0032806445 0.02390318 0.53400004 4279388969
-0.0015520024 0.023992704 0.53600001 4279388455
0.00018963145 0.02408223 0.53800005 4278731550
0.0019442573 0.024171755 0.54000002 4278867238
0.0037050266 0.024216516 0.54100001 4278999337
0.0054722922 0.024261281 0.54200006 4279191338
-0.051273871 0.02376575 0.49500003 4279976490
-0.049666114 0.02376575 0.49500003 4279454246
-0.048155438 0.02381376 0.49600002 4279323426
-0.046544429 0.02381376 0.49600002 4279587109
-0.045024011 0.023861771 0.49700001 4279193121
-0.04358444 0.023957795 0.49900001 4279325990
-0.042047784 0.024005806 0.5 4279195431
-0.040504631 0.024053819 0.50100005 4279261224
-0.039032582 0.024149843 0.50300002 4279524396
-0.037473191 0.024197852 0.50400001 4279064615
-0.035907295 0.024245864 0.505 4278998822
-0.034267057 0.024245864 0.505 4279458603
-0.032691427 0.024293877 0.50600004 4278202889
-0.031109296 0.024341889 0.50700003 4280178223
-0.02952067 0.0243899 0.50800002 4278199045
-0.027980415 0.024485925 0.51000005 4280633135
-0.026375549 0.024533935 0.51100004 4280830514
-0.024812553 0.024629958 0.51300001 4280961841
-0.023191446 0.024677968 0.514 4278198278
-0.021605721 0.024773993 0.51600003 4279909412
-0.019968374 0.024822004 0.51700002 4280634672
-0.018324532 0.024870016 0.51800001 4278598419
-0.016706323 0.024966041 0.52000004 4278201356
-0.015046241 0.025014052 0.52100003 4278204176
-0.013379663 0.025062062 0.52200001 4278402839
-0.011728975 0.025158087 0.52400005 4279060769
-0.010065292 0.02525411 0.52600002 4278863390
-0.0083886171 0.025350131 0.528 4279720750
-0.0066989521 0.025446156 0.53000003 4279325992
-0.0050056861 0.025590193 0.53300005 4279194406
-0.003286788 0.025686214 0.53500003 4279720750
-0.0015577936 0.02583025 0.53800005 4279982641
0.00018998391 0.02587826 0.53900003 4279323687
0.0019478577 0.025974283 0.54100001 4279129642
0.0037118753 0.026022296 0.54200006 4279064619
0.0054722922 0.026022296 0.54200006 4279125547
-0.051377457 0.025425315 0.49600002 4280173867
-0.049766447 0.025425315 0.49600002 4279716650
-0.048155438 0.025425315 0.49600002 4279586086
-0.046638269 0.025476575 0.49700001 4279521318
-0.045114607 0.025527837 0.49800003 4279587879
-0.04358444 0.025579097 0.49900001 4279786541
-0.042047784 0.025630357 0.5 4279327017
-0.040504631 0.02568162 0.50100005 4279458603
-0.038954984 0.02573288 0.50200003 4279327017
-0.037398838 0.02578414 0.50300002 4278933031
-0.035836194 0.0258354 0.50400001 4278669859
-0.034267057 0.02588666 0.505 4279195435
-0.032691427 0.025937922 0.50600004 4278200066
-0.029578781 0.026091704 0.509 4278200587
-0.027980415 0.026142966 0.51000005 4278658066
-0.026427163 0.026245486 0.51200002 4279118617
-0.024812553 0.026296746 0.51300001 4279118615
-0.023236569 0.02639927 0.51500005 4279711522
-0.021605721 0.02645053 0.51600003 4280107561
-0.020006998 0.02655305 0.51800001 4280767542
-0.018359909 0.026604313 0.51900005 4278201104
-0.01673845 0.026706833 0.52100003 4278396945
-0.01507512 0.026758093 0.52200001 4279519523
-0.013430927 0.026860617 0.52400005 4278862363
-0.011751357 0.026911877 0.52500004 4280178996
-0.010084427 0.027014397 0.52700001 4279784238
-0.0084203929 0.027168179 0.53000003 4278467865
-0.0067242309 0.027270699 0.53200001 4279586086
-0.005024469 0.027424483 0.53500003 4278666011
-0.0032990747 0.027527003 0.537 4278535195
-0.0015606891 0.027629526 0.53900003 4280246326
0.00019033639 0.027680786 0.54000002 4279653676
0.0019478577 0.027732046 0.54100001 4279194922
0.0037118753 0.02778331 0.54200006 4279195435
-0.052988466 0.02703687 0.49600002 4279843619
-0.051377457 0.02703687 0.49600002 4280305967
-0.049766447 0.02703687 0.49600002 4280111406
-0.048252523 0.027091378 0.49700001 4279455014
-0.046638269 0.027091378 0.49700001 4279587111
-0.045114607 0.027145889 0.49800003 4279588394
-0.04358444 0.027200399 0.49900001 4279261224
-0.042047784 0.027254907 0.5 4279327017
-0.040504631 0.02730942 0.50100005 4279721775
-0.038954984 0.027363928 0.50200003 4279590189
-0.037398838 0.027418438 0.50300002 4278933031
-0.035836194 0.027472947 0.50400001 4278998824
-0.034267057 0.027527457 0.505 4279260715
-0.032691427 0.027581969 0.50600004 4278204693
-0.029578781 0.027745496 0.509 4278200331
-0.028035278 0.027854517 0.51100004 4279183129
-0.026427163 0.027909027 0.51200002 4278985750
-0.02486092 0.028018044 0.514 4279183129
-0.023236569 0.028072556 0.51500005 4278919957
-0.021647591 0.028181575 0.51700002 4278592273
-0.020006998 0.028236084 0.51800001 4280635956
-0.018395284 0.028345106 0.52000004 4279517475
-0.01673845 0.028399615 0.52100003 4280372784
-0.015104 0.028508633 0.523 4279717672
-0.013456558 0.028617654 0.52500004 4279980844
-0.011796124 0.028726673 0.52700001 4279587881
-0.010122699 0.028835695 0.52900004 4279390502
-0.0084362803 0.028944712 0.53100002 4279456297
-0.0067368713 0.029053735 0.53300005 4279587113
-0.0050338604 0.029217262 0.53600001 4279389480
-0.0033052186 0.029326282 0.53800005 4278205976
-0.0015635845 0.029435301 0.54000002 4279851055
0.00019068885 0.02948981 0.54100001 4280246324
0.0019514584 0.029544322 0.54200006 4279325994
0.0037187238 0.029598832 0.54300004 4279523373
0.0054823887 0.029598832 0.54300004 4284121447
-0.051481038 0.028706182 0.49700001 4280306739
-0.049866781 0.028706182 0.49700001 4279914281
-0.048252523 0.028706182 0.49700001 4279060769
-0.046732109 0.028763942 0.49800003 4279258918
-0.045114607 0.028763942 0.49800003 4279588394
-0.04358444 0.028821699 0.49900001 4279458605
-0.042047784 0.028879458 0.5 4279195433
-0.040504631 0.028937221 0.50100005 4279590191
-0.038954984 0.028994977 0.50200003 4279327017
-0.037398838 0.029052736 0.50300002 4279063845
-0.035836194 0.029110495 0.50400001 4279129638
-0.034267057 0.029168252 0.505 4279062052
-0.032756034 0.029283771 0.50700003 4278468632
-0.031170655 0.02934153 0.50800002 4279652904
-0.029636895 0.029457049 0.51000005 4279981869
-0.028035278 0.029514808 0.51100004 4280047151
-0.026478779 0.029630324 0.51300001 4279849518
-0.023281688 0.029803602 0.51600003 4279848236
-0.021647591 0.029861361 0.51700002 4279914029
-0.020045621 0.02997688 0.51900005 4279256097
-0.018395284 0.030034639 0.52000004 4279124513
-0.016770577 0.030150155 0.52200001 4278992414
-0.015132881 0.030265674 0.52400005 4278334484
-0.01348219 0.030381192 0.52600002 4278201356
-0.011818508 0.030496707 0.528 4278198272
-0.010141834 0.030612227 0.53000003 4278199041
-0.0084521677 0.030727744 0.53200001 4278200068
-0.0067495103 0.030843263 0.53400004 4278199553
-0.0050432519 0.031016538 0.537 4278201868
-0.0033113621 0.031132057 0.53900003 4278335513
-0.0015635845 0.031189816 0.54000002 4278202123
0.00019104134 0.031305335 0.54200006 4279587881
0.0019550589 0.031363092 0.54300004 4279391785
0.0037187238 0.031363092 0.54300004 4279193636
0.0054823887 0.031363092 0.54300004 4287476379
-0.05470955 0.030320985 0.49700001 4282606424
-0.053095296 0.030320985 0.49700001 4279647275
-0.051481038 0.030320985 0.49700001 4280239924
-0.049866781 0.030320985 0.49700001 4280044848
-0.048349611 0.030381994 0.49800003 4279914799
-0.046732109 0.030381994 0.49800003 4279916594
-0.045114607 0.030381994 0.49800003 4279916594
-0.04358444 0.030443002 0.49900001 4279260715
-0.042047784 0.030504009 0.5 4279327021
-0.040504631 0.03056502 0.50100005 4279129642
-0.038954984 0.030626027 0.50200003 4279327791
-0.037398838 0.030687034 0.50300002 4279261226
-0.035836194 0.030748041 0.50400001 4279326506
-0.034267057 0.030809049 0.505 4279523373
-0.032756034 0.030931067 0.50700003 4279522603
-0.031170655 0.030992074 0.50800002 4279654189
-0.029636895 0.031114092 0.51000005 4279457578
-0.02809014 0.031236107 0.51200002 4278997027
-0.026478779 0.031297114 0.51300001 4279457578
-0.02490929 0.031419132 0.51500005 4279260197
-0.023281688 0.031480137 0.51600003 4278734367
-0.021689462 0.031602152 0.51800001 4279391783
-0.020045621 0.031663164 0.51900005 4279457576
-0.018395284 0.03172417 0.52000004 4279588392
-0.016770577 0.031846184 0.52200001 4279588394
-0.015132881 0.031968202 0.52400005 4279654187
-0.01348219 0.032090217 0.52600002 4279588394
-0.011818508 0.032212231 0.528 4279391785
-0.01016097 0.032395259 0.53100002 4279654957
-0.0084680552 0.032517277 0.53300005 4279522601
-0.0067621497 0.032639291 0.53500003 4279522601
-0.0050432519 0.032761306 0.537 4279522603
-0.0033113621 0.032883324 0.53900003 4280048434
-0.00156648 0.033005338 0.54100001 4280048432
0.00019104134 0.033066347 0.54200006 4279916844
0.0019550589 0.033127356 0.54300004 4279587879
0.0037187238 0.033127356 0.54300004 4279454760
-0.045205195 0.032064304 0.49900001 4280241459
-0.04358444 0.032064304 0.49900001 4279781676
-0.032756034 0.032578364 0.50700003 4279521584
-0.029695006 0.03283539 0.51100004 4279850801
-0.02809014 0.032899648 0.51200002 4279653935
-0.026530392 0.033028159 0.514 4279720752
-0.02490929 0.033092421 0.51500005 4279523371
-0.023326807 0.033220932 0.51700002 4279326506
-0.021689462 0.033285189 0.51800001 4279392301
-0.020045621 0.033349451 0.51900005 4279523371
-0.018395284 0.033413704 0.52000004 4279654957
-0.016770577 0.03354222 0.52200001 4279654959
-0.015132881 0.033670735 0.52400005 4279523373
-0.01348219 0.03379925 0.52600002 4279523373
-0.011840892 0.033992022 0.52900004 4279523887
-0.01016097 0.034120534 0.53100002 4279523887
-0.0084839426 0.034313306 0.53400004 4279655219
-0.0067747892 0.034441818 0.53600001 4279457326
-0.0050432519 0.034506075 0.537 4279785521
-0.0033113621 0.03463459 0.53900003 4279193384
-0.00156648 0.034763105 0.54100001 4279522351
0.00019104134 0.034827363 0.54200006 4279456556
-0.029695006 0.034495682 0.51100004 4282477140
-0.024957657 0.034833215 0.51600003 4280505401
-0.023326807 0.034900717 0.51700002 4280176949
-0.020045621 0.035035733 0.51900005 4280570422
-0.018395284 0.035103239 0.52000004 4280702778
-0.015132881 0.035373263 0.52400005 4280177719
-0.011840892 0.035710797 0.52900004 4281031995
-0.01016097 0.035845805 0.53100002 4281031227
-0.0084839426 0.036048327 0.53400004 4281754698
-0.0050432519 0.036250841 0.537 4283858539
-0.0033175056 0.036453363 0.54000002 4285305725
-0.00156648 0.036520869 0.54100001 4286161548
-0.0026605246 0.019478671 0.50440854 4294967295
-0.0026605246 0.019478671 0.50440854 4294901760
-0.0028117641 0.01902716 0.50425601 4294901760
-0.0029630037 0.01857565 0.50410348 4294901760
-0.0031142433 0.018124139 0.50395095 4294901760
-0.0032654828 0.017672628 0.50379843 4294901760
-0.0034167226 0.017221116 0.5036459 4294901760
-0.0035679622 0.016769605 0.50349337 4294901760
-0.0037192018 0.016318094 0.50334084 4294901760
-0.0038704413 0.015866583 0.50318831 4294901760
-0.0040216809 0.015415072 0.50303578 4294901760
-0.0041729207 0.014963562 0.50288326 4294901760
-0.0043241601 0.014512051 0.50273073 4294901760
-0.0044753999 0.01406054 0.5025782 4294901760
-0.0046266392 0.013609029 0.50242567 4294901760
-0.004777879 0.013157518 0.50227314 4294901760
-0.0049291188 0.012706006 0.50212061 4294901760
-0.0050803581 0.012254496 0.50196809 4294901760
-0.0052315975 0.011802984 0.50181556 4294901760
-0.0053828377 0.011351474 0.50166303 4294901760
-0.0055340771 0.010899963 0.5015105 4294901760
-0.0056853164 0.010448452 0.50135803 4294901760
-0.0058365557 0.0099969413 0.5012055 4294901760
-0.005987796 0.0095454305 0.50105298 4294901760
-0.0061390353 0.0090939188 0.50090045 4294901760
-0.0062902747 0.0086424081 0.50074792 4294901760
-0.0064415145 0.0081908973 0.50059539 4294901760
-0.0065927538 0.0077393865 0.50044286 4294901760
-0.0067439936 0.0072878748 0.50029033 4294901760
-0.0068952334 0.006836364 0.50013781 4294901760
-0.0070464727 0.0063848542 0.49998525 4294901760
-0.0071977125 0.0059333416 0.49983275 4294901760
-0.0073489519 0.0054818317 0.49968022 4294901760
-0.0075001917 0.005030321 0.49952769 4294901760
-0.0076514315 0.0045788093 0.49937516 4294901760
-0.0078026708 0.0041272985 0.49922264 4294901760
-0.0079539102 0.0036757886 0.49907011 4294901760
-0.0081051504 0.003224276 0.49891758 4294901760
-0.0082563898 0.0027727652 0.49876505 4294901760
-0.0084076291 0.0023212545 0.49861252 4294901760
-0.0085588684 0.0018697437 0.49845999 4294901760
-0.0087101087 0.0014182329 0.49830747 4294901760
-0.008861348 0.00096672215 0.49815494 4294901760
-0.0090125874 0.00051521137 0.49800241 4294901760
-0.0091638267 6.3700601e-05 0.49784988 4294901760
-0.009315067 -0.00038781017 0.49769735 4294901760
-0.0094663063 -0.00083932094 0.49754483 4294901760
-0.0096175466 -0.0012908336 0.4973923 4294901760
-0.0097687859 -0.0017423443 0.49723977 4294901760
-0.0099200252 -0.0021938551 0.49708724 4294901760
-0.010071265 -0.0026453659 0.49693471 4294901760
-0.010222504 -0.0030968767 0.49678218 4294901760
-0.010373743 -0.0035483874 0.49662969 4294901760
-0.010524983 -0.0039998982 0.49647716 4294901760
-0.010676222 -0.004451409 0.49632463 4294901760
-0.010827463 -0.0049029216 0.4961721 4294901760
-0.010978702 -0.0053544324 0.49601957 4294901760
-0.011129942 -0.0058059432 0.49586704 4294901760
-0.011281181 -0.0062574539 0.49571452 4294901760
-0.01143242 -0.0067089628 0.49556199 4294901760
-0.01158366 -0.0071604736 0.49540946 4294901760
-0.011734901 -0.0076119881 0.49525693 4294901760
-0.01188614 -0.008063497 0.4951044 4294901760
-0.01203738 -0.0085150078 0.49495187 4294901760
-0.012188619 -0.0089665186 0.49479935 4294901760
-0.012339858 -0.0094180293 0.49464682 4294901760
-0.012491098 -0.0098695401 0.49449429 4294901760
-0.012642339 -0.010321053 0.49434176 4294901760
-0.012793578 -0.010772564 0.49418923 4294901760
-0.012944818 -0.011224074 0.4940367 4294901760
-0.013096057 -0.011675585 0.49388418 4294901760
-0.013247296 -0.012127094 0.49373168 4294901760
-0.013398536 -0.012578607 0.49357915 4294901760
-0.013549777 -0.013030119 0.49342662 4294901760
-0.013701016 -0.013481628 0.49327409 4294901760
-0.013852255 -0.013933141 0.49312156 4294901760
-0.014003495 -0.01438465 0.49296904 4294901760
-0.014154734 -0.014836162 0.49281651 4294901760
-0.014305973 -0.015287671 0.49266398 4294901760
-0.014457213 -0.015739184 0.49251145 4294901760
-0.014608452 -0.016190697 0.49235892 4294901760
-0.014759693 -0.016642205 0.49220639 4294901760
-0.014910933 -0.017093718 0.49205387 4294901760
-0.015062172 -0.017545227 0.49190134 4294901760
-0.015213411 -0.017996736 0.49174881 4294901760
-0.015364651 -0.018448249 0.49159628 4294901760
-0.01551589 -0.018899761 0.49144375 4294901760
-0.015667129 -0.01935127 0.49129122 4294901760
-0.015818369 -0.019802783 0.4911387 4294901760
-0.01596961 -0.020254292 0.49098617 4294901760
-0.016120849 -0.020705804 0.49083364 4294901760
-0.016272089 -0.021157313 0.49068111 4294901760
-0.016423328 -0.021608826 0.49052861 4294901760
-0.016574567 -0.022060338 0.49037609 4294901760
-0.016725807 -0.022511847 0.49022356 4294901760
-0.016877046 -0.02296336 0.49007103 4294901760
-0.017028285 -0.023414869 0.4899185 4294901760
-0.017179526 -0.023866381 0.48976597 4294901760
-0.017330766 -0.024317894 0.48961344 4294901760
-0.017482005 -0.024769403 0.48946092 4294901760
-0.017633244 -0.025220916 0.48930839 4294901760
-0.017784484 -0.025672425 0.48915586 4294901760
-0.0026605246 0.019478671 0.50440854 4278255360
-0.0022005178 0.019382199 0.50423801 4278255360
-0.001740511 0.019285729 0.50406742 4278255360
-0.0012805044 0.019189257 0.50389689 4278255360
-0.00082049763 0.019092785 0.50372636 4278255360
-0.00036049075 0.018996315 0.50355577 4278255360
9.9515775e-05 0.018899843 0.50338525 4278255360
0.00055952254 0.018803371 0.50321472 4278255360
0.0010195293 0.018706899 0.50304413 4278255360
0.0014795363 0.018610429 0.5028736 4278255360
0.0019395431 0.018513957 0.50270307 4278255360
0.0023995498 0.018417485 0.50253248 4278255360
0.0028595561 0.018321015 0.50236195 4278255360
0.0033195629 0.018224543 0.50219142 4278255360
0.0037795696 0.018128071 0.50202084 4278255360
0.0042395769 0.018031601 0.50185031 4278255360
0.0046995832 0.017935129 0.50167978 4278255360
0.0051595899 0.017838657 0.50150919 4278255360
0.0056195972 0.017742185 0.50133866 4278255360
0.0060796035 0.017645715 0.50116813 4278255360
0.0065396107 0.017549243 0.50099754 4278255360
0.006999617 0.017452773 0.50082701 4278255360
0.0074596242 0.017356301 0.50065649 4278255360
0.00791963 0.017259829 0.5004859 4278255360
0.0083796363 0.017163357 0.50031537 4278255360
0.0088396445 0.017066887 0.50014484 4278255360
0.0092996508 0.016970415 0.49997425 4278255360
0.0097596571 0.016873943 0.49980372 4278255360
0.010219663 0.016777471 0.49963316 4278255360
0.010679672 0.016681001 0.4994626 4278255360
0.011139678 0.016584529 0.49929208 4278255360
0.011599684 0.016488057 0.49912152 4278255360
0.01205969 0.016391587 0.49895096 4278255360
0.012519699 0.016295115 0.49878043 4278255360
0.012979705 0.016198643 0.49860987 4278255360
0.013439711 0.016102172 0.49843931 4278255360
0.013899719 0.0160057 0.49826878 4278255360
0.014359726 0.015909228 0.49809822 4278255360
0.014819732 0.015812758 0.49792767 4278255360
0.015279738 0.015716286 0.49775711 4278255360
0.015739746 0.015619814 0.49758658 4278255360
0.016199753 0.015523343 0.49741602 4278255360
0.016659759 0.015426872 0.49724546 4278255360
0.017119765 0.0153304 0.49707493 4278255360
0.017579773 0.015233929 0.49690437 4278255360
0.01803978 0.015137458 0.49673381 4278255360
0.018499786 0.015040986 0.49656329 4278255360
0.018959792 0.014944514 0.49639273 4278255360
0.019419799 0.014848044 0.49622217 4278255360
0.019879807 0.014751572 0.49605164 4278255360
0.020339813 0.0146551 0.49588108 4278255360
0.020799819 0.014558629 0.49571052 4278255360
0.021259826 0.014462158 0.49553999 4278255360
0.021719832 0.014365686 0.49536943 4278255360
0.02217984 0.014269214 0.49519888 4278255360
0.022639846 0.014172744 0.49502835 4278255360
0.023099853 0.014076272 0.49485779 4278255360
0.023559861 0.013979801 0.49468723 4278255360
0.024019867 0.01388333 0.4945167 4278255360
0.024479873 0.013786858 0.49434614 4278255360
0.024939882 0.013690386 0.49417558 4278255360
0.025399888 0.013593915 0.49400502 4278255360
0.025859894 0.013497444 0.4938345 4278255360
0.026319901 0.013400972 0.49366394 4278255360
0.026779907 0.013304501 0.49349338 4278255360
0.027239913 0.01320803 0.49332285 4278255360
0.027699921 0.013111558 0.49315229 4278255360
0.028159928 0.013015086 0.49298173 4278255360
0.028619934 0.012918616 0.4928112 4278255360
0.02907994 0.012822144 0.49264064 4278255360
0.029539946 0.012725673 0.49247009 4278255360
0.029999953 0.012629202 0.49229956 4278255360
0.030459963 0.01253273 0.492129 4278255360
0.030919969 0.012436258 0.49195844 4278255360
0.031379975 0.012339787 0.49178791 4278255360
0.031839982 0.012243316 0.49161735 4278255360
0.032299988 0.012146844 0.49144679 4278255360
0.032759994 0.012050373 0.49127626 4278255360
0.033220001 0.011953901 0.49110571 4278255360
0.033680011 0.01185743 0.49093515 4278255360
0.034140017 0.011760958 0.49076462 4278255360
0.034600023 0.011664486 0.49059406 4278255360
0.035060029 0.011568015 0.4904235 4278255360
0.035520036 0.011471544 0.49025297 4278255360
0.035980042 0.011375073 0.49008241 4278255360
0.036440048 0.011278601 0.48991185 4278255360
0.036900055 0.011182129 0.48974133 4278255360
0.037360061 0.011085658 0.48957077 4278255360
0.037820071 0.010989187 0.48940021 4278255360
0.038280077 0.010892715 0.48922968 4278255360
0.038740084 0.010796244 0.48905912 4278255360
0.03920009 0.010699772 0.48888856 4278255360
0.039660096 0.010603301 0.488718 4278255360
0.040120102 0.01050683 0.48854747 4278255360
0.040580109 0.010410358 0.48837692 4278255360
0.041040115 0.010313887 0.48820636 4278255360
0.041500121 0.010217416 0.48803583 4278255360
0.041960131 0.010120944 0.48786527 4278255360
0.042420138 0.010024473 0.48769471 4278255360
0.042880144 0.0099280011 0.48752418 4278255360
0.04334015 0.00983153 0.48735362 4278255360
-0.0026605246 0.019478671 0.50440854 4278190335
-0.0029855678 0.019459369 0.50478798 4278190335
-0.003310611 0.019440066 0.50516742 4278190335
-0.0036356542 0.019420763 0.50554687 4278190335
-0.0039606974 0.019401461 0.50592631 4278190335
-0.0042857407 0.019382158 0.50630575 4278190335
-0.0046107839 0.019362856 0.5066852 4278190335
-0.0049358271 0.019343553 0.50706464 4278190335
-0.0052608699 0.019324251 0.50744408 4278190335
-0.0055859135 0.01930495 0.50782347 4278190335
-0.0059109563 0.019285647 0.50820291 4278190335
-0.006236 0.019266345 0.50858235 4278190335
-0.0065610427 0.019247042 0.5089618 4278190335
-0.006886086 0.019227739 0.50934124 4278190335
-0.0072111292 0.019208437 0.50972068 4278190335
-0.0075361729 0.019189134 0.51010013 4278190335
-0.0078612156 0.019169832 0.51047957 4278190335
-0.0081862584 0.019150529 0.51085901 4278190335
-0.008511303 0.019131226 0.51123846 4278190335
-0.0088363457 0.019111924 0.5116179 4278190335
-0.0091613885 0.019092621 0.51199734 4278190335
-0.0094864313 0.019073319 0.51237679 4278190335
-0.0098114749 0.019054016 0.51275623 4278190335
-0.010136519 0.019034714 0.51313567 4278190335
-0.010461561 0.019015411 0.51351511 4278190335
-0.010786604 0.018996108 0.51389456 4278190335
-0.011111647 0.018976808 0.51427394 4278190335
-0.011436692 0.018957505 0.51465338 4278190335
-0.011761734 0.018938202 0.51503283 4278190335
-0.012086777 0.0189189 0.51541227 4278190335
-0.012411822 0.018899597 0.51579171 4278190335
-0.012736864 0.018880295 0.51617116 4278190335
-0.013061907 0.018860992 0.5165506 4278190335
-0.01338695 0.018841689 0.51693004 4278190335
-0.013711993 0.018822387 0.51730949 4278190335
-0.014037037 0.018803084 0.51768893 4278190335
-0.01436208 0.018783782 0.51806837 4278190335
-0.014687123 0.018764479 0.51844782 4278190335
-0.015012166 0.018745176 0.51882726 4278190335
-0.015337208 0.018725874 0.5192067 4278190335
-0.015662253 0.018706571 0.51958615 4278190335
-0.015987296 0.018687269 0.51996559 4278190335
-0.016312338 0.018667968 0.52034497 4278190335
-0.016637383 0.018648665 0.52072442 4278190335
-0.016962426 0.018629363 0.52110386 4278190335
-0.017287469 0.01861006 0.5214833 4278190335
-0.017612511 0.018590758 0.52186275 4278190335
-0.017937556 0.018571455 0.52224219 4278190335
-0.018262599 0.018552152 0.52262163 4278190335
-0.018587641 0.01853285 0.52300107 4278190335
-0.018912684 0.018513547 0.52338052 4278190335
-0.019237727 0.018494245 0.52375996 4278190335
-0.01956277 0.018474942 0.5241394 4278190335
-0.019887812 0.018455639 0.52451885 4278190335
-0.020212857 0.018436337 0.52489829 4278190335
-0.0205379 0.018417034 0.52527773 4278190335
-0.020862943 0.018397732 0.52565718 4278190335
-0.021187987 0.018378429 0.52603662 4278190335
-0.02151303 0.018359128 0.52641606 4278190335
-0.021838073 0.018339826 0.52679545 4278190335
-0.022163117 0.018320523 0.52717489 4278190335
-0.02248816 0.018301221 0.52755433 4278190335
-0.022813203 0.018281918 0.52793378 4278190335
-0.023138246 0.018262615 0.52831322 4278190335
-0.023463288 0.018243313 0.52869266 4278190335
-0.023788331 0.01822401 0.52907211 4278190335
-0.024113376 0.018204708 0.52945155 4278190335
-0.024438418 0.018185405 0.52983099 4278190335
-0.024763461 0.018166102 0.53021044 4278190335
-0.025088506 0.0181468 0.53058988 4278190335
-0.025413549 0.018127497 0.53096932 4278190335
-0.025738591 0.018108195 0.53134876 4278190335
-0.026063636 0.018088892 0.53172821 4278190335
-0.026388679 0.01806959 0.53210765 4278190335
-0.026713721 0.018050287 0.53248709 4278190335
-0.027038764 0.018030986 0.53286648 4278190335
-0.027363807 0.018011684 0.53324592 4278190335
-0.02768885 0.017992381 0.53362536 4278190335
-0.028013892 0.017973078 0.53400481 4278190335
-0.028338937 0.017953776 0.53438425 4278190335
-0.02866398 0.017934473 0.53476369 4278190335
-0.028989023 0.017915171 0.53514314 4278190335
-0.029314067 0.017895868 0.53552258 4278190335
-0.02963911 0.017876565 0.53590202 4278190335
-0.029964153 0.017857263 0.53628147 4278190335
-0.030289197 0.01783796 0.53666091 4278190335
-0.03061424 0.017818658 0.53704035 4278190335
-0.030939283 0.017799355 0.5374198 4278190335
-0.031264327 0.017780052 0.53779924 4278190335
-0.03158937 0.01776075 0.53817868 4278190335
-0.031914413 0.017741447 0.53855813 4278190335
-0.032239456 0.017722145 0.53893757 4278190335
-0.032564498 0.017702844 0.53931701 4278190335
-0.032889541 0.017683541 0.5396964 4278190335
-0.033214588 0.017664239 0.54007584 4278190335
-0.03353963 0.017644936 0.54045528 4278190335
-0.033864673 0.017625634 0.54083472 4278190335
-0.034189716 0.017606331 0.54121417 4278190335
-0.034514759 0.017587028 0.54159361 4278190335
-0.034839801 0.017567726 0.54197305 4278190335
-0.035164844 0.017548423 0.5423525 4278190335
-0.0026605246 0.019478671 0.50440854 4294967295
-0.00071026525 0.019594487 0.50213188 4294967295
0.0012399941 0.0197103 0.49985525 4294967295
0.0031902534 0.019826116 0.49757862 4294967295
0.0051405127 0.019941932 0.49530199 4294967295
0.007090772 0.020057745 0.49302536 4294967295
0.0090410318 0.020173561 0.4907487 4294967295
0.01099129 0.020289376 0.48847207 4294967295
0.01294155 0.02040519 0.48619545 4294967295
0.014891811 0.020521006 0.48391882 4294967295
0.016842069 0.020636821 0.48164216 4294967295
0.018792329 0.020752635 0.47936553 4294967295
0.020742588 0.02086845 0.4770889 4294967295
0.022692846 0.020984266 0.47481227 4294967295
0.024643106 0.02110008 0.47253561 4294967295
0.026593367 0.021215895 0.47025898 4294967295
0.028543625 0.021331711 0.46798235 4294967295
0.030493885 0.021447524 0.46570572 4294967295
0.032444146 0.02156334 0.46342906 4294967295
0.034394402 0.021679156 0.46115243 4294967295
0.036344662 0.021794969 0.45887581 4294967295
0.038294923 0.021910785 0.45659918 4294967295
0.040245183 0.022026598 0.45432252 4294967295
0.042195443 0.022142414 0.45204589 4294967295
0.0441457 0.02225823 0.44976926 4294967295
0.04609596 0.022374045 0.4474926 4294967295
0.048046216 0.022489859 0.44521597 4294967295
0.04999648 0.022605674 0.44293934 4294967295
0.051946737 0.022721488 0.44066271 4294967295
0.053896997 0.022837304 0.43838608 4294967295
0.055847257 0.022953119 0.43610942 4294967295
0.057797518 0.023068935 0.43383279 4294967295
0.059747774 0.023184748 0.43155617 4294967295
0.061698038 0.023300564 0.42927951 4294967295
0.063648291 0.023416378 0.42700288 4294967295
0.065598547 0.023532193 0.42472625 4294967295
0.067548811 0.023648009 0.42244959 4294967295
0.069499068 0.023763824 0.42017296 4294967295
0.071449324 0.023879638 0.41789633 4294967295
0.073399581 0.023995453 0.4156197 4294967295
0.075349845 0.024111267 0.41334307 4294967295
0.077300102 0.024227083 0.41106641 4294967295
0.079250365 0.024342898 0.40878978 4294967295
0.081200629 0.024458714 0.40651315 4294967295
0.083150886 0.024574528 0.4042365 4294967295
0.085101143 0.024690343 0.4019599 4294967295
0.087051407 0.024806157 0.39968324 4294967295
0.089001663 0.024921972 0.39740661 4294967295
0.09095192 0.025037788 0.39512998 4294967295
0.092902184 0.025153603 0.39285332 4294967295
0.09485244 0.025269417 0.39057669 4294967295
0.096802697 0.025385231 0.38830006 4294967295
0.098752953 0.025501046 0.38602343 4294967295
0.10070321 0.025616862 0.3837468 4294967295
0.10265348 0.025732677 0.38147014 4294967295
0.10460374 0.025848491 0.37919348 4294967295
0.10655399 0.025964307 0.37691689 4294967295
0.10850425 0.02608012 0.37464023 4294967295
0.11045451 0.026195936 0.3723636 4294967295
0.11240477 0.026311751 0.37008697 4294967295
0.11435504 0.026427567 0.36781031 4294967295
0.1163053 0.026543381 0.36553368 4294967295
0.11825556 0.026659196 0.36325705 4294967295
0.12020581 0.02677501 0.36098039 4294967295
0.12215607 0.026890825 0.35870379 4294967295
0.12410633 0.027006641 0.35642713 4294967295
0.1260566 0.027122457 0.35415047 4294967295
0.12800685 0.02723827 0.35187387 4294967295
0.12995711 0.027354086 0.34959722 4294967295
0.13190737 0.0274699 0.34732059 4294967295
0.13385762 0.027585715 0.34504396 4294967295
0.13580789 0.027701531 0.3427673 4294967295
0.13775815 0.027817346 0.34049067 4294967295
0.13970841 0.027933162 0.33821404 4294967295
0.14165866 0.028048975 0.33593738 4294967295
0.14360893 0.028164789 0.33366078 4294967295
0.14555918 0.028280605 0.33138412 4294967295
0.14750944 0.02839642 0.32910749 4294967295
0.14945969 0.028512236 0.32683086 4294967295
0.15140997 0.028628051 0.3245542 4294967295
0.15336022 0.028743865 0.32227758 4294967295
0.15531048 0.028859679 0.32000095 4294967295
0.15726073 0.028975494 0.31772429 4294967295
0.15921099 0.02909131 0.31544769 4294967295
0.16116126 0.029207125 0.31317103 4294967295
0.16311152 0.029322939 0.31089437 4294967295
0.16506179 0.029438755 0.30861777 4294967295
0.16701204 0.029554568 0.30634111 4294967295
0.1689623 0.029670384 0.30406448 4294967295
0.17091255 0.029786199 0.30178785 4294967295
0.17286281 0.029902015 0.29951122 4294967295
0.17481308 0.030017829 0.29723457 4294967295
0.17676334 0.030133644 0.29495794 4294967295
0.17871359 0.030249458 0.29268131 4294967295
0.18066385 0.030365273 0.29040468 4294967295
0.1826141 0.030481089 0.28812802 4294967295
0.18456437 0.030596903 0.28585139 4294967295
0.18651463 0.030712718 0.28357476 4294967295
0.18846489 0.030828534 0.2812981 4294967295
0.19041514 0.030944347 0.27902147 4294967295
0.19236541 0.031060163 0.27674484 4294967295
