# .PCD v0.7 - Point Cloud Data file format
VERSION 0.7
FIELDS x y z rgb
SIZE 4 4 4 4
TYPE F F F U
COUNT 1 1 1 1
WIDTH 1057
HEIGHT 1
VIEWPOINT 0 0 0 1 0 0 0
POINTS 1057
DATA ascii
0.066812746 0.0020437425 0.354 4280302377
0.067962535 0.0020437425 0.354 4278594072
0.028424539 0.003275126 0.36300001 4282601256
0.029522011 0.0032661038 0.36200002 4282007329
0.031785518 0.0032570816 0.36100003 4281481503
0.03277545 0.0032390368 0.35900003 4281679136
0.033846941 0.0032300141 0.35800001 4281812525
0.034911931 0.0032209919 0.35700002 4282932551
0.036071472 0.0032209919 0.35700002 4281089073
0.037126716 0.0032119695 0.35600001 4282734668
0.038175467 0.0032029471 0.35500002 4282473808
0.039328512 0.0032029471 0.35500002 4282934359
0.040367514 0.0031939247 0.354 4283000922
0.04151731 0.0031939247 0.354 4282540371
0.042667102 0.0031939247 0.354 4282276429
0.043816894 0.0031939247 0.354 4285566079
0.044966683 0.0031939247 0.354 4281946437
0.046116479 0.0031939247 0.354 4282406218
0.047399797 0.0032029471 0.35500002 4282274630
0.048552833 0.0032029471 0.35500002 4282275402
0.049705874 0.0032029471 0.35500002 4281946437
0.051002178 0.0032119695 0.35600001 4282078023
0.052304983 0.0032209919 0.35700002 4281749058
0.053464517 0.0032209919 0.35700002 4284051811
0.054777063 0.0032300141 0.35800001 4283591260
0.055939849 0.0032300141 0.35800001 4282011458
0.056943126 0.0032209919 0.35700002 4281878843
0.058265414 0.0032300141 0.35800001 4281549876
0.059262205 0.0032209919 0.35700002 4280364577
0.060421735 0.0032209919 0.35700002 4280627749
0.061408777 0.0032119695 0.35600001 4280232991
0.062565066 0.0032119695 0.35600001 4280167711
0.063542366 0.0032029471 0.35500002 4280036639
0.064513162 0.0031939247 0.354 4280892716
0.06566295 0.0031939247 0.354 4280432165
0.066812746 0.0031939247 0.354 4280893229
0.067962535 0.0031939247 0.354 4279383842
0.068917103 0.0031849022 0.35300002 4281555784
0.03277545 0.0044054645 0.35900003 4281481757
0.033846941 0.0043931929 0.35800001 4280693272
0.034911931 0.0043809214 0.35700002 4282340412
0.035970427 0.0043686498 0.35600001 4282077503
0.037126716 0.0043686498 0.35600001 4282933843
0.038175467 0.0043563787 0.35500002 4282540371
0.039328512 0.0043563787 0.35500002 4282803543
0.040367514 0.0043441067 0.354 4282606164
0.04151731 0.0043441067 0.354 4282671957
0.042667102 0.0043441067 0.354 4283197531
0.043816894 0.0043441067 0.354 4282012230
0.044966683 0.0043441067 0.354 4282209609
0.046116479 0.0043441067 0.354 4284314983
0.047266271 0.0043441067 0.354 4283525467
0.048552833 0.0043563787 0.35500002 4282800974
0.049705874 0.0043563787 0.35500002 4282077000
0.050858919 0.0043563787 0.35500002 4280958519
0.052304983 0.0043809214 0.35700002 4280696883
0.053464517 0.0043809214 0.35700002 4284644977
0.054777063 0.0043931929 0.35800001 4284842354
0.055939849 0.0043931929 0.35800001 4284579182
0.057102628 0.0043931929 0.35800001 4285301878
0.058265414 0.0043931929 0.35800001 4281484601
0.059428204 0.0043931929 0.35800001 4280890921
0.060421735 0.0043809214 0.35700002 4280430370
0.061581276 0.0043809214 0.35700002 4280232991
0.062565066 0.0043686498 0.35600001 4280232737
0.063542366 0.0043563787 0.35500002 4280365604
0.064513162 0.0043441067 0.354 4279773467
0.06566295 0.0043441067 0.354 4281023532
0.066812746 0.0043441067 0.354 4280365602
0.067770556 0.0043318355 0.35300002 4278988312
0.068917103 0.0043318355 0.35300002 4279713318
0.033752397 0.005540851 0.35700002 4281679652
0.034814138 0.0055253301 0.35600001 4281088800
0.035970427 0.0055253301 0.35600001 4281814331
0.03702243 0.0055098101 0.35500002 4283263062
0.038175467 0.0055098101 0.35500002 4282671957
0.039217725 0.0054942891 0.354 4282869336
0.040367514 0.0054942891 0.354 4281881669
0.04151731 0.0054942891 0.354 4282208837
0.042667102 0.0054942891 0.354 4282405955
0.043816894 0.0054942891 0.354 4282339392
0.044966683 0.0054942891 0.354 4282405437
0.046116479 0.0054942891 0.354 4282010677
0.047266271 0.0054942891 0.354 4282010679
0.048416063 0.0054942891 0.354 4282735431
0.049565855 0.0054942891 0.354 4282933584
0.050858919 0.0055098101 0.35500002 4282604619
0.052304983 0.005540851 0.35700002 4280170026
0.053464517 0.005540851 0.35700002 4285039735
0.054777063 0.0055563715 0.35800001 4284842354
0.055939849 0.0055563715 0.35800001 4284842354
0.057102628 0.0055563715 0.35800001 4284842354
0.058265414 0.0055563715 0.35800001 4285565563
0.059594207 0.0055718925 0.35900003 4280101405
0.060590982 0.0055563715 0.35800001 4280364577
0.061581276 0.005540851 0.35700002 4280364577
0.062565066 0.0055253301 0.35600001 4280233250
0.063542366 0.0055098101 0.35500002 4280496422
0.064513162 0.0054942891 0.354 4280233764
0.06566295 0.0054942891 0.354 4281615669
0.066624016 0.0054787686 0.35300002 4279642649
0.067770556 0.0054787686 0.35300002 4279318045
0.068917103 0.0054787686 0.35300002 4278726935
0.070063643 0.0054787686 0.35300002 4280371250
0.034814138 0.0066820108 0.35600001 4281416480
0.035970427 0.0066820108 0.35600001 4283523918
0.03702243 0.0066632414 0.35500002 4282603332
0.038175467 0.0066632414 0.35500002 4282012228
0.039217725 0.0066444711 0.354 4282539085
0.040367514 0.0066444711 0.354 4282209089
0.04151731 0.0066444711 0.354 4281418288
0.042667102 0.0066444711 0.354 4280232723
0.043816894 0.0066444711 0.354 4280561175
0.044966683 0.0066444711 0.354 4281151768
0.046116479 0.0066444711 0.354 4282073124
0.047266271 0.0066444711 0.354 4282468652
0.048416063 0.0066444711 0.354 4279969549
0.049565855 0.0066444711 0.354 4282670410
0.050715651 0.0066444711 0.354 4282736203
0.052304983 0.0067007807 0.35700002 4281946435
0.053464517 0.0067007807 0.35700002 4285368186
0.054777063 0.0067195501 0.35800001 4285171321
0.055939849 0.0067195501 0.35800001 4284842356
0.057102628 0.0067195501 0.35800001 4284973940
0.058265414 0.0067195501 0.35800001 4284842354
0.059594207 0.00673832 0.35900003 4283984989
0.060590982 0.0067195501 0.35800001 4280298784
0.061581276 0.0067007807 0.35700002 4280496676
0.062565066 0.0066820108 0.35600001 4280496936
0.063542366 0.0066632414 0.35500002 4280233764
0.064513162 0.0066444711 0.354 4280562729
0.06566295 0.0066444711 0.354 4280432167
0.066624016 0.0066257017 0.35300002 4280695848
0.067770556 0.0066257017 0.35300002 4278792214
0.068917103 0.0066257017 0.35300002 4278727705
0.069865167 0.0066069323 0.35200003 4278990109
0.034814138 0.0078386907 0.35600001 4281482273
0.035970427 0.0078386907 0.35600001 4283787090
0.03702243 0.0078166723 0.35500002 4283852883
0.038175467 0.0078166723 0.35500002 4283129676
0.039217725 0.0077946531 0.354 4282735431
0.040367514 0.0077946531 0.354 4281153825
0.04151731 0.0077946531 0.354 4281810470
0.042667102 0.0077946531 0.354 4281875488
0.043816894 0.0077946531 0.354 4281414937
0.044966683 0.0077946531 0.354 4281678361
0.046116479 0.0077946531 0.354 4282073117
0.047266271 0.0077946531 0.354 4281678614
0.048416063 0.0077946531 0.354 4281679134
0.049565855 0.0077946531 0.354 4283063883
0.050715651 0.0077946531 0.354 4283130189
0.052304983 0.0078607099 0.35700002 4282406216
0.053464517 0.0078607099 0.35700002 4285170807
0.054777063 0.0078827282 0.35800001 4285302393
0.055939849 0.0078827282 0.35800001 4285105014
0.057102628 0.0078827282 0.35800001 4285105014
0.058265414 0.0078827282 0.35800001 4284907633
0.059594207 0.0079047475 0.35900003 4285630327
0.060590982 0.0078827282 0.35800001 4280036123
0.061581276 0.0078607099 0.35700002 4280694055
0.062565066 0.0078386907 0.35600001 4280825641
0.063542366 0.0078166723 0.35500002 4280365090
0.064513162 0.0077946531 0.354 4280431143
0.065477468 0.0077726347 0.35300002 4280300581
0.066624016 0.0077726347 0.35300002 4281486134
0.067578569 0.0077506159 0.35200003 4278661394
0.068721868 0.0077506159 0.35200003 4278662677
0.069865167 0.0077506159 0.35200003 4278859545
0.034814138 0.0089953709 0.35600001 4280824860
0.03586939 0.0089701032 0.35500002 4282997574
0.03702243 0.0089701032 0.35500002 4283195723
0.038175467 0.0089701032 0.35500002 4282998603
0.039328512 0.0089701032 0.35500002 4281419310
0.040367514 0.0089448346 0.354 4282601006
0.04151731 0.0089448346 0.354 4281612316
0.042667102 0.0089448346 0.354 4282731049
0.043816894 0.0089448346 0.354 4282927658
0.044966683 0.0089448346 0.354 4282533668
0.046116479 0.0089448346 0.354 4282533666
0.047266271 0.0089448346 0.354 4282665509
0.048416063 0.0089448346 0.354 4281481755
0.049565855 0.0089448346 0.354 4283130443
0.050715651 0.0089448346 0.354 4283195982
0.052304983 0.0090206396 0.35700002 4285170546
0.053464517 0.0090206396 0.35700002 4285236598
0.054777063 0.0090459064 0.35800001 4285236339
0.055939849 0.0090459064 0.35800001 4285367925
0.057102628 0.0090459064 0.35800001 4285498741
0.058265414 0.0090459064 0.35800001 4284577639
0.059594207 0.009071175 0.35900003 4283985502
0.060590982 0.0090459064 0.35800001 4282207808
0.061581276 0.0090206396 0.35700002 4280430368
0.062565066 0.0089953709 0.35600001 4280365090
0.063363373 0.0089448346 0.354 4280496676
0.064330921 0.0089195678 0.35300002 4280234018
0.065477468 0.0089195678 0.35300002 4280234788
0.066435277 0.0088943001 0.35200003 4279578137
0.067578569 0.0088943001 0.35200003 4278397708
0.068721868 0.0088943001 0.35200003 4278530578
0.069865167 0.0088943001 0.35200003 4278530578
0.13614057 0.0091217114 0.36100003 4286747773
0.1373131 0.0091217114 0.36100003 4286484601
0.13886924 0.0091469781 0.36200002 4285760878
0.14004502 0.0091469781 0.36200002 4285958257
0.14122079 0.0091469781 0.36200002 4286024050
0.14239657 0.0091469781 0.36200002 4285826671
0.14317575 0.0091217114 0.36100003 4285366120
0.14434826 0.0091217114 0.36100003 4285958257
0.03586939 0.010123535 0.35500002 4281155116
0.03702243 0.010123535 0.35500002 4282998603
0.038175467 0.010123535 0.35500002 4282932551
0.039328512 0.010123535 0.35500002 4282866756
0.040367514 0.010095018 0.354 4282601519
0.04151731 0.010095018 0.354 4282732076
0.042667102 0.010095018 0.354 4282599718
0.043816894 0.010095018 0.354 4282994476
0.044966683 0.010095018 0.354 4282467875
0.046116479 0.010095018 0.354 4282467875
0.047266271 0.010095018 0.354 4282928426
0.048416063 0.010095018 0.354 4282864439
0.049565855 0.010095018 0.354 4283721813
0.050715651 0.010095018 0.354 4284050778
0.052304983 0.010180569 0.35700002 4283919707
0.053464517 0.010180569 0.35700002 4284446823
0.054777063 0.010209085 0.35800001 4284184164
0.055939849 0.010209085 0.35800001 4284578409
0.057102628 0.010209085 0.35800001 4284446053
0.058265414 0.010209085 0.35800001 4284380260
0.059594207 0.010237603 0.35900003 4284380258
0.060590982 0.010209085 0.35800001 4285037675
0.061581276 0.010180569 0.35700002 4280759848
0.062565066 0.010152051 0.35600001 4280364836
0.063363373 0.010095018 0.354 4280233764
0.064330921 0.010066501 0.35300002 4280167971
0.065477468 0.010066501 0.35300002 4279906336
0.066435277 0.010037985 0.35200003 4279381271
0.067578569 0.010037985 0.35200003 4278923539
0.068721868 0.010037985 0.35200003 4278595601
0.069666684 0.010009467 0.35100001 4278793750
0.070806727 0.010009467 0.35100001 4278793750
0.13614057 0.010294638 0.36100003 4280038942
0.1373131 0.010294638 0.36100003 4280171553
0.13886924 0.010323154 0.36200002 4279908635
0.14004502 0.010323154 0.36200002 4280040221
0.14122079 0.010323154 0.36200002 4280171807
0.14239657 0.010323154 0.36200002 4280434725
0.14317575 0.010294638 0.36100003 4280171807
0.14434826 0.010294638 0.36100003 4280302879
0.14552079 0.010294638 0.36100003 4280302879
0.14669332 0.010294638 0.36100003 4280302625
0.03702243 0.011276967 0.35500002 4279313434
0.038175467 0.011276967 0.35500002 4282405955
0.039328512 0.011276967 0.35500002 4282603334
0.040367514 0.0112452 0.354 4283261768
0.04151731 0.0112452 0.354 4282536759
0.042667102 0.0112452 0.354 4283324990
0.043816894 0.0112452 0.354 4283127098
0.044966683 0.0112452 0.354 4283587651
0.046116479 0.0112452 0.354 4284706132
0.060590982 0.011372264 0.35800001 4284248670
0.061581276 0.011340499 0.35700002 4282207292
0.062389322 0.011276967 0.35500002 4280496676
0.063363373 0.0112452 0.354 4280233250
0.064330921 0.011213434 0.35300002 4280036385
0.065291978 0.011181668 0.35200003 4279380762
0.066435277 0.011181668 0.35200003 4279842336
0.067578569 0.011181668 0.35200003 4278858773
0.068526633 0.011149902 0.35100001 4278596371
0.069666684 0.011149902 0.35100001 4278925336
0.070806727 0.011149902 0.35100001 4278727957
0.071741804 0.011118136 0.35000002 4279647523
0.072878607 0.011118136 0.35000002 4279975977
0.097177185 0.011435797 0.36000001 4284512866
0.098346457 0.011435797 0.36000001 4283789143
0.099515744 0.011435797 0.36000001 4282670662
0.10068502 0.011435797 0.36000001 4281880376
0.10185431 0.011435797 0.36000001 4281157421
0.10302359 0.011435797 0.36000001 4280236321
0.10419287 0.011435797 0.36000001 4280039201
0.10536214 0.011435797 0.36000001 4280039455
0.10653143 0.011435797 0.36000001 4279513109
0.10770071 0.011435797 0.36000001 4279973660
0.10917241 0.011467564 0.36100003 4279709977
0.11034494 0.011467564 0.36100003 4280236834
0.11151747 0.011467564 0.36100003 4279514395
0.11269 0.011467564 0.36100003 4279711774
0.11386252 0.011467564 0.36100003 4279514395
0.11503505 0.011467564 0.36100003 4279909153
0.11620758 0.011467564 0.36100003 4279973660
0.11738011 0.011467564 0.36100003 4280039453
0.11855264 0.011467564 0.36100003 4279579416
0.11939352 0.011435797 0.36000001 4279579418
0.12056279 0.011435797 0.36000001 4279645211
0.12173207 0.011435797 0.36000001 4279514395
0.12255996 0.011404031 0.35900003 4279711774
0.123726 0.011404031 0.35900003 4279514395
0.12489203 0.011404031 0.35900003 4279317016
0.12605807 0.011404031 0.35900003 4279317527
0.1272241 0.011404031 0.35900003 4279121172
0.12839013 0.011404031 0.35900003 4279581723
0.12991704 0.011435797 0.36000001 4279384090
0.13108632 0.011435797 0.36000001 4279318297
0.1322556 0.011435797 0.36000001 4279252504
0.13342488 0.011435797 0.36000001 4279514906
0.13496804 0.011467564 0.36100003 4279251736
0.13614057 0.011467564 0.36100003 4279251736
0.13769346 0.011499329 0.36200002 4279251734
0.13886924 0.011499329 0.36200002 4279317781
0.14004502 0.011499329 0.36200002 4279186195
0.14122079 0.011499329 0.36200002 4279186195
0.14239657 0.011499329 0.36200002 4279054609
0.14317575 0.011467564 0.36100003 4278923023
0.14434826 0.011467564 0.36100003 4279317781
0.14552079 0.011467564 0.36100003 4279186195
0.14669332 0.011467564 0.36100003 4279384344
0.14745624 0.011435797 0.36000001 4278988049
0.038175467 0.012430398 0.35500002 4279641629
0.039328512 0.012430398 0.35500002 4280496938
0.040367514 0.012395382 0.354 4280498219
0.04151731 0.012395382 0.354 4280169254
0.042667102 0.012395382 0.354 4280760878
0.043816894 0.012395382 0.354 4282997324
0.061581276 0.012500429 0.35700002 4284708710
0.062565066 0.012465413 0.35600001 4280365086
0.063363373 0.012395382 0.354 4280036639
0.064148679 0.012325352 0.35200003 4279774237
0.065291978 0.012325352 0.35200003 4279052822
0.066435277 0.012325352 0.35200003 4279054103
0.067578569 0.012325352 0.35200003 4278727187
0.068526633 0.012290337 0.35100001 4278464785
0.069666684 0.012290337 0.35100001 4278727957
0.070806727 0.012290337 0.35100001 4278530832
0.071946777 0.012290337 0.35100001 4278530578
0.073086828 0.012290337 0.35100001 4278925084
0.074015409 0.012255322 0.35000002 4279975979
0.075152203 0.012255322 0.35000002 4279974444
0.093929537 0.012640489 0.36100003 4280171041
0.095102072 0.012640489 0.36100003 4279974176
0.096007906 0.012605473 0.36000001 4279317016
0.097177185 0.012605473 0.36000001 4279514393
0.098346457 0.012605473 0.36000001 4279514906
0.099515744 0.012605473 0.36000001 4279449113
0.10068502 0.012605473 0.36000001 4279646492
0.10185431 0.012605473 0.36000001 4279251734
0.10302359 0.012605473 0.36000001 4279383322
0.10419287 0.012605473 0.36000001 4279383322
0.10536214 0.012605473 0.36000001 4279317529
0.10653143 0.012605473 0.36000001 4279383320
0.10770071 0.012605473 0.36000001 4279383320
0.10917241 0.012640489 0.36100003 4279251734
0.11034494 0.012640489 0.36100003 4279055127
0.11151747 0.012640489 0.36100003 4278726162
0.11269 0.012640489 0.36100003 4278923539
0.11386252 0.012640489 0.36100003 4279055125
0.11503505 0.012640489 0.36100003 4278923539
0.11620758 0.012640489 0.36100003 4278857746
0.11738011 0.012640489 0.36100003 4278791953
0.11855264 0.012640489 0.36100003 4278857746
0.11972518 0.012640489 0.36100003 4279120918
0.12056279 0.012605473 0.36000001 4279054355
0.12173207 0.012605473 0.36000001 4278923539
0.12290135 0.012605473 0.36000001 4278791953
0.123726 0.012570458 0.35900003 4278791953
0.12489203 0.012570458 0.35900003 4278791953
0.12605807 0.012570458 0.35900003 4278857746
0.1272241 0.012570458 0.35900003 4278660367
0.12874776 0.012605473 0.36000001 4278726673
0.12991704 0.012605473 0.36000001 4278595087
0.13108632 0.012605473 0.36000001 4278989845
0.1322556 0.012605473 0.36000001 4278858259
0.13379551 0.012640489 0.36100003 4278858259
0.13496804 0.012640489 0.36100003 4278857746
0.13651769 0.012675504 0.36200002 4278791953
0.13769346 0.012675504 0.36200002 4278923539
0.13886924 0.012675504 0.36200002 4279186195
0.14004502 0.012675504 0.36200002 4278792205
0.14122079 0.012675504 0.36200002 4278923791
0.14239657 0.012675504 0.36200002 4279121170
0.14357235 0.012675504 0.36200002 4279252756
0.14434826 0.012640489 0.36100003 4279384342
0.14552079 0.012640489 0.36100003 4279186963
0.14669332 0.012640489 0.36100003 4279252756
0.14745624 0.012605473 0.36000001 4279646744
0.064148679 0.013469037 0.35200003 4279314965
0.065291978 0.013469037 0.35200003 4279053844
0.066435277 0.013469037 0.35200003 4279185941
0.067578569 0.013469037 0.35200003 4279187738
0.068721868 0.013469037 0.35200003 4278530578
0.069666684 0.013430771 0.35100001 4278728211
0.070806727 0.013430771 0.35100001 4278991896
0.071946777 0.013430771 0.35100001 4278662677
0.073086828 0.013430771 0.35100001 4278531093
0.074226879 0.013430771 0.35100001 4278925084
0.075366922 0.013430771 0.35100001 4278990109
0.076724946 0.013469037 0.35200003 4279252767
0.077868246 0.013469037 0.35200003 4278858011
0.09366934 0.01377515 0.36000001 4279120920
0.094838627 0.01377515 0.36000001 4279120920
0.096007906 0.01377515 0.36000001 4279055127
0.097177185 0.01377515 0.36000001 4279055127
0.098346457 0.01377515 0.36000001 4278791955
0.099515744 0.01377515 0.36000001 4278858259
0.10068502 0.01377515 0.36000001 4278858259
0.10185431 0.01377515 0.36000001 4278858259
0.10273741 0.013736886 0.35900003 4278858259
0.10419287 0.01377515 0.36000001 4278792466
0.10536214 0.01377515 0.36000001 4278858259
0.10653143 0.01377515 0.36000001 4278989845
0.10770071 0.01377515 0.36000001 4278989845
0.10886999 0.01377515 0.36000001 4278924566
0.11034494 0.013813416 0.36100003 4278727187
0.11151747 0.013813416 0.36100003 4278661394
0.11269 0.013813416 0.36100003 4278727187
0.11386252 0.013813416 0.36100003 4278727187
0.11503505 0.013813416 0.36100003 4278924566
0.11620758 0.013813416 0.36100003 4278858773
0.11738011 0.013813416 0.36100003 4278727187
0.11855264 0.013813416 0.36100003 4278989845
0.11972518 0.013813416 0.36100003 4278989845
0.12056279 0.01377515 0.36000001 4278989845
0.12173207 0.01377515 0.36000001 4279187224
0.12290135 0.01377515 0.36000001 4279055638
0.12407064 0.01377515 0.36000001 4278989845
0.12523992 0.01377515 0.36000001 4278858259
0.1264092 0.01377515 0.36000001 4279121431
0.12757848 0.01377515 0.36000001 4279187224
0.12874776 0.01377515 0.36000001 4279253017
0.12991704 0.01377515 0.36000001 4279253017
0.13145046 0.013813416 0.36100003 4279318810
0.13262299 0.013813416 0.36100003 4279318810
0.13379551 0.013813416 0.36100003 4279581982
0.13534191 0.013851679 0.36200002 4279385117
0.13651769 0.013851679 0.36200002 4279450910
0.13769346 0.013851679 0.36200002 4279516189
0.13886924 0.013851679 0.36200002 4279318810
0.14004502 0.013851679 0.36200002 4279516189
0.14122079 0.013851679 0.36200002 4279450396
0.14239657 0.013851679 0.36200002 4279516443
0.14357235 0.013851679 0.36200002 4279450650
0.14474812 0.013851679 0.36200002 4279450648
0.14552079 0.013813416 0.36100003 4279450648
0.14669332 0.013813416 0.36100003 4279318549
0.062961243 0.015152394 0.36500001 4284247387
0.064146765 0.015152394 0.36500001 4279049740
0.063966438 0.014571206 0.35100001 4279315478
0.065477468 0.014654233 0.35300002 4279054355
0.066624016 0.014654233 0.35300002 4279055125
0.067578569 0.01461272 0.35200003 4279056152
0.068721868 0.01461272 0.35200003 4279385117
0.069865167 0.01461272 0.35200003 4278728724
0.071008459 0.01461272 0.35200003 4278861080
0.072151758 0.01461272 0.35200003 4279520293
0.073295057 0.01461272 0.35200003 4278927386
0.074438356 0.01461272 0.35200003 4278530578
0.075581647 0.01461272 0.35200003 4278596371
0.076942913 0.014654233 0.35300002 4278464785
0.078089461 0.014654233 0.35300002 4278596371
0.079460464 0.014695746 0.354 4278530580
0.080837972 0.01473726 0.35500002 4278596373
0.083612472 0.014820287 0.35700002 4278596373
0.084772006 0.014820287 0.35700002 4278991131
0.085931547 0.014820287 0.35700002 4278530580
0.087091081 0.014820287 0.35700002 4278793752
0.089911051 0.014903313 0.35900003 4278793752
0.091077082 0.014903313 0.35900003 4278727959
0.092500061 0.014944826 0.36000001 4278596373
0.09366934 0.014944826 0.36000001 4278858773
0.094838627 0.014944826 0.36000001 4278924566
0.096007906 0.014944826 0.36000001 4278727187
0.097177185 0.014944826 0.36000001 4278859027
0.098346457 0.014944826 0.36000001 4278990613
0.099515744 0.014944826 0.36000001 4278794004
0.10068502 0.014944826 0.36000001 4278925590
0.10157138 0.014903313 0.35900003 4278794004
0.10273741 0.014903313 0.35900003 4278794004
0.10390345 0.014903313 0.35900003 4278859543
0.10536214 0.014944826 0.36000001 4279188508
0.10653143 0.014944826 0.36000001 4279056922
0.10770071 0.014944826 0.36000001 4278859543
0.10886999 0.014944826 0.36000001 4279583779
0.11034494 0.014986341 0.36100003 4279123228
0.11151747 0.014986341 0.36100003 4279123228
0.11269 0.014986341 0.36100003 4279254814
0.11386252 0.014986341 0.36100003 4279254814
0.11503505 0.014986341 0.36100003 4279320607
0.11620758 0.014986341 0.36100003 4279254814
0.11738011 0.014986341 0.36100003 4279254814
0.11855264 0.014986341 0.36100003 4279254301
0.11972518 0.014986341 0.36100003 4279320094
0.12056279 0.014944826 0.36000001 4279320094
0.12173207 0.014944826 0.36000001 4279320094
0.12290135 0.014944826 0.36000001 4279187738
0.12407064 0.014944826 0.36000001 4279385117
0.12523992 0.014944826 0.36000001 4279450910
0.1264092 0.014944826 0.36000001 4279450910
0.12757848 0.014944826 0.36000001 4279056152
0.12874776 0.014944826 0.36000001 4279385117
0.13027792 0.014986341 0.36100003 4279516189
0.13145046 0.014986341 0.36100003 4279713568
0.13262299 0.014986341 0.36100003 4279713568
0.13416614 0.015027854 0.36200002 4279647775
0.13534191 0.015027854 0.36200002 4279647775
0.13651769 0.015027854 0.36200002 4279779361
0.13769346 0.015027854 0.36200002 4279516189
0.13925284 0.015069366 0.36300001 4279647775
0.14043188 0.015069366 0.36300001 4279779361
0.14122079 0.015027854 0.36200002 4280437291
0.14239657 0.015027854 0.36200002 4279976227
0.14357235 0.015027854 0.36200002 4280502571
0.14474812 0.015027854 0.36200002 4280239399
0.1459239 0.015027854 0.36200002 4280634157
0.14669332 0.014986341 0.36100003 4281026864
0.062961243 0.016338315 0.36500001 4283986268
0.064146765 0.016338315 0.36500001 4281156399
0.065848447 0.015890691 0.35500002 4279185689
0.066812746 0.015845928 0.354 4278923287
0.067962535 0.015845928 0.354 4279450910
0.068917103 0.015801165 0.35300002 4279648289
0.070063643 0.015801165 0.35300002 4279517727
0.071210191 0.015801165 0.35300002 4279058457
0.072356731 0.015801165 0.35300002 4278796568
0.073503278 0.015801165 0.35300002 4282349392
0.074649826 0.015801165 0.35300002 4280899378
0.075796366 0.015801165 0.35300002 4278860310
0.07716088 0.015845928 0.354 4278795287
0.078310676 0.015845928 0.354 4278663447
0.079684928 0.015890691 0.35500002 4278729240
0.081065685 0.015935453 0.35600001 4278202639
0.082452938 0.015980216 0.35700002 4278663447
0.083612472 0.015980216 0.35700002 4278729240
0.084772006 0.015980216 0.35700002 4278729240
0.086172245 0.016024979 0.35800001 4278663447
0.087335028 0.016024979 0.35800001 4278334482
0.088497818 0.016024979 0.35800001 4278992412
0.089911051 0.016069742 0.35900003 4278992412
0.091077082 0.016069742 0.35900003 4279123998
0.09224312 0.016069742 0.35900003 4279321377
0.09366934 0.016114503 0.36000001 4279189791
0.094838627 0.016114503 0.36000001 4279123998
0.096007906 0.016114503 0.36000001 4279124252
0.097177185 0.016114503 0.36000001 4279321631
0.098346457 0.016114503 0.36000001 4279124252
0.099515744 0.016114503 0.36000001 4279320861
0.10068502 0.016114503 0.36000001 4279255068
0.10157138 0.016069742 0.35900003 4279123480
0.10273741 0.016069742 0.35900003 4279255066
0.10390345 0.016069742 0.35900003 4278926101
0.10506947 0.016069742 0.35900003 4279123480
0.10653143 0.016114503 0.36000001 4279189275
0.10770071 0.016114503 0.36000001 4279189021
0.10886999 0.016114503 0.36000001 4279189791
0.11003927 0.016114503 0.36000001 4279583779
0.11151747 0.016159266 0.36100003 4279649572
0.11269 0.016159266 0.36100003 4279649059
0.11386252 0.016159266 0.36100003 4279649059
0.11503505 0.016159266 0.36100003 4279846438
0.11620758 0.016159266 0.36100003 4279649059
0.11738011 0.016159266 0.36100003 4279517473
0.11855264 0.016159266 0.36100003 4279385887
0.11972518 0.016159266 0.36100003 4279649059
0.12056279 0.016114503 0.36000001 4280108840
0.12173207 0.016114503 0.36000001 4280043047
0.12290135 0.016114503 0.36000001 4280239912
0.12407064 0.016114503 0.36000001 4280239912
0.12523992 0.016114503 0.36000001 4279976740
0.1264092 0.016114503 0.36000001 4280174119
0.12757848 0.016114503 0.36000001 4280371498
0.12910539 0.016159266 0.36100003 4280239912
0.13027792 0.016159266 0.36100003 4280700463
0.13181458 0.016204027 0.36200002 4280437291
0.13299036 0.016204027 0.36200002 4280634157
0.13416614 0.016204027 0.36200002 4280305192
0.13534191 0.016204027 0.36200002 4280633387
0.13689481 0.016248791 0.36300001 4281159731
0.13807382 0.016248791 0.36300001 4280501288
0.13925284 0.016248791 0.36300001 4280830253
0.14043188 0.016248791 0.36300001 4280830766
0.14161091 0.016248791 0.36300001 4280896813
0.14278993 0.016248791 0.36300001 4281225778
0.14357235 0.016204027 0.36200002 4281159985
0.14474812 0.016204027 0.36200002 4281488696
0.1459239 0.016204027 0.36200002 4282408515
0.14709967 0.016204027 0.36200002 4283195721
0.062788747 0.017476227 0.36400002 4283854684
0.063971028 0.017476227 0.36400002 4284709223
0.064795315 0.017380204 0.36200002 4280171301
0.065606602 0.017284181 0.36000001 4279119383
0.066219419 0.017140146 0.35700002 4279054103
0.067190222 0.017092135 0.35600001 4278923287
0.068154521 0.017044123 0.35500002 4279714852
0.069307566 0.017044123 0.35500002 4279781158
0.07046061 0.017044123 0.35500002 4279453217
0.071411915 0.016996112 0.354 4279782182
0.072561711 0.016996112 0.354 4279255836
0.0737115 0.016996112 0.354 4278597906
0.074861296 0.016996112 0.354 4278861078
0.076011084 0.016996112 0.354 4278400527
0.077378854 0.017044123 0.35500002 4278795798
0.078531891 0.017044123 0.35500002 4278730007
0.079909392 0.017092135 0.35600001 4279387937
0.081293397 0.017140146 0.35700002 4279124765
0.082452938 0.017140146 0.35700002 4279124765
0.083846673 0.017188158 0.35800001 4279124765
0.085009463 0.017188158 0.35800001 4278993179
0.086172245 0.017188158 0.35800001 4278927386
0.087335028 0.017188158 0.35800001 4279124763
0.088497818 0.017188158 0.35800001 4278598419
0.089911051 0.017236169 0.35900003 4279321631
0.091077082 0.017236169 0.35900003 4279190045
0.09224312 0.017236169 0.35900003 4279255838
0.09366934 0.017284181 0.36000001 4279321377
0.094838627 0.017284181 0.36000001 4280045100
0.096007906 0.017284181 0.36000001 4279321377
0.097177185 0.017284181 0.36000001 4279847205
0.098346457 0.017284181 0.36000001 4279912485
0.099515744 0.017284181 0.36000001 4279846690
0.10068502 0.017284181 0.36000001 4279847203
0.10157138 0.017236169 0.35900003 4280241961
0.10273741 0.017236169 0.35900003 4279847205
0.10390345 0.017236169 0.35900003 4279912485
0.10506947 0.017236169 0.35900003 4280109864
0.1062355 0.017236169 0.35900003 4280175657
0.10770071 0.017284181 0.36000001 4280570415
0.10886999 0.017284181 0.36000001 4280176170
0.11003927 0.017284181 0.36000001 4280306989
0.11120855 0.017284181 0.36000001 4280240426
0.11269 0.017332194 0.36100003 4280437805
0.11386252 0.017332194 0.36100003 4280569131
0.11503505 0.017332194 0.36100003 4280503338
0.11620758 0.017332194 0.36100003 4280634924
0.11738011 0.017332194 0.36100003 4280634924
0.11855264 0.017332194 0.36100003 4280634922
0.11972518 0.017332194 0.36100003 4280569129
0.1208977 0.017332194 0.36100003 4280503338
0.12793288 0.017332194 0.36100003 4280238883
0.12910539 0.017332194 0.36100003 4280633641
0.13027792 0.017332194 0.36100003 4279909664
0.13181458 0.017380204 0.36200002 4281488696
0.13299036 0.017380204 0.36200002 4281356597
0.13416614 0.017380204 0.36200002 4281422390
0.13571578 0.017428216 0.36300001 4281159218
0.13689481 0.017428216 0.36300001 4281290288
0.13807382 0.017428216 0.36300001 4280565538
0.13925284 0.017428216 0.36300001 4281159220
0.14043188 0.017428216 0.36300001 4281159731
0.14161091 0.017428216 0.36300001 4281488950
0.14278993 0.017428216 0.36300001 4281422644
0.14357235 0.017380204 0.36200002 4281685816
0.14474812 0.017380204 0.36200002 4282933834
0.1459239 0.017380204 0.36200002 4286287994
0.14709967 0.017380204 0.36200002 4285957745
0.14827545 0.017380204 0.36200002 4286220404
0.062788747 0.018658901 0.36400002 4283985500
0.063795276 0.018607639 0.36300001 4284051293
0.064795315 0.018556379 0.36200002 4279775516
0.06578885 0.018505119 0.36100003 4279382555
0.066590399 0.018402597 0.35900003 4279055127
0.067567699 0.018351335 0.35800001 4279779363
0.068538494 0.018300075 0.35700002 4279780645
0.069698036 0.018300075 0.35700002 4279781158
0.070659086 0.018248815 0.35600001 4279781928
0.071815372 0.018248815 0.35600001 4279650596
0.072971664 0.018248815 0.35600001 4279913768
0.07412795 0.018248815 0.35600001 4280242733
0.075284243 0.018248815 0.35600001 4279979559
0.076440528 0.018248815 0.35600001 4279913766
0.077596813 0.018248815 0.35600001 4279584801
0.078974329 0.018300075 0.35700002 4279453728
0.080133863 0.018300075 0.35700002 4279651109
0.081293397 0.018300075 0.35700002 4279716902
0.082683891 0.018351335 0.35800001 4279585316
0.083846673 0.018351335 0.35800001 4279716902
0.085009463 0.018351335 0.35800001 4279650596
0.086172245 0.018351335 0.35800001 4279650596
0.087335028 0.018351335 0.35800001 4279650594
0.088497818 0.018351335 0.35800001 4279781410
0.089660592 0.018351335 0.35800001 4279912998
0.091077082 0.018402597 0.35900003 4280110377
0.09224312 0.018402597 0.35900003 4280110377
0.093409151 0.018402597 0.35900003 4280307756
0.094838627 0.018453857 0.36000001 4280373549
0.096007906 0.018453857 0.36000001 4280044584
0.097177185 0.018453857 0.36000001 4280636208
0.098346457 0.018453857 0.36000001 4280569645
0.099515744 0.018453857 0.36000001 4280437545
0.10068502 0.018453857 0.36000001 4280569131
0.10157138 0.018402597 0.35900003 4280503338
0.10273741 0.018402597 0.35900003 4280437545
0.10390345 0.018402597 0.35900003 4280239653
0.10506947 0.018402597 0.35900003 4279778848
0.1062355 0.018402597 0.35900003 4279713570
0.10740154 0.018402597 0.35900003 4279845670
0.10856757 0.018402597 0.35900003 4279450912
0.11003927 0.018453857 0.36000001 4280107815
0.11120855 0.018453857 0.36000001 4280304422
0.11237784 0.018453857 0.36000001 4280567594
0.11386252 0.018505119 0.36100003 4280830766
0.11503505 0.018505119 0.36100003 4280699180
0.11620758 0.018505119 0.36100003 4281357112
0.11738011 0.018505119 0.36100003 4281225011
0.11855264 0.018505119 0.36100003 4280830253
0.13181458 0.018556379 0.36200002 4280763690
0.13299036 0.018556379 0.36200002 4280960557
0.13416614 0.018556379 0.36200002 4281486901
0.13571578 0.018607639 0.36300001 4280565799
0.13689481 0.018607639 0.36300001 4280763176
0.13807382 0.018607639 0.36300001 4281421106
0.13925284 0.018607639 0.36300001 4281553206
0.14043188 0.018607639 0.36300001 4281619769
0.14161091 0.018607639 0.36300001 4281290804
0.14278993 0.018607639 0.36300001 4282210109
0.14396895 0.018607639 0.36300001 4284906852
0.14474812 0.018556379 0.36200002 4286090615
0.1459239 0.018556379 0.36200002 4286155638
0.14709967 0.018556379 0.36200002 4286351736
0.14827545 0.018556379 0.36200002 4286220150
0.063795276 0.019787064 0.36300001 4283985500
0.064795315 0.019732554 0.36200002 4284445536
0.06578885 0.019678045 0.36100003 4279512857
0.066775888 0.019623535 0.36000001 4279713570
0.067756437 0.019569024 0.35900003 4280108326
0.06892246 0.019569024 0.35900003 4279846438
0.070088498 0.019569024 0.35900003 4279846951
0.071056046 0.019514514 0.35800001 4279912744
0.072218828 0.019514514 0.35800001 4280504881
0.073176645 0.019460006 0.35700002 4280111147
0.074336179 0.019460006 0.35700002 4280176940
0.07549572 0.019460006 0.35700002 4280176940
0.076655254 0.019460006 0.35700002 4280045354
0.077814788 0.019460006 0.35700002 4279979561
0.079195544 0.019514514 0.35800001 4279913768
0.080358319 0.019514514 0.35800001 4279979559
0.081521109 0.019514514 0.35800001 4279782180
0.082683891 0.019514514 0.35800001 4279847203
0.083846673 0.019514514 0.35800001 4280044582
0.085009463 0.019514514 0.35800001 4279912996
0.086172245 0.019514514 0.35800001 4279845922
0.087335028 0.019514514 0.35800001 4279976227
0.088497818 0.019514514 0.35800001 4279910947
0.089660592 0.019514514 0.35800001 4280240680
0.091077082 0.019569024 0.35900003 4279778848
0.09224312 0.019569024 0.35900003 4278854927
0.093409151 0.019569024 0.35900003 4279118099
0.094838627 0.019623535 0.36000001 4279446551
0.096007906 0.019623535 0.36000001 4278986000
0.097177185 0.019623535 0.36000001 4279643930
0.098346457 0.019623535 0.36000001 4279183379
0.099515744 0.019623535 0.36000001 4279775516
0.10068502 0.019623535 0.36000001 4279709725
0.10185431 0.019623535 0.36000001 4279906334
0.10273741 0.019569024 0.35900003 4280893227
0.10390345 0.019569024 0.35900003 4279774746
0.10506947 0.019569024 0.35900003 4280565034
0.1062355 0.019569024 0.35900003 4280765491
0.10740154 0.019569024 0.35900003 4280568112
0.10856757 0.019569024 0.35900003 4279381271
0.10973361 0.019569024 0.35900003 4280039201
0.11120855 0.019623535 0.36000001 4279578904
0.11237784 0.019623535 0.36000001 4280501290
0.11354711 0.019623535 0.36000001 4280961839
0.11503505 0.019678045 0.36100003 4280699180
0.11620758 0.019678045 0.36100003 4280764460
0.11738011 0.019678045 0.36100003 4280172323
0.13689481 0.019787064 0.36300001 4282012730
0.13807382 0.019787064 0.36300001 4283394385
0.13925284 0.019787064 0.36300001 4285103720
0.14043188 0.019787064 0.36300001 4286484601
0.14161091 0.019787064 0.36300001 4285827441
0.14278993 0.019787064 0.36300001 4285827443
0.14396895 0.019787064 0.36300001 4285893236
0.14474812 0.019732554 0.36200002 4286155638
0.1459239 0.019732554 0.36200002 4286221431
0.14709967 0.019732554 0.36200002 4286549882
0.063795276 0.020966487 0.36300001 4283854684
0.064795315 0.020908728 0.36200002 4283788121
0.065971084 0.020908728 0.36200002 4282144064
0.066961378 0.020850971 0.36100003 4280108328
0.068133906 0.020850971 0.36100003 4280043047
0.069114447 0.020793211 0.36000001 4280044330
0.070283726 0.020793211 0.36000001 4279846951
0.071453013 0.020793211 0.36000001 4280241709
0.07242056 0.020735452 0.35900003 4280307502
0.073586598 0.020735452 0.35900003 4280175916
0.074752629 0.020735452 0.35900003 4280307756
0.075918667 0.020735452 0.35900003 4280045354
0.076869972 0.020677693 0.35800001 4279913768
0.078032754 0.020677693 0.35800001 4279782182
0.079195544 0.020677693 0.35800001 4280044584
0.080358319 0.020677693 0.35800001 4279847205
0.081521109 0.020677693 0.35800001 4280241963
0.082683891 0.020677693 0.35800001 4279781410
0.083846673 0.020677693 0.35800001 4279847203
0.085009463 0.020677693 0.35800001 4280109094
0.086172245 0.020677693 0.35800001 4278528013
0.087335028 0.020677693 0.35800001 4281094708
0.088497818 0.020677693 0.35800001 4280437291
0.089660592 0.020677693 0.35800001 4279118867
0.091077082 0.020735452 0.35900003 4280236069
0.09224312 0.020735452 0.35900003 4280761643
0.093409151 0.020735452 0.35900003 4280827436
0.094575189 0.020735452 0.35900003 4280169506
0.096007906 0.020793211 0.36000001 4280366372
0.097177185 0.020793211 0.36000001 4280168223
0.098346457 0.020793211 0.36000001 4279905821
0.099515744 0.020793211 0.36000001 4279840028
0.10068502 0.020793211 0.36000001 4280630057
0.10185431 0.020793211 0.36000001 4280366885
0.10273741 0.020735452 0.35900003 4279972127
0.10390345 0.020735452 0.35900003 4281026098
0.10506947 0.020735452 0.35900003 4281158966
0.1062355 0.020735452 0.35900003 4280896048
0.10740154 0.020735452 0.35900003 4280566059
0.10856757 0.020735452 0.35900003 4280892714
0.10973361 0.020735452 0.35900003 4281222192
0.11089964 0.020735452 0.35900003 4280762411
0.11237784 0.020793211 0.36000001 4280894764
0.11354711 0.020793211 0.36000001 4281026348
0.11503505 0.020850971 0.36100003 4280960555
0.11620758 0.020850971 0.36100003 4280565797
0.11738011 0.020850971 0.36100003 4281684278
0.13689481 0.020966487 0.36300001 4285826925
0.13807382 0.020966487 0.36300001 4286155636
0.13925284 0.020966487 0.36300001 4286155636
0.14043188 0.020966487 0.36300001 4286155636
0.14161091 0.020966487 0.36300001 4286155638
0.14278993 0.020966487 0.36300001 4286155638
0.14396895 0.020966487 0.36300001 4286155638
0.14474812 0.020908728 0.36200002 4286220917
0.1459239 0.020908728 0.36200002 4286352503
0.14709967 0.020908728 0.36200002 4286286710
0.063795276 0.02214591 0.36300001 4283788891
0.064974301 0.02214591 0.36300001 4283788891
0.065971084 0.022084903 0.36200002 4283854684
0.067146868 0.022084903 0.36200002 4280501036
0.068322644 0.022084903 0.36200002 4280634670
0.069306433 0.022023896 0.36100003 4279781158
0.070478961 0.022023896 0.36100003 4280175916
0.071651496 0.022023896 0.36100003 4280242479
0.072824016 0.022023896 0.36100003 4279979307
0.073791571 0.021962887 0.36000001 4280111147
0.07496085 0.021962887 0.36000001 4280045354
0.076130137 0.021962887 0.36000001 4280111147
0.07708469 0.021901879 0.35900003 4279913768
0.078250729 0.021901879 0.35900003 4279782182
0.079416759 0.021901879 0.35900003 4279715619
0.08058279 0.021901879 0.35900003 4279715619
0.081748828 0.021901879 0.35900003 4279452447
0.082683891 0.02184087 0.35800001 4279386400
0.083846673 0.02184087 0.35800001 4279189021
0.085009463 0.02184087 0.35800001 4278856978
0.086172245 0.02184087 0.35800001 4279449115
0.087335028 0.02184087 0.35800001 4280174119
0.088497818 0.02184087 0.35800001 4278792466
0.089660592 0.02184087 0.35800001 4279314967
0.091077082 0.021901879 0.35900003 4279116818
0.09224312 0.021901879 0.35900003 4279116818
0.093409151 0.021901879 0.35900003 4279905821
0.094575189 0.021901879 0.35900003 4280301094
0.096007906 0.021962887 0.36000001 4280630827
0.097177185 0.021962887 0.36000001 4280762413
0.098346457 0.021962887 0.36000001 4281617722
0.099515744 0.021962887 0.36000001 4282012480
0.10068502 0.021962887 0.36000001 4281946687
0.10185431 0.021962887 0.36000001 4282210370
0.10302359 0.021962887 0.36000001 4282144577
0.10390345 0.021901879 0.35900003 4281815866
0.10506947 0.021901879 0.35900003 4281881659
0.1062355 0.021901879 0.35900003 4281750333
0.10740154 0.021901879 0.35900003 4281684280
0.10856757 0.021901879 0.35900003 4282012730
0.10973361 0.021901879 0.35900003 4282539074
0.11089964 0.021901879 0.35900003 4283064648
0.11237784 0.021962887 0.36000001 4283722578
0.11354711 0.021962887 0.36000001 4284577376
0.11503505 0.022023896 0.36100003 4285630064
0.11620758 0.022023896 0.36100003 4285564784
0.11738011 0.022023896 0.36100003 4285827956
0.065971084 0.02326108 0.36200002 4283722328
0.067146868 0.02326108 0.36200002 4283592023
0.068322644 0.02326108 0.36200002 4282276931
0.069498412 0.02326108 0.36200002 4280700463
0.070674196 0.02326108 0.36200002 4280306989
0.071849972 0.02326108 0.36200002 4280176686
0.072824016 0.023196824 0.36100003 4280045100
0.073996551 0.023196824 0.36100003 4280045354
0.075169079 0.023196824 0.36100003 4279979559
0.076130137 0.023132564 0.36000001 4279847203
0.077299409 0.023132564 0.36000001 4280110375
0.078468695 0.023132564 0.36000001 4279452447
0.079416759 0.023068309 0.35900003 4279452447
0.08058279 0.023068309 0.35900003 4279320607
0.081748828 0.023068309 0.35900003 4279386402
0.082914859 0.023068309 0.35900003 4279056670
0.083846673 0.023004051 0.35800001 4279252765
0.085009463 0.023004051 0.35800001 4279318045
0.086172245 0.023004051 0.35800001 4279778850
0.087335028 0.023004051 0.35800001 4279647777
0.088497818 0.023004051 0.35800001 4279844643
0.089660592 0.023004051 0.35800001 4280238377
0.091077082 0.023068309 0.35900003 4280105510
0.09224312 0.023068309 0.35900003 4280500268
0.093409151 0.023068309 0.35900003 4280829235
0.094575189 0.023068309 0.35900003 4281684028
0.09574122 0.023068309 0.35900003 4283065679
0.097177185 0.023132564 0.36000001 4283789143
0.098346457 0.023132564 0.36000001 4284512866
0.099515744 0.023132564 0.36000001 4284775784
0.10068502 0.023132564 0.36000001 4284249955
0.10185431 0.023132564 0.36000001 4285105264
0.10302359 0.023132564 0.36000001 4284907372
0.10390345 0.023068309 0.35900003 4285039210
0.10506947 0.023068309 0.35900003 4285104233
0.1062355 0.023068309 0.35900003 4285038440
0.10740154 0.023068309 0.35900003 4285103979
0.10856757 0.023068309 0.35900003 4285103979
0.10973361 0.023068309 0.35900003 4285103979
0.11089964 0.023068309 0.35900003 4285366638
0.11237784 0.023132564 0.36000001 4285432431
0.11354711 0.023132564 0.36000001 4285498224
0.11503505 0.023196824 0.36100003 4285498224
0.11620758 0.023196824 0.36100003 4285432433
0.11738011 0.023196824 0.36100003 4285235054
0.068511374 0.02450476 0.36300001 4283327568
0.069690399 0.02450476 0.36300001 4283196752
0.070674196 0.024437254 0.36200002 4282934093
0.071849972 0.024437254 0.36200002 4281094710
0.073025748 0.024437254 0.36200002 4280765745
0.074201524 0.024437254 0.36200002 4279450910
0.075169079 0.024369748 0.36100003 4279648543
0.076341607 0.024369748 0.36100003 4279648029
0.078468695 0.024302242 0.36000001 4279187226
0.079637975 0.024302242 0.36000001 4279055127
0.08058279 0.024234736 0.35900003 4279317279
0.081748828 0.024234736 0.35900003 4279909162
0.082914859 0.024234736 0.35900003 4279909162
0.08408089 0.024234736 0.35900003 4280237614
0.085009463 0.024167228 0.35800001 4280171821
0.086172245 0.024167228 0.35800001 4280040235
0.087335028 0.024167228 0.35800001 4280499502
0.088497818 0.024167228 0.35800001 4280631088
0.089911051 0.024234736 0.35900003 4281617470
0.091077082 0.024234736 0.35900003 4283655770
0.09224312 0.024234736 0.35900003 4283985502
0.093409151 0.024234736 0.35900003 4284182881
0.094575189 0.024234736 0.35900003 4284511846
0.09574122 0.024234736 0.35900003 4284577124
0.097177185 0.024302242 0.36000001 4284642915
0.098346457 0.024302242 0.36000001 4284774501
0.099515744 0.024302242 0.36000001 4284906602
0.10068502 0.024302242 0.36000001 4284840809
0.10185431 0.024302242 0.36000001 4284906602
0.10302359 0.024302242 0.36000001 4284906602
0.10419287 0.024302242 0.36000001 4285235052
0.10536214 0.024302242 0.36000001 4285235052
0.10653143 0.024302242 0.36000001 4285169259
0.10770071 0.024302242 0.36000001 4285432431
0.10886999 0.024302242 0.36000001 4285235052
0.11003927 0.024302242 0.36000001 4285629040
0.11120855 0.024302242 0.36000001 4285563247
0.11237784 0.024302242 0.36000001 4285563247
0.11354711 0.024302242 0.36000001 4285497454
0.11503505 0.024369748 0.36100003 4285694833
0.11620758 0.024369748 0.36100003 4285629042
0.11738011 0.024369748 0.36100003 4285694835
0.091077082 0.025401164 0.35900003 4282734670
0.09224312 0.025401164 0.35900003 4284182368
0.093409151 0.025401164 0.35900003 4284511333
0.094575189 0.025401164 0.35900003 4284313952
0.09574122 0.025401164 0.35900003 4284642915
0.097177185 0.025471918 0.36000001 4284905317
0.098346457 0.025471918 0.36000001 4284708708
0.099515744 0.025471918 0.36000001 4284709221
0.10068502 0.025471918 0.36000001 4284906600
0.10185431 0.025471918 0.36000001 4285038186
0.10302359 0.025471918 0.36000001 4285038186
0.10419287 0.025471918 0.36000001 4285169259
0.10536214 0.025471918 0.36000001 4285300075
0.10653143 0.025471918 0.36000001 4285300075
0.10770071 0.025471918 0.36000001 4285497454
0.10886999 0.025471918 0.36000001 4285497454
0.11003927 0.025471918 0.36000001 4285365868
0.11120855 0.025471918 0.36000001 4285563247
0.11237784 0.025471918 0.36000001 4285563247
0.11354711 0.025471918 0.36000001 4285760628
0.11503505 0.025542675 0.36100003 4285563249
0.11620758 0.025542675 0.36100003 4285694835
0.11738011 0.025542675 0.36100003 4285694835
0.081729025 0.011638124 0.3579931 4294967295
0.081729025 0.011638124 0.3579931 4294901760
0.081809901 0.011145012 0.35801044 4294901760
0.081890777 0.010651902 0.35802779 4294901760
0.081971653 0.010158791 0.35804513 4294901760
0.082052529 0.0096656801 0.35806248 4294901760
0.082133405 0.009172569 0.35807982 4294901760
0.082214281 0.0086794589 0.35809717 4294901760
0.082295157 0.0081863478 0.35811451 4294901760
0.082376033 0.0076932372 0.35813183 4294901760
0.082456909 0.0072001261 0.35814917 4294901760
0.082537785 0.006707015 0.35816652 4294901760
0.082618661 0.0062139044 0.35818386 4294901760
0.082699537 0.0057207937 0.35820121 4294901760
0.082780413 0.0052276831 0.35821855 4294901760
0.082861289 0.004734572 0.3582359 4294901760
0.082942165 0.0042414609 0.35825324 4294901760
0.083023041 0.0037483508 0.35827059 4294901760
0.083103918 0.0032552397 0.35828793 4294901760
0.083184794 0.0027621286 0.35830528 4294901760
0.08326567 0.0022690175 0.35832262 4294901760
0.083346546 0.0017759064 0.35833997 4294901760
0.083427422 0.0012827963 0.35835731 4294901760
0.083508298 0.00078968517 0.35837463 4294901760
0.083589174 0.00029657409 0.35839197 4294901760
0.08367005 -0.00019653607 0.35840932 4294901760
0.083750933 -0.00068964716 0.35842666 4294901760
0.083831802 -0.0011827573 0.35844401 4294901760
0.083912686 -0.0016758693 0.35846135 4294901760
0.083993562 -0.0021689795 0.3584787 4294901760
0.084074438 -0.0026620897 0.35849604 4294901760
0.084155314 -0.0031552017 0.35851339 4294901760
0.08423619 -0.0036483118 0.35853073 4294901760
0.084317066 -0.004141422 0.35854807 4294901760
0.084397942 -0.0046345349 0.35856542 4294901760
0.084478818 -0.0051276442 0.35858276 4294901760
0.084559694 -0.0056207553 0.35860011 4294901760
0.08464057 -0.0061138663 0.35861742 4294901760
0.084721446 -0.0066069774 0.35863477 4294901760
0.084802322 -0.0071000885 0.35865211 4294901760
0.084883198 -0.0075931977 0.35866946 4294901760
0.084964074 -0.0080863107 0.3586868 4294901760
0.08504495 -0.0085794199 0.35870415 4294901760
0.085125826 -0.009072531 0.35872149 4294901760
0.085206702 -0.0095656421 0.35873884 4294901760
0.085287578 -0.010058753 0.35875618 4294901760
0.085368454 -0.010551862 0.35877353 4294901760
0.085449331 -0.011044975 0.35879087 4294901760
0.085530207 -0.011538085 0.35880822 4294901760
0.085611083 -0.012031196 0.35882556 4294901760
0.085691959 -0.012524307 0.35884291 4294901760
0.085772835 -0.013017418 0.35886025 4294901760
0.085853711 -0.013510529 0.35887757 4294901760
0.085934587 -0.014003638 0.35889491 4294901760
0.086015463 -0.014496749 0.35891226 4294901760
0.086096339 -0.014989862 0.3589296 4294901760
0.086177215 -0.015482973 0.35894695 4294901760
0.086258091 -0.015976083 0.35896429 4294901760
0.086338967 -0.016469194 0.35898164 4294901760
0.086419843 -0.016962303 0.35899898 4294901760
0.086500719 -0.017455414 0.35901633 4294901760
0.086581595 -0.017948527 0.35903367 4294901760
0.086662471 -0.018441638 0.35905102 4294901760
0.086743347 -0.018934747 0.35906836 4294901760
0.086824223 -0.019427858 0.35908571 4294901760
0.086905099 -0.019920968 0.35910305 4294901760
0.086985976 -0.02041408 0.35912037 4294901760
0.087066852 -0.020907193 0.35913771 4294901760
0.087147728 -0.021400303 0.35915506 4294901760
0.087228604 -0.021893412 0.3591724 4294901760
