# .PCD v0.7 - Point Cloud Data file format
VERSION 0.7
FIELDS x y z rgb
SIZE 4 4 4 4
TYPE F F F U
COUNT 1 1 1 1
WIDTH 1028
HEIGHT 1
VIEWPOINT 0 0 0 1 0 0 0
POINTS 1028
DATA ascii
0.10147512 -0.018022817 0.39000002 4278470681
0.10274184 -0.018022817 0.39000002 4278865693
0.10400856 -0.018022817 0.39000002 4279260197
0.10554523 -0.018069031 0.39100003 4279325220
0.10708836 -0.018115241 0.39200002 4279325220
0.10863802 -0.018161453 0.39300001 4279323937
0.11019417 -0.018207667 0.39400002 4279389217
0.11147388 -0.018207667 0.39400002 4279718182
0.11303977 -0.018253878 0.39500001 4279454496
0.11490158 -0.018346304 0.39700001 4278268173
0.11619103 -0.018346304 0.39700001 4279187992
0.11777641 -0.018392516 0.39800003 4280438059
0.11936828 -0.018438729 0.39900002 4280109864
0.12066424 -0.018438729 0.39900002 4280176170
0.12226585 -0.018484941 0.40000001 4280044584
0.12356506 -0.018484941 0.40000001 4278660880
0.12486426 -0.018484941 0.40000001 4280175657
0.12647887 -0.018531153 0.40100002 4280241963
0.12778132 -0.018531153 0.40100002 4280241963
0.12940566 -0.018577365 0.40200001 4280898610
0.017321661 -0.016240109 0.37800002 4281876513
0.024492191 -0.016111219 0.37500003 4281944372
0.026928194 -0.016111219 0.37500003 4282207292
0.028146192 -0.016111219 0.37500003 4292671196
0.029364195 -0.016111219 0.37500003 4285960058
0.030663745 -0.016154181 0.37600002 4281155890
0.036965575 -0.016240109 0.37800002 4281945404
0.038193323 -0.016240109 0.37800002 4281616437
0.039421067 -0.016240109 0.37800002 4281024300
0.040648807 -0.016240109 0.37800002 4281221681
0.041876554 -0.016240109 0.37800002 4281353267
0.043104298 -0.016240109 0.37800002 4281549876
0.044332046 -0.016240109 0.37800002 4281352497
0.045439258 -0.016197145 0.377 4280496674
0.046416204 -0.016111219 0.37500003 4280562467
0.047507178 -0.016068256 0.37400001 4280693022
0.048591658 -0.016025292 0.37300003 4280298264
0.049669642 -0.015982328 0.37200001 4281021474
0.050741129 -0.015939366 0.37100002 4281416230
0.051946141 -0.015939366 0.37100002 4280824093
0.053151149 -0.015939366 0.37100002 4280429848
0.054356162 -0.015939366 0.37100002 4279581471
0.055710923 -0.015982328 0.37200001 4279650344
0.056919184 -0.015982328 0.37200001 4279256617
0.058127441 -0.015982328 0.37200001 4279518767
0.059335694 -0.015982328 0.37200001 4286094476
0.060543951 -0.015982328 0.37200001 4285501569
0.061752211 -0.015982328 0.37200001 4285566849
0.062960461 -0.015982328 0.37200001 4285501056
0.064168721 -0.015982328 0.37200001 4285632642
0.073212221 -0.016111219 0.37500003 4285697663
0.07443022 -0.016111219 0.37500003 4286224261
0.075648218 -0.016111219 0.37500003 4286027652
0.076866224 -0.016111219 0.37500003 4283264342
0.078084223 -0.016111219 0.37500003 4280567596
0.079513699 -0.016154181 0.37600002 4279913262
0.080949657 -0.016197145 0.377 4279980338
0.082610093 -0.016283071 0.37900001 4279520041
0.084283523 -0.016368998 0.38100001 4279125795
0.085745476 -0.016411962 0.38200003 4279061285
0.087213926 -0.016454924 0.38300002 4279061539
0.088688865 -0.016497888 0.384 4278995744
0.090170309 -0.016540851 0.38500002 4279193636
0.091658242 -0.016583813 0.38600001 4279193636
0.092911974 -0.016583813 0.38600001 4279325222
0.09440966 -0.016626777 0.38700002 4278865441
0.095913835 -0.016669741 0.38800001 4278800162
0.097174056 -0.016669741 0.38800001 4278602783
0.098687984 -0.016712705 0.38900003 4278800162
0.10020839 -0.016755667 0.39000002 4279062820
0.10147512 -0.016755667 0.39000002 4279260199
0.10300529 -0.01679863 0.39100003 4279193121
0.10427526 -0.01679863 0.39100003 4279390500
0.10581516 -0.016841594 0.39200002 4279389217
0.10736155 -0.016884556 0.39300001 4279455010
0.10891445 -0.01692752 0.39400002 4279584801
0.11019417 -0.01692752 0.39400002 4278201093
0.11175681 -0.016970484 0.39500001 4279847203
0.11332595 -0.017013447 0.39600003 4280636206
0.11490158 -0.017056409 0.39700001 4280043299
0.1164837 -0.017099373 0.39800003 4280372264
0.11777641 -0.017099373 0.39800003 4280306473
0.11936828 -0.017142337 0.39900002 4279582496
0.12066424 -0.017142337 0.39900002 4280306989
0.12226585 -0.017185299 0.40000001 4278990359
0.12356506 -0.017185299 0.40000001 4280372266
0.12486426 -0.017185299 0.40000001 4280307243
0.12647887 -0.017228262 0.40100002 4280307756
0.12778132 -0.017228262 0.40100002 4279912231
0.12908377 -0.017228262 0.40100002 4285303155
0.017321661 -0.015011949 0.37800002 4282601017
0.018500334 -0.014972233 0.377 4282601019
0.019724829 -0.014972233 0.377 4282272824
0.020893758 -0.01493252 0.37600002 4282076470
0.038193323 -0.015011949 0.37800002 4281879611
0.039421067 -0.015011949 0.37800002 4281879611
0.040648807 -0.015011949 0.37800002 4281879611
0.041987337 -0.015051662 0.37900001 4281945404
0.04321833 -0.015051662 0.37900001 4281879611
0.044332046 -0.015011949 0.37800002 4281286704
0.045439258 -0.014972233 0.377 4280233502
0.046539977 -0.01493252 0.37600002 4280627745
0.047634203 -0.014892806 0.37500003 4280693022
0.048852205 -0.014892806 0.37500003 4280495643
0.049669642 -0.014773663 0.37200001 4281416484
0.050741129 -0.014733949 0.37100002 4281482277
0.051946141 -0.014733949 0.37100002 4281876263
0.053151149 -0.014733949 0.37100002 4281548068
0.054942213 -0.014892806 0.37500003 4280499745
0.055860687 -0.014813378 0.37300003 4279516443
0.057072192 -0.014813378 0.37300003 4278927902
0.058127441 -0.014773663 0.37200001 4279125797
0.059335694 -0.014773663 0.37200001 4279320875
0.060543951 -0.014773663 0.37200001 4285371780
0.061752211 -0.014773663 0.37200001 4285370753
0.062960461 -0.014773663 0.37200001 4285567362
0.064341217 -0.014813378 0.37300003 4285566849
0.065552726 -0.014813378 0.37300003 4285435263
0.068522453 -0.01493252 0.37600002 4285566847
0.069743708 -0.01493252 0.37600002 4285632640
0.070964955 -0.01493252 0.37600002 4285895812
0.072186202 -0.01493252 0.37600002 4285436028
0.073212221 -0.014892806 0.37500003 4282147659
0.074628703 -0.01493252 0.37600002 4279977772
0.075849943 -0.01493252 0.37600002 4279780906
0.077071197 -0.01493252 0.37600002 4279782182
0.078292444 -0.01493252 0.37600002 4279651109
0.079725169 -0.014972233 0.377 4279191840
0.080949657 -0.014972233 0.377 4279126560
0.082610093 -0.015051662 0.37900001 4278929181
0.084283523 -0.01513109 0.38100001 4279061537
0.085745476 -0.015170805 0.38200003 4279258916
0.087213926 -0.015210519 0.38300002 4279193636
0.088688865 -0.015250232 0.384 4279193634
0.090170309 -0.015289947 0.38500002 4279062048
0.091658242 -0.015329661 0.38600001 4278996255
0.093152687 -0.015369375 0.38700002 4279062048
0.09440966 -0.015369375 0.38700002 4279193634
0.095913835 -0.01540909 0.38800001 4279062048
0.097424507 -0.015448804 0.38900003 4279062050
0.098687984 -0.015448804 0.38900003 4279193636
0.10020839 -0.015488517 0.39000002 4279127330
0.10173532 -0.015528233 0.39100003 4279389732
0.10300529 -0.015528233 0.39100003 4279586086
0.10454194 -0.015567946 0.39200002 4278335249
0.10608509 -0.01560766 0.39300001 4278596625
0.10736155 -0.01560766 0.39300001 4279649313
0.10891445 -0.015647374 0.39400002 4280307241
0.11047384 -0.015687088 0.39500001 4279978276
0.11203974 -0.015726803 0.39600003 4280176168
0.11332595 -0.015726803 0.39600003 4279123480
0.11490158 -0.015766516 0.39700001 4279517727
0.1164837 -0.015806232 0.39800003 4279450910
0.11777641 -0.015806232 0.39800003 4279056152
0.11936828 -0.015845945 0.39900002 4280043049
0.12066424 -0.015845945 0.39900002 4280766772
0.12226585 -0.015885659 0.40000001 4279516705
0.12356506 -0.015885659 0.40000001 4280570415
0.12486426 -0.015885659 0.40000001 4280438829
0.12616345 -0.015885659 0.40000001 4281488698
0.017321661 -0.013783786 0.37800002 4281878325
0.018549407 -0.013783786 0.37800002 4283523664
0.019724829 -0.013747321 0.377 4282207804
0.020893758 -0.013710856 0.37600002 4281615667
0.038092278 -0.013747321 0.377 4281221683
0.040648807 -0.013783786 0.37800002 4281484853
0.041987337 -0.013820251 0.37900001 4282076990
0.04321833 -0.013820251 0.37900001 4281682232
0.044449326 -0.013820251 0.37900001 4281024302
0.045680314 -0.013820251 0.37900001 4280234016
0.04678753 -0.013783786 0.37800002 4281023016
0.047888249 -0.013747321 0.377 4280758815
0.048982475 -0.013710856 0.37600002 4280955681
0.050737809 -0.013856716 0.38000003 4281810472
0.051972046 -0.013856716 0.38000003 4281876263
0.053206287 -0.013856716 0.38000003 4282007077
0.054440532 -0.013856716 0.38000003 4281678882
0.054942213 -0.013674391 0.37500003 4281155618
0.056010444 -0.013637925 0.37400001 4279383570
0.057225201 -0.013637925 0.37400001 4278664984
0.058283698 -0.013601461 0.37300003 4278797084
0.059495199 -0.013601461 0.37300003 4278467867
0.060706709 -0.013601461 0.37300003 4279125031
0.061918214 -0.013601461 0.37300003 4284121713
0.063129716 -0.013601461 0.37300003 4285634438
0.064513713 -0.013637925 0.37400001 4285568130
0.065728471 -0.013637925 0.37400001 4285370751
0.067122221 -0.013674391 0.37500003 4286094474
0.068522453 -0.013710856 0.37600002 4284713075
0.069743708 -0.013710856 0.37600002 4281489731
0.070964955 -0.013710856 0.37600002 4279385637
0.072186202 -0.013710856 0.37600002 4279321379
0.073407449 -0.013710856 0.37600002 4279584549
0.074628703 -0.013710856 0.37600002 4279059742
0.075849943 -0.013710856 0.37600002 4279257121
0.077071197 -0.013710856 0.37600002 4279126045
0.078500666 -0.013747321 0.377 4279191838
0.079725169 -0.013747321 0.377 4278798363
0.081164382 -0.013783786 0.37800002 4279062048
0.082828067 -0.013856716 0.38000003 4279325220
0.084283523 -0.013893181 0.38100001 4279193634
0.085745476 -0.013929646 0.38200003 4278733083
0.087213926 -0.013966111 0.38300002 4279062048
0.088688865 -0.014002576 0.384 4279127841
0.090170309 -0.014039041 0.38500002 4278996255
0.091658242 -0.014075506 0.38600001 4279521316
0.093152687 -0.014111971 0.38700002 4279389217
0.094653606 -0.014148436 0.38800001 4279455010
0.095913835 -0.014148436 0.38800001 4279323424
0.097424507 -0.014184902 0.38900003 4280046633
0.098941676 -0.014221366 0.39000002 4279586084
0.10046534 -0.014257832 0.39100003 4278202122
0.10173532 -0.014257832 0.39100003 4278926103
0.10326872 -0.014294297 0.39200002 4280505135
0.10480863 -0.014330762 0.39300001 4279912744
0.10608509 -0.014330762 0.39300001 4279714852
0.10763474 -0.014367227 0.39400002 4278991129
0.10919088 -0.014403692 0.39500001 4280438059
0.11047384 -0.014403692 0.39500001 4279845668
0.11203974 -0.014440157 0.39600003 4278266890
0.11361212 -0.014476622 0.39700001 4280109864
0.11490158 -0.014476622 0.39700001 4280372012
0.1164837 -0.014513087 0.39800003 4280372012
0.11807233 -0.014549552 0.39900002 4278464015
0.11936828 -0.014549552 0.39900002 4279187224
0.12066424 -0.014549552 0.39900002 4281489468
0.12226585 -0.014586017 0.40000001 4280042022
0.12356506 -0.014586017 0.40000001 4282869584
0.01617907 -0.012622058 0.38000003 4282536769
0.017367486 -0.012588842 0.37900001 4283656020
0.018549407 -0.012555626 0.37800002 4282274621
0.040648807 -0.012555626 0.37800002 4280366374
0.041987337 -0.012588842 0.37900001 4281748540
0.043332364 -0.012622058 0.38000003 4281222194
0.044566605 -0.012622058 0.38000003 4280826153
0.045800846 -0.012622058 0.38000003 4280759331
0.047035087 -0.012622058 0.38000003 4281220136
0.048142299 -0.012588842 0.37900001 4280495130
0.049243022 -0.012555626 0.37800002 4281415460
0.050737809 -0.012622058 0.38000003 4281876263
0.051835276 -0.012588842 0.37900001 4281678884
0.052926257 -0.012555626 0.37800002 4282072870
0.054010734 -0.01252241 0.377 4282007077
0.055088721 -0.012489194 0.37600002 4281680935
0.056160208 -0.012455978 0.37500003 4279448080
0.057225201 -0.012422762 0.37400001 4278729492
0.058439955 -0.012422762 0.37400001 4278467603
0.059654702 -0.012422762 0.37400001 4278862877
0.060869459 -0.012422762 0.37400001 4278928416
0.062084213 -0.012422762 0.37400001 4279256615
0.063298963 -0.012422762 0.37400001 4280045361
0.064513713 -0.012422762 0.37400001 4279452713
0.065904215 -0.012455978 0.37500003 4279584301
0.067301206 -0.012489194 0.37600002 4279979057
0.068522453 -0.012489194 0.37600002 4279650344
0.069743708 -0.012489194 0.37600002 4279388453
0.070964955 -0.012489194 0.37600002 4278994209
0.072186202 -0.012489194 0.37600002 4278796830
0.073407449 -0.012489194 0.37600002 4278928416
0.074628703 -0.012489194 0.37600002 4278928670
0.075849943 -0.012489194 0.37600002 4279191840
0.07727617 -0.01252241 0.377 4279192351
0.078500666 -0.01252241 0.377 4279127328
0.079936638 -0.012555626 0.37800002 4278930464
0.081379101 -0.012588842 0.37900001 4278864669
0.082828067 -0.012622058 0.38000003 4278930203
0.084504746 -0.01268849 0.38200003 4279127582
0.08596994 -0.012721705 0.38300002 4279193375
0.087441631 -0.012754921 0.384 4279193375
0.088919833 -0.012788137 0.38500002 4279192605
0.090404518 -0.012821353 0.38600001 4279323937
0.091658242 -0.012821353 0.38600001 4279717668
0.093152687 -0.01285457 0.38700002 4280045863
0.094653606 -0.012887785 0.38800001 4278926101
0.096161038 -0.012921002 0.38900003 4278860308
0.097424507 -0.012921002 0.38900003 4279845922
0.098941676 -0.012954217 0.39000002 4280306473
0.10046534 -0.012987434 0.39100003 4280240680
0.10199551 -0.01302065 0.39200002 4279056406
0.10326872 -0.01302065 0.39200002 4279516957
0.10480863 -0.013053864 0.39300001 4279385371
0.10635503 -0.013087081 0.39400002 4280702001
0.10763474 -0.013087081 0.39400002 4279451934
0.10919088 -0.013120296 0.39500001 4279912485
0.11075353 -0.013153513 0.39600003 4280570161
0.11203974 -0.013153513 0.39600003 4279451164
0.11361212 -0.013186729 0.39700001 4278266890
0.11490158 -0.013186729 0.39700001 4279779877
0.1164837 -0.013219945 0.39800003 4280964149
0.11807233 -0.013253161 0.39900002 4280830768
0.11936828 -0.013253161 0.39900002 4282079298
0.018598478 -0.011357432 0.37900001 4282471746
0.040648807 -0.011327466 0.37800002 4281879609
0.043446396 -0.011417366 0.38100001 4281484083
0.044683885 -0.011417366 0.38100001 4280759844
0.045921374 -0.011417366 0.38100001 4281614640
0.04715886 -0.011417366 0.38100001 4281154343
0.048396349 -0.011417366 0.38100001 4280889886
0.049503569 -0.011387399 0.38000003 4281482277
0.050871328 -0.011417366 0.38100001 4281810470
0.051972046 -0.011387399 0.38000003 4281942056
0.053066269 -0.011357432 0.37900001 4282073640
0.054154001 -0.011327466 0.37800002 4281876261
0.055235233 -0.011297498 0.377 4279773451
0.056309968 -0.011267532 0.37600002 4279513361
0.05737821 -0.011237565 0.37500003 4278924820
0.058596212 -0.011237565 0.37500003 4278465552
0.059814211 -0.011237565 0.37500003 4278664982
0.061032213 -0.011237565 0.37500003 4279126047
0.062250216 -0.011237565 0.37500003 4278665498
0.06346821 -0.011237565 0.37500003 4278598937
0.064686216 -0.011237565 0.37500003 4278927902
0.066079959 -0.011267532 0.37600002 4279059488
0.067301206 -0.011267532 0.37600002 4278993949
0.068522453 -0.011267532 0.37600002 4278862363
0.069743708 -0.011267532 0.37600002 4278797084
0.070964955 -0.011267532 0.37600002 4278797082
0.072186202 -0.011267532 0.37600002 4278928668
0.073602676 -0.011297498 0.377 4279257633
0.074827179 -0.011297498 0.377 4279192353
0.076051667 -0.011297498 0.377 4278863386
0.07727617 -0.011297498 0.377 4278863386
0.078708895 -0.011327466 0.37800002 4278666777
0.080148108 -0.011357432 0.37900001 4278995742
0.081593826 -0.011387399 0.38000003 4279192351
0.083046034 -0.011417366 0.38100001 4279257631
0.084504746 -0.011447333 0.38200003 4279257885
0.08596994 -0.0114773 0.38300002 4279257885
0.087441631 -0.011507266 0.384 4279389471
0.088919833 -0.011537233 0.38500002 4279716387
0.090404518 -0.0115672 0.38600001 4278465039
0.091895707 -0.011597168 0.38700002 4278593039
0.093393385 -0.011627134 0.38800001 4279118101
0.094653606 -0.011627134 0.38800001 4279845922
0.096161038 -0.011657101 0.38900003 4280306473
0.097674951 -0.011687067 0.39000002 4279317014
0.099195376 -0.011717035 0.39100003 4279250453
0.10046534 -0.011717035 0.39100003 4279581469
0.10199551 -0.011747002 0.39200002 4280701231
0.10353216 -0.011776968 0.39300001 4279845922
0.10480863 -0.011776968 0.39300001 4280832817
0.10635503 -0.011806935 0.39400002 4280503852
0.10790792 -0.011836901 0.39500001 4279122199
0.10919088 -0.011836901 0.39500001 4278529810
0.11075353 -0.011866868 0.39600003 4280964151
0.11203974 -0.011866868 0.39600003 4280503600
0.11361212 -0.011896836 0.39700001 4280306219
0.11490158 -0.011896836 0.39700001 4281620030
0.023336256 -0.010045869 0.37600002 4281946687
0.024492191 -0.010019152 0.37500003 4281353780
0.044918448 -0.010232894 0.38300002 4281222194
0.04616243 -0.010232894 0.38300002 4281549614
0.047406413 -0.010232894 0.38300002 4281483560
0.048523374 -0.010206176 0.38200003 4281679654
0.049764112 -0.010206176 0.38200003 4281745447
0.050871328 -0.010179458 0.38100001 4281876261
0.052108813 -0.010179458 0.38100001 4282007847
0.053206287 -0.01015274 0.38000003 4281942054
0.054297265 -0.010126023 0.37900001 4281876261
0.055381749 -0.010099305 0.37800002 4279643151
0.056459725 -0.010072587 0.377 4279250705
0.057531219 -0.010045869 0.37600002 4279055638
0.05875247 -0.010045869 0.37600002 4278727187
0.059973713 -0.010045869 0.37600002 4278663701
0.061194964 -0.010045869 0.37600002 4278664982
0.062416214 -0.010045869 0.37600002 4278204431
0.063637458 -0.010045869 0.37600002 4281626181
0.064858705 -0.010045869 0.37600002 4279586086
0.066079959 -0.010045869 0.37600002 4279059742
0.067480199 -0.010072587 0.377 4278796830
0.068704695 -0.010072587 0.377 4278994463
0.06992919 -0.010072587 0.377 4279126049
0.071153685 -0.010072587 0.377 4279126047
0.072378181 -0.010072587 0.377 4278928668
0.073602676 -0.010072587 0.377 4279126047
0.074827179 -0.010072587 0.377 4279126047
0.076253399 -0.010099305 0.37800002 4279257119
0.077481151 -0.010099305 0.37800002 4279322912
0.078917116 -0.010126023 0.37900001 4279257117
0.080359586 -0.01015274 0.38000003 4279322910
0.081593826 -0.01015274 0.38000003 4279586082
0.083264008 -0.010206176 0.38200003 4279980072
0.084725954 -0.010232894 0.38300002 4278990611
0.086194396 -0.010259612 0.384 4278265093
0.08766935 -0.010286329 0.38500002 4278593291
0.089150794 -0.010313047 0.38600001 4278789134
0.090638727 -0.010339765 0.38700002 4279314967
0.091895707 -0.010339765 0.38700002 4280432678
0.093393385 -0.010366483 0.38800001 4278788623
0.094897561 -0.0103932 0.38900003 4280503338
0.096161038 -0.0103932 0.38900003 4278198789
0.097674951 -0.010419918 0.39000002 4279445781
0.099195376 -0.010446636 0.39100003 4280236834
0.10046534 -0.010446636 0.39100003 4281292600
0.10199551 -0.010473354 0.39200002 4280437805
0.10353216 -0.010500071 0.39300001 4278595603
0.10480863 -0.010500071 0.39300001 4279977256
0.10635503 -0.010526789 0.39400002 4280437807
0.10790792 -0.010553506 0.39500001 4280569393
0.10946732 -0.010580225 0.39600003 4280503086
0.11075353 -0.010580225 0.39600003 4281292348
0.11203974 -0.010580225 0.39600003 4284843376
0.022173822 -0.0088476753 0.377 4282471228
0.024492191 -0.0088007385 0.37500003 4281222964
0.047530189 -0.0090119559 0.384 4281416745
0.048650399 -0.0089884875 0.38300002 4282072870
0.049894385 -0.0089884875 0.38300002 4282204456
0.051004853 -0.0089650191 0.38200003 4281941284
0.052108813 -0.0089415498 0.38100001 4282072870
0.053206287 -0.0089180814 0.38000003 4282138663
0.054297265 -0.0088946121 0.37900001 4282336812
0.055381749 -0.0088711446 0.37800002 4279775250
0.056609489 -0.0088711446 0.37800002 4279251475
0.057684224 -0.0088476753 0.377 4279055125
0.058908723 -0.0088476753 0.377 4278726673
0.060133215 -0.0088476753 0.377 4278727957
0.061357714 -0.0088476753 0.377 4278730007
0.06258221 -0.0088476753 0.377 4278533910
0.063806705 -0.0088476753 0.377 4278797082
0.065031201 -0.0088476753 0.377 4278533908
0.066255704 -0.0088476753 0.377 4278468115
0.067659192 -0.0088711446 0.37800002 4278665496
0.068886936 -0.0088711446 0.37800002 4278731289
0.07011468 -0.0088711446 0.37800002 4278994461
0.071342431 -0.0088711446 0.37800002 4279059740
0.072570167 -0.0088711446 0.37800002 4279059740
0.073797919 -0.0088711446 0.37800002 4279322912
0.075025663 -0.0088711446 0.37800002 4279387935
0.076455131 -0.0088946121 0.37900001 4279189273
0.077686124 -0.0088946121 0.37900001 4278926101
0.079125345 -0.0089180814 0.38000003 4279453215
0.080359586 -0.0089180814 0.38000003 4278991383
0.081808545 -0.0089415498 0.38100001 4278199816
0.083264008 -0.0089650191 0.38200003 4278986000
0.084725954 -0.0089884875 0.38300002 4278722828
0.086194396 -0.0090119559 0.384 4278985232
0.08766935 -0.0090354243 0.38500002 4281156401
0.089150794 -0.0090588927 0.38600001 4279708955
0.090638727 -0.0090823621 0.38700002 4280301860
0.092133157 -0.0091058305 0.38800001 4279117840
0.093393385 -0.0091058305 0.38800001 4280763692
0.094897561 -0.0091292998 0.38900003 4280239912
0.096408233 -0.0091527672 0.39000002 4279448600
0.097674951 -0.0091527672 0.39000002 4280762924
0.099195376 -0.0091762366 0.39100003 4279382037
0.10072229 -0.009199705 0.39200002 4280634670
0.10199551 -0.009199705 0.39200002 4281161014
0.10353216 -0.0092231734 0.39300001 4280700979
0.10480863 -0.0092231734 0.39300001 4280898358
0.10635503 -0.0092466427 0.39400002 4281094456
0.10790792 -0.0092701111 0.39500001 4284646508
0.04877742 -0.0077643008 0.384 4281482277
0.050024655 -0.0077643008 0.384 4282139433
0.051138371 -0.0077440813 0.38300002 4282138663
0.052245583 -0.0077238623 0.38200003 4282204456
0.053346302 -0.0077036424 0.38100001 4282336812
0.054440532 -0.0076834229 0.38000003 4280759063
0.055528257 -0.0076632029 0.37900001 4279513877
0.056759246 -0.0076632029 0.37900001 4279383574
0.057837237 -0.0076429839 0.37800002 4279252758
0.059064981 -0.0076429839 0.37800002 4278858513
0.060292721 -0.0076429839 0.37800002 4278990359
0.061520468 -0.0076429839 0.37800002 4279189275
0.062748216 -0.0076429839 0.37800002 4278992666
0.063975953 -0.0076429839 0.37800002 4279190043
0.065203704 -0.0076429839 0.37800002 4279190554
0.066431448 -0.0076429839 0.37800002 4279190554
0.067659192 -0.0076429839 0.37800002 4279256347
0.068886936 -0.0076429839 0.37800002 4279125533
0.070300169 -0.0076632029 0.37900001 4279257119
0.071531162 -0.0076632029 0.37900001 4279256349
0.072762154 -0.0076632029 0.37900001 4279453730
0.073993146 -0.0076632029 0.37900001 4279453730
0.075224139 -0.0076632029 0.37900001 4279256351
0.076656863 -0.0076834229 0.38000003 4278991129
0.077891104 -0.0076834229 0.38000003 4279648541
0.079333566 -0.0077036424 0.38100001 4279977506
0.080571055 -0.0077036424 0.38100001 4278657548
0.082023263 -0.0077238623 0.38200003 4278920209
0.083481967 -0.0077440813 0.38300002 4280235297
0.084947169 -0.0077643008 0.384 4280367653
0.086418867 -0.0077845207 0.38500002 4279906332
0.087897062 -0.0078047398 0.38600001 4279116816
0.089381754 -0.0078249592 0.38700002 4279906334
0.090638727 -0.0078249592 0.38700002 4278986000
0.092133157 -0.0078451792 0.38800001 4278592523
0.093634091 -0.0078653991 0.38900003 4279843873
0.094897561 -0.0078653991 0.38900003 4279187226
0.096408233 -0.0078856181 0.39000002 4280634672
0.097925402 -0.0079058381 0.39100003 4280832051
0.099195376 -0.0079058381 0.39100003 4280699952
0.10072229 -0.0079260571 0.39200002 4281160503
0.10199551 -0.0079260571 0.39200002 4280963124
0.025710193 -0.0063639116 0.37500003 4282404669
0.050024655 -0.0065166452 0.384 4281482536
0.051271889 -0.0065166452 0.384 4282138663
0.05238235 -0.0064996746 0.38300002 4282204456
0.053486321 -0.0064827045 0.38200003 4282140203
0.054583795 -0.006465734 0.38100001 4280036625
0.055674773 -0.0064487639 0.38000003 4279119635
0.05690901 -0.0064487639 0.38000003 4279251734
0.057990242 -0.0064317929 0.37900001 4279120918
0.059221238 -0.0064317929 0.37900001 4278660880
0.060452227 -0.0064317929 0.37900001 4278924566
0.061683219 -0.0064317929 0.37900001 4279188762
0.062914215 -0.0064317929 0.37900001 4278991896
0.0641452 -0.0064317929 0.37900001 4279912998
0.0653762 -0.0064317929 0.37900001 4279453217
0.066607192 -0.0064317929 0.37900001 4279190045
0.067838185 -0.0064317929 0.37900001 4279255838
0.069069177 -0.0064317929 0.37900001 4279519010
0.070300169 -0.0064317929 0.37900001 4279256351
0.0717199 -0.0064487639 0.38000003 4279387937
0.072954141 -0.0064487639 0.38000003 4279453730
0.074188381 -0.0064487639 0.38000003 4279256351
0.075422622 -0.0064487639 0.38000003 4279320096
0.076858588 -0.006465734 0.38100001 4279449115
0.078096077 -0.006465734 0.38100001 4279911201
0.079541795 -0.0064827045 0.38200003 4278396425
0.080782533 -0.0064827045 0.38200003 4280827436
0.082237981 -0.0064996746 0.38300002 4280828206
0.083699934 -0.0065166452 0.384 4280038690
0.085168391 -0.0065336158 0.38500002 4278985232
0.086643331 -0.0065505859 0.38600001 4279312914
0.087897062 -0.0065505859 0.38600001 4279641879
0.089381754 -0.0065675569 0.38700002 4279314195
0.090872936 -0.006584527 0.38800001 4281026350
0.092133157 -0.006584527 0.38800001 4280437807
0.093634091 -0.0066014975 0.38900003 4280372784
0.095141515 -0.0066184676 0.39000002 4280833846
0.096408233 -0.0066184676 0.39000002 4280373295
0.097925402 -0.0066354387 0.39100003 4280173867
0.051271889 -0.0052689901 0.384 4281942826
0.05238235 -0.0052552689 0.38300002 4282073640
0.053486321 -0.0052415477 0.38200003 4281023005
0.054583795 -0.0052278261 0.38100001 4279840530
0.055821285 -0.0052278261 0.38100001 4279448600
0.05690901 -0.0052141049 0.38000003 4279449113
0.058143254 -0.0052141049 0.38000003 4279187224
0.059377495 -0.0052141049 0.38000003 4278989845
0.060611732 -0.0052141049 0.38000003 4279516957
0.061845973 -0.0052141049 0.38000003 4279188762
0.063080214 -0.0052141049 0.38000003 4279649826
0.064314455 -0.0052141049 0.38000003 4279715619
0.065548696 -0.0052141049 0.38000003 4279452447
0.066782936 -0.0052141049 0.38000003 4279453217
0.068017177 -0.0052141049 0.38000003 4279453217
0.069251418 -0.0052141049 0.38000003 4279321631
0.070485659 -0.0052141049 0.38000003 4279255838
0.0717199 -0.0052141049 0.38000003 4279190045
0.07314612 -0.0052278261 0.38100001 4279519010
0.074383609 -0.0052278261 0.38100001 4279519010
0.075621098 -0.0052278261 0.38100001 4279318299
0.077060319 -0.0052415477 0.38200003 4280238629
0.078301057 -0.0052415477 0.38200003 4279975459
0.079750016 -0.0052552689 0.38300002 4278920209
0.080994003 -0.0052552689 0.38300002 4279313686
0.0824527 -0.0052689901 0.384 4279182100
0.083917908 -0.0052827117 0.38500002 4279051025
0.085168391 -0.0052827117 0.38500002 4279183381
0.086643331 -0.0052964329 0.38600001 4280961071
0.088124774 -0.0053101545 0.38700002 4280764975
0.089381754 -0.0053101545 0.38700002 4280568877
0.090872936 -0.0053238757 0.38800001 4280371498
0.092370622 -0.0053375969 0.38900003 4279977256
0.093634091 -0.0053375969 0.38900003 4281160762
0.051271889 -0.0040213349 0.384 4281024300
0.052519117 -0.0040213349 0.384 4281747245
0.053626336 -0.0040108627 0.38300002 4279511567
0.054727063 -0.0040003904 0.38200003 4279513363
0.0559678 -0.0040003904 0.38200003 4279514906
0.05705877 -0.0039899182 0.38100001 4279186711
0.058296259 -0.0039899182 0.38100001 4278923539
0.059533749 -0.0039899182 0.38100001 4279253017
0.060771234 -0.0039899182 0.38100001 4279056922
0.062008724 -0.0039899182 0.38100001 4279320348
0.063246213 -0.0039899182 0.38100001 4279912998
0.064483702 -0.0039899182 0.38100001 4279584033
0.065721191 -0.0039899182 0.38100001 4279190045
0.066958681 -0.0039899182 0.38100001 4279321631
0.06819617 -0.0039899182 0.38100001 4279453217
0.069433659 -0.0039899182 0.38100001 4279584803
0.070671149 -0.0039899182 0.38100001 4279255838
0.071908638 -0.0039899182 0.38100001 4279453217
0.07314612 -0.0039899182 0.38100001 4279321629
0.074578844 -0.0040003904 0.38200003 4279584031
0.075819589 -0.0040003904 0.38200003 4278198020
0.077060319 -0.0040003904 0.38200003 4280042020
0.07850603 -0.0040108627 0.38300002 4279317275
0.079750016 -0.0040108627 0.38300002 4278526478
0.081205472 -0.0040213349 0.384 4279315482
0.0824527 -0.0040213349 0.384 4280961589
0.083917908 -0.0040318072 0.38500002 4280305194
0.085389607 -0.0040422794 0.38600001 4280503086
0.086643331 -0.0040422794 0.38600001 4280569645
0.088124774 -0.0040527517 0.38700002 4280174119
0.089612715 -0.004063224 0.38800001 4282146376
0.090872936 -0.004063224 0.38800001 4285172343
0.051271889 -0.0027736798 0.384 4286355331
0.052519117 -0.0027736798 0.384 4279249426
0.053626336 -0.0027664567 0.38300002 4279644697
0.054870322 -0.0027664567 0.38300002 4279317016
0.0559678 -0.0027592336 0.38200003 4279120920
0.057208531 -0.0027592336 0.38200003 4279120920
0.058449272 -0.0027592336 0.38200003 4278989845
0.05969001 -0.0027592336 0.38200003 4279187478
0.06093074 -0.0027592336 0.38200003 4279188762
0.062171482 -0.0027592336 0.38200003 4279320861
0.063412219 -0.0027592336 0.38200003 4280176168
0.06465295 -0.0027592336 0.38200003 4279584031
0.065893687 -0.0027592336 0.38200003 4279255836
0.067134425 -0.0027592336 0.38200003 4279321629
0.06837517 -0.0027592336 0.38200003 4279453215
0.069615901 -0.0027592336 0.38200003 4279519008
0.070856638 -0.0027592336 0.38200003 4279519008
0.072097376 -0.0027592336 0.38200003 4279519008
0.073338106 -0.0027592336 0.38200003 4279649824
0.074578844 -0.0027592336 0.38200003 4278990613
0.076018065 -0.0027664567 0.38300002 4280042022
0.077262044 -0.0027664567 0.38300002 4280043047
0.07850603 -0.0027664567 0.38300002 4280109094
0.079958238 -0.0027736798 0.384 4280306219
0.081205472 -0.0027736798 0.384 4280503084
0.082667425 -0.0027809029 0.38500002 4280503086
0.083917908 -0.0027809029 0.38500002 4280633907
0.053626336 -0.0015220506 0.38300002 4279316762
0.054870322 -0.0015220506 0.38300002 4279382809
0.056114309 -0.0015220506 0.38300002 4279253019
0.057358291 -0.0015220506 0.38300002 4279187226
0.058602277 -0.0015220506 0.38300002 4279187992
0.059846263 -0.0015220506 0.38300002 4279188762
0.061090246 -0.0015220506 0.38300002 4279255068
0.062334232 -0.0015220506 0.38300002 4279649826
0.063578218 -0.0015220506 0.38300002 4279584033
0.064822197 -0.0015220506 0.38300002 4279452447
0.065893687 -0.0015180766 0.38200003 4279584031
0.067134425 -0.0015180766 0.38200003 4279584031
0.06837517 -0.0015180766 0.38200003 4279715617
0.069615901 -0.0015180766 0.38200003 4279715617
0.070856638 -0.0015180766 0.38200003 4279519008
0.072097376 -0.0015180766 0.38200003 4279650594
0.073338106 -0.0015180766 0.38200003 4279517727
0.074774079 -0.0015220506 0.38300002 4279385117
0.076018065 -0.0015220506 0.38300002 4279910949
0.077262044 -0.0015220506 0.38300002 4280372012
0.078711003 -0.0015260245 0.384 4280634672
0.079958238 -0.0015260245 0.384 4280963124
0.053766351 -0.00027836935 0.384 4286158468
0.054870322 -0.00027764443 0.38300002 4279052822
0.056114309 -0.00027764443 0.38300002 4279318045
0.057358291 -0.00027764443 0.38300002 4279055640
0.058602277 -0.00027764443 0.38300002 4279188508
0.059846263 -0.00027764443 0.38300002 4279188508
0.061090246 -0.00027764443 0.38300002 4279188762
0.062334232 -0.00027764443 0.38300002 4279781412
0.063578218 -0.00027764443 0.38300002 4279715619
0.064822197 -0.00027764443 0.38300002 4279452447
0.066066183 -0.00027764443 0.38300002 4279584033
0.067310169 -0.00027764443 0.38300002 4279584033
0.068554156 -0.00027764443 0.38300002 4279649824
0.069798134 -0.00027764443 0.38300002 4279715617
0.070856638 -0.00027691954 0.38200003 4279912998
0.072097376 -0.00027691954 0.38200003 4280110123
0.073338106 -0.00027691954 0.38200003 4280109612
0.074774079 -0.00027764443 0.38300002 4280108074
0.055013586 0.0009692859 0.384 4286421640
0.05626082 0.0009692859 0.384 4279843110
0.057508048 0.0009692859 0.384 4279778080
0.058755282 0.0009692859 0.384 4279254301
0.060002517 0.0009692859 0.384 4279320094
0.061249748 0.0009692859 0.384 4279517473
0.062496983 0.0009692859 0.384 4280044584
0.063744217 0.0009692859 0.384 4279715619
0.064991444 0.0009692859 0.384 4279452447
0.066238679 0.0009692859 0.384 4279715619
0.067310169 0.00096676173 0.38300002 4279847205
0.068554156 0.00096676173 0.38300002 4279912998
0.069798134 0.00096676173 0.38300002 4280109864
0.058755282 0.002216941 0.384 4279251484
0.060002517 0.002216941 0.384 4279581217
0.061249748 0.002216941 0.384 4279978026
0.062496983 0.002216941 0.384 4280109612
0.063744217 0.002216941 0.384 4280109610
0.064991444 0.002216941 0.384 4279912231
0.066238679 0.002216941 0.384 4279516705
0.058755282 0.0034645961 0.384 4286093191
0.066238679 0.0034645961 0.384 4286159497
0.074526288 -0.013223771 0.38326058 4294967295
0.074526288 -0.013223771 0.38326058 4294901760
0.074542768 -0.013711724 0.38315272 4294901760
0.074559242 -0.014199678 0.3830449 4294901760
0.074575722 -0.014687631 0.38293704 4294901760
0.074592195 -0.015175585 0.38282922 4294901760
0.074608676 -0.015663538 0.38272136 4294901760
0.074625149 -0.016151492 0.38261354 4294901760
0.07464163 -0.016639445 0.38250569 4294901760
0.074658103 -0.017127398 0.38239783 4294901760
0.074674584 -0.017615354 0.38229001 4294901760
0.074691057 -0.018103307 0.38218215 4294901760
0.074707538 -0.018591261 0.38207433 4294901760
0.074724011 -0.019079214 0.38196647 4294901760
0.074740492 -0.019567167 0.38185865 4294901760
0.074756965 -0.020055121 0.38175079 4294901760
0.074773446 -0.020543074 0.38164294 4294901760
0.074789919 -0.021031028 0.38153511 4294901760
0.0748064 -0.021518981 0.38142726 4294901760
0.074822873 -0.022006936 0.38131943 4294901760
0.074839354 -0.022494888 0.38121158 4294901760
0.074855827 -0.022982843 0.38110375 4294901760
0.074872307 -0.023470795 0.3809959 4294901760
0.074888781 -0.02395875 0.38088804 4294901760
0.074905261 -0.024446703 0.38078022 4294901760
0.074921735 -0.024934657 0.38067237 4294901760
0.074938215 -0.02542261 0.38056454 4294901760
0.074954696 -0.025910564 0.38045669 4294901760
0.074971169 -0.026398517 0.38034886 4294901760
0.07498765 -0.026886471 0.38024101 4294901760
0.075004123 -0.027374424 0.38013315 4294901760
0.075020604 -0.027862377 0.38002533 4294901760
0.075037077 -0.028350331 0.37991747 4294901760
0.075053558 -0.028838284 0.37980965 4294901760
0.075070031 -0.029326238 0.37970179 4294901760
0.075086512 -0.029814191 0.37959397 4294901760
0.075102985 -0.030302145 0.37948611 4294901760
0.075119466 -0.0307901 0.37937826 4294901760
0.075135939 -0.031278051 0.37927043 4294901760
0.07515242 -0.031766005 0.37916258 4294901760
0.075168893 -0.032253958 0.37905475 4294901760
0.075185373 -0.032741912 0.3789469 4294901760
0.075201847 -0.033229865 0.37883908 4294901760
0.075218327 -0.033717819 0.37873122 4294901760
0.075234801 -0.034205772 0.37862337 4294901760
0.075251281 -0.034693725 0.37851554 4294901760
0.075267754 -0.035181679 0.37840769 4294901760
0.075284235 -0.035669632 0.37829986 4294901760
0.075300708 -0.036157586 0.37819201 4294901760
0.075317189 -0.036645539 0.37808418 4294901760
0.075333662 -0.037133493 0.37797633 4294901760
0.075350143 -0.037621446 0.37786847 4294901760
0.075366624 -0.038109399 0.37776065 4294901760
0.075383097 -0.038597353 0.37765279 4294901760
0.075399578 -0.039085306 0.37754497 4294901760
0.075416051 -0.039573263 0.37743711 4294901760
0.075432532 -0.040061217 0.37732929 4294901760
0.075449005 -0.040549167 0.37722144 4294901760
0.075465485 -0.04103712 0.37711361 4294901760
0.075481959 -0.041525073 0.37700576 4294901760
0.075498439 -0.042013027 0.3768979 4294901760
0.075514913 -0.042500984 0.37679008 4294901760
0.075531393 -0.042988937 0.37668222 4294901760
0.075547867 -0.043476891 0.3765744 4294901760
0.075564347 -0.043964844 0.37646654 4294901760
0.07558082 -0.044452794 0.37635872 4294901760
0.075597301 -0.044940751 0.37625086 4294901760
0.075613774 -0.045428704 0.37614301 4294901760
0.075630255 -0.045916658 0.37603518 4294901760
0.075646728 -0.046404611 0.37592733 4294901760
0.075663209 -0.046892565 0.3758195 4294901760
0.075679682 -0.047380518 0.37571165 4294901760
0.075696163 -0.047868472 0.37560382 4294901760
0.075712636 -0.048356429 0.37549597 4294901760
0.075729117 -0.048844378 0.37538812 4294901760
0.07574559 -0.049332332 0.37528029 4294901760
0.075762071 -0.049820285 0.37517244 4294901760
0.075778551 -0.050308239 0.37506461 4294901760
0.075795025 -0.050796192 0.37495676 4294901760
0.075811505 -0.051284146 0.37484893 4294901760
0.075827979 -0.051772103 0.37474108 4294901760
0.075844459 -0.052260056 0.37463322 4294901760
0.075860932 -0.052748006 0.3745254 4294901760
0.075877413 -0.053235959 0.37441754 4294901760
0.075893886 -0.053723913 0.37430972 4294901760
0.075910367 -0.054211866 0.37420186 4294901760
0.07592684 -0.054699823 0.37409404 4294901760
0.075943321 -0.055187777 0.37398618 4294901760
0.075959794 -0.05567573 0.37387833 4294901760
0.075976275 -0.056163684 0.37377051 4294901760
0.075992748 -0.056651633 0.37366265 4294901760
0.076009229 -0.057139587 0.37355483 4294901760
0.076025702 -0.057627544 0.37344697 4294901760
0.076042183 -0.058115497 0.37333915 4294901760
0.076058656 -0.058603451 0.37323129 4294901760
0.076075137 -0.059091404 0.37312344 4294901760
0.07609161 -0.059579358 0.37301561 4294901760
0.076108091 -0.060067311 0.37290776 4294901760
0.076124564 -0.060555264 0.37279993 4294901760
0.076141044 -0.061043218 0.37269208 4294901760
0.076157518 -0.061531171 0.37258425 4294901760
0.076173998 -0.062019125 0.3724764 4294901760
0.074526288 -0.013223771 0.38326058 4278255360
0.075010858 -0.013234543 0.38338336 4278255360
0.075495429 -0.013245314 0.38350612 4278255360
0.07598 -0.013256086 0.3836289 4278255360
0.076464579 -0.013266858 0.38375169 4278255360
0.076949149 -0.013277629 0.38387445 4278255360
0.07743372 -0.013288401 0.38399723 4278255360
0.077918291 -0.013299173 0.38412002 4278255360
0.078402862 -0.013309944 0.3842428 4278255360
0.078887433 -0.013320717 0.38436556 4278255360
0.079372004 -0.013331489 0.38448834 4278255360
0.079856582 -0.01334226 0.38461113 4278255360
0.080341153 -0.013353032 0.38473389 4278255360
0.080825724 -0.013363804 0.38485667 4278255360
0.081310295 -0.013374575 0.38497946 4278255360
0.081794865 -0.013385347 0.38510221 4278255360
0.082279436 -0.013396119 0.385225 4278255360
0.082764007 -0.01340689 0.38534778 4278255360
0.083248585 -0.013417662 0.38547054 4278255360
0.083733156 -0.013428434 0.38559332 4278255360
0.084217727 -0.013439205 0.38571611 4278255360
0.084702298 -0.013449977 0.38583887 4278255360
0.085186869 -0.013460749 0.38596165 4278255360
0.08567144 -0.013471521 0.38608444 4278255360
0.086156011 -0.013482292 0.38620722 4278255360
0.086640581 -0.013493065 0.38632998 4278255360
0.08712516 -0.013503836 0.38645276 4278255360
0.087609731 -0.013514608 0.38657555 4278255360
0.088094302 -0.01352538 0.38669831 4278255360
0.088578872 -0.013536151 0.38682109 4278255360
0.089063443 -0.013546923 0.38694388 4278255360
0.089548014 -0.013557695 0.38706663 4278255360
0.090032585 -0.013568467 0.38718942 4278255360
0.090517163 -0.013579238 0.3873122 4278255360
0.091001734 -0.01359001 0.38743496 4278255360
0.091486305 -0.013600782 0.38755774 4278255360
0.091970876 -0.013611553 0.38768053 4278255360
0.092455447 -0.013622325 0.38780332 4278255360
0.092940018 -0.013633097 0.38792607 4278255360
0.093424588 -0.013643868 0.38804886 4278255360
0.093909167 -0.01365464 0.38817164 4278255360
0.094393738 -0.013665412 0.3882944 4278255360
0.094878308 -0.013676183 0.38841718 4278255360
0.095362879 -0.013686956 0.38853997 4278255360
0.09584745 -0.013697728 0.38866273 4278255360
0.096332021 -0.013708499 0.38878551 4278255360
0.096816599 -0.013719271 0.3889083 4278255360
0.09730117 -0.013730043 0.38903105 4278255360
0.097785741 -0.013740814 0.38915384 4278255360
0.098270312 -0.013751586 0.38927662 4278255360
0.098754883 -0.013762358 0.38939941 4278255360
0.099239454 -0.013773129 0.38952217 4278255360
0.099724025 -0.013783901 0.38964495 4278255360
0.1002086 -0.013794673 0.38976774 4278255360
0.10069317 -0.013805444 0.38989049 4278255360
0.10117774 -0.013816216 0.39001328 4278255360
0.10166232 -0.013826988 0.39013606 4278255360
0.10214689 -0.013837759 0.39025882 4278255360
0.10263146 -0.013848531 0.3903816 4278255360
0.10311603 -0.013859304 0.39050439 4278255360
0.10360061 -0.013870075 0.39062715 4278255360
0.10408518 -0.013880847 0.39074993 4278255360
0.10456975 -0.013891619 0.39087272 4278255360
0.10505432 -0.01390239 0.39099547 4278255360
0.10553889 -0.013913162 0.39111826 4278255360
0.10602346 -0.013923934 0.39124104 4278255360
0.10650803 -0.013934705 0.39136383 4278255360
0.1069926 -0.013945477 0.39148659 4278255360
0.10747717 -0.013956249 0.39160937 4278255360
0.10796174 -0.01396702 0.39173216 4278255360
0.10844631 -0.013977792 0.39185491 4278255360
0.10893089 -0.013988564 0.3919777 4278255360
0.10941547 -0.013999335 0.39210048 4278255360
0.10990004 -0.014010107 0.39222324 4278255360
0.11038461 -0.014020879 0.39234602 4278255360
0.11086918 -0.01403165 0.39246881 4278255360
0.11135375 -0.014042423 0.39259157 4278255360
0.11183833 -0.014053195 0.39271435 4278255360
0.1123229 -0.014063966 0.39283714 4278255360
0.11280747 -0.014074738 0.39295992 4278255360
0.11329204 -0.01408551 0.39308268 4278255360
0.11377661 -0.014096281 0.39320546 4278255360
0.11426118 -0.014107053 0.39332825 4278255360
0.11474575 -0.014117825 0.39345101 4278255360
0.11523032 -0.014128597 0.39357379 4278255360
0.1157149 -0.014139368 0.39369658 4278255360
0.11619947 -0.01415014 0.39381933 4278255360
0.11668404 -0.014160912 0.39394212 4278255360
0.11716862 -0.014171683 0.3940649 4278255360
0.11765319 -0.014182455 0.39418766 4278255360
0.11813776 -0.014193227 0.39431044 4278255360
0.11862233 -0.014203999 0.39443323 4278255360
0.1191069 -0.014214771 0.39455599 4278255360
0.11959147 -0.014225543 0.39467877 4278255360
0.12007605 -0.014236314 0.39480156 4278255360
0.12056062 -0.014247086 0.39492434 4278255360
0.12104519 -0.014257858 0.3950471 4278255360
0.12152977 -0.014268629 0.39516988 4278255360
0.12201434 -0.014279401 0.39529267 4278255360
0.12249891 -0.014290173 0.39541543 4278255360
0.12298348 -0.014300944 0.39553821 4278255360
0.074526288 -0.013223771 0.38326058 4278190335
0.074318923 -0.013328619 0.38370329 4278190335
0.074111551 -0.013433468 0.38414603 4278190335
0.073904186 -0.013538316 0.38458875 4278190335
0.073696822 -0.013643164 0.38503149 4278190335
0.07348945 -0.013748013 0.38547421 4278190335
0.073282085 -0.013852862 0.38591692 4278190335
0.073074713 -0.01395771 0.38635966 4278190335
0.072867349 -0.014062558 0.38680238 4278190335
0.072659984 -0.014167407 0.38724512 4278190335
0.072452612 -0.014272255 0.38768783 4278190335
0.072245248 -0.014377103 0.38813055 4278190335
0.072037883 -0.014481951 0.38857329 4278190335
0.071830511 -0.014586801 0.389016 4278190335
0.071623147 -0.014691649 0.38945872 4278190335
0.071415775 -0.014796497 0.38990146 4278190335
0.07120841 -0.014901346 0.39034417 4278190335
0.071001045 -0.015006194 0.39078692 4278190335
0.070793673 -0.015111042 0.39122963 4278190335
0.070586309 -0.01521589 0.39167234 4278190335
0.070378944 -0.015320739 0.39211509 4278190335
0.070171572 -0.015425587 0.3925578 4278190335
0.069964208 -0.015530436 0.39300054 4278190335
0.069756836 -0.015635284 0.39344326 4278190335
0.069549471 -0.015740132 0.39388597 4278190335
0.069342107 -0.015844982 0.39432871 4278190335
0.069134735 -0.01594983 0.39477143 4278190335
0.06892737 -0.016054679 0.39521417 4278190335
0.068720005 -0.016159527 0.39565688 4278190335
0.068512633 -0.016264375 0.3960996 4278190335
0.068305269 -0.016369224 0.39654234 4278190335
0.068097904 -0.016474072 0.39698505 4278190335
0.067890532 -0.01657892 0.39742777 4278190335
0.067683168 -0.016683768 0.39787051 4278190335
0.067475796 -0.016788617 0.39831322 4278190335
0.067268431 -0.016893465 0.39875597 4278190335
0.067061067 -0.016998313 0.39919868 4278190335
0.066853695 -0.017103162 0.39964139 4278190335
0.06664633 -0.01720801 0.40008414 4278190335
0.066438965 -0.017312858 0.40052685 4278190335
0.066231593 -0.017417707 0.40096959 4278190335
0.066024229 -0.017522555 0.40141231 4278190335
0.065816864 -0.017627403 0.40185502 4278190335
0.065609492 -0.017732251 0.40229777 4278190335
0.065402128 -0.017837102 0.40274048 4278190335
0.065194756 -0.01794195 0.40318322 4278190335
0.064987391 -0.018046798 0.40362594 4278190335
0.064780027 -0.018151646 0.40406865 4278190335
0.064572655 -0.018256495 0.40451139 4278190335
0.06436529 -0.018361343 0.40495411 4278190335
0.064157918 -0.018466191 0.40539682 4278190335
0.063950554 -0.01857104 0.40583956 4278190335
0.063743189 -0.018675888 0.40628228 4278190335
0.063535824 -0.018780736 0.40672502 4278190335
0.063328452 -0.018885585 0.40716773 4278190335
0.063121088 -0.018990433 0.40761045 4278190335
0.062913716 -0.019095281 0.40805319 4278190335
0.062706351 -0.019200131 0.4084959 4278190335
0.062498983 -0.01930498 0.40893865 4278190335
0.062291615 -0.019409828 0.40938136 4278190335
0.06208425 -0.019514676 0.40982407 4278190335
0.061876882 -0.019619524 0.41026682 4278190335
0.061669514 -0.019724373 0.41070953 4278190335
0.061462149 -0.019829221 0.41115227 4278190335
0.061254781 -0.019934069 0.41159499 4278190335
0.061047412 -0.020038918 0.4120377 4278190335
0.060840044 -0.020143766 0.41248044 4278190335
0.060632676 -0.020248614 0.41292316 4278190335
0.060425311 -0.020353463 0.4133659 4278190335
0.060217943 -0.020458311 0.41380861 4278190335
0.060010575 -0.020563159 0.41425133 4278190335
0.05980321 -0.020668007 0.41469407 4278190335
0.059595838 -0.020772856 0.41513678 4278190335
0.059388474 -0.020877704 0.4155795 4278190335
0.059181105 -0.020982552 0.41602224 4278190335
0.058973737 -0.021087401 0.41646495 4278190335
0.058766373 -0.021192249 0.4169077 4278190335
0.058559004 -0.021297097 0.41735041 4278190335
0.058351636 -0.021401946 0.41779312 4278190335
0.058144271 -0.021506796 0.41823587 4278190335
0.057936899 -0.021611644 0.41867858 4278190335
0.057729535 -0.021716492 0.41912133 4278190335
0.05752217 -0.021821341 0.41956404 4278190335
0.057314798 -0.021926189 0.42000675 4278190335
0.057107434 -0.022031037 0.4204495 4278190335
0.056900065 -0.022135885 0.42089221 4278190335
0.056692697 -0.022240734 0.42133492 4278190335
0.056485333 -0.022345582 0.42177767 4278190335
0.056277964 -0.022450432 0.42222038 4278190335
0.056070596 -0.02255528 0.42266312 4278190335
0.055863231 -0.022660129 0.42310584 4278190335
0.055655859 -0.022764977 0.42354858 4278190335
0.055448495 -0.022869825 0.42399129 4278190335
0.055241127 -0.022974674 0.42443401 4278190335
0.055033758 -0.023079522 0.42487675 4278190335
0.054826394 -0.02318437 0.42531946 4278190335
0.054619025 -0.023289219 0.42576218 4278190335
0.054411657 -0.023394067 0.42620492 4278190335
0.054204293 -0.023498915 0.42664763 4278190335
0.053996921 -0.023603763 0.42709038 4278190335
0.053789556 -0.023708612 0.42753309 4278190335
0.074526288 -0.013223771 0.38326058 4294967295
0.07577049 -0.01259468 0.38060424 4294967295
0.077014692 -0.011965591 0.37794787 4294967295
0.078258902 -0.0113365 0.37529153 4294967295
0.079503104 -0.010707409 0.37263519 4294967295
0.080747306 -0.010078318 0.36997882 4294967295
0.081991509 -0.0094492286 0.36732247 4294967295
0.083235718 -0.0088201379 0.3646661 4294967295
0.084479921 -0.0081910472 0.36200976 4294967295
0.085724123 -0.007561957 0.35935342 4294967295
0.086968325 -0.0069328663 0.35669705 4294967295
0.088212535 -0.0063037761 0.35404071 4294967295
0.089456737 -0.0056746858 0.35138437 4294967295
0.090700939 -0.0050455956 0.348728 4294967295
0.091945142 -0.0044165049 0.34607166 4294967295
0.093189344 -0.0037874142 0.34341532 4294967295
0.094433546 -0.0031583244 0.34075895 4294967295
0.095677756 -0.0025292337 0.33810261 4294967295
0.096921958 -0.001900143 0.33544624 4294967295
0.09816616 -0.0012710523 0.3327899 4294967295
0.09941037 -0.00064196158 0.33013356 4294967295
0.10065457 -1.2871809e-05 0.32747722 4294967295
0.10189877 0.00061621889 0.32482085 4294967295
0.10314298 0.0012453096 0.32216451 4294967295
0.10438718 0.0018743994 0.31950814 4294967295
0.10563139 0.0025034901 0.31685179 4294967295
0.10687559 0.0031325798 0.31419545 4294967295
0.1081198 0.0037616715 0.31153908 4294967295
0.109364 0.0043907613 0.30888274 4294967295
0.11060821 0.005019851 0.3062264 4294967295
0.11185241 0.0056489427 0.30357003 4294967295
0.11309661 0.0062780324 0.30091369 4294967295
0.11434081 0.0069071222 0.29825735 4294967295
0.11558502 0.0075362138 0.29560098 4294967295
0.11682922 0.0081653036 0.29294464 4294967295
0.11807343 0.0087943934 0.29028827 4294967295
0.11931764 0.009423485 0.28763193 4294967295
