# .PCD v0.7 - Point Cloud Data file format
VERSION 0.7
FIELDS x y z rgb
SIZE 4 4 4 4
TYPE F F F U
COUNT 1 1 1 1
WIDTH 887
HEIGHT 1
VIEWPOINT 0 0 0 1 0 0 0
POINTS 887
DATA ascii
0.062503226 -0.058240037 0.45700002 4285763456
0.063987561 -0.058240037 0.45700002 4283529828
0.06561517 -0.05836748 0.45800003 4281359938
0.059274007 -0.056506816 0.45500001 4286092421
0.060751848 -0.056506816 0.45500001 4283397213
0.062366456 -0.05663101 0.45600003 4281688905
0.063987561 -0.056755196 0.45700002 4279850801
0.065471902 -0.056755196 0.45700002 4280246324
0.067102753 -0.05687939 0.45800003 4279983152
0.055823222 -0.05454471 0.45100003 4285895812
0.057415091 -0.054665651 0.45200002 4282740312
0.05901346 -0.054786589 0.45300001 4282083661
0.06061833 -0.054907534 0.45400003 4281034305
0.062229685 -0.055028476 0.45500001 4280048947
0.06370753 -0.055028476 0.45500001 4279720750
0.065328635 -0.055149417 0.45600003 4279655471
0.066956237 -0.055270359 0.45700002 4279458603
0.068440571 -0.055270359 0.45700002 4279458607
0.052658964 -0.05284398 0.44900003 4286027911
0.054117315 -0.05284398 0.44900003 4282609242
0.055699442 -0.05296167 0.45000002 4281032260
0.057288069 -0.053079367 0.45100003 4280246326
0.05888319 -0.053197056 0.45200002 4279918131
0.060484808 -0.053314749 0.45300001 4279523885
0.061956149 -0.053314749 0.45300001 4279326506
0.063567512 -0.053432442 0.45400003 4279327019
0.065185368 -0.053550132 0.45500001 4279195433
0.066663213 -0.053550132 0.45500001 4279655471
0.068290815 -0.053667828 0.45600003 4279918129
0.051086575 -0.051270686 0.44800001 4283135068
0.052541681 -0.051270686 0.44800001 4281426501
0.053996786 -0.051270686 0.44800001 4280181049
0.055575669 -0.051385131 0.44900003 4279721779
0.057161041 -0.051499572 0.45000002 4279459375
0.058622643 -0.051499572 0.45000002 4279590961
0.060217768 -0.051614016 0.45100003 4279064615
0.061819382 -0.051728461 0.45200002 4279327017
0.063287482 -0.051728461 0.45200002 4279195433
0.064898841 -0.051842902 0.45300001 4279195433
0.066516705 -0.051957346 0.45400003 4279522601
0.067991294 -0.051957346 0.45400003 4279916594
0.048068829 -0.049703892 0.44700003 4283989865
0.04952069 -0.049703892 0.44700003 4281688905
0.050972544 -0.049703892 0.44700003 4280443453
0.052424401 -0.049703892 0.44700003 4279524146
0.053876258 -0.049703892 0.44700003 4279393582
0.055451889 -0.049815089 0.44800001 4279196203
0.056906991 -0.049815089 0.44800001 4279130923
0.058492374 -0.049926285 0.44900003 4278933544
0.060084246 -0.050037477 0.45000002 4279064617
0.061545841 -0.050037477 0.45000002 4278933031
0.063147463 -0.050148673 0.45100003 4278667294
0.064755581 -0.050259866 0.45200002 4278204181
0.066223674 -0.050259866 0.45200002 4279652141
0.06784153 -0.050371058 0.45300001 4280178485
0.046408396 -0.048035655 0.44500002 4282608726
0.047961291 -0.048143599 0.44600001 4280836928
0.049409904 -0.048143599 0.44600001 4279523119
0.050858509 -0.048143599 0.44600001 4279524398
0.052307121 -0.048143599 0.44600001 4279525168
0.053755727 -0.048143599 0.44600001 4278934312
0.055328112 -0.048251547 0.44700003 4278867749
0.056779969 -0.048251547 0.44700003 4278998822
0.0583621 -0.048359491 0.44800001 4279261224
0.059817206 -0.048359491 0.44800001 4279062820
0.061409075 -0.048467435 0.44900003 4278270999
0.063007444 -0.048575379 0.45000002 4280177201
0.064469047 -0.048575379 0.45000002 4279256099
0.066077165 -0.048683327 0.45100003 4280769084
0.067691766 -0.048791271 0.45200002 4281096766
0.044861998 -0.046485111 0.44400004 4281558600
0.04630411 -0.046485111 0.44400004 4280246074
0.047746222 -0.046485111 0.44400004 4279525429
0.049188334 -0.046485111 0.44400004 4278999855
0.050630447 -0.046485111 0.44400004 4279000105
0.052072562 -0.046485111 0.44400004 4278539806
0.053635199 -0.046589803 0.44500002 4278737187
0.055080559 -0.046589803 0.44500002 4278933283
0.056652941 -0.046694499 0.44600001 4278931748
0.058101553 -0.046694499 0.44600001 4279062052
0.059683688 -0.046799198 0.44700003 4278203665
0.061272305 -0.046903893 0.44800001 4279979820
0.062867433 -0.047008589 0.44900003 4280506164
0.064325787 -0.047008589 0.44900003 4279058972
0.06593065 -0.047113284 0.45000002 4281031997
0.067542009 -0.047217984 0.45100003 4284647793
-0.0011524197 -0.040375941 0.39800003 4286355593
0.00014063744 -0.040477388 0.39900002 4286224777
0.0014401906 -0.040578835 0.40000001 4286224777
0.0027462398 -0.040680282 0.40100002 4286093191
0.0040486883 -0.040680282 0.40100002 4286027398
0.0053644818 -0.040781729 0.40200001 4286225031
0.0066701779 -0.040781729 0.40200001 4286225031
0.0079758754 -0.040781729 0.40200001 4286421640
0.009281572 -0.040781729 0.40200001 4286356617
0.040079173 -0.044535272 0.43900001 4285764739
0.041505046 -0.044535272 0.43900001 4281492811
0.042930916 -0.044535272 0.43900001 4280639295
0.044558875 -0.044738166 0.44100001 4279194922
0.046095531 -0.044839613 0.44200003 4279525168
0.047531147 -0.044839613 0.44200003 4279130921
0.048966765 -0.044839613 0.44200003 4278802726
0.050402381 -0.044839613 0.44200003 4279000105
0.051955279 -0.04494106 0.44300002 4278539808
0.053394143 -0.04494106 0.44300002 4278604577
0.054956786 -0.045042507 0.44400004 4279063845
0.056398895 -0.045042507 0.44400004 4278204174
0.057971284 -0.045143954 0.44500002 4279256351
0.059550162 -0.045245402 0.44600001 4279453476
0.061135538 -0.045346849 0.44700003 4279256097
0.062727414 -0.045448296 0.44800001 4280110893
0.06418252 -0.045448296 0.44800001 4279979307
0.065784141 -0.045549743 0.44900003 4280636215
-0.0011524197 -0.039082799 0.39800003 4286487433
0.00014063744 -0.039180998 0.39900002 4286552972
0.0014401906 -0.039279193 0.40000001 4286685328
0.0040486883 -0.039377391 0.40100002 4281619782
0.0053644818 -0.03947559 0.40200001 4282014540
0.0066701779 -0.03947559 0.40200001 4284512864
0.009281572 -0.03947559 0.40200001 4284183910
0.010587269 -0.03947559 0.40200001 4286947732
0.038565252 -0.043010719 0.43800002 4282477138
0.039987877 -0.043010719 0.43800002 4281361475
0.041315958 -0.04291252 0.43700001 4279655473
0.042833127 -0.043010719 0.43800002 4279523887
0.044356793 -0.043108914 0.43900001 4279262509
0.045782663 -0.043108914 0.43900001 4278999335
0.047316074 -0.043207116 0.44000003 4278999589
0.048745196 -0.043207116 0.44000003 4278933796
0.050174315 -0.043207116 0.44000003 4278604577
0.051720716 -0.043305311 0.44100001 4278933029
0.053153086 -0.043305311 0.44100001 4279193123
0.05470923 -0.04340351 0.44200003 4278532626
0.05627187 -0.043501709 0.44300002 4279980844
0.05784101 -0.043599907 0.44400004 4279388707
0.059416644 -0.043698102 0.44500002 4279124511
0.060998768 -0.043796301 0.44600001 4279058205
0.062587395 -0.0438945 0.44700003 4279255586
0.06418252 -0.043992698 0.44800001 4280374067
0.065784141 -0.044090897 0.44900003 4284449649
-0.0011524197 -0.037789658 0.39800003 4286355593
0.00014063744 -0.037884604 0.39900002 4282013255
0.0014401906 -0.037979554 0.40000001 4282276429
0.0066701779 -0.038169451 0.40200001 4281880391
0.009281572 -0.038169451 0.40200001 4282142785
0.038477201 -0.04149266 0.43700001 4280509498
0.039896578 -0.04149266 0.43700001 4279984436
0.04112687 -0.041302767 0.43500003 4279262761
0.042539749 -0.041302767 0.43500003 4278999589
0.04405367 -0.041397713 0.43600002 4279065382
0.045574088 -0.04149266 0.43700001 4279065382
0.046993461 -0.04149266 0.43700001 4278210073
0.048523627 -0.041587614 0.43800002 4278604577
0.049946252 -0.041587614 0.43800002 4279523885
0.051486157 -0.04168256 0.43900001 4278204945
0.053032558 -0.04177751 0.44000003 4279783465
0.054585453 -0.041872457 0.44100001 4279387937
0.05601782 -0.041872457 0.44100001 4278729492
0.057580467 -0.041967407 0.44200003 4278268943
0.059149604 -0.042062357 0.44300002 4279255586
0.060862001 -0.042252254 0.44500002 4278268691
0.06244738 -0.0423472 0.44600001 4279780906
0.064039253 -0.04244215 0.44700003 4283530596
-0.0024389809 -0.036404815 0.39700001 4282669125
-0.0011524197 -0.036496516 0.39800003 4282274884
0.00014063744 -0.036588214 0.39900002 4282406470
0.0066701779 -0.036863312 0.40200001 4282668875
0.014540439 -0.036955014 0.40300003 4281881923
0.015849384 -0.036955014 0.40300003 4279975209
0.017158329 -0.036955014 0.40300003 4280375100
0.018467274 -0.036955014 0.40300003 4280048445
0.01977622 -0.036955014 0.40300003 4282546529
0.021085162 -0.036955014 0.40300003 4286294163
0.022394108 -0.036955014 0.40300003 4286752404
0.038389154 -0.039981104 0.43600002 4279329072
0.039805282 -0.039981104 0.43600002 4279394863
0.040843233 -0.039614305 0.43200001 4278671392
0.042344164 -0.039706007 0.43300003 4278737185
0.043851592 -0.039797705 0.43400002 4278933796
0.045261223 -0.039797705 0.43400002 4278604318
0.046778392 -0.039889406 0.43500003 4278932000
0.048302058 -0.039981104 0.43600002 4278865693
0.049832217 -0.040072802 0.43700001 4278336279
0.051251594 -0.040072802 0.43700001 4279717672
0.052791502 -0.040164504 0.43800002 4278795800
0.0543379 -0.040256202 0.43900001 4279058972
0.055890799 -0.040347904 0.44000003 4279320861
0.05745019 -0.040439606 0.44100001 4279649826
0.059016086 -0.040531304 0.44200003 4279255586
0.060725234 -0.040714704 0.44400004 4279584297
0.019825291 -0.035734076 0.40400001 4279195435
0.021137482 -0.035734076 0.40400001 4279524918
0.022449676 -0.035734076 0.40400001 4279786557
0.023761868 -0.035734076 0.40400001 4282416226
0.025136126 -0.035822526 0.40500003 4285241729
0.026451567 -0.035822526 0.40500003 4286424720
0.027835568 -0.035910975 0.40600002 4286095241
0.029154256 -0.035910975 0.40600002 4284056170
0.030547999 -0.035999425 0.40700001 4281164866
0.031869937 -0.035999425 0.40700001 4280508983
0.033273429 -0.036087878 0.40800002 4279525679
0.038389154 -0.038564496 0.43600002 4278737960
0.039805282 -0.038564496 0.43600002 4278606374
0.040559601 -0.037945341 0.42900002 4278868003
0.042050786 -0.038033791 0.43000001 4278670624
0.043548469 -0.038122244 0.43100002 4278669089
0.045052644 -0.038210694 0.43200001 4279063334
0.04656332 -0.038299147 0.43300003 4278200329
0.048080489 -0.038387597 0.43400002 4278793752
0.049604155 -0.038476046 0.43500003 4279254816
0.051134314 -0.038564496 0.43600002 4278399507
0.052670971 -0.038652945 0.43700001 4279321379
0.054214124 -0.038741399 0.43800002 4278860828
0.05576377 -0.038829848 0.43900001 4278267921
0.057319921 -0.038918301 0.44000003 4280373043
0.059016086 -0.039095201 0.44200003 4279451428
0.0053644818 -0.034251034 0.40200001 4282603336
0.019825291 -0.034421436 0.40400001 4279193634
0.021137482 -0.034421436 0.40400001 4279196201
0.022449676 -0.034421436 0.40400001 4279328302
0.023820685 -0.034506641 0.40500003 4279723062
0.025136126 -0.034506641 0.40500003 4279195953
0.026451567 -0.034506641 0.40500003 4279984699
0.027835568 -0.034591842 0.40600002 4280246074
0.029226065 -0.034677044 0.40700001 4279523633
0.030547999 -0.034677044 0.40700001 4279328302
0.031948242 -0.034762245 0.40800002 4279394863
0.033354979 -0.034847446 0.40900001 4279066412
0.034853015 -0.035017848 0.41100001 4278737447
0.036980379 -0.035784662 0.42000002 4278737447
0.038435835 -0.035869867 0.42100003 4278605861
0.040275969 -0.036295872 0.42600003 4278668574
0.041855201 -0.036466278 0.42800003 4278865439
0.043346386 -0.036551479 0.42900002 4279059490
0.044844069 -0.036636677 0.43000001 4278267154
0.046455778 -0.036807083 0.43200001 4278527763
0.047969706 -0.036892284 0.43300003 4280502834
0.04949012 -0.036977485 0.43400002 4278594322
0.051017039 -0.03706269 0.43500003 4279647777
0.052550443 -0.037147891 0.43600002 4279517475
0.054090347 -0.037233088 0.43700001 4278662679
0.055636749 -0.037318293 0.43800002 4280109873
0.057319921 -0.037488695 0.44000003 4280701497
-0.0024266939 -0.032371227 0.39500001 4282669129
0.019874364 -0.033190753 0.40500003 4278730007
0.021189803 -0.033190753 0.40500003 4278733083
0.022505244 -0.033190753 0.40500003 4278670111
0.023820685 -0.033190753 0.40500003 4278670624
0.025136126 -0.033190753 0.40500003 4279723060
0.026516879 -0.033272706 0.40600002 4283078503
0.027835568 -0.033272706 0.40600002 4279986234
0.029226065 -0.033354659 0.40700001 4279723830
0.030623058 -0.033436611 0.40800002 4279197998
0.032026548 -0.033518564 0.40900001 4279066666
0.033518083 -0.033682469 0.41100001 4278672160
0.035022616 -0.033846375 0.41300002 4278803746
0.036804281 -0.034256134 0.41800001 4278538523
0.038435835 -0.034501996 0.42100003 4278205453
0.04008688 -0.03474785 0.42400002 4279126047
0.041659616 -0.034911755 0.42600003 4278199559
0.043245349 -0.035075661 0.42800003 4278789138
0.044739779 -0.035157613 0.42900002 4279315482
0.046240706 -0.035239566 0.43000001 4279250971
0.04785892 -0.035403471 0.43200001 4280371248
0.049376089 -0.035485424 0.43300003 4279120920
0.050899755 -0.035567377 0.43400002 4279187226
0.052550443 -0.035731282 0.43600002 4279583779
0.054090347 -0.035813231 0.43700001 4280110895
0.055636749 -0.035895187 0.43800002 4283265629
-0.0036908714 -0.030930424 0.39300001 4282405185
-0.0024205504 -0.031009128 0.39400002 4282470978
0.019874364 -0.031874865 0.40500003 4279254553
0.021189803 -0.031874865 0.40500003 4278862359
0.022505244 -0.031874865 0.40500003 4278404118
0.023879502 -0.03195357 0.40600002 4278602267
0.025198191 -0.03195357 0.40600002 4278604064
0.026516879 -0.03195357 0.40600002 4278934312
0.027904129 -0.03203227 0.40700001 4278211616
0.029297873 -0.032110974 0.40800002 4278540581
0.030698113 -0.032189678 0.40900001 4278606115
0.032104854 -0.032268383 0.41000003 4278211357
0.033599637 -0.032425791 0.41200003 4278342427
0.035107419 -0.032583196 0.41400003 4278867488
0.036804281 -0.032898009 0.41800001 4278536728
0.03834454 -0.033055414 0.42000002 4278797593
0.039992332 -0.033291526 0.42300001 4278595089
0.041561823 -0.033448931 0.42500001 4278789136
0.043043267 -0.033527635 0.42600003 4279841826
0.044635493 -0.033685043 0.42800003 4279908133
0.046133172 -0.033763744 0.42900002 4278198280
0.047748134 -0.033921152 0.43100002 4279713570
0.049262054 -0.033999857 0.43200001 4278924314
0.050899755 -0.034157261 0.43400002 4279846440
0.052429914 -0.034235965 0.43500003 4279386402
0.053966571 -0.03431467 0.43600002 4285239415
0.002753088 -0.030332616 0.40200001 4282406470
0.019923436 -0.030634433 0.40600002 4279516955
0.021242123 -0.030634433 0.40600002 4278992664
0.022560813 -0.030634433 0.40600002 4278797593
0.023879502 -0.030634433 0.40600002 4278666777
0.025260255 -0.030709887 0.40700001 4278668574
0.026582189 -0.030709887 0.40700001 4278734880
0.027972691 -0.030785341 0.40800002 4278341405
0.02936968 -0.030860795 0.40900001 4278474015
0.03077317 -0.03093625 0.41000003 4278737185
0.032183155 -0.031011704 0.41100001 4278802208
0.033681188 -0.031162612 0.41300002 4278669339
0.035192218 -0.03131352 0.41500002 4278800160
0.036804281 -0.031539883 0.41800001 4279521318
0.03834454 -0.031690791 0.42000002 4279783463
0.039897792 -0.031841703 0.42200002 4279514908
0.041464031 -0.031992611 0.42400002 4279118613
0.043043267 -0.032143518 0.42600003 4279512859
0.044531204 -0.032218974 0.42700002 4278920209
0.046133172 -0.032369882 0.42900002 4279976229
0.047637347 -0.032445334 0.43000001 4279846440
0.049148023 -0.03252079 0.43100002 4279716650
0.050782476 -0.032671697 0.43300003 4279386148
-0.0074437237 -0.028087812 0.38900003 4282274882
0.019972509 -0.029387502 0.40700001 4279385369
0.021294443 -0.029387502 0.40700001 4278992664
0.022616381 -0.029387502 0.40700001 4278862875
0.023938317 -0.029387502 0.40700001 4278994461
0.02532232 -0.029459707 0.40800002 4278995742
0.026647503 -0.029459707 0.40800002 4279194404
0.028041249 -0.029531913 0.40900001 4278734880
0.029441491 -0.029604118 0.41000003 4279195685
0.030848226 -0.029676324 0.41100001 4278604318
0.032339767 -0.029820735 0.41300002 4279459627
0.033762742 -0.02989294 0.41400003 4278997025
0.035277016 -0.030037349 0.41600001 4278997025
0.036804281 -0.03018176 0.41800001 4278203662
0.03834454 -0.030326169 0.42000002 4279914027
0.039897792 -0.03047058 0.42200002 4278791185
0.041366238 -0.030542785 0.42300001 4278921234
0.042942226 -0.030687196 0.42500001 4278985232
0.044426914 -0.030759402 0.42600003 4279973408
0.046025638 -0.030903812 0.42800003 4279913514
0.047526564 -0.030976016 0.42900002 4279190304
0.049148023 -0.031120427 0.43100002 4282805591
0.020021582 -0.028134074 0.40800002 4279385369
0.021346765 -0.028134074 0.40800002 4279058457
0.022671949 -0.028134074 0.40800002 4278862875
0.023997135 -0.028134074 0.40800002 4279191840
0.02532232 -0.028134074 0.40800002 4279258916
0.026712814 -0.028203029 0.40900001 4278931232
0.028109811 -0.028271988 0.41000003 4279326504
0.029513298 -0.028340943 0.41100001 4279129638
0.030923283 -0.0284099 0.41200003 4279063845
0.032418072 -0.028547812 0.41400003 4279524396
0.033844296 -0.028616767 0.41500002 4278931232
0.035361819 -0.028754679 0.41700003 4279062048
0.036892332 -0.028892592 0.41900003 4278202124
0.03834454 -0.028961547 0.42000002 4278202898
0.039803248 -0.029030504 0.42100003 4279118101
0.041366238 -0.029168414 0.42300001 4278459658
0.042841185 -0.029237373 0.42400002 4280174121
0.044426914 -0.029375285 0.42600003 4279716135
0.045918096 -0.02944424 0.42700002 4280240944
0.047415782 -0.029513197 0.42800003 4285436026
-0.008684813 -0.025494302 0.38800001 4279444250
0.01874222 -0.026874147 0.40900001 4279974428
0.020070653 -0.026874147 0.40900001 4279386139
0.021399084 -0.026874147 0.40900001 4279320859
0.022727517 -0.026874147 0.40900001 4278993945
0.02405595 -0.026874147 0.40900001 4279323678
0.025384383 -0.026874147 0.40900001 4279193375
0.026778128 -0.026939856 0.41000003 4279127841
0.028178371 -0.027005563 0.41100001 4279327017
0.029585108 -0.027071269 0.41200003 4279327017
0.03099834 -0.027136976 0.41300002 4279063845
0.032496374 -0.027268389 0.41500002 4278865953
0.033925846 -0.027334096 0.41600001 4279127841
0.035361819 -0.027399804 0.41700003 4279390500
0.036892332 -0.027531218 0.41900003 4280439858
0.03834454 -0.027596924 0.42000002 4278199049
0.039803248 -0.027662633 0.42100003 4280172584
0.041268446 -0.02772834 0.42200002 4280108842
0.042841185 -0.027859753 0.42400002 4279254303
0.044322625 -0.02792546 0.42500001 4282674769
0.01874222 -0.025545266 0.40900001 4279909916
0.020070653 -0.025545266 0.40900001 4279320859
0.021399084 -0.025545266 0.40900001 4279256349
0.022783088 -0.025607724 0.41000003 4279125531
0.024114769 -0.025607724 0.41000003 4279258398
0.025446448 -0.025607724 0.41000003 4279193888
0.02684344 -0.025670182 0.41100001 4279260451
0.028246932 -0.02573264 0.41200003 4279260711
0.029656915 -0.025795097 0.41300002 4279063586
0.031073397 -0.025857557 0.41400003 4279457830
0.032496374 -0.025920013 0.41500002 4278997279
0.0340074 -0.026044929 0.41700003 4279194658
0.035446618 -0.026107386 0.41800001 4278270736
0.036892332 -0.026169846 0.41900003 4279650342
0.03834454 -0.026232302 0.42000002 4279650855
0.039803248 -0.02629476 0.42100003 4279650855
0.041268446 -0.026357219 0.42200002 4280899126
-0.0099450368 -0.022972999 0.38800001 4279246871
-0.008684813 -0.022972999 0.38800001 4282405705
0.018788045 -0.024275592 0.41000003 4279450648
0.020119727 -0.024275592 0.41000003 4279124763
0.021451406 -0.024275592 0.41000003 4279059740
0.022783088 -0.024275592 0.41000003 4278863386
0.024173584 -0.024334799 0.41100001 4279193121
0.025508514 -0.024334799 0.41100001 4278931486
0.026908753 -0.024394009 0.41200003 4279194658
0.028315492 -0.024453219 0.41300002 4279524137
0.029728726 -0.024512429 0.41400003 4278668828
0.031148452 -0.024571637 0.41500002 4279851818
0.03257468 -0.024630845 0.41600001 4279128095
0.0340074 -0.024690054 0.41700003 4279193121
0.035446618 -0.024749262 0.41800001 4278664982
0.036892332 -0.024808472 0.41900003 4279191842
0.03834454 -0.02486768 0.42000002 4279718186
0.017456364 -0.022943461 0.41000003 4279975711
0.01883387 -0.022999419 0.41100001 4279319576
0.020168798 -0.022999419 0.41100001 4279058968
0.021503726 -0.022999419 0.41100001 4279059738
0.022838654 -0.022999419 0.41100001 4279061535
0.024173584 -0.022999419 0.41100001 4279193634
0.025570579 -0.02305538 0.41200003 4279063586
0.026974065 -0.02311134 0.41300002 4279260965
0.028315492 -0.02311134 0.41300002 4279261478
0.029728726 -0.023167299 0.41400003 4278866207
0.031148452 -0.023223259 0.41500002 4280443442
0.032652985 -0.023335177 0.41700003 4279587363
0.034088951 -0.023391137 0.41800001 4279324191
0.035446618 -0.023391137 0.41800001 4279321631
0.036892332 -0.023447098 0.41900003 4280767542
-0.0074245878 -0.020451695 0.38800001 4279117338
0.01749894 -0.021664038 0.41100001 4279779615
0.01883387 -0.021664038 0.41100001 4279320344
0.020168798 -0.021664038 0.41100001 4279058968
0.021556048 -0.021716749 0.41200003 4278993945
0.022894224 -0.021716749 0.41200003 4279192351
0.024232401 -0.021716749 0.41200003 4279390500
0.025570579 -0.021716749 0.41200003 4278931746
0.026974065 -0.021769458 0.41300002 4279392297
0.028384054 -0.021822169 0.41400003 4279524396
0.029800532 -0.02187488 0.41500002 4279260965
0.031223508 -0.02192759 0.41600001 4280377649
0.032652985 -0.021980301 0.41700003 4279456547
0.034088951 -0.022033012 0.41800001 4280111147
0.036892332 -0.022085723 0.41900003 4286357646
-0.0074437237 -0.019240506 0.38900003 4279050775
0.01749894 -0.020328658 0.41100001 4279582750
0.01883387 -0.020328658 0.41100001 4279255068
0.020217871 -0.020378118 0.41200003 4278993177
0.021556048 -0.020378118 0.41200003 4279125533
0.022894224 -0.020378118 0.41200003 4279389732
0.024232401 -0.020378118 0.41200003 4279456295
0.025632642 -0.020427579 0.41300002 4279523883
0.026974065 -0.020427579 0.41300002 4279458603
0.028384054 -0.020477042 0.41400003 4278735650
0.029728726 -0.020477042 0.41400003 4279852336
0.031223508 -0.020575963 0.41600001 4280574258
0.032652985 -0.020625426 0.41700003 4280441391
0.034088951 -0.020674886 0.41800001 4284910452
0.035446618 -0.020674886 0.41800001 4286028681
0.01749894 -0.018993275 0.41100001 4279319578
0.018879695 -0.019039489 0.41200003 4279320861
0.020217871 -0.019039489 0.41200003 4279190043
0.021556048 -0.019039489 0.41200003 4279519521
0.022894224 -0.019039489 0.41200003 4279456295
0.024232401 -0.019039489 0.41200003 4279391015
0.025632642 -0.019085702 0.41300002 4279588392
0.026974065 -0.019085702 0.41300002 4279260711
0.028384054 -0.019131914 0.41400003 4279523885
0.029728726 -0.019131914 0.41400003 4280312119
0.01616401 -0.017657895 0.41100001 4285962370
0.01749894 -0.017657895 0.41100001 4280567596
0.020217871 -0.01770086 0.41200003 4279320861
0.021556048 -0.01770086 0.41200003 4279321629
0.022894224 -0.01770086 0.41200003 4279587111
0.024232401 -0.01770086 0.41200003 4279588394
0.025632642 -0.017743822 0.41300002 4279654955
0.026974065 -0.017743822 0.41300002 4279918127
0.028315492 -0.017743822 0.41300002 4280769336
0.022894224 -0.016362229 0.41200003 4280307250
0.024232401 -0.016362229 0.41200003 4280044848
0.025570579 -0.016362229 0.41200003 4281096505
0.026974065 -0.016401943 0.41300002 4284845424
0.037433904 -0.035501085 0.42444581 4294967295
0.037433904 -0.035501085 0.42444581 4294901760
0.037109204 -0.035844333 0.42460936 4294901760
0.036784504 -0.036187582 0.42477292 4294901760
0.036459804 -0.03653083 0.42493647 4294901760
0.0361351 -0.036874078 0.42510003 4294901760
0.0358104 -0.037217326 0.42526358 4294901760
0.0354857 -0.037560575 0.42542714 4294901760
0.035161 -0.037903823 0.42559069 4294901760
0.0348363 -0.038247071 0.42575425 4294901760
0.0345116 -0.038590319 0.4259178 4294901760
0.0341869 -0.038933564 0.42608136 4294901760
0.033862196 -0.039276812 0.42624491 4294901760
0.033537496 -0.03962006 0.42640847 4294901760
0.033212796 -0.039963309 0.42657202 4294901760
0.032888096 -0.040306557 0.42673558 4294901760
0.032563396 -0.040649805 0.42689914 4294901760
0.032238696 -0.040993053 0.42706269 4294901760
0.031913996 -0.041336302 0.42722625 4294901760
0.031589292 -0.04167955 0.4273898 4294901760
0.031264592 -0.042022798 0.42755336 4294901760
0.030939892 -0.042366046 0.42771691 4294901760
0.030615192 -0.042709295 0.42788047 4294901760
0.030290492 -0.043052543 0.42804402 4294901760
0.029965792 -0.043395791 0.42820758 4294901760
0.02964109 -0.043739036 0.42837113 4294901760
0.02931639 -0.044082284 0.42853469 4294901760
0.02899169 -0.044425532 0.42869824 4294901760
0.028666988 -0.04476878 0.4288618 4294901760
0.028342288 -0.045112029 0.42902535 4294901760
0.028017588 -0.045455277 0.42918891 4294901760
0.027692888 -0.045798525 0.42935246 4294901760
0.027368188 -0.046141773 0.42951602 4294901760
0.027043486 -0.046485022 0.42967957 4294901760
0.026718784 -0.04682827 0.42984313 4294901760
0.026394084 -0.047171518 0.43000668 4294901760
0.026069384 -0.047514766 0.43017024 4294901760
0.025744684 -0.047858015 0.43033379 4294901760
0.025419984 -0.048201263 0.43049735 4294901760
0.025095284 -0.048544511 0.4306609 4294901760
0.024770584 -0.048887759 0.43082446 4294901760
0.02444588 -0.049231008 0.43098801 4294901760
0.02412118 -0.049574256 0.43115157 4294901760
0.02379648 -0.0499175 0.43131512 4294901760
0.02347178 -0.050260752 0.43147868 4294901760
0.02314708 -0.050603997 0.43164223 4294901760
0.02282238 -0.050947245 0.43180579 4294901760
0.022497678 -0.051290497 0.43196934 4294901760
0.022172978 -0.051633742 0.4321329 4294901760
0.021848276 -0.05197699 0.43229645 4294901760
0.021523576 -0.052320238 0.43246001 4294901760
0.021198876 -0.052663486 0.43262357 4294901760
0.020874176 -0.053006735 0.43278712 4294901760
0.020549476 -0.053349979 0.43295068 4294901760
0.020224776 -0.053693227 0.43311423 4294901760
0.019900074 -0.054036479 0.43327782 4294901760
0.019575372 -0.054379728 0.43344137 4294901760
0.019250672 -0.054722972 0.43360493 4294901760
0.018925972 -0.05506622 0.43376848 4294901760
0.018601272 -0.055409469 0.43393204 4294901760
0.018276572 -0.055752717 0.43409559 4294901760
0.01795187 -0.056095965 0.43425915 4294901760
0.01762717 -0.056439213 0.4344227 4294901760
0.01730247 -0.056782462 0.43458626 4294901760
0.016977768 -0.05712571 0.43474981 4294901760
0.016653068 -0.057468958 0.43491337 4294901760
0.016328368 -0.057812206 0.43507692 4294901760
0.016003666 -0.058155455 0.43524048 4294901760
0.015678966 -0.058498703 0.43540403 4294901760
0.015354266 -0.058841951 0.43556759 4294901760
0.015029566 -0.059185199 0.43573114 4294901760
0.014704866 -0.059528448 0.4358947 4294901760
0.014380164 -0.059871696 0.43605825 4294901760
0.014055463 -0.060214944 0.43622181 4294901760
0.013730763 -0.060558192 0.43638536 4294901760
0.013406062 -0.060901441 0.43654892 4294901760
0.013081362 -0.061244689 0.43671247 4294901760
0.012756662 -0.061587937 0.43687603 4294901760
0.012431962 -0.061931182 0.43703958 4294901760
0.012107262 -0.06227443 0.43720314 4294901760
0.01178256 -0.062617682 0.43736669 4294901760
0.011457859 -0.06296093 0.43753025 4294901760
0.011133159 -0.063304171 0.4376938 4294901760
0.010808459 -0.063647419 0.43785736 4294901760
0.010483759 -0.063990667 0.43802091 4294901760
0.010159058 -0.064333916 0.43818447 4294901760
0.0098343566 -0.064677164 0.43834803 4294901760
0.0095096566 -0.065020412 0.43851158 4294901760
0.0091849566 -0.06536366 0.43867514 4294901760
0.0088602547 -0.065706909 0.43883869 4294901760
0.0085355546 -0.066050157 0.43900225 4294901760
0.0082108546 -0.066393405 0.4391658 4294901760
0.0078861527 -0.066736653 0.43932936 4294901760
0.0075614527 -0.067079902 0.43949291 4294901760
0.0072367527 -0.06742315 0.43965647 4294901760
0.0069120526 -0.067766398 0.43982002 4294901760
0.0065873526 -0.068109646 0.43998358 4294901760
0.0062626507 -0.068452895 0.44014713 4294901760
0.0059379488 -0.068796143 0.44031069 4294901760
0.0056132488 -0.069139391 0.44047424 4294901760
0.0052885488 -0.069482639 0.4406378 4294901760
0.0049638487 -0.069825888 0.44080135 4294901760
0.037433904 -0.035501085 0.42444581 4278255360
0.037766378 -0.035653047 0.42478693 4278255360
0.038098853 -0.035805013 0.42512807 4278255360
0.038431328 -0.035956975 0.42546919 4278255360
0.038763799 -0.036108941 0.42581031 4278255360
0.039096273 -0.036260903 0.42615145 4278255360
0.039428748 -0.036412869 0.42649257 4278255360
0.039761223 -0.036564831 0.42683369 4278255360
0.040093698 -0.036716796 0.42717484 4278255360
0.040426172 -0.036868758 0.42751595 4278255360
0.040758647 -0.037020724 0.42785707 4278255360
0.041091118 -0.037172686 0.42819822 4278255360
0.041423593 -0.037324652 0.42853934 4278255360
0.041756067 -0.037476614 0.42888045 4278255360
0.042088542 -0.03762858 0.4292216 4278255360
0.042421017 -0.037780542 0.42956272 4278255360
0.042753492 -0.037932508 0.42990384 4278255360
0.043085963 -0.03808447 0.43024498 4278255360
0.043418437 -0.038236436 0.4305861 4278255360
0.043750912 -0.038388398 0.43092722 4278255360
0.044083387 -0.038540363 0.43126836 4278255360
0.044415861 -0.038692325 0.43160948 4278255360
0.044748336 -0.038844291 0.4319506 4278255360
0.045080811 -0.038996253 0.43229175 4278255360
0.045413282 -0.039148219 0.43263286 4278255360
0.045745756 -0.039300181 0.43297398 4278255360
0.046078231 -0.039452143 0.43331513 4278255360
0.046410706 -0.039604109 0.43365625 4278255360
0.046743181 -0.039756075 0.43399739 4278255360
0.047075652 -0.039908037 0.43433851 4278255360
0.047408126 -0.040059999 0.43467963 4278255360
0.047740601 -0.040211964 0.43502077 4278255360
0.048073076 -0.040363926 0.43536189 4278255360
0.04840555 -0.040515892 0.43570301 4278255360
0.048738025 -0.040667854 0.43604416 4278255360
0.0490705 -0.04081982 0.43638527 4278255360
0.049402975 -0.040971782 0.43672639 4278255360
0.049735449 -0.041123748 0.43706754 4278255360
0.05006792 -0.04127571 0.43740866 4278255360
0.050400395 -0.041427676 0.43774977 4278255360
0.05073287 -0.041579638 0.43809092 4278255360
0.051065344 -0.041731603 0.43843204 4278255360
0.051397815 -0.041883565 0.43877316 4278255360
0.05173029 -0.042035531 0.4391143 4278255360
0.052062765 -0.042187493 0.43945542 4278255360
0.052395239 -0.042339459 0.43979654 4278255360
0.052727714 -0.042491421 0.44013768 4278255360
0.053060189 -0.042643383 0.4404788 4278255360
0.053392664 -0.042795349 0.44081992 4278255360
0.053725138 -0.042947315 0.44116107 4278255360
0.054057613 -0.043099277 0.44150218 4278255360
0.054390088 -0.043251239 0.4418433 4278255360
0.054722559 -0.043403205 0.44218445 4278255360
0.055055033 -0.043555167 0.44252557 4278255360
0.055387508 -0.043707132 0.44286668 4278255360
0.055719983 -0.043859094 0.44320783 4278255360
0.056052454 -0.04401106 0.44354895 4278255360
0.056384929 -0.044163022 0.44389006 4278255360
0.056717403 -0.044314988 0.44423121 4278255360
0.057049878 -0.04446695 0.44457233 4278255360
0.057382353 -0.044618916 0.44491345 4278255360
0.057714827 -0.044770878 0.44525459 4278255360
0.058047302 -0.044922844 0.44559571 4278255360
0.058379777 -0.045074806 0.44593683 4278255360
0.058712251 -0.045226771 0.44627798 4278255360
0.059044722 -0.045378733 0.44661909 4278255360
0.059377201 -0.045530699 0.44696021 4278255360
0.059709672 -0.045682661 0.44730136 4278255360
0.060042147 -0.045834627 0.44764248 4278255360
0.060374618 -0.045986589 0.44798359 4278255360
0.060707092 -0.046138555 0.44832474 4278255360
0.061039567 -0.046290517 0.44866586 4278255360
0.061372042 -0.046442483 0.44900697 4278255360
0.061704516 -0.046594445 0.44934812 4278255360
0.062036991 -0.04674641 0.44968924 4278255360
0.062369466 -0.046898372 0.45003039 4278255360
0.062701941 -0.047050335 0.4503715 4278255360
0.063034415 -0.0472023 0.45071262 4278255360
0.06336689 -0.047354262 0.45105374 4278255360
0.063699365 -0.047506228 0.45139489 4278255360
0.064031839 -0.04765819 0.451736 4278255360
0.064364314 -0.047810156 0.45207715 4278255360
0.064696781 -0.047962118 0.45241827 4278255360
0.065029256 -0.048114084 0.45275939 4278255360
0.065361731 -0.048266046 0.4531005 4278255360
0.065694205 -0.048418012 0.45344165 4278255360
0.06602668 -0.048569974 0.45378277 4278255360
0.066359155 -0.048721939 0.45412391 4278255360
0.06669163 -0.048873901 0.45446503 4278255360
0.067024104 -0.049025867 0.45480615 4278255360
0.067356579 -0.049177829 0.4551473 4278255360
0.067689054 -0.049329795 0.45548841 4278255360
0.068021528 -0.049481757 0.45582953 4278255360
0.068353996 -0.049633723 0.45617068 4278255360
0.06868647 -0.049785685 0.4565118 4278255360
0.069018945 -0.049937651 0.45685291 4278255360
0.06935142 -0.050089613 0.45719406 4278255360
0.069683895 -0.050241578 0.45753518 4278255360
0.070016369 -0.05039354 0.45787629 4278255360
0.070348844 -0.050545506 0.45821744 4278255360
0.070681319 -0.050697468 0.45855856 4278255360
0.037433904 -0.035501085 0.42444581 4278190335
0.037296299 -0.035194505 0.42481604 4278190335
0.037158698 -0.034887921 0.42518628 4278190335
0.037021093 -0.034581341 0.42555651 4278190335
0.036883492 -0.034274761 0.42592674 4278190335
0.036745887 -0.033968177 0.42629698 4278190335
0.036608286 -0.033661596 0.42666721 4278190335
0.036470681 -0.033355013 0.42703745 4278190335
0.03633308 -0.033048432 0.42740768 4278190335
0.036195476 -0.032741852 0.42777792 4278190335
0.036057875 -0.032435268 0.42814815 4278190335
0.03592027 -0.032128688 0.42851838 4278190335
0.035782669 -0.031822108 0.42888862 4278190335
0.035645064 -0.031515524 0.42925885 4278190335
0.035507463 -0.031208944 0.42962909 4278190335
0.035369858 -0.030902361 0.42999932 4278190335
0.035232257 -0.030595779 0.43036956 4278190335
0.035094652 -0.030289199 0.43073979 4278190335
0.034957051 -0.029982615 0.43111002 4278190335
0.034819447 -0.029676035 0.43148026 4278190335
0.034681845 -0.029369453 0.43185049 4278190335
0.034544241 -0.029062871 0.43222073 4278190335
0.03440664 -0.028756291 0.43259096 4278190335
0.034269035 -0.028449709 0.4329612 4278190335
0.034131434 -0.028143127 0.43333143 4278190335
0.033993829 -0.027836546 0.43370166 4278190335
0.033856228 -0.027529964 0.4340719 4278190335
0.033718623 -0.027223382 0.43444213 4278190335
0.033581022 -0.026916802 0.43481237 4278190335
0.033443417 -0.026610218 0.4351826 4278190335
0.033305816 -0.026303638 0.43555284 4278190335
0.033168212 -0.025997056 0.43592307 4278190335
0.033030611 -0.025690474 0.4362933 4278190335
0.032893006 -0.025383893 0.43666354 4278190335
0.032755405 -0.025077311 0.43703377 4278190335
0.0326178 -0.024770729 0.43740401 4278190335
0.032480199 -0.024464147 0.43777424 4278190335
0.032342594 -0.024157565 0.43814448 4278190335
0.032204993 -0.023850985 0.43851471 4278190335
0.032067388 -0.023544405 0.43888494 4278190335
0.031929787 -0.023237821 0.43925518 4278190335
0.031792182 -0.02293124 0.43962541 4278190335
0.031654581 -0.022624658 0.43999565 4278190335
0.031516977 -0.022318076 0.44036588 4278190335
0.031379376 -0.022011496 0.44073611 4278190335
0.031241771 -0.021704914 0.44110635 4278190335
0.031104168 -0.021398332 0.44147658 4278190335
0.030966565 -0.02109175 0.44184679 4278190335
0.030828962 -0.020785168 0.44221705 4278190335
0.030691359 -0.020478588 0.44258726 4278190335
0.030553756 -0.020172006 0.44295752 4278190335
0.030416153 -0.019865423 0.44332772 4278190335
0.03027855 -0.019558843 0.44369796 4278190335
0.030140948 -0.019252261 0.44406819 4278190335
0.030003345 -0.018945679 0.44443846 4278190335
0.029865742 -0.018639097 0.44480866 4278190335
0.029728139 -0.018332517 0.4451789 4278190335
0.029590536 -0.018025935 0.44554913 4278190335
0.029452933 -0.017719353 0.44591936 4278190335
0.02931533 -0.017412772 0.4462896 4278190335
0.029177725 -0.017106188 0.44665983 4278190335
0.029040124 -0.016799608 0.44703007 4278190335
0.028902519 -0.016493026 0.4474003 4278190335
0.028764918 -0.016186444 0.44777054 4278190335
0.028627316 -0.015879864 0.44814077 4278190335
0.028489713 -0.015573282 0.448511 4278190335
0.028352108 -0.0152667 0.44888124 4278190335
0.028214507 -0.014960118 0.44925147 4278190335
0.028076902 -0.014653537 0.44962171 4278190335
0.027939301 -0.014346955 0.44999194 4278190335
0.027801696 -0.014040373 0.45036218 4278190335
0.027664095 -0.013733793 0.45073241 4278190335
0.02752649 -0.013427209 0.45110264 4278190335
0.027388889 -0.013120629 0.45147288 4278190335
0.027251285 -0.012814047 0.45184311 4278190335
0.027113684 -0.012507465 0.45221335 4278190335
0.026976079 -0.012200885 0.45258358 4278190335
0.026838478 -0.011894302 0.45295382 4278190335
0.026700873 -0.011587722 0.45332405 4278190335
0.026563272 -0.011281138 0.45369428 4278190335
0.026425667 -0.010974558 0.45406452 4278190335
0.026288066 -0.010667976 0.45443475 4278190335
0.026150461 -0.010361394 0.45480499 4278190335
0.02601286 -0.010054814 0.45517522 4278190335
0.025875255 -0.0097482316 0.45554546 4278190335
0.025737653 -0.0094416495 0.45591569 4278190335
0.02560005 -0.0091350675 0.45628592 4278190335
0.025462447 -0.0088284872 0.45665616 4278190335
0.025324844 -0.0085219052 0.45702639 4278190335
0.025187243 -0.0082153231 0.45739663 4278190335
0.025049638 -0.0079087429 0.45776686 4278190335
0.024912035 -0.0076021589 0.45813709 4278190335
0.024774432 -0.0072955787 0.45850733 4278190335
0.024636829 -0.0069889966 0.45887756 4278190335
0.024499226 -0.0066824146 0.4592478 4278190335
0.024361623 -0.0063758343 0.45961803 4278190335
0.024224021 -0.0060692523 0.45998827 4278190335
0.024086418 -0.0057626702 0.4603585 4278190335
0.023948815 -0.0054560881 0.46072873 4278190335
0.023811212 -0.0051495079 0.46109897 4278190335
0.023673609 -0.0048429258 0.4614692 4278190335
0.037433904 -0.035501085 0.42444581 4294967295
0.038259521 -0.037340574 0.4222244 4294967295
0.039085139 -0.039180063 0.420003 4294967295
0.039910756 -0.041019555 0.41778159 4294967295
0.040736374 -0.042859044 0.41556019 4294967295
0.041561991 -0.044698533 0.41333878 4294967295
0.042387612 -0.046538021 0.41111737 4294967295
0.04321323 -0.048377514 0.40889597 4294967295
0.044038847 -0.050217003 0.40667456 4294967295
0.044864465 -0.052056491 0.40445316 4294967295
0.045690082 -0.05389598 0.40223175 4294967295
0.046515699 -0.055735469 0.40001038 4294967295
0.047341317 -0.057574958 0.39778897 4294967295
0.048166934 -0.05941445 0.39556757 4294967295
0.048992552 -0.061253943 0.39334616 4294967295
0.049818169 -0.063093431 0.39112476 4294967295
0.050643787 -0.06493292 0.38890335 4294967295
0.051469408 -0.066772409 0.38668194 4294967295
0.052295022 -0.068611905 0.38446054 4294967295
0.053120643 -0.070451386 0.38223913 4294967295
0.053946257 -0.072290882 0.38001773 4294967295
0.054771878 -0.074130371 0.37779632 4294967295
0.055597492 -0.07596986 0.37557492 4294967295
0.056423113 -0.077809349 0.37335351 4294967295
0.05724873 -0.079648837 0.37113211 4294967295
0.058074348 -0.081488326 0.3689107 4294967295
0.058899965 -0.083327815 0.36668929 4294967295
0.059725583 -0.085167304 0.36446789 4294967295
0.060551204 -0.087006792 0.36224648 4294967295
0.061376818 -0.088846281 0.36002511 4294967295
0.062202439 -0.090685777 0.3578037 4294967295
0.063028052 -0.092525266 0.3555823 4294967295
0.063853674 -0.094364747 0.35336089 4294967295
0.064679295 -0.096204251 0.35113949 4294967295
0.065504909 -0.098043732 0.34891808 4294967295
0.066330522 -0.099883221 0.34669667 4294967295
0.067156143 -0.10172272 0.34447527 4294967295
0.067981765 -0.10356221 0.34225386 4294967295
0.068807378 -0.10540169 0.34003246 4294967295
0.069632992 -0.10724118 0.33781105 4294967295
0.070458613 -0.10908067 0.33558965 4294967295
0.071284235 -0.11092016 0.33336824 4294967295
0.072109848 -0.11275965 0.33114684 4294967295
0.072935469 -0.11459914 0.32892543 4294967295
0.073761083 -0.11643863 0.32670403 4294967295
0.074586704 -0.11827812 0.32448262 4294967295
0.075412318 -0.12011761 0.32226121 4294967295
0.076237939 -0.1219571 0.32003981 4294967295
0.07706356 -0.12379658 0.3178184 4294967295
0.077889174 -0.12563607 0.315597 4294967295
0.078714788 -0.12747556 0.31337559 4294967295
0.079540409 -0.12931505 0.31115419 4294967295
0.08036603 -0.13115454 0.30893281 4294967295
0.081191644 -0.13299403 0.30671141 4294967295
0.082017265 -0.13483353 0.30448997 4294967295
0.082842886 -0.13667302 0.30226859 4294967295
0.0836685 -0.13851251 0.30004719 4294967295
0.084494114 -0.140352 0.29782578 4294967295
0.085319728 -0.14219148 0.29560438 4294967295
0.086145349 -0.14403096 0.29338297 4294967295
0.08697097 -0.14587048 0.29116157 4294967295
0.087796584 -0.14770997 0.28894016 4294967295
0.088622205 -0.14954945 0.28671876 4294967295
0.089447826 -0.15138893 0.28449735 4294967295
0.09027344 -0.15322842 0.28227597 4294967295
0.091099054 -0.15506791 0.28005457 4294967295
0.091924682 -0.15690741 0.27783313 4294967295
0.092750296 -0.1587469 0.27561173 4294967295
0.09357591 -0.16058639 0.27339035 4294967295
0.094401523 -0.16242588 0.27116895 4294967295
0.095227145 -0.16426536 0.26894754 4294967295
0.096052766 -0.16610485 0.26672614 4294967295
0.09687838 -0.16794434 0.26450473 4294967295
0.097704001 -0.16978383 0.26228333 4294967295
0.098529622 -0.17162332 0.26006192 4294967295
0.099355236 -0.17346281 0.25784051 4294967295
0.10018085 -0.1753023 0.25561911 4294967295
0.10100646 -0.17714179 0.2533977 4294967295
0.10183209 -0.17898127 0.2511763 4294967295
0.10265771 -0.18082076 0.24895489 4294967295
0.10348332 -0.18266025 0.24673349 4294967295
0.10430895 -0.18449974 0.24451208 4294967295
0.10513456 -0.18633923 0.24229068 4294967295
0.10596018 -0.18817872 0.24006929 4294967295
0.10678579 -0.19001821 0.23784788 4294967295
0.10761142 -0.1918577 0.23562646 4294967295
0.10843703 -0.19369718 0.23340505 4294967295
0.10926265 -0.19553667 0.23118366 4294967295
0.11008826 -0.19737616 0.22896226 4294967295
0.11091389 -0.19921565 0.22674085 4294967295
0.1117395 -0.20105514 0.22451945 4294967295
0.11256512 -0.20289466 0.22229804 4294967295
0.11339074 -0.20473415 0.22007664 4294967295
0.11421636 -0.20657364 0.21785523 4294967295
0.11504197 -0.20841312 0.21563382 4294967295
0.11586758 -0.21025261 0.21341243 4294967295
0.11669321 -0.21209207 0.21119103 4294967295
0.11751883 -0.21393159 0.20896961 4294967295
0.11834444 -0.21577108 0.20674822 4294967295
0.11917007 -0.21761057 0.20452681 4294967295
0.11999568 -0.21945006 0.20230541 4294967295
