# .PCD v0.7 - Point Cloud Data file format
VERSION 0.7
FIELDS x y z rgb
SIZE 4 4 4 4
TYPE F F F U
COUNT 1 1 1 1
WIDTH 1018
HEIGHT 1
VIEWPOINT 0 0 0 1 0 0 0
POINTS 1018
DATA ascii
-0.010497879 0.010326815 0.46900001 4286591270
-0.008993702 0.010348834 0.47000003 4286524453
-0.0074671404 0.010348834 0.47000003 4291463048
-0.0059405803 0.010348834 0.47000003 4286921268
-0.031077849 0.011572697 0.45800003 4285688414
-0.029590266 0.011572697 0.45800003 4285612859
-0.028102677 0.011572697 0.45800003 4286592303
-0.026673203 0.011597965 0.45900002 4286525995
-0.025182372 0.011597965 0.45900002 4287380014
-0.023743154 0.011623232 0.46000001 4287511854
-0.022297442 0.0116485 0.46100003 4287710773
-0.020845231 0.011673768 0.46200001 4286790702
-0.019428398 0.011724303 0.46400002 4288715144
-0.01795995 0.011749572 0.46500003 4287799949
-0.016485004 0.01177484 0.46600002 4287011463
-0.015003562 0.011800108 0.46700001 4287537807
-0.013515625 0.011825375 0.46800002 4287603600
-0.012021191 0.011850643 0.46900001 4286085738
-0.010497879 0.011850643 0.46900001 4285804582
-0.008993702 0.011875912 0.47000003 4286329899
-0.0074671404 0.011875912 0.47000003 4286657581
-0.0059532197 0.011901179 0.47100002 4287118384
-0.031077849 0.013060786 0.45800003 4285218103
-0.029590266 0.013060786 0.45800003 4286002992
-0.028102677 0.013060786 0.45800003 4286458914
-0.026615093 0.013060786 0.45800003 4286656034
-0.02512751 0.013060786 0.45800003 4287181862
-0.023691539 0.013089303 0.45900002 4286721309
-0.022249073 0.013117819 0.46000001 4287445032
-0.020800112 0.013146337 0.46100003 4287181610
-0.019386528 0.013203371 0.46300003 4288645755
-0.01795995 0.013260406 0.46500003 4287470982
-0.016485004 0.013288922 0.46600002 4286881160
-0.015003562 0.013317439 0.46700001 4286881160
-0.013515625 0.013345956 0.46800002 4287866002
-0.012021191 0.013374473 0.46900001 4289109650
-0.010520263 0.01340299 0.47000003 4286530873
-0.008993702 0.01340299 0.47000003 4285803812
-0.0074830279 0.013431507 0.47100002 4285869346
-0.0059532197 0.013431507 0.47100002 4286460967
-0.032494329 0.014517109 0.45700002 4283588430
-0.031009993 0.014517109 0.45700002 4285545010
-0.029525656 0.014517109 0.45700002 4285212963
-0.028041318 0.014517109 0.45700002 4286196258
-0.02655698 0.014517109 0.45700002 4286393119
-0.02512751 0.014548875 0.45800003 4286853665
-0.023639925 0.014548875 0.45800003 4286853665
-0.022200705 0.014580641 0.45900002 4288368962
-0.020800112 0.014644174 0.46100003 4287379762
-0.019386528 0.014707706 0.46300003 4286068272
-0.017921325 0.014739471 0.46400002 4289828744
-0.016485004 0.014803004 0.46600002 4286210644
-0.01503569 0.014866536 0.46800002 4285415734
-0.013544505 0.014898302 0.46900001 4286726717
-0.012046823 0.014930069 0.47000003 4286791225
-0.010520263 0.014930069 0.47000003 4286856498
-0.009012837 0.014961834 0.47100002 4286922291
-0.0074989158 0.014993601 0.47200003 4285805352
-0.0059658596 0.014993601 0.47200003 4285674279
-0.004442194 0.015025367 0.47300002 4284433718
-0.032494329 0.016001949 0.45700002 4282072368
-0.031009993 0.016001949 0.45700002 4285216556
-0.029525656 0.016001949 0.45700002 4285346599
-0.028041318 0.016001949 0.45700002 4285474845
-0.02655698 0.016001949 0.45700002 4285803035
-0.025072645 0.016001949 0.45700002 4286394143
-0.023639925 0.016036965 0.45800003 4286590750
-0.022200705 0.016071979 0.45900002 4286919460
-0.020800112 0.016142009 0.46100003 4287248682
-0.019344656 0.016177025 0.46200001 4287380014
-0.01795995 0.01628207 0.46500003 4287183407
-0.016485004 0.016317084 0.46600002 4287250481
-0.01503569 0.016387116 0.46800002 4287119665
-0.013544505 0.01642213 0.46900001 4285082144
-0.012046823 0.016457146 0.47000003 4286333240
-0.010542646 0.016492162 0.47100002 4285809463
-0.0090319728 0.016527178 0.47200003 4284294425
-0.0075148032 0.016562192 0.47300002 4285149732
-0.0059784986 0.016562192 0.47300002 4284754974
-0.0044515859 0.016597208 0.47400004 4284167979
-0.032494329 0.017486788 0.45700002 4282858799
-0.030942136 0.017448524 0.45600003 4284690466
-0.02946105 0.017448524 0.45600003 4285083941
-0.027979959 0.017448524 0.45600003 4284885533
-0.02655698 0.017486788 0.45700002 4285081627
-0.025072645 0.017486788 0.45700002 4285737244
-0.023639925 0.017525053 0.45800003 4286130717
-0.022200705 0.017563317 0.45900002 4286327321
-0.020800112 0.017639846 0.46100003 4287116835
-0.019386528 0.017716374 0.46300003 4287050274
-0.01795995 0.017792903 0.46500003 4286393373
-0.016520379 0.01786943 0.46700001 4285409822
-0.015067817 0.017945958 0.46900001 4284951328
-0.013573385 0.017984224 0.47000003 4284033565
-0.012072454 0.018022489 0.47100002 4283770393
-0.01056503 0.018060753 0.47200003 4285023281
-0.0090511087 0.018099017 0.47300002 4284825902
-0.0075148032 0.018099017 0.47300002 4283769364
-0.0059911385 0.018137282 0.47400004 4284689951
-0.0044609774 0.018175546 0.47500002 4286004527
-0.0029181761 0.018175546 0.47500002 4288971382
-0.032423224 0.018930115 0.45600003 4283906858
-0.030942136 0.018930115 0.45600003 4285346597
-0.02946105 0.018930115 0.45600003 4284491288
-0.027979959 0.018930115 0.45600003 4284490777
-0.02655698 0.018971628 0.45700002 4284424984
-0.025072645 0.018971628 0.45700002 4284818455
-0.023639925 0.01901314 0.45800003 4285476639
-0.022200705 0.019054655 0.45900002 4285671449
-0.020800112 0.019137681 0.46100003 4286000155
-0.019386528 0.019220708 0.46300003 4285868315
-0.01795995 0.019303735 0.46500003 4286331178
-0.016520379 0.019386761 0.46700001 4284228378
-0.015067817 0.019469788 0.46900001 4284031769
-0.013602264 0.019552814 0.47100002 4283769110
-0.012098087 0.019594328 0.47200003 4283637524
-0.010587414 0.019635841 0.47300002 4282918428
-0.0090702446 0.019677356 0.47400004 4283447340
-0.0075306911 0.019677356 0.47400004 4283310874
-0.006003778 0.019718869 0.47500002 4283770393
-0.0044609774 0.019718869 0.47500002 4285148703
-0.0029243196 0.019760381 0.47600001 4285082914
-0.030942136 0.020411704 0.45600003 4285017119
-0.02946105 0.020411704 0.45600003 4285609256
-0.027979959 0.020411704 0.45600003 4284162585
-0.02655698 0.020456467 0.45700002 4284030999
-0.025072645 0.020456467 0.45700002 4284162839
-0.023639925 0.02050123 0.45800003 4284754462
-0.022249073 0.020590754 0.46000001 4285476900
-0.020845231 0.020680279 0.46200001 4285476387
-0.019428398 0.020769805 0.46400002 4287719259
-0.017998572 0.020859329 0.46600002 4284231460
-0.016555754 0.020948855 0.46800002 4284098329
-0.015099945 0.02103838 0.47000003 4284558367
-0.013602264 0.021083141 0.47100002 4284622876
-0.012123718 0.021172667 0.47300002 4283900437
-0.010609797 0.02121743 0.47400004 4288588698
-0.0090702446 0.02121743 0.47400004 4288131229
-0.0075465781 0.021262191 0.47500002 4282788643
-0.0060164174 0.021306954 0.47600001 4283508255
-0.0044703684 0.021306954 0.47600001 4283703571
-0.0029304633 0.021351717 0.47700003 4285741871
-0.0013811664 0.021351717 0.47700003 4286139973
-0.02946105 0.021893296 0.45600003 4284687123
-0.028041318 0.021941308 0.45700002 4284760109
-0.02655698 0.021941308 0.45700002 4283312922
-0.02512751 0.021989319 0.45800003 4283376149
-0.023691539 0.022037331 0.45900002 4283703317
-0.022297442 0.022133354 0.46100003 4285214759
-0.020845231 0.022181366 0.46200001 4285610803
-0.019428398 0.022277389 0.46400002 4284232491
-0.018037196 0.022421423 0.46700001 4283969319
-0.01659113 0.022517446 0.46900001 4283706145
-0.015099945 0.02256546 0.47000003 4283640093
-0.013631144 0.022661483 0.47200003 4284624421
-0.012123718 0.022709493 0.47300002 4285022007
-0.010609797 0.022757506 0.47400004 4287210640
-0.0090893796 0.022805518 0.47500002 4287408535
-0.0075624655 0.022853527 0.47600001 4287468166
-0.0060164174 0.022853527 0.47600001 4282655774
-0.0044797603 0.022901541 0.47700003 4283704089
-0.0029304633 0.022901541 0.47700003 4285150504
-0.0013840619 0.022949552 0.47800002 4285738789
0.00016883542 0.022997564 0.47900003 4286461490
-0.033978667 0.023426147 0.45700002 4284234278
-0.032423224 0.023374887 0.45600003 4285085222
-0.030942136 0.023374887 0.45600003 4286331176
-0.02946105 0.023374887 0.45600003 4284358671
-0.028041318 0.023426147 0.45700002 4282197262
-0.02655698 0.023426147 0.45700002 4282000142
-0.02512751 0.023477409 0.45800003 4283576608
-0.023743154 0.023579929 0.46000001 4283968286
-0.022297442 0.023631191 0.46100003 4286136375
-0.020890351 0.023733713 0.46300003 4285678390
-0.019470271 0.023836233 0.46500003 4284498228
-0.018037196 0.023938753 0.46700001 4281408789
-0.01659113 0.024041275 0.46900001 4279964171
-0.015132072 0.024143796 0.47100002 4283386688
-0.013631144 0.024195058 0.47200003 4280096268
-0.01214935 0.02429758 0.47400004 4285756521
-0.010632181 0.02434884 0.47500002 4287342224
-0.0090893796 0.02434884 0.47500002 4287145359
-0.0075624655 0.0244001 0.47600001 4288787876
-0.0060290569 0.024451362 0.47700003 4281477148
-0.0044797603 0.024451362 0.47700003 4283375897
-0.0029366068 0.024502622 0.47800002 4284163870
-0.0013840619 0.024502622 0.47800002 4285869857
0.00016883542 0.024553884 0.47900003 4287447349
0.0017282286 0.024605144 0.48000002 4286856245
-0.033978667 0.024910986 0.45700002 4284887843
-0.032423224 0.024856478 0.45600003 4284950554
-0.030942136 0.024856478 0.45600003 4287054901
-0.02946105 0.024856478 0.45600003 4283506188
-0.028041318 0.024910986 0.45700002 4281804560
-0.02655698 0.024910986 0.45700002 4282133012
-0.02512751 0.024965497 0.45800003 4283837724
-0.023743154 0.025074515 0.46000001 4285148705
-0.022345807 0.025183534 0.46200001 4285872941
-0.02093547 0.025292555 0.46400002 4285349425
-0.019470271 0.025347065 0.46500003 4280226057
-0.018037196 0.025456084 0.46700001 4280227858
-0.01659113 0.025565105 0.46900001 4279966996
-0.015132072 0.025674123 0.47100002 4281679152
-0.013660023 0.025783144 0.47300002 4284574305
-0.01214935 0.025837654 0.47400004 4279903002
-0.010632181 0.025892163 0.47500002 4288195739
-0.0091085145 0.025946673 0.47600001 4287145361
-0.0075783534 0.026001183 0.47700003 4287605398
-0.0060290569 0.026001183 0.47700003 4282533691
-0.0044891518 0.026055692 0.47800002 4283376667
-0.0029366068 0.026055692 0.47800002 4283638296
-0.0013869575 0.026110204 0.47900003 4286395947
0.0001691879 0.026164712 0.48000002 4287118643
0.0017282286 0.026164712 0.48000002 4287120192
0.003294118 0.026219223 0.48100004 4285935664
-0.035695799 0.026569102 0.46000001 4283056934
-0.033904314 0.026338067 0.45600003 4285280804
-0.032423224 0.026338067 0.45600003 4285869603
-0.03087428 0.026280308 0.45500001 4284885531
-0.02946105 0.026338067 0.45600003 4282983698
-0.027979959 0.026338067 0.45600003 4281015046
-0.02655698 0.026395826 0.45700002 4283052830
-0.02512751 0.026453586 0.45800003 4285083939
-0.023743154 0.026569102 0.46000001 4286199340
-0.022345807 0.026684619 0.46200001 4285545260
-0.02093547 0.026800139 0.46400002 4283117858
-0.019512143 0.026915656 0.46600002 4280294934
-0.018037196 0.026973415 0.46700001 4279703313
-0.01659113 0.027088933 0.46900001 4281746491
-0.015132072 0.02720445 0.47100002 4281615419
-0.013660023 0.027319968 0.47300002 4279376660
-0.01214935 0.027377728 0.47400004 4281021485
-0.010632181 0.027435487 0.47500002 4280825901
-0.0091085145 0.027493244 0.47600001 4287276435
-0.0075783534 0.027551005 0.47700003 4287474328
-0.0060416963 0.027608763 0.47800002 4284773733
-0.0044891518 0.027608763 0.47800002 4283968804
-0.0029427505 0.027666522 0.47900003 4283835675
-0.0013869575 0.027666522 0.47900003 4285540640
0.0001691879 0.027724281 0.48000002 4287118645
0.0017282286 0.027724281 0.48000002 4289357404
0.003294118 0.027782042 0.48100004 4287251006
-0.035463002 0.027880665 0.45700002 4283645219
-0.033829961 0.027758649 0.45500001 4285477668
-0.032281019 0.027697641 0.45400003 4286527785
-0.03087428 0.027758649 0.45500001 4283506958
-0.029396441 0.027758649 0.45500001 4281473285
-0.027979959 0.027819658 0.45600003 4283186983
-0.02655698 0.027880665 0.45700002 4283578145
-0.02512751 0.027941674 0.45800003 4285279521
-0.023743154 0.028063688 0.46000001 4286068524
-0.022345807 0.028185705 0.46200001 4284959033
-0.02093547 0.028307721 0.46400002 4280095495
-0.019512143 0.028429737 0.46600002 4279638547
-0.018037196 0.028490745 0.46700001 4286878597
-0.01659113 0.028612761 0.46900001 4285893245
-0.015132072 0.028734777 0.47100002 4282800974
-0.013660023 0.028856793 0.47300002 4283983965
-0.01214935 0.028917802 0.47400004 4280561702
-0.010654564 0.029039817 0.47600001 4279443734
-0.0091276504 0.029100826 0.47700003 4287802012
-0.0075783534 0.029100826 0.47700003 4287211672
-0.0060416963 0.029161833 0.47800002 4286485634
-0.0044985432 0.029222842 0.47900003 4283178522
-0.0029427505 0.029222842 0.47900003 4284031517
-0.001389853 0.02928385 0.48000002 4285542441
0.0001691879 0.02928385 0.48000002 4286133549
0.0017318293 0.029344859 0.48100004 4286131748
0.003294118 0.029344859 0.48100004 4286526506
-0.036462255 0.028979965 0.45100003 4283187237
-0.035230204 0.029172735 0.45400003 4284823847
-0.033681259 0.029108478 0.45300001 4285803807
-0.032209914 0.029108478 0.45300001 4286856750
-0.030806426 0.029172735 0.45400003 4282390539
-0.029331835 0.029172735 0.45400003 4281671695
-0.027918598 0.029236991 0.45500001 4282593049
-0.026498869 0.02930125 0.45600003 4283839007
-0.02512751 0.029429764 0.45800003 4285476387
-0.023691539 0.029494021 0.45900002 4285674279
-0.022297442 0.029622534 0.46100003 4281607703
-0.020890351 0.029751049 0.46300003 4284571475
-0.019470271 0.029879564 0.46500003 4283587660
-0.018037196 0.030008078 0.46700001 4285168489
-0.01659113 0.030136591 0.46900001 4286222712
-0.015132072 0.030265106 0.47100002 4282470976
-0.013660023 0.030393621 0.47300002 4282010429
-0.01214935 0.030457878 0.47400004 4282075454
-0.010654564 0.030586392 0.47600001 4280825389
-0.0091276504 0.030650649 0.47700003 4288130977
-0.0075942408 0.030714905 0.47800002 4287277465
-0.0060416963 0.030714905 0.47800002 4287406738
-0.0044985432 0.030779164 0.47900003 4283770657
-0.0029488937 0.03084342 0.48000002 4284690214
-0.001389853 0.03084342 0.48000002 4285410855
0.00016954038 0.030907677 0.48100004 4285740074
0.0017318293 0.030907677 0.48100004 4285411109
0.003294118 0.030907677 0.48100004 4285214761
-0.037843008 0.030377802 0.45000002 4281940509
-0.036462255 0.030445309 0.45100003 4284234278
-0.035075005 0.030512815 0.45200002 4285347109
-0.033606909 0.030512815 0.45200002 4286328866
-0.032209914 0.030580319 0.45300001 4286132000
-0.03073857 0.030580319 0.45300001 4282852373
-0.029331835 0.030647827 0.45400003 4281737488
-0.027918598 0.030715333 0.45500001 4282854686
-0.026498869 0.030782839 0.45600003 4284035616
-0.025072645 0.030850345 0.45700002 4285672996
-0.023691539 0.030985359 0.45900002 4284227605
-0.022297442 0.031120371 0.46100003 4281147411
-0.020890351 0.031255383 0.46300003 4279506441
-0.019470271 0.031390395 0.46500003 4281021735
-0.018037196 0.031525407 0.46700001 4280365088
-0.01659113 0.031660419 0.46900001 4288458129
-0.015132072 0.031795431 0.47100002 4284375102
-0.013660023 0.031930447 0.47300002 4282402605
-0.01214935 0.031997953 0.47400004 4282139955
-0.010654564 0.032132965 0.47600001 4279707160
-0.0091276504 0.032200471 0.47700003 4287802266
-0.0075942408 0.032267977 0.47800002 4287277465
-0.0060543362 0.032335483 0.47900003 4287406225
-0.0044985432 0.032335483 0.47900003 4283966237
-0.0029488937 0.032402989 0.48000002 4284820001
-0.001389853 0.032402989 0.48000002 4285279521
0.00016954038 0.032470495 0.48100004 4285740842
0.0017318293 0.032470495 0.48100004 4284429872
0.003294118 0.032470495 0.48100004 4287794049
-0.037843008 0.031839896 0.45000002 4282005021
-0.036462255 0.031910654 0.45100003 4285283884
-0.035075005 0.031981409 0.45200002 4285871656
-0.033606909 0.031981409 0.45200002 4289616973
-0.03213881 0.031981409 0.45200002 4287511852
-0.03073857 0.032052163 0.45300001 4285873193
-0.029267225 0.032052163 0.45300001 4282388994
-0.027857238 0.032122921 0.45400003 4283903778
-0.026498869 0.03226443 0.45600003 4284427040
-0.025072645 0.032335185 0.45700002 4286001193
-0.023691539 0.032476697 0.45900002 4284292628
-0.022297442 0.032618206 0.46100003 4281015827
-0.020890351 0.032759719 0.46300003 4279638029
-0.019470271 0.032901227 0.46500003 4280954661
-0.018037196 0.033042736 0.46700001 4279640084
-0.01659113 0.033184249 0.46900001 4281415460
-0.015132072 0.033325758 0.47100002 4283781684
-0.013660023 0.03346727 0.47300002 4284243766
-0.01214935 0.033538029 0.47400004 4281480987
-0.010654564 0.033679534 0.47600001 4280233502
-0.0091276504 0.033750292 0.47700003 4288131490
-0.0075942408 0.033821046 0.47800002 4287343258
-0.0060543362 0.033891805 0.47900003 4285365356
-0.0044985432 0.033891805 0.47900003 4284294941
-0.0029488937 0.033962559 0.48000002 4285082144
-0.001389853 0.033962559 0.48000002 4285476135
0.00016954038 0.034033313 0.48100004 4287520858
0.0017318293 0.034033313 0.48100004 4288194457
-0.037843008 0.033301994 0.45000002 4283055397
-0.036381405 0.033301994 0.45000002 4285741867
-0.034997404 0.033376001 0.45100003 4286395174
-0.033532556 0.033376001 0.45100003 4287443751
-0.03213881 0.033450004 0.45200002 4287180577
-0.030670714 0.033450004 0.45200002 4287443749
-0.029267225 0.033524007 0.45300001 4287247140
-0.027857238 0.033598013 0.45400003 4286788901
-0.026440756 0.033672016 0.45500001 4287118897
-0.025072645 0.033820026 0.45700002 4286328616
-0.023691539 0.033968035 0.45900002 4285542182
-0.022297442 0.034116041 0.46100003 4283318582
-0.020890351 0.03426405 0.46300003 4280229907
-0.019470271 0.03441206 0.46500003 4280559903
-0.018037196 0.034560069 0.46700001 4280296729
-0.01659113 0.034708075 0.46900001 4280887319
-0.015132072 0.034856085 0.47100002 4281742619
-0.013660023 0.035004094 0.47300002 4281546003
-0.01214935 0.035078101 0.47400004 4282796842
-0.010654564 0.035226107 0.47600001 4280036639
-0.0091276504 0.035300113 0.47700003 4287211672
-0.0075942408 0.035374116 0.47800002 4287539867
-0.0060543362 0.035448123 0.47900003 4283389772
-0.0044985432 0.035448123 0.47900003 4285214759
-0.0029488937 0.035522126 0.48000002 4285344803
-0.001389853 0.035522126 0.48000002 4284885796
0.00016954038 0.035596132 0.48100004 4290357148
0.0017318293 0.035596132 0.48100004 4287474326
-0.039304607 0.034764089 0.45000002 4282335267
-0.037843008 0.034764089 0.45000002 4283644967
-0.036381405 0.034764089 0.45000002 4285739557
-0.034997404 0.034841344 0.45100003 4286393891
-0.033532556 0.034841344 0.45100003 4286786591
-0.032067709 0.034841344 0.45100003 4287246372
-0.030670714 0.034918595 0.45200002 4286917405
-0.029267225 0.03499585 0.45300001 4291130212
-0.027857238 0.035073105 0.45400003 4287511595
-0.026440756 0.035150357 0.45500001 4287708204
-0.025072645 0.035304863 0.45700002 4287117614
-0.023691539 0.035459369 0.45900002 4285607203
-0.022297442 0.03561388 0.46100003 4282331687
-0.020890351 0.035768386 0.46300003 4279703565
-0.019470271 0.035922892 0.46500003 4281151011
-0.018037196 0.036077399 0.46700001 4283783758
-0.01659113 0.036231905 0.46900001 4282204206
-0.015132072 0.036386412 0.47100002 4285624919
-0.013660023 0.036540922 0.47300002 4281546775
-0.012174981 0.036695428 0.47500002 4282401835
-0.010654564 0.03677268 0.47600001 4286025085
-0.0091276504 0.036849935 0.47700003 4287408281
-0.0075942408 0.036927186 0.47800002 4287867289
-0.0060543362 0.037004441 0.47900003 4282727215
-0.0044985432 0.037004441 0.47900003 4285738021
-0.0029488937 0.037081696 0.48000002 4286000936
-0.001389853 0.037081696 0.48000002 4284230946
-0.039304607 0.036226183 0.45000002 4281742365
-0.037927102 0.03630669 0.45100003 4284235310
-0.036462255 0.03630669 0.45100003 4285409824
-0.034997404 0.03630669 0.45100003 4285934369
-0.033532556 0.03630669 0.45100003 4286458912
-0.03213881 0.03638719 0.45200002 4286590241
-0.030670714 0.03638719 0.45200002 4286983718
-0.029267225 0.03646769 0.45300001 4287906103
-0.027857238 0.036548197 0.45400003 4288435534
-0.026440756 0.036628697 0.45500001 4287642931
-0.025072645 0.036789704 0.45700002 4286853418
-0.023691539 0.036950707 0.45900002 4285607205
-0.022297442 0.037111714 0.46100003 4281015573
-0.020890351 0.037272722 0.46300003 4280163864
-0.019470271 0.037433725 0.46500003 4280427547
-0.018037196 0.037594728 0.46700001 4279966994
-0.01659113 0.037755735 0.46900001 4283915342
-0.015132072 0.037916739 0.47100002 4282533943
-0.013660023 0.038077746 0.47300002 4282468150
-0.012174981 0.038238753 0.47500002 4281546794
-0.010654564 0.038319252 0.47600001 4288261793
-0.0091276504 0.038399756 0.47700003 4287474328
-0.0075942408 0.038480259 0.47800002 4289311651
-0.0060543362 0.038560763 0.47900003 4283838505
-0.0044985432 0.038560763 0.47900003 4285935139
-0.0029427505 0.038560763 0.47900003 4286394920
-0.001389853 0.038641263 0.48000002 4285023804
-0.03939195 0.037772033 0.45100003 4281873183
-0.037927102 0.037772033 0.45100003 4283643432
-0.036462255 0.037772033 0.45100003 4285280552
-0.034997404 0.037772033 0.45100003 4285542695
-0.033532556 0.037772033 0.45100003 4285671967
-0.03213881 0.037855785 0.45200002 4285737244
-0.030670714 0.037855785 0.45200002 4286524705
-0.029267225 0.037939534 0.45300001 4286721059
-0.027857238 0.038023289 0.45400003 4287774265
-0.026498869 0.038190793 0.45600003 4287577138
-0.025072645 0.038274541 0.45700002 4286460200
-0.023691539 0.038442045 0.45900002 4284426788
-0.022297442 0.038609549 0.46100003 4282072118
-0.020890351 0.038777053 0.46300003 4280033054
-0.019470271 0.038944557 0.46500003 4279835928
-0.01807582 0.039195813 0.46800002 4279835926
-0.016626507 0.039363317 0.47000003 4279835156
-0.0151642 0.039530821 0.47200003 4283454791
-0.013688903 0.039698325 0.47400004 4281217061
-0.012174981 0.039782073 0.47500002 4283119666
-0.010676947 0.039949577 0.47700003 4287727229
-0.0091467863 0.040033329 0.47800002 4287931797
-0.0075942408 0.040033329 0.47800002 4287199856
-0.0060543362 0.040117081 0.47900003 4286002992
-0.0044985432 0.040117081 0.47900003 4286526247
-0.0029427505 0.040117081 0.47900003 4286657833
-0.001389853 0.040200833 0.48000002 4288911239
-0.03939195 0.03923738 0.45100003 4285953900
-0.037927102 0.03923738 0.45100003 4283711282
-0.036543101 0.039324377 0.45200002 4284428325
-0.035075005 0.039324377 0.45200002 4284821285
-0.033606909 0.039324377 0.45200002 4284820253
-0.03213881 0.039324377 0.45200002 4284818455
-0.03073857 0.039411377 0.45300001 4285999131
-0.029331835 0.039498381 0.45400003 4286591268
-0.027918598 0.039585378 0.45500001 4286853672
-0.026498869 0.039672382 0.45600003 4287380016
-0.02512751 0.039846383 0.45800003 4284885535
-0.023691539 0.039933383 0.45900002 4289832341
-0.022297442 0.040107384 0.46100003 4288458913
-0.020890351 0.040281389 0.46300003 4280100900
-0.019512143 0.04054239 0.46600002 4280296998
-0.01807582 0.040716391 0.46800002 4280955179
-0.016626507 0.040890392 0.47000003 4279968536
-0.0151642 0.041064397 0.47200003 4282862404
-0.013688903 0.041238397 0.47400004 4281999642
-0.012200613 0.041412398 0.47600001 4286203199
-0.010676947 0.041499399 0.47700003 4285806646
-0.0091467863 0.041586399 0.47800002 4290551188
-0.0075942408 0.041586399 0.47800002 4285477418
-0.0060543362 0.0416734 0.47900003 4286789165
-0.0044985432 0.0416734 0.47900003 4286590243
-0.0029427505 0.0416734 0.47900003 4286723372
-0.03939195 0.040702727 0.45100003 4288982690
-0.038011197 0.040792976 0.45200002 4283581500
-0.036543101 0.040792976 0.45200002 4284364847
-0.035075005 0.040792976 0.45200002 4284033315
-0.033606909 0.040792976 0.45200002 4284163355
-0.032209914 0.040883224 0.45300001 4284557083
-0.03073857 0.040883224 0.45300001 4285344031
-0.029331835 0.040973477 0.45400003 4285738789
-0.027918598 0.041063726 0.45500001 4286198570
-0.026498869 0.041153975 0.45600003 4286461742
-0.02512751 0.041334476 0.45800003 4284821285
-0.023691539 0.041424725 0.45900002 4289832341
-0.022297442 0.041605227 0.46100003 4287801494
-0.020890351 0.041785724 0.46300003 4286880140
-0.019512143 0.042056475 0.46600002 4279837991
-0.01807582 0.042236976 0.46800002 4280232490
-0.016661881 0.042507723 0.47100002 4280295452
-0.015196327 0.042688224 0.47300002 4282067752
-0.013717782 0.042868722 0.47500002 4286202168
-0.012200613 0.042958971 0.47600001 4286660661
-0.010676947 0.043049224 0.47700003 4287316796
-0.0091467863 0.043139473 0.47800002 4287514178
-0.0075942408 0.043139473 0.47800002 4287116842
-0.0060543362 0.043229725 0.47900003 4287116585
-0.0044985432 0.043229725 0.47900003 4287313966
-0.0029427505 0.043229725 0.47900003 4287517003
-0.039479293 0.042261571 0.45200002 4288657321
-0.038095292 0.042355068 0.45300001 4282797635
-0.036623947 0.042355068 0.45300001 4284300083
-0.035152603 0.042355068 0.45300001 4284035884
-0.033681259 0.042355068 0.45300001 4284230694
-0.032209914 0.042355068 0.45300001 4284427558
-0.030806426 0.042448569 0.45400003 4284756005
-0.029396441 0.042542066 0.45500001 4285085224
-0.027918598 0.042542066 0.45500001 4285479982
-0.02655698 0.042729065 0.45700002 4285151017
-0.02512751 0.042822566 0.45800003 4285413424
-0.023691539 0.042916063 0.45900002 4290421396
-0.022297442 0.043103062 0.46100003 4287604885
-0.020890351 0.04329006 0.46300003 4287736986
-0.019512143 0.043570556 0.46600002 4287671455
-0.018114444 0.043851051 0.46900001 4287935144
-0.016661881 0.04403805 0.47100002 4283585102
-0.015196327 0.044225048 0.47300002 4283972919
-0.013717782 0.044412047 0.47500002 4285805354
-0.012200613 0.044505544 0.47600001 4287052852
-0.010676947 0.044599045 0.47700003 4290410090
-0.0091467863 0.044692542 0.47800002 4287579194
-0.0076101287 0.044786043 0.47900003 4287510573
-0.0060543362 0.044786043 0.47900003 4287445550
-0.0044985432 0.044786043 0.47900003 4287251256
-0.0029427505 0.044786043 0.47900003 4291076244
-0.038095292 0.043826912 0.45300001 4288525735
-0.036623947 0.043826912 0.45300001 4284569683
-0.035230204 0.043923661 0.45400003 4284366907
-0.033755612 0.043923661 0.45400003 4284628532
-0.032281019 0.043923661 0.45400003 4283904294
-0.03087428 0.044020407 0.45500001 4284166183
-0.029396441 0.044020407 0.45500001 4283707944
-0.027979959 0.044117156 0.45600003 4286278754
-0.02655698 0.044213902 0.45700002 4283841079
-0.02512751 0.044310652 0.45800003 4284888374
-0.023691539 0.044407401 0.45900002 4287653475
-0.022297442 0.044600897 0.46100003 4287867285
-0.020890351 0.044794392 0.46300003 4287540121
-0.019512143 0.045084637 0.46600002 4287539867
-0.018114444 0.045374881 0.46900001 4287539867
-0.016661881 0.045568377 0.47100002 4288656551
-0.015228455 0.045858625 0.47400004 4283651145
-0.013717782 0.045955371 0.47500002 4285217839
-0.012226244 0.046148866 0.47700003 4291929239
-0.010676947 0.046148866 0.47700003 4288896078
-0.0091467863 0.046245612 0.47800002 4287773745
-0.0075942408 0.046245612 0.47800002 4286984747
-0.0060543362 0.046342365 0.47900003 4289159773
-0.0044985432 0.046342365 0.47900003 4286922295
-0.0029427505 0.046342365 0.47900003 4288899681
-0.03817939 0.045398753 0.45400003 4287934625
-0.036704794 0.045398753 0.45400003 4288984233
-0.035230204 0.045398753 0.45400003 4284703065
-0.033829961 0.045498747 0.45500001 4284366905
-0.03235212 0.045498747 0.45500001 4284036395
-0.030942136 0.045598745 0.45600003 4286934887
-0.02946105 0.045598745 0.45600003 4288193940
-0.028041318 0.045698743 0.45700002 4287867287
-0.02655698 0.045698743 0.45700002 4285825396
-0.02512751 0.045798741 0.45800003 4284167991
-0.023743154 0.045998733 0.46000001 4284626486
-0.022297442 0.046098731 0.46100003 4288522905
-0.020890351 0.046298727 0.46300003 4287539605
-0.019512143 0.046598718 0.46600002 4287145109
-0.018114444 0.046898708 0.46900001 4287474074
-0.016661881 0.047098704 0.47100002 4287474074
-0.015228455 0.047398698 0.47400004 4288657573
-0.013717782 0.047498692 0.47500002 4285220669
-0.012226244 0.047698688 0.47700003 4286331698
-0.010676947 0.047698688 0.47700003 4287838255
-0.0091467863 0.047798686 0.47800002 4287640876
-0.0075942408 0.047798686 0.47800002 4293767336
-0.0060543362 0.047898684 0.47900003 4288112218
-0.0044985432 0.047898684 0.47900003 4287118134
-0.0029427505 0.047898684 0.47900003 4286986548
-0.03834758 0.047080338 0.45600003 4287934627
-0.03678564 0.046977088 0.45500001 4287605662
-0.035385404 0.047080338 0.45600003 4288130207
-0.033904314 0.047080338 0.45600003 4283973178
-0.032423224 0.047080338 0.45600003 4284432185
-0.030942136 0.047080338 0.45600003 4282787621
-0.029525656 0.047183581 0.45700002 4289112221
-0.028041318 0.047183581 0.45700002 4287802012
-0.026615093 0.047286831 0.45800003 4288327586
-0.025182372 0.047390074 0.45900002 4283909954
-0.023743154 0.04749332 0.46000001 4284956732
-0.022297442 0.047596566 0.46100003 4285944908
-0.020890351 0.047803063 0.46300003 4289178007
-0.019512143 0.048112798 0.46600002 4287604883
-0.018114444 0.048422538 0.46900001 4287736471
-0.016661881 0.048629031 0.47100002 4288064153
-0.015228455 0.048938774 0.47400004 4288453003
-0.013717782 0.049042016 0.47500002 4286527537
-0.012200613 0.049145263 0.47600001 4287379505
-0.010676947 0.049248509 0.47700003 4287969071
-0.0091467863 0.049351756 0.47800002 4288167220
-0.0075942408 0.049351756 0.47800002 4287576116
-0.0060416963 0.049351756 0.47800002 4286918704
-0.0044985432 0.049455002 0.47900003 4288234816
-0.0029427505 0.049455002 0.47900003 4287971901
-0.038431674 0.048668422 0.45700002 4287868834
-0.036947336 0.048668422 0.45700002 4287868834
-0.035463002 0.048668422 0.45700002 4287868834
-0.033978667 0.048668422 0.45700002 4285229155
-0.032494329 0.048668422 0.45700002 4284235837
-0.031009993 0.048668422 0.45700002 4285350722
-0.029590266 0.04877492 0.45800003 4289105032
-0.028102677 0.04877492 0.45800003 4287670426
-0.026673203 0.048881412 0.45900002 4287736219
-0.025237234 0.048987906 0.46000001 4288787106
-0.02379477 0.049094405 0.46100003 4282596402
-0.022345807 0.0492009 0.46200001 4285678140
-0.02093547 0.04941389 0.46400002 4287451983
-0.019512143 0.049626879 0.46600002 4287588702
-0.018114444 0.049946368 0.46900001 4285744445
-0.016661881 0.050159357 0.47100002 4287120444
-0.015228455 0.050478846 0.47400004 4286789167
-0.013717782 0.050585341 0.47500002 4287707952
-0.012200613 0.050691836 0.47600001 4287773232
-0.010676947 0.05079833 0.47700003 4288101427
-0.0091467863 0.050904825 0.47800002 4287839025
-0.0075942408 0.050904825 0.47800002 4286985258
-0.0060416963 0.050904825 0.47800002 4286853418
-0.0044985432 0.051011324 0.47900003 4287050540
-0.0029427505 0.051011324 0.47900003 4286723376
-0.038515773 0.050263006 0.45800003 4287671455
-0.037028186 0.050263006 0.45800003 4287934627
-0.035540603 0.050263006 0.45800003 4288000420
-0.03405302 0.050263006 0.45800003 4288853419
-0.032565434 0.050263006 0.45800003 4282794301
-0.031145703 0.05037275 0.45900002 4284891452
-0.029654872 0.05037275 0.45900002 4284363825
-0.028164037 0.05037275 0.45900002 4288851870
-0.026731314 0.050482493 0.46000001 4287670678
-0.025237234 0.050482493 0.46000001 4287604633
-0.02379477 0.05059224 0.46100003 4288328610
-0.022345807 0.050701983 0.46200001 4283770405
-0.02093547 0.050921474 0.46400002 4286528825
-0.019512143 0.05114096 0.46600002 4287052337
-0.018114444 0.051470194 0.46900001 4287511348
-0.016661881 0.051689684 0.47100002 4288102712
-0.015196327 0.051909175 0.47300002 4287576368
-0.013717782 0.052128665 0.47500002 4287904302
-0.012200613 0.052238405 0.47600001 4288101681
-0.010676947 0.052348152 0.47700003 4287183407
-0.0091467863 0.052457895 0.47800002 4285935139
-0.0075942408 0.052457895 0.47800002 4286067754
-0.0060416963 0.052457895 0.47800002 4286133547
-0.0044985432 0.052567642 0.47900003 4286265905
-0.0029427505 0.052567642 0.47900003 4284756523
-0.038599867 0.051864088 0.45900002 4288066213
-0.037109032 0.051864088 0.45900002 4288000420
-0.035618201 0.051864088 0.45900002 4287934627
-0.03412737 0.051864088 0.45900002 4287868834
-0.032636534 0.051864088 0.45900002 4285826939
-0.031145703 0.051864088 0.45900002 4284103222
-0.029719478 0.051977079 0.46000001 4285153595
-0.028225396 0.051977079 0.46000001 4283904296
-0.026731314 0.051977079 0.46000001 4289307029
-0.0252921 0.052090075 0.46100003 4289245860
-0.023846386 0.052203067 0.46200001 4288321163
-0.022394177 0.052316062 0.46300003 4285871408
-0.02093547 0.052429054 0.46400002 4288238923
-0.019512143 0.052655045 0.46600002 4287118384
-0.018114444 0.052994024 0.46900001 4287971124
-0.016661881 0.053220011 0.47100002 4287181095
-0.015196327 0.053445999 0.47300002 4287116585
-0.013717782 0.053671986 0.47500002 4286986796
-0.012200613 0.053784978 0.47600001 4286066979
-0.010676947 0.053897973 0.47700003 4284953384
-0.0091467863 0.054010965 0.47800002 4284954667
-0.0075942408 0.054010965 0.47800002 4285217841
-0.0060416963 0.054010965 0.47800002 4285217841
-0.0044891518 0.054010965 0.47800002 4284039741
-0.0029427505 0.05412396 0.47900003 4288520856
-0.038683962 0.053471666 0.46000001 4288066213
-0.037189879 0.053471666 0.46000001 4288066213
-0.035695799 0.053471666 0.46000001 4288000420
-0.034201719 0.053471666 0.46000001 4287934627
-0.032707639 0.053471666 0.46000001 4288657834
-0.031213557 0.053471666 0.46000001 4283646010
-0.029719478 0.053471666 0.46000001 4284826427
-0.028286757 0.05358791 0.46100003 4285413683
-0.026789427 0.05358791 0.46100003 4284755240
-0.0252921 0.05358791 0.46100003 4284756527
-0.023846386 0.053704154 0.46200001 4285280300
-0.022394177 0.053820398 0.46300003 4286789680
-0.02093547 0.053936638 0.46400002 4287709501
-0.019512143 0.054169126 0.46600002 4292055689
-0.01807582 0.05440161 0.46800002 4287841083
-0.016661881 0.054750338 0.47100002 4286987311
-0.015196327 0.054982822 0.47300002 4285806637
-0.013717782 0.05521531 0.47500002 4284559146
-0.012200613 0.055331551 0.47600001 4284496181
-0.010676947 0.055447794 0.47700003 4284632905
-0.0091467863 0.055564038 0.47800002 4284634188
-0.0075942408 0.055564038 0.47800002 4285293915
-0.0060416963 0.055564038 0.47800002 4287665547
-0.0044891518 0.055564038 0.47800002 4287867807
-0.037270728 0.055085748 0.46100003 4288000937
-0.0357734 0.055085748 0.46100003 4287935144
-0.034276072 0.055085748 0.46100003 4287671972
-0.032778744 0.055085748 0.46100003 4288066213
-0.031281415 0.055085748 0.46100003 4284768856
-0.029784087 0.055085748 0.46100003 4284236089
-0.028286757 0.055085748 0.46100003 4285414966
-0.026789427 0.055085748 0.46100003 4285018925
-0.025346963 0.055205237 0.46200001 4284623138
-0.023846386 0.055205237 0.46200001 4285674029
-0.022394177 0.05532473 0.46300003 4286132520
-0.02093547 0.055444222 0.46400002 4286985774
-0.019512143 0.055683207 0.46600002 4286524705
-0.01807582 0.055922192 0.46800002 4287314991
-0.016626507 0.056161173 0.47000003 4285939250
-0.015196327 0.05651965 0.47300002 4286144599
-0.013717782 0.056758635 0.47500002 4288260250
-0.012200613 0.056878123 0.47600001 4288721831
-0.010676947 0.056997616 0.47700003 4287999645
-0.0091467863 0.057117108 0.47800002 4287802266
-0.0075942408 0.057117108 0.47800002 4287802266
-0.0060416963 0.057117108 0.47800002 4287670939
-0.037270728 0.056583583 0.46100003 4287935144
-0.0357734 0.056583583 0.46100003 4287869351
-0.034276072 0.056583583 0.46100003 4287869351
-0.032778744 0.056583583 0.46100003 4287738018
-0.031281415 0.056583583 0.46100003 4289049512
-0.029784087 0.056583583 0.46100003 4283449916
-0.028348114 0.05670632 0.46200001 4285153591
-0.026847538 0.05670632 0.46200001 4284560171
-0.025346963 0.05670632 0.46200001 4284559398
-0.023898002 0.056829065 0.46300003 4284492322
-0.022394177 0.056829065 0.46300003 4285477672
-0.02093547 0.056951806 0.46400002 4286003246
-0.019470271 0.057074547 0.46500003 4286461744
-0.018037196 0.057320025 0.46700001 4286790709
-0.01659113 0.05756551 0.46900001 4288648331
-0.015196327 0.058056474 0.47300002 4288064155
-0.013717782 0.058301955 0.47500002 4287802779
-0.010676947 0.058547437 0.47700003 4287671453
-0.0091467863 0.058670178 0.47800002 4287671455
-0.0357734 0.058081422 0.46100003 4287869604
-0.034350425 0.058207411 0.46200001 4287935397
-0.032849845 0.058207411 0.46200001 4287934627
-0.031349268 0.058207411 0.46200001 4287605148
-0.029848693 0.058207411 0.46200001 4282534724
-0.028348114 0.058207411 0.46200001 4284432185
-0.026847538 0.058207411 0.46200001 4284167981
-0.025346963 0.058207411 0.46200001 4284299052
-0.023898002 0.058333404 0.46300003 4284429355
-0.022394177 0.058333404 0.46300003 4285349427
-0.02093547 0.05845939 0.46400002 4285415220
-0.019470271 0.058585383 0.46500003 4285020210
-0.017998572 0.058711372 0.46600002 4285352519
-0.016555754 0.058963351 0.46800002 4288591012
-0.034350425 0.059708491 0.46200001 4288000420
-0.032849845 0.059708491 0.46200001 4287934627
-0.031349268 0.059708491 0.46200001 4287934627
-0.029848693 0.059708491 0.46200001 4288723116
-0.028348114 0.059708491 0.46200001 4283780426
-0.026847538 0.059708491 0.46200001 4284171329
-0.025346963 0.059708491 0.46200001 4284827974
-0.023898002 0.059837732 0.46300003 4284565056
-0.022394177 0.059837732 0.46300003 4284696124
-0.02093547 0.05996697 0.46400002 4284367929
-0.019428398 0.05996697 0.46400002 4285691757
-0.01795995 0.060096212 0.46500003 4288328358
-0.032849845 0.061209582 0.46200001 4288000420
-0.031349268 0.061209582 0.46200001 4288000420
-0.029848693 0.061209582 0.46200001 4287868834
-0.028348114 0.061209582 0.46200001 4288459942
-0.026847538 0.061209582 0.46200001 4288788391
-0.025346963 0.061209582 0.46200001 4288524706
-0.023898002 0.061342072 0.46300003 4288195741
-0.022394177 0.061342072 0.46300003 4288787624
-0.020890351 0.061342072 0.46300003 4288261793
-0.019428398 0.061474558 0.46400002 4287670941
-0.028348114 0.062710665 0.46200001 4288000420
-0.026847538 0.062710665 0.46200001 4287868834
-0.025346963 0.062710665 0.46200001 4287934625
-0.023898002 0.0628464 0.46300003 4287869086
-0.022394177 0.0628464 0.46300003 4287803293
-0.020890351 0.0628464 0.46300003 4287671453
-0.019428398 0.062982135 0.46400002 4287934627
-0.019067779 0.035918869 0.46514028 4294967295
-0.019067779 0.035918869 0.46514028 4294901760
-0.019067779 0.035420954 0.46509466 4294901760
-0.019067779 0.034923043 0.46504903 4294901760
-0.019067779 0.034425128 0.4650034 4294901760
-0.019067779 0.033927217 0.46495777 4294901760
-0.019067779 0.033429302 0.46491212 4294901760
-0.019067779 0.032931387 0.46486649 4294901760
-0.019067779 0.032433476 0.46482086 4294901760
-0.019067779 0.031935561 0.46477523 4294901760
-0.019067779 0.031437647 0.46472961 4294901760
-0.019067779 0.030939734 0.46468398 4294901760
-0.019067779 0.030441821 0.46463835 4294901760
-0.019067779 0.029943908 0.46459273 4294901760
-0.019067779 0.029445995 0.46454707 4294901760
-0.019067779 0.02894808 0.46450144 4294901760
-0.019067779 0.028450167 0.46445581 4294901760
-0.019067779 0.027952254 0.46441019 4294901760
-0.019067779 0.027454339 0.46436456 4294901760
-0.019067779 0.026956426 0.46431893 4294901760
-0.019067779 0.026458513 0.4642733 4294901760
-0.019067779 0.025960598 0.46422768 4294901760
-0.019067779 0.025462687 0.46418202 4294901760
-0.019067779 0.024964772 0.46413639 4294901760
-0.019067779 0.024466859 0.46409076 4294901760
-0.019067779 0.023968946 0.46404514 4294901760
-0.019067779 0.023471031 0.46399951 4294901760
-0.019067779 0.02297312 0.46395388 4294901760
-0.019067779 0.022475205 0.46390826 4294901760
-0.019067779 0.021977291 0.46386263 4294901760
-0.019067779 0.021479379 0.463817 4294901760
-0.019067779 0.020981465 0.46377134 4294901760
-0.019067779 0.020483552 0.46372572 4294901760
-0.019067779 0.019985639 0.46368009 4294901760
-0.019067779 0.019487724 0.46363446 4294901760
-0.019067779 0.018989811 0.46358883 4294901760
-0.019067779 0.018491898 0.46354321 4294901760
-0.019067779 0.017993983 0.46349758 4294901760
-0.019067779 0.01749607 0.46345195 4294901760
-0.019067779 0.016998157 0.46340629 4294901760
-0.019067779 0.016500244 0.46336067 4294901760
-0.019067779 0.016002329 0.46331504 4294901760
-0.019067779 0.015504416 0.46326941 4294901760
-0.019067779 0.015006503 0.46322379 4294901760
-0.019067779 0.01450859 0.46317816 4294901760
-0.019067779 0.014010677 0.46313253 4294901760
-0.019067779 0.013512764 0.4630869 4294901760
-0.019067779 0.013014849 0.46304125 4294901760
-0.019067779 0.012516936 0.46299562 4294901760
-0.019067779 0.012019023 0.46294999 4294901760
-0.019067779 0.011521108 0.46290436 4294901760
-0.019067779 0.011023195 0.46285874 4294901760
-0.019067779 0.010525282 0.46281311 4294901760
-0.019067779 0.010027369 0.46276748 4294901760
-0.019067779 0.0095294565 0.46272185 4294901760
-0.019067779 0.0090315398 0.46267623 4294901760
-0.019067779 0.0085336268 0.46263057 4294901760
-0.019067779 0.0080357138 0.46258494 4294901760
-0.019067779 0.0075378008 0.46253932 4294901760
-0.019067779 0.0070398878 0.46249369 4294901760
-0.019067779 0.0065419748 0.46244806 4294901760
-0.019067779 0.00604406 0.46240243 4294901760
-0.019067779 0.005546147 0.46235681 4294901760
-0.019067779 0.005048234 0.46231118 4294901760
-0.019067779 0.0045503192 0.46226552 4294901760
-0.019067779 0.004052408 0.46221989 4294901760
-0.019067779 0.0035544932 0.46217427 4294901760
-0.019067779 0.0030565783 0.46212864 4294901760
-0.019067779 0.0025586672 0.46208301 4294901760
-0.019067779 0.0020607524 0.46203738 4294901760
-0.019067779 0.0015628412 0.46199176 4294901760
-0.019067779 0.0010649264 0.46194613 4294901760
-0.019067779 0.00056701526 0.46190047 4294901760
-0.019067779 6.9096684e-05 0.46185485 4294901760
-0.019067779 -0.00042881444 0.46180922 4294901760
-0.019067779 -0.00092672929 0.46176359 4294901760
-0.019067779 -0.0014246404 0.46171796 4294901760
-0.019067779 -0.0019225553 0.46167234 4294901760
-0.019067779 -0.0024204664 0.46162671 4294901760
-0.019067779 -0.0029183812 0.46158108 4294901760
-0.019067779 -0.0034162961 0.46153545 4294901760
-0.019067779 -0.0039142109 0.4614898 4294901760
-0.019067779 -0.0044121221 0.46144417 4294901760
-0.019067779 -0.0049100369 0.46139854 4294901760
-0.019067779 -0.005407948 0.46135291 4294901760
-0.019067779 -0.0059058629 0.46130729 4294901760
-0.019067779 -0.0064037777 0.46126166 4294901760
-0.019067779 -0.0069016889 0.46121603 4294901760
-0.019067779 -0.0073996037 0.46117041 4294901760
-0.019067779 -0.0078975148 0.46112475 4294901760
-0.019067779 -0.0083954297 0.46107912 4294901760
-0.019067779 -0.0088933408 0.46103349 4294901760
-0.019067779 -0.0093912594 0.46098787 4294901760
-0.019067779 -0.0098891705 0.46094224 4294901760
-0.019067779 -0.010387085 0.46089661 4294901760
-0.019067779 -0.010884997 0.46085098 4294901760
-0.019067779 -0.011382911 0.46080536 4294901760
-0.019067779 -0.011880822 0.4607597 4294901760
-0.019067779 -0.012378737 0.46071407 4294901760
-0.019067779 -0.012876652 0.46066844 4294901760
-0.019067779 -0.013374563 0.46062282 4294901760
-0.019067779 -0.013872478 0.46057719 4294901760
-0.019067779 0.035918869 0.46514028 4278255360
-0.018689575 0.035889022 0.46546596 4278255360
-0.018311372 0.035859175 0.46579164 4278255360
-0.017933168 0.035829328 0.46611735 4278255360
-0.017554963 0.035799481 0.46644303 4278255360
-0.01717676 0.035769634 0.46676871 4278255360
-0.016798556 0.035739787 0.46709439 4278255360
-0.016420351 0.03570994 0.46742007 4278255360
-0.016042149 0.035680093 0.46774578 4278255360
-0.015663944 0.035650246 0.46807146 4278255360
-0.01528574 0.035620399 0.46839714 4278255360
-0.014907536 0.035590552 0.46872282 4278255360
-0.014529333 0.035560705 0.4690485 4278255360
-0.014151128 0.035530854 0.46937418 4278255360
-0.013772924 0.035501007 0.46969989 4278255360
-0.013394721 0.03547116 0.47002557 4278255360
-0.013016516 0.035441313 0.47035125 4278255360
-0.012638313 0.035411466 0.47067693 4278255360
-0.012260108 0.035381619 0.47100261 4278255360
-0.011881905 0.035351772 0.47132832 4278255360
-0.0115037 0.035321925 0.471654 4278255360
-0.011125498 0.035292078 0.47197968 4278255360
-0.010747293 0.035262231 0.47230536 4278255360
-0.010369089 0.035232384 0.47263104 4278255360
-0.0099908859 0.035202537 0.47295675 4278255360
-0.0096126813 0.03517269 0.47328243 4278255360
-0.0092344778 0.035142843 0.47360811 4278255360
-0.0088562733 0.035112996 0.47393379 4278255360
-0.0084780697 0.035083149 0.47425947 4278255360
-0.0080998661 0.035053302 0.47458518 4278255360
-0.0077216616 0.035023455 0.47491086 4278255360
-0.007343458 0.034993608 0.47523654 4278255360
-0.0069652544 0.034963761 0.47556221 4278255360
-0.0065870499 0.034933913 0.47588789 4278255360
-0.0062088463 0.034904066 0.47621357 4278255360
-0.0058306428 0.034874219 0.47653928 4278255360
-0.0054524373 0.034844372 0.47686496 4278255360
-0.0050742337 0.034814525 0.47719064 4278255360
-0.0046960311 0.034784675 0.47751632 4278255360
-0.0043178275 0.034754828 0.477842 4278255360
-0.0039396221 0.034724981 0.47816771 4278255360
-0.0035614185 0.034695134 0.47849339 4278255360
-0.0031832159 0.034665287 0.47881907 4278255360
-0.0028050113 0.03463544 0.47914475 4278255360
-0.0024268068 0.034605592 0.47947043 4278255360
-0.0020486042 0.034575745 0.47979614 4278255360
-0.0016703997 0.034545898 0.48012182 4278255360
-0.0012921952 0.034516051 0.4804475 4278255360
-0.00091399252 0.034486204 0.48077318 4278255360
-0.00053578615 0.034456357 0.48109886 4278255360
-0.0001575835 0.03442651 0.48142457 4278255360
0.00022061914 0.034396663 0.48175025 4278255360
0.00059882365 0.034366816 0.48207593 4278255360
0.0009770263 0.034336969 0.48240161 4278255360
0.0013552327 0.034307122 0.48272729 4278255360
0.0017334372 0.034277275 0.48305297 4278255360
0.0021116398 0.034247428 0.48337868 4278255360
0.0024898443 0.034217581 0.48370436 4278255360
0.002868047 0.034187734 0.48403004 4278255360
0.0032462515 0.034157887 0.48435572 4278255360
0.003624456 0.03412804 0.4846814 4278255360
0.0040026605 0.034098193 0.48500711 4278255360
0.0043808632 0.034068346 0.48533279 4278255360
0.0047590677 0.034038495 0.48565847 4278255360
0.0051372703 0.034008648 0.48598415 4278255360
0.0055154748 0.033978801 0.48630983 4278255360
0.0058936793 0.033948954 0.48663554 4278255360
0.0062718838 0.033919107 0.48696122 4278255360
0.0066500865 0.03388926 0.4872869 4278255360
0.007028291 0.033859413 0.48761258 4278255360
0.0074064936 0.033829566 0.48793826 4278255360
0.0077846982 0.033799719 0.48826393 4278255360
0.0081629045 0.033769872 0.48858964 4278255360
0.0085411072 0.033740025 0.48891532 4278255360
0.0089193117 0.033710178 0.489241 4278255360
0.0092975143 0.033680331 0.48956668 4278255360
0.009675717 0.033650484 0.48989236 4278255360
0.010053921 0.033620637 0.49021807 4278255360
0.010432124 0.03359079 0.49054375 4278255360
0.010810331 0.033560943 0.49086943 4278255360
0.011188535 0.033531096 0.49119511 4278255360
0.011566738 0.033501249 0.49152079 4278255360
0.011944942 0.033471402 0.4918465 4278255360
0.012323145 0.033441555 0.49217218 4278255360
0.012701347 0.033411708 0.49249786 4278255360
0.013079554 0.033381861 0.49282354 4278255360
0.013457756 0.033352014 0.49314922 4278255360
0.013835963 0.033322163 0.49347493 4278255360
0.014214166 0.033292316 0.49380061 4278255360
0.014592368 0.033262469 0.49412629 4278255360
0.014970571 0.033232622 0.49445197 4278255360
0.015348777 0.033202775 0.49477765 4278255360
0.01572698 0.033172928 0.49510336 4278255360
0.016105186 0.033143081 0.49542904 4278255360
0.016483389 0.033113234 0.49575472 4278255360
0.016861591 0.033083387 0.4960804 4278255360
0.017239794 0.03305354 0.49640608 4278255360
0.017618001 0.033023693 0.49673176 4278255360
0.017996207 0.032993846 0.49705747 4278255360
0.01837441 0.032963999 0.49738315 4278255360
0.018752612 0.032934152 0.49770883 4278255360
-0.019067779 0.035918869 0.46514028 4278190335
-0.01939483 0.035884354 0.4655169 4278190335
-0.019721879 0.035849839 0.46589354 4278190335
-0.020048929 0.035815321 0.46627015 4278190335
-0.02037598 0.035780806 0.46664679 4278190335
-0.020703031 0.035746291 0.4670234 4278190335
-0.02103008 0.035711776 0.46740004 4278190335
-0.02135713 0.035677262 0.46777666 4278190335
-0.021684181 0.035642743 0.4681533 4278190335
-0.022011232 0.035608228 0.46852991 4278190335
-0.02233828 0.035573713 0.46890655 4278190335
-0.022665331 0.035539199 0.46928316 4278190335
-0.02299238 0.035504684 0.46965981 4278190335
-0.023319431 0.035470165 0.47003642 4278190335
-0.023646481 0.03543565 0.47041303 4278190335
-0.023973532 0.035401136 0.47078967 4278190335
