# .PCD v0.7 - Point Cloud Data file format
VERSION 0.7
FIELDS x y z rgb
SIZE 4 4 4 4
TYPE F F F U
COUNT 1 1 1 1
WIDTH 1061
HEIGHT 1
VIEWPOINT 0 0 0 1 0 0 0
POINTS 1061
DATA ascii
0.051104303 0.058945023 0.31400001 4278928154
0.052124176 0.058945023 0.31400001 4278928154
0.052974802 0.058757301 0.31300002 4279190556
0.053991426 0.058757301 0.31300002 4280176168
0.054832306 0.058569577 0.31200001 4286098056
0.055845682 0.058569577 0.31200001 4286755988
0.040351149 0.062256906 0.32600001 4279451164
0.041409999 0.062256906 0.32600001 4278862363
0.04246885 0.062256906 0.32600001 4279257121
0.043394178 0.062065937 0.32500002 4279257119
0.044313006 0.061874963 0.324 4279059740
0.045225345 0.061683994 0.32300001 4278862359
0.046131186 0.061493024 0.32200003 4278928152
0.046884019 0.061111078 0.32000002 4279059740
0.047773615 0.060920101 0.31900001 4279059740
0.048503712 0.060538158 0.317 4279059740
0.049377073 0.060347188 0.31600001 4279257119
0.050243936 0.060156219 0.31500003 4279322912
0.051267058 0.060156219 0.31500003 4279125535
0.052124176 0.059965242 0.31400001 4279125533
0.052974802 0.059774272 0.31300002 4278928154
0.053991426 0.059774272 0.31300002 4278204945
0.055008054 0.059774272 0.31300002 4278731287
0.055845682 0.059583299 0.31200001 4279781410
0.056859057 0.059583299 0.31200001 4286096003
0.057686947 0.059392329 0.31100002 4287412117
0.040474929 0.063510336 0.32700002 4279320861
0.041537024 0.063510336 0.32700002 4278993947
0.04246885 0.063316114 0.32600001 4279322912
0.043527696 0.063316114 0.32600001 4279257119
0.044449776 0.063121893 0.32500002 4278993947
0.045225345 0.062733449 0.32300001 4278993947
0.046131186 0.062539235 0.32200003 4278993947
0.046884019 0.062150788 0.32000002 4279124763
0.047773615 0.061956562 0.31900001 4279124763
0.048656721 0.061762344 0.31800002 4279256349
0.049377073 0.061373901 0.31600001 4279256349
0.050403439 0.061373901 0.31600001 4279453730
0.051267058 0.061179683 0.31500003 4279585316
0.052124176 0.060985457 0.31400001 4279321631
0.053144045 0.060985457 0.31400001 4279190556
0.053991426 0.060791239 0.31300002 4278731289
0.055008054 0.060791239 0.31300002 4278731289
0.055845682 0.060597014 0.31200001 4278928920
0.056859057 0.060597014 0.31200001 4279388187
0.057686947 0.060402796 0.31100002 4279320344
0.058508337 0.06020857 0.31 4285043565
0.059323233 0.060014352 0.30900002 4287016841
0.060326867 0.060014352 0.30900002 4283201365
0.061132021 0.059820134 0.30800003 4279519523
0.040474929 0.064572796 0.32700002 4279189273
0.041537024 0.064572796 0.32700002 4278599189
0.042599123 0.064572796 0.32700002 4279257119
0.043527696 0.064375319 0.32600001 4279257121
0.044449776 0.064177856 0.32500002 4279125533
0.04536536 0.063980378 0.324 4278928154
0.046131186 0.063585445 0.32200003 4278928154
0.046884019 0.063190505 0.32000002 4279059740
0.047773615 0.062993027 0.31900001 4279125533
0.048656721 0.062795565 0.31800002 4279322912
0.04953333 0.062598087 0.317 4279257119
0.050403439 0.06240062 0.31600001 4279257121
0.051267058 0.062203154 0.31500003 4278729240
0.052290183 0.062203154 0.31500003 4279515676
0.053144045 0.06200568 0.31400001 4278462988
0.054163922 0.06200568 0.31400001 4279716648
0.055008054 0.06180821 0.31300002 4279125535
0.056024678 0.06180821 0.31300002 4278928666
0.056859057 0.061610736 0.31200001 4278862359
0.057686947 0.061413269 0.31100002 4278862613
0.058508337 0.061215796 0.31 4278730257
0.059323233 0.061018329 0.30900002 4279649309
0.060326867 0.061018329 0.30900002 4285175151
0.061132021 0.060820859 0.30800003 4287084181
0.061930671 0.060623385 0.30700001 4284255600
0.062927812 0.060623385 0.30700001 4279913768
0.065275058 0.060030978 0.30400002 4280373547
0.066262454 0.060030978 0.30400002 4280896046
0.040598705 0.065835968 0.32800001 4278992662
0.041537024 0.065635249 0.32700002 4278797080
0.042599123 0.065635249 0.32700002 4278994461
0.043527696 0.065434523 0.32600001 4278994463
0.044449776 0.065233812 0.32500002 4278862877
0.04536536 0.065033086 0.324 4278993947
0.04627445 0.064832367 0.32300001 4278993947
0.046884019 0.064230211 0.32000002 4278993947
0.047773615 0.064029492 0.31900001 4279059740
0.048656721 0.063828774 0.31800002 4279059740
0.04953333 0.063628048 0.317 4279059740
0.050403439 0.063427337 0.31600001 4279387935
0.051267058 0.063226618 0.31500003 4279321631
0.052290183 0.063226618 0.31500003 4278331404
0.0533133 0.063226618 0.31500003 4278791185
0.054163922 0.063025892 0.31400001 4279320094
0.055183794 0.063025892 0.31400001 4279518756
0.056024678 0.062825181 0.31300002 4279519006
0.056859057 0.062624454 0.31200001 4279453726
0.057686947 0.062423736 0.31100002 4279124761
0.058508337 0.062223013 0.31 4278994199
0.059323233 0.062022299 0.30900002 4278928406
0.060326867 0.062022299 0.30900002 4279125785
0.061132021 0.06182158 0.30800003 4279452695
0.061930671 0.061620858 0.30700001 4283400025
0.062927812 0.061620858 0.30700001 4286755736
0.063716725 0.061420143 0.30600002 4283004763
0.06449914 0.06121942 0.30500001 4279914279
0.065275058 0.061018702 0.30400002 4279848486
0.066262454 0.061018702 0.30400002 4279914279
0.067249849 0.061018702 0.30400002 4280111145
0.068237238 0.061018702 0.30400002 4280830507
0.039533362 0.066901676 0.32800001 4280043049
0.040598705 0.066901676 0.32800001 4278991896
0.041664049 0.066901676 0.32800001 4279717670
0.042599123 0.066697709 0.32700002 4279388705
0.043661222 0.066697709 0.32700002 4279125533
0.044586543 0.066493735 0.32600001 4279059740
0.04536536 0.066085801 0.324 4278928154
0.04627445 0.065881833 0.32300001 4278928154
0.046884019 0.065269925 0.32000002 4279125535
0.047773615 0.065065958 0.31900001 4279257121
0.048656721 0.064861991 0.31800002 4279387935
0.04953333 0.064658016 0.317 4279256349
0.050403439 0.064454049 0.31600001 4279255836
0.051429808 0.064454049 0.31600001 4278199297
0.052290183 0.064250089 0.31500003 4278395914
0.0533133 0.064250089 0.31500003 4280436010
0.054163922 0.064046115 0.31400001 4279518756
0.055183794 0.064046115 0.31400001 4279519008
0.056024678 0.063842148 0.31300002 4279519006
0.057041299 0.063842148 0.31300002 4279453213
0.057872433 0.063638173 0.31200001 4279519519
0.058697078 0.063434213 0.31100002 4279651105
0.059515215 0.063230239 0.31 4279453726
0.060326867 0.063026272 0.30900002 4279190554
0.061132021 0.062822305 0.30800003 4278994199
0.061930671 0.062618338 0.30700001 4278993945
0.062927812 0.062618338 0.30700001 4279321377
0.063716725 0.06241437 0.30600002 4282609746
0.064710617 0.06241437 0.30600002 4286886550
0.065489776 0.062210396 0.30500001 4282741845
0.066262454 0.062006433 0.30400002 4280374319
0.067249849 0.062006433 0.30400002 4279585314
0.068237238 0.062006433 0.30400002 4279848486
0.069224633 0.062006433 0.30400002 4280241961
0.070212021 0.062006433 0.30400002 4280371498
0.040598705 0.067967378 0.32800001 4278464785
0.041664049 0.067967378 0.32800001 4279453217
0.042599123 0.067760162 0.32700002 4279387937
0.043661222 0.067760162 0.32700002 4279519519
0.044586543 0.067552939 0.32600001 4279190554
0.045505378 0.067345724 0.32500002 4279124763
0.04627445 0.066931292 0.32300001 4279190558
0.046884019 0.066309638 0.32000002 4279124765
0.047773615 0.066102415 0.31900001 4279453730
0.048656721 0.0658952 0.31800002 4279256351
0.04953333 0.065687984 0.317 4279256351
0.050403439 0.065480769 0.31600001 4279453217
0.051429808 0.065480769 0.31600001 4279977508
0.052290183 0.065273553 0.31500003 4278722828
0.0533133 0.065273553 0.31500003 4278461707
0.054336421 0.065273553 0.31500003 4279453730
0.055183794 0.06506633 0.31400001 4279519523
0.056203667 0.06506633 0.31400001 4279584031
0.057041299 0.064859115 0.31300002 4279649311
0.057872433 0.064651892 0.31200001 4279584801
0.058697078 0.064444676 0.31100002 4279585314
0.059515215 0.06423746 0.31 4279585314
0.060326867 0.064030245 0.30900002 4279519521
0.061132021 0.063823029 0.30800003 4279256347
0.062132403 0.063823029 0.30800003 4278993175
0.062927812 0.063615806 0.30700001 4278993175
0.063716725 0.063408591 0.30600002 4278993175
0.064710617 0.063408591 0.30600002 4278597906
0.065489776 0.063201368 0.30500001 4282478412
0.066480421 0.063201368 0.30500001 4287215254
0.067471065 0.063201368 0.30500001 4282543951
0.068237238 0.062994152 0.30400002 4279519010
0.069224633 0.062994152 0.30400002 4279913766
0.070212021 0.062994152 0.30400002 4279979559
0.071199417 0.062994152 0.30400002 4280111147
0.072186805 0.062994152 0.30400002 4280699180
0.073174201 0.062994152 0.30400002 4282605382
0.041664049 0.069033086 0.32800001 4279650596
0.042729393 0.069033086 0.32800001 4279519010
0.043661222 0.068822622 0.32700002 4279256347
0.044586543 0.068612151 0.32600001 4279256347
0.045645393 0.068612151 0.32600001 4279256347
0.046417713 0.068191215 0.324 4279387935
0.046737507 0.06713888 0.31900001 4279256349
0.047623854 0.066928416 0.31800002 4279256349
0.048656721 0.066928416 0.31800002 4279651109
0.04953333 0.066717945 0.317 4279256351
0.050562941 0.066717945 0.317 4279453728
0.051429808 0.066507481 0.31600001 4278924820
0.052456178 0.066507481 0.31600001 4278724109
0.0533133 0.066297017 0.31500003 4279844643
0.054336421 0.066297017 0.31500003 4279387685
0.055183794 0.066086553 0.31400001 4278795035
0.056203667 0.066086553 0.31400001 4278721547
0.057041299 0.065876089 0.31300002 4278656267
0.057872433 0.065665618 0.31200001 4278461705
0.058697078 0.065455154 0.31100002 4280109094
0.059515215 0.065244682 0.31 4279584803
0.060326867 0.065034218 0.30900002 4279519523
0.061330501 0.065034218 0.30900002 4279651107
0.062132403 0.064823754 0.30800003 4279585314
0.062927812 0.064613283 0.30700001 4279453728
0.063924946 0.064613283 0.30700001 4279190556
0.064710617 0.064402819 0.30600002 4279058968
0.065704502 0.064402819 0.30600002 4279453726
0.066480421 0.064192347 0.30500001 4279649563
0.067471065 0.064192347 0.30500001 4281162548
0.068461701 0.064192347 0.30500001 4286886541
0.069224633 0.063981883 0.30400002 4282675789
0.070212021 0.063981883 0.30400002 4280242731
0.071199417 0.063981883 0.30400002 4279716900
0.072186805 0.063981883 0.30400002 4279915047
0.073174201 0.063981883 0.30400002 4279980070
0.074405544 0.064192347 0.30500001 4280371750
0.038468018 0.070098795 0.32800001 4280694317
0.039533362 0.070098795 0.32800001 4280365350
0.040598705 0.070098795 0.32800001 4280300581
0.041664049 0.070098795 0.32800001 4279779615
0.042729393 0.070098795 0.32800001 4279452447
0.043661222 0.069885075 0.32700002 4279125533
0.044723313 0.069885075 0.32700002 4278993947
0.045645393 0.069671355 0.32600001 4279059740
0.046704244 0.069671355 0.32600001 4279059740
0.046737507 0.068175346 0.31900001 4279125535
0.047623854 0.067961633 0.31800002 4279257121
0.048656721 0.067961633 0.31800002 4279388707
0.04953333 0.067747913 0.317 4279257121
0.050562941 0.067747913 0.317 4279453217
0.051429808 0.067534201 0.31600001 4278726160
0.052456178 0.067534201 0.31600001 4278329867
0.053482544 0.067534201 0.31600001 4279779877
0.054336421 0.067320488 0.31500003 4279321377
0.055359542 0.067320488 0.31500003 4278200074
0.056203667 0.067106768 0.31400001 4278983437
0.057041299 0.066893056 0.31300002 4278917644
0.057872433 0.066679336 0.31200001 4278982924
0.058885813 0.066679336 0.31200001 4279048717
0.059707202 0.066465624 0.31100002 4278461966
0.060522098 0.066251904 0.31 4280306219
0.061330501 0.066038191 0.30900002 4279453215
0.062132403 0.065824479 0.30800003 4279650594
0.063132793 0.065824479 0.30800003 4279716387
0.063924946 0.065610759 0.30700001 4279585314
0.064710617 0.065397047 0.30600002 4279651105
0.065704502 0.065397047 0.30600002 4279058968
0.066480421 0.065183327 0.30500001 4278927636
0.067471065 0.065183327 0.30500001 4278993429
0.068461701 0.065183327 0.30500001 4279453213
0.069452338 0.065183327 0.30500001 4280702251
0.070212021 0.064969614 0.30400002 4286294917
0.071199417 0.064969614 0.30400002 4282347857
0.072186805 0.064969614 0.30400002 4279519523
0.073174201 0.064969614 0.30400002 4279520291
0.074405544 0.065183327 0.30500001 4279849254
0.07539618 0.065183327 0.30500001 4279980070
0.039533362 0.071164496 0.32800001 4280496938
0.040598705 0.071164496 0.32800001 4280365350
0.041664049 0.071164496 0.32800001 4280037922
0.042729393 0.071164496 0.32800001 4279908901
0.04379474 0.071164496 0.32800001 4279453476
0.04486008 0.071164496 0.32800001 4279453730
0.045925427 0.071164496 0.32800001 4279059742
0.046990775 0.071164496 0.32800001 4279125535
0.046737507 0.069211811 0.31900001 4279059488
0.047623854 0.06899485 0.31800002 4279125535
0.048656721 0.06899485 0.31800002 4279322912
0.04953333 0.068777882 0.317 4279257119
0.050562941 0.068777882 0.317 4279450398
0.051592559 0.068777882 0.317 4278592269
0.052456178 0.068560913 0.31600001 4279514141
0.053482544 0.068560913 0.31600001 4279845670
0.054336421 0.068343952 0.31500003 4279452193
0.055359542 0.068343952 0.31500003 4278197764
0.056203667 0.068126984 0.31400001 4279311887
0.057041299 0.067910023 0.31300002 4280364577
0.058057927 0.067910023 0.31300002 4279311119
0.058885813 0.067693055 0.31200001 4279310865
0.059707202 0.067476094 0.31100002 4278983437
0.060522098 0.067259125 0.31 4278852363
0.061330501 0.067042165 0.30900002 4278658316
0.062132403 0.066825204 0.30800003 4279779361
0.063132793 0.066825204 0.30800003 4279715619
0.063924946 0.066608228 0.30700001 4279649826
0.064922087 0.066608228 0.30700001 4279519006
0.065704502 0.066391267 0.30600002 4279782178
0.066698395 0.066391267 0.30600002 4279519006
0.067471065 0.066174299 0.30500001 4279190554
0.068461701 0.066174299 0.30500001 4278928152
0.069452338 0.066174299 0.30500001 4279059992
0.070442982 0.066174299 0.30500001 4278992662
0.071433619 0.066174299 0.30500001 4280241963
0.072424263 0.066174299 0.30500001 4285373311
0.073414907 0.066174299 0.30500001 4283006046
0.074405544 0.066174299 0.30500001 4280046383
0.07539618 0.066174299 0.30500001 4279388705
0.076386817 0.066174299 0.30500001 4279520291
0.046737507 0.070248276 0.31900001 4279453476
0.047623854 0.070028067 0.31800002 4279190558
0.048656721 0.070028067 0.31800002 4279453730
0.049689587 0.070028067 0.31800002 4279256351
0.050562941 0.069807842 0.317 4279648289
0.051592559 0.069807842 0.317 4278922004
0.052456178 0.069587633 0.31600001 4278395660
0.053482544 0.069587633 0.31600001 4279845670
0.054508913 0.069587633 0.31600001 4279450910
0.055359542 0.069367424 0.31500003 4278723341
0.056203667 0.069147207 0.31400001 4278852363
0.05722354 0.069147207 0.31400001 4280695337
0.058057927 0.068926997 0.31300002 4279511063
0.058885813 0.068706781 0.31200001 4280234018
0.059707202 0.068486564 0.31100002 4279312402
0.060522098 0.068266347 0.31 4279115023
0.061528981 0.068266347 0.31 4278983437
0.062334131 0.068046138 0.30900002 4278720779
0.063132793 0.067825928 0.30800003 4278723855
0.064133175 0.067825928 0.30800003 4280239912
0.064922087 0.067605712 0.30700001 4279386654
0.065704502 0.067385495 0.30600002 4279649826
0.066698395 0.067385495 0.30600002 4279782180
0.067471065 0.067165278 0.30500001 4279913764
0.068461701 0.067165278 0.30500001 4279913764
0.069452338 0.067165278 0.30500001 4279650592
0.070442982 0.067165278 0.30500001 4279058968
0.071433619 0.067165278 0.30500001 4279519519
0.072424263 0.067165278 0.30500001 4278664210
0.073414907 0.067165278 0.30500001 4279125281
0.074405544 0.067165278 0.30500001 4284058736
0.07539618 0.067165278 0.30500001 4281427786
0.076386817 0.067165278 0.30500001 4279521320
0.046737507 0.071284734 0.31900001 4279584033
0.047623854 0.071061276 0.31800002 4279584033
0.048656721 0.071061276 0.31800002 4279584803
0.049689587 0.071061276 0.31800002 4279650596
0.050562941 0.070837811 0.317 4278990361
0.051592559 0.070837811 0.317 4278593552
0.052622177 0.070837811 0.317 4279647262
0.053482544 0.070614345 0.31600001 4279977254
0.054508913 0.070614345 0.31600001 4279713568
0.055359542 0.070390888 0.31500003 4278393865
0.056203667 0.070167422 0.31400001 4279247121
0.05722354 0.070167422 0.31400001 4279445268
0.058057927 0.069943964 0.31300002 4280565032
0.058885813 0.069720492 0.31200001 4278787851
0.059707202 0.069497034 0.31100002 4279774233
0.060717333 0.069497034 0.31100002 4279840026
0.061528981 0.069273569 0.31 4278852363
0.062334131 0.069050103 0.30900002 4279049744
0.063337766 0.069050103 0.30900002 4279115023
0.064133175 0.068826646 0.30800003 4279180816
0.064922087 0.06860318 0.30700001 4278921234
0.06591922 0.06860318 0.30700001 4279713057
0.066698395 0.068379723 0.30600002 4279846692
0.06769228 0.068379723 0.30600002 4279978278
0.068461701 0.06815625 0.30500001 4280044580
0.069452338 0.06815625 0.30500001 4279913764
0.070442982 0.06815625 0.30500001 4279782178
0.071433619 0.06815625 0.30500001 4279519260
0.072424263 0.06815625 0.30500001 4278927634
0.073414907 0.06815625 0.30500001 4278928406
0.074405544 0.06815625 0.30500001 4279059740
0.07539618 0.06815625 0.30500001 4278993947
0.076386817 0.06815625 0.30500001 4280311604
0.046737507 0.072321199 0.31900001 4279908381
0.047623854 0.072094493 0.31800002 4280107813
0.048656721 0.072094493 0.31800002 4279911461
0.049689587 0.072094493 0.31800002 4279912231
0.05072245 0.072094493 0.31800002 4279846438
0.051592559 0.071867779 0.317 4279450910
0.052622177 0.071867779 0.317 4279252504
0.053482544 0.071641065 0.31600001 4279649059
0.054508913 0.071641065 0.31600001 4279714852
0.055359542 0.071414359 0.31500003 4278526478
0.056382664 0.071414359 0.31500003 4279180562
0.05722354 0.071187645 0.31400001 4279180303
0.058057927 0.070960931 0.31300002 4278720777
0.058885813 0.070734218 0.31200001 4280300577
0.059899185 0.070734218 0.31200001 4280498721
0.060717333 0.070507504 0.31100002 4278788105
0.061528981 0.07028079 0.31 4278721545
0.06253586 0.07028079 0.31 4281155886
0.063337766 0.070054084 0.30900002 4279049742
0.064133175 0.06982737 0.30800003 4279246609
0.065133564 0.06982737 0.30800003 4279180303
0.06591922 0.069600657 0.30700001 4279311889
0.066698395 0.06937395 0.30600002 4279052310
0.06769228 0.06937395 0.30600002 4280633907
0.068686165 0.06937395 0.30600002 4280176168
0.069452338 0.069147229 0.30500001 4280044582
0.070442982 0.069147229 0.30500001 4279912996
0.071433619 0.069147229 0.30500001 4279912994
0.072424263 0.069147229 0.30500001 4279453213
0.073414907 0.069147229 0.30500001 4279651105
0.074405544 0.069147229 0.30500001 4279058968
0.07539618 0.069147229 0.30500001 4278993175
0.076386817 0.069147229 0.30500001 4278994459
0.046737507 0.073357664 0.31900001 4280628262
0.047773615 0.073357664 0.31900001 4280694569
0.048656721 0.073127702 0.31800002 4280499754
0.049689587 0.073127702 0.31800002 4280303657
0.05072245 0.073127702 0.31800002 4280306221
0.051592559 0.07289774 0.317 4280043047
0.052622177 0.07289774 0.317 4279911461
0.053651791 0.07289774 0.317 4279846438
0.054508913 0.072667778 0.31600001 4279912485
0.055359542 0.072437823 0.31500003 4280241196
0.056382664 0.072437823 0.31500003 4279116820
0.05722354 0.072207861 0.31400001 4279180816
0.058057927 0.071977898 0.31300002 4279180303
0.059074551 0.071977898 0.31300002 4279376910
0.059899185 0.071747936 0.31200001 4278983947
0.060717333 0.071517974 0.31100002 4279049740
0.061727464 0.071517974 0.31100002 4278983947
0.06253586 0.071288012 0.31 4280104735
0.063337766 0.07105805 0.30900002 4279313682
0.064341396 0.07105805 0.30900002 4279379475
0.065133564 0.070828095 0.30800003 4279575574
0.06591922 0.070598125 0.30700001 4279509014
0.066916354 0.070598125 0.30700001 4279443221
0.06769228 0.070368171 0.30600002 4279312148
0.068686165 0.070368171 0.30600002 4279581469
0.069452338 0.070138201 0.30500001 4279978276
0.070442982 0.070138201 0.30500001 4280175655
0.071433619 0.070138201 0.30500001 4279978276
0.072424263 0.070138201 0.30500001 4280241446
0.073414907 0.070138201 0.30500001 4279847203
0.074405544 0.070138201 0.30500001 4280176166
0.07539618 0.070138201 0.30500001 4279847201
0.076386817 0.070138201 0.30500001 4279782178
0.047773615 0.074394129 0.31900001 4280496422
0.048656721 0.074160919 0.31800002 4283063633
0.049689587 0.074160919 0.31800002 4285894015
0.05072245 0.074160919 0.31800002 4285368438
0.051755317 0.074160919 0.31800002 4280435243
0.052622177 0.073927708 0.317 4280239399
0.053651791 0.073927708 0.317 4280240680
0.054508913 0.073694497 0.31600001 4279846692
0.055535283 0.073694497 0.31600001 4279846692
0.056382664 0.073461294 0.31500003 4279912231
0.05722354 0.073228076 0.31400001 4280437807
0.058243413 0.073228076 0.31400001 4280103200
0.059074551 0.072994873 0.31300002 4279115021
0.059899185 0.072761655 0.31200001 4279311119
0.060717333 0.072528452 0.31100002 4279311119
0.061727464 0.072528452 0.31100002 4279312400
0.06253586 0.072295234 0.31 4279444500
0.063542739 0.072295234 0.31 4279115023
0.064341396 0.072062023 0.30900002 4279247123
0.065133564 0.07182882 0.30800003 4278589961
0.066133946 0.07182882 0.30800003 4280300581
0.066916354 0.071595602 0.30700001 4279444502
0.067913495 0.071595602 0.30700001 4279509268
0.068686165 0.071362399 0.30600002 4280501036
0.069452338 0.07112918 0.30500001 4279778850
0.070442982 0.07112918 0.30500001 4278198278
0.071433619 0.07112918 0.30500001 4280172323
0.072424263 0.07112918 0.30500001 4280240678
0.073414907 0.07112918 0.30500001 4280438057
0.074405544 0.07112918 0.30500001 4280503848
0.07539618 0.07112918 0.30500001 4280241446
0.076386817 0.07112918 0.30500001 4279912994
0.052622177 0.074957669 0.317 4285236850
0.053651791 0.074957669 0.317 4281157936
0.054508913 0.07472121 0.31600001 4280108580
0.055535283 0.07472121 0.31600001 4279780899
0.056382664 0.074484758 0.31500003 4279912231
0.05722354 0.074248292 0.31400001 4279781158
0.058243413 0.074248292 0.31400001 4279846438
0.059074551 0.07401184 0.31300002 4280502573
0.059899185 0.073775373 0.31200001 4279840541
0.060912564 0.073775373 0.31200001 4279181330
0.061727464 0.073538914 0.31100002 4279311635
0.06253586 0.073302455 0.31 4279180816
0.063542739 0.073302455 0.31 4279180816
0.064341396 0.073065996 0.30900002 4280892716
0.065345034 0.073065996 0.30900002 4280172325
0.066133946 0.072829537 0.30800003 4279052560
0.066916354 0.072593078 0.30700001 4278786570
0.067913495 0.072593078 0.30700001 4278851851
0.068686165 0.072356619 0.30600002 4280568112
0.069680057 0.072356619 0.30600002 4280503086
0.070442982 0.07212016 0.30500001 4280568364
0.071433619 0.07212016 0.30500001 4279646494
0.072186805 0.071883701 0.30400002 4278658062
0.073174201 0.071883701 0.30400002 4279909664
0.074405544 0.07212016 0.30500001 4280109092
0.07539618 0.07212016 0.30500001 4280307241
0.076386817 0.07212016 0.30500001 4280110375
0.055359542 0.075508229 0.31500003 4280631079
0.056382664 0.075508229 0.31500003 4280437805
0.05722354 0.075268514 0.31400001 4279781158
0.058243413 0.075268514 0.31400001 4279846951
0.059074551 0.075028807 0.31300002 4279781158
0.059899185 0.074789092 0.31200001 4280043047
0.060912564 0.074789092 0.31200001 4280634670
0.061727464 0.074549392 0.31100002 4279774748
0.062737592 0.074549392 0.31100002 4278853135
0.063542739 0.074309677 0.31 4279180562
0.064341396 0.074069969 0.30900002 4279180816
0.065345034 0.074069969 0.30900002 4278656265
0.066133946 0.073830262 0.30800003 4281223216
0.067134328 0.073830262 0.30800003 4279116305
0.067913495 0.073590554 0.30700001 4279049744
0.068910629 0.073590554 0.30700001 4280305194
0.069680057 0.073350847 0.30600002 4280306219
0.070442982 0.073111132 0.30500001 4280372266
0.071433619 0.073111132 0.30500001 4280240680
0.072186805 0.072871432 0.30400002 4280174373
0.073174201 0.072871432 0.30400002 4280107815
0.073917635 0.072631717 0.303 4278198021
0.074901782 0.072631717 0.303 4280040737
0.075885922 0.072631717 0.303 4280240680
0.05722354 0.07628873 0.31400001 4280369450
0.058243413 0.07628873 0.31400001 4280109094
0.059074551 0.076045781 0.31300002 4279845922
0.059899185 0.075802818 0.31200001 4279912483
0.060912564 0.075802818 0.31200001 4279846690
0.061727464 0.075559862 0.31100002 4280109864
0.062737592 0.075559862 0.31100002 4280306219
0.063542739 0.075316899 0.31 4279643932
0.064549617 0.075316899 0.31 4279182098
0.065345034 0.075073943 0.30900002 4279246609
0.066348664 0.075073943 0.30900002 4279246094
0.067134328 0.074830994 0.30800003 4279312400
0.067913495 0.074588031 0.30700001 4280366372
0.068910629 0.074588031 0.30700001 4280568618
0.069680057 0.074345075 0.30600002 4280240680
0.07067395 0.074345075 0.30600002 4279844641
0.071433619 0.074102111 0.30500001 4278395912
0.072186805 0.073859155 0.30400002 4279250451
0.073174201 0.073859155 0.30400002 4280305446
0.073917635 0.073616199 0.303 4280305192
0.074901782 0.073616199 0.303 4280567594
0.075885922 0.073616199 0.303 4278789900
0.076616377 0.073373243 0.30200002 4279382809
0.077597275 0.073373243 0.30200002 4279978278
0.059899185 0.076816536 0.31200001 4280108578
0.060912564 0.076816536 0.31200001 4279912483
0.061727464 0.076570332 0.31100002 4279846692
0.062737592 0.076570332 0.31100002 4279912998
0.063542739 0.07632412 0.31 4279978278
0.064549617 0.07632412 0.31 4280503338
0.065345034 0.076077916 0.30900002 4280301090
0.066348664 0.076077916 0.30900002 4279443986
0.067134328 0.075831711 0.30800003 4279443988
0.068134718 0.075831711 0.30800003 4280827434
0.068910629 0.075585499 0.30700001 4280371750
0.069680057 0.075339295 0.30600002 4280174373
0.07067395 0.075339295 0.30600002 4278985482
0.071433619 0.075093083 0.30500001 4279313166
0.072424263 0.075093083 0.30500001 4279378191
0.073174201 0.074846886 0.30400002 4279312912
0.074161589 0.074846886 0.30400002 4280305192
0.074901782 0.074600674 0.303 4280436778
0.075885922 0.074600674 0.303 4280371498
0.076616377 0.07435447 0.30200002 4280436778
0.077597275 0.07435447 0.30200002 4278593041
0.078578167 0.07435447 0.30200002 4279317016
0.059899185 0.077830255 0.31200001 4283591510
0.060717333 0.077580802 0.31100002 4280434727
0.061727464 0.077580802 0.31100002 4280239912
0.06253586 0.077331342 0.31 4280109094
0.063542739 0.077331342 0.31 4280109094
0.064341396 0.077081889 0.30900002 4280306473
0.065345034 0.077081889 0.30900002 4280372266
0.066348664 0.077081889 0.30900002 4280240166
0.067134328 0.076832436 0.30800003 4279711002
0.068134718 0.076832436 0.30800003 4280501288
0.068910629 0.076582976 0.30700001 4280765995
0.069680057 0.076333523 0.30600002 4280371750
0.07067395 0.076333523 0.30600002 4279445781
0.071433619 0.076084062 0.30500001 4279378193
0.072424263 0.076084062 0.30500001 4279903256
0.073174201 0.07583461 0.30400002 4279640854
0.074161589 0.07583461 0.30400002 4281224241
0.074901782 0.075585149 0.303 4279318297
0.075885922 0.075585149 0.303 4278791953
0.076870069 0.075585149 0.303 4280502571
0.077597275 0.075335696 0.30200002 4281621054
0.078578167 0.075335696 0.30200002 4280765745
0.061727464 0.078591272 0.31100002 4283525717
0.06253586 0.078338563 0.31 4280500520
0.063542739 0.078338563 0.31 4280240166
0.064341396 0.078085862 0.30900002 4280109094
0.065345034 0.078085862 0.30900002 4280240680
0.066133946 0.077833161 0.30800003 4280240680
0.067134328 0.077833161 0.30800003 4280240680
0.067913495 0.077580452 0.30700001 4280240680
0.068910629 0.077580452 0.30700001 4279054609
0.069680057 0.077327751 0.30600002 4278987279
0.07067395 0.077327751 0.30600002 4280960044
0.071433619 0.077075042 0.30500001 4279840280
0.072424263 0.077075042 0.30500001 4279838231
0.073174201 0.076822333 0.30400002 4279377682
0.074161589 0.076822333 0.30400002 4279973408
0.074901782 0.076569624 0.303 4280697385
0.075885922 0.076569624 0.303 4280764462
0.076870069 0.076569624 0.303 4280698669
0.077597275 0.076316923 0.30200002 4280304424
0.078578167 0.076316923 0.30200002 4280568879
0.079559065 0.076316923 0.30200002 4280437291
0.06253586 0.079345785 0.31 4284181594
0.063337766 0.079089835 0.30900002 4284248924
0.064341396 0.079089835 0.30900002 4280368932
0.065133564 0.078833885 0.30800003 4280174373
0.066133946 0.078833885 0.30800003 4280109864
0.067134328 0.078833885 0.30800003 4280175657
0.067913495 0.078577928 0.30700001 4279978278
0.068910629 0.078577928 0.30700001 4280306473
0.069680057 0.078321978 0.30600002 4280634924
0.07067395 0.078321978 0.30600002 4280238118
0.071433619 0.078066014 0.30500001 4278920974
0.072424263 0.078066014 0.30500001 4280827688
0.073174201 0.077810064 0.30400002 4280697385
0.074161589 0.077810064 0.30400002 4280633135
0.075148985 0.077810064 0.30400002 4278856211
0.075885922 0.077554107 0.303 4280436780
0.076870069 0.077554107 0.303 4280634159
0.077597275 0.077298157 0.30200002 4278659084
0.078578167 0.077298157 0.30200002 4281093679
0.079559065 0.077298157 0.30200002 4279647516
0.080273278 0.077042207 0.30100003 4280173606
0.081250928 0.077042207 0.30100003 4280502571
0.082228571 0.077042207 0.30100003 4280634157
0.063337766 0.080093808 0.30900002 4284444252
0.064341396 0.080093808 0.30900002 4284049494
0.065133564 0.07983461 0.30800003 4282867271
0.066133946 0.07983461 0.30800003 4280632104
0.066916354 0.079575405 0.30700001 4280437545
0.067913495 0.079575405 0.30700001 4280240166
0.068910629 0.079575405 0.30700001 4280503852
0.069680057 0.079316199 0.30600002 4280109864
0.07067395 0.079316199 0.30600002 4280109610
0.071433619 0.079056993 0.30500001 4280306219
0.072424263 0.079056993 0.30500001 4280368680
0.073414907 0.079056993 0.30500001 4278987027
0.074161589 0.078797795 0.30400002 4280238631
0.075148985 0.078797795 0.30400002 4280699952
0.075885922 0.078538589 0.303 4279186713
0.076870069 0.078538589 0.303 4278791183
0.077854216 0.078538589 0.303 4280106014
0.078578167 0.078279383 0.30200002 4279645463
0.079559065 0.078279383 0.30200002 4280961323
0.080273278 0.078020185 0.30100003 4280896300
0.081250928 0.078020185 0.30100003 4279843358
0.082228571 0.078020185 0.30100003 4280896559
0.082929783 0.07776098 0.30000001 4280502571
0.083624512 0.077501781 0.29900002 4280305192
0.084595665 0.077501781 0.29900002 4279382555
0.085566819 0.077501781 0.29900002 4279053844
0.063337766 0.081097774 0.30900002 4284444252
0.064133175 0.080835328 0.30800003 4284444252
0.065133564 0.080835328 0.30800003 4284246873
0.06591922 0.080572866 0.30700001 4284444252
0.066916354 0.080572866 0.30700001 4283327820
0.067913495 0.080572866 0.30700001 4280369186
0.068686165 0.080310419 0.30600002 4280371752
0.069680057 0.080310419 0.30600002 4280043301
0.07067395 0.080310419 0.30600002 4280175657
0.071433619 0.080047965 0.30500001 4280307243
0.072424263 0.080047965 0.30500001 4280503852
0.073414907 0.080047965 0.30500001 4280568877
0.074161589 0.079785518 0.30400002 4280500520
0.075148985 0.079785518 0.30400002 4278329351
0.075885922 0.079523057 0.303 4280238883
0.076870069 0.079523057 0.303 4281225778
0.077854216 0.079523057 0.303 4280634411
0.078578167 0.07926061 0.30200002 4280370469
0.079559065 0.07926061 0.30200002 4281092909
0.080273278 0.078998163 0.30100003 4280765227
0.081250928 0.078998163 0.30100003 4281159218
0.081955381 0.078735702 0.30000001 4280172323
0.082929783 0.078735702 0.30000001 4280240428
0.083624512 0.078473255 0.29900002 4280438059
0.084595665 0.078473255 0.29900002 4280569645
0.085280634 0.078210801 0.29800001 4280240166
0.086248539 0.078210801 0.29800001 4280172325
0.087216437 0.078210801 0.29800001 4279251223
0.064133175 0.081836052 0.30800003 4284312666
0.065133564 0.081836052 0.30800003 4284246873
0.06591922 0.08157035 0.30700001 4284180567
0.066916354 0.08157035 0.30700001 4283852629
0.06769228 0.081304647 0.30600002 4283523664
0.068686165 0.081304647 0.30600002 4283131213
0.069680057 0.081304647 0.30600002 4280434727
0.07067395 0.081304647 0.30600002 4280239653
0.071433619 0.081038944 0.30500001 4280240164
0.072424263 0.081038944 0.30500001 4280503850
0.073414907 0.081038944 0.30500001 4280372264
0.074161589 0.080773242 0.30400002 4280634922
0.075148985 0.080773242 0.30400002 4280634409
0.075885922 0.080507539 0.303 4279842588
0.076870069 0.080507539 0.303 4278789388
0.077854216 0.080507539 0.303 4280896046
0.078578167 0.080241837 0.30200002 4280568618
0.079559065 0.080241837 0.30200002 4279646492
0.080273278 0.079976141 0.30100003 4279975457
0.081250928 0.079976141 0.30100003 4279514395
0.081955381 0.079710439 0.30000001 4280369704
0.082929783 0.079710439 0.30000001 4279777565
0.083624512 0.079444736 0.29900002 4280436008
0.084595665 0.079444736 0.29900002 4280436778
0.085280634 0.079179034 0.29800001 4280371498
0.086248539 0.079179034 0.29800001 4280503084
0.087216437 0.079179034 0.29800001 4280503084
0.087888427 0.078913331 0.29700002 4279843106
0.088853084 0.078913331 0.29700002 4278922258
0.09745492 0.077319123 0.29100001 4279651105
0.098400094 0.077319123 0.29100001 4279453980
0.099345259 0.077319123 0.29100001 4279453467
0.10029043 0.077319123 0.29100001 4279781662
0.1012356 0.077319123 0.29100001 4280109094
0.10182964 0.077053428 0.29000002 4280830768
0.06591922 0.082567826 0.30700001 4284312153
0.066698395 0.082298875 0.30600002 4284048981
0.06769228 0.082298875 0.30600002 4283917395
0.068686165 0.082298875 0.30600002 4283917395
0.069680057 0.082298875 0.30600002 4283588943
0.070442982 0.082029924 0.30500001 4282604099
0.071433619 0.082029924 0.30500001 4280762663
0.072424263 0.082029924 0.30500001 4280305446
0.073414907 0.082029924 0.30500001 4280240164
0.074161589 0.081760973 0.30400002 4280437543
0.075148985 0.081760973 0.30400002 4280700715
0.076136373 0.081760973 0.30400002 4280438057
0.076870069 0.081492022 0.303 4280568618
0.077854216 0.081492022 0.303 4280500520
0.078578167 0.081223071 0.30200002 4278855181
0.079559065 0.081223071 0.30200002 4280566313
0.080273278 0.080954127 0.30100003 4280633387
0.081250928 0.080954127 0.30100003 4280567594
0.081955381 0.080685169 0.30000001 4280764973
0.082929783 0.080685169 0.30000001 4280434725
0.083624512 0.080416225 0.29900002 4279842074
0.084595665 0.080416225 0.29900002 4279578904
0.085280634 0.080147266 0.29800001 4280501288
0.086248539 0.080147266 0.29800001 4280240166
0.087216437 0.080147266 0.29800001 4280634924
0.087888427 0.079878323 0.29700002 4280371500
0.088853084 0.079878323 0.29700002 4280568366
0.08981774 0.079878323 0.29700002 4280171041
0.096841417 0.078533567 0.29200003 4279190041
0.09745492 0.078264616 0.29100001 4279256601
0.098400094 0.078264616 0.29100001 4279585566
0.099345259 0.078264616 0.29100001 4279585566
0.10029043 0.078264616 0.29100001 4279716639
0.1012356 0.078264616 0.29100001 4279782178
0.10182964 0.077995665 0.29000002 4279650592
0.10277156 0.077995665 0.29000002 4280435495
0.10371348 0.077995665 0.29000002 4281223729
0.10465539 0.077995665 0.29000002 4284973167
0.06769228 0.083293103 0.30600002 4284048981
0.068686165 0.083293103 0.30600002 4283983188
0.069680057 0.083293103 0.30600002 4283851602
0.070442982 0.083020896 0.30500001 4283852115
0.071433619 0.083020896 0.30500001 4283457871
0.072424263 0.083020896 0.30500001 4283065420
0.073414907 0.083020896 0.30500001 4280500004
0.074161589 0.082748704 0.30400002 4280698667
0.075148985 0.082748704 0.30400002 4280371752
0.076136373 0.082748704 0.30400002 4280306471
0.076870069 0.082476497 0.303 4280372264
0.077854216 0.082476497 0.303 4280438059
0.078578167 0.082204305 0.30200002 4280371498
0.079559065 0.082204305 0.30200002 4280500520
0.080273278 0.081932105 0.30100003 4278987027
0.081250928 0.081932105 0.30100003 4280172323
0.081955381 0.081659898 0.30000001 4280633641
0.082929783 0.081659898 0.30000001 4280633641
0.083624512 0.081387706 0.29900002 4280303909
0.084595665 0.081387706 0.29900002 4280500004
0.085280634 0.081115499 0.29800001 4279710490
0.086248539 0.081115499 0.29800001 4280369702
0.087216437 0.081115499 0.29800001 4280369702
0.087888427 0.080843307 0.29700002 4280238629
0.088853084 0.080843307 0.29700002 4280633387
0.08981774 0.080843307 0.29700002 4280305192
0.090476729 0.0805711 0.296 4280633387
0.091438144 0.0805711 0.296 4280172323
0.092730135 0.080026701 0.294 4279186195
0.093685046 0.080026701 0.294 4280174371
0.094639964 0.080026701 0.294 4279978274
0.096841417 0.07948231 0.29200003 4279058455
0.097789824 0.07948231 0.29200003 4279059222
0.098400094 0.079210103 0.29100001 4279256601
0.099345259 0.079210103 0.29100001 4279453980
0.10029043 0.079210103 0.29100001 4279519773
0.1012356 0.079210103 0.29100001 4279453980
0.10182964 0.07893791 0.29000002 4279388187
0.10277156 0.07893791 0.29000002 4279847455
0.10371348 0.07893791 0.29000002 4279847455
0.10465539 0.07893791 0.29000002 4280632874
0.069680057 0.084287331 0.30600002 4283654477
0.070442982 0.084011875 0.30500001 4283654990
0.071433619 0.084011875 0.30500001 4283918162
0.072424263 0.084011875 0.30500001 4284312407
0.073414907 0.084011875 0.30500001 4284247127
0.074161589 0.083736435 0.30400002 4284248411
0.075148985 0.083736435 0.30400002 4281287726
0.076136373 0.083736435 0.30400002 4280830505
0.076870069 0.083460979 0.303 4280437030
0.077854216 0.083460979 0.303 4280437543
0.078578167 0.083185531 0.30200002 4280371752
0.079559065 0.083185531 0.30200002 4280503852
0.080273278 0.082910091 0.30100003 4280306219
0.081250928 0.082910091 0.30100003 4280436010
0.081955381 0.082634635 0.30000001 4279251223
0.082929783 0.082634635 0.30000001 4280171807
0.083904184 0.082634635 0.30000001 4280567846
0.084595665 0.082359187 0.29900002 4280567848
0.085566819 0.082359187 0.29900002 4280369702
0.086248539 0.082083732 0.29800001 4280632874
0.087216437 0.082083732 0.29800001 4279974176
0.087888427 0.081808291 0.29700002 4280697383
0.088853084 0.081808291 0.29700002 4279973660
0.08981774 0.081808291 0.29700002 4280108326
0.090476729 0.081532836 0.296 4280437291
0.091438144 0.081532836 0.296 4280502825
0.092087395 0.081257388 0.29500002 4280502825
0.093045548 0.081257388 0.29500002 4280566311
0.093685046 0.08098194 0.294 4279118865
0.094639964 0.08098194 0.294 4279447830
0.095594876 0.08098194 0.294 4280107297
0.096221395 0.080706492 0.29300001 4280043299
0.096841417 0.080431044 0.29200003 4279846688
0.097789824 0.080431044 0.29200003 4278993429
0.098738238 0.080431044 0.29200003 4278993427
0.099345259 0.080155596 0.29100001 4279190806
0.10029043 0.080155596 0.29100001 4279453980
0.1012356 0.080155596 0.29100001 4279256599
0.10182964 0.079880148 0.29000002 4279256599
0.10277156 0.079880148 0.29000002 4279256599
0.10371348 0.079880148 0.29000002 4279256599
0.10465539 0.079880148 0.29000002 4279781408
0.10559732 0.079880148 0.29000002 4280372262
0.07067395 0.085281551 0.30600002 4283982418
0.071433619 0.085002847 0.30500001 4284114004
0.072424263 0.085002847 0.30500001 4284376663
0.073414907 0.085002847 0.30500001 4284640348
0.074405544 0.085002847 0.30500001 4284773217
0.075148985 0.084724151 0.30400002 4284904803
0.076136373 0.084724151 0.30400002 4285036903
0.076870069 0.084445447 0.303 4282077755
0.077854216 0.084445447 0.303 4280501288
0.078578167 0.084166758 0.30200002 4280831020
0.079559065 0.084166758 0.30200002 4280437545
0.080273278 0.083888061 0.30100003 4280372266
0.081250928 0.083888061 0.30100003 4280569645
0.081955381 0.083609357 0.30000001 4280569131
0.082929783 0.083609357 0.30000001 4280566311
0.083904184 0.083609357 0.30000001 4279578902
0.084595665 0.083330661 0.29900002 4280238116
0.085566819 0.083330661 0.29900002 4280699180
0.086248539 0.083051965 0.29800001 4280437032
0.087216437 0.083051965 0.29800001 4280107043
0.087888427 0.082773268 0.29700002 4280500518
0.088853084 0.082773268 0.29700002 4280367905
0.08981774 0.082773268 0.29700002 4279777567
0.090476729 0.082494564 0.296 4279843873
0.091438144 0.082494564 0.296 4279777819
0.092087395 0.082215868 0.29500002 4280567848
0.093045548 0.082215868 0.29500002 4280370469
0.094003707 0.082215868 0.29500002 4280370469
0.094639964 0.081937164 0.294 4280895530
0.095594876 0.081937164 0.294 4279579156
0.096549787 0.081937164 0.294 4280238883
0.097173057 0.081658475 0.29300001 4280109094
0.097789824 0.081379779 0.29200003 4279781410
0.098738238 0.081379779 0.29200003 4279386650
0.099345259 0.081101075 0.29100001 4279058707
0.10029043 0.081101075 0.29100001 4279058707
0.1012356 0.081101075 0.29100001 4279124500
0.10218077 0.081101075 0.29100001 4279256086
0.10277156 0.080822378 0.29000002 4279256086
0.10371348 0.080822378 0.29000002 4279256599
0.10465539 0.080822378 0.29000002 4279256601
0.10559732 0.080822378 0.29000002 4279453467
0.10653923 0.080822378 0.29000002 4280500772
0.071433619 0.085993826 0.30500001 4284311383
0.072424263 0.085993826 0.30500001 4284508249
0.073414907 0.085993826 0.30500001 4284705628
0.074405544 0.085993826 0.30500001 4284969315
0.075148985 0.085711882 0.30400002 4284970085
0.076136373 0.085711882 0.30400002 4285233772
0.076870069 0.085429929 0.303 4285102700
0.077597275 0.085147984 0.30200002 4285367155
0.078578167 0.085147984 0.30200002 4283459156
0.079559065 0.085147984 0.30200002 4280302625
0.080273278 0.084866039 0.30100003 4280435749
0.081250928 0.084866039 0.30100003 4280240678
0.081955381 0.084584087 0.30000001 4280306471
0.082929783 0.084584087 0.30000001 4280503336
0.083624512 0.08430215 0.29900002 4280700202
0.084595665 0.08430215 0.29900002 4280763944
0.085566819 0.08430215 0.29900002 4278789900
0.086248539 0.084020197 0.29800001 4280039967
0.087216437 0.084020197 0.29800001 4280436262
0.087888427 0.083738253 0.29700002 4280369702
0.088853084 0.083738253 0.29700002 4280238116
0.08981774 0.083738253 0.29700002 4280501288
0.090476729 0.0834563 0.296 4279842336
0.091438144 0.0834563 0.296 4280565538
0.092399552 0.0834563 0.296 4279973914
0.093045548 0.083174355 0.29500002 4280305446
0.094003707 0.083174355 0.29500002 4280240166
0.094961874 0.083174355 0.29500002 4280173606
0.095594876 0.082892403 0.294 4280896559
0.096549787 0.082892403 0.294 4279315219
0.097173057 0.082610466 0.29300001 4280239653
0.098124713 0.082610466 0.29300001 4280044584
0.098738238 0.082328521 0.29200003 4280044584
0.09968666 0.082328521 0.29200003 4279912481
0.10029043 0.082046568 0.29100001 4279451930
0.1012356 0.082046568 0.29100001 4279189525
0.10218077 0.082046568 0.29100001 4279123732
0.10312594 0.082046568 0.29100001 4279255316
0.1040711 0.082046568 0.29100001 4279453465
0.10501627 0.082046568 0.29100001 4279321881
0.10596144 0.082046568 0.29100001 4279256088
0.10690661 0.082046568 0.29100001 4280238879
0.075148985 0.086699612 0.30400002 4285166696
0.076136373 0.086699612 0.30400002 4285429868
0.076870069 0.086414412 0.303 4285430384
0.077597275 0.086129218 0.30200002 4285365104
0.078578167 0.086129218 0.30200002 4285430897
0.079295628 0.085844025 0.30100003 4285496944
0.080273278 0.085844025 0.30100003 4284838497
0.081250928 0.085844025 0.30100003 4280960296
0.081955381 0.085558824 0.30000001 4280829735
0.082929783 0.085558824 0.30000001 4280633639
0.083624512 0.085273631 0.29900002 4280765225
0.084595665 0.085273631 0.29900002 4280765225
0.085566819 0.085273631 0.29900002 4280700202
0.086248539 0.08498843 0.29800001 4280633639
0.087216437 0.08498843 0.29800001 4279908381
0.088184342 0.08498843 0.29800001 4280171039
0.088853084 0.084703237 0.29700002 4280764460
0.08981774 0.084703237 0.29700002 4280567594
0.090476729 0.084418036 0.296 4279975457
0.091438144 0.084418036 0.296 4280171041
0.092399552 0.084418036 0.296 4279709977
0.093045548 0.084132843 0.29500002 4280172836
0.094003707 0.084132843 0.29500002 4280437291
0.094961874 0.084132843 0.29500002 4280502571
0.095920034 0.084132843 0.29500002 4279579416
0.096549787 0.083847642 0.294 4279644443
0.097504705 0.083847642 0.294 4280239401
0.098124713 0.083562449 0.29300001 4280109094
0.099076383 0.083562449 0.29300001 4280240680
0.09968666 0.083277255 0.29200003 4280043301
0.10063507 0.083277255 0.29200003 4280043301
0.1015835 0.083277255 0.29200003 4279911713
0.10218077 0.082992055 0.29100001 4279516955
0.10312594 0.082992055 0.29100001 4279189012
0.1040711 0.082992055 0.29100001 4279321109
0.10501627 0.082992055 0.29100001 4279321881
0.10596144 0.082992055 0.29100001 4279386904
0.10690661 0.082992055 0.29100001 4279516953
0.081250928 0.086822003 0.30100003 4285299563
0.081955381 0.086533554 0.30000001 4285300077
0.082929783 0.086533554 0.30000001 4281814581
0.083624512 0.086245112 0.29900002 4280895016
0.084595665 0.086245112 0.29900002 4280502825
0.085566819 0.086245112 0.29900002 4280634409
0.086248539 0.085956663 0.29800001 4280634409
0.087216437 0.085956663 0.29800001 4280568616
0.088184342 0.085956663 0.29800001 4280830255
0.088853084 0.085668221 0.29700002 4278987281
0.08981774 0.085668221 0.29700002 4279249939
0.090782404 0.085668221 0.29700002 4280238631
0.091438144 0.085379772 0.296 4280304424
0.092399552 0.085379772 0.296 4280238118
0.093360953 0.085379772 0.296 4280633387
0.094003707 0.08509133 0.29500002 4280502571
0.094961874 0.08509133 0.29500002 4280304676
0.095920034 0.08509133 0.29500002 4279249426
0.096549787 0.084802881 0.294 4280632876
0.097504705 0.084802881 0.294 4280502571
0.098124713 0.084514439 0.29300001 4280108580
0.099076383 0.084514439 0.29300001 4280240164
0.09968666 0.084225997 0.29200003 4280109092
0.10063507 0.084225997 0.29200003 4279977506
0.1015835 0.084225997 0.29200003 4280372264
0.10253191 0.084225997 0.29200003 4280437543
0.10312594 0.083937548 0.29100001 4279582746
0.1040711 0.083937548 0.29100001 4279452184
0.10501627 0.083937548 0.29100001 4279255318
0.10596144 0.083937548 0.29100001 4279255318
0.10690661 0.083937548 0.29100001 4279056402
0.082929783 0.087508276 0.30000001 4285036391
0.083624512 0.087216586 0.29900002 4284904805
0.084595665 0.087216586 0.29900002 4282471998
0.085566819 0.087216586 0.29900002 4281091112
0.086248539 0.086924888 0.29800001 4280633126
0.087216437 0.086924888 0.29800001 4280437032
0.088184342 0.086924888 0.29800001 4280634411
0.088853084 0.086633198 0.29700002 4280502825
0.08981774 0.086633198 0.29700002 4280763692
0.090782404 0.086633198 0.29700002 4279381271
0.091438144 0.0863415 0.296 4279644697
0.092399552 0.0863415 0.296 4280763690
0.093360953 0.0863415 0.296 4280304676
0.094322361 0.0863415 0.296 4280305446
0.094961874 0.08604981 0.29500002 4280238116
0.095920034 0.08604981 0.29500002 4279315219
0.096878193 0.08604981 0.29500002 4280632358
0.097504705 0.085758112 0.294 4280370469
0.098459609 0.085758112 0.294 4280239653
0.099076383 0.085466422 0.29300001 4280502823
0.10002805 0.085466422 0.29300001 4280502823
0.10097972 0.085466422 0.29300001 4280437030
0.1015835 0.085174732 0.29200003 4280371750
0.10253191 0.085174732 0.29200003 4280043299
0.10348033 0.085174732 0.29200003 4279845920
0.10442874 0.085174732 0.29200003 4279583000
0.10537716 0.085174732 0.29200003 4279583000
0.10596144 0.084883027 0.29100001 4279319574
0.10690661 0.084883027 0.29100001 4278990609
0.084595665 0.088188075 0.29900002 4284904294
0.085566819 0.088188075 0.29900002 4284312155
0.086248539 0.087893121 0.29800001 4283523664
0.087216437 0.087893121 0.29800001 4280696872
0.088184342 0.087893121 0.29800001 4280435749
0.088853084 0.087598182 0.29700002 4280437032
0.08981774 0.087598182 0.29700002 4280502825
0.090782404 0.087598182 0.29700002 4280764973
0.09174706 0.087598182 0.29700002 4280895276
0.092399552 0.087303236 0.296 4279711004
0.093360953 0.087303236 0.296 4279578391
0.094322361 0.087303236 0.296 4280105760
0.095283769 0.087303236 0.296 4279775770
0.095920034 0.087008297 0.29500002 4280235551
0.096878193 0.087008297 0.29500002 4280501542
0.097504705 0.086713351 0.294 4280502823
0.098459609 0.086713351 0.294 4280568616
0.099076383 0.086418413 0.29300001 4280437030
0.10002805 0.086418413 0.29300001 4280239651
0.10097972 0.086418413 0.29300001 4280437030
0.10193138 0.086418413 0.29300001 4280043299
0.10288304 0.086418413 0.29300001 4279977506
0.10348033 0.086123466 0.29200003 4279845918
0.10442874 0.086123466 0.29200003 4279582746
0.10537716 0.086123466 0.29200003 4279911451
0.10632557 0.086123466 0.29200003 4279516180
0.107274 0.086123466 0.29200003 4279318547
0.087216437 0.088861361 0.29800001 4283721045
0.088184342 0.088861361 0.29800001 4284050778
0.088853084 0.088563167 0.29700002 4280893479
0.08981774 0.088563167 0.29700002 4280434977
0.090782404 0.088563167 0.29700002 4280501540
0.09174706 0.088563167 0.29700002 4280699180
0.092399552 0.088264972 0.296 4280633387
0.093360953 0.088264972 0.296 4280631592
0.094322361 0.088264972 0.296 4279775516
0.095283769 0.088264972 0.296 4280236321
0.095920034 0.087966785 0.29500002 4280632104
0.096878193 0.087966785 0.29500002 4280436262
