# .PCD v0.7 - Point Cloud Data file format
VERSION 0.7
FIELDS x y z rgb
SIZE 4 4 4 4
TYPE F F F U
COUNT 1 1 1 1
WIDTH 1028
HEIGHT 1
VIEWPOINT 0 0 0 1 0 0 0
POINTS 1028
DATA ascii
0.018877678 0.027724281 0.48000002 4280428567
0.020436719 0.027724281 0.48000002 4280691221
0.021949936 0.027666522 0.47900003 4280756757
0.023505729 0.027666522 0.47900003 4281737490
0.02506152 0.027666522 0.47900003 4283375383
0.026561745 0.027608763 0.47800002 4284884248
0.028114289 0.027608763 0.47800002 4285343513
0.029666835 0.027608763 0.47800002 4286527530
0.031219378 0.027608763 0.47800002 4286198822
0.032771926 0.027608763 0.47800002 4285605404
0.034324467 0.027608763 0.47800002 4284948501
0.035877012 0.027608763 0.47800002 4284625189
-0.018732419 0.029588889 0.48500001 4285894530
-0.017157139 0.029588889 0.48500001 4285894015
-0.015581857 0.029588889 0.48500001 4284836446
-0.014006577 0.029588889 0.48500001 4284035884
-0.012405665 0.029527882 0.48400003 4287989883
-0.010811249 0.029466873 0.48300001 4286610029
-0.0092424639 0.029466873 0.48300001 4282983196
-0.0076736785 0.029466873 0.48300001 4282390289
-0.0060922545 0.029405866 0.48200002 4284960327
-0.0045267181 0.029405866 0.48200002 4286680451
-0.0029611809 0.029405866 0.48200002 4281876013
-0.001395644 0.029405866 0.48200002 4282533418
0.00016989285 0.029405866 0.48200002 4282796588
0.0017354296 0.029405866 0.48200002 4279440645
0.0033009665 0.029405866 0.48200002 4279046664
0.0048665032 0.029405866 0.48200002 4278586631
0.0064320406 0.029405866 0.48200002 4282139964
0.0079975771 0.029405866 0.48200002 4283784538
0.0095432736 0.029344859 0.48100004 4288719015
0.011105563 0.029344859 0.48100004 4286615937
0.012667852 0.029344859 0.48100004 4285827191
0.01423014 0.029344859 0.48100004 4278389512
0.015792429 0.029344859 0.48100004 4280363042
0.017354717 0.029344859 0.48100004 4281481521
0.018877678 0.02928385 0.48000002 4279112973
0.020436719 0.02928385 0.48000002 4280494358
0.021995761 0.02928385 0.48000002 4280296209
0.023505729 0.029222842 0.47900003 4280819216
0.0250092 0.029161833 0.47800002 4281800719
0.026561745 0.029161833 0.47800002 4284817685
0.028055474 0.029100826 0.47700003 4285343256
0.02960477 0.029100826 0.47700003 4286132770
0.031154066 0.029100826 0.47700003 4285672221
0.032703366 0.029100826 0.47700003 4285276180
0.034324467 0.029161833 0.47800002 4284685074
0.035877012 0.029161833 0.47800002 4283834390
-0.018732419 0.031164706 0.48500001 4285894015
-0.017157139 0.031164706 0.48500001 4287404428
-0.015581857 0.031164706 0.48500001 4283380264
-0.013977698 0.031100448 0.48400003 4284824626
-0.012405665 0.031100448 0.48400003 4287530616
-0.010811249 0.031036191 0.48300001 4283646003
-0.0092424639 0.031036191 0.48300001 4283375901
-0.0076736785 0.031036191 0.48300001 4282128146
-0.0060922545 0.030971935 0.48200002 4287858045
-0.0045267181 0.030971935 0.48200002 4286615425
-0.0029611809 0.030971935 0.48200002 4282138933
-0.001395644 0.030971935 0.48200002 4282204203
0.00016989285 0.030971935 0.48200002 4281217308
0.0017354296 0.030971935 0.48200002 4280429337
0.0033009665 0.030971935 0.48200002 4279508498
0.0048665032 0.030971935 0.48200002 4281350448
0.0064320406 0.030971935 0.48200002 4281942839
0.0079809846 0.030907677 0.48100004 4281676585
0.0095432736 0.030907677 0.48100004 4282466101
0.011105563 0.030907677 0.48100004 4282470466
0.012667852 0.030907677 0.48100004 4284576356
0.01423014 0.030907677 0.48100004 4286550144
0.015792429 0.030907677 0.48100004 4278455558
0.017354717 0.030907677 0.48100004 4280363042
0.018917007 0.030907677 0.48100004 4278652422
0.020436719 0.03084342 0.48000002 4279573006
0.021995761 0.03084342 0.48000002 4280165395
0.023505729 0.030779164 0.47900003 4280097805
0.0250092 0.030714905 0.47800002 4281276687
0.026561745 0.030714905 0.47800002 4283964433
0.028055474 0.030650649 0.47700003 4284554513
0.02960477 0.030650649 0.47700003 4284882451
0.031154066 0.030650649 0.47700003 4284948498
0.032703366 0.030650649 0.47700003 4284752146
0.034252662 0.030650649 0.47700003 4284160527
0.035801958 0.030650649 0.47700003 4282849807
-0.018693797 0.032673012 0.48400003 4285959808
-0.017121764 0.032673012 0.48400003 4284305475
-0.015549731 0.032673012 0.48400003 4285284918
-0.013977698 0.032673012 0.48400003 4285545008
-0.012380033 0.032605506 0.48300001 4288970868
-0.010811249 0.032605506 0.48300001 4283507483
-0.0092424639 0.032605506 0.48300001 4283176723
-0.007657791 0.032538 0.48200002 4282457111
-0.0060922545 0.032538 0.48200002 4287395184
-0.0045267181 0.032538 0.48200002 4286414451
-0.0029611809 0.032538 0.48200002 4287926405
-0.001395644 0.032538 0.48200002 4287660918
0.00016989285 0.032538 0.48200002 4280622351
0.0017354296 0.032538 0.48200002 4280297499
0.0033009665 0.032538 0.48200002 4278981387
0.0048665032 0.032538 0.48200002 4281942326
0.0064186961 0.032470495 0.48100004 4280758563
0.0079809846 0.032470495 0.48100004 4288189813
0.0095432736 0.032470495 0.48100004 4283847214
0.011105563 0.032470495 0.48100004 4280889118
0.012667852 0.032470495 0.48100004 4281812023
0.01423014 0.032470495 0.48100004 4281220399
0.015792429 0.032470495 0.48100004 4278916877
0.017354717 0.032470495 0.48100004 4281547314
0.018917007 0.032470495 0.48100004 4279836698
0.020436719 0.032402989 0.48000002 4279046664
0.021995761 0.032402989 0.48000002 4279967764
0.023505729 0.032335483 0.47900003 4279966735
0.0250092 0.032267977 0.47800002 4281146130
0.026506176 0.032200471 0.47700003 4283242768
0.028055474 0.032200471 0.47700003 4283702288
0.02960477 0.032200471 0.47700003 4284423699
0.031154066 0.032200471 0.47700003 4284751894
0.032703366 0.032200471 0.47700003 4283833360
0.034252662 0.032200471 0.47700003 4283176462
0.035801958 0.032200471 0.47700003 4282786590
0.037351254 0.032200471 0.47700003 4283316018
-0.018693797 0.03424558 0.48400003 4286024572
-0.017121764 0.03424558 0.48400003 4285352253
-0.015517603 0.034174822 0.48300001 4285214759
-0.013948818 0.034174822 0.48300001 4285279010
-0.012380033 0.034174822 0.48300001 4285739561
-0.010811249 0.034174822 0.48300001 4284160790
-0.009223328 0.034104068 0.48200002 4283372303
-0.007657791 0.034104068 0.48200002 4282520590
-0.0060922545 0.034104068 0.48200002 4283310108
-0.0045267181 0.034104068 0.48200002 4284426540
-0.0029611809 0.034104068 0.48200002 4284097062
-0.001395644 0.034104068 0.48200002 4284164390
0.00016989285 0.034104068 0.48200002 4280616960
0.0017354296 0.034104068 0.48200002 4279244811
0.0033009665 0.034104068 0.48200002 4278521090
0.0048564067 0.034033313 0.48100004 4282139703
0.0064186961 0.034033313 0.48100004 4280757532
0.0079809846 0.034033313 0.48100004 4281280269
0.0095432736 0.034033313 0.48100004 4281477902
0.011105563 0.034033313 0.48100004 4281084952
0.012667852 0.034033313 0.48100004 4280758048
0.01423014 0.034033313 0.48100004 4279443986
0.015792429 0.034033313 0.48100004 4280298530
0.017354717 0.034033313 0.48100004 4280758313
0.018917007 0.034033313 0.48100004 4279047695
0.020436719 0.033962559 0.48000002 4279770133
0.021995761 0.033962559 0.48000002 4279770387
0.023505729 0.033891805 0.47900003 4279966737
0.0250092 0.033821046 0.47800002 4280885011
0.026506176 0.033750292 0.47700003 4283243284
0.028055474 0.033750292 0.47700003 4283308561
0.029542705 0.033679534 0.47600001 4283308048
0.031088753 0.033679534 0.47600001 4283046159
0.032703366 0.033750292 0.47700003 4282981393
0.034252662 0.033750292 0.47700003 4282915346
0.035801958 0.033750292 0.47700003 4283250225
0.037351254 0.033750292 0.47700003 4282858549
-0.020182086 0.035670135 0.48200002 4285894015
-0.018655173 0.035744138 0.48300001 4284179801
-0.017086387 0.035744138 0.48300001 4285346861
-0.015517603 0.035744138 0.48300001 4285738791
-0.013948818 0.035744138 0.48300001 4290609526
-0.012354402 0.035670135 0.48200002 4285344803
-0.010788865 0.035670135 0.48200002 4285738791
-0.009223328 0.035670135 0.48200002 4283766548
-0.007657791 0.035670135 0.48200002 4282782735
-0.0060922545 0.035670135 0.48200002 4284163616
-0.0045267181 0.035670135 0.48200002 4284621341
-0.0029611809 0.035670135 0.48200002 4284555035
-0.001395644 0.035670135 0.48200002 4284161819
0.00016989285 0.035670135 0.48200002 4281075712
0.0017354296 0.035670135 0.48200002 4280232221
0.0033009665 0.035670135 0.48200002 4278191872
0.0048564067 0.035596132 0.48100004 4281350185
0.0064186961 0.035596132 0.48100004 4280560153
0.0079809846 0.035596132 0.48100004 4281149712
0.0095432736 0.035596132 0.48100004 4281412882
0.011105563 0.035596132 0.48100004 4280821265
0.012667852 0.035596132 0.48100004 4281875759
0.01423014 0.035596132 0.48100004 4280167198
0.015792429 0.035596132 0.48100004 4279772186
0.017354717 0.035596132 0.48100004 4280561186
0.018917007 0.035596132 0.48100004 4280824358
0.020436719 0.035522126 0.48000002 4280098582
0.021995761 0.035522126 0.48000002 4280098580
0.023505729 0.035448123 0.47900003 4280031760
0.0250092 0.035374116 0.47800002 4280753425
0.026506176 0.035300113 0.47700003 4283637524
0.028055474 0.035300113 0.47700003 4283637011
0.029542705 0.035226107 0.47600001 4282915086
0.031088753 0.035226107 0.47600001 4282718221
0.032703366 0.035300113 0.47700003 4282587664
0.034252662 0.035300113 0.47700003 4283247395
0.035801958 0.035300113 0.47700003 4283186742
-0.020182086 0.037236203 0.48200002 4286222210
-0.01861655 0.037236203 0.48200002 4283190851
-0.017051013 0.037236203 0.48200002 4285280039
-0.015485475 0.037236203 0.48200002 4285475619
-0.013919939 0.037236203 0.48200002 4287844167
-0.012354402 0.037236203 0.48200002 4285344033
-0.010788865 0.037236203 0.48200002 4284883480
-0.009223328 0.037236203 0.48200002 4283701261
-0.007657791 0.037236203 0.48200002 4283176462
-0.0060922545 0.037236203 0.48200002 4283439634
-0.0045267181 0.037236203 0.48200002 4284423701
-0.0029611809 0.037236203 0.48200002 4284422931
-0.001395644 0.037236203 0.48200002 4284226835
0.00016989285 0.037236203 0.48200002 4282125830
0.0017354296 0.037236203 0.48200002 4281809970
0.0033009665 0.037236203 0.48200002 4278652422
0.0048665032 0.037236203 0.48200002 4281087013
0.0064186961 0.037158951 0.48100004 4280758302
0.0079809846 0.037158951 0.48100004 4282137636
0.0095432736 0.037158951 0.48100004 4281808412
0.011105563 0.037158951 0.48100004 4280558608
0.012667852 0.037158951 0.48100004 4281810990
0.01423014 0.037158951 0.48100004 4281022505
0.015792429 0.037158951 0.48100004 4278520836
0.017354717 0.037158951 0.48100004 4280692518
0.018917007 0.037158951 0.48100004 4278783492
0.020436719 0.037081696 0.48000002 4279966735
0.021949936 0.037004441 0.47900003 4280295700
0.023505729 0.037004441 0.47900003 4280426257
0.0250092 0.036927186 0.47800002 4281673496
0.026506176 0.036849935 0.47700003 4283899667
0.028055474 0.036849935 0.47700003 4283637265
0.029542705 0.03677268 0.47600001 4283116575
0.031088753 0.03677268 0.47600001 4282459928
0.032703366 0.036849935 0.47700003 4282063887
0.034252662 0.036849935 0.47700003 4282064404
0.035801958 0.036849935 0.47700003 4283322182
-0.020182086 0.03880227 0.48200002 4286024831
-0.01861655 0.03880227 0.48200002 4283454025
-0.017051013 0.03880227 0.48200002 4284558628
-0.015485475 0.03880227 0.48200002 4284951074
-0.013919939 0.03880227 0.48200002 4284883482
-0.012354402 0.03880227 0.48200002 4284751896
-0.010788865 0.03880227 0.48200002 4283832077
-0.009223328 0.03880227 0.48200002 4283833360
-0.007657791 0.03880227 0.48200002 4283438862
-0.0060922545 0.03880227 0.48200002 4283767827
-0.0045267181 0.03880227 0.48200002 4284030485
-0.0029611809 0.03880227 0.48200002 4284227351
-0.001395644 0.03880227 0.48200002 4283899413
0.00016989285 0.03880227 0.48200002 4283836448
0.0017354296 0.03880227 0.48200002 4279636237
0.0033009665 0.03880227 0.48200002 4279046410
0.0048665032 0.03880227 0.48200002 4278783492
0.0064320406 0.03880227 0.48200002 4281809970
0.0079809846 0.038721766 0.48100004 4280757530
0.0095432736 0.038721766 0.48100004 4280625944
0.011105563 0.038721766 0.48100004 4281942574
0.012667852 0.038721766 0.48100004 4281943089
0.01423014 0.038721766 0.48100004 4280363292
0.015792429 0.038721766 0.48100004 4281943609
0.017354717 0.038721766 0.48100004 4281218862
0.018877678 0.038641263 0.48000002 4279440652
0.020436719 0.038641263 0.48000002 4280624149
0.021949936 0.038560763 0.47900003 4280624147
0.023456655 0.038480259 0.47800002 4281149460
0.0250092 0.038480259 0.47800002 4282261779
0.026506176 0.038399756 0.47700003 4284359704
0.028055474 0.038399756 0.47700003 4283637778
0.02960477 0.038399756 0.47700003 4282002711
0.031154066 0.038399756 0.47700003 4282003224
0.032703366 0.038399756 0.47700003 4281539341
0.034252662 0.038399756 0.47700003 4281670677
0.035877012 0.038480259 0.47800002 4286353537
-0.020140216 0.040284585 0.48100004 4285894017
-0.018577926 0.040284585 0.48100004 4285233772
-0.017015638 0.040284585 0.48100004 4283705636
-0.015485475 0.040368337 0.48200002 4284295202
-0.013919939 0.040368337 0.48200002 4284425505
-0.012354402 0.040368337 0.48200002 4284096280
-0.010788865 0.040368337 0.48200002 4283964692
-0.009223328 0.040368337 0.48200002 4284293657
-0.007657791 0.040368337 0.48200002 4284030739
-0.0060922545 0.040368337 0.48200002 4283899153
-0.0045267181 0.040368337 0.48200002 4282717969
-0.0029611809 0.040368337 0.48200002 4282984993
-0.001395644 0.040368337 0.48200002 4282394400
0.00016989285 0.040368337 0.48200002 4283119405
0.0017354296 0.040368337 0.48200002 4280821274
0.0033009665 0.040368337 0.48200002 4279309066
0.0048665032 0.040368337 0.48200002 4278914824
0.0064320406 0.040368337 0.48200002 4279046410
0.0079975771 0.040368337 0.48200002 4278980099
0.0095631136 0.040368337 0.48200002 4279178248
0.011105563 0.040284585 0.48100004 4278849285
0.012667852 0.040284585 0.48100004 4278914824
0.01423014 0.040284585 0.48100004 4280757798
0.015792429 0.040284585 0.48100004 4280889897
0.017354717 0.040284585 0.48100004 4279703570
0.018877678 0.040200833 0.48000002 4280555022
0.020436719 0.040200833 0.48000002 4281805080
0.021949936 0.040117081 0.47900003 4281345812
0.023456655 0.040033329 0.47800002 4281804308
0.0250092 0.040033329 0.47800002 4283113749
0.026506176 0.039949577 0.47700003 4284162325
0.028055474 0.039949577 0.47700003 4283377173
0.02960477 0.039949577 0.47700003 4281609236
0.031154066 0.039949577 0.47700003 4281345810
0.032703366 0.039949577 0.47700003 4281670929
0.034252662 0.039949577 0.47700003 4283844413
0.035877012 0.040033329 0.47800002 4286025085
-0.020140216 0.041847404 0.48100004 4285894530
-0.018577926 0.041847404 0.48100004 4286354568
-0.017015638 0.041847404 0.48100004 4284371018
-0.015453348 0.041847404 0.48100004 4283641901
-0.01389106 0.041847404 0.48100004 4283640356
-0.012354402 0.041934405 0.48200002 4283046936
-0.010788865 0.041934405 0.48200002 4283441178
-0.009223328 0.041934405 0.48200002 4284492320
-0.007657791 0.041934405 0.48200002 4284096278
-0.0060922545 0.041934405 0.48200002 4283964179
-0.0045267181 0.041934405 0.48200002 4288120440
-0.0029611809 0.041934405 0.48200002 4286350966
-0.001395644 0.041934405 0.48200002 4286811519
0.00017024532 0.042021401 0.48300001 4281348388
0.0017390301 0.042021401 0.48300001 4281940261
0.0033078149 0.042021401 0.48300001 4279572231
0.0048765996 0.042021401 0.48300001 4279177226
0.0064320406 0.041934405 0.48200002 4278849031
0.0079975771 0.041934405 0.48200002 4278716675
0.0095631136 0.041934405 0.48200002 4280296477
0.011128651 0.041934405 0.48200002 4278585089
0.012667852 0.041847404 0.48100004 4283323725
0.01423014 0.041847404 0.48100004 4279836698
0.015792429 0.041847404 0.48100004 4278783240
0.017354717 0.041847404 0.48100004 4281800465
0.018877678 0.0417604 0.48000002 4287915866
0.020436719 0.0417604 0.48000002 4284099872
0.021949936 0.0416734 0.47900003 4282394389
0.023456655 0.041586399 0.47800002 4282720272
0.0250092 0.041586399 0.47800002 4283965206
0.026506176 0.041499399 0.47700003 4283768597
0.028055474 0.041499399 0.47700003 4282721299
0.02960477 0.041499399 0.47700003 4281411857
0.031154066 0.041499399 0.47700003 4281542673
0.032771926 0.041586399 0.47800002 4282460191
0.034324467 0.041586399 0.47800002 4281280029
0.035877012 0.041586399 0.47800002 4285630845
-0.018577926 0.043410223 0.48100004 4285894017
-0.017015638 0.043410223 0.48100004 4287075724
-0.015453348 0.043410223 0.48100004 4283914322
-0.013919939 0.043500472 0.48200002 4283380782
-0.012354402 0.043500472 0.48200002 4282720797
-0.010788865 0.043500472 0.48200002 4285815636
-0.009223328 0.043500472 0.48200002 4285291089
-0.007657791 0.043500472 0.48200002 4285281068
-0.0060922545 0.043500472 0.48200002 4284358939
-0.0045267181 0.043500472 0.48200002 4282785045
-0.0029611809 0.043500472 0.48200002 4286940277
-0.001395644 0.043500472 0.48200002 4285694837
0.00017024532 0.043590721 0.48300001 4284641122
0.0017390301 0.043590721 0.48300001 4281677862
0.0033078149 0.043590721 0.48300001 4281809702
0.0048765996 0.043590721 0.48300001 4280953884
0.0064453846 0.043590721 0.48300001 4278782465
0.0080141686 0.043590721 0.48300001 4278585859
0.0095631136 0.043500472 0.48200002 4281547314
0.011128651 0.043500472 0.48200002 4279308814
0.012694187 0.043500472 0.48200002 4278979847
0.01423014 0.043410223 0.48100004 4279766792
0.015792429 0.043410223 0.48100004 4282129430
0.017318636 0.043319974 0.48000002 4284818457
0.018877678 0.043319974 0.48000002 4284882451
0.020394143 0.043229725 0.47900003 4285672994
0.021949936 0.043229725 0.47900003 4285412390
0.023456655 0.043139473 0.47800002 4284951839
0.0250092 0.043139473 0.47800002 4284817687
0.026561745 0.043139473 0.47800002 4283245333
0.028055474 0.043049224 0.47700003 4281804049
0.02960477 0.043049224 0.47700003 4280951052
0.031219378 0.043139473 0.47800002 4281869074
0.032771926 0.043139473 0.47800002 4283382831
0.034324467 0.043139473 0.47800002 4281412898
0.035877012 0.043139473 0.47800002 4285565565
-0.017015638 0.044973042 0.48100004 4286091396
-0.015453348 0.044973042 0.48100004 4286814349
-0.013919939 0.045066539 0.48200002 4282727477
-0.012354402 0.045066539 0.48200002 4282591266
-0.010788865 0.045066539 0.48200002 4282923059
-0.009223328 0.045066539 0.48200002 4287204226
-0.007657791 0.045066539 0.48200002 4283574050
-0.0060922545 0.045066539 0.48200002 4284492068
-0.0045267181 0.045066539 0.48200002 4284490525
-0.0029611809 0.045066539 0.48200002 4285284666
-0.001395644 0.045066539 0.48200002 4285826423
0.00016989285 0.045066539 0.48200002 4285629560
0.0017390301 0.045160037 0.48300001 4281218601
0.0033078149 0.045160037 0.48300001 4281217054
0.0048765996 0.045160037 0.48300001 4281348120
0.0064453846 0.045160037 0.48300001 4281479706
0.0080141686 0.045160037 0.48300001 4281217054
0.0095829545 0.045160037 0.48300001 4280822298
0.011128651 0.045066539 0.48200002 4281282849
0.012694187 0.045066539 0.48200002 4280624149
0.01423014 0.044973042 0.48100004 4282654229
0.015792429 0.044973042 0.48100004 4284097816
0.017318636 0.044879541 0.48000002 4284815888
0.018877678 0.044879541 0.48000002 4285605404
0.020394143 0.044786043 0.47900003 4285736477
0.021949936 0.044786043 0.47900003 4285604891
0.023456655 0.044692542 0.47800002 4285211416
0.0250092 0.044692542 0.47800002 4284488720
0.026561745 0.044692542 0.47800002 4282130963
0.028114289 0.044692542 0.47800002 4281081870
0.029666835 0.044692542 0.47800002 4281081357
0.031219378 0.044692542 0.47800002 4282655256
0.032771926 0.044692542 0.47800002 4281936414
0.034324467 0.044692542 0.47800002 4280427290
0.035877012 0.044692542 0.47800002 4286091396
-0.015453348 0.046535861 0.48100004 4285959810
-0.013919939 0.046632607 0.48200002 4286747271
-0.012354402 0.046632607 0.48200002 4282861634
-0.010788865 0.046632607 0.48200002 4281670943
-0.009223328 0.046632607 0.48200002 4287530881
-0.007657791 0.046632607 0.48200002 4286215017
-0.0060922545 0.046632607 0.48200002 4284166187
-0.0045267181 0.046632607 0.48200002 4284752927
-0.0029611809 0.046632607 0.48200002 4284818207
-0.001395644 0.046632607 0.48200002 4285684050
0.00016989285 0.046632607 0.48200002 4286218867
0.0017354296 0.046632607 0.48200002 4280888866
0.0033009665 0.046632607 0.48200002 4281084700
0.0048765996 0.046729356 0.48300001 4281150228
0.0064453846 0.046729356 0.48300001 4281150228
0.0080141686 0.046729356 0.48300001 4281019157
0.0095829545 0.046729356 0.48300001 4280953364
0.011128651 0.046632607 0.48200002 4280887571
0.012694187 0.046632607 0.48200002 4281084435
0.01423014 0.046535861 0.48100004 4282654994
0.015792429 0.046535861 0.48100004 4283637778
0.017318636 0.046439111 0.48000002 4285144853
0.018877678 0.046439111 0.48000002 4285407512
0.020394143 0.046342365 0.47900003 4285801500
0.021949936 0.046342365 0.47900003 4285538328
0.023456655 0.046245612 0.47800002 4285145623
0.0250092 0.046245612 0.47800002 4284030224
0.026561745 0.046245612 0.47800002 4281343498
0.028114289 0.046245612 0.47800002 4280818698
0.029666835 0.046245612 0.47800002 4282194705
0.031219378 0.046245612 0.47800002 4282786328
0.032771926 0.046245612 0.47800002 4280424720
0.034324467 0.046245612 0.47800002 4281677357
0.035877012 0.046245612 0.47800002 4286024833
-0.017015638 0.04809868 0.48100004 4285893764
-0.015485475 0.048198674 0.48200002 4285893764
-0.013919939 0.048198674 0.48200002 4286288005
-0.012354402 0.048198674 0.48200002 4286551177
-0.010788865 0.048198674 0.48200002 4282529334
-0.009223328 0.048198674 0.48200002 4282591275
-0.007657791 0.048198674 0.48200002 4287138431
-0.0060922545 0.048198674 0.48200002 4284177487
-0.0045267181 0.048198674 0.48200002 4285148455
-0.0029550374 0.04809868 0.48100004 4285015584
-0.0013927486 0.04809868 0.48100004 4285014816
0.00016954038 0.04809868 0.48100004 4285084207
0.0017318293 0.04809868 0.48100004 4285623904
0.003294118 0.04809868 0.48100004 4280558356
0.0048765996 0.048298672 0.48300001 4280558356
0.0064453846 0.048298672 0.48300001 4280953366
0.0080141686 0.048298672 0.48300001 4280887571
0.0095829545 0.048298672 0.48300001 4280887569
0.011128651 0.048198674 0.48200002 4280821263
0.012694187 0.048198674 0.48200002 4280952849
0.01423014 0.04809868 0.48100004 4282067221
0.015792429 0.04809868 0.48100004 4283705368
0.017318636 0.047998678 0.48000002 4285276439
0.018877678 0.047998678 0.48000002 4285735707
0.020394143 0.047898684 0.47900003 4285932316
0.021949936 0.047898684 0.47900003 4285077779
0.023456655 0.047798686 0.47800002 4285145627
0.0250092 0.047798686 0.47800002 4284750869
0.026561745 0.047798686 0.47800002 4283573268
0.028114289 0.047798686 0.47800002 4282784784
0.029666835 0.047798686 0.47800002 4283047186
0.031219378 0.047798686 0.47800002 4283706399
0.032771926 0.047798686 0.47800002 4280359440
0.034324467 0.047798686 0.47800002 4280757282
-0.017015638 0.049661495 0.48100004 4285959810
-0.015485475 0.049764741 0.48200002 4285959810
-0.013919939 0.049764741 0.48200002 4285959810
-0.012354402 0.049764741 0.48200002 4285959810
-0.010788865 0.049764741 0.48200002 4287009929
-0.009223328 0.049764741 0.48200002 4282135855
-0.007657791 0.049764741 0.48200002 4283185461
-0.0060796151 0.049661495 0.48100004 4286743671
-0.0045173266 0.049661495 0.48100004 4284962376
-0.0029550374 0.049661495 0.48100004 4284624167
-0.0013927486 0.049661495 0.48100004 4285277470
0.0001691879 0.049558248 0.48000002 4285145884
0.0017282286 0.049558248 0.48000002 4284818720
0.0032872695 0.049558248 0.48000002 4286204996
0.0048765996 0.049867988 0.48300001 4284040761
0.0064453846 0.049867988 0.48300001 4281146382
0.0080141686 0.049867988 0.48300001 4281279247
0.0095829545 0.049867988 0.48300001 4281477396
0.011128651 0.049764741 0.48200002 4281805845
0.012694187 0.049764741 0.48200002 4281410574
0.01423014 0.049661495 0.48100004 4282523147
0.015792429 0.049661495 0.48100004 4284491288
0.017318636 0.049558248 0.48000002 4285538580
0.018877678 0.049558248 0.48000002 4285932568
0.020394143 0.049455002 0.47900003 4285997852
0.021949936 0.049455002 0.47900003 4285405976
0.023456655 0.049351756 0.47800002 4286659639
0.0250092 0.049351756 0.47800002 4285341721
0.026561745 0.049351756 0.47800002 4284948503
0.028114289 0.049351756 0.47800002 4284294425
0.029666835 0.049351756 0.47800002 4283244311
0.031219378 0.049351756 0.47800002 4284036911
0.032771926 0.049351756 0.47800002 4280229657
0.034324467 0.049351756 0.47800002 4280823853
-0.015485475 0.051330809 0.48200002 4285894017
-0.013919939 0.051330809 0.48200002 4286157189
-0.012354402 0.051330809 0.48200002 4285959810
-0.010788865 0.051330809 0.48200002 4285762431
-0.009223328 0.051330809 0.48200002 4286944650
-0.007657791 0.051330809 0.48200002 4282263334
-0.0060796151 0.051224314 0.48100004 4285090378
-0.0045173266 0.051224314 0.48100004 4286349683
-0.0029488937 0.051117815 0.48000002 4285160271
-0.001389853 0.051117815 0.48000002 4285146654
0.00016883542 0.051011324 0.47900003 4286001193
0.0017246283 0.051011324 0.47900003 4285606176
0.003280421 0.051011324 0.47900003 4285539100
0.0048160208 0.05079833 0.47700003 4285540385
0.0064453846 0.051437303 0.48300001 4285409826
0.0080141686 0.051437303 0.48300001 4285279523
0.0095829545 0.051437303 0.48300001 4284556570
0.011128651 0.051330809 0.48200002 4284490775
0.012694187 0.051330809 0.48200002 4284818970
0.014259725 0.051330809 0.48200002 4285277468
0.015792429 0.051224314 0.48100004 4285539100
0.017318636 0.051117815 0.48000002 4285933340
0.018877678 0.051117815 0.48000002 4285801754
0.020394143 0.051011324 0.47900003 4285669398
0.021949936 0.051011324 0.47900003 4285471767
0.023505729 0.051011324 0.47900003 4285802272
0.02506152 0.051011324 0.47900003 4285340951
0.026561745 0.050904825 0.47800002 4284553488
0.028173108 0.051011324 0.47900003 4284358937
0.029728901 0.051011324 0.47900003 4283246877
0.031284694 0.051011324 0.47900003 4281803799
0.032771926 0.050904825 0.47800002 4279180051
0.034324467 0.050904825 0.47800002 4285234551
-0.013919939 0.052896876 0.48200002 4285893764
-0.012380033 0.053006619 0.48300001 4285762178
-0.010811249 0.053006619 0.48300001 4285893764
-0.009223328 0.052896876 0.48200002 4285893764
-0.007657791 0.052896876 0.48200002 4286216050
-0.0060796151 0.052787133 0.48100004 4283248944
-0.0045079347 0.052677386 0.48000002 4284035630
-0.0029488937 0.052677386 0.48000002 4284427558
-0.0013869575 0.052567642 0.47900003 4285606174
0.00016883542 0.052567642 0.47900003 4286460965
0.0017210278 0.052457895 0.47800002 4285670168
0.0032735725 0.052457895 0.47800002 4285800984
0.0048059244 0.052238405 0.47600001 4286000162
0.0063519734 0.052238405 0.47600001 4285606174
0.0080141686 0.053006619 0.48300001 4285344799
0.0095631136 0.052896876 0.48200002 4285343261
0.011128651 0.052896876 0.48200002 4285540381
0.012694187 0.052896876 0.48200002 4286000162
0.014259725 0.052896876 0.48200002 4285736990
0.015792429 0.052787133 0.48100004 4285079830
0.017354717 0.052787133 0.48100004 4284093964
0.018877678 0.052677386 0.48000002 4284750867
0.020436719 0.052677386 0.48000002 4285144855
0.021949936 0.052567642 0.47900003 4285210133
0.023505729 0.052567642 0.47900003 4285078547
0.02506152 0.052567642 0.47900003 4284815888
0.026617315 0.052567642 0.47900003 4283766284
0.028173108 0.052567642 0.47900003 4283373071
0.029728901 0.052567642 0.47900003 4282460193
0.031284694 0.052567642 0.47900003 4285492066
0.032771926 0.052457895 0.47800002 4284906604
0.034324467 0.052457895 0.47800002 4284972143
-0.009223328 0.054462943 0.48200002 4285894017
-0.0076419036 0.054349951 0.48100004 4286089341
-0.0060669756 0.054236956 0.48000002 4282400310
-0.0045079347 0.054236956 0.48000002 4285218105
-0.0029427505 0.05412396 0.47900003 4285083689
-0.0013840619 0.054010965 0.47800002 4285803037
0.00016848295 0.054010965 0.47800002 4285342486
0.0017174273 0.053897973 0.47700003 4285407764
0.0032667241 0.053897973 0.47700003 4285538582
0.0048059244 0.053784978 0.47600001 4285079830
0.0063519734 0.053784978 0.47600001 4284555546
0.0080141686 0.054575935 0.48300001 4284162587
0.0095829545 0.054575935 0.48300001 4284228378
0.011128651 0.054462943 0.48200002 4284557083
0.012720523 0.054575935 0.48300001 4283899667
0.014259725 0.054462943 0.48200002 4282324233
0.015825262 0.054462943 0.48200002 4281405961
0.017354717 0.054349951 0.48100004 4281142017
0.018917007 0.054349951 0.48100004 4283440915
0.020436719 0.054236956 0.48000002 4284357138
0.021995761 0.054236956 0.48000002 4284554517
0.023554802 0.054236956 0.48000002 4284358421
0.02506152 0.05412396 0.47900003 4284161812
0.026617315 0.05412396 0.47900003 4283176462
0.028173108 0.05412396 0.47900003 4282784534
0.029728901 0.05412396 0.47900003 4282791984
0.031284694 0.05412396 0.47900003 4285822571
0.032909047 0.054236956 0.48000002 4284708971
0.034468085 0.054236956 0.48000002 4284709225
-0.0076419036 0.055912767 0.48100004 4285959040
-0.0060543362 0.055680282 0.47900003 4286616709
-0.0044985432 0.055680282 0.47900003 4284958529
-0.0029366068 0.055564038 0.47800002 4284557861
-0.0013840619 0.055564038 0.47800002 4285015066
0.00016813047 0.055447794 0.47700003 4285475099
0.0017174273 0.055447794 0.47700003 4285080084
0.0032667241 0.055447794 0.47700003 4284815888
0.0048059244 0.055331551 0.47600001 4283963150
0.0063386289 0.05521531 0.47500002 4282913290
0.0080141686 0.056145251 0.48300001 4281209611
0.0095829545 0.056145251 0.48300001 4280619273
0.011151739 0.056145251 0.48300001 4280488716
0.01274686 0.056261495 0.48400003 4280226057
0.014289309 0.056145251 0.48300001 4279832587
0.015825262 0.056029011 0.48200002 4279832587
0.017390797 0.056029011 0.48200002 4280290308
0.018917007 0.055912767 0.48100004 4282786842
0.020479295 0.055912767 0.48100004 4283243284
0.021995761 0.055796523 0.48000002 4283637013
0.023554802 0.055796523 0.48000002 4283242768
0.02511384 0.055796523 0.48000002 4282980112
0.026672881 0.055796523 0.48000002 4282719252
0.028231923 0.055796523 0.48000002 4282920229
0.029790964 0.055796523 0.48000002 4282729271
0.031350002 0.055796523 0.48000002 4283786324
0.032909047 0.055796523 0.48000002 4284577639
-0.0060543362 0.057236601 0.47900003 4285959040
-0.0044891518 0.057117108 0.47800002 4285755236
-0.0029366068 0.057117108 0.47800002 4283970604
-0.0013840619 0.057117108 0.47800002 4284622622
0.00016813047 0.056997616 0.47700003 4284555546
0.0017174273 0.056997616 0.47700003 4284490007
0.0032598756 0.056878123 0.47600001 4283898640
0.0048059244 0.056878123 0.47600001 4283176462
0.0063386289 0.056758635 0.47500002 4282718221
0.0080141686 0.057714567 0.48300001 4281210896
0.0095829545 0.057714567 0.48300001 4280619786
0.011151739 0.057714567 0.48300001 4280423436
0.01274686 0.057834059 0.48400003 4280358413
0.014318894 0.057834059 0.48400003 4280489231
0.015858093 0.057714567 0.48300001 4280882958
0.017390797 0.057595074 0.48200002 4281669392
0.018956335 0.057595074 0.48200002 4281866512
0.020479295 0.057475585 0.48100004 4282852635
0.022041585 0.057475585 0.48100004 4282654742
0.023603875 0.057475585 0.48100004 4282653459
0.02511384 0.057356093 0.48000002 4283179803
0.026672881 0.057356093 0.48000002 4282790180
0.028231923 0.057356093 0.48000002 4283056946
0.029790964 0.057356093 0.48000002 4279639569
0.031350002 0.057356093 0.48000002 4284313184
0.032909047 0.057356093 0.48000002 4284577639
-0.0060416963 0.058670178 0.47800002 4286024833
-0.0044891518 0.058670178 0.47800002 4287010443
-0.0029366068 0.058670178 0.47800002 4282596404
-0.0013811664 0.058547437 0.47700003 4283771427
0.00016813047 0.058547437 0.47700003 4283835934
0.0017174273 0.058547437 0.47700003 4283375124
0.0032598756 0.058424696 0.47600001 4283111952
0.012773197 0.059529364 0.48500001 4281868054
0.014348478 0.059529364 0.48500001 4281671445
0.015890928 0.059406627 0.48400003 4281276687
0.017426878 0.059283882 0.48300001 4281079822
0.018956335 0.059161142 0.48200002 4280882443
0.020521872 0.059161142 0.48200002 4280685579
0.022041585 0.059038404 0.48100004 4280882958
0.023603875 0.059038404 0.48100004 4280619786
0.025166161 0.059038404 0.48100004 4280686349
0.026728451 0.059038404 0.48100004 4280029702
0.028290741 0.059038404 0.48100004 4280360210
0.029853029 0.059038404 0.48100004 4280166944
0.031350002 0.05891566 0.48000002 4281615419
-0.0060416963 0.060223252 0.47800002 4285828224
-0.0044891518 0.060223252 0.47800002 4285894017
-0.0029304633 0.060097262 0.47700003 4286616457
-0.0013811664 0.060097262 0.47700003 4283646782
0.00016813047 0.060097262 0.47700003 4282524188
0.0017174273 0.060097262 0.47700003 4282983194
0.014348478 0.061105181 0.48500001 4280162061
0.015890928 0.060979195 0.48400003 4279965452
0.017426878 0.060853202 0.48300001 4279440393
0.018956335 0.060727213 0.48200002 4279440395
0.020521872 0.060727213 0.48200002 4279440395
0.022041585 0.060601223 0.48100004 4279506188
0.023603875 0.060601223 0.48100004 4279571211
0.025166161 0.060601223 0.48100004 4279637004
0.026728451 0.060601223 0.48100004 4279638031
0.028290741 0.060601223 0.48100004 4280033559
0.029853029 0.060601223 0.48100004 4279903772
-0.0029304633 0.06164708 0.47700003 4285762429
-0.0013811664 0.06164708 0.47700003 4282928967
0.00016813047 0.06164708 0.47700003 4283388232
0.020521872 0.062293276 0.48200002 4279441938
0.022041585 0.062164038 0.48100004 4279441938
0.023603875 0.062164038 0.48100004 4279376145
0.0039960705 0.035703301 0.48082498 4294967295
0.0039960705 0.035703301 0.48082498 4294901760
0.0039960705 0.035204008 0.48085153 4294901760
0.0039960705 0.034704711 0.48087808 4294901760
0.0039960705 0.034205418 0.48090464 4294901760
0.0039960705 0.033706125 0.48093119 4294901760
0.0039960705 0.033206832 0.48095778 4294901760
0.0039960705 0.032707535 0.48098433 4294901760
0.0039960705 0.032208242 0.48101088 4294901760
0.0039960705 0.031708948 0.48103744 4294901760
0.0039960705 0.031209653 0.48106399 4294901760
0.0039960705 0.030710358 0.48109055 4294901760
0.0039960705 0.030211065 0.4811171 4294901760
0.0039960705 0.029711772 0.48114365 4294901760
0.0039960705 0.029212477 0.48117021 4294901760
0.0039960705 0.028713182 0.48119679 4294901760
0.0039960705 0.028213888 0.48122334 4294901760
0.0039960705 0.027714595 0.4812499 4294901760
0.0039960705 0.0272153 0.48127645 4294901760
0.0039960705 0.026716005 0.48130301 4294901760
0.0039960705 0.026216712 0.48132956 4294901760
0.0039960705 0.025717417 0.48135611 4294901760
0.0039960705 0.025218124 0.48138267 4294901760
0.0039960705 0.024718828 0.48140922 4294901760
0.0039960705 0.024219535 0.48143581 4294901760
0.0039960705 0.02372024 0.48146236 4294901760
0.0039960705 0.023220945 0.48148891 4294901760
0.0039960705 0.022721652 0.48151547 4294901760
0.0039960705 0.022222357 0.48154202 4294901760
0.0039960705 0.021723064 0.48156857 4294901760
0.0039960705 0.021223769 0.48159513 4294901760
0.0039960705 0.020724475 0.48162168 4294901760
0.0039960705 0.02022518 0.48164824 4294901760
0.0039960705 0.019725887 0.48167482 4294901760
0.0039960705 0.019226592 0.48170137 4294901760
0.0039960705 0.018727299 0.48172793 4294901760
0.0039960705 0.018228004 0.48175448 4294901760
0.0039960705 0.017728709 0.48178104 4294901760
0.0039960705 0.017229415 0.48180759 4294901760
0.0039960705 0.016730122 0.48183414 4294901760
0.0039960705 0.016230827 0.4818607 4294901760
0.0039960705 0.015731532 0.48188725 4294901760
0.0039960705 0.015232239 0.48191383 4294901760
0.0039960705 0.014732946 0.48194039 4294901760
0.0039960705 0.014233651 0.48196694 4294901760
0.0039960705 0.013734356 0.4819935 4294901760
0.0039960705 0.013235062 0.48202005 4294901760
0.0039960705 0.012735767 0.4820466 4294901760
0.0039960705 0.012236474 0.48207316 4294901760
0.0039960705 0.011737179 0.48209971 4294901760
0.0039960705 0.011237884 0.48212627 4294901760
0.0039960705 0.010738591 0.48215282 4294901760
0.0039960705 0.010239298 0.4821794 4294901760
0.0039960705 0.0097400025 0.48220596 4294901760
0.0039960705 0.0092407092 0.48223251 4294901760
0.0039960705 0.0087414123 0.48225906 4294901760
0.0039960705 0.0082421191 0.48228562 4294901760
0.0039960705 0.0077428259 0.48231217 4294901760
0.0039960705 0.0072435308 0.48233873 4294901760
0.0039960705 0.0067442376 0.48236528 4294901760
0.0039960705 0.0062449444 0.48239183 4294901760
0.0039960705 0.0057456475 0.48241842 4294901760
0.0039960705 0.0052463543 0.48244497 4294901760
0.0039960705 0.0047470592 0.48247153 4294901760
0.0039960705 0.004247766 0.48249808 4294901760
0.0039960705 0.0037484728 0.48252463 4294901760
0.0039960705 0.0032491796 0.48255119 4294901760
0.0039960705 0.0027498826 0.48257774 4294901760
0.0039960705 0.0022505894 0.4826043 4294901760
0.0039960705 0.0017512962 0.48263085 4294901760
0.0039960705 0.0012519993 0.48265743 4294901760
0.0039960705 0.00075270608 0.48268399 4294901760
0.0039960705 0.00025341287 0.48271054 4294901760
0.0039960705 -0.00024588406 0.48273709 4294901760
0.0039960705 -0.00074517727 0.48276365 4294901760
0.0039960705 -0.0012444705 0.4827902 4294901760
0.0039960705 -0.0017437637 0.48281676 4294901760
0.0039960705 -0.0022430569 0.48284331 4294901760
0.0039960705 -0.0027423538 0.48286986 4294901760
0.0039960705 -0.003241647 0.48289645 4294901760
0.0039960705 -0.003740944 0.482923 4294901760
0.0039960705 -0.0042402372 0.48294955 4294901760
0.0039960705 -0.0047395304 0.48297611 4294901760
0.0039960705 -0.0052388236 0.48300266 4294901760
0.0039960705 -0.0057381168 0.48302922 4294901760
0.0039960705 -0.00623741 0.48305577 4294901760
0.0039960705 -0.0067367069 0.48308232 4294901760
0.0039960705 -0.0072360002 0.48310888 4294901760
0.0039960705 -0.0077352971 0.48313546 4294901760
0.0039960705 -0.0082345903 0.48316202 4294901760
0.0039960705 -0.0087338835 0.48318857 4294901760
0.0039960705 -0.0092331767 0.48321512 4294901760
0.0039960705 -0.0097324736 0.48324168 4294901760
0.0039960705 -0.010231767 0.48326823 4294901760
0.0039960705 -0.01073106 0.48329479 4294901760
0.0039960705 -0.011230353 0.48332134 4294901760
0.0039960705 -0.011729646 0.48334789 4294901760
0.0039960705 -0.012228943 0.48337448 4294901760
0.0039960705 -0.01272824 0.48340103 4294901760
0.0039960705 -0.013227534 0.48342758 4294901760
0.0039960705 -0.013726827 0.48345414 4294901760
0.0039960705 -0.01422612 0.48348069 4294901760
0.0039960705 0.035703301 0.48082498 4278255360
0.0044919057 0.035699882 0.48076066 4278255360
0.0049877409 0.035696462 0.48069635 4278255360
0.0054835761 0.035693038 0.48063204 4278255360
0.0059794113 0.035689618 0.48056775 4278255360
0.0064752465 0.035686199 0.48050344 4278255360
0.0069710817 0.035682779 0.48043913 4278255360
0.0074669169 0.035679359 0.48037481 4278255360
0.0079627521 0.035675935 0.4803105 4278255360
0.0084585883 0.035672516 0.48024619 4278255360
0.0089544225 0.035669096 0.48018187 4278255360
0.0094502587 0.035665676 0.48011756 4278255360
0.009946093 0.035662256 0.48005328 4278255360
0.010441929 0.035658833 0.47998896 4278255360
0.010937763 0.035655413 0.47992465 4278255360
0.0114336 0.035651993 0.47986034 4278255360
0.011929434 0.035648573 0.47979602 4278255360
0.01242527 0.035645153 0.47973171 4278255360
0.012921105 0.03564173 0.4796674 4278255360
0.01341694 0.03563831 0.47960308 4278255360
0.013912776 0.03563489 0.4795388 4278255360
0.01440861 0.03563147 0.47947448 4278255360
0.014904446 0.035628051 0.47941017 4278255360
0.015400281 0.035624627 0.47934586 4278255360
0.015896115 0.035621207 0.47928154 4278255360
0.016391952 0.035617787 0.47921723 4278255360
0.016887788 0.035614368 0.47915292 4278255360
0.017383624 0.035610948 0.47908863 4278255360
0.017879456 0.035607524 0.47902432 4278255360
0.018375292 0.035604104 0.47896001 4278255360
0.018871129 0.035600685 0.47889569 4278255360
0.019366963 0.035597265 0.47883138 4278255360
0.019862797 0.035593845 0.47876707 4278255360
0.020358635 0.035590421 0.47870275 4278255360
0.020854469 0.035587002 0.47863844 4278255360
0.021350304 0.035583582 0.47857416 4278255360
0.02184614 0.035580162 0.47850984 4278255360
0.022341974 0.035576742 0.47844553 4278255360
0.02283781 0.035573319 0.47838122 4278255360
0.023333644 0.035569899 0.4783169 4278255360
0.023829481 0.035566479 0.47825259 4278255360
0.024325315 0.035563059 0.47818828 4278255360
0.024821149 0.035559639 0.47812396 4278255360
0.025316987 0.035556216 0.47805968 4278255360
0.025812821 0.035552796 0.47799537 4278255360
0.026308656 0.035549376 0.47793105 4278255360
0.026804492 0.035545956 0.47786674 4278255360
0.027300326 0.035542537 0.47780243 4278255360
0.027796162 0.035539113 0.47773811 4278255360
0.028291998 0.035535693 0.4776738 4278255360
0.028787833 0.035532273 0.47760952 4278255360
0.029283667 0.035528854 0.4775452 4278255360
0.029779503 0.035525434 0.47748089 4278255360
0.030275337 0.03552201 0.47741657 4278255360
0.030771175 0.03551859 0.47735226 4278255360
0.03126701 0.035515171 0.47728795 4278255360
0.031762846 0.035511751 0.47722363 4278255360
0.032258678 0.035508331 0.47715932 4278255360
0.032754514 0.035504907 0.47709504 4278255360
0.033250347 0.035501488 0.47703072 4278255360
0.033746187 0.035498068 0.47696641 4278255360
0.034242019 0.035494648 0.4769021 4278255360
0.034737855 0.035491228 0.47683778 4278255360
0.035233691 0.035487805 0.47677347 4278255360
0.035729524 0.035484385 0.47670916 4278255360
0.03622536 0.035480965 0.47664484 4278255360
0.0367212 0.035477545 0.47658056 4278255360
0.037217032 0.035474125 0.47651625 4278255360
0.037712868 0.035470702 0.47645193 4278255360
0.038208701 0.035467282 0.47638762 4278255360
0.038704537 0.035463862 0.47632331 4278255360
0.039200373 0.035460442 0.47625899 4278255360
0.039696209 0.035457022 0.47619468 4278255360
0.040192045 0.035453599 0.47613037 4278255360
0.040687878 0.035450179 0.47606608 4278255360
0.041183714 0.035446759 0.47600177 4278255360
0.04167955 0.035443339 0.47593746 4278255360
0.042175382 0.03543992 0.47587314 4278255360
0.042671219 0.035436496 0.47580883 4278255360
0.043167055 0.035433076 0.47574452 4278255360
0.043662891 0.035429657 0.4756802 4278255360
0.044158727 0.035426237 0.47561592 4278255360
0.044654559 0.035422817 0.47555161 4278255360
0.045150395 0.035419393 0.47548729 4278255360
0.045646228 0.035415974 0.47542298 4278255360
0.046142068 0.035412554 0.47535866 4278255360
0.046637904 0.035409134 0.47529435 4278255360
0.047133736 0.035405714 0.47523004 4278255360
0.047629572 0.035402291 0.47516572 4278255360
0.048125405 0.035398871 0.47510144 4278255360
0.048621241 0.035395451 0.47503713 4278255360
0.049117081 0.035392031 0.47497281 4278255360
0.049612913 0.035388611 0.4749085 4278255360
0.050108749 0.035385188 0.47484419 4278255360
0.050604582 0.035381768 0.47477987 4278255360
0.051100418 0.035378348 0.47471556 4278255360
0.051596254 0.035374928 0.47465125 4278255360
0.05209209 0.035371508 0.47458696 4278255360
0.052587926 0.035368085 0.47452265 4278255360
0.053083759 0.035364665 0.47445834 4278255360
0.053579595 0.035361245 0.47439402 4278255360
0.0039960705 0.035703301 0.48082498 4278190335
0.004060471 0.035729636 0.48132011 4278190335
0.0041248715 0.035755973 0.48181525 4278190335
0.0041892719 0.035782307 0.48231038 4278190335
0.0042536724 0.035808645 0.48280552 4278190335
0.0043180729 0.035834979 0.48330066 4278190335
0.0043824734 0.035861317 0.48379579 4278190335
0.0044468734 0.035887651 0.48429093 4278190335
0.0045112739 0.035913989 0.48478606 4278190335
0.0045756744 0.035940323 0.4852812 4278190335
0.0046400749 0.035966661 0.48577634 4278190335
0.0047044754 0.035992995 0.48627147 4278190335
0.0047688759 0.036019333 0.48676661 4278190335
0.0048332764 0.036045667 0.48726174 4278190335
0.0048976769 0.036072005 0.48775688 4278190335
0.0049620774 0.036098339 0.48825201 4278190335
0.0050264779 0.036124676 0.48874715 4278190335
0.0050908783 0.036151011 0.48924229 4278190335
0.0051552788 0.036177348 0.48973742 4278190335
0.0052196793 0.036203682 0.49023256 4278190335
0.0052840794 0.03623002 0.49072769 4278190335
0.0053484798 0.036256354 0.49122283 4278190335
0.0054128803 0.036282692 0.49171796 4278190335
0.0054772808 0.036309026 0.4922131 4278190335
0.0055416813 0.036335364 0.49270824 4278190335
0.0056060818 0.036361698 0.49320337 4278190335
0.0056704823 0.036388032 0.49369851 4278190335
0.0057348828 0.03641437 0.49419364 4278190335
0.0057992833 0.036440704 0.49468878 4278190335
0.0058636833 0.036467042 0.49518391 4278190335
0.0059280843 0.036493376 0.49567905 4278190335
0.0059924843 0.036519714 0.49617419 4278190335
0.0060568852 0.036546048 0.49666932 4278190335
0.0061212853 0.036572386 0.49716446 4278190335
0.0061856862 0.03659872 0.49765959 4278190335
0.0062500862 0.036625057 0.49815473 4278190335
0.0063144872 0.036651392 0.49864987 4278190335
0.0063788872 0.036677729 0.499145 4278190335
0.0064432877 0.036704063 0.49964014 4278190335
0.0065076882 0.036730401 0.50013524 4278190335
0.0065720887 0.036756735 0.50063038 4278190335
0.0066364892 0.036783073 0.50112551 4278190335
0.0067008892 0.036809407 0.50162065 4278190335
0.0067652902 0.036835745 0.50211579 4278190335
0.0068296902 0.036862079 0.50261092 4278190335
0.0068940907 0.036888417 0.50310606 4278190335
0.0069584912 0.036914751 0.50360119 4278190335
0.0070228917 0.036941089 0.50409633 4278190335
0.0070872921 0.036967423 0.50459146 4278190335
0.0071516926 0.036993761 0.5050866 4278190335
0.0072160931 0.037020095 0.50558174 4278190335
0.0072804936 0.037046429 0.50607687 4278190335
0.0073448941 0.037072767 0.50657201 4278190335
0.0074092941 0.037099101 0.50706714 4278190335
0.0074736951 0.037125438 0.50756228 4278190335
0.0075380956 0.037151773 0.50805742 4278190335
0.0076024961 0.03717811 0.50855255 4278190335
0.0076668961 0.037204444 0.50904769 4278190335
0.0077312966 0.037230782 0.50954282 4278190335
0.0077956971 0.037257116 0.51003796 4278190335
0.007860098 0.037283454 0.51053309 4278190335
0.0079244981 0.037309788 0.51102823 4278190335
0.0079888981 0.037336126 0.51152337 4278190335
0.008053299 0.03736246 0.5120185 4278190335
0.0081177 0.037388798 0.51251364 4278190335
0.0081820991 0.037415132 0.51300877 4278190335
0.0082465 0.03744147 0.51350391 4278190335
0.008310901 0.037467804 0.51399904 4278190335
0.008375302 0.037494142 0.51449418 4278190335
0.0084397011 0.037520476 0.51498932 4278190335
0.008504102 0.037546813 0.51548445 4278190335
0.008568503 0.037573148 0.51597959 4278190335
0.0086329039 0.037599485 0.51647472 4278190335
0.008697303 0.037625819 0.51696986 4278190335
0.008761704 0.037652157 0.517465 4278190335
0.0088261049 0.037678491 0.51796013 4278190335
0.0088905049 0.037704825 0.51845527 4278190335
0.008954905 0.037731163 0.5189504 4278190335
0.0090193059 0.037757497 0.51944554 4278190335
0.0090837069 0.037783835 0.51994067 4278190335
0.0091481069 0.037810169 0.52043581 4278190335
0.0092125069 0.037836507 0.52093095 4278190335
0.0092769079 0.037862841 0.52142608 4278190335
0.0093413079 0.037889179 0.52192122 4278190335
0.0094057079 0.037915513 0.52241635 4278190335
0.0094701089 0.037941851 0.52291149 4278190335
0.0095345099 0.037968185 0.52340662 4278190335
0.0095989099 0.037994523 0.52390176 4278190335
0.0096633099 0.038020857 0.5243969 4278190335
0.0097277109 0.038047194 0.52489203 4278190335
0.0097921109 0.038073529 0.52538717 4278190335
0.0098565118 0.038099866 0.5258823 4278190335
0.0099209119 0.0381262 0.52637744 4278190335
0.0099853128 0.038152538 0.52687258 4278190335
0.010049713 0.038178872 0.52736771 4278190335
0.010114113 0.03820521 0.52786285 4278190335
0.010178514 0.038231544 0.52835798 4278190335
0.010242915 0.038257882 0.52885312 4278190335
0.010307315 0.038284216 0.52934825 4278190335
0.010371715 0.03831055 0.52984339 4278190335
0.010436116 0.038336888 0.53033853 4278190335
0.0039960705 0.035703301 0.48082498 4294967295
0.0038672695 0.03565063 0.47983471 4294967295
0.0037384687 0.035597958 0.47884443 4294967295
0.0036096678 0.035545286 0.47785416 4294967295
0.0034808668 0.035492614 0.47686389 4294967295
0.0033520658 0.035439942 0.47587362 4294967295
0.0032232651 0.03538727 0.47488335 4294967295
0.0030944641 0.035334598 0.47389308 4294967295
0.0029656631 0.035281926 0.4729028 4294967295
0.0028368621 0.035229255 0.47191253 4294967295
0.0027080611 0.035176583 0.47092226 4294967295
0.0025792604 0.035123914 0.46993199 4294967295
0.0024504596 0.035071243 0.46894172 4294967295
0.0023216587 0.035018571 0.46795145 4294967295
0.0021928577 0.034965899 0.46696118 4294967295
0.0020640567 0.034913227 0.4659709 4294967295
0.0019352559 0.034860555 0.46498066 4294967295
0.001806455 0.034807883 0.46399039 4294967295
