# .PCD v0.7 - Point Cloud Data file format
VERSION 0.7
FIELDS x y z rgb
SIZE 4 4 4 4
TYPE F F F U
COUNT 1 1 1 1
WIDTH 1053
HEIGHT 1
VIEWPOINT 0 0 0 1 0 0 0
POINTS 1053
DATA ascii
0.048904449 0.023488088 0.38500002 4278335249
0.050154928 0.023488088 0.38500002 4278532628
0.051405411 0.023488088 0.38500002 4278532628
0.052655887 0.023488088 0.38500002 4278598419
0.05390637 0.023488088 0.38500002 4278204174
0.055013586 0.023427079 0.384 4278204431
0.05626082 0.023427079 0.384 4278204431
0.057508048 0.023427079 0.384 4278204431
0.058755282 0.023427079 0.384 4278335247
0.060002517 0.023427079 0.384 4278334734
0.061409254 0.023488088 0.38500002 4278199303
0.062659733 0.023488088 0.38500002 4278265611
0.063910216 0.023488088 0.38500002 4278596371
0.065329939 0.023549095 0.38600001 4278465039
0.066583671 0.023549095 0.38600001 4278267660
0.067837402 0.023549095 0.38600001 4278661394
0.069270127 0.023610104 0.38700002 4278727187
0.070527099 0.023610104 0.38700002 4278464015
0.071784079 0.023610104 0.38700002 4278398222
0.073041059 0.023610104 0.38700002 4278858773
0.074298032 0.023610104 0.38700002 4278398222
0.075555012 0.023610104 0.38700002 4278661394
0.076811984 0.023610104 0.38700002 4278661394
0.078068964 0.023610104 0.38700002 4278727187
0.079325937 0.023610104 0.38700002 4278859795
0.080791138 0.023671111 0.38800001 4278596623
0.082051367 0.023671111 0.38800001 4278596625
0.083311588 0.023671111 0.38800001 4278794004
0.084789783 0.02373212 0.38900003 4278596625
0.08605326 0.02373212 0.38900003 4278859797
0.087316729 0.02373212 0.38900003 4279057176
0.088580206 0.02373212 0.38900003 4278661648
0.089843675 0.02373212 0.38900003 4278924820
0.091341354 0.023793127 0.39000002 4278859797
0.092608072 0.023793127 0.39000002 4278728211
0.093874797 0.023793127 0.39000002 4279122199
0.095385469 0.023854136 0.39100003 4278398476
0.096902639 0.023915144 0.39200002 4279056406
0.098175853 0.023915144 0.39200002 4278596371
0.09995646 0.02403716 0.39400002 4278530578
0.10149312 0.024098167 0.39500001 4278925590
0.10277608 0.024098167 0.39500001 4279057176
0.10405904 0.024098167 0.39500001 4278859797
0.1056087 0.024159176 0.39600003 4278859797
0.10689491 0.024159176 0.39600003 4278530832
0.10818111 0.024159176 0.39600003 4278991383
0.10946732 0.024159176 0.39600003 4278530832
0.11075353 0.024159176 0.39600003 4278728211
0.11203974 0.024159176 0.39600003 4278728724
0.11361212 0.024220183 0.39700001 4278531343
0.11490158 0.024220183 0.39700001 4278531343
0.1164837 0.024281193 0.39800003 4278532113
0.11807233 0.0243422 0.39900002 4278729492
0.11996662 0.024464216 0.40100002 4278729492
0.033496205 0.025381563 0.39500001 4279903254
0.03587953 0.02525305 0.39300001 4280100633
0.037061453 0.025188792 0.39200002 4279837461
0.038236879 0.025124537 0.39100003 4279573776
0.039405808 0.025060279 0.39000002 4279377680
0.04056824 0.024996022 0.38900003 4279313682
0.041724171 0.024931764 0.38800001 4278922771
0.042873617 0.024867509 0.38700002 4279120918
0.044016559 0.024803249 0.38600001 4278727441
0.045270287 0.024803249 0.38600001 4278728211
0.046403486 0.024738993 0.38500002 4278795285
0.047653969 0.024738993 0.38500002 4278598419
0.048904449 0.024738993 0.38500002 4278335247
0.050154928 0.024738993 0.38500002 4278466833
0.051405411 0.024738993 0.38500002 4278466833
0.052655887 0.024738993 0.38500002 4278466833
0.053766351 0.024674736 0.384 4278532626
0.055013586 0.024674736 0.384 4278466835
0.05626082 0.024674736 0.384 4278466835
0.057508048 0.024674736 0.384 4278466835
0.058755282 0.024674736 0.384 4278532628
0.060002517 0.024674736 0.384 4278202892
0.061409254 0.024738993 0.38500002 4278196480
0.062659733 0.024738993 0.38500002 4279186713
0.063910216 0.024738993 0.38500002 4278464785
0.065329939 0.024803249 0.38600001 4278198275
0.066583671 0.024803249 0.38600001 4278195205
0.067837402 0.024803249 0.38600001 4278259974
0.069270127 0.024867509 0.38700002 4278325767
0.070527099 0.024867509 0.38700002 4278259974
0.071784079 0.024867509 0.38700002 4278325767
0.073041059 0.024867509 0.38700002 4278325767
0.074490011 0.024931764 0.38800001 4278325767
0.075750239 0.024931764 0.38800001 4278391814
0.077010468 0.024931764 0.38800001 4278326021
0.078270689 0.024931764 0.38800001 4278326021
0.07953091 0.024931764 0.38800001 4278196484
0.080791138 0.024931764 0.38800001 4278856978
0.082262844 0.024996022 0.38900003 4278725392
0.083526313 0.024996022 0.38900003 4278988051
0.084789783 0.024996022 0.38900003 4278922517
0.086274475 0.025060279 0.39000002 4278988564
0.087541193 0.025060279 0.39000002 4278659086
0.088807911 0.025060279 0.39000002 4278988051
0.090074636 0.025060279 0.39000002 4278527500
0.091575563 0.025124537 0.39100003 4278988051
0.092845537 0.025124537 0.39100003 4278790672
0.094115503 0.025124537 0.39100003 4278790672
0.095629416 0.025188792 0.39200002 4278922258
0.097149834 0.02525305 0.39300001 4279119637
0.098426297 0.02525305 0.39300001 4278593293
0.10021015 0.025381563 0.39500001 4278856211
0.10149312 0.025381563 0.39500001 4278659086
0.10277608 0.025381563 0.39500001 4278461707
0.10432249 0.025445823 0.39600003 4278526730
0.1056087 0.025445823 0.39600003 4278658316
0.10689491 0.025445823 0.39600003 4278527500
0.10818111 0.025445823 0.39600003 4278856465
0.10974374 0.025510078 0.39700001 4278854927
0.11103321 0.025510078 0.39700001 4278195200
0.11232267 0.025510078 0.39700001 4278465039
0.11389831 0.025574338 0.39800003 4278531345
0.11548043 0.025638593 0.39900002 4278662929
0.11706904 0.025702849 0.40000001 4278662929
0.11836825 0.025702849 0.40000001 4278728722
0.12026579 0.025831364 0.40200001 4278860308
0.12187391 0.025895622 0.40300003 4279186972
0.033496205 0.026664959 0.39500001 4279771670
0.034691118 0.026597453 0.39400002 4279639569
0.03587953 0.026529947 0.39300001 4279639569
0.037061453 0.026462441 0.39200002 4279705362
0.038139086 0.026327427 0.39000002 4279705362
0.039304767 0.026259923 0.38900003 4279509264
0.04046395 0.026192416 0.38800001 4279379475
0.041616637 0.02612491 0.38700002 4279449115
0.042762831 0.026057404 0.38600001 4279121433
0.044016559 0.026057404 0.38600001 4278727957
0.045153007 0.025989898 0.38500002 4278925590
0.046403486 0.025989898 0.38500002 4278597908
0.047653969 0.025989898 0.38500002 4278466833
0.048904449 0.025989898 0.38500002 4278598419
0.050154928 0.025989898 0.38500002 4278202376
0.051271889 0.02592239 0.384 4278532626
0.052519117 0.02592239 0.384 4278466833
0.053766351 0.02592239 0.384 4278532626
0.055013586 0.02592239 0.384 4278532626
0.05626082 0.02592239 0.384 4278335247
0.057508048 0.02592239 0.384 4278466833
0.058755282 0.02592239 0.384 4278334734
0.060002517 0.02592239 0.384 4278268173
0.061409254 0.025989898 0.38500002 4278196488
0.062659733 0.025989898 0.38500002 4278790931
0.063910216 0.025989898 0.38500002 4278595603
0.065160699 0.025989898 0.38500002 4278195457
0.066583671 0.026057404 0.38600001 4278457093
0.067837402 0.026057404 0.38600001 4278522632
0.069270127 0.02612491 0.38700002 4278654218
0.070527099 0.02612491 0.38700002 4278456841
0.071784079 0.02612491 0.38700002 4278456841
0.07322979 0.026192416 0.38800001 4278456839
0.074490011 0.026192416 0.38800001 4278522632
0.075750239 0.026192416 0.38800001 4278522632
0.077010468 0.026192416 0.38800001 4278522632
0.078270689 0.026192416 0.38800001 4278654218
0.07953091 0.026192416 0.38800001 4278854414
0.080999367 0.026259923 0.38900003 4278857748
0.082262844 0.026259923 0.38900003 4278989845
0.083526313 0.026259923 0.38900003 4279055638
0.085007749 0.026327427 0.39000002 4279187224
0.086274475 0.026327427 0.39000002 4278989845
0.087541193 0.026327427 0.39000002 4278595087
0.08903563 0.026394935 0.39100003 4278792466
0.090305597 0.026394935 0.39100003 4279187224
0.091575563 0.026394935 0.39100003 4279121431
0.093082987 0.026462441 0.39200002 4279187224
0.094356209 0.026462441 0.39200002 4279055638
0.095873371 0.026529947 0.39300001 4279187738
0.097149834 0.026529947 0.39300001 4278990613
0.098676749 0.026597453 0.39400002 4278728211
0.10021015 0.026664959 0.39500001 4278925590
0.10149312 0.026664959 0.39500001 4278727441
0.10303628 0.026732467 0.39600003 4278924820
0.10432249 0.026732467 0.39600003 4279056406
0.1056087 0.026732467 0.39600003 4278727441
0.10716484 0.026799971 0.39700001 4278859027
0.10845429 0.026799971 0.39700001 4278924820
0.10974374 0.026799971 0.39700001 4278923539
0.11131289 0.026867479 0.39800003 4278196224
0.1126056 0.026867479 0.39800003 4278728211
0.11418448 0.026934985 0.39900002 4278662931
0.11576986 0.027002489 0.40000001 4278400527
0.11736172 0.027069997 0.40100002 4278532113
0.11866418 0.027069997 0.40100002 4278532113
0.12026579 0.027137503 0.40200001 4278860308
0.12187391 0.027205011 0.40300003 4279121433
0.026875721 0.027736088 0.39200002 4284315237
0.028220745 0.027806843 0.39300001 4284578409
0.029572265 0.027877599 0.39400002 4284182627
0.030930284 0.027948353 0.39500001 4284380006
0.033496205 0.027948353 0.39500001 4279311635
0.034691118 0.027877599 0.39400002 4279770387
0.03587953 0.027806843 0.39300001 4279573776
0.036966912 0.027665334 0.39100003 4279639569
0.038139086 0.027594578 0.39000002 4279705362
0.039304767 0.027523823 0.38900003 4279443984
0.04046395 0.027453067 0.38800001 4279381012
0.041616637 0.027382312 0.38700002 4279055640
0.042762831 0.027311556 0.38600001 4279121431
0.044016559 0.027311556 0.38600001 4278530578
0.045153007 0.027240802 0.38500002 4278794004
0.046403486 0.027240802 0.38500002 4278795798
0.047653969 0.027240802 0.38500002 4278466833
0.048904449 0.027240802 0.38500002 4278532626
0.050024655 0.027170045 0.384 4278466833
0.051271889 0.027170045 0.384 4278532626
0.052519117 0.027170045 0.384 4278466833
0.053766351 0.027170045 0.384 4278466833
0.055013586 0.027170045 0.384 4278532626
0.05626082 0.027170045 0.384 4278269454
0.057508048 0.027170045 0.384 4278466835
0.058755282 0.027170045 0.384 4278466835
0.060158778 0.027240802 0.38500002 4278860310
0.061409254 0.027240802 0.38500002 4278195200
0.062659733 0.027240802 0.38500002 4278858259
0.063910216 0.027240802 0.38500002 4279055640
0.065160699 0.027240802 0.38500002 4278195974
0.066583671 0.027311556 0.38600001 4279445272
0.067837402 0.027311556 0.38600001 4278655756
0.069270127 0.027382312 0.38700002 4278721549
0.070527099 0.027382312 0.38700002 4279182100
0.071784079 0.027382312 0.38700002 4278721549
0.07322979 0.027453067 0.38800001 4279249174
0.074490011 0.027453067 0.38800001 4278655756
0.075750239 0.027453067 0.38800001 4278853135
0.077010468 0.027453067 0.38800001 4279050514
0.078472421 0.027523823 0.38900003 4278654986
0.07973589 0.027523823 0.38900003 4278920720
0.080999367 0.027523823 0.38900003 4278858259
0.082262844 0.027523823 0.38900003 4278331404
0.083741032 0.027594578 0.39000002 4278196480
0.085007749 0.027594578 0.39000002 4278262277
0.08649569 0.027665334 0.39100003 4279053844
0.087765656 0.027665334 0.39100003 4278331404
0.08903563 0.027665334 0.39100003 4279186713
0.090305597 0.027665334 0.39100003 4278331404
0.091809772 0.027736088 0.39200002 4278198790
0.093082987 0.027736088 0.39200002 4279384090
0.094596907 0.027806843 0.39300001 4278199045
0.095873371 0.027806843 0.39300001 4278595087
0.097397037 0.027877599 0.39400002 4279055638
0.098676749 0.027877599 0.39400002 4278660880
0.10021015 0.027948353 0.39500001 4278199815
0.10149312 0.027948353 0.39500001 4278200329
0.10303628 0.028019112 0.39600003 4278198017
0.10432249 0.028019112 0.39600003 4279253019
0.10587539 0.028089866 0.39700001 4278198789
0.10716484 0.028089866 0.39700001 4278198530
0.10845429 0.028089866 0.39700001 4278596625
0.11002018 0.028160622 0.39800003 4279318551
0.11131289 0.028160622 0.39800003 4278460937
0.11288852 0.028231377 0.39900002 4278596371
0.11447065 0.028302131 0.40000001 4278662677
0.11605928 0.028372888 0.40100002 4278662929
0.11736172 0.028372888 0.40100002 4278531343
0.11896009 0.028443642 0.40200001 4278728209
0.12056496 0.028514398 0.40300003 4279057174
0.12187391 0.028514398 0.40300003 4279318812
0.12348852 0.028585153 0.40400001 4285764478
0.025471877 0.028861728 0.39000002 4279640852
0.032294799 0.029305754 0.39600003 4284249190
0.033496205 0.029231749 0.39500001 4285038706
0.035788238 0.029009737 0.39200002 4279771416
0.036966912 0.028935732 0.39100003 4279902741
0.038041294 0.028787725 0.38900003 4279640082
0.039203726 0.028713718 0.38800001 4279247373
0.040359661 0.028639715 0.38700002 4279315219
0.041616637 0.028639715 0.38700002 4278990361
0.042762831 0.028565709 0.38600001 4278661396
0.044016559 0.028565709 0.38600001 4278530832
0.045153007 0.028491706 0.38500002 4278926103
0.046403486 0.028491706 0.38500002 4278532628
0.047653969 0.028491706 0.38500002 4278532626
0.04877742 0.028417701 0.384 4278532626
0.050024655 0.028417701 0.384 4278466833
0.051271889 0.028417701 0.384 4278269454
0.052519117 0.028417701 0.384 4278269454
0.053766351 0.028417701 0.384 4278532626
0.055013586 0.028417701 0.384 4278466833
0.05626082 0.028417701 0.384 4278598419
0.057508048 0.028417701 0.384 4278466833
0.058908295 0.028491706 0.38500002 4278532113
0.060158778 0.028491706 0.38500002 4278727441
0.061409254 0.028491706 0.38500002 4278330380
0.062659733 0.028491706 0.38500002 4278727187
0.063910216 0.028491706 0.38500002 4278791185
0.065329939 0.028565709 0.38600001 4278458377
0.066583671 0.028565709 0.38600001 4278853648
0.067837402 0.028565709 0.38600001 4279249176
0.069270127 0.028639715 0.38700002 4278196488
0.070527099 0.028639715 0.38700002 4278525453
0.071969569 0.028713718 0.38800001 4278260998
0.07322979 0.028713718 0.38800001 4278787853
0.074490011 0.028713718 0.38800001 4278392584
0.075750239 0.028713718 0.38800001 4279774748
0.077208951 0.028787725 0.38900003 4278196486
0.078472421 0.028787725 0.38900003 4278458377
0.07973589 0.028787725 0.38900003 4279119383
0.080999367 0.028787725 0.38900003 4278989845
0.082474314 0.028861728 0.39000002 4278195713
0.083741032 0.028861728 0.39000002 4278391812
0.085007749 0.028861728 0.39000002 4278524168
0.08649569 0.028935732 0.39100003 4279118099
0.087765656 0.028935732 0.39100003 4278858261
0.08903563 0.028935732 0.39100003 4278858261
0.090536557 0.029009737 0.39200002 4278528013
0.091809772 0.029009737 0.39200002 4279185943
0.093320444 0.02908374 0.39300001 4278924566
0.094596907 0.02908374 0.39300001 4278198790
0.096117325 0.029157747 0.39400002 4278790931
0.097397037 0.029157747 0.39400002 4278329867
0.098927192 0.029231749 0.39500001 4278526478
0.10021015 0.029231749 0.39500001 4278988310
0.10175007 0.029305754 0.39600003 4279514908
0.10303628 0.029305754 0.39600003 4279317529
0.10432249 0.029305754 0.39600003 4279381785
0.10587539 0.029379759 0.39700001 4279250453
0.10716484 0.029379759 0.39700001 4278264839
0.10872748 0.029453764 0.39800003 4278858773
0.11002018 0.029453764 0.39800003 4278922769
0.11159257 0.029527768 0.39900002 4279119637
0.11317145 0.029601771 0.40000001 4278662677
0.11447065 0.029601771 0.40000001 4278728470
0.11605928 0.029675776 0.40100002 4278531345
0.11765439 0.029749781 0.40200001 4278662929
0.11896009 0.029749781 0.40200001 4278991383
0.12056496 0.029823786 0.40300003 4278991383
0.12187391 0.029823786 0.40300003 4278857496
0.12348852 0.029897789 0.40400001 4286026368
0.033411406 0.030437892 0.39400002 4284776047
0.034603067 0.030360637 0.39300001 4284841840
0.035696942 0.030206133 0.39100003 4284710254
0.036872365 0.030128878 0.39000002 4279442453
0.038041294 0.030051624 0.38900003 4279969049
0.039203726 0.029974369 0.38800001 4279314195
0.040359661 0.029897118 0.38700002 4279118867
0.041509099 0.029819863 0.38600001 4279187226
0.042762831 0.029819863 0.38600001 4278727189
0.043902528 0.02974261 0.38500002 4278596625
0.045153007 0.02974261 0.38500002 4278926101
0.046403486 0.02974261 0.38500002 4278597906
0.047653969 0.02974261 0.38500002 4278466833
0.04877742 0.029665355 0.384 4278335247
0.050024655 0.029665355 0.384 4278466833
0.051271889 0.029665355 0.384 4278532626
0.052519117 0.029665355 0.384 4278466833
0.053766351 0.029665355 0.384 4278335247
0.055013586 0.029665355 0.384 4278466833
0.056407336 0.02974261 0.38500002 4278400527
0.057657812 0.02974261 0.38500002 4278597906
0.058908295 0.02974261 0.38500002 4278531343
0.060158778 0.02974261 0.38500002 4278330634
0.061409254 0.02974261 0.38500002 4278395660
0.062659733 0.02974261 0.38500002 4278858259
0.063910216 0.02974261 0.38500002 4278526476
0.065329939 0.029819863 0.38600001 4278195205
0.066583671 0.029819863 0.38600001 4278588939
0.067837402 0.029819863 0.38600001 4278391560
0.069270127 0.029897118 0.38700002 4278326021
0.070527099 0.029897118 0.38700002 4278391814
0.071969569 0.029974369 0.38800001 4278391814
0.07322979 0.029974369 0.38800001 4278522632
0.074490011 0.029974369 0.38800001 4278654472
0.075945474 0.030051624 0.38900003 4278391814
0.077208951 0.030051624 0.38900003 4278195203
0.078472421 0.030051624 0.38900003 4278195202
0.07973589 0.030051624 0.38900003 4278923287
0.081207588 0.030128878 0.39000002 4278661142
0.082474314 0.030128878 0.39000002 4278260996
0.083741032 0.030128878 0.39000002 4278654472
0.085225724 0.030206133 0.39100003 4278327300
0.08649569 0.030206133 0.39100003 4279447832
0.087765656 0.030206133 0.39100003 4278196480
0.089263335 0.030283384 0.39200002 4278198533
0.090536557 0.030283384 0.39200002 4279120920
0.091809772 0.030283384 0.39200002 4278199561
0.093320444 0.030360637 0.39300001 4278265611
0.094596907 0.030360637 0.39300001 4279120920
0.096117325 0.030437892 0.39400002 4279187226
0.097397037 0.030437892 0.39400002 4279186713
0.098927192 0.030515144 0.39500001 4279185689
0.10021015 0.030515144 0.39500001 4279186459
0.10175007 0.030592399 0.39600003 4278265357
0.10303628 0.030592399 0.39600003 4278594322
0.10458592 0.030669652 0.39700001 4279252252
0.10587539 0.030669652 0.39700001 4278397197
0.10743479 0.030746907 0.39800003 4278462218
0.10872748 0.030746907 0.39800003 4278792466
0.11029661 0.030824158 0.39900002 4278593804
0.11159257 0.030824158 0.39900002 4279120918
0.11317145 0.030901412 0.40000001 4278531091
0.11475683 0.030978667 0.40100002 4278531091
0.11605928 0.030978667 0.40100002 4278728724
0.11765439 0.03105592 0.40200001 4278860310
0.11896009 0.03105592 0.40200001 4278859797
0.12026579 0.03105592 0.40200001 4278859797
0.12157149 0.03105592 0.40200001 4284382057
0.12348852 0.031210426 0.40400001 4285565563
0.03451502 0.031557031 0.39200002 4284710254
0.035605643 0.031396028 0.39000002 4284841840
0.03677782 0.031315524 0.38900003 4285697149
0.037943501 0.031235021 0.38800001 4279116566
0.039102685 0.031154519 0.38700002 4279183892
0.040359661 0.031154519 0.38700002 4279250969
0.041509099 0.031074015 0.38600001 4279055640
0.042762831 0.031074015 0.38600001 4278727187
0.043902528 0.030993514 0.38500002 4278596623
0.045153007 0.030993514 0.38500002 4279386650
0.046403486 0.030993514 0.38500002 4278795283
0.047653969 0.030993514 0.38500002 4278597906
0.048904449 0.030993514 0.38500002 4278532113
0.050024655 0.03091301 0.384 4278532113
0.051271889 0.03091301 0.384 4278532626
0.052519117 0.03091301 0.384 4278335247
0.05390637 0.030993514 0.38500002 4278532626
0.055156853 0.030993514 0.38500002 4278664212
0.056407336 0.030993514 0.38500002 4278400527
0.057657812 0.030993514 0.38500002 4278597906
0.058908295 0.030993514 0.38500002 4278859797
0.060158778 0.030993514 0.38500002 4278196482
0.061409254 0.030993514 0.38500002 4278658832
0.062659733 0.030993514 0.38500002 4278858259
0.064076215 0.031074015 0.38600001 4278394376
0.065329939 0.031074015 0.38600001 4278720265
0.066583671 0.031074015 0.38600001 4278785293
0.068013154 0.031154519 0.38700002 4278522121
0.069270127 0.031154519 0.38700002 4278719498
0.070527099 0.031154519 0.38700002 4278719498
0.071969569 0.031235021 0.38800001 4278587912
0.07322979 0.031235021 0.38800001 4278719498
0.074490011 0.031235021 0.38800001 4278587912
0.075945474 0.031315524 0.38900003 4278587914
0.077208951 0.031315524 0.38900003 4278588166
0.078472421 0.031315524 0.38900003 4278523400
0.07994087 0.031396028 0.39000002 4278725908
0.081207588 0.031396028 0.39000002 4278791701
0.082474314 0.031396028 0.39000002 4279183892
0.083741032 0.031396028 0.39000002 4279445781
0.085225724 0.031476531 0.39100003 4279907356
0.08649569 0.031476531 0.39100003 4279644697
0.087765656 0.031476531 0.39100003 4279317014
0.089263335 0.031557031 0.39200002 4278922769
0.090536557 0.031557031 0.39200002 4279120918
0.091809772 0.031557031 0.39200002 4279318297
0.093320444 0.031637534 0.39300001 4279120918
0.094596907 0.031637534 0.39300001 4278857746
0.096117325 0.031718038 0.39400002 4279318297
0.097397037 0.031718038 0.39400002 4279187224
0.098927192 0.031798538 0.39500001 4279055640
0.10021015 0.031798538 0.39500001 4278858261
0.10175007 0.031879045 0.39600003 4278858261
0.10303628 0.031879045 0.39600003 4278726675
0.10458592 0.031959545 0.39700001 4279055127
0.10587539 0.031959545 0.39700001 4278660367
0.10743479 0.032040048 0.39800003 4278593804
0.10872748 0.032040048 0.39800003 4278856976
0.11029661 0.032120552 0.39900002 4278195968
0.11159257 0.032120552 0.39900002 4279120918
0.11317145 0.032201052 0.40000001 4278860056
0.11475683 0.032281555 0.40100002 4278662677
0.11605928 0.032281555 0.40100002 4278926101
0.11736172 0.032281555 0.40100002 4278728722
0.11866418 0.032281555 0.40100002 4279516441
0.11996662 0.032281555 0.40100002 4279646492
0.12157149 0.032362059 0.40200001 4285631097
0.12257152 0.032281555 0.40100002 4285761913
0.035605643 0.032663178 0.39000002 4284776047
0.036683276 0.032495674 0.38800001 4284710254
0.037943501 0.032495674 0.38800001 4283723613
0.039102685 0.032411922 0.38700002 4278723341
0.040255371 0.03232817 0.38600001 4279119383
0.041509099 0.03232817 0.38600001 4279187224
0.042762831 0.03232817 0.38600001 4278858773
0.043902528 0.032244418 0.38500002 4278728724
0.045153007 0.032244418 0.38500002 4278597908
0.046403486 0.032244418 0.38500002 4278598419
0.047653969 0.032244418 0.38500002 4278664212
0.048904449 0.032244418 0.38500002 4278664212
0.050154928 0.032244418 0.38500002 4278466833
0.051405411 0.032244418 0.38500002 4278664212
0.052655887 0.032244418 0.38500002 4278598419
0.05390637 0.032244418 0.38500002 4278466833
0.055156853 0.032244418 0.38500002 4278335247
0.056407336 0.032244418 0.38500002 4278532626
0.057657812 0.032244418 0.38500002 4278532626
0.058908295 0.032244418 0.38500002 4278399246
0.060158778 0.032244418 0.38500002 4278529294
0.061409254 0.032244418 0.38500002 4278594322
0.062822483 0.03232817 0.38600001 4278727187
0.064076215 0.03232817 0.38600001 4278989845
0.065329939 0.03232817 0.38600001 4279514908
0.066583671 0.03232817 0.38600001 4279184408
0.068013154 0.032411922 0.38700002 4279710752
0.069270127 0.032411922 0.38700002 4279381273
0.070527099 0.032411922 0.38700002 4279710238
0.071969569 0.032495674 0.38800001 4279644445
0.07322979 0.032495674 0.38800001 4279578652
0.074490011 0.032495674 0.38800001 4279776031
0.075945474 0.032579426 0.38900003 4279512859
0.077208951 0.032579426 0.38900003 4279973410
0.078472421 0.032579426 0.38900003 4279448348
0.07994087 0.032663178 0.39000002 4279054873
0.081207588 0.032663178 0.39000002 4279054873
0.082474314 0.032663178 0.39000002 4278987797
0.083741032 0.032663178 0.39000002 4279250199
0.085225724 0.03274693 0.39100003 4279710750
0.08649569 0.03274693 0.39100003 4279579418
0.087765656 0.03274693 0.39100003 4279447832
0.08903563 0.03274693 0.39100003 4279118867
0.090536557 0.032830682 0.39200002 4279317016
0.091809772 0.032830682 0.39200002 4279579934
0.093320444 0.03291443 0.39300001 4279580188
0.094596907 0.03291443 0.39300001 4279251223
0.096117325 0.032998186 0.39400002 4279711774
0.097397037 0.032998186 0.39400002 4279646494
0.098927192 0.033081934 0.39500001 4279383322
0.10021015 0.033081934 0.39500001 4279514908
0.10175007 0.033165686 0.39600003 4278593806
0.10303628 0.033165686 0.39600003 4279317529
0.10458592 0.033249438 0.39700001 4279580188
0.10587539 0.033249438 0.39700001 4279580188
0.10743479 0.03333319 0.39800003 4279382809
0.10872748 0.03333319 0.39800003 4279514395
0.11029661 0.033416942 0.39900002 4278989845
0.11187225 0.033500694 0.40000001 4278990613
0.11317145 0.033500694 0.40000001 4278860310
0.11447065 0.033500694 0.40000001 4278860310
0.11576986 0.033500694 0.40000001 4278926103
0.11706904 0.033500694 0.40000001 4278991896
0.11836825 0.033500694 0.40000001 4279515678
0.11966745 0.033500694 0.40000001 4285171571
0.12126907 0.033584446 0.40100002 4285695607
0.12226585 0.033500694 0.40000001 4285827193
0.036683276 0.033756323 0.38800001 4284841840
0.037845708 0.033669323 0.38700002 4284710508
0.039102685 0.033669323 0.38700002 4285565817
0.040255371 0.033582322 0.38600001 4279118101
0.041509099 0.033582322 0.38600001 4279318299
0.042652048 0.033495322 0.38500002 4279187738
0.043902528 0.033495322 0.38500002 4279189275
0.045153007 0.033495322 0.38500002 4278992666
0.046403486 0.033495322 0.38500002 4278730005
0.047653969 0.033495322 0.38500002 4278664212
0.048904449 0.033495322 0.38500002 4278598419
0.050154928 0.033495322 0.38500002 4278598419
0.051405411 0.033495322 0.38500002 4278532626
0.052655887 0.033495322 0.38500002 4278664212
0.05390637 0.033495322 0.38500002 4278598421
0.055156853 0.033495322 0.38500002 4278598421
0.056407336 0.033495322 0.38500002 4278598421
0.057657812 0.033495322 0.38500002 4278795800
0.058908295 0.033495322 0.38500002 4278925849
0.060158778 0.033495322 0.38500002 4278792468
0.061568756 0.033582322 0.38600001 4278661396
0.062822483 0.033582322 0.38600001 4278991129
0.064076215 0.033582322 0.38600001 4278860310
0.065329939 0.033582322 0.38600001 4278926103
0.066583671 0.033582322 0.38600001 4278991129
0.068013154 0.033669323 0.38700002 4278925336
0.069270127 0.033669323 0.38700002 4279056922
0.070527099 0.033669323 0.38700002 4278991129
0.071969569 0.033756323 0.38800001 4279056922
0.07322979 0.033756323 0.38800001 4279056922
0.074490011 0.033756323 0.38800001 4278859543
0.075945474 0.033843327 0.38900003 4278991129
0.077208951 0.033843327 0.38900003 4279188508
0.078472421 0.033843327 0.38900003 4279056922
0.07994087 0.033930324 0.39000002 4278991129
0.081207588 0.033930324 0.39000002 4279056922
0.082474314 0.033930324 0.39000002 4279121945
0.083741032 0.033930324 0.39000002 4279121945
0.085225724 0.034017328 0.39100003 4278991383
0.08649569 0.034017328 0.39100003 4278991383
0.087765656 0.034017328 0.39100003 4278925590
0.08903563 0.034017328 0.39100003 4278991383
0.090536557 0.034104329 0.39200002 4279056406
0.091809772 0.034104329 0.39200002 4279319578
0.093082987 0.034104329 0.39200002 4279187992
0.094596907 0.034191329 0.39300001 4279385371
0.096117325 0.034278329 0.39400002 4279319578
0.097397037 0.034278329 0.39400002 4279057176
0.098927192 0.03436533 0.39500001 4279188762
0.10021015 0.03436533 0.39500001 4279254555
0.10175007 0.03445233 0.39600003 4279386141
0.10303628 0.03445233 0.39600003 4279057176
0.10458592 0.034539331 0.39700001 4279188762
0.10587539 0.034539331 0.39700001 4279188762
0.10743479 0.034626335 0.39800003 4279188762
0.10900066 0.034713335 0.39900002 4279057176
0.11029661 0.034713335 0.39900002 4279254555
0.11159257 0.034713335 0.39900002 4279188762
0.11317145 0.034800332 0.40000001 4279386141
0.11447065 0.034800332 0.40000001 4279517727
0.11576986 0.034800332 0.40000001 4279582496
0.11677638 0.034713335 0.39900002 4279186461
0.11807233 0.034713335 0.39900002 4284973680
0.11936828 0.034713335 0.39900002 4285498741
0.12096665 0.034800332 0.40000001 4285695607
0.12226585 0.034800332 0.40000001 4285958009
0.036588732 0.034926727 0.38700002 4284907633
0.037845708 0.034926727 0.38700002 4284907633
0.039001644 0.034836479 0.38600001 4284907633
0.040255371 0.034836479 0.38600001 4285434231
0.041509099 0.034836479 0.38600001 4281881923
0.042652048 0.03474623 0.38500002 4278988312
0.043902528 0.03474623 0.38500002 4279056922
0.045153007 0.03474623 0.38500002 4279123998
0.046403486 0.03474623 0.38500002 4278992925
0.047653969 0.03474623 0.38500002 4278993179
0.048904449 0.03474623 0.38500002 4279058972
0.050154928 0.03474623 0.38500002 4278795800
0.051405411 0.03474623 0.38500002 4278927386
0.052655887 0.03474623 0.38500002 4278993179
0.05390637 0.03474623 0.38500002 4279058972
0.055156853 0.03474623 0.38500002 4278993179
0.056407336 0.03474623 0.38500002 4278993179
0.057657812 0.03474623 0.38500002 4278993179
0.0590613 0.034836479 0.38600001 4279124252
0.060315032 0.034836479 0.38600001 4279189275
0.061568756 0.034836479 0.38600001 4279124252
0.062822483 0.034836479 0.38600001 4278927386
0.064076215 0.034836479 0.38600001 4278730007
0.065329939 0.034836479 0.38600001 4278927386
0.066583671 0.034836479 0.38600001 4278993179
0.068013154 0.034926727 0.38700002 4278795800
0.069270127 0.034926727 0.38700002 4278993179
0.070527099 0.034926727 0.38700002 4278927386
0.071969569 0.035016976 0.38800001 4278992666
0.07322979 0.035016976 0.38800001 4279058459
0.074490011 0.035016976 0.38800001 4278992666
0.075945474 0.035107229 0.38900003 4279123482
0.077208951 0.035107229 0.38900003 4279189275
0.078472421 0.035107229 0.38900003 4279189275
0.07994087 0.035197478 0.39000002 4279123482
0.081207588 0.035197478 0.39000002 4279123482
0.082474314 0.035197478 0.39000002 4279123482
0.083741032 0.035197478 0.39000002 4278991896
0.085225724 0.03528773 0.39100003 4279123482
0.08649569 0.03528773 0.39100003 4279189273
0.087765656 0.03528773 0.39100003 4278926101
0.08903563 0.03528773 0.39100003 4279123482
0.090536557 0.035377979 0.39200002 4279255068
0.091809772 0.035377979 0.39200002 4279320348
0.093082987 0.035377979 0.39200002 4279320348
0.094596907 0.035468228 0.39300001 4279320348
0.095873371 0.035468228 0.39300001 4279254555
0.097397037 0.035558477 0.39400002 4279188762
0.098927192 0.035648726 0.39500001 4279188762
0.10021015 0.035648726 0.39500001 4279254555
0.10175007 0.035738979 0.39600003 4279320348
0.10303628 0.035738979 0.39600003 4279451934
0.10458592 0.035829227 0.39700001 4279320094
0.10587539 0.035829227 0.39700001 4279450910
0.10743479 0.03591948 0.39800003 4279318297
0.10900066 0.036009729 0.39900002 4279383320
0.11029661 0.036009729 0.39900002 4279317527
0.11159257 0.036009729 0.39900002 4279449113
0.11288852 0.036009729 0.39900002 4280238118
0.11418448 0.036009729 0.39900002 4282408517
0.11548043 0.036009729 0.39900002 4285499511
0.1164837 0.03591948 0.39800003 4285959292
0.11777641 0.03591948 0.39800003 4285564280
0.11906912 0.03591948 0.39800003 4285630073
0.12066424 0.036009729 0.39900002 4285827193
0.039001644 0.036090631 0.38600001 4284973426
0.040255371 0.036090631 0.38600001 4284973426
0.041509099 0.036090631 0.38600001 4284973426
0.042652048 0.035997134 0.38500002 4285171319
0.043902528 0.035997134 0.38500002 4283461723
0.045153007 0.035997134 0.38500002 4279646240
0.046403486 0.035997134 0.38500002 4279121179
0.047653969 0.035997134 0.38500002 4279516705
0.048904449 0.035997134 0.38500002 4279123230
0.050154928 0.035997134 0.38500002 4279058207
0.051405411 0.035997134 0.38500002 4279058207
0.052655887 0.035997134 0.38500002 4279124000
0.05390637 0.035997134 0.38500002 4279254814
0.055156853 0.035997134 0.38500002 4279123228
0.056407336 0.035997134 0.38500002 4279254814
0.057807572 0.036090631 0.38600001 4279123228
0.0590613 0.036090631 0.38600001 4279254814
0.060315032 0.036090631 0.38600001 4279189021
0.061568756 0.036090631 0.38600001 4279254814
0.062822483 0.036090631 0.38600001 4279189021
0.064076215 0.036090631 0.38600001 4279254814
0.065329939 0.036090631 0.38600001 4279320094
0.066583671 0.036090631 0.38600001 4279188508
0.068013154 0.036184132 0.38700002 4279188508
0.069270127 0.036184132 0.38700002 4279254301
0.070527099 0.036184132 0.38700002 4279254301
0.071969569 0.036277629 0.38800001 4278925849
0.07322979 0.036277629 0.38800001 4279188508
0.074490011 0.036277629 0.38800001 4279254301
0.075945474 0.03637113 0.38900003 4279385887
0.077208951 0.03637113 0.38900003 4279320348
0.078472421 0.03637113 0.38900003 4279451164
0.07994087 0.036464628 0.39000002 4279516443
0.081207588 0.036464628 0.39000002 4279582236
0.082474314 0.036464628 0.39000002 4279385117
0.083741032 0.036464628 0.39000002 4279385117
0.085225724 0.036558129 0.39100003 4279385117
0.08649569 0.036558129 0.39100003 4279056152
0.087765656 0.036558129 0.39100003 4279253017
0.08903563 0.036558129 0.39100003 4279713055
0.090536557 0.036651626 0.39200002 4278988562
0.091809772 0.036651626 0.39200002 4279251734
0.093082987 0.036651626 0.39200002 4279252506
0.094596907 0.036745124 0.39300001 4279384092
0.095873371 0.036745124 0.39300001 4280304170
0.097397037 0.036838625 0.39400002 4280896307
0.098927192 0.036932122 0.39500001 4281685825
0.10021015 0.036932122 0.39500001 4283528029
0.10175007 0.037025623 0.39600003 4284382825
0.10303628 0.037025623 0.39600003 4285106548
0.10458592 0.03711912 0.39700001 4285764478
0.10587539 0.03711912 0.39700001 4286092159
0.10743479 0.037212621 0.39800003 4285894267
0.10900066 0.037306119 0.39900002 4285696890
0.11029661 0.037306119 0.39900002 4285565815
0.11159257 0.037306119 0.39900002 4285697401
0.11288852 0.037306119 0.39900002 4285367923
0.11418448 0.037306119 0.39900002 4285368436
0.11519101 0.037212621 0.39800003 4285631608
0.11619103 0.03711912 0.39700001 4285631097
0.11748049 0.03711912 0.39700001 4285761913
0.11906912 0.037212621 0.39800003 4285761913
0.11589836 0.038312268 0.39600003 4285761911
0.11718457 0.038312268 0.39600003 4285761913
0.073463775 0.02725625 0.38992012 4294967295
0.073463775 0.02725625 0.38992012 4294901760
0.073499016 0.026757753 0.38990405 4294901760
0.073534265 0.026259257 0.38988799 4294901760
0.073569506 0.025760759 0.3898719 4294901760
0.073604748 0.025262261 0.38985583 4294901760
0.073639989 0.024763763 0.38983977 4294901760
0.073675238 0.024265267 0.38982368 4294901760
0.073710479 0.023766769 0.38980761 4294901760
0.07374572 0.023268271 0.38979155 4294901760
0.073780969 0.022769773 0.38977548 4294901760
0.07381621 0.022271276 0.38975942 4294901760
0.073851451 0.02177278 0.38974333 4294901760
0.073886693 0.021274282 0.38972726 4294901760
0.073921941 0.020775784 0.3897112 4294901760
0.073957182 0.020277288 0.38969511 4294901760
0.073992424 0.01977879 0.38967904 4294901760
0.074027672 0.019280292 0.38966298 4294901760
0.074062914 0.018781796 0.38964692 4294901760
0.074098155 0.018283296 0.38963085 4294901760
0.074133404 0.0177848 0.38961476 4294901760
0.074168645 0.017286303 0.3895987 4294901760
0.074203886 0.016787805 0.38958263 4294901760
0.074239127 0.016289309 0.38956654 4294901760
0.074274376 0.015790811 0.38955048 4294901760
0.074309617 0.015292314 0.38953441 4294901760
0.074344859 0.014793816 0.38951835 4294901760
0.074380107 0.014295319 0.38950229 4294901760
0.074415348 0.01379682 0.38948619 4294901760
0.07445059 0.013298323 0.38947013 4294901760
0.074485831 0.012799827 0.38945407 4294901760
0.07452108 0.012301329 0.38943797 4294901760
0.074556321 0.011802832 0.38942191 4294901760
0.074591562 0.011304336 0.38940585 4294901760
0.074626811 0.010805836 0.38938978 4294901760
0.074662052 0.01030734 0.38937372 4294901760
0.074697293 0.0098088421 0.38935763 4294901760
0.074732535 0.0093103442 0.38934156 4294901760
0.074767783 0.0088118464 0.3893255 4294901760
0.074803025 0.0083133504 0.38930941 4294901760
0.074838266 0.0078148544 0.38929334 4294901760
0.074873514 0.0073163547 0.38927728 4294901760
0.074908756 0.0068178587 0.38926122 4294901760
0.074943997 0.0063193608 0.38924515 4294901760
0.074979238 0.0058208629 0.38922906 4294901760
0.075014487 0.005322367 0.389213 4294901760
0.075049728 0.0048238691 0.38919693 4294901760
0.075084969 0.0043253712 0.38918084 4294901760
0.075120218 0.0038268734 0.38916478 4294901760
0.075155459 0.0033283774 0.38914871 4294901760
0.075190701 0.0028298777 0.38913265 4294901760
0.075225949 0.0023313817 0.38911659 4294901760
0.075261191 0.0018328857 0.38910049 4294901760
0.075296432 0.0013343878 0.38908443 4294901760
0.075331673 0.00083589181 0.38906837 4294901760
0.075366922 0.00033739023 0.38905227 4294901760
0.075402163 -0.00016110577 0.38903621 4294901760
0.075437404 -0.00065960363 0.38902014 4294901760
0.075472653 -0.0011580996 0.38900408 4294901760
0.075507894 -0.0016565956 0.38898802 4294901760
0.075543135 -0.0021550935 0.38897192 4294901760
0.075578377 -0.0026535932 0.38895586 4294901760
0.075613625 -0.0031520911 0.3889398 4294901760
0.075648867 -0.0036505871 0.3889237 4294901760
0.075684108 -0.004149083 0.38890764 4294901760
0.075719357 -0.004647579 0.38889158 4294901760
0.075754598 -0.0051460788 0.38887551 4294901760
0.075789839 -0.0056445785 0.38885945 4294901760
0.07582508 -0.0061430745 0.38884336 4294901760
0.075860329 -0.0066415705 0.38882729 4294901760
0.07589557 -0.0071400665 0.38881123 4294901760
0.075930811 -0.0076385662 0.38879514 4294901760
0.07596606 -0.0081370622 0.38877907 4294901760
0.076001301 -0.0086355619 0.38876301 4294901760
0.076036543 -0.0091340579 0.38874695 4294901760
0.076071784 -0.0096325576 0.38873088 4294901760
0.076107033 -0.010131054 0.38871479 4294901760
0.076142274 -0.01062955 0.38869873 4294901760
0.076177515 -0.011128046 0.38868266 4294901760
0.076212764 -0.011626542 0.38866657 4294901760
0.076248005 -0.012125045 0.38865051 4294901760
0.076283246 -0.012623541 0.38863444 4294901760
0.076318488 -0.013122037 0.38861838 4294901760
0.076353736 -0.013620533 0.38860232 4294901760
0.076388977 -0.014119029 0.38858622 4294901760
0.076424219 -0.014617529 0.38857016 4294901760
0.076459467 -0.015116028 0.3885541 4294901760
0.076494709 -0.015614524 0.388538 4294901760
0.07652995 -0.01611302 0.38852194 4294901760
0.076565199 -0.016611516 0.38850588 4294901760
0.07660044 -0.017110016 0.38848981 4294901760
0.076635681 -0.017608512 0.38847375 4294901760
0.076670922 -0.018107012 0.38845766 4294901760
0.076706171 -0.018605508 0.38844159 4294901760
0.076741412 -0.019104008 0.38842553 4294901760
0.076776654 -0.019602504 0.38840944 4294901760
0.076811902 -0.020101 0.38839337 4294901760
0.076847143 -0.020599496 0.38837731 4294901760
0.076882385 -0.021097995 0.38836125 4294901760
0.076917626 -0.021596495 0.38834518 4294901760
0.076952875 -0.022094991 0.38832909 4294901760
0.076988116 -0.022593487 0.38831303 4294901760
0.073463775 0.02725625 0.38992012 4278255360
0.073958397 0.027289115 0.38998544 4278255360
0.074453026 0.027321978 0.39005074 4278255360
0.074947648 0.027354842 0.39011607 4278255360
0.075442277 0.027387707 0.39018139 4278255360
0.075936899 0.027420569 0.39024669 4278255360
0.076431528 0.027453434 0.39031202 4278255360
0.076926149 0.027486298 0.39037731 4278255360
0.077420771 0.027519161 0.39044264 4278255360
0.0779154 0.027552025 0.39050797 4278255360
0.078410022 0.02758489 0.39057326 4278255360
0.078904651 0.027617753 0.39063859 4278255360
0.079399273 0.027650617 0.39070392 4278255360
0.079893902 0.027683482 0.39076921 4278255360
0.080388524 0.027716344 0.39083454 4278255360
0.080883145 0.027749209 0.39089987 4278255360
0.081377774 0.027782073 0.39096516 4278255360
0.081872396 0.027814936 0.39103049 4278255360
0.082367025 0.0278478 0.39109582 4278255360
0.082861647 0.027880665 0.39116111 4278255360
0.083356276 0.027913528 0.39122644 4278255360
0.083850898 0.027946392 0.39129174 4278255360
0.08434552 0.027979257 0.39135706 4278255360
0.084840149 0.028012119 0.39142239 4278255360
0.08533477 0.028044984 0.39148769 4278255360
0.0858294 0.028077848 0.39155301 4278255360
0.086324021 0.028110711 0.39161834 4278255360
0.08681865 0.028143575 0.39168364 4278255360
0.087313272 0.028176438 0.39174896 4278255360
0.087807894 0.028209303 0.39181429 4278255360
0.088302523 0.028242167 0.39187959 4278255360
0.088797145 0.02827503 0.39194492 4278255360
0.089291774 0.028307894 0.39201021 4278255360
0.089786395 0.028340759 0.39207554 4278255360
0.090281025 0.028373621 0.39214087 4278255360
0.090775646 0.028406486 0.39220616 4278255360
0.091270268 0.02843935 0.39227149 4278255360
0.091764897 0.028472213 0.39233682 4278255360
0.092259519 0.028505078 0.39240211 4278255360
0.092754148 0.028537942 0.39246744 4278255360
0.09324877 0.028570805 0.39253277 4278255360
0.093743399 0.028603669 0.39259806 4278255360
0.09423802 0.028636534 0.39266339 4278255360
0.094732642 0.028669396 0.39272872 4278255360
0.095227271 0.028702261 0.39279401 4278255360
0.095721893 0.028735125 0.39285934 4278255360
0.096216522 0.028767988 0.39292464 4278255360
0.096711144 0.028800853 0.39298996 4278255360
0.097205773 0.028833717 0.39305529 4278255360
0.097700395 0.02886658 0.39312059 4278255360
0.098195016 0.028899444 0.39318591 4278255360
0.098689646 0.028932309 0.39325124 4278255360
0.099184267 0.028965171 0.39331654 4278255360
0.099678889 0.028998036 0.39338186 4278255360
0.10017352 0.0290309 0.39344719 4278255360
0.10066815 0.029063763 0.39351249 4278255360
0.10116277 0.029096628 0.39357781 4278255360
0.10165739 0.029129492 0.39364311 4278255360
0.10215202 0.029162355 0.39370844 4278255360
0.10264664 0.029195219 0.39377376 4278255360
0.10314127 0.029228084 0.39383906 4278255360
0.10363589 0.029260946 0.39390439 4278255360
0.10413052 0.029293811 0.39396971 4278255360
0.10462514 0.029326675 0.39403501 4278255360
0.10511976 0.029359538 0.39410034 4278255360
0.10561439 0.029392403 0.39416566 4278255360
0.10610902 0.029425267 0.39423096 4278255360
0.10660364 0.02945813 0.39429629 4278255360
0.10709827 0.029490994 0.39436162 4278255360
0.1075929 0.029523857 0.39442691 4278255360
0.10808752 0.029556721 0.39449224 4278255360
0.10858214 0.029589586 0.39455754 4278255360
0.10907677 0.02962245 0.39462286 4278255360
0.1095714 0.029655313 0.39468819 4278255360
0.11006602 0.029688178 0.39475349 4278255360
0.11056064 0.02972104 0.39481881 4278255360
0.11105527 0.029753905 0.39488414 4278255360
0.11154989 0.029786769 0.39494944 4278255360
0.11204451 0.029819632 0.39501476 4278255360
0.11253914 0.029852496 0.39508009 4278255360
0.11303377 0.029885361 0.39514539 4278255360
0.11352839 0.029918224 0.39521071 4278255360
0.11402301 0.029951088 0.39527601 4278255360
0.11451764 0.029983953 0.39534134 4278255360
0.11501227 0.030016815 0.39540666 4278255360
0.11550689 0.03004968 0.39547196 4278255360
0.11600152 0.030082544 0.39553729 4278255360
0.11649615 0.030115407 0.39560261 4278255360
0.11699077 0.030148271 0.39566791 4278255360
0.11748539 0.030181136 0.39573324 4278255360
0.11798002 0.030213999 0.39579856 4278255360
0.11847465 0.030246863 0.39586386 4278255360
0.11896926 0.030279728 0.39592919 4278255360
0.11946389 0.03031259 0.39599451 4278255360
0.11995852 0.030345455 0.39605981 4278255360
0.12045314 0.030378319 0.39612514 4278255360
0.12094776 0.030411182 0.39619043 4278255360
0.12144239 0.030444046 0.39625576 4278255360
0.12193702 0.030476911 0.39632109 4278255360
0.12243164 0.030509774 0.39638638 4278255360
0.12292627 0.030542638 0.39645171 4278255360
0.073463775 0.02725625 0.38992012 4278190335
0.073350921 0.027232587 0.39040664 4278190335
0.073238067 0.027208922 0.39089316 4278190335
0.073125213 0.027185259 0.39137968 4278190335
0.073012352 0.027161596 0.39186621 4278190335
0.072899498 0.027137931 0.39235273 4278190335
0.072786644 0.027114268 0.39283925 4278190335
0.07267379 0.027090605 0.39332578 4278190335
0.072560936 0.02706694 0.3938123 4278190335
0.072448082 0.027043277 0.39429882 4278190335
0.072335221 0.027019614 0.39478534 4278190335
0.072222367 0.026995949 0.39527187 4278190335
0.072109513 0.026972286 0.39575839 4278190335
0.071996659 0.026948623 0.39624491 4278190335
0.071883805 0.02692496 0.39673144 4278190335
0.071770951 0.026901295 0.39721796 4278190335
0.07165809 0.026877632 0.39770448 4278190335
0.071545236 0.026853969 0.39819098 4278190335
0.071432382 0.026830304 0.3986775 4278190335
0.071319528 0.026806641 0.39916402 4278190335
0.071206674 0.026782978 0.39965054 4278190335
0.07109382 0.026759313 0.40013707 4278190335
0.070980959 0.02673565 0.40062359 4278190335
0.070868105 0.026711987 0.40111011 4278190335
0.070755251 0.026688322 0.40159664 4278190335
0.070642397 0.026664659 0.40208316 4278190335
0.070529543 0.026640996 0.40256968 4278190335
0.070416689 0.026617331 0.4030562 4278190335
0.070303828 0.026593668 0.40354273 4278190335
0.070190974 0.026570005 0.40402925 4278190335
0.07007812 0.02654634 0.40451577 4278190335
0.069965266 0.026522677 0.4050023 4278190335
0.069852412 0.026499014 0.40548882 4278190335
0.069739558 0.026475349 0.40597534 4278190335
0.069626696 0.026451686 0.40646186 4278190335
0.069513842 0.026428023 0.40694839 4278190335
0.069400989 0.026404358 0.40743491 4278190335
0.069288135 0.026380695 0.40792143 4278190335
0.069175281 0.026357032 0.40840796 4278190335
0.069062427 0.026333369 0.40889448 4278190335
0.068949565 0.026309704 0.409381 4278190335
0.068836711 0.026286041 0.40986753 4278190335
0.068723857 0.026262378 0.41035405 4278190335
0.068611003 0.026238713 0.41084057 4278190335
0.06849815 0.02621505 0.41132709 4278190335
0.068385296 0.026191387 0.41181362 4278190335
0.068272434 0.026167722 0.41230014 4278190335
0.06815958 0.026144059 0.41278666 4278190335
0.068046726 0.026120396 0.41327319 4278190335
0.067933872 0.026096731 0.41375971 4278190335
0.067821018 0.026073068 0.4142462 4278190335
0.067708164 0.026049405 0.41473272 4278190335
0.067595303 0.02602574 0.41521925 4278190335
0.067482449 0.026002077 0.41570577 4278190335
0.067369595 0.025978414 0.41619229 4278190335
0.067256741 0.025954749 0.41667882 4278190335
0.067143887 0.025931086 0.41716534 4278190335
0.067031033 0.025907423 0.41765186 4278190335
0.066918172 0.025883758 0.41813838 4278190335
0.066805318 0.025860095 0.41862491 4278190335
0.066692464 0.025836432 0.41911143 4278190335
0.06657961 0.025812767 0.41959795 4278190335
0.066466756 0.025789104 0.42008448 4278190335
0.066353902 0.025765441 0.420571 4278190335
0.066241041 0.025741778 0.42105752 4278190335
0.066128187 0.025718113 0.42154405 4278190335
0.066015333 0.02569445 0.42203057 4278190335
0.065902479 0.025670787 0.42251709 4278190335
0.065789625 0.025647122 0.42300361 4278190335
0.065676771 0.025623459 0.42349014 4278190335
0.065563917 0.025599796 0.42397666 4278190335
0.065451056 0.025576131 0.42446318 4278190335
0.065338202 0.025552468 0.42494971 4278190335
0.065225348 0.025528805 0.42543623 4278190335
0.065112494 0.02550514 0.42592275 4278190335
0.06499964 0.025481477 0.42640927 4278190335
0.064886779 0.025457814 0.4268958 4278190335
0.064773925 0.025434149 0.42738232 4278190335
0.064661071 0.025410486 0.42786884 4278190335
0.064548217 0.025386823 0.42835537 4278190335
0.064435363 0.025363158 0.42884189 4278190335
0.064322509 0.025339495 0.42932841 4278190335
0.064209655 0.025315832 0.42981493 4278190335
0.064096794 0.025292169 0.43030143 4278190335
0.06398394 0.025268504 0.43078795 4278190335
0.063871086 0.025244841 0.43127447 4278190335
0.063758232 0.025221176 0.43176103 4278190335
0.063645378 0.025197513 0.43224752 4278190335
0.063532516 0.02517385 0.43273404 4278190335
0.063419662 0.025150187 0.43322057 4278190335
0.063306808 0.025126522 0.43370709 4278190335
0.063193955 0.025102859 0.43419361 4278190335
0.063081101 0.025079194 0.43468013 4278190335
0.062968247 0.025055531 0.43516666 4278190335
0.062855393 0.025031868 0.43565318 4278190335
0.062742531 0.025008205 0.4361397 4278190335
0.062629677 0.02498454 0.43662623 4278190335
0.062516823 0.024960877 0.43711275 4278190335
0.062403969 0.024937214 0.43759927 4278190335
0.062291112 0.024913549 0.43808579 4278190335
0.062178258 0.024889886 0.43857232 4278190335
0.073463775 0.02725625 0.38992012 4294967295
0.074140906 0.027398232 0.38700098 4294967295
0.074818037 0.027540214 0.38408184 4294967295
0.075495169 0.027682196 0.3811627 4294967295
0.0761723 0.027824178 0.3782436 4294967295
0.076849431 0.02796616 0.37532446 4294967295
0.077526562 0.02810814 0.37240532 4294967295
0.078203693 0.028250122 0.36948618 4294967295
0.078880824 0.028392104 0.36656705 4294967295
0.079557955 0.028534086 0.36364791 4294967295
0.080235086 0.028676068 0.3607288 4294967295
0.080912217 0.02881805 0.35780966 4294967295
0.081589349 0.028960032 0.35489053 4294967295
0.08226648 0.029102014 0.35197139 4294967295
0.082943611 0.029243996 0.34905225 4294967295
0.083620742 0.029385976 0.34613311 4294967295
0.084297873 0.029527958 0.34321401 4294967295
0.084975004 0.02966994 0.34029487 4294967295
