# .PCD v0.7 - Point Cloud Data file format
VERSION 0.7
FIELDS x y z rgb
SIZE 4 4 4 4
TYPE F F F U
COUNT 1 1 1 1
WIDTH 677
HEIGHT 1
VIEWPOINT 0 0 0 1 0 0 0
POINTS 677
DATA ascii
-0.059312679 0.012507609 0.49500003 4281484085
-0.055983827 0.01248234 0.49400002 4280826923
-0.049666114 0.012507609 0.49500003 4279582498
-0.048155438 0.012532877 0.49600002 4279849258
-0.046732109 0.012583412 0.49800003 4279063336
-0.045295786 0.012633948 0.5 4278866986
-0.043846473 0.012684484 0.50200003 4279459384
-0.042300072 0.012709752 0.50300002 4282618218
-0.040828019 0.012760287 0.505 4281959259
-0.060797367 0.014087398 0.49400002 4281155890
-0.059192851 0.014087398 0.49400002 4281024052
-0.057588339 0.014087398 0.49400002 4281221429
-0.055983827 0.014087398 0.49400002 4280562983
-0.054379314 0.014087398 0.49400002 4281155118
-0.052774802 0.014087398 0.49400002 4281287476
-0.048155438 0.014144432 0.49600002 4279716137
-0.046732109 0.014201466 0.49800003 4279061537
-0.045295786 0.014258499 0.5 4279325222
-0.043846473 0.014315534 0.50200003 4279196203
-0.042384166 0.014372568 0.50400001 4278670372
-0.040828019 0.014401084 0.505 4279460658
-0.039420579 0.014486636 0.50800002 4279723830
-0.037844945 0.014515152 0.509 4279986234
-0.036191713 0.014515152 0.509 4278605865
-0.034538481 0.014515152 0.509 4279132205
-0.032949857 0.01454367 0.51000005 4279197998
-0.031293377 0.01454367 0.51000005 4279329584
-0.029636895 0.01454367 0.51000005 4279395892
-0.028035278 0.014572187 0.51100004 4279329074
-0.026427163 0.014600703 0.51200002 4279263281
-0.024812553 0.014629221 0.51300001 4279986234
-0.023191446 0.014657737 0.514 4279920187
-0.021563848 0.014686256 0.51500005 4280838211
-0.01992975 0.014714772 0.51600003 4280706110
-0.018253781 0.014714772 0.51600003 4280837698
-0.016609939 0.014743289 0.51700002 4280706112
-0.014930722 0.014743289 0.51700002 4281757778
-0.013277137 0.014771805 0.51800001 4283402092
-0.060674299 0.015660688 0.49300003 4280892718
-0.059192851 0.015692456 0.49400002 4280892466
-0.057588339 0.015692456 0.49400002 4281418808
-0.055983827 0.015692456 0.49400002 4280431143
-0.054269236 0.015660688 0.49300003 4281023534
-0.052667972 0.015660688 0.49300003 4280102430
-0.051170286 0.015692456 0.49400002 4281549874
-0.049666114 0.015724221 0.49500003 4279712287
-0.048155438 0.015755987 0.49600002 4279781158
-0.046732109 0.01581952 0.49800003 4279323426
-0.045295786 0.015883051 0.5 4279061537
-0.043846473 0.015946584 0.50200003 4278997027
-0.042384166 0.016010115 0.50400001 4279194920
-0.040908869 0.016073648 0.50600004 4279129638
-0.039342981 0.016105415 0.50700003 4279130408
-0.037770595 0.016137181 0.50800002 4279591472
-0.036191713 0.016168946 0.509 4278934314
-0.034538481 0.016168946 0.509 4278802728
-0.03288525 0.016168946 0.509 4278934312
-0.031232014 0.016168946 0.509 4278868519
-0.029636895 0.016200714 0.51000005 4278934312
-0.027980415 0.016200714 0.51000005 4278736933
-0.026375549 0.016232479 0.51100004 4279000619
-0.024764186 0.016264245 0.51200002 4278737447
-0.023191446 0.016327776 0.514 4278869033
-0.021563848 0.016359543 0.51500005 4279132207
-0.01992975 0.016391309 0.51600003 4279263277
-0.018253781 0.016391309 0.51600003 4279329070
-0.016609939 0.016423075 0.51700002 4279460656
-0.014959602 0.01645484 0.51800001 4279658037
-0.013277137 0.01645484 0.51800001 4279658037
-0.011617057 0.016486609 0.51900005 4279788342
-0.0099504786 0.016518375 0.52000004 4279721266
-0.0082774051 0.01655014 0.52100003 4280508994
-0.0065851966 0.01655014 0.52100003 4281100618
-0.060674299 0.017262496 0.49300003 4280365602
-0.059192851 0.01729751 0.49400002 4280562215
-0.057588339 0.01729751 0.49400002 4280562215
-0.055870499 0.017262496 0.49300003 4280892464
-0.054269236 0.017262496 0.49300003 4280761132
-0.052667972 0.017262496 0.49300003 4280826151
-0.051170286 0.01729751 0.49400002 4280892196
-0.049565777 0.01729751 0.49400002 4280107295
-0.048155438 0.017367542 0.49600002 4279978276
-0.046638269 0.017402556 0.49700001 4279388705
-0.045205195 0.017472588 0.49900001 4279586598
-0.043846473 0.017577633 0.50200003 4279522086
-0.042384166 0.017647663 0.50400001 4279391783
-0.040908869 0.017717695 0.50600004 4279392297
-0.039342981 0.017752709 0.50700003 4279394093
-0.037770595 0.017787723 0.50800002 4279262507
-0.036120608 0.017787723 0.50800002 4279065130
-0.034538481 0.017822739 0.509 4278999337
-0.03288525 0.017822739 0.509 4278999335
-0.031232014 0.017822739 0.509 4278206995
-0.029578781 0.017822739 0.509 4279063847
-0.027980415 0.017857755 0.51000005 4278933796
-0.026375549 0.01789277 0.51100004 4278933796
-0.024764186 0.017927784 0.51200002 4278671140
-0.023191446 0.017997814 0.514 4278736933
-0.021563848 0.018032832 0.51500005 4278868519
-0.01992975 0.018067846 0.51600003 4278868519
-0.018289156 0.01810286 0.51700002 4278737447
-0.016642066 0.018137876 0.51800001 4278408482
-0.014959602 0.018137876 0.51800001 4278803240
-0.01330277 0.018172892 0.51900005 4278869033
-0.01163944 0.018207908 0.52000004 4279066666
-0.0099696144 0.018242922 0.52100003 4279263277
-0.0082932925 0.018277936 0.52200001 4279197486
-0.006597836 0.018277936 0.52200001 4279263281
-0.0049211625 0.018347967 0.52400005 4279723060
-0.0032253526 0.018382983 0.52500004 4279985721
-0.0015259427 0.018453013 0.52700001 4279523121
0.00018610668 0.018488027 0.528 4280443201
-0.060797367 0.018902566 0.49400002 4280695085
-0.059192851 0.018902566 0.49400002 4280562729
-0.057588339 0.018902566 0.49400002 4280759594
-0.055983827 0.018902566 0.49400002 4280956973
-0.054269236 0.018864304 0.49300003 4280628008
-0.052667972 0.018864304 0.49300003 4281155116
-0.051170286 0.018902566 0.49400002 4280695587
-0.049565777 0.018902566 0.49400002 4279713820
-0.048155438 0.018979095 0.49600002 4279649824
-0.046638269 0.019017359 0.49700001 4279257633
-0.045205195 0.019093888 0.49900001 4279587111
-0.043846473 0.019208683 0.50200003 4279325990
-0.042384166 0.019285209 0.50400001 4279260711
-0.040828019 0.019323474 0.505 4279261224
-0.039342981 0.019400004 0.50700003 4279327789
-0.037696246 0.019400004 0.50700003 4279394095
-0.036120608 0.019438267 0.50800002 4278867751
-0.034470625 0.019438267 0.50800002 4279063847
-0.032820642 0.019438267 0.50800002 4279063845
-0.031170655 0.019438267 0.50800002 4278206738
-0.029578781 0.019476531 0.509 4279655471
-0.027980415 0.019514797 0.51000005 4279721262
-0.026375549 0.019553062 0.51100004 4279391783
-0.024764186 0.019591324 0.51200002 4280115508
-0.023146328 0.019629588 0.51300001 4279129127
-0.021563848 0.019706119 0.51500005 4279327019
-0.01992975 0.019744383 0.51600003 4279195433
-0.018289156 0.019782646 0.51700002 4278933029
-0.016642066 0.01982091 0.51800001 4279393580
-0.014988483 0.019859176 0.51900005 4278933029
-0.0133284 0.01989744 0.52000004 4278867236
-0.011661824 0.019935703 0.52100003 4278867490
-0.0099887494 0.019973967 0.52200001 4278867490
-0.0083091799 0.020012232 0.523 4279000107
-0.0066231154 0.020050498 0.52400005 4278802728
-0.0049399454 0.020127025 0.52600002 4278934312
-0.0032376396 0.020165289 0.52700001 4278802726
-0.0015317338 0.020241819 0.52900004 4279000107
0.00018681164 0.020280082 0.53000003 4279329072
0.0019190541 0.020394877 0.53300005 4278934062
-0.060797367 0.020507623 0.49400002 4280431913
-0.059312679 0.020549137 0.49500003 4280957487
-0.057588339 0.020507623 0.49400002 4281023280
-0.055983827 0.020507623 0.49400002 4280694315
-0.054379314 0.020507623 0.49400002 4280496936
-0.052774802 0.020507623 0.49400002 4281024300
-0.051170286 0.020507623 0.49400002 4280959020
-0.049666114 0.020549137 0.49500003 4279845922
-0.048155438 0.02059065 0.49600002 4279650596
-0.046638269 0.020632163 0.49700001 4279323428
-0.045205195 0.02071519 0.49900001 4279258146
-0.04375913 0.020798218 0.50100005 4278931746
-0.042300072 0.020881243 0.50300002 4279260711
-0.040828019 0.02096427 0.505 4278603294
-0.039265383 0.021005785 0.50600004 4279393580
-0.037696246 0.021047298 0.50700003 4279065130
-0.036049508 0.021047298 0.50700003 4279065130
-0.034402769 0.021047298 0.50700003 4279130410
-0.032756034 0.021047298 0.50700003 4279261224
-0.031170655 0.021088811 0.50800002 4278199808
-0.02952067 0.021088811 0.50800002 4280310836
-0.027925549 0.021130323 0.509 4278200077
-0.026323933 0.02117184 0.51000005 4278461968
-0.024764186 0.021254865 0.51200002 4278527250
-0.023146328 0.021296378 0.51300001 4278790420
-0.021563848 0.021379406 0.51500005 4278725140
-0.01992975 0.021420918 0.51600003 4278264589
-0.018324532 0.021503944 0.51800001 4279585062
-0.016674194 0.02154546 0.51900005 4278200578
-0.015017362 0.021586973 0.52000004 4278203403
-0.013354031 0.021628486 0.52100003 4278731289
-0.011684206 0.021669999 0.52200001 4278995746
-0.010007884 0.021711512 0.523 4279062052
-0.0083409548 0.021794539 0.52500004 4279983924
-0.0066483943 0.021836052 0.52600002 4279392299
-0.0049587279 0.021919077 0.528 4279392299
-0.003249927 0.021960594 0.52900004 4279129640
-0.0015375247 0.022043619 0.53100002 4278867236
0.00018786907 0.022126647 0.53300005 4278867749
0.0019262549 0.022209672 0.53500003 4279131691
0.0036844814 0.022334214 0.53800005 4279263277
-0.06092044 0.022157442 0.49500003 4281549110
-0.059312679 0.022157442 0.49500003 4281417524
-0.057704918 0.022157442 0.49500003 4281352245
-0.056097154 0.022157442 0.49500003 4281024050
-0.054379314 0.022112679 0.49400002 4281155890
-0.051170286 0.022112679 0.49400002 4280236580
-0.049666114 0.022157442 0.49500003 4279781412
-0.048155438 0.022202205 0.49600002 4279519523
-0.046638269 0.022246966 0.49700001 4279192355
-0.045205195 0.022336492 0.49900001 4279521320
-0.04375913 0.022426018 0.50100005 4279325990
-0.042300072 0.022515543 0.50300002 4279063586
-0.040747173 0.022560304 0.50400001 4279064099
-0.039187778 0.022605065 0.505 4279458857
-0.037621893 0.02264983 0.50600004 4279064615
-0.035978403 0.02264983 0.50600004 4279196203
-0.034402769 0.022694593 0.50700003 4278998822
-0.032756034 0.022694593 0.50700003 4279261224
-0.031109296 0.022694593 0.50700003 4278203662
-0.02952067 0.022739355 0.50800002 4280309809
-0.027925549 0.022784116 0.509 4278658836
-0.026323933 0.022828881 0.51000005 4278723605
-0.024764186 0.022918405 0.51200002 4278591505
-0.023146328 0.022963166 0.51300001 4278262794
-0.021563848 0.023052692 0.51500005 4279117590
-0.019968374 0.023142217 0.51700002 4278591505
-0.018324532 0.02318698 0.51800001 4280177453
-0.016706323 0.023276506 0.52000004 4279652906
-0.015046241 0.023321267 0.52100003 4279587113
-0.013379663 0.023366028 0.52200001 4279455014
-0.01170659 0.023410792 0.523 4279783979
-0.010046156 0.023500318 0.52500004 4280244276
-0.0083568422 0.023545079 0.52600002 4280178483
-0.0066736727 0.023634603 0.528 4279652139
-0.0049775112 0.023724129 0.53000003 4279322660
-0.0032683571 0.023813654 0.53200001 4278467353
-0.0015433159 0.023858419 0.53300005 4278401306
0.00018857402 0.023947943 0.53500003 4278200583
0.0019334558 0.024037465 0.537 4278670370
0.0036913299 0.024126993 0.53900003 4278802726
0.0054621953 0.024216516 0.54100001 4279457326
-0.0625282 0.02376575 0.49500003 4281089327
-0.061043512 0.02381376 0.49600002 4281483571
-0.059432499 0.02381376 0.49600002 4281286192
-0.056097154 0.02376575 0.49500003 4280958257
-0.054489397 0.02376575 0.49500003 4281353269
-0.052881636 0.02376575 0.49500003 4281287474
-0.051273871 0.02376575 0.49500003 4279842336
-0.049666114 0.02376575 0.49500003 4279518758
-0.048155438 0.02381376 0.49600002 4279388453
-0.046638269 0.023861771 0.49700001 4279193125
-0.045205195 0.023957795 0.49900001 4279390504
-0.04375913 0.024053819 0.50100005 4279260197
-0.042215977 0.024101831 0.50200003 4279195172
-0.040747173 0.024197852 0.50400001 4279064615
-0.039187778 0.024245864 0.505 4279459375
-0.03754754 0.024245864 0.505 4278998824
-0.035978403 0.024293877 0.50600004 4279064617
-0.034334917 0.024293877 0.50600004 4279064617
-0.032691427 0.024293877 0.50600004 4279655984
-0.031109296 0.024341889 0.50700003 4279849520
-0.029462559 0.024341889 0.50700003 4279783213
-0.027870687 0.0243899 0.50800002 4280765493
-0.026323933 0.024485925 0.51000005 4278396177
-0.024764186 0.024581946 0.51200002 4278197513
-0.023146328 0.024629958 0.51300001 4278658834
-0.021563848 0.024725983 0.51500005 4278790933
-0.019968374 0.024822004 0.51700002 4278196998
-0.018359909 0.024918029 0.51900005 4279914027
-0.016706323 0.024966041 0.52000004 4278202895
-0.01507512 0.025062062 0.52200001 4279848488
-0.013405294 0.025110073 0.523 4278796570
-0.011728975 0.025158087 0.52400005 4279454500
-0.010065292 0.02525411 0.52600002 4278203405
-0.0083886171 0.025350131 0.528 4279522603
-0.0066989521 0.025446156 0.53000003 4279193638
-0.0049962942 0.025542177 0.53200001 4279325224
-0.0032806445 0.025638202 0.53400004 4279522090
-0.0015520024 0.025734225 0.53600001 4279391017
0.00018927896 0.025782235 0.537 4278271769
0.0019406568 0.02587826 0.53900003 4278866470
0.0036981781 0.025926271 0.54000002 4278670372
0.0054621953 0.025974283 0.54100001 4279588144
-0.059552323 0.025476575 0.49700001 4281023280
-0.049766447 0.025425315 0.49600002 4279650090
-0.048155438 0.025425315 0.49600002 4279322662
-0.046638269 0.025476575 0.49700001 4279258918
-0.045205195 0.025579097 0.49900001 4279391015
-0.043671783 0.025630357 0.5 4279326504
-0.042215977 0.02573288 0.50200003 4279195431
-0.040666327 0.02578414 0.50300002 4279327789
-0.03911018 0.0258354 0.50400001 4279393582
-0.03754754 0.02588666 0.505 4279064619
-0.035907295 0.02588666 0.505 4279064619
-0.034267057 0.02588666 0.505 4279130412
-0.032691427 0.025937922 0.50600004 4279523887
-0.031047937 0.025937922 0.50600004 4280507961
-0.029462559 0.025989184 0.50700003 4278203667
-0.027870687 0.026040444 0.50800002 4278790933
-0.026323933 0.026142966 0.51000005 4279514656
-0.024764186 0.026245486 0.51200002 4278395410
-0.023191446 0.026348006 0.514 4278195719
-0.021605721 0.02645053 0.51600003 4281291067
-0.019968374 0.02650179 0.51700002 4278198280
-0.018359909 0.026604313 0.51900005 4279452965
-0.01673845 0.026706833 0.52100003 4278989595
-0.01507512 0.026758093 0.52200001 4279056924
-0.013430927 0.026860617 0.52400005 4280637237
-0.011751357 0.026911877 0.52500004 4278335765
-0.010084427 0.027014397 0.52700001 4278862109
-0.0084045054 0.027116919 0.52900004 4278598937
-0.0067115915 0.027219439 0.53100002 4278927904
-0.0050056861 0.027321963 0.53300005 4279388453
-0.003286788 0.027424483 0.53500003 4278664730
-0.0015548979 0.027527003 0.537 4279323687
0.00018998391 0.027629526 0.53900003 4278202892
0.0019442573 0.027680786 0.54000002 4279523371
0.0037050266 0.027732046 0.54100001 4279129640
0.0054722922 0.02778331 0.54200006 4279521838
-0.049766447 0.02703687 0.49600002 4279716137
-0.048252523 0.027091378 0.49700001 4279520041
-0.046638269 0.027091378 0.49700001 4279192871
-0.045205195 0.027200399 0.49900001 4279456810
-0.043671783 0.027254907 0.5 4279194406
-0.042131882 0.02730942 0.50100005 4279129638
-0.040585477 0.027363928 0.50200003 4279328300
-0.039032582 0.027418438 0.50300002 4278933544
-0.037473191 0.027472947 0.50400001 4278867751
-0.035907295 0.027527457 0.505 4278867751
-0.034267057 0.027527457 0.505 4278933544
-0.032691427 0.027581969 0.50600004 4279260201
-0.031047937 0.027581969 0.50600004 4279717932
-0.029462559 0.027636478 0.50700003 4278200327
-0.027870687 0.027690986 0.50800002 4279184408
-0.026323933 0.027800009 0.51000005 4278986004
-0.024764186 0.027909027 0.51200002 4279183129
-0.023191446 0.028018044 0.514 4278985750
-0.021605721 0.028127067 0.51600003 4278854677
-0.020006998 0.028236084 0.51800001 4279186463
-0.018359909 0.028290598 0.51900005 4280703032
-0.01673845 0.028399615 0.52100003 4278199563
-0.015104 0.028508633 0.523 4280110893
-0.013430927 0.028563146 0.52400005 4280571957
-0.011773741 0.028672164 0.52600002 4279257381
-0.010103562 0.028781181 0.528 4279652139
-0.0084203929 0.028890204 0.53000003 4279323689
-0.0067242309 0.028999222 0.53200001 4279521068
-0.005024469 0.029162752 0.53500003 4278204437
-0.0032990747 0.02927177 0.537 4278467867
-0.0015577936 0.029326282 0.53800005 4279981617
0.00019033639 0.029435301 0.54000002 4278205206
0.0019478577 0.02948981 0.54100001 4279720752
0.0037118753 0.029544322 0.54200006 4279326508
0.0054722922 0.029544322 0.54200006 4278796578
-0.048252523 0.028706182 0.49700001 4279519787
-0.046638269 0.028706182 0.49700001 4279718447
-0.045205195 0.028821699 0.49900001 4279653422
-0.043671783 0.028879458 0.5 4279654959
-0.042131882 0.028937221 0.50100005 4279458607
-0.040585477 0.028994977 0.50200003 4279327791
-0.039032582 0.029052736 0.50300002 4279590963
-0.037473191 0.029110495 0.50400001 4279196203
-0.035836194 0.029110495 0.50400001 4279130410
-0.034267057 0.029168252 0.505 4279327019
-0.032626819 0.029168252 0.505 4278404122
-0.031047937 0.029226014 0.50600004 4280047410
-0.029462559 0.029283771 0.50700003 4280113973
-0.027870687 0.02934153 0.50800002 4280374832
-0.026323933 0.029457049 0.51000005 4280374578
-0.024764186 0.029572567 0.51200002 4280175918
-0.023191446 0.029688083 0.514 4280570676
-0.021605721 0.029803602 0.51600003 4279583529
-0.020006998 0.02991912 0.51800001 4280044850
-0.018395284 0.030034639 0.52000004 4278201361
-0.016770577 0.030150155 0.52200001 4278200589
-0.015104 0.030207913 0.523 4278199303
-0.013456558 0.030323433 0.52500004 4278199043
-0.011796124 0.03043895 0.52700001 4278199042
-0.010122699 0.03055447 0.52900004 4278201869
-0.0084362803 0.030669985 0.53100002 4278203157
-0.0067368713 0.030785505 0.53300005 4278401560
-0.005024469 0.030901022 0.53500003 4279125281
-0.0032990747 0.031016538 0.537 4279783211
-0.0015606891 0.031132057 0.53900003 4280046897
0.00019033639 0.031189816 0.54000002 4279389480
0.0019478577 0.031247575 0.54100001 4279391533
0.0037118753 0.031305335 0.54200006 4279128875
-0.046732109 0.030381994 0.49800003 4279323689
-0.045205195 0.030443002 0.49900001 4279850803
-0.043671783 0.030504009 0.5 4279391533
-0.042131882 0.03056502 0.50100005 4279458607
-0.040585477 0.030626027 0.50200003 4279064617
-0.039032582 0.030687034 0.50300002 4279064617
-0.037398838 0.030687034 0.50300002 4279195433
-0.035836194 0.030748041 0.50400001 4279195433
-0.034267057 0.030809049 0.505 4279129127
-0.032626819 0.030809049 0.505 4279260715
-0.031047937 0.03087006 0.50600004 4279654189
-0.029462559 0.030931067 0.50700003 4279391787
-0.027870687 0.030992074 0.50800002 4279457580
-0.026323933 0.031114092 0.51000005 4279260201
-0.024764186 0.031236107 0.51200002 4279325994
-0.023191446 0.031358119 0.514 4278997029
-0.021605721 0.031480137 0.51600003 4279391533
-0.020006998 0.031602152 0.51800001 4279457326
-0.018395284 0.03172417 0.52000004 4279785521
-0.016770577 0.031846184 0.52200001 4279390763
-0.015132881 0.031968202 0.52400005 4279653676
-0.013456558 0.032029212 0.52500004 4279522090
-0.011796124 0.032151226 0.52700001 4279587883
-0.010122699 0.032273244 0.52900004 4279784492
-0.0084362803 0.032395259 0.53100002 4279981871
-0.0067495103 0.032578282 0.53400004 4280179250
-0.0050338604 0.032700296 0.53600001 4280178483
-0.0033052186 0.032822315 0.53800005 4279915311
-0.0015635845 0.032944329 0.54000002 4280508731
0.00019068885 0.033005338 0.54100001 4279653935
0.0019514584 0.033066347 0.54200006 4279391787
0.0037118753 0.033066347 0.54200006 4279193638
-0.039032582 0.032321334 0.50300002 4279653683
-0.037398838 0.032321334 0.50300002 4279456558
-0.035836194 0.032385591 0.50400001 4279653935
-0.034267057 0.032449845 0.505 4279851314
-0.032626819 0.032449845 0.505 4279917107
-0.031047937 0.032514106 0.50600004 4279851314
-0.029462559 0.032578364 0.50700003 4279917107
-0.027870687 0.032642618 0.50800002 4279653935
-0.026272316 0.032706875 0.509 4279654959
-0.024764186 0.032899648 0.51200002 4279523373
-0.023191446 0.033028159 0.514 4279523373
-0.021605721 0.033156678 0.51600003 4279392301
-0.020006998 0.033285189 0.51800001 4279589680
-0.018395284 0.033413704 0.52000004 4278997027
-0.016770577 0.03354222 0.52200001 4279720750
-0.015132881 0.033670735 0.52400005 4279457578
-0.01348219 0.03379925 0.52600002 4279457578
-0.011796124 0.033863503 0.52700001 4279457580
-0.010122699 0.033992022 0.52900004 4279786545
-0.0084521677 0.034184791 0.53200001 4279654189
-0.0067495103 0.034313306 0.53400004 4279456810
-0.0050338604 0.034441818 0.53600001 4279851566
-0.0033052186 0.034570336 0.53800005 4279983152
-0.0015635845 0.034698848 0.54000002 4279654187
0.00019068885 0.034763105 0.54100001 4279523373
0.0019514584 0.034827363 0.54200006 4279982900
0.0037118753 0.034827363 0.54200006 4281163846
-0.039032582 0.033955634 0.50300002 4286160521
-0.037473191 0.034023136 0.50400001 4284450414
-0.035836194 0.034023136 0.50400001 4283135070
-0.034267057 0.034090642 0.505 4282478423
-0.032691427 0.034158152 0.50600004 4281623884
-0.031047937 0.034158152 0.50600004 4281031743
-0.029462559 0.034225658 0.50700003 4280636985
-0.027870687 0.034293164 0.50800002 4280176438
-0.026272316 0.03436067 0.509 4279913779
-0.024764186 0.034563188 0.51200002 4280046133
-0.023191446 0.034698199 0.514 4280045363
-0.021605721 0.034833215 0.51600003 4280440119
-0.020006998 0.034968223 0.51800001 4279913775
-0.018395284 0.035103239 0.52000004 4279783986
-0.016802704 0.035305757 0.523 4279915059
-0.015132881 0.035373263 0.52400005 4279257129
-0.01348219 0.035508275 0.52600002 4280507196
-0.011818508 0.035643287 0.528 4280309819
-0.010141834 0.035778299 0.53000003 4279586098
-0.0084521677 0.035913311 0.53200001 4279716398
-0.0067495103 0.036048327 0.53400004 4280636987
-0.0050338604 0.036183339 0.53600001 4280505914
-0.0033052186 0.036318351 0.53800005 4280834627
-0.0015635845 0.036453363 0.54000002 4282413661
0.00019068885 0.036520869 0.54100001 4283531881
0.0019514584 0.036588378 0.54200006 4286555025
-0.016802704 0.037005037 0.523 4287477154
-0.015161759 0.03714655 0.52500004 4287871652
-0.01348219 0.037217304 0.52600002 4287411101
-0.011818508 0.037358813 0.528 4287147929
-0.010141834 0.037500326 0.53000003 4287345568
-0.0084521677 0.037641834 0.53200001 4287148189
-0.0067495103 0.037783347 0.53400004 4287016603
-0.0050338604 0.037924856 0.53600001 4287015576
-0.0033052186 0.038066369 0.53800005 4287015578
-0.027024958 0.024266964 0.51325136 4294967295
-0.027024958 0.024266964 0.51325136 4294901760
-0.027024958 0.024266964 0.51375139 4294901760
-0.027024958 0.024266964 0.51425135 4294901760
-0.027024958 0.024266964 0.51475137 4294901760
-0.027024958 0.024266964 0.51525134 4294901760
-0.027024958 0.024266964 0.51575136 4294901760
-0.027024958 0.024266964 0.51625139 4294901760
-0.027024958 0.024266964 0.51675135 4294901760
-0.027024958 0.024266964 0.51725137 4294901760
-0.027024958 0.024266964 0.51775134 4294901760
-0.027024958 0.024266964 0.51825136 4294901760
-0.027024958 0.024266964 0.51875138 4294901760
-0.027024958 0.024266964 0.51925135 4294901760
-0.027024958 0.024266964 0.51975137 4294901760
-0.027024958 0.024266964 0.52025139 4294901760
-0.027024958 0.024266964 0.52075136 4294901760
-0.027024958 0.024266964 0.52125138 4294901760
-0.027024958 0.024266964 0.52175134 4294901760
-0.027024958 0.024266964 0.52225137 4294901760
-0.027024958 0.024266964 0.52275139 4294901760
-0.027024958 0.024266964 0.52325135 4294901760
-0.027024958 0.024266964 0.52375138 4294901760
-0.027024958 0.024266964 0.52425134 4294901760
-0.027024958 0.024266964 0.52475137 4294901760
-0.027024958 0.024266964 0.52525139 4294901760
-0.027024958 0.024266964 0.52575135 4294901760
-0.027024958 0.024266964 0.52625138 4294901760
-0.027024958 0.024266964 0.52675134 4294901760
-0.027024958 0.024266964 0.52725136 4294901760
-0.027024958 0.024266964 0.52775139 4294901760
-0.027024958 0.024266964 0.52825135 4294901760
-0.027024958 0.024266964 0.52875137 4294901760
-0.027024958 0.024266964 0.52925134 4294901760
-0.027024958 0.024266964 0.52975136 4294901760
-0.027024958 0.024266964 0.53025138 4294901760
-0.027024958 0.024266964 0.53075135 4294901760
-0.027024958 0.024266964 0.53125137 4294901760
-0.027024958 0.024266964 0.53175139 4294901760
-0.027024958 0.024266964 0.53225136 4294901760
-0.027024958 0.024266964 0.53275138 4294901760
-0.027024958 0.024266964 0.53325135 4294901760
-0.027024958 0.024266964 0.53375137 4294901760
-0.027024958 0.024266964 0.53425139 4294901760
-0.027024958 0.024266964 0.53475136 4294901760
-0.027024958 0.024266964 0.53525138 4294901760
-0.027024958 0.024266964 0.53575134 4294901760
-0.027024958 0.024266964 0.53625137 4294901760
-0.027024958 0.024266964 0.53675139 4294901760
-0.027024958 0.024266964 0.53725135 4294901760
-0.027024958 0.024266964 0.53775138 4294901760
-0.027024958 0.024266964 0.5382514 4294901760
-0.027024958 0.024266964 0.53875136 4294901760
-0.027024958 0.024266964 0.53925139 4294901760
-0.027024958 0.024266964 0.53975135 4294901760
-0.027024958 0.024266964 0.54025137 4294901760
-0.027024958 0.024266964 0.5407514 4294901760
-0.027024958 0.024266964 0.54125136 4294901760
-0.027024958 0.024266964 0.54175138 4294901760
-0.027024958 0.024266964 0.54225135 4294901760
-0.027024958 0.024266964 0.54275137 4294901760
-0.027024958 0.024266964 0.5432514 4294901760
-0.027024958 0.024266964 0.54375136 4294901760
-0.027024958 0.024266964 0.54425138 4294901760
-0.027024958 0.024266964 0.54475135 4294901760
-0.027024958 0.024266964 0.54525137 4294901760
-0.027024958 0.024266964 0.54575139 4294901760
-0.027024958 0.024266964 0.54625136 4294901760
-0.027024958 0.024266964 0.54675138 4294901760
-0.027024958 0.024266964 0.54725134 4294901760
-0.027024958 0.024266964 0.54775137 4294901760
-0.027024958 0.024266964 0.54825139 4294901760
-0.027024958 0.024266964 0.54875135 4294901760
-0.027024958 0.024266964 0.54925138 4294901760
-0.027024958 0.024266964 0.5497514 4294901760
-0.027024958 0.024266964 0.55025136 4294901760
-0.027024958 0.024266964 0.55075139 4294901760
-0.027024958 0.024266964 0.55125135 4294901760
-0.027024958 0.024266964 0.55175138 4294901760
-0.027024958 0.024266964 0.5522514 4294901760
-0.027024958 0.024266964 0.55275136 4294901760
-0.027024958 0.024266964 0.55325139 4294901760
-0.027024958 0.024266964 0.55375135 4294901760
-0.027024958 0.024266964 0.55425137 4294901760
-0.027024958 0.024266964 0.5547514 4294901760
-0.027024958 0.024266964 0.55525136 4294901760
-0.027024958 0.024266964 0.55575138 4294901760
-0.027024958 0.024266964 0.55625141 4294901760
-0.027024958 0.024266964 0.55675137 4294901760
-0.027024958 0.024266964 0.55725139 4294901760
-0.027024958 0.024266964 0.55775136 4294901760
-0.027024958 0.024266964 0.55825138 4294901760
-0.027024958 0.024266964 0.5587514 4294901760
-0.027024958 0.024266964 0.55925137 4294901760
-0.027024958 0.024266964 0.55975139 4294901760
-0.027024958 0.024266964 0.56025136 4294901760
-0.027024958 0.024266964 0.56075138 4294901760
-0.027024958 0.024266964 0.5612514 4294901760
-0.027024958 0.024266964 0.56175137 4294901760
-0.027024958 0.024266964 0.56225139 4294901760
-0.027024958 0.024266964 0.56275135 4294901760
-0.027024958 0.024266964 0.56325138 4294901760
-0.027024958 0.024266964 0.51325136 4278255360
-0.027275948 0.024323372 0.5136801 4278255360
-0.027526937 0.024379781 0.51410884 4278255360
-0.027777929 0.024436187 0.51453757 4278255360
-0.028028918 0.024492595 0.51496637 4278255360
-0.028279908 0.024549004 0.5153951 4278255360
-0.028530898 0.024605412 0.51582384 4278255360
-0.028781887 0.024661819 0.51625258 4278255360
-0.029032879 0.024718227 0.51668131 4278255360
-0.029283868 0.024774635 0.51711005 4278255360
-0.029534858 0.024831044 0.51753879 4278255360
-0.029785847 0.02488745 0.51796758 4278255360
-0.030036837 0.024943858 0.51839632 4278255360
-0.030287828 0.025000267 0.51882505 4278255360
-0.030538818 0.025056675 0.51925379 4278255360
-0.030789807 0.025113082 0.51968253 4278255360
-0.031040797 0.02516949 0.52011126 4278255360
-0.031291787 0.025225898 0.52054006 4278255360
-0.031542778 0.025282307 0.52096879 4278255360
-0.031793766 0.025338713 0.52139753 4278255360
-0.032044757 0.025395121 0.52182627 4278255360
-0.032295749 0.02545153 0.522255 4278255360
-0.032546736 0.025507938 0.52268374 4278255360
-0.032797728 0.025564346 0.52311248 4278255360
-0.033048715 0.025620753 0.52354127 4278255360
-0.033299707 0.025677161 0.52397001 4278255360
-0.033550695 0.02573357 0.52439874 4278255360
-0.033801686 0.025789978 0.52482748 4278255360
-0.034052677 0.025846384 0.52525622 4278255360
-0.034303665 0.025902793 0.52568495 4278255360
-0.034554657 0.025959201 0.52611375 4278255360
-0.034805648 0.02601561 0.52654248 4278255360
-0.035056636 0.026072016 0.52697122 4278255360
-0.035307627 0.026128424 0.52739996 4278255360
-0.035558619 0.026184833 0.52782869 4278255360
-0.035809606 0.026241241 0.52825743 4278255360
-0.036060598 0.026297648 0.52868617 4278255360
-0.036311585 0.026354056 0.52911496 4278255360
-0.036562577 0.026410464 0.5295437 4278255360
-0.036813565 0.026466873 0.52997243 4278255360
-0.037064556 0.026523279 0.53040117 4278255360
-0.037315547 0.026579687 0.53082991 4278255360
-0.037566535 0.026636096 0.53125864 4278255360
-0.037817527 0.026692504 0.53168738 4278255360
-0.038068518 0.026748911 0.53211617 4278255360
-0.038319506 0.026805319 0.53254491 4278255360
-0.038570497 0.026861727 0.53297365 4278255360
-0.038821485 0.026918136 0.53340238 4278255360
-0.039072476 0.026974544 0.53383112 4278255360
-0.039323464 0.02703095 0.53425986 4278255360
-0.039574455 0.027087359 0.53468859 4278255360
-0.039825447 0.027143767 0.53511739 4278255360
-0.040076435 0.027200174 0.53554612 4278255360
-0.040327422 0.027256582 0.53597486 4278255360
-0.040578417 0.02731299 0.5364036 4278255360
-0.040829405 0.027369399 0.53683233 4278255360
-0.041080393 0.027425807 0.53726107 4278255360
-0.041331384 0.027482213 0.53768986 4278255360
-0.041582376 0.027538622 0.5381186 4278255360
-0.041833363 0.02759503 0.53854734 4278255360
-0.042084355 0.027651438 0.53897607 4278255360
-0.042335346 0.027707845 0.53940481 4278255360
-0.042586334 0.027764253 0.53983355 4278255360
-0.042837325 0.027820662 0.54026228 4278255360
-0.043088317 0.02787707 0.54069108 4278255360
-0.043339305 0.027933476 0.54111981 4278255360
-0.043590296 0.027989885 0.54154855 4278255360
-0.043841287 0.028046293 0.54197729 4278255360
-0.044092275 0.028102702 0.54240602 4278255360
-0.044343263 0.028159108 0.54283476 4278255360
-0.044594254 0.028215516 0.54326355 4278255360
-0.044845246 0.028271925 0.54369229 4278255360
-0.045096233 0.028328333 0.54412103 4278255360
-0.045347225 0.028384741 0.54454976 4278255360
-0.045598216 0.028441148 0.5449785 4278255360
-0.045849204 0.028497556 0.54540724 4278255360
-0.046100192 0.028553965 0.54583597 4278255360
-0.046351183 0.028610371 0.54626477 4278255360
-0.046602175 0.028666779 0.5466935 4278255360
-0.046853162 0.028723188 0.54712224 4278255360
-0.047104154 0.028779596 0.54755098 4278255360
-0.047355145 0.028836004 0.54797971 4278255360
-0.047606133 0.028892411 0.54840845 4278255360
-0.047857121 0.028948819 0.54883718 4278255360
-0.048108112 0.029005228 0.54926598 4278255360
-0.048359104 0.029061636 0.54969472 4278255360
-0.048610091 0.029118042 0.55012345 4278255360
-0.048861083 0.029174451 0.55055219 4278255360
-0.049112074 0.029230859 0.55098093 4278255360
-0.049363062 0.029287267 0.55140966 4278255360
-0.049614053 0.029343674 0.5518384 4278255360
-0.049865045 0.029400082 0.55226719 4278255360
-0.050116032 0.029456491 0.55269593 4278255360
-0.050367024 0.029512899 0.55312467 4278255360
-0.050618015 0.029569305 0.5535534 4278255360
-0.050869003 0.029625714 0.55398214 4278255360
-0.051119991 0.029682122 0.55441087 4278255360
-0.051370986 0.029738531 0.55483967 4278255360
-0.051621974 0.029794939 0.55526841 4278255360
-0.051872961 0.029851345 0.55569714 4278255360
-0.052123953 0.029907754 0.55612588 4278255360
