# .PCD v0.7 - Point Cloud Data file format
VERSION 0.7
FIELDS x y z rgb
SIZE 4 4 4 4
TYPE F F F U
COUNT 1 1 1 1
WIDTH 1031
HEIGHT 1
VIEWPOINT 0 0 0 1 0 0 0
POINTS 1031
DATA ascii
0.04845247 0.0023208603 0.40200001 4278600468
0.049881946 0.0023266335 0.40300003 4278600214
0.05119089 0.0023266335 0.40300003 4278666007
0.052499834 0.0023266335 0.40300003 4278337042
0.0539423 0.0023324068 0.40400001 4278468628
0.055254489 0.0023324068 0.40400001 4278203146
0.056706704 0.0023381801 0.40500003 4278200322
0.058022145 0.0023381801 0.40500003 4278468117
0.059484098 0.0023439534 0.40600002 4278402835
0.06095254 0.0023497266 0.40700001 4278468628
0.062427491 0.0023554999 0.40800002 4278402835
0.063908935 0.0023612732 0.40900001 4278402835
0.065396868 0.0023670467 0.41000003 4278402835
0.066891305 0.0023728197 0.41100001 4278402835
0.068392232 0.0023785932 0.41200003 4278468115
0.069899656 0.0023843665 0.41300002 4278533910
0.071413584 0.0023901397 0.41400003 4278468115
0.072933994 0.002395913 0.41500002 4278468115
0.074639909 0.0024074595 0.41700003 4278665494
0.076176554 0.0024132328 0.41800001 4278731287
0.0779052 0.0024247793 0.42000002 4278401808
0.079458103 0.0024305528 0.42100003 4278598419
0.081017487 0.0024363259 0.42200002 4278532626
0.082778618 0.0024478727 0.42400002 4278400529
0.084354244 0.0024536457 0.42500001 4278201609
0.085936375 0.0024594192 0.42600003 4278200325
0.087525003 0.0024651925 0.42700002 4278197760
0.088911898 0.0024651925 0.42700002 4278197504
0.090510271 0.0024709657 0.42800003 4278196224
0.091900416 0.0024709657 0.42800003 4278195200
0.09329056 0.0024709657 0.42800003 4278195712
0.094680704 0.0024709657 0.42800003 4278194688
0.096070848 0.0024709657 0.42800003 4278198789
0.097688705 0.002476739 0.42900002 4278397710
0.099082097 0.002476739 0.42900002 4278660882
0.10047549 0.002476739 0.42900002 4279320861
0.10210633 0.0024825123 0.43000001 4278862361
0.10374369 0.0024882855 0.43100002 4278862361
0.10514357 0.0024882855 0.43100002 4279059742
0.10679066 0.0024940588 0.43200001 4279454246
0.023703052 0.0036360216 0.40300003 4280233504
0.024825802 0.0036089544 0.40000001 4279904026
0.026059691 0.0035999322 0.39900002 4279838233
0.027355645 0.0035999322 0.39900002 4279838233
0.028651597 0.0035999322 0.39900002 4280298784
0.030022604 0.0036089544 0.40000001 4280364577
0.031400111 0.003617977 0.40100002 4280627749
0.032702558 0.003617977 0.40100002 4279774237
0.034005009 0.003617977 0.40100002 4279380758
0.035307456 0.003617977 0.40100002 4279121431
0.036609907 0.003617977 0.40100002 4278925590
0.03781781 0.0036089544 0.40000001 4278663701
0.039117008 0.0036089544 0.40000001 4278599189
0.040416211 0.0036089544 0.40000001 4278928154
0.041819703 0.003617977 0.40100002 4278796568
0.04312215 0.003617977 0.40100002 4278533910
0.044424601 0.003617977 0.40100002 4278468628
0.045727048 0.003617977 0.40100002 4278468628
0.047146775 0.0036269992 0.40200001 4278600214
0.04845247 0.0036269992 0.40200001 4278666007
0.049881946 0.0036360216 0.40300003 4278468628
0.05119089 0.0036360216 0.40300003 4278468628
0.052499834 0.0036360216 0.40300003 4278600214
0.0539423 0.0036450441 0.40400001 4278402324
0.055254489 0.0036450441 0.40400001 4278199553
0.056706704 0.0036540665 0.40500003 4278597654
0.058022145 0.0036540665 0.40500003 4278598421
0.059484098 0.0036630889 0.40600002 4278201864
0.06095254 0.0036721111 0.40700001 4278196992
0.062427491 0.0036811335 0.40800002 4278198016
0.063908935 0.0036901559 0.40900001 4278196736
0.065396868 0.0036991783 0.41000003 4278197252
0.066891305 0.0037082008 0.41100001 4278196480
0.068392232 0.0037172232 0.41200003 4278196997
0.069899656 0.0037262456 0.41300002 4278196228
0.071413584 0.003735268 0.41400003 4278195970
0.072933994 0.0037442902 0.41500002 4278792468
0.074460909 0.0037533126 0.41600001 4278200842
0.076176554 0.0037713575 0.41800001 4278991129
0.077719718 0.0037803799 0.41900003 4278990359
0.079269364 0.0037894021 0.42000002 4279450910
0.081017487 0.0038074469 0.42200002 4279187738
0.082583375 0.0038164693 0.42300001 4278924566
0.084155768 0.0038254918 0.42400002 4278990359
0.085734643 0.0038345142 0.42500001 4279714852
0.08732003 0.0038435366 0.42600003 4279254555
0.088911898 0.0038525588 0.42700002 4278991383
0.090298794 0.0038525588 0.42700002 4278925590
0.091900416 0.0038615814 0.42800003 4278926103
0.09329056 0.0038615814 0.42800003 4279123228
0.094680704 0.0038615814 0.42800003 4279123228
0.096070848 0.0038615814 0.42800003 4278860826
0.097688705 0.0038706036 0.42900002 4278992412
0.099082097 0.0038706036 0.42900002 4278661396
0.10047549 0.0038706036 0.42900002 4279450910
0.10210633 0.003879626 0.43000001 4278862361
0.10374369 0.0038886485 0.43100002 4278796568
0.10538752 0.0038976707 0.43200001 4279059740
0.10679066 0.0038976707 0.43200001 4279717672
0.018329799 0.0049085952 0.40000001 4281814583
0.020980522 0.0049208668 0.40100002 4282011712
0.023644235 0.0049331384 0.40200001 4280101918
0.024763739 0.0048963241 0.39900002 4280167198
0.026059691 0.0048963241 0.39900002 4279969819
0.027287085 0.0048840526 0.39800003 4280101403
0.028651597 0.0048963241 0.39900002 4281812021
0.030022604 0.0049085952 0.40000001 4282733888
0.031400111 0.0049208668 0.40100002 4282602816
0.032702558 0.0049208668 0.40100002 4281486134
0.034005009 0.0049208668 0.40100002 4279184660
0.035219409 0.0049085952 0.40000001 4278990359
0.036518607 0.0049085952 0.40000001 4279056922
0.03781781 0.0049085952 0.40000001 4278400527
0.039117008 0.0049085952 0.40000001 4278730005
0.040416211 0.0049085952 0.40000001 4278862361
0.04171541 0.0049085952 0.40000001 4278665496
0.04312215 0.0049208668 0.40100002 4278533908
0.044424601 0.0049208668 0.40100002 4278533908
0.045727048 0.0049208668 0.40100002 4278468628
0.047146775 0.0049331384 0.40200001 4278731800
0.04845247 0.0049331384 0.40200001 4278600214
0.049881946 0.0049454099 0.40300003 4278600214
0.05119089 0.0049454099 0.40300003 4278468628
0.052499834 0.0049454099 0.40300003 4278600214
0.0539423 0.0049576815 0.40400001 4279058718
0.055254489 0.0049576815 0.40400001 4278198532
0.056706704 0.0049699531 0.40500003 4278992412
0.058022145 0.0049699531 0.40500003 4278201097
0.059484098 0.0049822242 0.40600002 4278458888
0.06095254 0.0049944958 0.40700001 4278458377
0.062427491 0.0050067673 0.40800002 4278720265
0.063908935 0.0050190389 0.40900001 4278654986
0.065396868 0.0050313105 0.41000003 4278588939
0.066891305 0.0050435816 0.41100001 4278588939
0.068392232 0.0050558536 0.41200003 4278720011
0.069899656 0.0050681247 0.41300002 4278523146
0.071413584 0.0050803963 0.41400003 4278195716
0.072933994 0.0050926679 0.41500002 4279581982
0.074460909 0.005104939 0.41600001 4278992666
0.07599432 0.005117211 0.41700003 4278728724
0.077534221 0.0051294821 0.41800001 4279123228
0.079080626 0.0051417537 0.41900003 4278991896
0.080825508 0.0051662968 0.42100003 4278333966
0.082388148 0.0051785684 0.42200002 4279386652
0.083957285 0.0051908395 0.42300001 4278200067
0.085532919 0.0052031111 0.42400002 4278201609
0.087115049 0.0052153827 0.42500001 4278729494
0.088703677 0.0052276542 0.42600003 4278597908
0.090298794 0.0052399258 0.42700002 4279124250
0.09168569 0.0052399258 0.42700002 4278400527
0.09329056 0.0052521974 0.42800003 4278532115
0.094680704 0.0052521974 0.42800003 4278268943
0.096070848 0.0052521974 0.42800003 4278201093
0.097688705 0.0052644685 0.42900002 4278927386
0.099082097 0.0052644685 0.42900002 4278200587
0.10047549 0.0052644685 0.42900002 4279123228
0.10210633 0.0052767401 0.43000001 4278796568
0.10374369 0.0052890116 0.43100002 4278928154
0.10538752 0.0053012832 0.43200001 4279059740
0.10703786 0.0053135548 0.43300003 4279256349
0.02358542 0.0062237573 0.40100002 4280168225
0.024763739 0.0061927158 0.39900002 4280232991
0.025994379 0.0061771953 0.39800003 4279904026
0.027287085 0.0061771953 0.39800003 4280101403
0.028579788 0.0061771953 0.39800003 4282140984
0.029947549 0.0061927158 0.39900002 4282339130
0.031400111 0.0062237573 0.40100002 4282669379
0.032621007 0.0062082363 0.40000001 4280104735
0.03392021 0.0062082363 0.40000001 4279382809
0.035219409 0.0062082363 0.40000001 4279056922
0.036518607 0.0062082363 0.40000001 4278925336
0.03781781 0.0062082363 0.40000001 4278729494
0.039117008 0.0062082363 0.40000001 4278795798
0.040416211 0.0062082363 0.40000001 4278862361
0.04171541 0.0062082363 0.40000001 4278731289
0.04312215 0.0062237573 0.40100002 4278402835
0.044424601 0.0062237573 0.40100002 4278600214
0.045727048 0.0062237573 0.40100002 4278402835
0.047146775 0.0062392773 0.40200001 4278600214
0.04845247 0.0062392773 0.40200001 4278666007
0.049881946 0.0062547983 0.40300003 4278402835
0.05119089 0.0062547983 0.40300003 4278468628
0.052499834 0.0062547983 0.40300003 4278468630
0.0539423 0.0062703188 0.40400001 4279385887
0.055254489 0.0062703188 0.40400001 4278658062
0.056706704 0.0062858397 0.40500003 4278925336
0.058022145 0.0062858397 0.40500003 4278197248
0.059484098 0.0063013597 0.40600002 4278984721
0.06095254 0.0063168802 0.40700001 4278786572
0.062427491 0.0063324012 0.40800002 4279049744
0.063908935 0.0063479217 0.40900001 4279313686
0.065396868 0.0063634426 0.41000003 4280301862
0.066891305 0.0063789627 0.41100001 4278986002
0.068392232 0.0063944836 0.41200003 4279116820
0.069899656 0.0064100041 0.41300002 4280169506
0.071413584 0.0064255251 0.41400003 4278394630
0.072933994 0.0064410456 0.41500002 4279057174
0.074460909 0.0064565656 0.41600001 4278199044
0.07599432 0.0064720865 0.41700003 4278263304
0.077534221 0.006487607 0.41800001 4278856978
0.079080626 0.006503128 0.41900003 4278661394
0.080633521 0.006518648 0.42000002 4279188508
0.08219292 0.006534169 0.42100003 4278200585
0.083758809 0.0065496895 0.42200002 4278925849
0.085331187 0.0065652099 0.42300001 4278202128
0.086910069 0.0065807309 0.42400002 4278200845
0.088495448 0.0065962509 0.42500001 4278200074
0.090087324 0.0066117719 0.42600003 4278397710
0.09168569 0.0066272924 0.42700002 4279121431
0.093072586 0.0066272924 0.42700002 4278266122
0.094680704 0.0066428133 0.42800003 4278792466
0.096070848 0.0066428133 0.42800003 4278200071
0.097688705 0.0066583334 0.42900002 4278861080
0.099082097 0.0066583334 0.42900002 4278200325
0.10070969 0.0066738538 0.43000001 4279123480
0.10210633 0.0066738538 0.43000001 4278928152
0.10374369 0.0066893748 0.43100002 4278993947
0.10538752 0.0067048953 0.43200001 4279519521
0.10703786 0.0067204162 0.43300003 4278860056
0.021032842 0.0075454167 0.40200001 4282010425
0.02358542 0.0075266473 0.40100002 4280957225
0.024763739 0.0074891075 0.39900002 4280363805
0.025994379 0.0074703381 0.39800003 4280034840
0.027287085 0.0074703381 0.39800003 4279640852
0.028579788 0.0074703381 0.39800003 4282667328
0.029947549 0.0074891075 0.39900002 4282536769
0.031400111 0.0075266473 0.40100002 4282734918
0.032621007 0.007507877 0.40000001 4278658316
0.03392021 0.007507877 0.40000001 4279317527
0.035219409 0.007507877 0.40000001 4278991129
0.036518607 0.007507877 0.40000001 4278794263
0.03781781 0.007507877 0.40000001 4278992666
0.039117008 0.007507877 0.40000001 4278993177
0.040416211 0.007507877 0.40000001 4278862361
0.04171541 0.007507877 0.40000001 4278664982
0.043014612 0.007507877 0.40000001 4278533908
0.044424601 0.0075266473 0.40100002 4278600214
0.045727048 0.0075266473 0.40100002 4278600214
0.047146775 0.0075454167 0.40200001 4278797593
0.04845247 0.0075454167 0.40200001 4278600214
0.049758166 0.0075454167 0.40200001 4278666007
0.05119089 0.0075641866 0.40300003 4278600214
0.052499834 0.0075641866 0.40300003 4278468628
0.0539423 0.007582956 0.40400001 4278924566
0.055254489 0.007582956 0.40400001 4278660115
0.056706704 0.0076017259 0.40500003 4279188510
0.058022145 0.0076017259 0.40500003 4278198026
0.059484098 0.0076204957 0.40600002 4279314199
0.06095254 0.0076392652 0.40700001 4278853648
0.062427491 0.007658035 0.40800002 4279116820
0.063908935 0.0076768044 0.40900001 4278195201
0.065396868 0.0076955743 0.41000003 4279183381
0.066891305 0.0077143437 0.41100001 4278195204
0.068392232 0.0077331141 0.41200003 4279512859
0.069899656 0.0077518835 0.41300002 4278262279
0.071413584 0.0077706533 0.41400003 4279185941
0.072933994 0.0077894228 0.41500002 4279057174
0.074281923 0.0077894228 0.41500002 4278328072
0.075812072 0.0078081922 0.41600001 4278525453
0.077348739 0.0078269625 0.41700003 4279053592
0.078891888 0.0078457315 0.41800001 4279055386
0.080441535 0.0078645013 0.41900003 4278200585
0.081997685 0.0078832712 0.42000002 4278200585
0.083560333 0.0079020411 0.42100003 4278399505
0.085129462 0.007920811 0.42200002 4278662677
0.086705089 0.0079395799 0.42300001 4278200330
0.088495448 0.0079771196 0.42500001 4278398224
0.090087324 0.0079958895 0.42600003 4278989847
0.09168569 0.0080146594 0.42700002 4278200331
0.093072586 0.0080146594 0.42700002 4279450398
0.094680704 0.0080334293 0.42800003 4278924566
0.096070848 0.0080334293 0.42800003 4279386654
0.097688705 0.0080521982 0.42900002 4279320861
0.099082097 0.0080521982 0.42900002 4278727957
0.10070969 0.0080709681 0.43000001 4278795800
0.10210633 0.0080709681 0.43000001 4278862361
0.10374369 0.008089738 0.43100002 4279125533
0.10538752 0.0081085078 0.43200001 4279518756
0.10703786 0.0081272777 0.43300003 4283002968
0.017286059 0.0089396304 0.40600002 4286354820
0.018421449 0.0088515552 0.40200001 4286223743
0.019727146 0.0088515552 0.40200001 4285237362
0.021032842 0.0088515552 0.40200001 4285566327
0.02358542 0.0088295368 0.40100002 4279773465
0.024763739 0.0087854993 0.39900002 4280232221
0.025994379 0.0087634809 0.39800003 4280298014
0.027287085 0.0087634809 0.39800003 4280759333
0.028579788 0.0087634809 0.39800003 4282536769
0.029947549 0.0087854993 0.39900002 4282866504
0.032621007 0.0088075176 0.40000001 4279184660
0.03392021 0.0088075176 0.40000001 4279318810
0.035219409 0.0088075176 0.40000001 4279123228
0.036518607 0.0088075176 0.40000001 4278925849
0.03781781 0.0088075176 0.40000001 4278730007
0.039117008 0.0088075176 0.40000001 4278796568
0.040416211 0.0088075176 0.40000001 4278928152
0.04171541 0.0088075176 0.40000001 4278599187
0.043014612 0.0088075176 0.40000001 4278468115
0.044424601 0.0088295368 0.40100002 4278666007
0.045727048 0.0088295368 0.40100002 4278666007
0.047029499 0.0088295368 0.40100002 4278731800
0.04845247 0.0088515552 0.40200001 4278666007
0.049758166 0.0088515552 0.40200001 4278600214
0.05119089 0.0088735744 0.40300003 4278468628
0.052499834 0.0088735744 0.40300003 4278468628
0.0539423 0.0088955928 0.40400001 4278199815
0.055254489 0.0088955928 0.40400001 4279582496
0.056706704 0.008917612 0.40500003 4279450912
0.058022145 0.008917612 0.40500003 4278328585
0.059484098 0.0089396304 0.40600002 4278853648
0.06095254 0.0089616496 0.40700001 4279708957
0.062427491 0.0089836689 0.40800002 4278986002
0.063908935 0.0090056872 0.40900001 4278196486
0.065396868 0.0090277065 0.41000003 4278524683
0.066891305 0.0090497248 0.41100001 4278721549
0.068392232 0.009071744 0.41200003 4278194689
0.069899656 0.0090937624 0.41300002 4278328074
0.071413584 0.0091157816 0.41400003 4279318297
0.072758257 0.0091157816 0.41400003 4279320348
0.074281923 0.0091378 0.41500002 4278393097
0.075812072 0.0091598183 0.41600001 4278524683
0.077348739 0.0091818376 0.41700003 4279318812
0.078891888 0.0092038559 0.41800001 4279319324
0.080249548 0.0092038559 0.41800001 4278925590
0.08180245 0.0092258751 0.41900003 4279188762
0.083361842 0.0092478935 0.42000002 4279451934
0.085129462 0.0092919311 0.42200002 4279517727
0.086705089 0.0093139503 0.42300001 4279255066
0.088287227 0.0093359696 0.42400002 4279255066
0.089875855 0.0093579879 0.42500001 4278925588
0.091470972 0.0093800072 0.42600003 4278990613
0.093072586 0.0094020255 0.42700002 4278595087
0.094680704 0.0094240448 0.42800003 4278199301
0.096070848 0.0094240448 0.42800003 4278197504
0.097688705 0.0094460631 0.42900002 4278196992
0.099082097 0.0094460631 0.42900002 4278992412
0.10070969 0.0094680814 0.43000001 4278795546
0.10210633 0.0094680814 0.43000001 4278993695
0.10374369 0.0094901007 0.43100002 4279256867
0.10538752 0.009512119 0.43200001 4279779625
0.10703786 0.0095341383 0.43300003 4286026882
0.022338537 0.010157694 0.40200001 4285500536
0.023644235 0.010157694 0.40200001 4285632122
0.024949932 0.010157694 0.40200001 4284907374
0.026255628 0.010157694 0.40200001 4280168225
0.027561326 0.010157694 0.40200001 4280825641
0.028867021 0.010157694 0.40200001 4282470978
0.030172717 0.010157694 0.40200001 4282406466
0.031321805 0.010107159 0.40000001 4282670408
0.032621007 0.010107159 0.40000001 4279514393
0.03392021 0.010107159 0.40000001 4279187224
0.035219409 0.010107159 0.40000001 4278925849
0.036518607 0.010107159 0.40000001 4278728470
0.03781781 0.010107159 0.40000001 4278730005
0.039117008 0.010107159 0.40000001 4278928154
0.040416211 0.010107159 0.40000001 4278731289
0.04171541 0.010107159 0.40000001 4278665496
0.043014612 0.010107159 0.40000001 4278665494
0.044424601 0.010132426 0.40100002 4278665494
0.045727048 0.010132426 0.40100002 4278600214
0.047029499 0.010132426 0.40100002 4278731800
0.04845247 0.010157694 0.40200001 4278600214
0.049758166 0.010157694 0.40200001 4278600214
0.05119089 0.010182963 0.40300003 4278666007
0.052499834 0.010182963 0.40300003 4278336531
0.0539423 0.01020823 0.40400001 4278197251
0.055254489 0.01020823 0.40400001 4278791185
0.056706704 0.010233498 0.40500003 4279516191
0.058022145 0.010233498 0.40500003 4278458890
0.059484098 0.010258766 0.40600002 4278720011
0.06095254 0.010284034 0.40700001 4278654218
0.062427491 0.010309302 0.40800002 4278720013
0.063908935 0.010334569 0.40900001 4278785804
0.065396868 0.010359838 0.41000003 4278720011
0.066891305 0.010385105 0.41100001 4278720011
0.068392232 0.010410374 0.41200003 4278785806
0.069899656 0.010435641 0.41300002 4278193923
0.071413584 0.010460909 0.41400003 4278396943
0.072758257 0.010460909 0.41400003 4278198792
0.074281923 0.010486177 0.41500002 4278196996
0.075812072 0.010511445 0.41600001 4278197510
0.077348739 0.010536713 0.41700003 4278194944
0.078703158 0.010536713 0.41700003 4278194944
0.080249548 0.01056198 0.41800001 4278195712
0.08180245 0.010587249 0.41900003 4278198022
0.083361842 0.010612517 0.42000002 4278199818
0.08492773 0.010637784 0.42100003 4278791955
0.086500116 0.010663052 0.42200002 4279450398
0.088287227 0.010713588 0.42400002 4279187226
0.089875855 0.010738856 0.42500001 4279910949
0.091470972 0.010764124 0.42600003 4279516191
0.093072586 0.010789392 0.42700002 4279516191
0.094680704 0.01081466 0.42800003 4279516703
0.096295312 0.010839928 0.42900002 4279385887
0.097688705 0.010839928 0.42900002 4279385887
0.099082097 0.010839928 0.42900002 4279123998
0.10070969 0.010865195 0.43000001 4279189791
0.1023438 0.010890463 0.43100002 4278927132
0.10374369 0.010890463 0.43100002 4278860828
0.10538752 0.010915731 0.43200001 4285763708
0.10703786 0.010941 0.43300003 4285697401
0.030022604 0.0114068 0.40000001 4282209859
0.031321805 0.0114068 0.40000001 4279841822
0.032621007 0.0114068 0.40000001 4279646494
0.03392021 0.0114068 0.40000001 4279318810
0.035219409 0.0114068 0.40000001 4278991896
0.036518607 0.0114068 0.40000001 4278926103
0.03781781 0.0114068 0.40000001 4278993177
0.039117008 0.0114068 0.40000001 4279124761
0.040416211 0.0114068 0.40000001 4278533908
0.04171541 0.0114068 0.40000001 4278533908
0.043014612 0.0114068 0.40000001 4278468115
0.044424601 0.011435317 0.40100002 4278797080
0.045727048 0.011435317 0.40100002 4278666007
0.047029499 0.011435317 0.40100002 4278731800
0.04845247 0.011463834 0.40200001 4278600214
0.049758166 0.011463834 0.40200001 4278600214
0.05119089 0.011492351 0.40300003 4278666009
0.052499834 0.011492351 0.40300003 4278862875
0.0539423 0.011520868 0.40400001 4278529296
0.055254489 0.011520868 0.40400001 4279254301
0.056706704 0.011549385 0.40500003 4279121945
0.058022145 0.011549385 0.40500003 4278196482
0.059484098 0.011577902 0.40600002 4278458890
0.06095254 0.011606419 0.40700001 4278524683
0.062427491 0.011634936 0.40800002 4279051027
0.063908935 0.011663453 0.40900001 4279314967
0.065396868 0.01169197 0.41000003 4279644445
0.066891305 0.011720487 0.41100001 4279513373
0.068392232 0.011749004 0.41200003 4279843619
0.069899656 0.011777521 0.41300002 4280239147
0.071413584 0.011806038 0.41400003 4278991131
0.072758257 0.011806038 0.41400003 4279056924
0.074281923 0.011834555 0.41500002 4279254303
0.075812072 0.011863071 0.41600001 4279056924
0.077163242 0.011863071 0.41600001 4279451682
0.078703158 0.01189159 0.41700003 4279123230
0.080249548 0.011920106 0.41800001 4279189021
0.081607215 0.011920106 0.41800001 4279189021
0.083163366 0.011948623 0.41900003 4279058205
0.084725998 0.01197714 0.42000002 4279058459
0.086500116 0.012034174 0.42200002 4278992666
0.088287227 0.012091208 0.42400002 4279124252
0.089875855 0.012119724 0.42500001 4279058972
0.091470972 0.012148242 0.42600003 4279058972
0.093072586 0.012176759 0.42700002 4279255838
0.094680704 0.012205277 0.42800003 4279255838
0.096295312 0.012233793 0.42900002 4279386654
0.097688705 0.012233793 0.42900002 4280044584
0.099313058 0.01226231 0.43000001 4279451934
0.10070969 0.01226231 0.43000001 4279846438
0.10210633 0.01226231 0.43000001 4283067478
0.10374369 0.012290827 0.43100002 4286224257
0.10538752 0.012319344 0.43200001 4285565815
0.10703786 0.012347861 0.43300003 4285762681
0.028795214 0.012738207 0.40100002 4286224259
0.030022604 0.012706441 0.40000001 4279578139
0.031321805 0.012706441 0.40000001 4279381273
0.032621007 0.012706441 0.40000001 4279515678
0.03392021 0.012706441 0.40000001 4279450396
0.035219409 0.012706441 0.40000001 4278991383
0.036518607 0.012706441 0.40000001 4278728724
0.03781781 0.012706441 0.40000001 4278532626
0.039117008 0.012706441 0.40000001 4278928152
0.040416211 0.012706441 0.40000001 4278665494
0.04171541 0.012706441 0.40000001 4278665494
0.04312215 0.012738207 0.40100002 4278468628
0.044424601 0.012738207 0.40100002 4278666007
0.045727048 0.012738207 0.40100002 4278731800
0.047029499 0.012738207 0.40100002 4278468628
0.04845247 0.012769973 0.40200001 4278731800
0.049758166 0.012769973 0.40200001 4278731800
0.05119089 0.012801739 0.40300003 4278468628
0.052499834 0.012801739 0.40300003 4278203406
0.0539423 0.012833506 0.40400001 4278464017
0.055254489 0.012833506 0.40400001 4279189275
0.056706704 0.012865272 0.40500003 4279058972
0.058022145 0.012865272 0.40500003 4279058972
0.059484098 0.012897038 0.40600002 4279058459
0.06095254 0.012928803 0.40700001 4279189021
0.062427491 0.01296057 0.40800002 4279123228
0.063752681 0.01296057 0.40800002 4279189021
0.065237358 0.012992335 0.40900001 4279189791
0.066728555 0.013024103 0.41000003 4279123998
0.068226233 0.013055868 0.41100001 4279058459
0.069730408 0.013087635 0.41200003 4279058459
0.071241081 0.0131194 0.41300002 4279058459
0.072758257 0.013151167 0.41400003 4278993179
0.074281923 0.013182933 0.41500002 4278993179
0.075812072 0.013214699 0.41600001 4278927386
0.077163242 0.013214699 0.41600001 4279124765
0.078703158 0.013246465 0.41700003 4279124765
0.080057569 0.013246465 0.41700003 4279124763
0.081607215 0.013278231 0.41800001 4279453728
0.083163366 0.013309998 0.41900003 4279848486
0.084725998 0.013341763 0.42000002 4279387935
0.086500116 0.013405296 0.42200002 4279519521
0.088287227 0.013468828 0.42400002 4279256351
0.089875855 0.013500594 0.42500001 4279254814
0.091470972 0.01353236 0.42600003 4279649061
0.093072586 0.013564126 0.42700002 4280042535
0.094680704 0.013595892 0.42800003 4282278214
0.096295312 0.013627659 0.42900002 4284842604
0.097688705 0.013627659 0.42900002 4286092671
0.099313058 0.013659424 0.43000001 4285763706
0.10070969 0.013659424 0.43000001 4285500536
0.10210633 0.013659424 0.43000001 4285500536
0.028795214 0.014041097 0.40100002 4285435515
0.030097662 0.014041097 0.40100002 4286355331
0.031321805 0.014006081 0.40000001 4282012991
0.032621007 0.014006081 0.40000001 4278461707
0.03392021 0.014006081 0.40000001 4279384090
0.035219409 0.014006081 0.40000001 4278925336
0.036609907 0.014041097 0.40100002 4278991642
0.037912354 0.014041097 0.40100002 4279058972
0.039214805 0.014041097 0.40100002 4279059740
0.040517252 0.014041097 0.40100002 4278666009
0.041819703 0.014041097 0.40100002 4278600216
0.04312215 0.014041097 0.40100002 4278600216
0.044424601 0.014041097 0.40100002 4278731802
0.045727048 0.014041097 0.40100002 4278731802
0.047029499 0.014041097 0.40100002 4278929181
0.04845247 0.014076112 0.40200001 4279126560
0.049758166 0.014076112 0.40200001 4278731800
0.05119089 0.014111128 0.40300003 4278929179
0.052499834 0.014111128 0.40300003 4278731287
0.0539423 0.014146143 0.40400001 4279650594
0.055254489 0.014146143 0.40400001 4279190556
0.056706704 0.014181159 0.40500003 4279125533
0.058022145 0.014181159 0.40500003 4279059740
0.059484098 0.014216173 0.40600002 4279059740
0.06095254 0.014251187 0.40700001 4279059740
0.062427491 0.014286203 0.40800002 4279125533
0.063752681 0.014286203 0.40800002 4279257119
0.065237358 0.014321218 0.40900001 4279125533
0.066728555 0.014356234 0.41000003 4279257119
0.068226233 0.014391249 0.41100001 4279257119
0.069730408 0.014426265 0.41200003 4279387935
0.071241081 0.01446128 0.41300002 4279387935
0.072758257 0.014496296 0.41400003 4279584801
0.074281923 0.01453131 0.41500002 4279058457
0.075629838 0.01453131 0.41500002 4279519008
0.077163242 0.014566325 0.41600001 4279584803
0.078514419 0.014566325 0.41600001 4279650596
0.080057569 0.014601341 0.41700003 4279452193
0.081411988 0.014601341 0.41700003 4278991644
0.082964882 0.014636355 0.41800001 4280832051
0.084524274 0.014671371 0.41900003 4282673742
0.030097662 0.015343987 0.40100002 4285500538
0.031400111 0.015343987 0.40100002 4285303159
0.032702558 0.015343987 0.40100002 4286027652
0.034005009 0.015343987 0.40100002 4281356862
0.035307456 0.015343987 0.40100002 4279054103
0.036609907 0.015343987 0.40100002 4279516189
0.037912354 0.015343987 0.40100002 4279124765
0.039214805 0.015343987 0.40100002 4279125535
0.040517252 0.015343987 0.40100002 4278994463
0.041819703 0.015343987 0.40100002 4278928670
0.04312215 0.015343987 0.40100002 4278929183
0.044424601 0.015343987 0.40100002 4279060769
0.045727048 0.015343987 0.40100002 4278929181
0.047146775 0.015382251 0.40200001 4278731802
0.04845247 0.015382251 0.40200001 4278929181
0.049758166 0.015382251 0.40200001 4279126560
0.05119089 0.015420516 0.40300003 4279126047
0.052499834 0.015420516 0.40300003 4279322912
0.0539423 0.015458779 0.40400001 4279387935
0.055254489 0.015458779 0.40400001 4279256349
0.056706704 0.015497045 0.40500003 4279584801
0.058165409 0.015535308 0.40600002 4279453215
0.059484098 0.015535308 0.40600002 4279650596
0.06095254 0.015573572 0.40700001 4279321631
0.062427491 0.015611837 0.40800002 4279584549
0.063752681 0.015611837 0.40800002 4278992412
0.065237358 0.015650101 0.40900001 4279452193
0.066728555 0.015688365 0.41000003 4278991129
0.068226233 0.01572663 0.41100001 4279451680
0.069730408 0.015764894 0.41200003 4279385889
0.071241081 0.015803158 0.41300002 4279977256
0.072758257 0.015841423 0.41400003 4280831797
0.074102931 0.015841423 0.41400003 4282343753
0.075629838 0.015879687 0.41500002 4284317543
0.07697776 0.015879687 0.41500002 4285632890
0.078514419 0.015917951 0.41600001 4286159747
0.079865582 0.015917951 0.41600001 4286291335
0.081216753 0.015917951 0.41600001 4285501819
0.082766406 0.015956216 0.41700003 4285567099
0.032702558 0.016646877 0.40100002 4285566331
0.034005009 0.016646877 0.40100002 4285501308
0.035307456 0.016646877 0.40100002 4286422923
0.036609907 0.016646877 0.40100002 4284646510
0.037912354 0.016646877 0.40100002 4280173608
0.039214805 0.016646877 0.40100002 4278990359
0.040517252 0.016646877 0.40100002 4279584549
0.041819703 0.016646877 0.40100002 4278992412
0.04312215 0.016646877 0.40100002 4279058718
0.044424601 0.016646877 0.40100002 4279519269
0.045727048 0.016646877 0.40100002 4279650344
0.047146775 0.01668839 0.40200001 4279583781
0.04845247 0.01668839 0.40200001 4279187738
0.049758166 0.01668839 0.40200001 4279385371
0.05119089 0.016729904 0.40300003 4279780129
0.052499834 0.016729904 0.40300003 4280372014
0.0539423 0.016771417 0.40400001 4281358395
0.055254489 0.016771417 0.40400001 4281490243
0.056706704 0.01681293 0.40500003 4283135840
0.058165409 0.016854443 0.40600002 4284450416
0.059484098 0.016854443 0.40600002 4285239928
0.061102305 0.01693747 0.40800002 4285568380
0.062427491 0.01693747 0.40800002 4286028931
0.063908935 0.016978983 0.40900001 4286094724
0.065237358 0.016978983 0.40900001 4286291335
0.066728555 0.017020497 0.41000003 4285962370
0.068226233 0.01706201 0.41100001 4285896064
0.069730408 0.017103525 0.41200003 4285830271
0.071241081 0.017145038 0.41300002 4285632122
0.072758257 0.017186552 0.41400003 4285895294
0.074102931 0.017186552 0.41400003 4285764478
0.075629838 0.017228065 0.41500002 4285632892
0.07697776 0.017228065 0.41500002 4285830271
0.078325681 0.017228065 0.41500002 4285764478
0.079865582 0.017269578 0.41600001 4285632894
0.081216753 0.017269578 0.41600001 4286026882
0.061102305 0.018263103 0.40800002 4285699200
0.062580496 0.018307867 0.40900001 4285764480
0.063908935 0.018307867 0.40900001 4285896066
0.065237358 0.018307867 0.40900001 4285961859
0.066728555 0.01835263 0.41000003 4285961089
0.068226233 0.018397391 0.41100001 4285961089
0.069730408 0.018442154 0.41200003 4286158468
0.071241081 0.018486917 0.41300002 4285961089
0.072758257 0.01853168 0.41400003 4286026882
0.074102931 0.01853168 0.41400003 4285961089
0.075629838 0.018576441 0.41500002 4286026882
0.07697776 0.018576441 0.41500002 4285961089
0.061618201 0.0072945077 0.41153038 4294967295
0.061618201 0.0072945077 0.41153038 4294901760
0.061612505 0.0067948862 0.41154897 4294901760
0.061606806 0.0062952647 0.41156757 4294901760
0.06160111 0.0057956432 0.41158617 4294901760
0.061595414 0.0052960217 0.41160476 4294901760
0.061589718 0.0047963997 0.41162336 4294901760
0.061584018 0.0042967787 0.41164196 4294901760
0.061578322 0.0037971567 0.41166055 4294901760
0.061572626 0.0032975352 0.41167915 4294901760
0.061566927 0.0027979137 0.41169775 4294901760
0.061561231 0.0022982922 0.41171634 4294901760
0.061555535 0.0017986707 0.41173494 4294901760
0.061549839 0.0012990492 0.41175354 4294901760
0.061544139 0.00079942774 0.41177213 4294901760
0.061538443 0.00029980578 0.41179073 4294901760
0.061532747 -0.00019981572 0.41180933 4294901760
0.061527047 -0.00069943722 0.41182792 4294901760
0.061521351 -0.0011990592 0.41184652 4294901760
0.061515655 -0.0016986802 0.41186512 4294901760
0.061509956 -0.0021983022 0.41188371 4294901760
0.06150426 -0.0026979232 0.41190231 4294901760
0.061498564 -0.0031975443 0.41192091 4294901760
0.061492868 -0.0036971662 0.4119395 4294901760
0.061487168 -0.0041967882 0.4119581 4294901760
0.061481472 -0.0046964092 0.4119767 4294901760
0.061475776 -0.0051960312 0.41199529 4294901760
0.061470076 -0.0056956522 0.41201389 4294901760
0.06146438 -0.0061952751 0.41203249 4294901760
0.061458685 -0.0066948961 0.41205108 4294901760
0.061452989 -0.0071945172 0.41206968 4294901760
0.061447289 -0.0076941391 0.41208827 4294901760
0.061441593 -0.0081937602 0.41210687 4294901760
0.061435897 -0.0086933821 0.41212547 4294901760
0.061430197 -0.009193005 0.41214406 4294901760
0.061424501 -0.0096926261 0.41216266 4294901760
0.061418805 -0.010192247 0.41218126 4294901760
0.061413109 -0.010691868 0.41219985 4294901760
0.06140741 -0.011191489 0.41221845 4294901760
0.061401714 -0.011691112 0.41223705 4294901760
0.061396018 -0.012190733 0.41225564 4294901760
0.061390318 -0.012690354 0.41227424 4294901760
0.061384622 -0.013189975 0.41229284 4294901760
0.061378926 -0.013689596 0.41231143 4294901760
0.06137323 -0.014189219 0.41233003 4294901760
0.06136753 -0.01468884 0.41234863 4294901760
0.061361834 -0.015188461 0.41236722 4294901760
0.061356138 -0.015688084 0.41238582 4294901760
0.061350439 -0.016187705 0.41240442 4294901760
0.061344743 -0.016687326 0.41242301 4294901760
0.061339047 -0.017186949 0.41244161 4294901760
0.061333351 -0.01768657 0.41246021 4294901760
0.061327651 -0.018186191 0.41247877 4294901760
0.061321955 -0.018685812 0.41249737 4294901760
0.061316259 -0.019185433 0.41251597 4294901760
0.06131056 -0.019685058 0.41253456 4294901760
0.061304864 -0.020184679 0.41255316 4294901760
0.061299168 -0.0206843 0.41257176 4294901760
0.061293468 -0.021183921 0.41259035 4294901760
0.061287772 -0.021683542 0.41260895 4294901760
0.061282076 -0.022183163 0.41262755 4294901760
0.06127638 -0.022682786 0.41264614 4294901760
0.06127068 -0.023182407 0.41266474 4294901760
0.061264984 -0.023682028 0.41268334 4294901760
0.061259288 -0.024181651 0.41270193 4294901760
0.061253589 -0.024681272 0.41272053 4294901760
0.061247893 -0.025180893 0.41273913 4294901760
0.061242197 -0.025680518 0.41275772 4294901760
0.061236501 -0.026180139 0.41277632 4294901760
0.061230801 -0.02667976 0.41279492 4294901760
0.061225105 -0.027179381 0.41281351 4294901760
0.061219409 -0.027679002 0.41283211 4294901760
0.061213709 -0.028178623 0.41285071 4294901760
0.061208013 -0.028678244 0.4128693 4294901760
0.061202317 -0.029177865 0.4128879 4294901760
0.061196622 -0.029677486 0.4129065 4294901760
0.061190922 -0.030177107 0.41292509 4294901760
0.061185226 -0.030676732 0.41294369 4294901760
0.06117953 -0.031176353 0.41296229 4294901760
0.06117383 -0.031675972 0.41298088 4294901760
0.061168134 -0.032175593 0.41299948 4294901760
0.061162438 -0.032675214 0.41301808 4294901760
0.061156742 -0.033174835 0.41303667 4294901760
0.061151043 -0.033674456 0.41305527 4294901760
0.061145347 -0.034174077 0.41307387 4294901760
0.061139651 -0.034673698 0.41309246 4294901760
0.061133951 -0.035173327 0.41311106 4294901760
0.061128255 -0.035672948 0.41312966 4294901760
0.061122559 -0.036172569 0.41314825 4294901760
0.061116859 -0.03667219 0.41316685 4294901760
0.061111163 -0.037171811 0.41318545 4294901760
0.061105467 -0.037671432 0.41320404 4294901760
0.061099771 -0.038171053 0.41322264 4294901760
0.061094072 -0.038670674 0.41324124 4294901760
0.061088376 -0.039170295 0.41325983 4294901760
0.06108268 -0.039669916 0.41327843 4294901760
0.06107698 -0.040169537 0.41329703 4294901760
0.061071284 -0.040669158 0.41331562 4294901760
0.061065588 -0.041168787 0.41333422 4294901760
0.061059892 -0.041668408 0.41335282 4294901760
0.061054192 -0.042168029 0.41337141 4294901760
0.061048497 -0.04266765 0.41339001 4294901760
0.061618201 0.0072945077 0.41153038 4278255360
0.062080268 0.0072963489 0.41172141 4278255360
0.062542334 0.0072981901 0.41191241 4278255360
0.063004404 0.0073000314 0.41210344 4278255360
0.063466474 0.0073018726 0.41229448 4278255360
0.063928537 0.0073037138 0.41248548 4278255360
0.064390607 0.0073055555 0.41267651 4278255360
0.064852677 0.0073073967 0.41286755 4278255360
0.06531474 0.007309238 0.41305858 4278255360
0.06577681 0.0073110792 0.41324958 4278255360
0.06623888 0.0073129204 0.41344061 4278255360
0.066700943 0.0073147616 0.41363165 4278255360
0.067163013 0.0073166029 0.41382265 4278255360
0.067625083 0.0073184441 0.41401368 4278255360
0.068087146 0.0073202853 0.41420472 4278255360
0.068549216 0.0073221265 0.41439575 4278255360
0.069011286 0.0073239678 0.41458675 4278255360
0.069473349 0.0073258094 0.41477779 4278255360
0.069935419 0.0073276507 0.41496882 4278255360
0.070397489 0.0073294919 0.41515982 4278255360
0.070859551 0.0073313331 0.41535085 4278255360
0.071321622 0.0073331743 0.41554189 4278255360
0.071783692 0.0073350156 0.41573289 4278255360
0.072245754 0.0073368568 0.41592392 4278255360
0.072707824 0.007338698 0.41611496 4278255360
0.073169895 0.0073405392 0.41630596 4278255360
0.073631957 0.0073423805 0.41649699 4278255360
0.074094027 0.0073442217 0.41668802 4278255360
0.074556097 0.0073460634 0.41687906 4278255360
0.07501816 0.0073479046 0.41707006 4278255360
0.07548023 0.0073497458 0.41726109 4278255360
0.0759423 0.0073515871 0.41745213 4278255360
0.076404363 0.0073534283 0.41764313 4278255360
0.076866433 0.0073552695 0.41783416 4278255360
0.077328503 0.0073571107 0.4180252 4278255360
0.077790573 0.007358952 0.41821623 4278255360
0.078252636 0.0073607932 0.41840723 4278255360
0.078714706 0.0073626344 0.41859826 4278255360
0.079176769 0.0073644756 0.4187893 4278255360
0.079638839 0.0073663173 0.4189803 4278255360
0.080100909 0.0073681585 0.41917133 4278255360
0.080562979 0.0073699998 0.41936237 4278255360
0.081025042 0.007371841 0.41955337 4278255360
0.081487112 0.0073736822 0.4197444 4278255360
0.081949174 0.0073755234 0.41993544 4278255360
0.082411245 0.0073773647 0.42012644 4278255360
0.082873315 0.0073792059 0.42031747 4278255360
0.083335385 0.0073810471 0.4205085 4278255360
0.083797447 0.0073828883 0.42069954 4278255360
0.084259517 0.0073847296 0.42089054 4278255360
0.08472158 0.0073865708 0.42108157 4278255360
0.08518365 0.0073884125 0.42127261 4278255360
0.08564572 0.0073902537 0.42146361 4278255360
0.086107783 0.0073920949 0.42165464 4278255360
0.086569853 0.0073939362 0.42184567 4278255360
0.087031923 0.0073957774 0.42203671 4278255360
0.087493986 0.0073976186 0.42222771 4278255360
0.087956056 0.0073994598 0.42241874 4278255360
0.088418126 0.0074013011 0.42260978 4278255360
0.088880189 0.0074031423 0.42280078 4278255360
0.089342259 0.0074049835 0.42299181 4278255360
0.089804329 0.0074068252 0.42318285 4278255360
0.090266392 0.0074086664 0.42337385 4278255360
0.090728462 0.0074105076 0.42356488 4278255360
0.091190532 0.0074123489 0.42375591 4278255360
0.091652602 0.0074141901 0.42394692 4278255360
0.092114672 0.0074160313 0.42413795 4278255360
0.092576735 0.0074178725 0.42432898 4278255360
0.093038797 0.0074197138 0.42452002 4278255360
0.093500867 0.007421555 0.42471102 4278255360
0.093962938 0.0074233962 0.42490205 4278255360
0.094425008 0.0074252374 0.42509308 4278255360
0.094887078 0.0074270787 0.42528409 4278255360
0.09534914 0.0074289204 0.42547512 4278255360
0.095811203 0.0074307616 0.42566615 4278255360
0.096273273 0.0074326028 0.42585719 4278255360
0.096735343 0.007434444 0.42604819 4278255360
0.097197413 0.0074362853 0.42623922 4278255360
0.097659476 0.0074381265 0.42643026 4278255360
0.098121546 0.0074399677 0.42662126 4278255360
0.098583609 0.0074418089 0.42681229 4278255360
0.099045679 0.0074436502 0.42700332 4278255360
0.099507749 0.0074454914 0.42719433 4278255360
0.099969819 0.0074473326 0.42738536 4278255360
0.10043188 0.0074491743 0.42757639 4278255360
0.10089395 0.0074510155 0.4277674 4278255360
0.10135601 0.0074528567 0.42795843 4278255360
0.10181808 0.007454698 0.42814946 4278255360
0.10228015 0.0074565392 0.42834049 4278255360
0.10274222 0.0074583804 0.4285315 4278255360
0.10320429 0.0074602216 0.42872253 4278255360
0.10366636 0.0074620629 0.42891356 4278255360
0.10412842 0.0074639041 0.42910457 4278255360
0.10459049 0.0074657453 0.4292956 4278255360
0.10505256 0.0074675865 0.42948663 4278255360
0.10551463 0.0074694282 0.42967767 4278255360
0.10597669 0.0074712695 0.42986867 4278255360
0.10643876 0.0074731107 0.4300597 4278255360
0.10690083 0.0074749519 0.43025073 4278255360
0.1073629 0.0074767931 0.43044174 4278255360
0.10782497 0.0074786344 0.43063277 4278255360
0.061618201 0.0072945077 0.41153038 4278190335
0.06137738 0.0073135481 0.41196814 4278190335
0.061136562 0.0073325881 0.41240591 4278190335
0.060895741 0.0073516285 0.41284367 4278190335
0.060654923 0.0073706685 0.41328147 4278190335
0.060414102 0.0073897089 0.41371924 4278190335
0.060173284 0.0074087488 0.414157 4278190335
0.059932463 0.0074277893 0.41459477 4278190335
0.059691645 0.0074468292 0.41503254 4278190335
0.059450824 0.0074658697 0.4154703 4278190335
0.059210002 0.0074849101 0.4159081 4278190335
0.058969185 0.00750395 0.41634586 4278190335
0.058728363 0.0075229905 0.41678363 4278190335
0.058487546 0.0075420304 0.4172214 4278190335
0.058246724 0.0075610708 0.41765916 4278190335
0.058005907 0.0075801108 0.41809693 4278190335
0.057765085 0.0075991512 0.4185347 4278190335
0.057524264 0.0076181917 0.41897249 4278190335
0.057283446 0.0076372316 0.41941026 4278190335
0.057042625 0.007656272 0.41984802 4278190335
0.056801807 0.007675312 0.42028579 4278190335
0.056560986 0.0076943524 0.42072356 4278190335
0.056320168 0.0077133924 0.42116132 4278190335
0.056079347 0.0077324328 0.42159909 4278190335
0.055838529 0.0077514728 0.42203689 4278190335
0.055597708 0.0077705132 0.42247465 4278190335
0.05535689 0.0077895531 0.42291242 4278190335
0.055116069 0.0078085936 0.42335019 4278190335
0.054875247 0.007827634 0.42378795 4278190335
0.05463443 0.007846674 0.42422572 4278190335
0.054393608 0.0078657139 0.42466351 4278190335
0.05415279 0.0078847548 0.42510128 4278190335
0.053911969 0.0079037948 0.42553905 4278190335
0.053671151 0.0079228347 0.42597681 4278190335
0.05343033 0.0079418756 0.42641458 4278190335
0.053189509 0.0079609156 0.42685235 4278190335
0.052948691 0.0079799555 0.42729011 4278190335
0.05270787 0.0079989955 0.42772791 4278190335
0.052467052 0.0080180364 0.42816567 4278190335
0.052226231 0.0080370763 0.42860344 4278190335
0.051985413 0.0080561163 0.42904121 4278190335
0.051744591 0.0080751572 0.42947897 4278190335
0.05150377 0.0080941971 0.42991674 4278190335
0.051262952 0.0081132371 0.43035451 4278190335
0.051022135 0.0081322771 0.4307923 4278190335
0.050781313 0.0081513179 0.43123007 4278190335
0.050540492 0.0081703579 0.43166783 4278190335
0.050299674 0.0081893979 0.4321056 4278190335
0.050058853 0.0082084378 0.43254337 4278190335
0.049818031 0.0082274787 0.43298113 4278190335
0.049577214 0.0082465187 0.43341893 4278190335
0.049336396 0.0082655586 0.4338567 4278190335
0.049095575 0.0082845986 0.43429446 4278190335
0.048854753 0.0083036395 0.43473223 4278190335
0.048613936 0.0083226794 0.43516999 4278190335
0.048373114 0.0083417194 0.43560776 4278190335
0.048132293 0.0083607603 0.43604553 4278190335
0.047891475 0.0083798002 0.43648332 4278190335
0.047650658 0.0083988402 0.43692109 4278190335
0.047409836 0.0084178802 0.43735886 4278190335
0.047169015 0.0084369211 0.43779662 4278190335
0.046928197 0.008455961 0.43823439 4278190335
0.046687376 0.008475001 0.43867216 4278190335
0.046446558 0.0084940419 0.43910992 4278190335
0.046205737 0.0085130818 0.43954772 4278190335
0.045964919 0.0085321218 0.43998548 4278190335
0.045724098 0.0085511617 0.44042325 4278190335
0.045483276 0.0085702026 0.44086102 4278190335
0.045242459 0.0085892426 0.44129878 4278190335
0.045001641 0.0086082825 0.44173655 4278190335
0.04476082 0.0086273234 0.44217432 4278190335
0.044519998 0.0086463634 0.44261211 4278190335
0.04427918 0.0086654034 0.44304988 4278190335
0.044038359 0.0086844433 0.44348764 4278190335
0.043797538 0.0087034842 0.44392541 4278190335
0.04355672 0.0087225242 0.44436318 4278190335
0.043315902 0.0087415641 0.44480094 4278190335
0.043075081 0.008760605 0.44523871 4278190335
0.04283426 0.008779645 0.44567651 4278190335
0.042593442 0.0087986849 0.44611427 4278190335
0.042352621 0.0088177249 0.44655204 4278190335
0.042111799 0.0088367658 0.4469898 4278190335
0.041870981 0.0088558057 0.44742757 4278190335
0.041630164 0.0088748457 0.44786534 4278190335
0.041389342 0.0088938866 0.4483031 4278190335
0.041148521 0.0089129265 0.4487409 4278190335
0.040907703 0.0089319665 0.44917867 4278190335
0.040666882 0.0089510065 0.44961643 4278190335
0.040426064 0.0089700473 0.4500542 4278190335
0.040185243 0.0089890873 0.45049196 4278190335
0.039944425 0.0090081273 0.45092976 4278190335
0.039703604 0.0090271682 0.45136753 4278190335
0.039462782 0.0090462081 0.45180529 4278190335
0.039221965 0.0090652481 0.45224306 4278190335
0.038981147 0.009084288 0.45268083 4278190335
0.038740326 0.0091033289 0.45311859 4278190335
0.038499504 0.0091223689 0.45355636 4278190335
0.038258687 0.0091414088 0.45399415 4278190335
0.038017865 0.0091604497 0.45443192 4278190335
0.037777044 0.0091794897 0.45486969 4278190335
0.037536226 0.0091985296 0.45530745 4278190335
0.061618201 0.0072945077 0.41153038 4294967295
0.063063122 0.0071802665 0.40890375 4294967295
0.064508036 0.0070660249 0.40627712 4294967295
0.065952957 0.0069517838 0.40365049 4294967295
0.067397878 0.0068375422 0.40102386 4294967295
0.068842791 0.006723301 0.39839724 4294967295
0.070287712 0.0066090599 0.39577061 4294967295
0.071732633 0.0064948183 0.39314401 4294967295
0.073177546 0.0063805771 0.39051738 4294967295
0.074622467 0.0062663355 0.38789076 4294967295
0.076067388 0.0061520943 0.38526413 4294967295
0.077512309 0.0060378527 0.3826375 4294967295
0.078957222 0.0059236116 0.38001087 4294967295
0.080402143 0.0058093704 0.37738425 4294967295
0.081847057 0.0056951288 0.37475762 4294967295
0.083291978 0.0055808872 0.37213099 4294967295
0.084736899 0.005466646 0.36950436 4294967295
0.086181819 0.0053524049 0.36687773 4294967295
0.08762674 0.0052381633 0.36425111 4294967295
0.089071654 0.0051239221 0.36162448 4294967295
0.090516575 0.005009681 0.35899788 4294967295
0.091961488 0.0048954394 0.35637125 4294967295
0.093406409 0.0047811982 0.35374463 4294967295
0.09485133 0.0046669566 0.351118 4294967295
0.096296243 0.0045527155 0.34849137 4294967295
0.097741164 0.0044384738 0.34586474 4294967295
0.099186078 0.0043242332 0.34323812 4294967295
0.100631 0.0042099915 0.34061149 4294967295
0.10207592 0.0040957499 0.33798486 4294967295
0.10352084 0.0039815088 0.33535826 4294967295
0.10496576 0.0038672672 0.3327316 4294967295
0.10641067 0.003753026 0.33010501 4294967295
0.10785559 0.0036387846 0.32747835 4294967295
0.10930051 0.0035245433 0.32485175 4294967295
0.11074543 0.0034103019 0.32222512 4294967295
0.11219035 0.0032960605 0.3195985 4294967295
0.11363527 0.0031818193 0.31697187 4294967295
0.11508019 0.0030675777 0.31434524 4294967295
0.1165251 0.0029533366 0.31171861 4294967295
0.11797002 0.0028390954 0.30909199 4294967295
0.11941494 0.0027248538 0.30646536 4294967295
0.12085986 0.0026106127 0.30383873 4294967295
0.12230478 0.0024963715 0.30121213 4294967295
0.1237497 0.0023821299 0.29858547 4294967295
0.12519461 0.0022678887 0.29595888 4294967295
0.12663953 0.0021536471 0.29333225 4294967295
0.12808445 0.0020394055 0.29070562 4294967295
0.12952937 0.0019251644 0.28807899 4294967295
0.13097429 0.0018109232 0.28545237 4294967295
0.13241921 0.0016966816 0.28282574 4294967295
0.13386413 0.0015824405 0.28019911 4294967295
0.13530904 0.0014681993 0.27757248 4294967295
0.13675396 0.0013539582 0.27494586 4294967295
0.13819888 0.0012397165 0.27231926 4294967295
0.1396438 0.0011254749 0.2696926 4294967295
0.14108872 0.0010112338 0.267066 4294967295
0.14253363 0.00089699216 0.26443934 4294967295
0.14397857 0.00078275101 0.26181275 4294967295
0.14542347 0.00066850986 0.25918612 4294967295
0.14686839 0.00055426871 0.25655949 4294967295
0.14831331 0.00044002663 0.25393283 4294967295
0.14975823 0.00032578548 0.25130624 4294967295
0.15120316 0.00021154433 0.24867961 4294967295
0.15264806 9.7303186e-05 0.24605298 4294967295
0.15409298 -1.6938429e-05 0.24342635 4294967295
0.1555379 -0.00013117958 0.24079974 4294967295
0.15698282 -0.00024542119 0.2381731 4294967295
0.15842775 -0.00035966281 0.23554647 4294967295
0.15987265 -0.00047390396 0.23291986 4294967295
0.16131759 -0.00058814511 0.23029323 4294967295
0.16276249 -0.00070238672 0.2276666 4294967295
0.16420741 -0.00081662741 0.22503999 4294967295
0.16565233 -0.00093086902 0.22241335 4294967295
0.16709726 -0.0010451106 0.21978672 4294967295
0.16854218 -0.0011593523 0.21716011 4294967295
0.16998708 -0.0012735929 0.21453348 4294967295
0.171432 -0.0013878345 0.21190685 4294967295
0.17287692 -0.0015020752 0.20928024 4294967295
0.17432183 -0.0016163168 0.20665361 4294967295
0.17576677 -0.0017305585 0.20402697 4294967295
0.17721169 -0.0018448001 0.20140035 4294967295
0.17865661 -0.0019590417 0.19877373 4294967295
0.18010151 -0.0020732824 0.1961471 4294967295
0.18154643 -0.002187524 0.19352049 4294967295
0.18299136 -0.0023017647 0.19089386 4294967295
0.18443628 -0.0024160072 0.18826722 4294967295
0.1858812 -0.0025302479 0.1856406 4294967295
0.1873261 -0.0026444895 0.18301398 4294967295
0.18877104 -0.0027587302 0.18038735 4294967295
0.19021595 -0.0028729718 0.17776072 4294967295
0.19166085 -0.0029872134 0.17513411 4294967295
0.19310579 -0.003101455 0.17250746 4294967295
