# .PCD v0.7 - Point Cloud Data file format
VERSION 0.7
FIELDS x y z rgb
SIZE 4 4 4 4
TYPE F F F U
COUNT 1 1 1 1
WIDTH 1019
HEIGHT 1
VIEWPOINT 0 0 0 1 0 0 0
POINTS 1019
DATA ascii
-0.02379477 0.023631191 0.46100003 4283572501
-0.022345807 0.023682451 0.46200001 4285741355
-0.02093547 0.023784973 0.46400002 4285678642
-0.019470271 0.023836233 0.46500003 4284103724
-0.018037196 0.023938753 0.46700001 4281934871
-0.01659113 0.024041275 0.46900001 4280160518
-0.015099945 0.024092536 0.47000003 4283714110
-0.013631144 0.024195058 0.47200003 4280488970
-0.012123718 0.024246318 0.47300002 4286281582
-0.010609797 0.02429758 0.47400004 4286882189
-0.0090893796 0.02434884 0.47500002 4286948752
-0.0075624655 0.0244001 0.47600001 4287539094
-0.0060164174 0.0244001 0.47600001 4281608480
-0.0044797603 0.024451362 0.47700003 4283311128
-0.0029304633 0.024451362 0.47700003 4284559909
-0.0013840619 0.024502622 0.47800002 4285738017
0.00016848295 0.024502622 0.47800002 4287446325
0.0017246283 0.024553884 0.47900003 4286922041
-0.035307802 0.024801966 0.45500001 4282270498
-0.033829961 0.024801966 0.45500001 4284429091
-0.03235212 0.024801966 0.45500001 4285148705
-0.030942136 0.024856478 0.45600003 4286923831
-0.029525656 0.024910986 0.45700002 4283177997
-0.028102677 0.024965497 0.45800003 4281607699
-0.026615093 0.024965497 0.45800003 4282133273
-0.025182372 0.025020007 0.45900002 4283968286
-0.02379477 0.025129026 0.46100003 4285411877
-0.022345807 0.025183534 0.46200001 4285806887
-0.02093547 0.025292555 0.46400002 4284823845
-0.019512143 0.025401575 0.46600002 4280423436
-0.018037196 0.025456084 0.46700001 4280293651
-0.01659113 0.025565105 0.46900001 4279506191
-0.015132072 0.025674123 0.47100002 4282401853
-0.013631144 0.025728634 0.47200003 4284377696
-0.01214935 0.025837654 0.47400004 4280693290
-0.010632181 0.025892163 0.47500002 4288000158
-0.0091085145 0.025946673 0.47600001 4287342740
-0.0075624655 0.025946673 0.47600001 4287408533
-0.0060290569 0.026001183 0.47700003 4282600252
-0.0044797603 0.026001183 0.47700003 4283245083
-0.0029366068 0.026055692 0.47800002 4284033054
-0.0013840619 0.026055692 0.47800002 4285738789
0.00016883542 0.026110204 0.47900003 4287118130
0.0017246283 0.026110204 0.47900003 4286264113
0.0032872695 0.026164712 0.48000002 4286264108
-0.03678564 0.026280308 0.45500001 4282269728
-0.035307802 0.026280308 0.45500001 4282925862
-0.033829961 0.026280308 0.45500001 4284953121
-0.03235212 0.026280308 0.45500001 4285936420
-0.030942136 0.026338067 0.45600003 4285083164
-0.02946105 0.026338067 0.45600003 4282917905
-0.028041318 0.026395826 0.45700002 4280884230
-0.026615093 0.026453586 0.45800003 4283119395
-0.025182372 0.026511343 0.45900002 4284953125
-0.02379477 0.026626863 0.46100003 4286134315
-0.022345807 0.026684619 0.46200001 4285675814
-0.02093547 0.026800139 0.46400002 4283248928
-0.019512143 0.026915656 0.46600002 4280359960
-0.018037196 0.026973415 0.46700001 4279900694
-0.01659113 0.027088933 0.46900001 4280825389
-0.015132072 0.02720445 0.47100002 4281549112
-0.013631144 0.027262211 0.47200003 4279507995
-0.01214935 0.027377728 0.47400004 4281614392
-0.010632181 0.027435487 0.47500002 4280497706
-0.0091085145 0.027493244 0.47600001 4287474326
-0.0075783534 0.027551005 0.47700003 4287212437
-0.0060290569 0.027551005 0.47700003 4284708708
-0.0044891518 0.027608763 0.47800002 4283640354
-0.0029366068 0.027608763 0.47800002 4283704089
-0.0013869575 0.027666522 0.47900003 4285279008
0.00016883542 0.027666522 0.47900003 4286987057
0.0017282286 0.027724281 0.48000002 4289290843
0.0032872695 0.027724281 0.48000002 4286790450
-0.036704794 0.027697641 0.45400003 4282269215
-0.035230204 0.027697641 0.45400003 4283776805
-0.033755612 0.027697641 0.45400003 4285543715
-0.032281019 0.027697641 0.45400003 4286199074
-0.03087428 0.027758649 0.45500001 4284098579
-0.029396441 0.027758649 0.45500001 4281801732
-0.027979959 0.027819658 0.45600003 4283318823
-0.02655698 0.027880665 0.45700002 4283643938
-0.025182372 0.028002681 0.45900002 4285346595
-0.023743154 0.028063688 0.46000001 4286134315
-0.022345807 0.028185705 0.46200001 4285353019
-0.02093547 0.028307721 0.46400002 4280227081
-0.019512143 0.028429737 0.46600002 4279638801
-0.018037196 0.028490745 0.46700001 4286812802
-0.01659113 0.028612761 0.46900001 4285761913
-0.015132072 0.028734777 0.47100002 4282603597
-0.013631144 0.028795786 0.47200003 4284115551
-0.01214935 0.028917802 0.47400004 4280957227
-0.010632181 0.02897881 0.47500002 4279312662
-0.0091085145 0.029039817 0.47600001 4287934111
-0.0075783534 0.029100826 0.47700003 4287211924
-0.0060416963 0.029161833 0.47800002 4286748804
-0.0044891518 0.029161833 0.47800002 4282785045
-0.0029427505 0.029222842 0.47900003 4283901468
-0.0013869575 0.029222842 0.47900003 4285871658
0.0001691879 0.02928385 0.48000002 4285803810
0.0017282286 0.02928385 0.48000002 4286065696
0.0032872695 0.02928385 0.48000002 4286789932
0.0048564067 0.029344859 0.48100004 4286805350
-0.036623947 0.029108478 0.45300001 4282792479
-0.035152603 0.029108478 0.45300001 4284627238
-0.033681259 0.029108478 0.45300001 4285935393
-0.032209914 0.029108478 0.45300001 4286330149
-0.030806426 0.029172735 0.45400003 4283048208
-0.029396441 0.029236991 0.45500001 4281803535
-0.027918598 0.029236991 0.45500001 4281869326
-0.02655698 0.029365506 0.45700002 4283971106
-0.02512751 0.029429764 0.45800003 4285148957
-0.023743154 0.029558277 0.46000001 4285280543
-0.022345807 0.029686792 0.46200001 4282331937
-0.02093547 0.029815305 0.46400002 4284177741
-0.019512143 0.02994382 0.46600002 4282666560
-0.018037196 0.030008078 0.46700001 4285168491
-0.01659113 0.030136591 0.46900001 4284119135
-0.015132072 0.030265106 0.47100002 4282144066
-0.013631144 0.030329363 0.47200003 4281944636
-0.01214935 0.030457878 0.47400004 4281680950
-0.010632181 0.030522134 0.47500002 4281154866
-0.0091276504 0.030650649 0.47700003 4287801496
-0.0075942408 0.030714905 0.47800002 4287408535
-0.0060416963 0.030714905 0.47800002 4287537811
-0.0044985432 0.030779164 0.47900003 4283441692
-0.0029427505 0.030779164 0.47900003 4284295454
-0.001389853 0.03084342 0.48000002 4285279523
0.0001691879 0.03084342 0.48000002 4285542695
0.0017282286 0.03084342 0.48000002 4285213730
0.0032872695 0.03084342 0.48000002 4285939250
-0.037843008 0.030377802 0.45000002 4281677337
-0.036543101 0.030512815 0.45200002 4284168483
-0.035075005 0.030512815 0.45200002 4285413672
-0.033606909 0.030512815 0.45200002 4286395172
-0.032209914 0.030580319 0.45300001 4286526758
-0.03073857 0.030580319 0.45300001 4282654481
-0.029331835 0.030647827 0.45400003 4281277453
-0.027918598 0.030715333 0.45500001 4283710508
-0.026498869 0.030782839 0.45600003 4283838753
-0.02512751 0.030917853 0.45800003 4285806633
-0.023743154 0.031052863 0.46000001 4284096015
-0.022345807 0.031187877 0.46200001 4280556046
-0.020890351 0.031255383 0.46300003 4279440652
-0.019470271 0.031390395 0.46500003 4280823845
-0.018037196 0.031525407 0.46700001 4280561186
-0.01659113 0.031660419 0.46900001 4289050266
-0.015132072 0.031795431 0.47100002 4284046905
-0.013631144 0.031862941 0.47200003 4282271019
-0.01214935 0.031997953 0.47400004 4282140720
-0.010654564 0.032132965 0.47600001 4279247123
-0.0091276504 0.032200471 0.47700003 4288327840
-0.0075942408 0.032267977 0.47800002 4287474328
-0.0060543362 0.032335483 0.47900003 4287537041
-0.0044985432 0.032335483 0.47900003 4284492581
-0.0029427505 0.032335483 0.47900003 4285148453
-0.001389853 0.032402989 0.48000002 4285476648
0.0001691879 0.032402989 0.48000002 4285739820
0.0017282286 0.032402989 0.48000002 4284297769
0.0032872695 0.032402989 0.48000002 4287727483
-0.037843008 0.031839896 0.45000002 4281742619
-0.036462255 0.031910654 0.45100003 4284889640
-0.034997404 0.031910654 0.45100003 4285805604
-0.033532556 0.031910654 0.45100003 4288762689
-0.03213881 0.031981409 0.45200002 4287117864
-0.03073857 0.032052163 0.45300001 4285543974
-0.029267225 0.032052163 0.45300001 4281929473
-0.027857238 0.032122921 0.45400003 4283970087
-0.026498869 0.03226443 0.45600003 4284492833
-0.025072645 0.032335185 0.45700002 4285870375
-0.023691539 0.032476697 0.45900002 4284753177
-0.022297442 0.032618206 0.46100003 4281147413
-0.020890351 0.032759719 0.46300003 4279966739
-0.019470271 0.032901227 0.46500003 4280757028
-0.018037196 0.033042736 0.46700001 4280296731
-0.01659113 0.033184249 0.46900001 4281942054
-0.015099945 0.033255003 0.47000003 4284177462
-0.013631144 0.033396516 0.47200003 4284638778
-0.01214935 0.033538029 0.47400004 4281612314
-0.010654564 0.033679534 0.47600001 4280036637
-0.0091276504 0.033750292 0.47700003 4288065951
-0.0075942408 0.033821046 0.47800002 4287540119
-0.0060543362 0.033891805 0.47900003 4285365354
-0.0044985432 0.033891805 0.47900003 4285018666
-0.0029488937 0.033962559 0.48000002 4285016867
-0.001389853 0.033962559 0.48000002 4286331444
0.0001691879 0.033962559 0.48000002 4287322704
0.0017318293 0.034033313 0.48100004 4287602830
-0.037843008 0.033301994 0.45000002 4283186215
-0.036462255 0.033376001 0.45100003 4285938732
-0.034997404 0.033376001 0.45100003 4286263586
-0.033532556 0.033376001 0.45100003 4286984479
-0.03213881 0.033450004 0.45200002 4287050272
-0.030670714 0.033450004 0.45200002 4287181345
-0.029267225 0.033524007 0.45300001 4287247138
-0.027857238 0.033598013 0.45400003 4286262557
-0.026498869 0.033746019 0.45600003 4287054131
-0.025072645 0.033820026 0.45700002 4286264104
-0.023691539 0.033968035 0.45900002 4285411107
-0.022297442 0.034116041 0.46100003 4282726443
-0.020890351 0.03426405 0.46300003 4280624922
-0.019470271 0.03441206 0.46500003 4280559903
-0.018037196 0.034560069 0.46700001 4280625696
-0.01659113 0.034708075 0.46900001 4280756757
-0.015099945 0.034782082 0.47000003 4281676056
-0.013631144 0.034930091 0.47200003 4281809693
-0.01214935 0.035078101 0.47400004 4282270501
-0.010654564 0.035226107 0.47600001 4279904537
-0.0091276504 0.035300113 0.47700003 4287736986
-0.0075942408 0.035374116 0.47800002 4287605398
-0.0060543362 0.035448123 0.47900003 4283324229
-0.0044985432 0.035448123 0.47900003 4285280293
-0.0029488937 0.035522126 0.48000002 4285475619
-0.001389853 0.035522126 0.48000002 4285214761
0.0001691879 0.035522126 0.48000002 4290553500
0.0017318293 0.035596132 0.48100004 4287408533
-0.039304607 0.034764089 0.45000002 4282335269
-0.037843008 0.034764089 0.45000002 4284236591
-0.036381405 0.034764089 0.45000002 4285739041
-0.034997404 0.034841344 0.45100003 4286262303
-0.033532556 0.034841344 0.45100003 4286655005
-0.032067709 0.034841344 0.45100003 4287049761
-0.030670714 0.034918595 0.45200002 4287115554
-0.029267225 0.03499585 0.45300001 4290538075
-0.027857238 0.035073105 0.45400003 4287511595
-0.026440756 0.035150357 0.45500001 4288103732
-0.025072645 0.035304863 0.45700002 4286525993
-0.023691539 0.035459369 0.45900002 4285278238
-0.022297442 0.03561388 0.46100003 4281410585
-0.020890351 0.035768386 0.46300003 4279374857
-0.019470271 0.035922892 0.46500003 4280822051
-0.018037196 0.036077399 0.46700001 4283389000
-0.01659113 0.036231905 0.46900001 4281743652
-0.015132072 0.036386412 0.47100002 4285559124
-0.013660023 0.036540922 0.47300002 4281481757
-0.012174981 0.036695428 0.47500002 4282468402
-0.010654564 0.03677268 0.47600001 4286156158
-0.0091276504 0.036849935 0.47700003 4287276181
-0.0075942408 0.036927186 0.47800002 4287736471
-0.0060543362 0.037004441 0.47900003 4282859565
-0.0044985432 0.037004441 0.47900003 4285672996
-0.0029488937 0.037081696 0.48000002 4285935398
-0.001389853 0.037081696 0.48000002 4284427042
0.0001691879 0.037081696 0.48000002 4289504406
-0.039304607 0.036226183 0.45000002 4281873435
-0.037843008 0.036226183 0.45000002 4284037159
-0.036381405 0.036226183 0.45000002 4285147420
-0.034997404 0.03630669 0.45100003 4286000932
-0.033532556 0.03630669 0.45100003 4286458914
-0.032067709 0.03630669 0.45100003 4286787620
-0.030670714 0.03638719 0.45200002 4286918436
-0.029267225 0.03646769 0.45300001 4287840058
-0.027857238 0.036548197 0.45400003 4288105540
-0.026440756 0.036628697 0.45500001 4287642411
-0.025072645 0.036789704 0.45700002 4286788647
-0.023691539 0.036950707 0.45900002 4285146652
-0.022297442 0.037111714 0.46100003 4280489483
-0.020890351 0.037272722 0.46300003 4280229909
-0.019470271 0.037433725 0.46500003 4280229909
-0.018037196 0.037594728 0.46700001 4280295700
-0.01659113 0.037755735 0.46900001 4284506961
-0.015132072 0.037916739 0.47100002 4282599734
-0.013660023 0.038077746 0.47300002 4282535224
-0.012174981 0.038238753 0.47500002 4281416745
-0.010654564 0.038319252 0.47600001 4288523934
-0.0091467863 0.038480259 0.47800002 4287605398
-0.0075942408 0.038480259 0.47800002 4289442976
-0.0060543362 0.038560763 0.47900003 4284036132
-0.0044985432 0.038560763 0.47900003 4286066725
-0.0029488937 0.038641263 0.48000002 4286525993
-0.001389853 0.038641263 0.48000002 4285285947
-0.040856801 0.037772033 0.45100003 4281217304
-0.03939195 0.037772033 0.45100003 4282267428
-0.037927102 0.037772033 0.45100003 4283512616
-0.036462255 0.037772033 0.45100003 4285149732
-0.034997404 0.037772033 0.45100003 4285411877
-0.033532556 0.037772033 0.45100003 4285671967
-0.032067709 0.037772033 0.45100003 4286065696
-0.030670714 0.037855785 0.45200002 4286393373
-0.029267225 0.037939534 0.45300001 4286853672
-0.027857238 0.038023289 0.45400003 4287905851
-0.026498869 0.038190793 0.45600003 4287642931
-0.025072645 0.038274541 0.45700002 4286131489
-0.023743154 0.038525797 0.46000001 4284558626
-0.022345807 0.038693301 0.46200001 4281414960
-0.02093547 0.038860805 0.46400002 4280033054
-0.019512143 0.039028309 0.46600002 4279967512
-0.01807582 0.039195813 0.46800002 4279506961
-0.016626507 0.039363317 0.47000003 4280164371
-0.0151642 0.039530821 0.47200003 4283258434
-0.013688903 0.039698325 0.47400004 4281414183
-0.012174981 0.039782073 0.47500002 4282461223
-0.010676947 0.039949577 0.47700003 4287794303
-0.0091467863 0.040033329 0.47800002 4287735186
-0.0076101287 0.040117081 0.47900003 4287660405
-0.0060543362 0.040117081 0.47900003 4285410855
-0.0044985432 0.040117081 0.47900003 4286459684
-0.0029488937 0.040200833 0.48000002 4286657833
-0.001389853 0.040200833 0.48000002 4288582274
-0.040856801 0.03923738 0.45100003 4281348894
-0.039479293 0.039324377 0.45200002 4284043337
-0.038011197 0.039324377 0.45200002 4283250991
-0.036462255 0.03923738 0.45100003 4284428577
-0.034997404 0.03923738 0.45100003 4284821539
-0.033606909 0.039324377 0.45200002 4284951326
-0.03213881 0.039324377 0.45200002 4285213213
-0.030670714 0.039324377 0.45200002 4286000414
-0.029267225 0.039411377 0.45300001 4286197280
-0.027857238 0.039498381 0.45400003 4286919465
-0.026498869 0.039672382 0.45600003 4287840565
-0.02512751 0.039846383 0.45800003 4284688152
-0.023743154 0.040020384 0.46000001 4289503626
-0.022345807 0.040194385 0.46200001 4287802012
-0.02093547 0.040368386 0.46400002 4280364585
-0.019512143 0.04054239 0.46600002 4279771937
-0.01807582 0.040716391 0.46800002 4280495141
-0.016661881 0.040977392 0.47100002 4280758563
-0.015196327 0.041151397 0.47300002 4282929221
-0.013688903 0.041238397 0.47400004 4282720797
-0.012200613 0.041412398 0.47600001 4286530619
-0.010676947 0.041499399 0.47700003 4286068274
-0.0091467863 0.041586399 0.47800002 4290549904
-0.0076101287 0.0416734 0.47900003 4285806383
-0.0060543362 0.0416734 0.47900003 4286657833
-0.0044985432 0.0416734 0.47900003 4286919208
-0.0029427505 0.0416734 0.47900003 4286591786
-0.039566636 0.040883224 0.45300001 4289245608
-0.038011197 0.040792976 0.45200002 4283713090
-0.036543101 0.040792976 0.45200002 4284166183
-0.035075005 0.040792976 0.45200002 4284230946
-0.033606909 0.040792976 0.45200002 4283834392
-0.03213881 0.040792976 0.45200002 4284359964
-0.03073857 0.040883224 0.45300001 4285147935
-0.029331835 0.040973477 0.45400003 4286002731
-0.027918598 0.041063726 0.45500001 4285672994
-0.026498869 0.041153975 0.45600003 4286264361
-0.02512751 0.041334476 0.45800003 4284493087
-0.023743154 0.041514974 0.46000001 4289438351
-0.022345807 0.041695476 0.46200001 4287539094
-0.02093547 0.041875973 0.46400002 4286683531
-0.019512143 0.042056475 0.46600002 4280035622
-0.018114444 0.042327221 0.46900001 4280298283
-0.016661881 0.042507723 0.47100002 4280822053
-0.015196327 0.042688224 0.47300002 4281607714
-0.013717782 0.042868722 0.47500002 4286662207
-0.012200613 0.042958971 0.47600001 4286594096
-0.010699331 0.043139473 0.47800002 4287184438
-0.0091467863 0.043139473 0.47800002 4287514432
-0.0076101287 0.043229725 0.47900003 4286919465
-0.0060543362 0.043229725 0.47900003 4286984999
-0.0044985432 0.043229725 0.47900003 4287116842
-0.0029427505 0.043229725 0.47900003 4286727998
-0.039653983 0.042448569 0.45400003 4288263076
-0.03817939 0.042448569 0.45400003 4283257416
-0.036623947 0.042355068 0.45300001 4284036657
-0.035152603 0.042355068 0.45300001 4283970091
-0.033681259 0.042355068 0.45300001 4284034851
-0.032209914 0.042355068 0.45300001 4284230944
-0.030806426 0.042448569 0.45400003 4284756005
-0.029331835 0.042448569 0.45400003 4285150250
-0.027918598 0.042542066 0.45500001 4285479215
-0.02655698 0.042729065 0.45700002 4285084457
-0.02512751 0.042822566 0.45800003 4285611316
-0.023743154 0.043009561 0.46000001 4290224017
-0.022345807 0.043196559 0.46200001 4287604885
-0.02093547 0.043383557 0.46400002 4287604887
-0.019512143 0.043570556 0.46600002 4288132004
-0.018114444 0.043851051 0.46900001 4287868832
-0.016697258 0.044131551 0.47200003 4283519818
-0.015228455 0.044318549 0.47400004 4283775540
-0.013717782 0.044412047 0.47500002 4285937453
-0.012226244 0.044599045 0.47700003 4287381817
-0.010699331 0.044692542 0.47800002 4290016106
-0.0091467863 0.044692542 0.47800002 4286263334
-0.0076101287 0.044786043 0.47900003 4287247401
-0.0060543362 0.044786043 0.47900003 4287576366
-0.0044985432 0.044786043 0.47900003 4287251251
-0.0029427505 0.044786043 0.47900003 4290944912
-0.041672125 0.044504147 0.46000001 4287475359
-0.039828669 0.044117156 0.45600003 4287474844
-0.038263485 0.044020407 0.45500001 4288131490
-0.036704794 0.043923661 0.45400003 4284634960
-0.035230204 0.043923661 0.45400003 4284630079
-0.033755612 0.043923661 0.45400003 4284234286
-0.032281019 0.043923661 0.45400003 4284101927
-0.03087428 0.044020407 0.45500001 4283968804
-0.029396441 0.044020407 0.45500001 4283904298
-0.027979959 0.044117156 0.45600003 4285882972
-0.02655698 0.044213902 0.45700002 4283315248
-0.02512751 0.044310652 0.45800003 4284757552
-0.023743154 0.044504147 0.46000001 4287653729
-0.022297442 0.044600897 0.46100003 4287538320
-0.02093547 0.044891141 0.46400002 4287736471
-0.019512143 0.045084637 0.46600002 4287736986
-0.018114444 0.045374881 0.46900001 4287671193
-0.016697258 0.045665126 0.47200003 4288327586
-0.015228455 0.045858625 0.47400004 4282993472
-0.013717782 0.045955371 0.47500002 4285085742
-0.012226244 0.046148866 0.47700003 4291600014
-0.010699331 0.046245612 0.47800002 4289093460
-0.0091467863 0.046245612 0.47800002 4287313964
-0.0076101287 0.046342365 0.47900003 4286787622
-0.0060543362 0.046342365 0.47900003 4289159255
-0.0044985432 0.046342365 0.47900003 4286922293
-0.0029427505 0.046342365 0.47900003 4288769380
-0.041672125 0.045998733 0.46000001 4287672225
-0.039916012 0.045698743 0.45700002 4287540637
-0.03834758 0.045598745 0.45600003 4287605660
-0.03678564 0.045498747 0.45500001 4288786592
-0.035307802 0.045498747 0.45500001 4284373585
-0.033829961 0.045498747 0.45500001 4283906606
-0.03235212 0.045498747 0.45500001 4284233772
-0.03087428 0.045498747 0.45500001 4287130981
-0.02946105 0.045598745 0.45600003 4288982427
-0.028041318 0.045698743 0.45700002 4287932565
-0.02655698 0.045698743 0.45700002 4285562224
-0.025182372 0.045898739 0.45900002 4284430901
-0.023743154 0.045998733 0.46000001 4284692529
-0.022345807 0.046198729 0.46200001 4288785561
-0.02093547 0.046398722 0.46400002 4287539090
-0.019512143 0.046598718 0.46600002 4287736984
-0.018114444 0.046898708 0.46900001 4287671193
-0.016697258 0.047198702 0.47200003 4287605400
-0.015228455 0.047398698 0.47400004 4288130461
-0.013717782 0.047498692 0.47500002 4285156160
-0.012226244 0.047698688 0.47700003 4286135600
-0.010676947 0.047698688 0.47700003 4287443751
-0.0091467863 0.047798686 0.47800002 4288495667
-0.0076101287 0.047898684 0.47900003 4294160543
-0.0060543362 0.047898684 0.47900003 4288570966
-0.0044985432 0.047898684 0.47900003 4287379766
-0.0029427505 0.047898684 0.47900003 4286986546
-0.041672125 0.04749332 0.46000001 4288131490
-0.040003356 0.047286831 0.45800003 4287934625
-0.038431674 0.047183581 0.45700002 4287868832
-0.03686649 0.047080338 0.45600003 4287671707
-0.035385404 0.047080338 0.45600003 4288064153
-0.033904314 0.047080338 0.45600003 4284302397
-0.032423224 0.047080338 0.45600003 4284299829
-0.030942136 0.047080338 0.45600003 4282984489
-0.029525656 0.047183581 0.45700002 4289177755
-0.028041318 0.047183581 0.45700002 4287670678
-0.026615093 0.047286831 0.45800003 4288525989
-0.025182372 0.047390074 0.45900002 4284173124
-0.023743154 0.04749332 0.46000001 4284891966
-0.022345807 0.047699813 0.46200001 4285945678
-0.02093547 0.047906306 0.46400002 4288849042
-0.019512143 0.048112798 0.46600002 4287867285
-0.018114444 0.048422538 0.46900001 4287604883
-0.016697258 0.048732277 0.47200003 4288195737
-0.015228455 0.048938774 0.47400004 4288059526
-0.013717782 0.049042016 0.47500002 4286724914
-0.012200613 0.049145263 0.47600001 4287511345
-0.010676947 0.049248509 0.47700003 4287772716
-0.0091467863 0.049351756 0.47800002 4288100909
-0.0075942408 0.049351756 0.47800002 4287707439
-0.0060543362 0.049455002 0.47900003 4287116587
-0.0044985432 0.049455002 0.47900003 4288037946
-0.0029427505 0.049455002 0.47900003 4287710521
-0.0013869575 0.049455002 0.47900003 4289045651
-0.041672125 0.048987906 0.46000001 4287934879
-0.040003356 0.04877492 0.45800003 4288000158
-0.038431674 0.048668422 0.45700002 4287868832
-0.03686649 0.048561927 0.45600003 4287671453
-0.035463002 0.048668422 0.45700002 4287803039
-0.033978667 0.048668422 0.45700002 4284637018
-0.032494329 0.048668422 0.45700002 4284432187
-0.031009993 0.048668422 0.45700002 4284890169
-0.029590266 0.04877492 0.45800003 4288973187
-0.028102677 0.04877492 0.45800003 4287670676
-0.026673203 0.048881412 0.45900002 4287670678
-0.025237234 0.048987906 0.46000001 4288326555
-0.02379477 0.049094405 0.46100003 4282530096
-0.022345807 0.0492009 0.46200001 4285349687
-0.02093547 0.04941389 0.46400002 4287257170
-0.019512143 0.049626879 0.46600002 4287524708
-0.018114444 0.049946368 0.46900001 4285877316
-0.016697258 0.050265856 0.47200003 4286922293
-0.015228455 0.050478846 0.47400004 4287314739
-0.013717782 0.050585341 0.47500002 4287707439
-0.012200613 0.050691836 0.47600001 4287706669
-0.010676947 0.05079833 0.47700003 4288100909
-0.0091467863 0.050904825 0.47800002 4288233265
-0.0075942408 0.050904825 0.47800002 4287051044
-0.0060416963 0.050904825 0.47800002 4286853667
-0.0044985432 0.051011324 0.47900003 4287117096
-0.0029427505 0.051011324 0.47900003 4287053102
-0.0013869575 0.051011324 0.47900003 4289112219
-0.041581534 0.05037275 0.45900002 4287605660
-0.040003356 0.050263006 0.45800003 4287868832
-0.038431674 0.050153259 0.45700002 4287671453
-0.036947336 0.050153259 0.45700002 4287803041
-0.035463002 0.050153259 0.45700002 4287868834
-0.03405302 0.050263006 0.45800003 4288722346
-0.032565434 0.050263006 0.45800003 4282793531
-0.031077849 0.050263006 0.45800003 4284956986
-0.029654872 0.05037275 0.45900002 4284429359
-0.028164037 0.05037275 0.45900002 4288653721
-0.026731314 0.050482493 0.46000001 4287736469
-0.025237234 0.050482493 0.46000001 4287604885
-0.02379477 0.05059224 0.46100003 4288722083
-0.022394177 0.05081173 0.46300003 4283704864
-0.02093547 0.050921474 0.46400002 4286331444
-0.019512143 0.05114096 0.46600002 4286987061
-0.018114444 0.051470194 0.46900001 4287315511
-0.016661881 0.051689684 0.47100002 4287511600
-0.015196327 0.051909175 0.47300002 4287313964
-0.013717782 0.052128665 0.47500002 4287773486
-0.012200613 0.052238405 0.47600001 4287707693
-0.010676947 0.052348152 0.47700003 4287445804
-0.0091276504 0.052348152 0.47700003 4285803805
-0.0075942408 0.052457895 0.47800002 4286067236
-0.0060416963 0.052457895 0.47800002 4286264615
-0.0044985432 0.052567642 0.47900003 4286330154
-0.0029427505 0.052567642 0.47900003 4284493603
-0.035540603 0.051751096 0.45800003 4287934627
-0.03412737 0.051864088 0.45900002 4287738018
-0.032636534 0.051864088 0.45900002 4285826939
-0.031145703 0.051864088 0.45900002 4284629564
-0.029719478 0.051977079 0.46000001 4284956984
-0.028225396 0.051977079 0.46000001 4284101423
-0.026731314 0.051977079 0.46000001 4289898652
-0.0252921 0.052090075 0.46100003 4288982940
-0.023846386 0.052203067 0.46200001 4288584848
-0.022394177 0.052316062 0.46300003 4285213224
-0.020980591 0.052542049 0.46500003 4288632656
-0.019554013 0.052768037 0.46700001 4287183923
-0.018114444 0.052994024 0.46900001 4287708981
-0.016661881 0.053220011 0.47100002 4287445804
-0.015196327 0.053445999 0.47300002 4286853922
-0.013717782 0.053671986 0.47500002 4286986796
-0.012200613 0.053784978 0.47600001 4286592553
-0.010676947 0.053897973 0.47700003 4284425757
-0.0091276504 0.053897973 0.47700003 4284755753
-0.0075942408 0.054010965 0.47800002 4285018925
-0.0060416963 0.054010965 0.47800002 4285611062
-0.0044891518 0.054010965 0.47800002 4284103735
-0.0029427505 0.05412396 0.47900003 4288586649
-0.035618201 0.053355426 0.45900002 4287803809
-0.034201719 0.053471666 0.46000001 4287738016
-0.032707639 0.053471666 0.46000001 4288395176
-0.031213557 0.053471666 0.46000001 4283184948
-0.029719478 0.053471666 0.46000001 4284760634
-0.028286757 0.05358791 0.46100003 4285216304
-0.026789427 0.05358791 0.46100003 4284623656
-0.0252921 0.05358791 0.46100003 4284821037
-0.023846386 0.053704154 0.46200001 4285411886
-0.022394177 0.053820398 0.46300003 4286527283
-0.020980591 0.054052882 0.46500003 4287709247
-0.019512143 0.054169126 0.46600002 4292187275
-0.018114444 0.05451785 0.46900001 4287183923
-0.016661881 0.054750338 0.47100002 4286593323
-0.015196327 0.054982822 0.47300002 4285675562
-0.013717782 0.05521531 0.47500002 4284427558
-0.012200613 0.055331551 0.47600001 4284429870
-0.010676947 0.055447794 0.47700003 4284237634
-0.0091276504 0.055447794 0.47700003 4284699981
-0.0075942408 0.055564038 0.47800002 4285030745
-0.0060416963 0.055564038 0.47800002 4287269760
-0.0044891518 0.055564038 0.47800002 4287998875
-0.035695799 0.054966252 0.46000001 4287869604
-0.034201719 0.054966252 0.46000001 4287803809
-0.032778744 0.055085748 0.46100003 4287803039
-0.031281415 0.055085748 0.46100003 4284899931
-0.029784087 0.055085748 0.46100003 4284301114
-0.028286757 0.055085748 0.46100003 4285020462
-0.026789427 0.055085748 0.46100003 4284887593
-0.025346963 0.055205237 0.46200001 4284820517
-0.023898002 0.05532473 0.46300003 4285476648
-0.022394177 0.05532473 0.46300003 4286066725
-0.020980591 0.055563714 0.46500003 4286788395
-0.019512143 0.055683207 0.46600002 4286985004
-0.01807582 0.055922192 0.46800002 4287050797
-0.016626507 0.056161173 0.47000003 4285806637
-0.0151642 0.056400158 0.47200003 4285550920
-0.013717782 0.056758635 0.47500002 4288193690
-0.012200613 0.056878123 0.47600001 4288722344
-0.010676947 0.056997616 0.47700003 4287867035
-0.0091276504 0.056997616 0.47700003 4287867035
-0.0075942408 0.057117108 0.47800002 4287670426
-0.0060416963 0.057117108 0.47800002 4287670939
-0.034276072 0.056583583 0.46100003 4287934627
-0.032778744 0.056583583 0.46100003 4287868832
-0.031281415 0.056583583 0.46100003 4288983971
-0.029784087 0.056583583 0.46100003 4283712573
-0.028348114 0.05670632 0.46200001 4284429870
-0.026847538 0.05670632 0.46200001 4284297771
-0.025346963 0.05670632 0.46200001 4284427812
-0.023898002 0.056829065 0.46300003 4284952871
-0.022442544 0.056951806 0.46400002 4285674279
-0.020980591 0.057074547 0.46500003 4286133547
-0.019512143 0.057197288 0.46600002 4286527535
-0.01807582 0.057442769 0.46800002 4286396721
-0.016626507 0.057688251 0.47000003 4288975497
-0.0151642 0.057933733 0.47200003 4288194971
-0.013688903 0.058179218 0.47400004 4287605660
-0.012200613 0.058424696 0.47600001 4288000418
-0.010676947 0.058547437 0.47700003 4287803039
-0.0091276504 0.058547437 0.47700003 4287671453
-0.0075942408 0.058670178 0.47800002 4287474074
-0.032778744 0.058081422 0.46100003 4287934625
-0.031349268 0.058207411 0.46200001 4288196770
-0.029848693 0.058207411 0.46200001 4282862658
-0.028348114 0.058207411 0.46200001 4284037427
-0.026847538 0.058207411 0.46200001 4283839018
-0.025401827 0.058333404 0.46300003 4284232491
-0.023898002 0.058333404 0.46300003 4284297771
-0.022442544 0.05845939 0.46400002 4285085740
-0.02093547 0.05845939 0.46400002 4286137912
-0.019512143 0.058711372 0.46600002 4285413683
-0.018037196 0.058837362 0.46700001 4285548869
-0.01659113 0.05908934 0.46900001 4288523934
-0.015132072 0.059341323 0.47100002 4287868059
-0.013688903 0.059719294 0.47400004 4287934365
-0.012174981 0.059845284 0.47500002 4287671707
-0.010654564 0.059971273 0.47600001 4287803039
-0.0091276504 0.060097262 0.47700003 4287474844
-0.032849845 0.059708491 0.46200001 4288000418
-0.031349268 0.059708491 0.46200001 4287803039
-0.029848693 0.059708491 0.46200001 4288460455
-0.028348114 0.059708491 0.46200001 4283845958
-0.02690565 0.059837732 0.46300003 4284105534
-0.025401827 0.059837732 0.46300003 4284695870
-0.023898002 0.059837732 0.46300003 4284366392
-0.022442544 0.05996697 0.46400002 4284497978
-0.02093547 0.05996697 0.46400002 4284366905
-0.019470271 0.060096212 0.46500003 4285689958
-0.017998572 0.06022545 0.46600002 4288326557
-0.016555754 0.060483929 0.46800002 4287867805
-0.015099945 0.060742408 0.47000003 4288065184
-0.013688903 0.061259367 0.47400004 4288000158
-0.012174981 0.061388604 0.47500002 4287934365
-0.010654564 0.061517838 0.47600001 4288263844
-0.031349268 0.061209582 0.46200001 4288000418
-0.029848693 0.061209582 0.46200001 4287671453
-0.028348114 0.061209582 0.46200001 4288526502
-0.02690565 0.061342072 0.46300003 4288525987
-0.025401827 0.061342072 0.46300003 4288459424
-0.023898002 0.061342072 0.46300003 4288393120
-0.022442544 0.061474558 0.46400002 4288524706
-0.02093547 0.061474558 0.46400002 4288722344
-0.019470271 0.061607048 0.46500003 4288263078
-0.017998572 0.061739534 0.46600002 4288131490
-0.016520379 0.06187202 0.46700001 4287802525
-0.015067817 0.062136997 0.46900001 4287802525
-0.028409475 0.0628464 0.46300003 4287868832
-0.02690565 0.0628464 0.46300003 4287868832
-0.025401827 0.0628464 0.46300003 4287605660
-0.023898002 0.0628464 0.46300003 4287803039
-0.022442544 0.062982135 0.46400002 4287803039
-0.02093547 0.062982135 0.46400002 4287671453
-0.019428398 0.062982135 0.46400002 4287934625
-0.01795995 0.063117877 0.46500003 4287671453
-0.018303439 0.034952383 0.4670569 4294967295
-0.018303439 0.034952383 0.4670569 4294901760
-0.018303439 0.034457508 0.46698549 4294901760
-0.018303439 0.033962633 0.46691409 4294901760
-0.018303439 0.033467758 0.46684268 4294901760
-0.018303439 0.032972883 0.46677127 4294901760
-0.018303439 0.032478008 0.46669987 4294901760
-0.018303439 0.031983133 0.46662846 4294901760
-0.018303439 0.031488262 0.46655706 4294901760
-0.018303439 0.030993385 0.46648565 4294901760
-0.018303439 0.03049851 0.46641424 4294901760
-0.018303439 0.030003635 0.46634284 4294901760
-0.018303439 0.029508762 0.46627143 4294901760
-0.018303439 0.029013887 0.46620002 4294901760
-0.018303439 0.028519012 0.46612862 4294901760
-0.018303439 0.028024137 0.46605721 4294901760
-0.018303439 0.027529262 0.4659858 4294901760
-0.018303439 0.027034387 0.4659144 4294901760
-0.018303439 0.026539512 0.46584296 4294901760
-0.018303439 0.026044637 0.46577156 4294901760
-0.018303439 0.025549762 0.46570015 4294901760
-0.018303439 0.025054887 0.46562874 4294901760
-0.018303439 0.024560014 0.46555734 4294901760
-0.018303439 0.024065139 0.46548593 4294901760
-0.018303439 0.023570264 0.46541452 4294901760
-0.018303439 0.023075391 0.46534312 4294901760
-0.018303439 0.022580516 0.46527171 4294901760
-0.018303439 0.022085641 0.4652003 4294901760
-0.018303439 0.021590766 0.4651289 4294901760
-0.018303439 0.021095891 0.46505749 4294901760
-0.018303439 0.020601016 0.46498609 4294901760
-0.018303439 0.020106141 0.46491468 4294901760
-0.018303439 0.019611266 0.46484327 4294901760
-0.018303439 0.019116392 0.46477187 4294901760
-0.018303439 0.018621515 0.46470046 4294901760
-0.018303439 0.018126642 0.46462905 4294901760
-0.018303439 0.017631767 0.46455765 4294901760
-0.018303439 0.017136892 0.46448624 4294901760
-0.018303439 0.016642017 0.46441483 4294901760
-0.018303439 0.016147142 0.46434343 4294901760
-0.018303439 0.015652269 0.46427202 4294901760
-0.018303439 0.015157392 0.46420062 4294901760
-0.018303439 0.014662519 0.46412921 4294901760
-0.018303439 0.014167644 0.4640578 4294901760
-0.018303439 0.013672769 0.4639864 4294901760
-0.018303439 0.013177894 0.46391499 4294901760
-0.018303439 0.012683021 0.46384358 4294901760
-0.018303439 0.012188144 0.46377218 4294901760
-0.018303439 0.011693271 0.46370077 4294901760
-0.018303439 0.011198396 0.46362936 4294901760
-0.018303439 0.010703521 0.46355796 4294901760
-0.018303439 0.010208646 0.46348655 4294901760
-0.018303439 0.0097137708 0.46341512 4294901760
-0.018303439 0.0092188977 0.46334371 4294901760
-0.018303439 0.0087240227 0.4632723 4294901760
-0.018303439 0.0082291458 0.4632009 4294901760
-0.018303439 0.0077342708 0.46312949 4294901760
-0.018303439 0.0072393976 0.46305808 4294901760
-0.018303439 0.0067445226 0.46298668 4294901760
-0.018303439 0.0062496495 0.46291527 4294901760
-0.018303439 0.0057547744 0.46284387 4294901760
-0.018303439 0.0052598976 0.46277246 4294901760
-0.018303439 0.0047650225 0.46270105 4294901760
-0.018303439 0.0042701494 0.46262965 4294901760
-0.018303439 0.0037752744 0.46255824 4294901760
-0.018303439 0.0032804012 0.46248683 4294901760
-0.018303439 0.0027855262 0.46241543 4294901760
-0.018303439 0.0022906475 0.46234402 4294901760
-0.018303439 0.0017957725 0.46227261 4294901760
-0.018303439 0.0013009012 0.46220121 4294901760
-0.018303439 0.00080602616 0.4621298 4294901760
-0.018303439 0.00031115115 0.4620584 4294901760
-0.018303439 -0.00018372387 0.46198699 4294901760
-0.018303439 -0.00067859888 0.46191558 4294901760
-0.018303439 -0.0011734739 0.46184418 4294901760
-0.018303439 -0.0016683489 0.46177277 4294901760
-0.018303439 -0.0021632239 0.46170136 4294901760
-0.018303439 -0.0026580989 0.46162996 4294901760
-0.018303439 -0.0031529702 0.46155855 4294901760
-0.018303439 -0.0036478452 0.46148714 4294901760
-0.018303439 -0.004142724 0.46141574 4294901760
-0.018303439 -0.004637599 0.46134433 4294901760
-0.018303439 -0.0051324703 0.46127293 4294901760
-0.018303439 -0.0056273453 0.46120152 4294901760
-0.018303439 -0.0061222203 0.46113011 4294901760
-0.018303439 -0.0066170953 0.46105868 4294901760
-0.018303439 -0.0071119703 0.46098727 4294901760
-0.018303439 -0.0076068453 0.46091586 4294901760
-0.018303439 -0.0081017204 0.46084446 4294901760
-0.018303439 -0.0085965954 0.46077305 4294901760
-0.018303439 -0.0090914704 0.46070164 4294901760
-0.018303439 -0.0095863417 0.46063024 4294901760
-0.018303439 -0.01008122 0.46055883 4294901760
-0.018303439 -0.010576095 0.46048743 4294901760
-0.018303439 -0.01107097 0.46041602 4294901760
-0.018303439 -0.011565842 0.46034461 4294901760
-0.018303439 -0.012060717 0.46027321 4294901760
-0.018303439 -0.012555592 0.4602018 4294901760
-0.018303439 -0.013050471 0.46013039 4294901760
-0.018303439 -0.013545342 0.46005899 4294901760
-0.018303439 -0.014040217 0.45998758 4294901760
-0.018303439 -0.014535092 0.45991617 4294901760
-0.018303439 0.034952383 0.4670569 4278255360
-0.017920485 0.034906473 0.46737507 4278255360
-0.017537531 0.034860563 0.46769327 4278255360
-0.017154576 0.034814648 0.46801144 4278255360
-0.01677162 0.034768738 0.46832961 4278255360
-0.016388666 0.034722827 0.46864781 4278255360
-0.016005712 0.034676917 0.46896598 4278255360
-0.015622757 0.034631006 0.46928415 4278255360
-0.015239803 0.034585092 0.46960235 4278255360
-0.014856848 0.034539182 0.46992052 4278255360
-0.014473894 0.034493271 0.47023869 4278255360
-0.014090938 0.034447361 0.47055689 4278255360
-0.013707984 0.034401447 0.47087505 4278255360
-0.01332503 0.034355536 0.47119322 4278255360
-0.012942076 0.034309626 0.47151139 4278255360
-0.012559121 0.034263715 0.47182959 4278255360
-0.012176166 0.034217805 0.47214776 4278255360
-0.011793211 0.03417189 0.47246593 4278255360
-0.011410257 0.03412598 0.47278413 4278255360
-0.011027303 0.03408007 0.4731023 4278255360
-0.010644348 0.034034159 0.47342047 4278255360
-0.010261394 0.033988249 0.47373867 4278255360
-0.0098784389 0.033942334 0.47405684 4278255360
-0.0094954837 0.033896424 0.47437501 4278255360
-0.0091125304 0.033850513 0.47469321 4278255360
-0.0087295752 0.033804603 0.47501138 4278255360
-0.0083466209 0.033758692 0.47532955 4278255360
-0.0079636658 0.033712778 0.47564775 4278255360
-0.0075807115 0.033666868 0.47596592 4278255360
-0.0071977573 0.033620957 0.47628409 4278255360
-0.0068148021 0.033575047 0.47660229 4278255360
-0.0064318478 0.033529133 0.47692046 4278255360
-0.0060488936 0.033483222 0.47723863 4278255360
-0.0056659384 0.033437312 0.47755682 4278255360
-0.0052829841 0.033391401 0.47787499 4278255360
-0.0049000299 0.033345491 0.47819316 4278255360
-0.0045170747 0.033299576 0.47851136 4278255360
-0.0041341204 0.033253666 0.47882953 4278255360
-0.0037511662 0.033207756 0.4791477 4278255360
-0.0033682119 0.033161845 0.47946587 4278255360
-0.0029852567 0.033115935 0.47978407 4278255360
-0.0026023034 0.03307002 0.48010224 4278255360
-0.0022193491 0.03302411 0.48042041 4278255360
-0.001836393 0.032978199 0.48073861 4278255360
-0.0014534388 0.032932289 0.48105678 4278255360
-0.0010704845 0.032886378 0.48137495 4278255360
-0.0006875284 0.032840464 0.48169315 4278255360
-0.00030457601 0.032794554 0.48201132 4278255360
7.8378245e-05 0.032748643 0.48232949 4278255360
0.00046133436 0.032702733 0.48264769 4278255360
0.00084428862 0.032656819 0.48296586 4278255360
0.0012272429 0.032610908 0.48328403 4278255360
0.0016101971 0.032564998 0.48360223 4278255360
0.0019931514 0.032519087 0.4839204 4278255360
0.0023761075 0.032473177 0.48423856 4278255360
0.0027590618 0.032427263 0.48455676 4278255360
0.003142016 0.032381352 0.48487493 4278255360
0.0035249703 0.032335442 0.4851931 4278255360
0.0039079245 0.032289531 0.4855113 4278255360
0.0042908788 0.032243621 0.48582947 4278255360
0.0046738349 0.032197706 0.48614764 4278255360
0.0050567891 0.032151796 0.48646584 4278255360
0.0054397434 0.032105885 0.48678401 4278255360
0.0058226977 0.032059975 0.48710218 4278255360
0.0062056519 0.032014064 0.48742035 4278255360
0.0065886062 0.03196815 0.48773855 4278255360
0.0069715623 0.03192224 0.48805672 4278255360
0.0073545165 0.031876329 0.48837489 4278255360
0.0077374708 0.031830419 0.48869309 4278255360
0.008120425 0.031784505 0.48901126 4278255360
0.0085033793 0.031738594 0.48932943 4278255360
0.0088863336 0.031692684 0.48964763 4278255360
0.0092692897 0.031646773 0.4899658 4278255360
0.0096522439 0.031600863 0.49028397 4278255360
0.010035198 0.031554949 0.49060217 4278255360
0.010418152 0.031509038 0.49092034 4278255360
0.010801107 0.031463128 0.4912385 4278255360
0.011184061 0.031417217 0.4915567 4278255360
0.011567015 0.031371307 0.49187487 4278255360
0.011949971 0.031325392 0.49219304 4278255360
0.012332926 0.031279482 0.49251124 4278255360
0.01271588 0.031233571 0.49282941 4278255360
0.013098832 0.031187661 0.49314758 4278255360
0.013481788 0.031141749 0.49346578 4278255360
0.013864741 0.031095838 0.49378395 4278255360
0.014247701 0.031049926 0.49410212 4278255360
0.014630653 0.031004015 0.49442032 4278255360
0.015013609 0.030958105 0.49473849 4278255360
0.015396561 0.030912193 0.49505666 4278255360
0.015779514 0.030866282 0.49537483 4278255360
0.01616247 0.03082037 0.49569303 4278255360
0.016545426 0.030774459 0.4960112 4278255360
0.016928382 0.030728547 0.49632937 4278255360
0.017311335 0.030682636 0.49664757 4278255360
0.017694287 0.030636724 0.49696574 4278255360
0.018077243 0.030590814 0.49728391 4278255360
0.018460196 0.030544903 0.49760211 4278255360
0.018843155 0.030498991 0.49792027 4278255360
0.019226108 0.03045308 0.49823844 4278255360
0.019609064 0.030407168 0.49855664 4278255360
0.019992016 0.030361257 0.49887481 4278255360
-0.018303439 0.034952383 0.4670569 4278190335
-0.018624913 0.034897693 0.46743593 4278190335
-0.018946389 0.034843002 0.46781495 4278190335
-0.019267863 0.034788311 0.46819398 4278190335
-0.019589337 0.034733616 0.468573 4278190335
-0.019910812 0.034678925 0.46895206 4278190335
-0.020232286 0.034624234 0.46933109 4278190335
-0.02055376 0.034569543 0.46971011 4278190335
-0.020875234 0.034514852 0.47008914 4278190335
-0.02119671 0.034460161 0.47046816 4278190335
-0.021518184 0.03440547 0.47084719 4278190335
-0.021839658 0.034350775 0.47122622 4278190335
-0.022161134 0.034296084 0.47160524 4278190335
-0.022482608 0.034241393 0.47198427 4278190335
-0.022804081 0.034186702 0.47236332 4278190335
-0.023125555 0.034132011 0.47274235 4278190335
-0.023447031 0.03407732 0.47312137 4278190335
-0.023768505 0.034022629 0.4735004 4278190335
-0.024089981 0.033967935 0.47387943 4278190335
-0.024411455 0.033913244 0.47425845 4278190335
-0.024732929 0.033858553 0.47463748 4278190335
-0.025054403 0.033803862 0.4750165 4278190335
-0.025375877 0.033749171 0.47539553 4278190335
-0.025697352 0.03369448 0.47577459 4278190335
-0.026018826 0.033639789 0.47615361 4278190335
-0.026340302 0.033585094 0.47653264 4278190335
-0.026661776 0.033530403 0.47691166 4278190335
-0.02698325 0.033475712 0.47729069 4278190335
-0.027304724 0.033421021 0.47766972 4278190335
-0.027626198 0.03336633 0.47804874 4278190335
-0.027947674 0.033311639 0.47842777 4278190335
-0.028269149 0.033256948 0.47880679 4278190335
-0.028590623 0.033202253 0.47918582 4278190335
-0.028912097 0.033147562 0.47956488 4278190335
-0.029233571 0.033092871 0.4799439 4278190335
-0.029555045 0.03303818 0.48032293 4278190335
-0.029876521 0.032983489 0.48070195 4278190335
-0.030197995 0.032928798 0.48108098 4278190335
-0.030519471 0.032874107 0.48146001 4278190335
-0.030840944 0.032819413 0.48183903 4278190335
-0.031162418 0.032764722 0.48221806 4278190335
-0.031483892 0.032710031 0.48259711 4278190335
-0.031805366 0.03265534 0.48297614 4278190335
-0.032126844 0.032600649 0.48335516 4278190335
-0.032448314 0.032545958 0.48373419 4278190335
-0.032769792 0.032491267 0.48411322 4278190335
-0.033091266 0.032436572 0.48449224 4278190335
-0.03341274 0.032381881 0.48487127 4278190335
-0.033734214 0.03232719 0.48525029 4278190335
-0.034055687 0.032272499 0.48562932 4278190335
-0.034377165 0.032217808 0.48600835 4278190335
-0.034698635 0.032163117 0.4863874 4278190335
-0.035020113 0.032108426 0.48676643 4278190335
-0.035341583 0.032053731 0.48714545 4278190335
-0.035663061 0.03199904 0.48752448 4278190335
-0.035984538 0.031944349 0.48790351 4278190335
-0.036306009 0.031889658 0.48828253 4278190335
-0.036627486 0.031834967 0.48866156 4278190335
-0.036948957 0.031780276 0.48904058 4278190335
-0.037270434 0.031725585 0.48941961 4278190335
-0.037591908 0.031670891 0.48979867 4278190335
-0.037913382 0.0316162 0.49017769 4278190335
-0.03823486 0.031561509 0.49055672 4278190335
-0.03855633 0.031506818 0.49093574 4278190335
-0.038877808 0.031452127 0.49131477 4278190335
-0.039199278 0.031397436 0.49169379 4278190335
-0.039520755 0.031342741 0.49207282 4278190335
-0.039842229 0.03128805 0.49245185 4278190335
-0.040163703 0.031233359 0.49283087 4278190335
-0.040485181 0.031178668 0.49320993 4278190335
-0.040806651 0.031123977 0.49358895 4278190335
-0.041128129 0.031069286 0.49396798 4278190335
-0.041449603 0.031014593 0.49434701 4278190335
-0.041771077 0.030959902 0.49472603 4278190335
-0.042092551 0.030905209 0.49510506 4278190335
-0.042414024 0.030850518 0.49548408 4278190335
-0.042735502 0.030795828 0.49586311 4278190335
-0.043056972 0.030741137 0.49624214 4278190335
-0.04337845 0.030686446 0.49662119 4278190335
-0.043699924 0.030631753 0.49700022 4278190335
-0.044021398 0.030577062 0.49737924 4278190335
-0.044342872 0.030522369 0.49775827 4278190335
-0.044664346 0.030467678 0.4981373 4278190335
-0.044985823 0.030412987 0.49851632 4278190335
-0.045307294 0.030358296 0.49889535 4278190335
-0.045628771 0.030303603 0.49927437 4278190335
-0.045950245 0.030248912 0.4996534 4278190335
-0.046271719 0.030194221 0.50003242 4278190335
-0.046593193 0.030139528 0.50041145 4278190335
-0.046914667 0.030084837 0.50079048 4278190335
-0.047236145 0.030030146 0.5011695 4278190335
-0.047557618 0.029975455 0.50154853 4278190335
-0.047879092 0.029920762 0.50192761 4278190335
-0.048200566 0.029866071 0.50230664 4278190335
-0.04852204 0.02981138 0.50268567 4278190335
-0.048843514 0.029756688 0.50306469 4278190335
-0.049164988 0.029701997 0.50344372 4278190335
-0.049486466 0.029647306 0.50382274 4278190335
-0.04980794 0.029592615 0.50420177 4278190335
-0.050129414 0.029537922 0.5045808 4278190335
-0.050450888 0.029483231 0.50495982 4278190335
-0.018303439 0.034952383 0.4670569 4294967295
-0.017660489 0.035061765 0.46629885 4294967295
-0.017017541 0.035171151 0.4655408 4294967295
-0.016374592 0.035280533 0.46478271 4294967295
-0.015731644 0.035389915 0.46402466 4294967295
-0.015088694 0.035499297 0.46326661 4294967295
-0.014445745 0.035608683 0.46250856 4294967295
-0.013802797 0.035718065 0.46175051 4294967295
-0.013159847 0.035827447 0.46099243 4294967295
-0.012516898 0.035936832 0.46023437 4294967295
-0.011873949 0.036046214 0.45947632 4294967295
-0.011231001 0.036155596 0.45871827 4294967295
-0.010588052 0.036264978 0.45796019 4294967295
-0.009945103 0.036374364 0.45720214 4294967295
-0.0093021533 0.036483746 0.45644408 4294967295
-0.0086592045 0.036593128 0.45568603 4294967295
-0.0080162557 0.036702514 0.45492798 4294967295
-0.007373306 0.036811896 0.4541699 4294967295
-0.0067303572 0.036921278 0.45341185 4294967295
-0.0060874084 0.03703066 0.4526538 4294967295
-0.0054444596 0.037140045 0.45189574 4294967295
-0.0048015108 0.037249427 0.45113769 4294967295
-0.004158562 0.037358809 0.45037961 4294967295
-0.0035156123 0.037468195 0.44962156 4294967295
-0.0028726645 0.037577577 0.44886351 4294967295
-0.0022297148 0.037686959 0.44810545 4294967295
-0.0015867669 0.037796341 0.4473474 4294967295
-0.00094381534 0.037905727 0.44658932 4294967295
-0.00030086748 0.038015109 0.44583127 4294967295
0.00034208037 0.038124491 0.44507322 4294967295
0.00098503008 0.038233876 0.44431517 4294967295
0.0016279798 0.038343258 0.44355708 4294967295
0.0022709277 0.03845264 0.44279903 4294967295
0.0029138774 0.038562026 0.44204098 4294967295
0.0035568271 0.038671408 0.44128293 4294967295
0.0041997749 0.03878079 0.44052488 4294967295
0.0048427247 0.038890176 0.43976679 4294967295
0.0054856725 0.038999557 0.43900874 4294967295
0.0061286222 0.039108939 0.43825069 4294967295
0.0067715701 0.039218321 0.43749264 4294967295
0.0074145198 0.039327707 0.43673459 4294967295
0.0080574676 0.039437089 0.43597651 4294967295
0.0087004174 0.039546471 0.43521845 4294967295
0.0093433671 0.039655857 0.4344604 4294967295
0.0099863149 0.039765239 0.43370235 4294967295
0.010629265 0.039874621 0.4329443 4294967295
0.011272214 0.039984003 0.43218622 4294967295
0.011915162 0.040093388 0.43142816 4294967295
0.01255811 0.04020277 0.43067011 4294967295
0.013201062 0.040312152 0.42991206 4294967295
0.013844009 0.040421538 0.42915398 4294967295
0.014486957 0.04053092 0.42839593 4294967295
0.015129905 0.040640302 0.42763788 4294967295
0.015772853 0.040749684 0.42687982 4294967295
0.016415808 0.04085907 0.42612177 4294967295
0.017058756 0.040968452 0.42536369 4294967295
0.017701704 0.041077834 0.42460564 4294967295
0.018344652 0.041187219 0.42384759 4294967295
0.0189876 0.041296601 0.42308953 4294967295
0.019630548 0.041405983 0.42233148 4294967295
0.020273499 0.041515365 0.4215734 4294967295
0.020916451 0.041624751 0.42081535 4294967295
0.021559399 0.041734133 0.4200573 4294967295
