# .PCD v0.7 - Point Cloud Data file format
VERSION 0.7
FIELDS x y z rgb
SIZE 4 4 4 4
TYPE F F F U
COUNT 1 1 1 1
WIDTH 554
HEIGHT 1
VIEWPOINT 0 0 0 1 0 0 0
POINTS 554
DATA ascii
0.13683403 0.17143317 0.72500002 4280234287
0.1454463 0.17048731 0.72100002 4279905068
0.14737816 0.17235051 0.71900004 4280497459
0.1490888 0.1762841 0.71600002 4280431664
0.13880485 0.18035667 0.72300005 4282731068
0.14888059 0.17836101 0.71500003 4280430892
0.13880485 0.18270576 0.72300005 4284706393
0.14076269 0.18220034 0.72100002 4282666812
0.15099144 0.18043141 0.71400005 4280561451
0.13899682 0.18531081 0.72400004 4284771675
0.14290603 0.184287 0.72000003 4282403390
0.14484112 0.18610795 0.71800005 4280692518
0.1469682 0.18817833 0.71700001 4280887844
0.1490888 0.18791588 0.71600002 4281678902
0.14484112 0.19077365 0.71800005 4282666560
0.1469682 0.19050793 0.71700001 4281152040
0.1490888 0.19024225 0.71600002 4282929221
0.14676324 0.1925686 0.71600002 4282271289
0.14888059 0.19229965 0.71500003 4281282854
0.15099144 0.19203071 0.71400005 4282403388
0.15099144 0.19435057 0.71400005 4280889384
0.15331051 0.19435057 0.71400005 4282338628
0.1512029 0.19694588 0.71500003 4280758052
0.15331051 0.19667043 0.71400005 4280495141
0.157285 0.19584408 0.71100003 4280233252
0.15936986 0.19556864 0.71000004 4280101929
0.14888059 0.19926897 0.71500003 4286417529
0.15331051 0.19899027 0.71400005 4280494880
0.15541162 0.19871159 0.71300006 4280034075
0.15750621 0.19843288 0.71200001 4280165661
0.15936986 0.19787548 0.71000004 4280627757
0.16144824 0.19759679 0.70900005 4280628273
0.14888059 0.20159209 0.71500003 4286417783
0.1512029 0.20159209 0.71500003 4285365356
0.15331051 0.20131014 0.71400005 4282733125
0.15541162 0.2010282 0.71300006 4278717447
0.15750621 0.20074624 0.71200001 4279243019
0.15936986 0.20018235 0.71000004 4279903774
0.16144824 0.1999004 0.70900005 4280364585
0.1635201 0.19961844 0.708 4281088310
0.14676324 0.20420039 0.71600002 4285627497
0.14888059 0.20391519 0.71500003 4283127109
0.15099144 0.20363 0.71400005 4280824874
0.15331051 0.20363 0.71400005 4280166946
0.15541162 0.20334481 0.71300006 4279441940
0.15750621 0.2030596 0.71200001 4278915594
0.15936986 0.20248921 0.71000004 4278718215
0.16144824 0.20220402 0.70900005 4280034075
0.1635201 0.20191881 0.708 4280232486
0.16558547 0.20163362 0.70700002 4280627246
0.14191362 0.20623831 0.71500003 4286417531
0.14423594 0.20623831 0.71500003 4284706145
0.14655825 0.20623831 0.71500003 4280758313
0.14888059 0.20623831 0.71500003 4281481783
0.15099144 0.20594987 0.71400005 4279507993
0.15309578 0.20566143 0.71300006 4279442200
0.15519363 0.20537297 0.71200001 4279376660
0.157285 0.20508453 0.71100003 4278915596
0.15936986 0.20479609 0.71000004 4278914826
0.16144824 0.20450765 0.70900005 4278914826
0.1635201 0.20421919 0.708 4279902751
0.16558547 0.20393075 0.70700002 4280364072
0.16788182 0.20393075 0.70700002 4280824876
0.14171514 0.20826972 0.71400005 4282335811
0.14403421 0.20826972 0.71400005 4280494377
0.14635329 0.20826972 0.71400005 4280033826
0.14867236 0.20826972 0.71400005 4279441689
0.15077996 0.20797803 0.71300006 4279639579
0.15288106 0.20768631 0.71200001 4279574039
0.15519363 0.20768631 0.71200001 4279442453
0.157285 0.20739461 0.71100003 4279179281
0.15936986 0.20710292 0.71000004 4279112975
0.16144824 0.20681123 0.70900005 4278652424
0.1635201 0.20651953 0.708 4278586891
0.16558547 0.20622784 0.70700002 4279706142
0.16764437 0.20593615 0.70600003 4280561704
0.16993745 0.20593615 0.70600003 4281219634
0.136885 0.21029463 0.71300006 4284310874
0.13920084 0.21029463 0.71300006 4280560168
0.14151666 0.21029463 0.71300006 4280099621
0.14383247 0.21029463 0.71300006 4280099619
0.14614831 0.21029463 0.71300006 4279705112
0.14846414 0.21029463 0.71300006 4279902491
0.15056849 0.20999968 0.71200001 4279573526
0.15288106 0.20999968 0.71200001 4279705110
0.15497567 0.20970474 0.71100003 4279442453
0.15706378 0.2094098 0.71000004 4279179281
0.15936986 0.2094098 0.71000004 4279179281
0.16144824 0.20911486 0.70900005 4278915596
0.1635201 0.2088199 0.708 4278718217
0.16558547 0.20852496 0.70700002 4279112975
0.16764437 0.20823002 0.70600003 4279706395
0.16969675 0.20793508 0.70500004 4280628010
0.17198658 0.20793508 0.70500004 4281088561
0.12957305 0.21201485 0.71100003 4287404678
0.13188237 0.21201485 0.71100003 4285299052
0.13438044 0.21231304 0.71200001 4280034337
0.13669302 0.21231304 0.71200001 4279967263
0.13900559 0.21231304 0.71200001 4280493607
0.14131817 0.21231304 0.71200001 4280296998
0.14383247 0.21261124 0.71300006 4279836445
0.14594333 0.21231304 0.71200001 4279836696
0.1482559 0.21231304 0.71200001 4279705110
0.15056849 0.21231304 0.71200001 4279639317
0.15266633 0.21201485 0.71100003 4279836696
0.15497567 0.21201485 0.71100003 4279442451
0.15706378 0.21171667 0.71000004 4279771416
0.15936986 0.21171667 0.71000004 4279112975
0.16144824 0.21141848 0.70900005 4279047182
0.1635201 0.21112028 0.708 4278784010
0.16558547 0.21082208 0.70700002 4278849033
0.16764437 0.21052389 0.70600003 4278652937
0.16969675 0.2102257 0.70500004 4280299045
0.17174263 0.20992751 0.70400006 4280627757
0.17402923 0.20992751 0.70400006 4281548346
0.13206786 0.2146264 0.71200001 4280625961
0.13438044 0.2146264 0.71200001 4280362791
0.13669302 0.2146264 0.71200001 4280362791
0.13900559 0.2146264 0.71200001 4280099619
0.14131817 0.2146264 0.71200001 4280165410
0.14363074 0.2146264 0.71200001 4279836698
0.14594333 0.2146264 0.71200001 4279967766
0.1482559 0.2146264 0.71200001 4279967766
0.15056849 0.2146264 0.71200001 4279705364
0.15266633 0.21432497 0.71100003 4279902743
0.15497567 0.21432497 0.71100003 4279771416
0.15706378 0.21402353 0.71000004 4279639830
0.15936986 0.21402353 0.71000004 4279442451
0.16144824 0.21372209 0.70900005 4279113488
0.1635201 0.21342064 0.708 4279113488
0.16558547 0.21311921 0.70700002 4278915596
0.16764437 0.21281776 0.70600003 4279046412
0.16969675 0.21251632 0.70500004 4280099870
0.17174263 0.21221489 0.70400006 4280232739
0.17378202 0.21191344 0.70300001 4280692267
0.12762171 0.21724446 0.71300006 4279834907
0.12975529 0.21693975 0.71200001 4280625191
0.13206786 0.21693975 0.71200001 4280099617
0.13438044 0.21693975 0.71200001 4280033824
0.13669302 0.21693975 0.71200001 4280099617
0.13900559 0.21693975 0.71200001 4280033824
0.14131817 0.21693975 0.71200001 4279968284
0.14363074 0.21693975 0.71200001 4279705112
0.14594333 0.21693975 0.71200001 4279836180
0.1482559 0.21693975 0.71200001 4280033559
0.15056849 0.21693975 0.71200001 4279836950
0.15288106 0.21693975 0.71200001 4280034075
0.15497567 0.21663506 0.71100003 4280034075
0.157285 0.21663506 0.71100003 4279836696
0.15959433 0.21663506 0.71100003 4279902489
0.16167594 0.21633038 0.71000004 4280034075
0.16375107 0.2160257 0.70900005 4281745458
0.16581967 0.21572098 0.708 4282469951
0.16764437 0.21511161 0.70600003 4280297501
0.16969675 0.21480693 0.70500004 4279177998
0.17174263 0.21450225 0.70400006 4279771418
0.17378202 0.21419753 0.70300001 4280429348
0.12762171 0.21956107 0.71300006 4280163866
0.12993753 0.21956107 0.71300006 4280164893
0.13206786 0.21925312 0.71200001 4280165661
0.13438044 0.21925312 0.71200001 4280099868
0.13669302 0.21925312 0.71200001 4280034075
0.13900559 0.21925312 0.71200001 4279836696
0.14131817 0.21925312 0.71200001 4279639317
0.14363074 0.21925312 0.71200001 4279639317
0.14594333 0.21925312 0.71200001 4279705364
0.1482559 0.21925312 0.71200001 4279902743
0.15056849 0.21925312 0.71200001 4279705364
0.15288106 0.21925312 0.71200001 4279573524
0.15519363 0.21925312 0.71200001 4279902489
0.15750621 0.21925312 0.71200001 4279902489
0.15981878 0.21925312 0.71200001 4280758565
0.16190365 0.21894518 0.71100003 4282929730
0.16398203 0.21863724 0.71000004 4282601787
0.16605389 0.21832931 0.70900005 4282075443
0.16788182 0.21771342 0.70700002 4281482288
0.16969675 0.21709755 0.70500004 4279835926
0.17174263 0.21678962 0.70400006 4279572754
0.17378202 0.21648166 0.70300001 4279902489
0.17581491 0.21617372 0.70200002 4280560419
0.17809501 0.21617372 0.70200002 4280757800
0.12993753 0.22187769 0.71300006 4280229914
0.13206786 0.22156648 0.71200001 4280099352
0.13438044 0.22156648 0.71200001 4280296731
0.13669302 0.22156648 0.71200001 4279705110
0.13900559 0.22156648 0.71200001 4279639317
0.14131817 0.22156648 0.71200001 4279705110
0.14363074 0.22156648 0.71200001 4279573524
0.14594333 0.22156648 0.71200001 4279573524
0.1482559 0.22156648 0.71200001 4279639317
0.15077996 0.22187769 0.71300006 4279836696
0.15309578 0.22187769 0.71300006 4279836696
0.15541162 0.22187769 0.71300006 4279706395
0.15772744 0.22187769 0.71300006 4282798918
0.16004325 0.22187769 0.71300006 4282732605
0.16213137 0.22156648 0.71200001 4283127363
0.16421299 0.2212553 0.71100003 4282732605
0.16628811 0.22094412 0.71000004 4281876529
0.16788182 0.22001053 0.70700002 4280823845
0.16969675 0.21938817 0.70500004 4280099868
0.17174263 0.21907699 0.70400006 4279836696
0.17402923 0.21907699 0.70400006 4280099868
0.17631581 0.21907699 0.70400006 4280757798
0.17860241 0.21907699 0.70400006 4281086763
0.18317561 0.21907699 0.70400006 4281680698
0.13206786 0.22387984 0.71200001 4280559133
0.13438044 0.22387984 0.71200001 4280164891
0.13669302 0.22387984 0.71200001 4279967512
0.13900559 0.22387984 0.71200001 4279835926
0.14131817 0.22387984 0.71200001 4279573526
0.14363074 0.22387984 0.71200001 4279573526
0.14594333 0.22387984 0.71200001 4279573526
0.14846414 0.2241943 0.71300006 4279705112
0.15077996 0.2241943 0.71300006 4279704340
0.15309578 0.2241943 0.71300006 4280626464
0.15541162 0.2241943 0.71300006 4283983701
0.15772744 0.2241943 0.71300006 4283392078
0.16004325 0.2241943 0.71300006 4283391305
0.16235909 0.2241943 0.71300006 4282799168
0.16444394 0.22387984 0.71200001 4282140214
0.16652231 0.22356541 0.71100003 4281218599
0.16883165 0.22356541 0.71100003 4280691235
0.17114097 0.22356541 0.71100003 4280428063
0.17345029 0.22356541 0.71100003 4280297247
0.17575963 0.22356541 0.71100003 4280560932
0.17806895 0.22356541 0.71100003 4280955692
0.18037829 0.22356541 0.71100003 4281745208
0.18268761 0.22356541 0.71100003 4281811771
0.18499695 0.22356541 0.71100003 4282009150
0.13419171 0.22587553 0.71100003 4279902489
0.13650103 0.22587553 0.71100003 4279705110
0.13900559 0.22619322 0.71200001 4279836696
0.14131817 0.22619322 0.71200001 4279705112
0.14363074 0.22619322 0.71200001 4279639319
0.14594333 0.22619322 0.71200001 4279836698
0.1482559 0.22619322 0.71200001 4279309584
0.15077996 0.22651091 0.71300006 4283455813
0.15309578 0.22651091 0.71300006 4284575061
0.15541162 0.22651091 0.71300006 4284180049
0.15772744 0.22651091 0.71300006 4283850571
0.16026773 0.2268286 0.71400005 4282929984
0.16258679 0.2268286 0.71400005 4282075191
0.16490588 0.2268286 0.71400005 4281745458
0.16722494 0.2268286 0.71400005 4280823845
0.16954401 0.2268286 0.71400005 4280494626
0.17186309 0.2268286 0.71400005 4280757798
0.17418216 0.2268286 0.71400005 4280758313
0.17650123 0.2268286 0.71400005 4281218864
0.1788203 0.2268286 0.71400005 4281482553
0.13400297 0.2278647 0.71000004 4279441940
0.13630904 0.2278647 0.71000004 4279968284
0.13861513 0.2278647 0.71000004 4279639319
0.14092122 0.2278647 0.71000004 4280033307
0.14342901 0.22818562 0.71100003 4279638549
0.14573835 0.22818562 0.71100003 4281810738
0.1482559 0.22850657 0.71200001 4284310870
0.15056849 0.22850657 0.71200001 4284640089
0.15309578 0.22882751 0.71300006 4284706393
0.15541162 0.22882751 0.71300006 4284114256
0.15772744 0.22882751 0.71300006 4283719752
0.16026773 0.22914845 0.71400005 4282798396
0.16258679 0.22914845 0.71400005 4281877042
0.16490588 0.22914845 0.71400005 4281021737
0.16722494 0.22914845 0.71400005 4281021737
0.16954401 0.22914845 0.71400005 4280495141
0.17186309 0.22914845 0.71400005 4280758830
0.17418216 0.22914845 0.71400005 4281285176
0.17650123 0.22914845 0.71400005 4281482555
0.13362549 0.22952318 0.708 4283192652
0.13592507 0.22952318 0.708 4280099100
0.13822466 0.22952318 0.708 4279770135
0.14052425 0.22952318 0.708 4280625696
0.14302556 0.22984739 0.70900005 4284244309
0.14553337 0.23017156 0.71000004 4284640602
0.14783946 0.23017156 0.71000004 4284903774
0.15056849 0.23081993 0.71200001 4284311637
0.15288106 0.23081993 0.71200001 4283982670
0.15541162 0.23114413 0.71300006 4283390533
0.15772744 0.23114413 0.71300006 4282403125
0.16026773 0.2314683 0.71400005 4281941806
0.16258679 0.2314683 0.71400005 4281546794
0.16490588 0.2314683 0.71400005 4281219114
0.16722494 0.2314683 0.71400005 4280955690
0.16954401 0.2314683 0.71400005 4280824876
0.17186309 0.2314683 0.71400005 4281022255
0.17418216 0.2314683 0.71400005 4281483066
0.13534912 0.23084126 0.70500004 4280298012
0.13763897 0.23084126 0.70500004 4283587147
0.14242038 0.23116869 0.70600003 4285165663
0.14512342 0.23182355 0.708 4285034847
0.14763124 0.232151 0.70900005 4284179538
0.15035701 0.23280586 0.71100003 4284113745
0.15288106 0.23313329 0.71200001 4283193926
0.15519363 0.23313329 0.71200001 4282535742
0.15772744 0.23346074 0.71300006 4281746228
0.16026773 0.23378818 0.71400005 4281744947
0.16258679 0.23378818 0.71400005 4281350189
0.16490588 0.23378818 0.71400005 4281285427
0.16722494 0.23378818 0.71400005 4280693037
0.16954401 0.23378818 0.71400005 4281219896
0.13705327 0.23213983 0.70200002 4285232739
0.13933337 0.23213983 0.70200002 4285297247
0.14181519 0.2324705 0.70300001 4285165661
0.1445085 0.23313189 0.70500004 4284640089
0.14700656 0.23346256 0.70600003 4283916112
0.15035701 0.23511598 0.71100003 4282929730
0.15266633 0.23511598 0.71100003 4282140216
0.15519363 0.23544666 0.71200001 4282074423
0.15772744 0.23577735 0.71300006 4281416493
0.16026773 0.23610803 0.71400005 4281547568
0.16258679 0.23610803 0.71400005 4281678900
0.16490588 0.23610803 0.71400005 4280824625
0.16722494 0.23610803 0.71400005 4281285178
0.13853945 0.23308495 0.69800001 4285297249
0.14100829 0.2334189 0.69900006 4284770905
0.14389355 0.23442067 0.70200002 4284179286
0.14659011 0.23508856 0.70400006 4283324490
0.15035701 0.23742607 0.71100003 4282139705
0.15266633 0.23742607 0.71100003 4281942326
0.15519363 0.23776001 0.71200001 4281810740
0.15772744 0.23809394 0.71300006 4281284396
0.16026773 0.23842788 0.71400005 4281613874
0.16258679 0.23842788 0.71400005 4281416495
0.16490588 0.23842788 0.71400005 4281482555
0.13774551 0.2340041 0.69400001 4285231202
0.14020136 0.23434129 0.69500005 4284375893
0.14307365 0.23535283 0.69800001 4283323975
0.15035701 0.23973618 0.71100003 4282205498
0.15266633 0.23973618 0.71100003 4282007349
0.15519363 0.24007337 0.71200001 4281612337
0.15772744 0.24041057 0.71300006 4281810486
0.16026773 0.24074773 0.71400005 4281482036
0.16258679 0.24074773 0.71400005 4281679415
0.15035701 0.24204631 0.71100003 4282796865
0.15266633 0.24204631 0.71100003 4282731842
0.16026773 0.24306761 0.71400005 4281745208
0.15035701 0.24435642 0.71100003 4282862404
0.15266633 0.24435642 0.71100003 4282600515
0.15519363 0.2447001 0.71200001 4282008897
0.15772744 0.2450438 0.71300006 4281219381
0.16026773 0.24538746 0.71400005 4282667080
0.15035701 0.24666654 0.71100003 4282929480
0.15266633 0.24666654 0.71100003 4282403908
0.15519363 0.24701346 0.71200001 4281614402
0.15772744 0.24736041 0.71300006 4279705892
0.15266633 0.24897663 0.71100003 4282667080
0.15519363 0.24932681 0.71200001 4282141000
0.15772744 0.249677 0.71300006 4280824627
0.15519363 0.25164017 0.71200001 4282601551
0.15772744 0.25199363 0.71300006 4281680195
0.16026773 0.25234705 0.71400005 4279639581
0.15400384 0.21861732 0.71121705 4294967295
0.15400384 0.21861732 0.71121705 4294901760
0.15400384 0.21861732 0.71171707 4294901760
0.15400384 0.21861732 0.71221703 4294901760
0.15400384 0.21861732 0.71271706 4294901760
0.15400384 0.21861732 0.71321702 4294901760
0.15400384 0.21861732 0.71371704 4294901760
0.15400384 0.21861732 0.71421707 4294901760
0.15400384 0.21861732 0.71471703 4294901760
0.15400384 0.21861732 0.71521705 4294901760
0.15400384 0.21861732 0.71571702 4294901760
0.15400384 0.21861732 0.71621704 4294901760
0.15400384 0.21861732 0.71671706 4294901760
0.15400384 0.21861732 0.71721703 4294901760
0.15400384 0.21861732 0.71771705 4294901760
0.15400384 0.21861732 0.71821707 4294901760
0.15400384 0.21861732 0.71871704 4294901760
0.15400384 0.21861732 0.71921706 4294901760
0.15400384 0.21861732 0.71971703 4294901760
0.15400384 0.21861732 0.72021705 4294901760
0.15400384 0.21861732 0.72071707 4294901760
0.15400384 0.21861732 0.72121704 4294901760
0.15400384 0.21861732 0.72171706 4294901760
0.15400384 0.21861732 0.72221702 4294901760
0.15400384 0.21861732 0.72271705 4294901760
0.15400384 0.21861732 0.72321707 4294901760
0.15400384 0.21861732 0.72371703 4294901760
0.15400384 0.21861732 0.72421706 4294901760
0.15400384 0.21861732 0.72471702 4294901760
0.15400384 0.21861732 0.72521704 4294901760
0.15400384 0.21861732 0.72571707 4294901760
0.15400384 0.21861732 0.72621703 4294901760
0.15400384 0.21861732 0.72671705 4294901760
0.15400384 0.21861732 0.72721708 4294901760
0.15400384 0.21861732 0.72771704 4294901760
0.15400384 0.21861732 0.72821707 4294901760
0.15400384 0.21861732 0.72871703 4294901760
0.15400384 0.21861732 0.72921705 4294901760
0.15400384 0.21861732 0.72971708 4294901760
0.15400384 0.21861732 0.73021704 4294901760
0.15400384 0.21861732 0.73071706 4294901760
0.15400384 0.21861732 0.73121703 4294901760
0.15400384 0.21861732 0.73171705 4294901760
0.15400384 0.21861732 0.73221707 4294901760
0.15400384 0.21861732 0.73271704 4294901760
0.15400384 0.21861732 0.73321706 4294901760
0.15400384 0.21861732 0.73371702 4294901760
0.15400384 0.21861732 0.73421705 4294901760
0.15400384 0.21861732 0.73471707 4294901760
0.15400384 0.21861732 0.73521703 4294901760
0.15400384 0.21861732 0.73571706 4294901760
0.15400384 0.21861732 0.73621702 4294901760
0.15400384 0.21861732 0.73671705 4294901760
0.15400384 0.21861732 0.73721707 4294901760
0.15400384 0.21861732 0.73771703 4294901760
0.15400384 0.21861732 0.73821706 4294901760
0.15400384 0.21861732 0.73871708 4294901760
0.15400384 0.21861732 0.73921704 4294901760
0.15400384 0.21861732 0.73971707 4294901760
0.15400384 0.21861732 0.74021703 4294901760
0.15400384 0.21861732 0.74071705 4294901760
0.15400384 0.21861732 0.74121708 4294901760
0.15400384 0.21861732 0.74171704 4294901760
0.15400384 0.21861732 0.74221706 4294901760
0.15400384 0.21861732 0.74271703 4294901760
0.15400384 0.21861732 0.74321705 4294901760
0.15400384 0.21861732 0.74371707 4294901760
0.15400384 0.21861732 0.74421704 4294901760
0.15400384 0.21861732 0.74471706 4294901760
0.15400384 0.21861732 0.74521708 4294901760
0.15400384 0.21861732 0.74571705 4294901760
0.15400384 0.21861732 0.74621707 4294901760
0.15400384 0.21861732 0.74671704 4294901760
0.15400384 0.21861732 0.74721706 4294901760
0.15400384 0.21861732 0.74771708 4294901760
0.15400384 0.21861732 0.74821705 4294901760
0.15400384 0.21861732 0.74871707 4294901760
0.15400384 0.21861732 0.74921703 4294901760
0.15400384 0.21861732 0.74971706 4294901760
0.15400384 0.21861732 0.75021708 4294901760
0.15400384 0.21861732 0.75071704 4294901760
0.15400384 0.21861732 0.75121707 4294901760
0.15400384 0.21861732 0.75171703 4294901760
0.15400384 0.21861732 0.75221705 4294901760
0.15400384 0.21861732 0.75271708 4294901760
0.15400384 0.21861732 0.75321704 4294901760
0.15400384 0.21861732 0.75371706 4294901760
0.15400384 0.21861732 0.75421703 4294901760
0.15400384 0.21861732 0.75471705 4294901760
0.15400384 0.21861732 0.75521708 4294901760
0.15400384 0.21861732 0.75571704 4294901760
0.15400384 0.21861732 0.75621706 4294901760
0.15400384 0.21861732 0.75671709 4294901760
0.15400384 0.21861732 0.75721705 4294901760
0.15400384 0.21861732 0.75771707 4294901760
0.15400384 0.21861732 0.75821704 4294901760
0.15400384 0.21861732 0.75871706 4294901760
0.15400384 0.21861732 0.75921708 4294901760
0.15400384 0.21861732 0.75971705 4294901760
0.15400384 0.21861732 0.76021707 4294901760
0.15400384 0.21861732 0.76071703 4294901760
0.15400384 0.21861732 0.76121706 4294901760
0.15400384 0.21861732 0.71121705 4278255360
0.15395661 0.21864171 0.71171421 4278255360
0.15390937 0.21866611 0.71221137 4278255360
0.15386213 0.2186905 0.71270853 4278255360
0.1538149 0.21871489 0.7132057 4278255360
0.15376765 0.21873929 0.71370286 4278255360
0.15372041 0.21876368 0.71420002 4278255360
0.15367317 0.21878806 0.71469718 4278255360
0.15362594 0.21881245 0.71519434 4278255360
0.1535787 0.21883684 0.71569151 4278255360
0.15353146 0.21886124 0.71618867 4278255360
0.15348423 0.21888563 0.71668589 4278255360
0.15343699 0.21891002 0.71718305 4278255360
0.15338975 0.21893442 0.71768022 4278255360
0.15334252 0.21895881 0.71817738 4278255360
0.15329528 0.2189832 0.71867454 4278255360
0.15324803 0.2190076 0.7191717 4278255360
0.15320079 0.21903199 0.71966887 4278255360
0.15315355 0.21905638 0.72016603 4278255360
0.15310632 0.21908076 0.72066319 4278255360
0.15305908 0.21910515 0.72116035 4278255360
0.15301184 0.21912955 0.72165751 4278255360
0.15296461 0.21915394 0.72215468 4278255360
0.15291737 0.21917833 0.72265184 4278255360
0.15287013 0.21920273 0.723149 4278255360
0.15282288 0.21922712 0.72364616 4278255360
0.15277565 0.21925151 0.72414333 4278255360
0.15272841 0.21927591 0.72464049 4278255360
0.15268117 0.2193003 0.72513765 4278255360
0.15263394 0.21932469 0.72563481 4278255360
0.1525867 0.21934909 0.72613204 4278255360
0.15253946 0.21937348 0.7266292 4278255360
0.15249223 0.21939786 0.72712636 4278255360
0.15244499 0.21942225 0.72762352 4278255360
0.15239775 0.21944664 0.72812068 4278255360
0.15235052 0.21947104 0.72861785 4278255360
0.15230326 0.21949543 0.72911501 4278255360
0.15225603 0.21951982 0.72961217 4278255360
0.15220879 0.21954422 0.73010933 4278255360
0.15216155 0.21956861 0.7306065 4278255360
0.15211432 0.219593 0.73110366 4278255360
0.15206708 0.2196174 0.73160082 4278255360
0.15201984 0.21964179 0.73209798 4278255360
0.15197261 0.21966618 0.73259515 4278255360
0.15192537 0.21969056 0.73309231 4278255360
0.15187812 0.21971495 0.73358947 4278255360
0.15183088 0.21973935 0.73408663 4278255360
0.15178365 0.21976374 0.7345838 4278255360
0.15173641 0.21978813 0.73508096 4278255360
0.15168917 0.21981253 0.73557812 4278255360
0.15164194 0.21983692 0.73607528 4278255360
0.1515947 0.21986131 0.7365725 4278255360
0.15154746 0.21988571 0.73706967 4278255360
0.15150023 0.2199101 0.73756683 4278255360
0.15145299 0.21993449 0.73806399 4278255360
0.15140575 0.21995889 0.73856115 4278255360
0.1513585 0.21998328 0.73905832 4278255360
0.15131126 0.22000766 0.73955548 4278255360
0.15126403 0.22003205 0.74005264 4278255360
0.15121679 0.22005644 0.7405498 4278255360
0.15116955 0.22008084 0.74104697 4278255360
0.15112232 0.22010523 0.74154413 4278255360
0.15107508 0.22012962 0.74204129 4278255360
0.15102784 0.22015402 0.74253845 4278255360
0.15098061 0.22017841 0.74303561 4278255360
0.15093336 0.2202028 0.74353278 4278255360
0.15088612 0.2202272 0.74402994 4278255360
0.15083888 0.22025159 0.7445271 4278255360
0.15079165 0.22027598 0.74502426 4278255360
0.15074441 0.22030036 0.74552143 4278255360
0.15069717 0.22032475 0.74601865 4278255360
0.15064994 0.22034915 0.74651581 4278255360
0.1506027 0.22037354 0.74701297 4278255360
0.15055546 0.22039793 0.74751014 4278255360
0.15050822 0.22042233 0.7480073 4278255360
0.15046099 0.22044672 0.74850446 4278255360
0.15041374 0.22047111 0.74900162 4278255360
0.1503665 0.22049551 0.74949878 4278255360
0.15031926 0.2205199 0.74999595 4278255360
0.15027203 0.22054429 0.75049311 4278255360
0.15022479 0.22056869 0.75099027 4278255360
0.15017755 0.22059308 0.75148743 4278255360
0.15013032 0.22061746 0.7519846 4278255360
0.15008308 0.22064185 0.75248176 4278255360
0.15003584 0.22066624 0.75297892 4278255360
0.14998859 0.22069064 0.75347608 4278255360
0.14994135 0.22071503 0.75397325 4278255360
0.14989412 0.22073942 0.75447041 4278255360
0.14984688 0.22076382 0.75496757 4278255360
0.14979964 0.22078821 0.75546473 4278255360
0.14975241 0.2208126 0.75596189 4278255360
0.14970517 0.220837 0.75645912 4278255360
0.14965793 0.22086139 0.75695628 4278255360
0.1496107 0.22088578 0.75745344 4278255360
0.14956346 0.22091016 0.7579506 4278255360
0.14951622 0.22093455 0.75844777 4278255360
0.14946897 0.22095895 0.75894493 4278255360
0.14942174 0.22098334 0.75944209 4278255360
0.1493745 0.22100773 0.75993925 4278255360
0.14932726 0.22103213 0.76043642 4278255360
0.14928003 0.22105652 0.76093358 4278255360
