# .PCD v0.7 - Point Cloud Data file format
VERSION 0.7
FIELDS x y z rgb
SIZE 4 4 4 4
TYPE F F F U
COUNT 1 1 1 1
WIDTH 1057
HEIGHT 1
VIEWPOINT 0 0 0 1 0 0 0
POINTS 1057
DATA ascii
0.0047239466 0.035399023 0.354 4278666011
0.0058571463 0.035299029 0.35300002 4279058205
0.0070036915 0.035299029 0.35300002 4278727959
0.0081271483 0.035199031 0.35200003 4278993695
0.0092441076 0.035099033 0.35100001 4278862109
0.010384156 0.035099033 0.35100001 4278201612
0.011491373 0.034999039 0.35000002 4278530580
0.012592091 0.034899037 0.34900001 4278794517
0.013686316 0.034799043 0.34800002 4278861080
0.014774044 0.034699045 0.347 4279059740
0.015901102 0.034699045 0.347 4278665496
0.016979085 0.034599047 0.34600002 4278731287
0.0024312097 0.036652453 0.35500002 4278863390
0.0035741536 0.036549207 0.354 4278863390
0.0047239466 0.036549207 0.354 4278666011
0.0058571463 0.03644596 0.35300002 4278266122
0.0070036915 0.03644596 0.35300002 4278195717
0.0081271483 0.036342718 0.35200003 4279256097
0.0092441076 0.036239468 0.35100001 4278531861
0.010384156 0.036239468 0.35100001 4278590476
0.011491373 0.036136225 0.35000002 4278589709
0.012592091 0.036032975 0.34900001 4278524170
0.013686316 0.035929732 0.34800002 4278590476
0.014774044 0.035826482 0.347 4278262277
0.015855277 0.035723239 0.34600002 4278328583
0.016930014 0.035619993 0.34500003 4278198534
0.017998252 0.035516743 0.34400001 4278857748
0.023242014 0.035000514 0.33900002 4278731289
0.024271278 0.034897268 0.33800003 4278862875
0.025369102 0.034897268 0.33800003 4278731289
0.033998061 0.033658311 0.32600001 4278863388
0.036832508 0.033348572 0.32300001 4278535706
0.037764337 0.033245325 0.32200003 4279062050
0.03881019 0.033245325 0.32200003 4278996257
0.03973227 0.033142079 0.32100001 4278996257
0.040647853 0.033038832 0.32000002 4278997027
0.041687217 0.033038832 0.32000002 4279391785
0.042593054 0.032935586 0.31900001 4279457580
0.043629162 0.032935586 0.31900001 4279720498
0.044525262 0.032832339 0.31800002 4279850801
0.0035741536 0.03769939 0.354 4278666011
0.0047106021 0.037592895 0.35300002 4278863390
0.0058571463 0.037592895 0.35300002 4279581984
0.0069838511 0.0374864 0.35200003 4279053592
0.0081271483 0.0374864 0.35200003 4278992414
0.0092441076 0.037379902 0.35100001 4278200587
0.010384156 0.037379902 0.35100001 4278786318
0.011491373 0.037273411 0.35000002 4278917390
0.012592091 0.037166912 0.34900001 4278917390
0.013686316 0.037060417 0.34800002 4278917644
0.014774044 0.036953922 0.347 4279048717
0.015855277 0.036847427 0.34600002 4278851851
0.016930014 0.036740933 0.34500003 4278654986
0.017998252 0.036634434 0.34400001 4278654986
0.019004429 0.036421444 0.34200001 4278590476
0.020115245 0.036421444 0.34200001 4278524683
0.021163998 0.036314949 0.34100002 4278200074
0.022206252 0.036208451 0.34 4278202128
0.023242014 0.03610196 0.33900002 4278530580
0.024271278 0.035995465 0.33800003 4279385887
0.025369102 0.035995465 0.33800003 4278991896
0.026310319 0.035782471 0.33600003 4278992666
0.027401647 0.035782471 0.33600003 4278796568
0.030036556 0.035037003 0.32900003 4278797082
0.031010604 0.034930509 0.32800001 4278797595
0.032075949 0.034930509 0.32800001 4278929179
0.033040255 0.034824014 0.32700002 4279126558
0.033998061 0.034717515 0.32600001 4278797595
0.035056908 0.034717515 0.32600001 4278929181
0.036004975 0.034611024 0.32500002 4278863386
0.036832508 0.03439803 0.32300001 4278863386
0.037881613 0.03439803 0.32300001 4278929179
0.03881019 0.034291536 0.32200003 4278731800
0.03973227 0.034185041 0.32100001 4278798363
0.040774874 0.034185041 0.32100001 4278535704
0.041687217 0.034078546 0.32000002 4278864669
0.042593054 0.033972047 0.31900001 4278864669
0.043629162 0.033972047 0.31900001 4278931232
0.044665277 0.033972047 0.31900001 4279194408
0.045701392 0.033972047 0.31900001 4279325994
0.046737507 0.033972047 0.31900001 4279720752
0.047923379 0.034078546 0.32000002 4279654959
0.048962738 0.034078546 0.32000002 4279654189
0.050002102 0.034078546 0.32000002 4279718445
0.0035741536 0.03884957 0.354 4278797343
0.0047106021 0.038739827 0.35300002 4278863390
0.0058571463 0.038739827 0.35300002 4278529810
0.0069838511 0.038630083 0.35200003 4279712803
0.0081271483 0.038630083 0.35200003 4279123998
0.0092441076 0.038520336 0.35100001 4278199302
0.010354572 0.038410597 0.35000002 4279181846
0.01145854 0.038300849 0.34900001 4278852111
0.012556012 0.038191106 0.34800002 4279707160
0.013646987 0.038081359 0.347 4279246609
0.014731468 0.037971616 0.34600002 4279180816
0.015809454 0.037861872 0.34500003 4278259714
0.016880941 0.037752125 0.34400001 4279115023
0.017945932 0.037642382 0.34300002 4278786058
0.019004429 0.037532635 0.34200001 4278917644
0.020115245 0.037532635 0.34200001 4278917390
0.021163998 0.037422892 0.34100002 4278329869
0.022206252 0.037313148 0.34 4279319072
0.023242014 0.037203405 0.33900002 4279977772
0.024271278 0.037093662 0.33800003 4279188256
0.025294045 0.036983915 0.33700001 4278857494
0.026310319 0.036874171 0.33600003 4278195712
0.027320093 0.036764424 0.33500001 4278194944
0.028238574 0.036544934 0.333 4278197252
0.029232109 0.036435191 0.33200002 4278464017
0.030127851 0.036215704 0.33000001 4278793750
0.03110515 0.036105961 0.32900003 4278861080
0.032075949 0.035996214 0.32800001 4279190043
0.033040255 0.03588647 0.32700002 4279125533
0.03410235 0.03588647 0.32700002 4278862875
0.035056908 0.035776723 0.32600001 4278731289
0.036004975 0.03566698 0.32500002 4278797080
0.036946539 0.035557233 0.324 4278731287
0.037881613 0.035447489 0.32300001 4278928666
0.038930718 0.035447489 0.32300001 4278862873
0.039856046 0.035337746 0.32200003 4278929179
0.040774874 0.035228003 0.32100001 4278732572
0.041817486 0.035228003 0.32100001 4278666779
0.042726576 0.035118259 0.32000002 4278666779
0.043765936 0.035118259 0.32000002 4278535706
0.044805296 0.035118259 0.32000002 4278667292
0.045844659 0.035118259 0.32000002 4278864671
0.046884019 0.035118259 0.32000002 4278865441
0.047923379 0.035118259 0.32000002 4278799648
0.048962738 0.035118259 0.32000002 4279129127
0.050002102 0.035118259 0.32000002 4279589680
0.051041458 0.035118259 0.32000002 4284586364
0.052080821 0.035118259 0.32000002 4284321393
0.053120185 0.035118259 0.32000002 4279517473
0.054159541 0.035118259 0.32000002 4280504881
0.055026405 0.035008512 0.31900001 4283200347
0.0035741536 0.039999753 0.354 4279060769
0.0047106021 0.039886761 0.35300002 4278797597
0.0058571463 0.039886761 0.35300002 4278859543
0.0069838511 0.03977377 0.35200003 4279646240
0.0081271483 0.03977377 0.35200003 4279124000
0.0092441076 0.039660774 0.35100001 4278198532
0.010354572 0.039547779 0.35000002 4278919441
0.01145854 0.039434783 0.34900001 4279776031
0.012556012 0.039321791 0.34800002 4278657037
0.013646987 0.039208796 0.347 4280366887
0.014731468 0.039095804 0.34600002 4279051027
0.015809454 0.038982812 0.34500003 4279841311
0.016880941 0.038869817 0.34400001 4279446553
0.017945932 0.038756825 0.34300002 4279578139
0.019004429 0.03864383 0.34200001 4280037922
0.020115245 0.03864383 0.34200001 4278524170
0.021163998 0.038530838 0.34100002 4279447580
0.022206252 0.038417842 0.34 4279188508
0.023242014 0.03830485 0.33900002 4279058972
0.024271278 0.038191859 0.33800003 4278795800
0.025294045 0.038078863 0.33700001 4279651107
0.026310319 0.037965868 0.33600003 4279124250
0.027320093 0.037852872 0.33500001 4279320861
0.028238574 0.037626885 0.333 4279254814
0.029232109 0.037513893 0.33200002 4279516705
0.030127851 0.037287906 0.33000001 4279318812
0.031199694 0.037287906 0.33000001 4278198789
0.032173742 0.037174914 0.32900003 4278197248
0.033141293 0.037061919 0.32800001 4278196224
0.03410235 0.036948927 0.32700002 4278197762
0.035056908 0.036835931 0.32600001 4278266124
0.036115758 0.036835931 0.32600001 4279188508
0.037060574 0.036722939 0.32500002 4278991896
0.037998892 0.036609944 0.324 4279058970
0.038930718 0.036496952 0.32300001 4278862361
0.039856046 0.036383957 0.32200003 4278862361
0.040901903 0.036383957 0.32200003 4278468630
0.041817486 0.036270961 0.32100001 4278731802
0.042860094 0.036270961 0.32100001 4278863388
0.043765936 0.036157969 0.32000002 4278535193
0.044805296 0.036157969 0.32000002 4278732570
0.045844659 0.036157969 0.32000002 4278732570
0.046884019 0.036157969 0.32000002 4278732570
0.047923379 0.036157969 0.32000002 4278337812
0.048962738 0.036157969 0.32000002 4278667290
0.050002102 0.036157969 0.32000002 4278930462
0.051041458 0.036157969 0.32000002 4278403616
0.051918067 0.036044974 0.31900001 4283337062
0.052954178 0.036044974 0.31900001 4284057703
0.05399029 0.036044974 0.31900001 4279584803
0.055026405 0.036044974 0.31900001 4279323174
0.056062516 0.036044974 0.31900001 4280439608
0.0035640574 0.041033693 0.35300002 4278862877
0.0047106021 0.041033693 0.35300002 4278797084
0.0058571463 0.041033693 0.35300002 4278660369
0.0069838511 0.040917452 0.35200003 4279252506
0.0081271483 0.040917452 0.35200003 4279124000
0.0092441076 0.040801208 0.35100001 4278198019
0.010354572 0.040684965 0.35000002 4279314199
0.01145854 0.040568721 0.34900001 4278196742
0.012556012 0.04045248 0.34800002 4280302375
0.013646987 0.040336236 0.347 4280302377
0.014731468 0.040219992 0.34600002 4278720779
0.015809454 0.040103752 0.34500003 4279907104
0.016880941 0.039987508 0.34400001 4278327304
0.017945932 0.039871268 0.34300002 4278195720
0.019004429 0.03975502 0.34200001 4279381275
0.020115245 0.03975502 0.34200001 4278722832
0.021163998 0.03963878 0.34100002 4278922004
0.022206252 0.039522536 0.34 4279254301
0.023242014 0.039406296 0.33900002 4278729492
0.024271278 0.039290052 0.33800003 4278199297
0.025294045 0.039173808 0.33700001 4278197760
0.026310319 0.039057568 0.33600003 4279452447
0.027320093 0.038941324 0.33500001 4279190043
0.028323375 0.03882508 0.33400002 4279255836
0.029232109 0.038592596 0.33200002 4279124250
0.030219149 0.038476355 0.33100003 4279124250
0.031199694 0.038360108 0.33000001 4279190043
0.032173742 0.038243867 0.32900003 4279584033
0.033242337 0.038243867 0.32900003 4279452447
0.034206636 0.038127623 0.32800001 4279451934
0.035164446 0.038011383 0.32700002 4279649313
0.036115758 0.037895139 0.32600001 4278990359
0.037060574 0.037778895 0.32500002 4278199817
0.037998892 0.037662651 0.324 4278197765
0.039051246 0.037662651 0.324 4278197252
0.039979823 0.037546411 0.32300001 4278198537
0.040901903 0.037430171 0.32200003 4278331404
0.04194776 0.037430171 0.32200003 4278726675
0.042860094 0.037313923 0.32100001 4278729753
0.043902703 0.037313923 0.32100001 4278993179
0.044805296 0.037197683 0.32000002 4278731289
0.045844659 0.037197683 0.32000002 4278731287
0.046884019 0.037197683 0.32000002 4278928666
0.047923379 0.037197683 0.32000002 4278862873
0.048962738 0.037197683 0.32000002 4279126045
0.049845841 0.037081439 0.31900001 4278863386
0.050881952 0.037081439 0.31900001 4278929949
0.051918067 0.037081439 0.31900001 4278929949
0.052954178 0.037081439 0.31900001 4278993945
0.05399029 0.037081439 0.31900001 4279257633
0.055026405 0.037081439 0.31900001 4279126047
0.056062516 0.037081439 0.31900001 4279059742
0.0024243612 0.042300116 0.354 4278797084
0.0035741536 0.042300116 0.354 4278928670
0.0047106021 0.042180628 0.35300002 4278994463
0.0058571463 0.042180628 0.35300002 4278198281
0.0069838511 0.042061135 0.35200003 4278527500
0.0081271483 0.042061135 0.35200003 4279254555
0.0092441076 0.041941643 0.35100001 4278198019
0.010354572 0.04182215 0.35000002 4278786572
0.01145854 0.041702658 0.34900001 4278654732
0.012556012 0.041583166 0.34800002 4278589963
0.013646987 0.041463673 0.347 4278458890
0.014731468 0.041344184 0.34600002 4278589963
0.015809454 0.041224692 0.34500003 4279905053
0.016880941 0.0411052 0.34400001 4278458377
0.017945932 0.040985707 0.34300002 4279644447
0.019004429 0.040866215 0.34200001 4279119385
0.020115245 0.040866215 0.34200001 4278459406
0.021163998 0.040746726 0.34100002 4278593552
0.022206252 0.04062723 0.34 4278860310
0.023242014 0.040507741 0.33900002 4278529294
0.024271278 0.040388249 0.33800003 4278657037
0.025294045 0.040268756 0.33700001 4278787853
0.026310319 0.040149264 0.33600003 4279579164
0.027320093 0.040029772 0.33500001 4278200072
0.028323375 0.039910283 0.33400002 4279581982
0.029320156 0.039790787 0.333 4278201096
0.030310445 0.039671298 0.33200002 4279058459
0.031294242 0.039551806 0.33100003 4278268173
0.032271534 0.039432313 0.33000001 4278728724
0.033242337 0.039312821 0.32900003 4279059742
0.034206636 0.039193328 0.32800001 4278862363
0.035164446 0.03907384 0.32700002 4278993945
0.036115758 0.038954344 0.32600001 4278993175
0.037060574 0.038834855 0.32500002 4279058970
0.038116176 0.038834855 0.32500002 4279124250
0.039051246 0.038715359 0.324 4279320348
0.039979823 0.03859587 0.32300001 4279385371
0.040901903 0.038476381 0.32200003 4279976227
0.04194776 0.038476381 0.32200003 4279581471
0.042860094 0.038356885 0.32100001 4278264587
0.043902703 0.038356885 0.32100001 4278196738
0.044945311 0.038356885 0.32100001 4278196992
0.045844659 0.038237397 0.32000002 4278858773
0.046884019 0.038237397 0.32000002 4278862873
0.047923379 0.038237397 0.32000002 4278731287
0.048962738 0.038237397 0.32000002 4278797080
0.049845841 0.0381179 0.31900001 4278533908
0.050881952 0.0381179 0.31900001 4278533908
0.051918067 0.0381179 0.31900001 4278731541
0.052954178 0.0381179 0.31900001 4278731541
0.05399029 0.0381179 0.31900001 4278797334
0.054853909 0.037998412 0.31800002 4278731287
0.055886775 0.037998412 0.31800002 4279059740
0.056919642 0.037998412 0.31800002 4279252254
0.0012745686 0.0434503 0.354 4279191842
0.0024243612 0.0434503 0.354 4278928670
0.0035741536 0.0434503 0.354 4278994461
0.0047106021 0.043327559 0.35300002 4278731289
0.0058571463 0.043327559 0.35300002 4279254301
0.0069838511 0.043204818 0.35200003 4279516191
0.0081271483 0.043204818 0.35200003 4279320861
0.0092441076 0.043082077 0.35100001 4278594576
0.010354572 0.042959336 0.35000002 4278983951
0.01145854 0.042836595 0.34900001 4278852111
0.012556012 0.042713854 0.34800002 4278917390
0.013646987 0.04259111 0.347 4278917390
0.014688892 0.042345632 0.34500003 4278851851
0.015763627 0.042222891 0.34400001 4278851851
0.016880941 0.042222891 0.34400001 4278851851
0.017945932 0.04210015 0.34300002 4278392584
0.019004429 0.041977406 0.34200001 4278657039
0.020056428 0.041854668 0.34100002 4278590476
0.021163998 0.041854668 0.34100002 4279581217
0.022206252 0.041731924 0.34 4279190045
0.023242014 0.041609187 0.33900002 4278263304
0.024271278 0.041486446 0.33800003 4278721549
0.025294045 0.041363701 0.33700001 4278984721
0.026310319 0.041240964 0.33600003 4279577369
0.027320093 0.041118219 0.33500001 4279713570
0.028323375 0.040995482 0.33400002 4279385887
0.029320156 0.040872738 0.333 4278201097
0.030310445 0.040750001 0.33200002 4278331915
0.031294242 0.04062726 0.33100003 4279187740
0.032271534 0.040504515 0.33000001 4279319324
0.033242337 0.040381778 0.32900003 4278399757
0.034310929 0.040381778 0.32900003 4279190043
0.03527198 0.040259033 0.32800001 4278928152
0.036226545 0.040136296 0.32700002 4278928152
0.037174605 0.040013552 0.32600001 4278928152
0.038116176 0.039890811 0.32500002 4278862361
0.039051246 0.03976807 0.324 4278862361
0.039979823 0.039645329 0.32300001 4279058970
0.041028924 0.039645329 0.32300001 4279255836
0.04194776 0.039522592 0.32200003 4279124250
0.04299362 0.039522592 0.32200003 4279124252
0.043902703 0.039399847 0.32100001 4279254814
0.044945311 0.039399847 0.32100001 4280042535
0.045987923 0.039399847 0.32100001 4278196224
0.046884019 0.039277107 0.32000002 4278862361
0.047923379 0.039277107 0.32000002 4278533910
0.048962738 0.039277107 0.32000002 4278731287
0.049845841 0.039154366 0.31900001 4278731287
0.050881952 0.039154366 0.31900001 4278731287
0.051918067 0.039154366 0.31900001 4278665494
0.052954178 0.039154366 0.31900001 4278797080
0.053821042 0.039031625 0.31800002 4278533908
0.054853909 0.039031625 0.31800002 4278862359
0.055886775 0.039031625 0.31800002 4278664982
0.056919642 0.039031625 0.31800002 4278857496
0.05777026 0.038908884 0.317 4285500284
0.0012781691 0.044726476 0.35500002 4278928668
0.0024243612 0.044600483 0.354 4278994461
0.0035741536 0.044600483 0.354 4278797082
0.0047239466 0.044600483 0.354 4279191840
0.0058571463 0.044474494 0.35300002 4278464787
0.0070036915 0.044474494 0.35300002 4278199817
0.0081271483 0.044348504 0.35200003 4279189791
0.0092441076 0.044222515 0.35100001 4279255584
0.010354572 0.044096526 0.35000002 4279844643
0.01145854 0.043970533 0.34900001 4279053590
0.012556012 0.043844543 0.34800002 4278656267
0.013607659 0.043592565 0.34600002 4278787855
0.014688892 0.043466575 0.34500003 4278786318
0.015763627 0.043340582 0.34400001 4278852111
0.016880941 0.043340582 0.34400001 4278786318
0.017945932 0.043214593 0.34300002 4278785804
0.019004429 0.043088604 0.34200001 4278851597
0.020056428 0.042962614 0.34100002 4278786318
0.021163998 0.042962614 0.34100002 4279910695
0.022206252 0.042836621 0.34 4279058718
0.023242014 0.042710632 0.33900002 4278593039
0.024271278 0.042584646 0.33800003 4278786572
0.025294045 0.042458653 0.33700001 4278721549
0.026310319 0.042332664 0.33600003 4279776031
0.027320093 0.042206671 0.33500001 4278198018
0.028323375 0.042080685 0.33400002 4279320861
0.029320156 0.041954692 0.333 4278199301
0.030310445 0.041828703 0.33200002 4278529810
0.031388782 0.041828703 0.33200002 4279320096
0.032369327 0.041702714 0.33100003 4279781928
0.033343375 0.041576721 0.33000001 4278266890
0.034310929 0.041450735 0.32900003 4278197504
0.03527198 0.041324742 0.32800001 4278200331
0.036226545 0.041198753 0.32700002 4278925338
0.037174605 0.04107276 0.32600001 4278200069
0.038116176 0.040946774 0.32500002 4278531861
0.039051246 0.040820781 0.324 4278201611
0.040103596 0.040820781 0.324 4278795798
0.041028924 0.040694792 0.32300001 4278928152
0.04194776 0.040568803 0.32200003 4278796566
0.04299362 0.040568803 0.32200003 4278928152
0.043902703 0.040442813 0.32100001 4278928152
0.044945311 0.040442813 0.32100001 4279123482
0.045987923 0.040442813 0.32100001 4278199818
0.046884019 0.040316824 0.32000002 4279058457
0.047923379 0.040316824 0.32000002 4278993177
0.048962738 0.040316824 0.32000002 4278928154
0.049845841 0.040190831 0.31900001 4278796566
0.050881952 0.040190831 0.31900001 4278862359
0.051918067 0.040190831 0.31900001 4278796566
0.052788179 0.040064842 0.31800002 4278862359
0.053821042 0.040064842 0.31800002 4278796566
0.054853909 0.040064842 0.31800002 4278664210
0.055886775 0.040064842 0.31800002 4278795285
0.056919642 0.040064842 0.31800002 4279252252
0.05777026 0.039938848 0.317 4284711022
0.0012781691 0.045879904 0.35500002 4278928154
0.0024243612 0.045750663 0.354 4278928154
0.0035741536 0.045750663 0.354 4279059740
0.0047239466 0.045750663 0.354 4279059740
0.0058571463 0.045621425 0.35300002 4279190558
0.0070036915 0.045621425 0.35300002 4279058205
0.0081271483 0.045492187 0.35200003 4279058718
0.0092441076 0.045362946 0.35100001 4279058718
0.010354572 0.045233708 0.35000002 4279058718
0.01145854 0.045104466 0.34900001 4279190558
0.01251993 0.044845987 0.347 4279123998
0.013607659 0.044716749 0.34600002 4279386400
0.014688892 0.044587512 0.34500003 4279714854
0.015763627 0.04445827 0.34400001 4279582244
0.016880941 0.04445827 0.34400001 4279250971
0.017945932 0.044329032 0.34300002 4278196999
0.019004429 0.044199791 0.34200001 4278260744
0.020115245 0.044199791 0.34200001 4278391562
0.021163998 0.044070557 0.34100002 4279318558
0.022206252 0.043941315 0.34 4278399507
0.023242014 0.043812077 0.33900002 4280042022
0.024271278 0.04368284 0.33800003 4279382555
0.025294045 0.043553598 0.33700001 4279644959
0.026310319 0.04342436 0.33600003 4279515424
0.027320093 0.043295119 0.33500001 4279320607
0.028323375 0.043165881 0.33400002 4278794263
0.029320156 0.04303664 0.333 4278991131
0.030310445 0.042907402 0.33200002 4279320096
0.031388782 0.042907402 0.33200002 4278199817
0.032369327 0.042778164 0.33100003 4278595089
0.033343375 0.042648923 0.33000001 4279648289
0.034310929 0.042519685 0.32900003 4278529808
0.03527198 0.042390443 0.32800001 4278988310
0.036226545 0.042261206 0.32700002 4278790420
0.037174605 0.042131964 0.32600001 4278791955
0.038116176 0.04200273 0.32500002 4278791955
0.039051246 0.041873489 0.324 4279713568
0.040103596 0.041873489 0.324 4278397708
0.041028924 0.041744251 0.32300001 4278200586
0.042078033 0.041744251 0.32300001 4278199815
0.04299362 0.041615013 0.32200003 4278531345
0.044039473 0.041615013 0.32200003 4278729492
0.044945311 0.041485772 0.32100001 4279451934
0.045987923 0.041485772 0.32100001 4278198533
0.046884019 0.041356534 0.32000002 4279058459
0.047923379 0.041356534 0.32000002 4279190556
0.048962738 0.041356534 0.32000002 4278862361
0.049845841 0.041227292 0.31900001 4278862361
0.050881952 0.041227292 0.31900001 4278664982
0.051755317 0.041098054 0.31800002 4278664982
0.052788179 0.041098054 0.31800002 4278796568
0.053821042 0.041098054 0.31800002 4278533396
0.054853909 0.041098054 0.31800002 4278202119
0.055711027 0.040968813 0.317 4278729494
0.056740645 0.040968813 0.317 4279186713
0.05777026 0.040968813 0.317 4284711020
0.0012781691 0.047033336 0.35500002 4279255834
0.0024312097 0.047033336 0.35500002 4279124248
0.0035741536 0.046900846 0.354 4278993179
0.0047239466 0.046900846 0.354 4279058972
0.0058737388 0.046900846 0.354 4279058972
0.0070036915 0.04676836 0.35300002 4278928156
0.0081271483 0.046635874 0.35200003 4278862363
0.0092441076 0.046503384 0.35100001 4278928156
0.010354572 0.046370897 0.35000002 4278993949
0.01145854 0.046238404 0.34900001 4278797084
0.01251993 0.045973428 0.347 4278731291
0.013607659 0.045840941 0.34600002 4278731291
0.014688892 0.045708455 0.34500003 4278796570
0.015763627 0.045575965 0.34400001 4278993949
0.016880941 0.045575965 0.34400001 4279124765
0.017945932 0.045443479 0.34300002 4279124765
0.019004429 0.045310989 0.34200001 4279320861
0.020115245 0.045310989 0.34200001 4279320094
0.021163998 0.045178503 0.34100002 4279386400
0.022206252 0.045046009 0.34 4278662677
0.023242014 0.044913523 0.33900002 4278197506
0.024271278 0.044781037 0.33800003 4278196736
0.025294045 0.044648547 0.33700001 4278196482
0.026310319 0.044516061 0.33600003 4278198281
0.027320093 0.044383571 0.33500001 4278660880
0.028323375 0.044251084 0.33400002 4279187738
0.029320156 0.044118594 0.333 4278992412
0.030310445 0.043986108 0.33200002 4279058205
0.031294242 0.043853618 0.33100003 4279123228
0.032271534 0.043721128 0.33000001 4279451680
0.033242337 0.043588642 0.32900003 4279189791
0.034206636 0.043456152 0.32800001 4279123998
0.03527198 0.043456152 0.32800001 4279451680
0.036226545 0.043323666 0.32700002 4278200074
0.037174605 0.043191176 0.32600001 4280371500
0.038116176 0.04305869 0.32500002 4278199303
0.039051246 0.0429262 0.324 4279121433
0.040103596 0.0429262 0.324 4278266124
0.041028924 0.04279371 0.32300001 4278529296
0.042078033 0.04279371 0.32300001 4278266124
0.04299362 0.042661224 0.32200003 4278726927
0.044039473 0.042661224 0.32200003 4279189273
0.044945311 0.042528734 0.32100001 4279057176
0.045987923 0.042528734 0.32100001 4278198536
0.046884019 0.042396247 0.32000002 4279058205
0.047923379 0.042396247 0.32000002 4279124763
0.048962738 0.042396247 0.32000002 4278928152
0.049845841 0.042263757 0.31900001 4278862359
0.050881952 0.042263757 0.31900001 4278599189
0.051755317 0.042131271 0.31800002 4278664982
0.052788179 0.042131271 0.31800002 4278599187
0.053821042 0.042131271 0.31800002 4278533394
0.054681409 0.041998781 0.317 4279124252
0.055711027 0.041998781 0.317 4278992412
0.056740645 0.041998781 0.317 4279187486
0.05777026 0.041998781 0.317 4283922787
0.0024312097 0.048186764 0.35500002 4279516439
0.0035741536 0.048051026 0.354 4279386139
0.0047239466 0.048051026 0.354 4279123482
0.0058737388 0.048051026 0.354 4278992412
0.0070036915 0.047915291 0.35300002 4279255584
0.0081271483 0.047779553 0.35200003 4279058972
0.0092441076 0.047643814 0.35100001 4278796568
0.010354572 0.04750808 0.35000002 4278796568
0.01145854 0.047372341 0.34900001 4278796568
0.01251993 0.047100864 0.347 4278796568
0.013607659 0.04696513 0.34600002 4278796568
0.014688892 0.046829391 0.34500003 4278862361
0.015763627 0.046693653 0.34400001 4278665496
0.016880941 0.046693653 0.34400001 4278797082
0.017945932 0.046557918 0.34300002 4278731289
0.019059997 0.046557918 0.34300002 4278797082
0.020115245 0.04642218 0.34200001 4278862875
0.021163998 0.046286441 0.34100002 4278928154
0.022206252 0.046150703 0.34 4278862361
0.023310574 0.046150703 0.34 4279190556
0.024343086 0.046014968 0.33900002 4279321631
0.025369102 0.04587923 0.33800003 4279649313
0.026310319 0.045607757 0.33600003 4279386141
0.027320093 0.045472018 0.33500001 4279252506
0.028323375 0.04533628 0.33400002 4278593806
0.029320156 0.045200542 0.333 4278196225
0.030310445 0.045064807 0.33200002 4278197253
0.031294242 0.044929069 0.33100003 4278198021
0.032271534 0.04479333 0.33000001 4278528013
0.033242337 0.044657595 0.32900003 4278990361
0.034206636 0.044521853 0.32800001 4279386400
0.035164446 0.044386119 0.32700002 4279124765
0.036115758 0.04425038 0.32600001 4279058972
0.037174605 0.04425038 0.32600001 4279124765
0.038116176 0.044114646 0.32500002 4278861080
0.039051246 0.043978903 0.324 4279452193
0.040103596 0.043978903 0.324 4279188508
0.041028924 0.043843169 0.32300001 4278924566
0.04194776 0.043707434 0.32200003 4278199817
0.04299362 0.043707434 0.32200003 4278595089
0.044039473 0.043707434 0.32200003 4279320346
0.044945311 0.043571692 0.32100001 4279320348
0.045987923 0.043571692 0.32100001 4278198019
0.046884019 0.043435957 0.32000002 4279124252
0.047923379 0.043435957 0.32000002 4279058970
0.048962738 0.043435957 0.32000002 4278928152
0.049845841 0.043300219 0.31900001 4278664980
0.050881952 0.043300219 0.31900001 4278664980
0.051755317 0.043164484 0.31800002 4278796566
0.052788179 0.043164484 0.31800002 4278796566
0.053651791 0.043028742 0.317 4278795796
0.054681409 0.043028742 0.317 4278861076
0.055711027 0.043028742 0.317 4279058457
0.056740645 0.043028742 0.317 4279320348
0.05777026 0.043028742 0.317 4281948484
0.0024312097 0.0493402 0.35500002 4279576336
0.0035842503 0.0493402 0.35500002 4278985482
0.0047239466 0.049201209 0.354 4278920459
0.0058737388 0.049201209 0.354 4279777819
0.0070036915 0.049062226 0.35300002 4279975711
0.0081271483 0.048923239 0.35200003 4278991383
0.0092441076 0.048784252 0.35100001 4279189275
0.010354572 0.048645265 0.35000002 4279123480
0.01145854 0.048506279 0.34900001 4278992664
0.01251993 0.048228305 0.347 4279058970
0.013607659 0.048089322 0.34600002 4278796568
0.014688892 0.047950335 0.34500003 4278599189
0.015809454 0.047950335 0.34500003 4278796568
0.016880941 0.047811348 0.34400001 4278665496
0.017998252 0.047811348 0.34400001 4278731289
0.019059997 0.047672361 0.34300002 4278731289
0.020115245 0.047533374 0.34200001 4278665496
0.021226062 0.047533374 0.34200001 4278928666
0.022271566 0.047394387 0.34100002 4278797080
0.023310574 0.047255401 0.34 4278862875
0.024343086 0.047116414 0.33900002 4278862875
0.025369102 0.046977431 0.33800003 4278797082
0.026388623 0.04683844 0.33700001 4278797082
0.027401647 0.046699457 0.33600003 4278928670
0.028323375 0.046421483 0.33400002 4278993949
0.029320156 0.046282496 0.333 4279190045
0.030310445 0.046143509 0.33200002 4279584033
0.031294242 0.046004526 0.33100003 4279647775
0.032271534 0.045865536 0.33000001 4279186711
0.033141293 0.045587562 0.32800001 4278330634
0.03410235 0.045448579 0.32700002 4278196480
0.035056908 0.045309588 0.32600001 4278195457
0.036115758 0.045309588 0.32600001 4278196998
0.037060574 0.045170605 0.32500002 4278595089
0.037998892 0.045031615 0.324 4278989847
0.039051246 0.045031615 0.324 4279386654
0.039979823 0.044892631 0.32300001 4278991896
0.041028924 0.044892631 0.32300001 4278992664
0.04194776 0.044753648 0.32200003 4279124250
0.04299362 0.044753648 0.32200003 4279124252
0.043902703 0.044614658 0.32100001 4279058459
0.044945311 0.044614658 0.32100001 4278925336
0.045987923 0.044614658 0.32100001 4278200329
0.046884019 0.044475675 0.32000002 4279058459
0.047923379 0.044475675 0.32000002 4279058970
0.04880973 0.044336684 0.31900001 4278927382
0.049845841 0.044336684 0.31900001 4278928152
0.050881952 0.044336684 0.31900001 4278928152
0.051755317 0.044197701 0.31800002 4278862359
0.052788179 0.044197701 0.31800002 4278928152
0.053651791 0.04405871 0.317 4278730005
0.054681409 0.04405871 0.317 4278861076
0.055711027 0.04405871 0.317 4279123478
0.056740645 0.04405871 0.317 4279121945
0.05777026 0.04405871 0.317 4281554241
0.0035842503 0.050493632 0.35500002 4280296209
0.0047239466 0.050351396 0.354 4280231186
0.0058737388 0.050351396 0.354 4279442440
0.0070036915 0.050209161 0.35300002 4279377160
0.0081271483 0.050066926 0.35200003 4279115271
0.0092441076 0.04992469 0.35100001 4278392834
0.010354572 0.049782455 0.35000002 4279184146
0.011425707 0.049497984 0.34800002 4279447832
0.01251993 0.049355745 0.347 4279187478
0.013646987 0.049355745 0.347 4279320348
0.014731468 0.049213514 0.34600002 4279058459
0.015809454 0.049071278 0.34500003 4279058457
0.016930014 0.049071278 0.34500003 4278993177
0.017998252 0.048929039 0.34400001 4278927384
0.019115565 0.048929039 0.34400001 4278862361
0.020174062 0.048786808 0.34300002 4278862361
0.021226062 0.048644569 0.34200001 4278928152
0.022336878 0.048644569 0.34200001 4278993947
0.023379136 0.048502333 0.34100002 4278993947
0.024414893 0.048360098 0.34 4279257119
0.025444157 0.048217863 0.33900002 4278797082
0.026388623 0.047933392 0.33700001 4278862875
0.027401647 0.047791157 0.33600003 4278797082
0.028408175 0.047648918 0.33500001 4278862875
0.029320156 0.047364447 0.333 4278862361
0.030310445 0.047222216 0.33200002 4278993947
0.031294242 0.04707998 0.33100003 4279124763
0.032173742 0.04679551 0.32900003 4278992664
0.033141293 0.046653271 0.32800001 4279255066
0.03410235 0.046511035 0.32700002 4279320859
0.035056908 0.0463688 0.32600001 4279386141
0.036004975 0.046226565 0.32500002 4279649059
0.036946539 0.046084326 0.324 4280108326
0.037998892 0.046084326 0.324 4278791955
0.038930718 0.045942094 0.32300001 4278593293
0.039979823 0.045942094 0.32300001 4278196996
0.040901903 0.045799859 0.32200003 4278196482
0.04194776 0.045799859 0.32200003 4278329867
0.042860094 0.04565762 0.32100001 4279055127
0.043902703 0.04565762 0.32100001 4279187740
0.044945311 0.04565762 0.32100001 4279253019
0.045844659 0.045515388 0.32000002 4278266124
0.046884019 0.045515388 0.32000002 4279123998
0.047923379 0.045515388 0.32000002 4279124765
0.04880973 0.045373149 0.31900001 4279124761
0.049845841 0.045373149 0.31900001 4279124761
0.05072245 0.045230918 0.31800002 4278730003
0.051755317 0.045230918 0.31800002 4278993175
0.052788179 0.045230918 0.31800002 4278993177
0.053651791 0.045088679 0.317 4278730005
0.054681409 0.045088679 0.317 4278729492
0.055711027 0.045088679 0.317 4278860308
0.056740645 0.045088679 0.317 4279318299
0.05777026 0.045088679 0.317 4283198299
0.0070036915 0.051356092 0.35300002 4279704842
0.0081271483 0.051210608 0.35200003 4279507463
0.0092441076 0.051065121 0.35100001 4279310086
0.010324988 0.05077415 0.34900001 4279244809
0.011425707 0.05062867 0.34800002 4279179529
0.012556012 0.05062867 0.34800002 4278786054
0.013646987 0.050483182 0.347 4278786568
0.014731468 0.050337698 0.34600002 4278657287
0.015855277 0.050337698 0.34600002 4279053072
0.016930014 0.050192215 0.34500003 4279121172
0.018050574 0.050192215 0.34500003 4279450648
0.019115565 0.050046727 0.34400001 4279320346
0.020232879 0.050046727 0.34400001 4279320859
0.021288127 0.049901247 0.34300002 4279453730
0.022336878 0.04975576 0.34200001 4279585062
0.023379136 0.049610276 0.34100002 4279190304
0.024414893 0.049464788 0.34 4279124511
0.025444157 0.049319305 0.33900002 4279059488
0.026388623 0.049028337 0.33700001 4278993695
0.027401647 0.048882853 0.33600003 4278927902
0.028408175 0.048737366 0.33500001 4278993949
0.029408207 0.048591882 0.33400002 4278928154
0.030310445 0.048300914 0.33200002 4279124763
0.031294242 0.048155431 0.33100003 4279124763
0.032173742 0.047864459 0.32900003 4279124763
0.033040255 0.047573492 0.32700002 4278993947
0.033998061 0.047428004 0.32600001 4278928154
0.034949373 0.047282521 0.32500002 4278862361
0.035894189 0.047137033 0.324 4278993177
0.036946539 0.047137033 0.324 4279124763
0.037881613 0.046991549 0.32300001 4279124763
0.038930718 0.046991549 0.32300001 4279058459
0.039856046 0.046846069 0.32200003 4279124252
0.040901903 0.046846069 0.32200003 4278991129
0.041817486 0.046700582 0.32100001 4279121947
0.042860094 0.046700582 0.32100001 4279186459
0.043902703 0.046700582 0.32100001 4278198280
0.044805296 0.046555098 0.32000002 4278197766
0.045844659 0.046555098 0.32000002 4279515937
0.046884019 0.046555098 0.32000002 4279058718
0.047773615 0.046409611 0.31900001 4278928156
0.04880973 0.046409611 0.31900001 4278862363
0.049845841 0.046409611 0.31900001 4278796568
0.05072245 0.046264127 0.31800002 4278796568
0.051755317 0.046264127 0.31800002 4278796568
0.052788179 0.046264127 0.31800002 4278928154
0.053651791 0.046118639 0.317 4278599189
0.054681409 0.046118639 0.317 4278729492
0.055711027 0.046118639 0.317 4278860310
0.056740645 0.046118639 0.317 4279514141
0.05777026 0.046118639 0.317 4285105266
0.0092177708 0.052056827 0.35000002 4279704074
0.010324988 0.051908091 0.34900001 4279375625
0.011425707 0.051759358 0.34800002 4279113223
0.012556012 0.051759358 0.34800002 4279244809
0.013646987 0.051610623 0.347 4279179016
0.014731468 0.05146189 0.34600002 4279113223
0.015855277 0.05146189 0.34600002 4279311115
0.016979085 0.05146189 0.34600002 4279574541
0.018050574 0.051313158 0.34500003 4279838481
0.019171134 0.051313158 0.34500003 4280499745
0.020291695 0.051313158 0.34500003 4279579164
0.02135019 0.051164422 0.34400001 4280502323
0.022402192 0.05101569 0.34300002 4279515426
0.023447696 0.050866954 0.34200001 4279582244
0.024486704 0.050718222 0.34100002 4279977002
0.025519213 0.050569486 0.34 4279846186
0.026466928 0.050272021 0.33800003 4279583781
0.027401647 0.049974553 0.33600003 4279518758
0.028408175 0.049825817 0.33500001 4279452965
0.029408207 0.049677085 0.33400002 4279124511
0.03040174 0.049528349 0.333 4279256351
0.031483326 0.049528349 0.333 4279124765
0.032564908 0.049528349 0.333 4279124765
0.032939211 0.048487213 0.32600001 4279124765
0.033893771 0.04833848 0.32500002 4278993949
0.034949373 0.04833848 0.32500002 4278993949
0.035894189 0.048189744 0.324 4278928156
0.036832508 0.048041012 0.32300001 4279059740
0.037881613 0.048041012 0.32300001 4278993947
0.03881019 0.04789228 0.32200003 4278928154
0.039856046 0.04789228 0.32200003 4279125533
0.040774874 0.047743544 0.32100001 4279124763
0.041817486 0.047743544 0.32100001 4279124765
0.042860094 0.047743544 0.32100001 4279123998
0.043765936 0.047594812 0.32000002 4279255584
0.044805296 0.047594812 0.32000002 4279254814
0.045844659 0.047594812 0.32000002 4279123998
0.046737507 0.047446076 0.31900001 4279124765
0.047773615 0.047446076 0.31900001 4278993177
0.04880973 0.047446076 0.31900001 4278927384
0.049845841 0.047446076 0.31900001 4278928154
0.05072245 0.047297344 0.31800002 4278796568
0.051755317 0.047297344 0.31800002 4278796568
0.052788179 0.047297344 0.31800002 4278599189
0.053821042 0.047297344 0.31800002 4278532626
0.054681409 0.047148608 0.317 4278795285
0.055711027 0.047148608 0.317 4278794004
0.056740645 0.047148608 0.317 4279513375
0.011425707 0.052890044 0.34800002 4279309832
0.012556012 0.052890044 0.34800002 4279375625
0.013646987 0.052738059 0.347 4279309832
0.014774044 0.052738059 0.347 4279309834
0.015855277 0.052586075 0.34600002 4279244811
0.016979085 0.052586075 0.34600002 4279508235
0.018050574 0.052434094 0.34500003 4279574028
0.019171134 0.052434094 0.34500003 4281022757
0.020291695 0.052434094 0.34500003 4280563751
0.02135019 0.05228211 0.34400001 4286026628
0.022467503 0.05228211 0.34400001 4285960835
0.023516256 0.052130129 0.34300002 4286355593
0.024558511 0.051978145 0.34200001 4285631870
0.025594272 0.051826164 0.34100002 4283198299
0.026701842 0.051826164 0.34100002 4280106541
0.027809409 0.051826164 0.34100002 4279186976
0.028916979 0.051826164 0.34100002 4279318560
0.030024547 0.051826164 0.34100002 4279450658
0.031132113 0.051826164 0.34100002 4279714600
0.032239683 0.051826164 0.34100002 4279649320
0.033347253 0.051826164 0.34100002 4279715367
0.032838173 0.049394436 0.32500002 4279715367
0.033893771 0.049394436 0.32500002 4279452965
0.034841835 0.049242452 0.324 4279452963
0.035894189 0.049242452 0.324 4279321377
0.036832508 0.049090471 0.32300001 4279321631
0.037764337 0.04893849 0.32200003 4279650594
0.03881019 0.04893849 0.32200003 4279190558
0.03973227 0.048786502 0.32100001 4279059488
0.040774874 0.048786502 0.32100001 4278993695
0.041687217 0.048634522 0.32000002 4279059742
0.042726576 0.048634522 0.32000002 4278993949
0.043765936 0.048634522 0.32000002 4279124765
0.044805296 0.048634522 0.32000002 4279190558
0.045701392 0.048482537 0.31900001 4279058972
0.046737507 0.048482537 0.31900001 4279058970
0.047773615 0.048482537 0.31900001 4279058970
0.04880973 0.048482537 0.31900001 4279124763
0.049689587 0.048330557 0.31800002 4278927384
0.05072245 0.048330557 0.31800002 4278664982
0.051755317 0.048330557 0.31800002 4278796568
0.052788179 0.048330557 0.31800002 4278795283
0.053821042 0.048330557 0.31800002 4278729492
0.054853909 0.048330557 0.31800002 4278859543
0.055711027 0.048178572 0.317 4278858773
0.056740645 0.048178572 0.317 4281091893
0.013646987 0.0538655 0.347 4279507211
0.014774044 0.0538655 0.347 4279507211
0.015901102 0.0538655 0.347 4279375625
0.016979085 0.053710267 0.34600002 4279507211
0.018102894 0.053710267 0.34600002 4280033555
0.019226702 0.053710267 0.34600002 4280561184
0.020350512 0.053710267 0.34600002 4280694315
0.02147432 0.053710267 0.34600002 4285959808
0.022598127 0.053710267 0.34600002 4285959808
0.023721937 0.053710267 0.34600002 4286026114
0.024845745 0.053710267 0.34600002 4285894528
0.025969554 0.053710267 0.34600002 4285894528
0.027093364 0.053710267 0.34600002 4285828735
0.02821717 0.053710267 0.34600002 4285895042
0.029340981 0.053710267 0.34600002 4286487179
0.030464789 0.053710267 0.34600002 4286224261
0.031588595 0.053710267 0.34600002 4286027652
0.037764337 0.049984701 0.32200003 4279976488
0.038689662 0.049829468 0.32100001 4279780647
0.03973227 0.049829468 0.32100001 4279649574
0.040647853 0.049674239 0.32000002 4279452195
0.041687217 0.049674239 0.32000002 4279583781
0.042726576 0.049674239 0.32000002 4279584033
0.043765936 0.049674239 0.32000002 4279386654
0.044665277 0.049519002 0.31900001 4279321631
0.045701392 0.049519002 0.31900001 4279190045
0.046737507 0.049519002 0.31900001 4279190043
0.047773615 0.049519002 0.31900001 4279255836
0.048656721 0.049363773 0.31800002 4279190043
0.049689587 0.049363773 0.31800002 4278993177
0.05072245 0.049363773 0.31800002 4278795798
0.051755317 0.049363773 0.31800002 4278730005
0.052788179 0.049363773 0.31800002 4279255838
0.053821042 0.049363773 0.31800002 4278991896
0.054853909 0.049363773 0.31800002 4279187224
0.055886775 0.049363773 0.31800002 4279448348
0.040647853 0.050713949 0.32000002 4280698678
0.041687217 0.050713949 0.32000002 4279843369
0.042726576 0.050713949 0.32000002 4279909412
0.043629162 0.050555464 0.31900001 4279647264
0.044665277 0.050555464 0.31900001 4279581730
0.045701392 0.050555464 0.31900001 4279779623
0.046737507 0.050555464 0.31900001 4279648291
0.047773615 0.050555464 0.31900001 4279385117
0.048656721 0.050396986 0.31800002 4279451934
0.049689587 0.050396986 0.31800002 4279451934
0.05072245 0.050396986 0.31800002 4279320861
0.051755317 0.050396986 0.31800002 4279255068
0.052788179 0.050396986 0.31800002 4279451934
0.053821042 0.050396986 0.31800002 4278859027
0.054853909 0.050396986 0.31800002 4279908131
0.055886775 0.050396986 0.31800002 4283723873
0.040647853 0.051753663 0.32000002 4285697403
0.041687217 0.051753663 0.32000002 4285697403
0.042726576 0.051753663 0.32000002 4285696890
0.043629162 0.051591929 0.31900001 4285433977
0.044665277 0.051591929 0.31900001 4285565817
0.045701392 0.051591929 0.31900001 4285302645
0.046737507 0.051591929 0.31900001 4284842094
0.047773615 0.051591929 0.31900001 4283263576
0.048656721 0.051430203 0.31800002 4282276677
0.049689587 0.051430203 0.31800002 4281355575
0.05072245 0.051430203 0.31800002 4280368934
0.051755317 0.051430203 0.31800002 4280434727
0.052788179 0.051430203 0.31800002 4279909153
0.053821042 0.051430203 0.31800002 4282539851
0.054853909 0.051430203 0.31800002 4285236339
0.048656721 0.052463412 0.31800002 4284512616
0.049689587 0.052463412 0.31800002 4284709995
0.05072245 0.052463412 0.31800002 4284644713
0.051755317 0.052463412 0.31800002 4284513127
0.052788179 0.052463412 0.31800002 4284447334
0.053821042 0.052463412 0.31800002 4284644713
0.030381687 0.042907905 0.33333179 4294967295
0.030381687 0.042907905 0.33333179 4294901760
0.030381687 0.042907905 0.33383179 4294901760
0.030381687 0.042907905 0.33433178 4294901760
0.030381687 0.042907905 0.3348318 4294901760
0.030381687 0.042907905 0.3353318 4294901760
0.030381687 0.042907905 0.33583179 4294901760
0.030381687 0.042907905 0.33633178 4294901760
0.030381687 0.042907905 0.33683181 4294901760
0.030381687 0.042907905 0.3373318 4294901760
0.030381687 0.042907905 0.3378318 4294901760
0.030381687 0.042907905 0.33833179 4294901760
0.030381687 0.042907905 0.33883178 4294901760
0.030381687 0.042907905 0.33933181 4294901760
0.030381687 0.042907905 0.3398318 4294901760
0.030381687 0.042907905 0.34033179 4294901760
0.030381687 0.042907905 0.34083179 4294901760
0.030381687 0.042907905 0.34133178 4294901760
0.030381687 0.042907905 0.3418318 4294901760
0.030381687 0.042907905 0.3423318 4294901760
0.030381687 0.042907905 0.34283179 4294901760
0.030381687 0.042907905 0.34333178 4294901760
0.030381687 0.042907905 0.34383181 4294901760
0.030381687 0.042907905 0.3443318 4294901760
0.030381687 0.042907905 0.34483179 4294901760
0.030381687 0.042907905 0.34533179 4294901760
0.030381687 0.042907905 0.34583181 4294901760
0.030381687 0.042907905 0.3463318 4294901760
0.030381687 0.042907905 0.3468318 4294901760
0.030381687 0.042907905 0.34733179 4294901760
0.030381687 0.042907905 0.34783179 4294901760
0.030381687 0.042907905 0.34833181 4294901760
0.030381687 0.042907905 0.3488318 4294901760
0.030381687 0.042907905 0.3493318 4294901760
0.030381687 0.042907905 0.34983179 4294901760
0.030381687 0.042907905 0.35033178 4294901760
0.030381687 0.042907905 0.35083181 4294901760
0.030381687 0.042907905 0.3513318 4294901760
0.030381687 0.042907905 0.35183179 4294901760
0.030381687 0.042907905 0.35233179 4294901760
0.030381687 0.042907905 0.35283181 4294901760
0.030381687 0.042907905 0.3533318 4294901760
0.030381687 0.042907905 0.3538318 4294901760
0.030381687 0.042907905 0.35433179 4294901760
0.030381687 0.042907905 0.35483181 4294901760
0.030381687 0.042907905 0.35533181 4294901760
0.030381687 0.042907905 0.3558318 4294901760
0.030381687 0.042907905 0.3563318 4294901760
0.030381687 0.042907905 0.35683179 4294901760
0.030381687 0.042907905 0.35733181 4294901760
0.030381687 0.042907905 0.35783181 4294901760
0.030381687 0.042907905 0.3583318 4294901760
0.030381687 0.042907905 0.35883179 4294901760
0.030381687 0.042907905 0.35933179 4294901760
0.030381687 0.042907905 0.35983181 4294901760
0.030381687 0.042907905 0.3603318 4294901760
0.030381687 0.042907905 0.3608318 4294901760
0.030381687 0.042907905 0.36133179 4294901760
0.030381687 0.042907905 0.36183178 4294901760
0.030381687 0.042907905 0.36233181 4294901760
0.030381687 0.042907905 0.3628318 4294901760
0.030381687 0.042907905 0.36333179 4294901760
0.030381687 0.042907905 0.36383179 4294901760
0.030381687 0.042907905 0.36433181 4294901760
0.030381687 0.042907905 0.36483181 4294901760
0.030381687 0.042907905 0.3653318 4294901760
0.030381687 0.042907905 0.36583179 4294901760
0.030381687 0.042907905 0.36633182 4294901760
0.030381687 0.042907905 0.36683181 4294901760
0.030381687 0.042907905 0.3673318 4294901760
0.030381687 0.042907905 0.3678318 4294901760
0.030381687 0.042907905 0.36833179 4294901760
0.030381687 0.042907905 0.36883181 4294901760
0.030381687 0.042907905 0.36933181 4294901760
0.030381687 0.042907905 0.3698318 4294901760
0.030381687 0.042907905 0.37033179 4294901760
0.030381687 0.042907905 0.37083179 4294901760
0.030381687 0.042907905 0.37133181 4294901760
0.030381687 0.042907905 0.3718318 4294901760
0.030381687 0.042907905 0.3723318 4294901760
0.030381687 0.042907905 0.37283179 4294901760
0.030381687 0.042907905 0.37333182 4294901760
0.030381687 0.042907905 0.37383181 4294901760
0.030381687 0.042907905 0.3743318 4294901760
0.030381687 0.042907905 0.3748318 4294901760
0.030381687 0.042907905 0.37533179 4294901760
0.030381687 0.042907905 0.37583181 4294901760
0.030381687 0.042907905 0.37633181 4294901760
0.030381687 0.042907905 0.3768318 4294901760
0.030381687 0.042907905 0.37733179 4294901760
0.030381687 0.042907905 0.37783182 4294901760
0.030381687 0.042907905 0.37833181 4294901760
0.030381687 0.042907905 0.3788318 4294901760
0.030381687 0.042907905 0.3793318 4294901760
0.030381687 0.042907905 0.37983179 4294901760
0.030381687 0.042907905 0.38033181 4294901760
0.030381687 0.042907905 0.38083181 4294901760
0.030381687 0.042907905 0.3813318 4294901760
0.030381687 0.042907905 0.38183179 4294901760
0.030381687 0.042907905 0.38233182 4294901760
0.030381687 0.042907905 0.38283181 4294901760
0.030381687 0.042907905 0.38333181 4294901760
0.030381687 0.042907905 0.33333179 4278255360
0.030713346 0.042912759 0.33370593 4278255360
0.031045005 0.042917617 0.33408007 4278255360
0.031376664 0.042922471 0.33445421 4278255360
0.031708322 0.042927325 0.33482835 4278255360
0.032039981 0.042932183 0.33520249 4278255360
0.03237164 0.042937037 0.33557662 4278255360
0.032703299 0.042941891 0.33595076 4278255360
0.033034958 0.042946745 0.3363249 4278255360
0.033366621 0.042951602 0.33669904 4278255360
0.033698279 0.042956457 0.33707318 4278255360
0.034029938 0.042961311 0.33744732 4278255360
0.034361597 0.042966168 0.33782145 4278255360
0.034693256 0.042971022 0.33819556 4278255360
0.035024915 0.042975876 0.3385697 4278255360
0.035356574 0.042980731 0.33894384 4278255360
0.035688233 0.042985588 0.33931798 4278255360
0.036019892 0.042990442 0.33969212 4278255360
0.03635155 0.042995296 0.34006625 4278255360
0.036683209 0.043000154 0.34044039 4278255360
0.037014868 0.043005008 0.34081453 4278255360
0.037346527 0.043009862 0.34118867 4278255360
0.037678186 0.04301472 0.34156281 4278255360
0.038009845 0.043019574 0.34193695 4278255360
0.038341507 0.043024428 0.34231108 4278255360
0.038673162 0.043029286 0.34268522 4278255360
0.039004825 0.04303414 0.34305936 4278255360
0.039336484 0.043038994 0.3434335 4278255360
0.039668143 0.043043848 0.34380764 4278255360
0.039999802 0.043048706 0.34418178 4278255360
0.040331461 0.04305356 0.34455591 4278255360
0.040663119 0.043058414 0.34493005 4278255360
0.040994778 0.043063272 0.34530419 4278255360
0.041326437 0.043068126 0.34567833 4278255360
0.041658096 0.04307298 0.34605247 4278255360
0.041989755 0.043077834 0.34642661 4278255360
0.042321414 0.043082692 0.34680074 4278255360
0.042653073 0.043087546 0.34717488 4278255360
0.042984731 0.0430924 0.34754899 4278255360
0.04331639 0.043097258 0.34792313 4278255360
0.043648049 0.043102112 0.34829727 4278255360
0.043979712 0.043106966 0.34867141 4278255360
0.044311367 0.043111823 0.34904554 4278255360
0.04464303 0.043116678 0.34941968 4278255360
0.044974685 0.043121532 0.34979382 4278255360
0.045306347 0.043126389 0.35016796 4278255360
0.045638006 0.043131243 0.3505421 4278255360
0.045969665 0.043136097 0.35091624 4278255360
0.046301324 0.043140952 0.35129037 4278255360
0.046632983 0.043145809 0.35166451 4278255360
0.046964642 0.043150663 0.35203865 4278255360
0.047296301 0.043155517 0.35241279 4278255360
0.047627959 0.043160375 0.35278693 4278255360
0.047959618 0.043165229 0.35316107 4278255360
0.048291281 0.043170083 0.35353521 4278255360
0.048622936 0.043174937 0.35390934 4278255360
