# .PCD v0.7 - Point Cloud Data file format
VERSION 0.7
FIELDS x y z rgb
SIZE 4 4 4 4
TYPE F F F U
COUNT 1 1 1 1
WIDTH 882
HEIGHT 1
VIEWPOINT 0 0 0 1 0 0 0
POINTS 882
DATA ascii
-0.013917926 0.041948669 0.54300004 4279190558
-0.012154262 0.041948669 0.54300004 4278929181
-0.013815399 0.043390919 0.53900003 4279255838
-0.012064727 0.043390919 0.53900003 4278928668
-0.013764136 0.044974681 0.537 4279190045
-0.011997576 0.044890929 0.53600001 4279125535
-0.010218376 0.044723429 0.53400004 4278797084
-0.0084203929 0.044388421 0.53000003 4278862877
-0.0066736727 0.044220913 0.528 4278731291
-0.003206922 0.043718405 0.52200001 4278665496
-0.0015085696 0.043634653 0.52100003 4278400529
-0.013712874 0.046545446 0.53500003 4278795546
-0.011930427 0.046371449 0.53300005 4278862877
-0.01016097 0.046197444 0.53100002 4278928670
-0.0083886171 0.045936439 0.528 4279191842
-0.0066483943 0.045762438 0.52600002 4278862877
-0.0049211625 0.045588441 0.52400005 4278928670
-0.0032007785 0.045327436 0.52100003 4278928156
-0.0015027786 0.045153435 0.51900005 4278200841
0.00018222946 0.044979431 0.51700002 4278925849
0.0018578459 0.04489243 0.51600003 4278795798
0.0035201176 0.044718426 0.514 4278796568
0.0051895902 0.044718426 0.514 4278468119
0.0068457192 0.044631429 0.51300001 4278533912
-0.013661611 0.048103224 0.53300005 4279256867
-0.011885659 0.047922719 0.53100002 4278862623
-0.010122699 0.047742222 0.52900004 4278928416
-0.0083568422 0.047471471 0.52600002 4278796830
-0.0066231154 0.047290973 0.52400005 4278862623
-0.0049023791 0.047110472 0.52200001 4278731291
-0.003194635 0.046929974 0.52000004 4278862363
-0.0014998829 0.046749469 0.51800001 4278197762
0.000181877 0.046568971 0.51600003 4279057176
0.0018542454 0.046478722 0.51500005 4278198275
0.0035201176 0.04638847 0.514 4278197256
0.0051794942 0.046298221 0.51300001 4278196744
0.0068323747 0.046207972 0.51200002 4278196227
0.0084787589 0.046117723 0.51100004 4278199816
0.010118648 0.046027474 0.51000005 4278989845
0.01175204 0.045937221 0.509 4279255068
0.013378936 0.045846973 0.50800002 4278663699
0.015028921 0.045846973 0.50800002 4279058970
0.016646074 0.045756724 0.50700003 4278730005
0.018256729 0.045666475 0.50600004 4278664984
0.01990022 0.045666475 0.50600004 4278533912
0.021501129 0.045576219 0.505 4278533912
0.025794007 0.044493224 0.49300003 4278731037
0.027284136 0.044312723 0.49100003 4278599964
0.028820088 0.04422247 0.49000001 4278665757
0.030287482 0.044041973 0.48800004 4278863136
0.031807192 0.043951724 0.48700002 4278863390
0.033320412 0.043861475 0.48600003 4278928929
0.034827128 0.043771222 0.48500001 4279389228
0.036327351 0.043680973 0.48400003 4280900670
-0.013635978 0.049741492 0.53200001 4278927902
-0.011863275 0.049554497 0.53000003 4278796830
-0.010103562 0.049367495 0.528 4278796830
-0.0083409548 0.049086999 0.52500004 4278862623
-0.006610475 0.048900001 0.523 4278862623
-0.0048929877 0.048713002 0.52100003 4278796830
-0.0031884916 0.048526008 0.51900005 4279323174
-0.0014969874 0.048339006 0.51700002 4278198790
0.000181877 0.048245508 0.51600003 4279582496
0.0018542454 0.048152011 0.51500005 4278196999
0.0035201176 0.048058506 0.514 4278655502
0.0051794942 0.047965009 0.51300001 4278720525
0.0068323747 0.047871511 0.51200002 4278720525
0.0084621664 0.047684517 0.51000005 4278654732
0.010098807 0.047591012 0.509 4278523916
0.01175204 0.047591012 0.509 4278655756
0.013378936 0.047497515 0.50800002 4278393095
0.014999337 0.047404017 0.50700003 4278195456
0.016646074 0.047404017 0.50700003 4278398222
0.018256729 0.04731052 0.50600004 4278198273
0.01986089 0.047217015 0.505 4278201099
0.021458555 0.047123518 0.50400001 4278662679
0.022958076 0.046843026 0.50100005 4279386400
0.024389032 0.046469025 0.49700001 4278927132
0.025898648 0.046282031 0.49500003 4278664730
0.027395273 0.046095032 0.49300003 4278664984
0.028878905 0.045908034 0.49100003 4278599189
0.030349545 0.045721035 0.48900002 4278533910
0.031872503 0.045627534 0.48800004 4278533910
0.033388969 0.045534037 0.48700002 4278337044
0.034898937 0.045440536 0.48600003 4278666011
0.036402408 0.045347035 0.48500001 4278599964
0.037977692 0.045347035 0.48500001 4278863136
0.039471418 0.045253538 0.48400003 4278797345
-0.015421676 0.051663514 0.53400004 4279321377
-0.013610347 0.051373266 0.53100002 4278927902
-0.011840892 0.05117977 0.52900004 4278928416
-0.010065292 0.050889526 0.52600002 4278862623
-0.0083250673 0.05069603 0.52400005 4278797084
-0.006597836 0.050502531 0.52200001 4278797084
-0.0048835962 0.05030904 0.52000004 4278665498
-0.0031823479 0.050115541 0.51800001 4279322914
-0.0014969874 0.050018791 0.51700002 4278200329
0.00018152452 0.0498253 0.51500005 4279057176
0.0018506448 0.049728546 0.514 4278722828
0.0035132691 0.049631801 0.51300001 4279445270
0.0051693977 0.049535051 0.51200002 4278984721
0.0068190307 0.049438305 0.51100004 4280103202
0.0084621664 0.049341559 0.51000005 4279774237
0.010098807 0.049244806 0.509 4280103202
0.01175204 0.049244806 0.509 4279049744
0.013378936 0.049148057 0.50800002 4278984721
0.014999337 0.049051311 0.50700003 4278262281
0.016646074 0.049051311 0.50700003 4279581984
0.018256729 0.048954565 0.50600004 4278991383
0.01986089 0.048857812 0.505 4279188762
0.021415979 0.048664317 0.50300002 4279188508
0.022958076 0.048470825 0.50100005 4279188508
0.024438106 0.048180576 0.49800003 4278661394
0.025950968 0.047987081 0.49600002 4278199303
0.027450841 0.047793586 0.49400002 4278196736
0.02893772 0.047600087 0.49200001 4278197504
0.030473674 0.047503341 0.49100003 4278199303
0.032003127 0.047406591 0.49000001 4278859543
0.033526093 0.047309846 0.48900002 4278531091
0.035042554 0.047213096 0.48800004 4278992412
0.036552522 0.047116347 0.48700002 4278928156
0.038134299 0.047116347 0.48700002 4278797084
0.039716076 0.047116347 0.48700002 4278402326
0.041213054 0.047019601 0.48600003 4278533658
0.043143775 0.047406591 0.49000001 4278862623
0.044826593 0.047503341 0.49100003 4278862363
0.046515908 0.047600087 0.49200001 4278928156
0.048211716 0.047696836 0.49300003 4279519269
0.049914021 0.047793586 0.49400002 4281954130
0.051622823 0.047890335 0.49500003 4280243510
0.053230584 0.047890335 0.49500003 4279519787
-0.015421676 0.053398531 0.53400004 4278795546
-0.013610347 0.053098537 0.53100002 4278993695
-0.011840892 0.052898549 0.52900004 4278797084
-0.010065292 0.052598555 0.52600002 4278731291
-0.0083091799 0.052298561 0.523 4278862875
-0.0065851966 0.052098569 0.52100003 4278797082
-0.0048742048 0.051898576 0.51900005 4278797082
-0.0031823479 0.051798575 0.51800001 4278992666
-0.0014940919 0.051598582 0.51600003 4278726673
0.00018152452 0.051498584 0.51500005 4279780129
0.0018506448 0.051398583 0.514 4278723082
0.0035132691 0.051298589 0.51300001 4278788621
0.0051693977 0.051198591 0.51200002 4279709725
0.0068190307 0.051098596 0.51100004 4279578139
0.0084621664 0.050998598 0.51000005 4278195461
0.010098807 0.050898597 0.509 4278195459
0.01175204 0.050898597 0.509 4278328072
0.013378936 0.050798602 0.50800002 4279314967
0.014999337 0.050698604 0.50700003 4278195203
0.016613243 0.05059861 0.50600004 4279253019
0.018256729 0.05059861 0.50600004 4278529808
0.01982156 0.050398611 0.50400001 4278329351
0.021415979 0.050298616 0.50300002 4278529808
0.022958076 0.050098624 0.50100005 4278465039
0.024487179 0.049898628 0.49900001 4278991129
0.026003288 0.049698632 0.49700001 4278991642
0.027506409 0.04949864 0.49500003 4279583779
0.029055353 0.049398642 0.49400002 4279584033
0.030535737 0.049198646 0.49200001 4279452447
0.032068443 0.049098648 0.49100003 4279320861
0.033663213 0.049098648 0.49100003 4279188508
0.035186172 0.04899865 0.49000001 4278266636
0.03677769 0.04899865 0.49000001 4278198535
0.03829091 0.048898656 0.48900002 4278197765
0.03987918 0.048898656 0.48900002 4278196480
0.041467454 0.048898656 0.48900002 4278595089
0.043231826 0.049098648 0.49100003 4278859797
0.044917889 0.049198646 0.49200001 4279453215
0.046610452 0.049298644 0.49300003 4278928154
0.048309509 0.049398642 0.49400002 4278533396
0.050015066 0.04949864 0.49500003 4278336279
0.051622823 0.04949864 0.49500003 4278862623
0.053230584 0.04949864 0.49500003 4278862623
0.054949131 0.049598634 0.49600002 4279125795
0.056560136 0.049598634 0.49600002 4279975979
-0.015421676 0.055133551 0.53400004 4279190558
-0.013610347 0.054823812 0.53100002 4279059742
-0.011840892 0.054617323 0.52900004 4278862877
-0.010065292 0.05430758 0.52600002 4278797084
-0.0083091799 0.053997841 0.523 4278862875
-0.0065851966 0.053791348 0.52100003 4278797082
-0.0048742048 0.053584859 0.51900005 4278731289
-0.0031762044 0.053378362 0.51700002 4279190045
-0.0014940919 0.05327512 0.51600003 4279187226
0.00018152452 0.053171873 0.51500005 4279385117
0.0018506448 0.053068623 0.514 4278524681
0.0035132691 0.052965377 0.51300001 4278590476
0.0051693977 0.05286213 0.51200002 4278655502
0.0068190307 0.052758887 0.51100004 4278523916
0.0084621664 0.052655641 0.51000005 4278655502
0.010098807 0.052552391 0.509 4278720525
0.01175204 0.052552391 0.509 4279248402
0.013378936 0.052449144 0.50800002 4279643930
0.014999337 0.052345902 0.50700003 4278194688
0.016613243 0.052242655 0.50600004 4279187226
0.018220648 0.052139405 0.505 4278263304
0.01982156 0.052036159 0.50400001 4278787853
0.021415979 0.051932916 0.50300002 4278657550
0.022958076 0.051726423 0.50100005 4279185943
0.02453625 0.051623173 0.5 4279845668
0.02605561 0.051416684 0.49800003 4278727187
0.027617546 0.051313434 0.49700001 4278858773
0.029114172 0.051106945 0.49500003 4278595601
0.030659867 0.051003698 0.49400002 4279255068
0.032199066 0.050900452 0.49300003 4279189275
0.033731773 0.050797205 0.49200001 4278861080
0.035329789 0.050797205 0.49200001 4279189791
0.036852747 0.050693959 0.49100003 4279255068
0.038447518 0.050693959 0.49100003 4279189275
0.040042285 0.050693959 0.49100003 4279320348
0.041637056 0.050693959 0.49100003 4279715106
0.043407921 0.050900452 0.49300003 4279450910
0.045009185 0.050900452 0.49300003 4278529808
0.046704996 0.051003698 0.49400002 4278993177
0.048407301 0.051106945 0.49500003 4278993947
0.050015066 0.051106945 0.49500003 4278862361
0.051727112 0.051210191 0.49600002 4278862361
0.053338118 0.051210191 0.49600002 4278599189
0.054949131 0.051210191 0.49600002 4278599191
0.056560136 0.051210191 0.49600002 4278595351
-0.015479434 0.057081562 0.53600001 4279124765
-0.013661611 0.056762081 0.53300005 4278731291
-0.011863275 0.056442592 0.53000003 4278666011
-0.010065292 0.056016609 0.52600002 4278600218
-0.0083091799 0.055697121 0.523 4278600216
-0.0065851966 0.055484131 0.52100003 4278600216
-0.0048742048 0.055271141 0.51900005 4278797084
-0.0031762044 0.055058148 0.51700002 4278202382
-0.0014940919 0.054951653 0.51600003 4278200330
0.00018152452 0.054845162 0.51500005 4279189021
0.0018506448 0.054738659 0.514 4279976740
0.0035132691 0.054632165 0.51300001 4279449115
0.0051693977 0.054525673 0.51200002 4278460685
0.0068190307 0.054419179 0.51100004 4278262794
0.0084621664 0.054312684 0.51000005 4278523400
0.010098807 0.054206181 0.509 4279114769
0.01175204 0.054206181 0.509 4278786318
0.013378936 0.05409969 0.50800002 4278786318
0.014999337 0.053993195 0.50700003 4278196742
0.016613243 0.0538867 0.50600004 4279187740
0.018220648 0.053780202 0.505 4278658062
0.01982156 0.053673707 0.50400001 4278721547
0.021415979 0.053567212 0.50300002 4279579934
0.0230039 0.053460717 0.50200003 4278200074
0.02453625 0.053247724 0.5 4278201097
0.02610793 0.053141229 0.49900001 4278595855
0.027617546 0.052928239 0.49700001 4279121431
0.029172987 0.052821744 0.49600002 4278199301
0.030721933 0.052715249 0.49500003 4278200072
0.032264378 0.052608754 0.49400002 4278266124
0.033868894 0.052608754 0.49400002 4278200331
0.035401598 0.05250226 0.49300003 4278266638
0.037002861 0.05250226 0.49300003 4278200328
0.038604129 0.05250226 0.49300003 4278925336
0.040205393 0.05250226 0.49300003 4278596625
0.041806657 0.05250226 0.49300003 4279320861
0.043495968 0.052608754 0.49400002 4279320348
0.04510048 0.052608754 0.49400002 4278596625
0.046799541 0.052715249 0.49500003 4279058970
0.048407301 0.052715249 0.49500003 4278928154
0.050116103 0.052821744 0.49600002 4278862361
0.051727112 0.052821744 0.49600002 4278796568
0.053338118 0.052821744 0.49600002 4278533396
0.054949131 0.052821744 0.49600002 4278730005
0.056560136 0.052821744 0.49600002 4278200844
-0.013712874 0.058713336 0.53500003 4279124250
-0.011908042 0.058384102 0.53200001 4278796570
-0.010084427 0.057835378 0.52700001 4278796570
-0.0083250673 0.057506148 0.52400005 4278599191
-0.0065851966 0.057176914 0.52100003 4278862363
-0.0048742048 0.056957427 0.51900005 4278467605
-0.0031823479 0.056847677 0.51800001 4278795800
-0.0014940919 0.05662819 0.51600003 4278795546
0.00018152452 0.056518447 0.51500005 4278927132
0.0018506448 0.0564087 0.514 4278927386
0.0035132691 0.056298956 0.51300001 4278927386
0.0051693977 0.056189213 0.51200002 4278992925
0.0068190307 0.05607947 0.51100004 4279058205
0.0084621664 0.055969726 0.51000005 4279254303
0.010098807 0.055859976 0.509 4279187486
0.01175204 0.055859976 0.509 4279318045
0.013378936 0.055750232 0.50800002 4279252252
0.014999337 0.055640489 0.50700003 4279186459
0.016613243 0.055530746 0.50600004 4278196224
0.018220648 0.055420995 0.505 4278197509
0.01982156 0.055311255 0.50400001 4278395662
0.021415979 0.055201512 0.50300002 4278658832
0.0230039 0.055091769 0.50200003 4279383838
0.02453625 0.054872274 0.5 4279187738
0.02610793 0.054762531 0.49900001 4278925590
0.027673116 0.054652788 0.49800003 4278991383
0.029231803 0.054543041 0.49700001 4279649059
0.030783996 0.054433297 0.49600002 4279254301
0.032329693 0.054323554 0.49500003 4279319324
0.033937454 0.054323554 0.49500003 4278792468
0.035473406 0.054213811 0.49400002 4278199820
0.037077915 0.054213811 0.49400002 4278331917
0.038682431 0.054213811 0.49400002 4278199303
0.040286943 0.054213811 0.49400002 4278726160
0.041891459 0.054213811 0.49400002 4279582750
0.043495968 0.054213811 0.49400002 4279978278
0.04519178 0.054323554 0.49500003 4279385371
0.046799541 0.054323554 0.49500003 4279058457
0.048505094 0.054433297 0.49600002 4279058970
0.050116103 0.054433297 0.49600002 4278993177
0.051727112 0.054433297 0.49600002 4278927384
0.053338118 0.054433297 0.49600002 4278795798
0.054949131 0.054433297 0.49600002 4278664212
0.056560136 0.054433297 0.49600002 4279056924
-0.0083409548 0.059321672 0.52500004 4278595341
-0.006597836 0.058982685 0.52200001 4279056406
-0.0048835962 0.058756702 0.52000004 4278860310
-0.0031823479 0.058530711 0.51800001 4278794517
-0.0014969874 0.058417719 0.51700002 4278729753
0.00018152452 0.058191735 0.51500005 4278992925
0.0018506448 0.058078736 0.514 4278992925
0.0035132691 0.057965744 0.51300001 4278862109
0.0051693977 0.057852753 0.51200002 4278862109
0.0068190307 0.057739761 0.51100004 4278862109
0.0084621664 0.057626769 0.51000005 4278862109
0.010098807 0.05751377 0.509 4278927902
0.01175204 0.05751377 0.509 4278927902
0.013378936 0.057400778 0.50800002 4278862109
0.014999337 0.057287782 0.50700003 4278992925
0.016613243 0.057174791 0.50600004 4279058205
0.018220648 0.057061791 0.505 4279123228
0.01982156 0.0569488 0.50400001 4279254814
0.021415979 0.056835808 0.50300002 4280043047
0.0230039 0.056722816 0.50200003 4279056152
0.02453625 0.056496825 0.5 4279055640
0.02610793 0.056383833 0.49900001 4278199303
0.027673116 0.056270842 0.49800003 4278196480
0.02929062 0.056270842 0.49800003 4278198021
0.030846059 0.056157846 0.49700001 4278200331
0.032395005 0.056044854 0.49600002 4278792466
0.034006014 0.056044854 0.49600002 4279647775
0.035545215 0.055931862 0.49500003 4279648289
0.037152976 0.055931862 0.49500003 4279121945
0.038760737 0.055931862 0.49500003 4279187738
0.040368497 0.055931862 0.49500003 4279056924
0.041976258 0.055931862 0.49500003 4279320607
0.043584019 0.055931862 0.49500003 4279912231
0.04519178 0.055931862 0.49500003 4279187224
0.046894085 0.056044854 0.49600002 4279124250
0.048505094 0.056044854 0.49600002 4279255836
0.050217144 0.056157846 0.49700001 4279124248
0.051831398 0.056157846 0.49700001 4278927382
0.053445652 0.056157846 0.49700001 4278993175
0.054949131 0.056044854 0.49600002 4278598419
0.056560136 0.056044854 0.49600002 4278794011
-0.0048929877 0.060562477 0.52100003 4278656517
-0.0031884916 0.060329996 0.51900005 4279052558
-0.0014969874 0.060097504 0.51700002 4279054357
0.000181877 0.059981264 0.51600003 4279121433
0.0018506448 0.059748773 0.514 4278794015
0.0035132691 0.059632532 0.51300001 4279451943
0.0051693977 0.059516292 0.51200002 4279452713
0.0068190307 0.059400052 0.51100004 4279452711
0.0084787589 0.059400052 0.51100004 4279255586
0.010118648 0.059283808 0.51000005 4279189793
0.01175204 0.05916756 0.509 4278992927
0.013378936 0.05905132 0.50800002 4278992925
0.014999337 0.05893508 0.50700003 4278993695
0.016613243 0.058818836 0.50600004 4278796316
0.018220648 0.058702588 0.505 4278928156
0.019782232 0.058470108 0.50300002 4279058972
0.021373402 0.058353864 0.50200003 4278927386
0.022958076 0.058237623 0.50100005 4279058459
0.02453625 0.058121376 0.5 4278861080
0.026160249 0.058121376 0.5 4278992412
0.027728682 0.058005136 0.49900001 4278860826
0.02929062 0.057888892 0.49800003 4279386400
0.030846059 0.057772648 0.49700001 4279320607
0.032460317 0.057772648 0.49700001 4279451680
0.034006014 0.057656407 0.49600002 4279319324
0.035617024 0.057656407 0.49600002 4278398222
0.037152976 0.057540167 0.49500003 4278197762
0.038760737 0.057540167 0.49500003 4278196736
0.040368497 0.057540167 0.49500003 4278197765
0.041976258 0.057540167 0.49500003 4278397456
0.043584019 0.057540167 0.49500003 4278923287
0.045283075 0.057656407 0.49600002 4279121431
0.046894085 0.057656407 0.49600002 4279190043
0.048602883 0.057772648 0.49700001 4279255836
0.050217144 0.057772648 0.49700001 4279058455
0.051831398 0.057772648 0.49700001 4278927382
0.053445652 0.057772648 0.49700001 4278927382
0.055059914 0.057772648 0.49700001 4278795798
0.056560136 0.057656407 0.49600002 4278332947
0.0035132691 0.06129932 0.51300001 4285436028
0.0051693977 0.061179832 0.51200002 4285764226
0.0068190307 0.061060343 0.51100004 4284711538
0.0084787589 0.061060343 0.51100004 4281290815
0.010098807 0.060821354 0.509 4280042031
0.01175204 0.060821354 0.509 4279055902
0.013378936 0.060701862 0.50800002 4280042795
0.014999337 0.060582373 0.50700003 4279386148
0.016613243 0.060462881 0.50600004 4279321125
0.018184567 0.060223896 0.50400001 4279123746
0.019782232 0.060104404 0.50300002 4279452965
0.021373402 0.059984915 0.50200003 4278927134
0.022958076 0.059865423 0.50100005 4279124511
0.02453625 0.059745926 0.5 4278927386
0.026160249 0.059745926 0.5 4278927386
0.027728682 0.059626438 0.49900001 4278927386
0.02929062 0.059506945 0.49800003 4278795800
0.030908126 0.059506945 0.49800003 4278992666
0.032460317 0.059387453 0.49700001 4279058459
0.034006014 0.05926796 0.49600002 4278992666
0.035617024 0.05926796 0.49600002 4279255838
0.037228029 0.05926796 0.49600002 4279189275
0.038760737 0.059148472 0.49500003 4279255066
0.040368497 0.059148472 0.49500003 4279386141
0.041976258 0.059148472 0.49500003 4279912231
0.043672066 0.05926796 0.49600002 4279582496
0.045283075 0.05926796 0.49600002 4279450910
0.046988629 0.059387453 0.49700001 4279189275
0.048602883 0.059387453 0.49700001 4279124252
0.050217144 0.059387453 0.49700001 4279256349
0.051831398 0.059387453 0.49700001 4278927384
0.053445652 0.059387453 0.49700001 4278598419
0.055059914 0.059387453 0.49700001 4278795287
0.056674168 0.059387453 0.49700001 4279712037
0.010098807 0.062475145 0.509 4285237112
0.01175204 0.062475145 0.509 4285434745
0.013378936 0.062352408 0.50800002 4285895296
0.014999337 0.062229667 0.50700003 4285500538
0.016580408 0.061984181 0.505 4284448366
0.018184567 0.061861441 0.50400001 4281882954
0.019782232 0.061738703 0.50300002 4280633139
0.021373402 0.061615963 0.50200003 4279581217
0.022958076 0.061493225 0.50100005 4279252765
0.02453625 0.061370477 0.5 4279188258
0.026160249 0.061370477 0.5 4279122978
0.027728682 0.061247736 0.49900001 4279386402
0.02929062 0.061124999 0.49800003 4279649061
0.030908126 0.061124999 0.49800003 4279517475
0.032460317 0.061002254 0.49700001 4279386402
0.034074575 0.061002254 0.49700001 4279124000
0.035617024 0.060879517 0.49600002 4279124000
0.037228029 0.060879517 0.49600002 4279189791
0.038839042 0.060879517 0.49600002 4279124252
0.040450048 0.060879517 0.49600002 4279190045
0.042061061 0.060879517 0.49600002 4278861080
0.043672066 0.060879517 0.49600002 4279058205
0.045283075 0.060879517 0.49600002 4279123998
0.046988629 0.061002254 0.49700001 4279123998
0.048602883 0.061002254 0.49700001 4279058205
0.050217144 0.061002254 0.49700001 4279058972
0.051935688 0.061124999 0.49800003 4278927386
0.053445652 0.061002254 0.49700001 4278992666
0.055059914 0.061002254 0.49700001 4278793750
0.056674168 0.061002254 0.49700001 4283789920
0.018184567 0.063498996 0.50400001 4284513129
0.019782232 0.063373007 0.50300002 4284644715
0.021373402 0.063247018 0.50200003 4284382055
0.022958076 0.063121028 0.50100005 4284382055
0.02453625 0.062995031 0.5 4284447334
0.026160249 0.062995031 0.5 4285039985
0.027728682 0.062869042 0.49900001 4284778098
0.02929062 0.062743053 0.49800003 4284120168
0.030908126 0.062743053 0.49800003 4283790688
0.032460317 0.062617064 0.49700001 4283330137
0.034074575 0.062617064 0.49700001 4281619519
0.035617024 0.062491074 0.49600002 4280040487
0.037228029 0.062491074 0.49600002 4279712805
0.038839042 0.062491074 0.49600002 4279186974
0.040450048 0.062491074 0.49600002 4279187236
0.042061061 0.062491074 0.49600002 4279319592
0.043672066 0.062491074 0.49600002 4279319846
0.045374371 0.062617064 0.49700001 4279780395
0.046988629 0.062617064 0.49700001 4279517221
0.048602883 0.062617064 0.49700001 4279648807
0.050318185 0.062743053 0.49800003 4279451941
0.051935688 0.062743053 0.49800003 4279451941
0.053553194 0.062743053 0.49800003 4278858523
0.02128356 0.053597361 0.50514644 4294967295
0.02128356 0.053597361 0.50514644 4294901760
0.021323664 0.053099431 0.50516778 4294901760
0.021363769 0.052601498 0.50518912 4294901760
0.021403873 0.052103564 0.50521046 4294901760
0.021443978 0.051605634 0.50523186 4294901760
0.021484083 0.051107701 0.5052532 4294901760
0.021524187 0.050609771 0.50527453 4294901760
0.021564292 0.050111838 0.50529587 4294901760
0.021604396 0.049613908 0.50531721 4294901760
0.021644501 0.049115974 0.50533855 4294901760
0.021684606 0.048618045 0.50535989 4294901760
0.02172471 0.048120111 0.50538129 4294901760
0.021764815 0.047622181 0.50540262 4294901760
0.021804921 0.047124248 0.50542396 4294901760
0.021845026 0.046626318 0.5054453 4294901760
0.021885131 0.046128385 0.50546664 4294901760
0.021925235 0.045630455 0.50548798 4294901760
0.02196534 0.045132522 0.50550932 4294901760
0.022005444 0.044634592 0.50553071 4294901760
0.022045549 0.044136658 0.50555205 4294901760
0.022085654 0.043638729 0.50557339 4294901760
0.022125758 0.043140799 0.50559473 4294901760
0.022165863 0.042642865 0.50561607 4294901760
0.022205967 0.042144932 0.50563741 4294901760
0.022246072 0.041647002 0.50565875 4294901760
0.022286177 0.041149069 0.50568008 4294901760
0.022326281 0.040651139 0.50570148 4294901760
0.022366386 0.040153205 0.50572282 4294901760
0.022406491 0.039655276 0.50574416 4294901760
0.022446595 0.039157342 0.5057655 4294901760
0.0224867 0.038659409 0.50578684 4294901760
0.022526804 0.038161479 0.50580817 4294901760
0.022566909 0.037663549 0.50582951 4294901760
0.022607014 0.037165616 0.50585091 4294901760
0.022647118 0.036667682 0.50587225 4294901760
0.022687223 0.036169752 0.50589359 4294901760
0.022727329 0.035671823 0.50591493 4294901760
0.022767432 0.035173889 0.50593626 4294901760
0.022807539 0.034675956 0.5059576 4294901760
0.022847641 0.034178026 0.50597894 4294901760
0.022887748 0.033680096 0.50600034 4294901760
0.022927852 0.033182163 0.50602168 4294901760
0.022967957 0.032684233 0.50604302 4294901760
0.023008062 0.0321863 0.50606436 4294901760
0.023048166 0.03168837 0.50608569 4294901760
0.023088271 0.031190436 0.50610703 4294901760
0.023128375 0.030692505 0.50612837 4294901760
0.02316848 0.030194573 0.50614977 4294901760
0.023208585 0.029696641 0.50617111 4294901760
0.023248689 0.02919871 0.50619245 4294901760
0.023288794 0.028700778 0.50621378 4294901760
0.023328898 0.028202847 0.50623512 4294901760
0.023369003 0.027704915 0.50625646 4294901760
0.023409108 0.027206985 0.5062778 4294901760
0.023449212 0.02670905 0.5062992 4294901760
0.023489317 0.02621112 0.50632054 4294901760
0.023529422 0.025713189 0.50634187 4294901760
0.023569526 0.025215257 0.50636321 4294901760
0.023609631 0.024717325 0.50638455 4294901760
0.023649735 0.024219396 0.50640589 4294901760
0.02368984 0.02372146 0.50642723 4294901760
0.023729946 0.023223529 0.50644863 4294901760
0.023770049 0.022725599 0.50646996 4294901760
0.023810156 0.022227667 0.5064913 4294901760
0.023850258 0.021729738 0.50651264 4294901760
0.023890365 0.021231804 0.50653398 4294901760
0.02393047 0.020733871 0.50655532 4294901760
0.023970574 0.020235941 0.50657666 4294901760
0.024010679 0.019738007 0.50659806 4294901760
0.024050783 0.019240078 0.50661939 4294901760
0.024090888 0.018742144 0.50664073 4294901760
0.024130993 0.018244214 0.50666207 4294901760
0.024171097 0.017746281 0.50668341 4294901760
0.024211202 0.017248351 0.50670475 4294901760
0.024251306 0.016750418 0.50672609 4294901760
0.024291411 0.016252488 0.50674748 4294901760
0.024331516 0.015754554 0.50676882 4294901760
0.02437162 0.015256625 0.50679016 4294901760
0.024411725 0.014758695 0.5068115 4294901760
0.024451829 0.014260758 0.50683284 4294901760
0.024491934 0.013762828 0.50685418 4294901760
0.024532039 0.013264898 0.50687551 4294901760
0.024572143 0.012766965 0.50689685 4294901760
0.024612248 0.012269035 0.50691825 4294901760
0.024652353 0.011771105 0.50693959 4294901760
0.024692457 0.011273168 0.50696093 4294901760
0.024732564 0.010775238 0.50698227 4294901760
0.024772666 0.010277309 0.50700361 4294901760
0.024812773 0.009779375 0.50702494 4294901760
0.024852876 0.0092814453 0.50704628 4294901760
0.024892982 0.0087835118 0.50706768 4294901760
0.024933087 0.0082855783 0.50708902 4294901760
0.024973191 0.0077876486 0.50711036 4294901760
0.025013296 0.0072897151 0.5071317 4294901760
0.025053401 0.0067917854 0.50715303 4294901760
0.025093505 0.0062938556 0.50717437 4294901760
0.02513361 0.0057959221 0.50719571 4294901760
0.025173714 0.0052979887 0.50721711 4294901760
0.025213819 0.0048000589 0.50723845 4294901760
0.025253924 0.0043021254 0.50725979 4294901760
0.025294028 0.0038041957 0.50728112 4294901760
0.02128356 0.053597361 0.50514644 4278255360
0.021715807 0.053621449 0.50489628 4278255360
0.022148054 0.05364554 0.50464612 4278255360
0.0225803 0.053669628 0.50439596 4278255360
0.023012547 0.053693719 0.5041458 4278255360
0.023444794 0.053717807 0.50389564 4278255360
0.023877041 0.053741898 0.50364548 4278255360
0.024309289 0.053765986 0.50339532 4278255360
0.024741536 0.053790078 0.5031451 4278255360
0.025173783 0.053814165 0.50289494 4278255360
0.025606029 0.053838257 0.50264478 4278255360
0.026038276 0.053862344 0.50239462 4278255360
0.026470523 0.053886436 0.50214446 4278255360
0.026902771 0.053910524 0.5018943 4278255360
0.027335018 0.053934615 0.50164413 4278255360
0.027767265 0.053958703 0.50139397 4278255360
0.028199511 0.053982794 0.50114381 4278255360
0.028631758 0.054006882 0.50089365 4278255360
0.029064005 0.054030973 0.50064349 4278255360
0.029496253 0.054055061 0.50039333 4278255360
0.0299285 0.054079153 0.50014317 4278255360
0.030360747 0.05410324 0.49989298 4278255360
0.030792993 0.054127332 0.49964282 4278255360
0.031225242 0.05415142 0.49939266 4278255360
0.031657487 0.054175511 0.4991425 4278255360
0.032089733 0.054199599 0.49889234 4278255360
0.032521982 0.054223686 0.49864218 4278255360
0.032954231 0.054247778 0.49839199 4278255360
0.033386476 0.054271866 0.49814183 4278255360
0.033818722 0.054295957 0.49789166 4278255360
0.034250971 0.054320045 0.4976415 4278255360
0.034683216 0.054344136 0.49739134 4278255360
0.035115462 0.054368224 0.49714118 4278255360
0.035547711 0.054392315 0.49689102 4278255360
0.035979956 0.054416403 0.49664086 4278255360
0.036412206 0.054440495 0.49639067 4278255360
0.036844451 0.054464582 0.49614051 4278255360
0.0372767 0.054488674 0.49589035 4278255360
0.037708946 0.054512762 0.49564019 4278255360
0.038141191 0.054536853 0.49539003 4278255360
0.03857344 0.054560941 0.49513987 4278255360
0.039005686 0.054585032 0.49488971 4278255360
0.039437935 0.05460912 0.49463955 4278255360
0.03987018 0.054633211 0.49438936 4278255360
0.040302426 0.054657299 0.49413919 4278255360
0.040734675 0.054681391 0.49388903 4278255360
0.041166924 0.054705478 0.49363887 4278255360
0.041599169 0.05472957 0.49338871 4278255360
0.042031415 0.054753657 0.49313855 4278255360
0.04246366 0.054777749 0.49288839 4278255360
0.042895909 0.054801837 0.49263823 4278255360
0.043328159 0.054825924 0.49238804 4278255360
0.043760404 0.054850016 0.49213788 4278255360
0.044192649 0.054874104 0.49188772 4278255360
0.044624899 0.054898195 0.49163756 4278255360
0.045057144 0.054922283 0.4913874 4278255360
0.045489393 0.054946374 0.49113724 4278255360
0.045921639 0.054970462 0.49088708 4278255360
0.046353884 0.054994553 0.49063689 4278255360
0.046786129 0.055018641 0.49038672 4278255360
0.047218382 0.055042733 0.49013656 4278255360
0.047650628 0.05506682 0.4898864 4278255360
0.048082873 0.055090912 0.48963624 4278255360
0.048515119 0.055114999 0.48938608 4278255360
0.048947364 0.055139091 0.48913592 4278255360
0.049379613 0.055163179 0.48888576 4278255360
0.049811862 0.05518727 0.48863557 4278255360
0.050244108 0.055211358 0.48838541 4278255360
0.050676353 0.055235449 0.48813525 4278255360
0.051108602 0.055259537 0.48788509 4278255360
0.051540852 0.055283628 0.48763493 4278255360
0.051973097 0.055307716 0.48738477 4278255360
0.052405342 0.055331808 0.48713461 4278255360
0.052837592 0.055355895 0.48688442 4278255360
0.053269837 0.055379987 0.48663425 4278255360
0.053702086 0.055404074 0.48638409 4278255360
0.054134332 0.055428162 0.48613393 4278255360
0.054566577 0.055452254 0.48588377 4278255360
0.054998823 0.055476341 0.48563361 4278255360
0.055431072 0.055500433 0.48538345 4278255360
0.055863321 0.055524521 0.48513329 4278255360
0.056295566 0.055548612 0.4848831 4278255360
0.056727812 0.0555727 0.48463294 4278255360
0.057160061 0.055596791 0.48438278 4278255360
0.057592306 0.055620879 0.48413262 4278255360
0.058024555 0.05564497 0.48388246 4278255360
0.058456801 0.055669058 0.4836323 4278255360
0.05888905 0.05569315 0.48338214 4278255360
0.059321295 0.055717237 0.48313197 4278255360
0.059753541 0.055741329 0.48288178 4278255360
0.06018579 0.055765416 0.48263162 4278255360
0.060618039 0.055789508 0.48238146 4278255360
0.061050285 0.055813596 0.4821313 4278255360
0.06148253 0.055837687 0.48188114 4278255360
0.061914776 0.055861775 0.48163098 4278255360
0.062347025 0.055885866 0.48138082 4278255360
0.06277927 0.055909954 0.48113066 4278255360
0.063211516 0.055934045 0.48088047 4278255360
0.063643768 0.055958133 0.48063031 4278255360
0.064076014 0.055982225 0.48038015 4278255360
0.064508259 0.056006312 0.48012999 4278255360
0.02128356 0.053597361 0.50514644 4278190335
0.021538548 0.05363626 0.50557476 4278190335
0.021793537 0.05367516 0.50600308 4278190335
0.022048526 0.053714063 0.50643146 4278190335
0.022303512 0.053752962 0.50685978 4278190335
0.022558501 0.053791862 0.5072881 4278190335
0.02281349 0.053830761 0.50771642 4278190335
0.023068478 0.053869665 0.50814474 4278190335
0.023323467 0.053908564 0.50857311 4278190335
0.023578456 0.053947464 0.50900143 4278190335
0.023833442 0.053986363 0.50942975 4278190335
0.024088431 0.054025263 0.50985807 4278190335
0.02434342 0.054064166 0.51028645 4278190335
0.024598408 0.054103065 0.51071477 4278190335
0.024853397 0.054141965 0.51114309 4278190335
0.025108386 0.054180864 0.51157141 4278190335
0.025363375 0.054219767 0.51199973 4278190335
0.025618361 0.054258667 0.5124281 4278190335
0.02587335 0.054297566 0.51285642 4278190335
0.026128339 0.054336466 0.51328474 4278190335
0.026383327 0.054375365 0.51371306 4278190335
0.026638314 0.054414269 0.51414138 4278190335
0.026893303 0.054453168 0.51456976 4278190335
0.027148291 0.054492068 0.51499808 4278190335
0.02740328 0.054530967 0.5154264 4278190335
0.027658269 0.05456987 0.51585472 4278190335
0.027913257 0.05460877 0.51628304 4278190335
0.028168246 0.054647669 0.51671141 4278190335
0.028423235 0.054686569 0.51713973 4278190335
0.028678222 0.054725468 0.51756805 4278190335
0.02893321 0.054764371 0.51799637 4278190335
0.029188199 0.054803271 0.51842475 4278190335
0.029443188 0.05484217 0.51885307 4278190335
0.029698176 0.05488107 0.51928139 4278190335
0.029953163 0.054919969 0.51970971 4278190335
0.030208152 0.054958872 0.52013803 4278190335
0.03046314 0.054997772 0.5205664 4278190335
0.030718129 0.055036671 0.52099472 4278190335
0.030973118 0.055075571 0.52142304 4278190335
0.031228106 0.055114474 0.52185136 4278190335
0.031483095 0.055153374 0.52227968 4278190335
0.031738084 0.055192273 0.52270806 4278190335
0.031993069 0.055231173 0.52313638 4278190335
0.032248057 0.055270072 0.5235647 4278190335
0.032503046 0.055308975 0.52399302 4278190335
0.032758035 0.055347875 0.52442133 4278190335
0.033013023 0.055386774 0.52484971 4278190335
0.033268012 0.055425674 0.52527803 4278190335
0.033523001 0.055464577 0.52570635 4278190335
0.033777989 0.055503476 0.52613467 4278190335
0.034032978 0.055542376 0.52656305 4278190335
0.034287967 0.055581275 0.52699137 4278190335
0.034542955 0.055620175 0.52741969 4278190335
0.034797944 0.055659078 0.52784801 4278190335
0.035052933 0.055697978 0.52827632 4278190335
0.035307921 0.055736877 0.5287047 4278190335
0.03556291 0.055775777 0.52913302 4278190335
0.035817899 0.05581468 0.52956134 4278190335
0.036072884 0.055853579 0.52998966 4278190335
0.036327872 0.055892479 0.53041798 4278190335
0.036582861 0.055931378 0.53084636 4278190335
0.03683785 0.055970278 0.53127468 4278190335
0.037092838 0.056009181 0.531703 4278190335
0.037347827 0.05604808 0.53213131 4278190335
0.037602816 0.05608698 0.53255963 4278190335
0.037857801 0.056125879 0.53298801 4278190335
0.038112793 0.056164782 0.53341633 4278190335
0.038367782 0.056203682 0.53384465 4278190335
0.038622767 0.056242581 0.53427297 4278190335
0.038877755 0.056281481 0.53470135 4278190335
0.039132744 0.05632038 0.53512967 4278190335
0.039387733 0.056359284 0.53555799 4278190335
0.039642721 0.056398183 0.5359863 4278190335
0.03989771 0.056437083 0.53641462 4278190335
0.040152699 0.056475982 0.536843 4278190335
0.040407687 0.056514882 0.53727132 4278190335
0.040662676 0.056553785 0.53769964 4278190335
0.040917665 0.056592684 0.53812796 4278190335
0.041172653 0.056631584 0.53855628 4278190335
0.041427642 0.056670483 0.53898466 4278190335
0.041682631 0.056709386 0.53941298 4278190335
0.041937619 0.056748286 0.53984129 4278190335
0.042192608 0.056787185 0.54026961 4278190335
0.042447593 0.056826085 0.54069793 4278190335
0.042702582 0.056864984 0.54112631 4278190335
0.042957574 0.056903888 0.54155463 4278190335
0.043212559 0.056942787 0.54198295 4278190335
0.043467548 0.056981687 0.54241127 4278190335
0.043722536 0.057020586 0.54283965 4278190335
0.043977525 0.057059489 0.54326797 4278190335
0.04423251 0.057098389 0.54369628 4278190335
0.044487502 0.057137288 0.5441246 4278190335
0.044742491 0.057176188 0.54455292 4278190335
0.044997476 0.057215087 0.5449813 4278190335
0.045252465 0.05725399 0.54540962 4278190335
0.045507453 0.05729289 0.54583794 4278190335
0.045762442 0.057331789 0.54626626 4278190335
0.046017431 0.057370689 0.54669458 4278190335
0.046272419 0.057409592 0.54712296 4278190335
0.046527408 0.057448491 0.54755127 4278190335
0.046782397 0.057487391 0.54797959 4278190335
0.02128356 0.053597361 0.50514644 4294967295
0.019753629 0.05336396 0.50257647 4294967295
0.018223699 0.053130556 0.5000065 4294967295
0.016693769 0.052897155 0.49743649 4294967295
0.015163839 0.052663755 0.49486649 4294967295
0.013633909 0.052430354 0.49229652 4294967295
0.012103979 0.05219695 0.48972651 4294967295
0.010574047 0.051963549 0.48715654 4294967295
0.0090441182 0.051730148 0.48458654 4294967295
0.0075141871 0.051496744 0.48201656 4294967295
0.005984257 0.051263344 0.47944656 4294967295
0.0044543277 0.051029943 0.47687659 4294967295
0.0029243976 0.050796539 0.47430658 4294967295
0.0013944674 0.050563138 0.47173661 4294967295
-0.00013546459 0.050329737 0.46916661 4294967295
-0.0016653948 0.050096333 0.46659663 4294967295
-0.0031953231 0.049862932 0.46402663 4294967295
-0.0047252551 0.049629532 0.46145666 4294967295
-0.0062551852 0.049396127 0.45888665 4294967295
-0.0077851154 0.049162727 0.45631668 4294967295
-0.0093150456 0.048929326 0.45374668 4294967295
-0.010844976 0.048695926 0.4511767 4294967295
-0.012374904 0.048462521 0.4486067 4294967295
-0.013904836 0.048229121 0.44603673 4294967295
-0.015434764 0.04799572 0.44346672 4294967295
-0.016964696 0.047762319 0.44089675 4294967295
-0.018494625 0.047528915 0.43832675 4294967295
-0.020024557 0.047295514 0.43575677 4294967295
-0.021554489 0.047062114 0.43318677 4294967295
-0.023084417 0.04682871 0.4306168 4294967295
-0.024614349 0.046595309 0.42804679 4294967295
-0.026144277 0.046361908 0.42547682 4294967295
-0.027674206 0.046128504 0.42290682 4294967295
-0.029204141 0.045895103 0.42033684 4294967295
-0.03073407 0.045661703 0.41776684 4294967295
-0.032263998 0.045428298 0.41519687 4294967295
-0.03379393 0.045194898 0.41262686 4294967295
-0.035323858 0.044961497 0.41005689 4294967295
-0.03685379 0.044728097 0.40748692 4294967295
-0.038383719 0.044494696 0.40491691 4294967295
-0.039913651 0.044261292 0.40234691 4294967295
-0.041443579 0.044027891 0.39977694 4294967295
-0.042973511 0.04379449 0.39720696 4294967295
-0.044503443 0.043561086 0.39463696 4294967295
-0.046033368 0.043327685 0.39206696 4294967295
-0.0475633 0.043094285 0.38949698 4294967295
-0.049093232 0.04286088 0.38692701 4294967295
-0.050623164 0.04262748 0.38435701 4294967295
-0.052153088 0.042394079 0.381787 4294967295
-0.05368302 0.042160675 0.37921703 4294967295
-0.055212952 0.041927274 0.37664706 4294967295
-0.056742884 0.041693874 0.37407705 4294967295
-0.058272809 0.041460469 0.37150705 4294967295
-0.059802741 0.041227069 0.36893708 4294967295
-0.061332673 0.040993668 0.3663671 4294967295
-0.062862605 0.040760264 0.3637971 4294967295
-0.064392537 0.040526863 0.3612271 4294967295
-0.065922461 0.040293463 0.35865712 4294967295
-0.067452393 0.040060062 0.35608715 4294967295
-0.068982318 0.039826661 0.35351717 4294967295
-0.070512258 0.039593257 0.35094714 4294967295
-0.07204219 0.039359853 0.34837717 4294967295
-0.073572114 0.039126452 0.34580719 4294967295
-0.075102046 0.038893051 0.34323719 4294967295
-0.076631971 0.038659651 0.34066722 4294967295
-0.078161903 0.03842625 0.33809721 4294967295
-0.079691842 0.038192846 0.33552724 4294967295
-0.081221767 0.037959445 0.33295724 4294967295
-0.082751699 0.037726045 0.33038723 4294967295
-0.084281623 0.03749264 0.32781726 4294967295
-0.085811555 0.03725924 0.32524729 4294967295
-0.087341487 0.037025839 0.32267731 4294967295
-0.088871419 0.036792435 0.32010728 4294967295
-0.090401351 0.036559034 0.31753731 4294967295
-0.091931276 0.036325634 0.31496733 4294967295
-0.093461208 0.036092229 0.31239733 4294967295
-0.09499114 0.035858832 0.30982736 4294967295
-0.096521065 0.035625428 0.30725735 4294967295
-0.098050997 0.035392027 0.30468738 4294967295
-0.099580929 0.035158623 0.30211738 4294967295
-0.10111086 0.034925222 0.29954737 4294967295
-0.10264079 0.034691818 0.2969774 4294967295
-0.10417072 0.034458421 0.29440743 4294967295
-0.10570065 0.034225017 0.29183745 4294967295
-0.10723058 0.033991616 0.28926745 4294967295
-0.10876051 0.033758216 0.28669745 4294967295
-0.11029045 0.033524811 0.28412747 4294967295
-0.11182038 0.033291411 0.2815575 4294967295
-0.11335029 0.03305801 0.2789875 4294967295
-0.11488023 0.032824606 0.27641749 4294967295
-0.11641016 0.032591205 0.27384752 4294967295
-0.11794009 0.032357804 0.27127752 4294967295
-0.11947002 0.0321244 0.26870754 4294967295
-0.12099995 0.031891 0.26613754 4294967295
-0.12252989 0.031657599 0.26356757 4294967295
-0.1240598 0.031424195 0.26099759 4294967295
-0.12558973 0.031190796 0.25842759 4294967295
-0.12711969 0.030957391 0.25585759 4294967295
-0.12864959 0.030723991 0.25328761 4294967295
-0.13017952 0.030490588 0.25071761 4294967295
-0.13170946 0.030257188 0.24814764 4294967295
