# .PCD v0.7 - Point Cloud Data file format
VERSION 0.7
FIELDS x y z rgb
SIZE 4 4 4 4
TYPE F F F U
COUNT 1 1 1 1
WIDTH 712
HEIGHT 1
VIEWPOINT 0 0 0 1 0 0 0
POINTS 712
DATA ascii
0.076071844 -0.076255858 0.42500001 4280963899
0.077452242 -0.076255858 0.42500001 4280637498
0.079018138 -0.076435283 0.42600003 4279980844
0.080401786 -0.076435283 0.42600003 4279452193
0.0745157 -0.074698813 0.42400002 4281358141
0.075892851 -0.074698813 0.42400002 4279652906
0.077452242 -0.074874982 0.42500001 4279654187
0.078832641 -0.074874982 0.42500001 4279456808
0.080213048 -0.074874982 0.42500001 4279456295
0.072966047 -0.073148265 0.42300001 4281162559
0.074339949 -0.073148265 0.42300001 4280441143
0.075713858 -0.073148265 0.42300001 4279720750
0.077270001 -0.073321193 0.42400002 4279260713
0.078647159 -0.073321193 0.42400002 4279195433
0.080213048 -0.073494121 0.42500001 4279127330
0.069886245 -0.071434543 0.42100003 4281620800
0.071253642 -0.071434543 0.42100003 4281490495
0.072793551 -0.071604215 0.42200002 4279916594
0.074164212 -0.071604215 0.42200002 4279654705
0.075713858 -0.071773894 0.42300001 4279523371
0.07708776 -0.071773894 0.42300001 4279457578
0.078647159 -0.071943574 0.42400002 4278994463
0.080024309 -0.071943574 0.42400002 4283661662
0.068356074 -0.069900237 0.42000002 4280963387
0.069720238 -0.069900237 0.42000002 4280639034
0.071253642 -0.070066668 0.42100003 4280113457
0.072621055 -0.070066668 0.42100003 4279326506
0.074164212 -0.070233099 0.42200002 4279326506
0.075534865 -0.070233099 0.42200002 4279260713
0.07708776 -0.070399523 0.42300001 4279982641
0.078461662 -0.070399523 0.42300001 4282148423
0.080024309 -0.070565954 0.42400002 4285172593
0.066672906 -0.068209253 0.41800001 4281425220
0.068193324 -0.068372436 0.41900003 4280704061
0.06955424 -0.068372436 0.41900003 4279588142
0.071084395 -0.068535611 0.42000002 4279654959
0.072621055 -0.068698794 0.42100003 4279195433
0.073988467 -0.068698794 0.42100003 4279195433
0.07535588 -0.068698794 0.42100003 4280573241
0.076905519 -0.068861976 0.42200002 4281821511
0.078461662 -0.069025151 0.42300001 4282672718
0.065158986 -0.066691197 0.41700003 4281423938
0.066513397 -0.066691197 0.41700003 4280048441
0.068030566 -0.066851124 0.41800001 4279523633
0.06955424 -0.067011058 0.41900003 4279458605
0.071084395 -0.067170985 0.42000002 4279129640
0.072448559 -0.067170985 0.42000002 4278734882
0.073988467 -0.067330919 0.42100003 4281034305
0.07535588 -0.067330919 0.42100003 4280241709
0.076905519 -0.067490846 0.42200002 4282214216
0.062150627 -0.06502296 0.41500002 4284580467
0.063498549 -0.06502296 0.41500002 4281030460
0.065002732 -0.065179639 0.41600001 4280244278
0.066353895 -0.065179639 0.41600001 4279326767
0.067867815 -0.065336324 0.41700003 4279195435
0.069388233 -0.065493003 0.41800001 4279195433
0.070915148 -0.065649688 0.41900003 4278800675
0.072448559 -0.065806367 0.42000002 4281166145
0.073812723 -0.065806367 0.42000002 4280835383
0.07535588 -0.065963052 0.42100003 4281885253
0.076723285 -0.065963052 0.42100003 4281687358
0.061851107 -0.06336771 0.41300002 4280965182
0.063345544 -0.063521147 0.41400003 4279982387
0.064690217 -0.063521147 0.41400003 4279457580
0.066194393 -0.063674577 0.41500002 4279130410
0.067542315 -0.063674577 0.41500002 4278998822
0.069222234 -0.063981444 0.41700003 4279062820
0.070915148 -0.064288311 0.41900003 4281034305
0.072448559 -0.064441741 0.42000002 4280506164
0.073812723 -0.064441741 0.42000002 4281557056
0.07535588 -0.064595178 0.42100003 4282016071
0.058738466 -0.061575286 0.41000003 4282607699
0.060216662 -0.061725467 0.41100001 4280440119
0.06170135 -0.061875656 0.41200003 4279981619
0.063039526 -0.061875656 0.41200003 4279196205
0.064377703 -0.061875656 0.41200003 4279130412
0.065875381 -0.062025838 0.41300002 4278933031
0.067216806 -0.062025838 0.41300002 4279063847
0.069222234 -0.06262657 0.41700003 4281033530
0.057126753 -0.059949283 0.40800002 4282541902
0.058595203 -0.060096215 0.40900001 4280767801
0.059923634 -0.060096215 0.40900001 4279720752
0.061401825 -0.060243152 0.41000003 4279327019
0.062733509 -0.060243152 0.41000003 4279130923
0.064065196 -0.060243152 0.41000003 4279065130
0.06555637 -0.060390085 0.41100001 4279325994
0.066891305 -0.060390085 0.41100001 4280705594
0.055528026 -0.05833628 0.40600002 4282212941
0.056986734 -0.058479965 0.40700001 4280835131
0.058308672 -0.058479965 0.40700001 4279719215
0.059777126 -0.058623653 0.40800002 4279261226
0.061102305 -0.058623653 0.40800002 4279196201
0.062427491 -0.058623653 0.40800002 4278998822
0.063908935 -0.058767337 0.40900001 4279655984
0.065237358 -0.058767337 0.40900001 4280771387
0.066565797 -0.058767337 0.40900001 4280440625
0.0539423 -0.056736268 0.40400001 4281950282
0.055254489 -0.056736268 0.40400001 4280834364
0.056706704 -0.056876708 0.40500003 4279523887
0.058165409 -0.057017144 0.40600002 4279195435
0.059484098 -0.057017144 0.40600002 4279130410
0.06095254 -0.057157576 0.40700001 4279064615
0.062274482 -0.057157576 0.40700001 4280443705
0.06359642 -0.057157576 0.40700001 4280706364
0.064918354 -0.057157576 0.40700001 4281821765
0.066403046 -0.057298016 0.40800002 4281359931
0.052239291 -0.055012077 0.40100002 4281292098
0.05367526 -0.055149261 0.40200001 4280243764
0.055117723 -0.055286452 0.40300003 4279654189
0.056566685 -0.055423636 0.40400001 4279064617
0.057878878 -0.055423636 0.40400001 4279130923
0.05933759 -0.055560827 0.40500003 4279065128
0.060653023 -0.055560827 0.40500003 4280708159
0.061968468 -0.055560827 0.40500003 4280770872
0.063440166 -0.055698011 0.40600002 4280834870
0.064758852 -0.055698011 0.40600002 4281359931
0.066077538 -0.055698011 0.40600002 4281359931
0.046560373 -0.05317343 0.39700001 4286355593
0.050682791 -0.053441305 0.39900002 4281227069
0.052109014 -0.053575244 0.40000001 4280506164
0.053541742 -0.053709183 0.40100002 4279523371
0.054980952 -0.053843118 0.40200001 4279392299
0.05642667 -0.053977061 0.40300003 4278933542
0.057735614 -0.053977061 0.40300003 4278670370
0.059191074 -0.054110996 0.40400001 4280181303
0.060503263 -0.054110996 0.40400001 4280772416
0.061815456 -0.054110996 0.40400001 4281097018
0.063283913 -0.054244936 0.40500003 4281425470
0.06459935 -0.054244936 0.40500003 4282017607
0.066077538 -0.054378871 0.40600002 4281884737
0.045156885 -0.051752847 0.39600003 4286224007
0.046560373 -0.051883534 0.39700001 4286749837
0.049263064 -0.052014224 0.39800003 4281161280
0.050555769 -0.052014224 0.39800003 4279850801
0.051978745 -0.052144911 0.39900002 4279785775
0.053408217 -0.052275598 0.40000001 4279326506
0.054844186 -0.052406289 0.40100002 4279129640
0.056286652 -0.052536976 0.40200001 4279261226
0.057592351 -0.052536976 0.40200001 4280510266
0.059044562 -0.05266767 0.40300003 4281757769
0.060353503 -0.05266767 0.40300003 4281032508
0.061815456 -0.052798357 0.40400001 4280240428
0.063127652 -0.052798357 0.40400001 4281556288
0.064439841 -0.052798357 0.40400001 4281883456
0.045156885 -0.050466206 0.39600003 4286553226
0.04784983 -0.050593644 0.39700001 4281557317
0.049139284 -0.050593644 0.39700001 4280441141
0.050555769 -0.050721087 0.39800003 4279326758
0.051978745 -0.050848521 0.39900002 4279195685
0.053274699 -0.050848521 0.39900002 4279393834
0.054707415 -0.05097596 0.40000001 4278998822
0.056146637 -0.051103402 0.40100002 4280246326
0.057592351 -0.05123084 0.40200001 4280837950
0.058898047 -0.05123084 0.40200001 4282018372
0.060353503 -0.051358283 0.40300003 4281556538
0.06166245 -0.051358283 0.40300003 4281950530
0.062971398 -0.051358283 0.40300003 4282016323
0.064439841 -0.051485721 0.40400001 4286158204
0.042369392 -0.048931178 0.39400002 4286487433
0.043649107 -0.048931178 0.39400002 4286816398
0.046443094 -0.049179561 0.39600003 4280767803
0.047729302 -0.049179561 0.39600003 4279850801
0.049139284 -0.049303748 0.39700001 4279325992
0.050428741 -0.049303748 0.39700001 4279195685
0.051848475 -0.049427941 0.39800003 4279196455
0.053274699 -0.049552131 0.39900002 4279195431
0.054707415 -0.049676321 0.40000001 4280247092
0.056006618 -0.049676321 0.40000001 4280573493
0.057449088 -0.049800515 0.40100002 4281888071
0.058898047 -0.049924701 0.40200001 4279977254
0.060203739 -0.049924701 0.40200001 4281686845
0.06166245 -0.050048895 0.40300003 4281291571
0.062971398 -0.050048895 0.40300003 4285763958
0.043649107 -0.047651034 0.39400002 4286357130
0.04504285 -0.047771972 0.39500001 4280636985
0.046325814 -0.047771972 0.39500001 4280113205
0.04760877 -0.047771972 0.39500001 4279064365
0.049015511 -0.047892917 0.39600003 4278801958
0.050428741 -0.048013855 0.39700001 4278802210
0.051848475 -0.0481348 0.39800003 4278604831
0.05314118 -0.0481348 0.39800003 4280509496
0.054570649 -0.048255742 0.39900002 4281034559
0.056006618 -0.048376679 0.40000001 4280173867
0.057449088 -0.048497625 0.40100002 4280765491
0.058898047 -0.048618563 0.40200001 4282015042
0.060203739 -0.048618563 0.40200001 4282607177
0.06166245 -0.048739508 0.40300003 4285368427
0.040881105 -0.0461355 0.39200002 4286947982
0.04215432 -0.0461355 0.39200002 4285962370
0.043538321 -0.046253193 0.39300001 4280635704
0.044928819 -0.046370886 0.39400002 4279916342
0.046208534 -0.046370886 0.39400002 4279326254
0.04760877 -0.046488576 0.39500001 4279065132
0.049015511 -0.046606272 0.39600003 4278472993
0.050301719 -0.046606272 0.39600003 4279328041
0.051718198 -0.046723962 0.39700001 4280509748
0.05314118 -0.046841659 0.39800003 4281098555
0.054570649 -0.046959348 0.39900002 4279976488
0.056006618 -0.047077041 0.40000001 4281817411
0.057449088 -0.047194734 0.40100002 4281158968
0.058898047 -0.047312424 0.40200001 4281883456
0.060203739 -0.047312424 0.40200001 4285566581
0.040776815 -0.044747408 0.39100003 4285961855
0.042046785 -0.044747408 0.39100003 4280241711
0.043427538 -0.044861849 0.39200002 4280375348
0.044814784 -0.04497629 0.39300001 4279261226
0.046208534 -0.045090739 0.39400002 4279130410
0.047488246 -0.045090739 0.39400002 4279130410
0.048891731 -0.04520518 0.39500001 4279459375
0.050301719 -0.045319624 0.39600003 4280837946
0.051718198 -0.045434065 0.39700001 4280704563
0.05314118 -0.045548514 0.39800003 4280436008
0.054570649 -0.045662954 0.39900002 4280961587
0.056006618 -0.045777395 0.40000001 4282278214
0.05730582 -0.045777395 0.40000001 4282475593
0.058751538 -0.04589184 0.40100002 4285369720
0.040672526 -0.043365814 0.39000002 4280374326
0.041939247 -0.043365814 0.39000002 4280113457
0.043316755 -0.04347701 0.39100003 4279522601
0.044700753 -0.043588202 0.39200002 4279064869
0.046091251 -0.043699395 0.39300001 4279064869
0.047488246 -0.043810591 0.39400002 4279064615
0.048767958 -0.043810591 0.39400002 4280312887
0.050174691 -0.043921784 0.39500001 4281294651
0.051587928 -0.04403298 0.39600003 4280239399
0.053007659 -0.044144172 0.39700001 4281093427
0.054570649 -0.044366561 0.39900002 4281225272
0.055866603 -0.044366561 0.39900002 4282475593
0.05730582 -0.044477757 0.40000001 4285172593
0.04056824 -0.04199072 0.38900003 4279982389
0.041939247 -0.042098664 0.39000002 4279129640
0.043316755 -0.042206611 0.39100003 4279064617
0.044586722 -0.042206611 0.39100003 4278933542
0.045973971 -0.042314555 0.39200002 4279196201
0.047367714 -0.0424225 0.39300001 4280575291
0.048767958 -0.042530444 0.39400002 4280507448
0.050174691 -0.042638388 0.39500001 4280239147
0.051457655 -0.042638388 0.39500001 4280895794
0.053007659 -0.042854279 0.39700001 4280302889
0.055866603 -0.043070171 0.39900002 4285500534
0.03014724 -0.040308032 0.38500002 4279589941
0.031397719 -0.040308032 0.38500002 4280178235
0.032648202 -0.040308032 0.38500002 4283663467
0.033898681 -0.040308032 0.38500002 4285700481
0.035149161 -0.040308032 0.38500002 4285831554
0.037845708 -0.040517427 0.38700002 4280637239
0.039102685 -0.040517427 0.38700002 4279720750
0.04046395 -0.040622123 0.38800001 4279261226
0.041831709 -0.040726818 0.38900003 4278802728
0.043205969 -0.040831514 0.39000002 4278868521
0.044586722 -0.040936213 0.39100003 4279787318
0.045973971 -0.041040905 0.39200002 4280246842
0.047367714 -0.0411456 0.39300001 4282019405
0.048644178 -0.0411456 0.39300001 4279516451
0.05004767 -0.0412503 0.39400002 4280830003
0.051457655 -0.041354995 0.39500001 4279973922
0.03014724 -0.039057128 0.38500002 4279130410
0.031397719 -0.039057128 0.38500002 4279327789
0.032648202 -0.039057128 0.38500002 4279590193
0.033898681 -0.039057128 0.38500002 4279721014
0.035149161 -0.039057128 0.38500002 4279983418
0.036494188 -0.039158575 0.38600001 4279654705
0.037845708 -0.039260022 0.38700002 4279391785
0.039102685 -0.039260022 0.38700002 4279524135
0.04046395 -0.039361469 0.38800001 4279458855
0.041831709 -0.039462917 0.38900003 4278934566
0.043205969 -0.039564364 0.39000002 4279130921
0.044586722 -0.039665814 0.39100003 4280574778
0.045973971 -0.039767258 0.39200002 4280310323
0.047247186 -0.039767258 0.39200002 4279780393
0.048644178 -0.039868705 0.39300001 4281620800
0.05004767 -0.039970152 0.39400002 4280368682
0.051327381 -0.039970152 0.39400002 4282408263
0.03014724 -0.037806224 0.38500002 4278734367
0.031397719 -0.037806224 0.38500002 4278933029
0.032648202 -0.037806224 0.38500002 4280117303
0.033898681 -0.037806224 0.38500002 4281695056
0.035149161 -0.037806224 0.38500002 4279916846
0.036494188 -0.037904423 0.38600001 4279129127
0.037845708 -0.038002621 0.38700002 4279787570
0.039102685 -0.038002621 0.38700002 4279459373
0.04046395 -0.038100816 0.38800001 4279460140
0.041831709 -0.038199019 0.38900003 4279721775
0.043205969 -0.038297214 0.39000002 4280247608
0.044586722 -0.038395412 0.39100003 4281494595
0.045973971 -0.038493611 0.39200002 4280835383
0.047247186 -0.038493611 0.39200002 4280436528
0.048644178 -0.038591806 0.39300001 4279777315
0.05004767 -0.038690008 0.39400002 4282672205
0.030225543 -0.03665027 0.38600001 4278666007
0.031479269 -0.03665027 0.38600001 4278734107
0.032733001 -0.03665027 0.38600001 4278800673
0.033986729 -0.03665027 0.38600001 4278604581
0.035240456 -0.03665027 0.38600001 4278735654
0.036494188 -0.03665027 0.38600001 4280643131
0.037845708 -0.03674522 0.38700002 4279065128
0.039102685 -0.03674522 0.38700002 4279262509
0.04046395 -0.036840167 0.38800001 4279590959
0.041831709 -0.036935117 0.38900003 4280641082
0.043205969 -0.037030064 0.39000002 4280837950
0.044586722 -0.037125014 0.39100003 4280637750
0.045973971 -0.037219964 0.39200002 4282280009
0.047247186 -0.037219964 0.39200002 4279710750
0.048644178 -0.03731491 0.39300001 4282540873
0.05004767 -0.037409861 0.39400002 4286421890
0.030225543 -0.035396114 0.38600001 4278795796
0.031479269 -0.035396114 0.38600001 4278600214
0.032733001 -0.035396114 0.38600001 4278864669
0.033986729 -0.035396114 0.38600001 4278406685
0.035240456 -0.035396114 0.38600001 4278933031
0.036588732 -0.035487816 0.38700002 4278867238
0.037845708 -0.035487816 0.38700002 4279525168
0.039203726 -0.035579514 0.38800001 4280116022
0.04056824 -0.035671216 0.38900003 4280378678
0.041939247 -0.035762914 0.39000002 4280968764
0.043316755 -0.035854615 0.39100003 4280968764
0.044586722 -0.035854615 0.39100003 4280833333
0.045973971 -0.035946317 0.39200002 4280832563
0.047247186 -0.035946317 0.39200002 4282080322
0.048644178 -0.036038015 0.39300001 4285763706
0.05004767 -0.036129717 0.39400002 4285895032
0.030303849 -0.034230415 0.38700002 4278729494
0.031560823 -0.034230415 0.38700002 4278664980
0.032817803 -0.034230415 0.38700002 4278929179
0.03407478 -0.034230415 0.38700002 4278997025
0.035331756 -0.034230415 0.38700002 4279325992
0.036588732 -0.034230415 0.38700002 4279654957
0.037943501 -0.034318864 0.38800001 4279852336
0.039304767 -0.034407318 0.38900003 4279654957
0.04056824 -0.034407318 0.38900003 4280509496
0.041939247 -0.034495767 0.39000002 4280706362
0.043316755 -0.034584217 0.39100003 4280705081
0.044700753 -0.034672666 0.39200002 4281161528
0.046091251 -0.034761116 0.39300001 4282147909
0.047367714 -0.034761116 0.39300001 4286421636
0.048644178 -0.034761116 0.39300001 4286026366
0.05004767 -0.034849569 0.39400002 4285960058
0.030382153 -0.033058211 0.38800001 4278730007
0.031642377 -0.033058211 0.38800001 4278796568
0.032902602 -0.033058211 0.38800001 4279257633
0.034162827 -0.033058211 0.38800001 4279193123
0.035423048 -0.033058211 0.38800001 4280114225
0.036683276 -0.033058211 0.38800001 4280114225
0.038041294 -0.033143416 0.38900003 4279588394
0.039304767 -0.033143416 0.38900003 4280443703
0.040672526 -0.033228617 0.39000002 4280640569
0.042046785 -0.033313818 0.39100003 4281034559
0.043427538 -0.033399019 0.39200002 4281296450
0.044700753 -0.033399019 0.39200002 4282476876
0.046091251 -0.033484221 0.39300001 4285567349
0.047367714 -0.033484221 0.39300001 4286026618
0.048644178 -0.033484221 0.39300001 4286092157
0.05004767 -0.033569422 0.39400002 4286157437
0.030460458 -0.031879514 0.38900003 4278927386
0.031723931 -0.031879514 0.38900003 4279257121
0.032987405 -0.031879514 0.38900003 4279586598
0.034250874 -0.031879514 0.38900003 4279521318
0.035514347 -0.031879514 0.38900003 4280443190
0.03677782 -0.031879514 0.38900003 4280048432
0.038139086 -0.031961467 0.39000002 4280114738
0.039405808 -0.031961467 0.39000002 4280508981
0.040776815 -0.03204342 0.39100003 4281165628
0.04215432 -0.032125372 0.39200002 4281428288
0.043427538 -0.032125372 0.39200002 4281425470
0.044814784 -0.032207321 0.39300001 4285962109
0.046091251 -0.032207321 0.39300001 4286027132
0.047367714 -0.032207321 0.39300001 4286092411
0.048644178 -0.032207321 0.39300001 4286158204
0.05004767 -0.032289278 0.39400002 4286157437
0.030617068 -0.030773019 0.39100003 4278729753
0.031805482 -0.030694313 0.39000002 4278993949
0.033072203 -0.030694313 0.39000002 4279717672
0.034338925 -0.030694313 0.39000002 4280048432
0.035605643 -0.030694313 0.39000002 4280377910
0.036872365 -0.030694313 0.39000002 4280048432
0.038139086 -0.030694313 0.39000002 4280180018
0.039506849 -0.030773019 0.39100003 4280837176
0.040776815 -0.030773019 0.39100003 4281231421
0.04215432 -0.030851722 0.39200002 4281424954
0.043538321 -0.030930424 0.39300001 4285831036
0.044814784 -0.030930424 0.39300001 4285961085
0.046091251 -0.030930424 0.39300001 4285895292
0.047367714 -0.030930424 0.39300001 4286092157
0.048644178 -0.030930424 0.39300001 4286092157
0.05004767 -0.031009128 0.39400002 4286157437
0.029497208 -0.029653527 0.39300001 4278795033
0.030695371 -0.029578073 0.39200002 4279058718
0.031887036 -0.029502621 0.39100003 4279322660
0.033157006 -0.029502621 0.39100003 4279257894
0.034426972 -0.029502621 0.39100003 4279916848
0.035696942 -0.029502621 0.39100003 4279982641
0.036966912 -0.029502621 0.39100003 4280311604
0.038236879 -0.029502621 0.39100003 4280442420
0.03960789 -0.029578073 0.39200002 4281165116
0.040881105 -0.029578073 0.39200002 4281558591
0.04215432 -0.029578073 0.39200002 4285961339
0.043427538 -0.029578073 0.39200002 4286158718
0.044814784 -0.029653527 0.39300001 4286026618
0.046091251 -0.029653527 0.39300001 4286092411
0.047367714 -0.029653527 0.39300001 4286092157
0.048644178 -0.029653527 0.39300001 4286750087
0.05004767 -0.029728983 0.39400002 4286092157
0.027081402 -0.02852104 0.39500001 4278926103
0.028364362 -0.02852104 0.39500001 4278991896
0.029572265 -0.028448837 0.39400002 4278795800
0.030773675 -0.02837663 0.39300001 4278928156
0.031968586 -0.028304426 0.39200002 4279257635
0.033241805 -0.028304426 0.39200002 4279192101
0.03451502 -0.028304426 0.39200002 4280377145
0.035788238 -0.028304426 0.39200002 4279982387
0.037061453 -0.028304426 0.39200002 4279916848
0.038334671 -0.028304426 0.39200002 4280771385
0.03960789 -0.028304426 0.39200002 4281359931
0.040881105 -0.028304426 0.39200002 4286226046
0.04215432 -0.028304426 0.39200002 4285895546
0.043427538 -0.028304426 0.39200002 4286158204
0.044700753 -0.028304426 0.39200002 4286158204
0.045973971 -0.028304426 0.39200002 4286223997
0.047367714 -0.02837663 0.39300001 4286157691
0.048644178 -0.02837663 0.39300001 4286354816
0.05004767 -0.028448837 0.39400002 4286289023
0.025863754 -0.027306603 0.39600003 4280107815
0.027081402 -0.027237644 0.39500001 4278926103
0.028364362 -0.027237644 0.39500001 4278729494
0.029572265 -0.027168689 0.39400002 4279256351
0.030773675 -0.027099732 0.39300001 4279322914
0.032050136 -0.027099732 0.39300001 4279652393
0.033326603 -0.027099732 0.39300001 4279981871
0.03451502 -0.027030777 0.39200002 4280114486
0.035788238 -0.027030777 0.39200002 4280114486
0.037155997 -0.027099732 0.39300001 4280443192
0.03843246 -0.027099732 0.39300001 4281295934
0.03960789 -0.027030777 0.39200002 4285764989
0.040881105 -0.027030777 0.39200002 4285764476
0.04215432 -0.027030777 0.39200002 4286026364
0.043427538 -0.027030777 0.39200002 4286157950
0.044700753 -0.027030777 0.39200002 4286223997
0.045973971 -0.027030777 0.39200002 4286223997
0.047367714 -0.027099732 0.39300001 4286223997
0.048644178 -0.027099732 0.39300001 4286157950
0.05004767 -0.027168689 0.39400002 4286223743
0.02579844 -0.02595425 0.39500001 4279646494
0.027081402 -0.02595425 0.39500001 4279320348
0.028364362 -0.02595425 0.39500001 4279190045
0.029572265 -0.025888544 0.39400002 4278862363
0.030851981 -0.025888544 0.39400002 4279257635
0.032050136 -0.025822837 0.39300001 4279521316
0.033326603 -0.025822837 0.39300001 4280574774
0.034603067 -0.025822837 0.39300001 4280114738
0.03587953 -0.025822837 0.39300001 4280377910
0.037155997 -0.025822837 0.39300001 4281096505
0.03843246 -0.025822837 0.39300001 4286028161
0.039708927 -0.025822837 0.39300001 4285896062
0.040881105 -0.02575713 0.39200002 4286092671
0.04215432 -0.02575713 0.39200002 4286092671
0.043427538 -0.02575713 0.39200002 4286157950
0.044586722 -0.025691424 0.39100003 4286157950
0.045856692 -0.025691424 0.39100003 4286157950
0.047367714 -0.025822837 0.39300001 4286223743
0.048644178 -0.025822837 0.39300001 4286157950
0.05004767 -0.025888544 0.39400002 4286289536
0.02579844 -0.024670856 0.39500001 4286487169
0.027081402 -0.024670856 0.39500001 4280961323
0.028364362 -0.024670856 0.39500001 4279646746
0.029572265 -0.024608398 0.39400002 4279452963
0.030851981 -0.024608398 0.39400002 4279585316
0.032131691 -0.024608398 0.39400002 4279783977
0.033411406 -0.024608398 0.39400002 4280639286
0.034691118 -0.024608398 0.39400002 4280441141
0.035970829 -0.024608398 0.39400002 4282675539
0.037250545 -0.024608398 0.39400002 4285697913
0.038530257 -0.024608398 0.39400002 4285961085
0.039708927 -0.02454594 0.39300001 4286092925
0.040881105 -0.024483481 0.39200002 4285961339
0.04215432 -0.024483481 0.39200002 4286092411
0.043316755 -0.024421025 0.39100003 4286223997
0.044472687 -0.024358567 0.39000002 4286158204
0.045856692 -0.024421025 0.39100003 4286223997
0.047367714 -0.02454594 0.39300001 4286289277
0.048644178 -0.02454594 0.39300001 4285960312
0.05004767 -0.024608398 0.39400002 4286157950
0.027081402 -0.02338746 0.39500001 4286223997
0.028364362 -0.02338746 0.39500001 4286618755
0.029572265 -0.023328252 0.39400002 4285764730
0.030851981 -0.023328252 0.39400002 4283923039
0.032131691 -0.023328252 0.39400002 4283397463
0.033411406 -0.023328252 0.39400002 4284844909
0.034691118 -0.023328252 0.39400002 4286356097
0.035970829 -0.023328252 0.39400002 4285961339
0.037250545 -0.023328252 0.39400002 4286223743
0.038530257 -0.023328252 0.39400002 4286092411
0.039809968 -0.023328252 0.39400002 4286223484
0.04108968 -0.023328252 0.39400002 4286223997
0.042369392 -0.023328252 0.39400002 4286355583
0.043649107 -0.023328252 0.39400002 4286223997
0.044472687 -0.023091417 0.39000002 4286223997
0.028292555 -0.022048106 0.39400002 4286618242
0.029572265 -0.022048106 0.39400002 4286223997
0.030851981 -0.022048106 0.39400002 4286092411
0.032131691 -0.022048106 0.39400002 4286158204
0.033411406 -0.022048106 0.39400002 4286092411
0.034691118 -0.022048106 0.39400002 4286158204
0.035970829 -0.022048106 0.39400002 4286223997
0.037250545 -0.022048106 0.39400002 4286289788
0.038530257 -0.022048106 0.39400002 4286223995
0.039809968 -0.022048106 0.39400002 4286092409
0.04108968 -0.022048106 0.39400002 4286092409
0.042369392 -0.022048106 0.39400002 4286158204
0.043649107 -0.022048106 0.39400002 4286289790
0.048965201 -0.043101065 0.39844644 4294967295
0.048965201 -0.043101065 0.39844644 4294901760
0.048965201 -0.043101065 0.39894643 4294901760
0.048965201 -0.043101065 0.39944643 4294901760
0.048965201 -0.043101065 0.39994645 4294901760
0.048965201 -0.043101065 0.40044644 4294901760
0.048965201 -0.043101065 0.40094644 4294901760
0.048965201 -0.043101065 0.40144643 4294901760
0.048965201 -0.043101065 0.40194646 4294901760
0.048965201 -0.043101065 0.40244645 4294901760
0.048965201 -0.043101065 0.40294644 4294901760
0.048965201 -0.043101065 0.40344644 4294901760
0.048965201 -0.043101065 0.40394643 4294901760
0.048965201 -0.043101065 0.40444645 4294901760
0.048965201 -0.043101065 0.40494645 4294901760
0.048965201 -0.043101065 0.40544644 4294901760
0.048965201 -0.043101065 0.40594643 4294901760
0.048965201 -0.043101065 0.40644646 4294901760
0.048965201 -0.043101065 0.40694645 4294901760
0.048965201 -0.043101065 0.40744644 4294901760
0.048965201 -0.043101065 0.40794644 4294901760
0.048965201 -0.043101065 0.40844643 4294901760
0.048965201 -0.043101065 0.40894645 4294901760
0.048965201 -0.043101065 0.40944645 4294901760
0.048965201 -0.043101065 0.40994644 4294901760
0.048965201 -0.043101065 0.41044644 4294901760
0.048965201 -0.043101065 0.41094643 4294901760
0.048965201 -0.043101065 0.41144645 4294901760
0.048965201 -0.043101065 0.41194645 4294901760
0.048965201 -0.043101065 0.41244644 4294901760
0.048965201 -0.043101065 0.41294643 4294901760
0.048965201 -0.043101065 0.41344646 4294901760
0.048965201 -0.043101065 0.41394645 4294901760
0.048965201 -0.043101065 0.41444644 4294901760
0.048965201 -0.043101065 0.41494644 4294901760
0.048965201 -0.043101065 0.41544646 4294901760
0.048965201 -0.043101065 0.41594645 4294901760
0.048965201 -0.043101065 0.41644645 4294901760
0.048965201 -0.043101065 0.41694644 4294901760
0.048965201 -0.043101065 0.41744643 4294901760
0.048965201 -0.043101065 0.41794646 4294901760
0.048965201 -0.043101065 0.41844645 4294901760
0.048965201 -0.043101065 0.41894644 4294901760
0.048965201 -0.043101065 0.41944644 4294901760
0.048965201 -0.043101065 0.41994643 4294901760
0.048965201 -0.043101065 0.42044646 4294901760
0.048965201 -0.043101065 0.42094645 4294901760
0.048965201 -0.043101065 0.42144644 4294901760
0.048965201 -0.043101065 0.42194644 4294901760
0.048965201 -0.043101065 0.42244646 4294901760
0.048965201 -0.043101065 0.42294645 4294901760
0.048965201 -0.043101065 0.42344645 4294901760
0.048965201 -0.043101065 0.42394644 4294901760
0.048965201 -0.043101065 0.42444643 4294901760
0.048965201 -0.043101065 0.42494646 4294901760
0.048965201 -0.043101065 0.42544645 4294901760
0.048965201 -0.043101065 0.42594644 4294901760
0.048965201 -0.043101065 0.42644644 4294901760
0.048965201 -0.043101065 0.42694646 4294901760
0.048965201 -0.043101065 0.42744645 4294901760
0.048965201 -0.043101065 0.42794645 4294901760
0.048965201 -0.043101065 0.42844644 4294901760
0.048965201 -0.043101065 0.42894644 4294901760
0.048965201 -0.043101065 0.42944646 4294901760
0.048965201 -0.043101065 0.42994645 4294901760
0.048965201 -0.043101065 0.43044645 4294901760
0.048965201 -0.043101065 0.43094644 4294901760
0.048965201 -0.043101065 0.43144646 4294901760
0.048965201 -0.043101065 0.43194646 4294901760
0.048965201 -0.043101065 0.43244645 4294901760
0.048965201 -0.043101065 0.43294644 4294901760
0.048965201 -0.043101065 0.43344644 4294901760
0.048965201 -0.043101065 0.43394646 4294901760
0.048965201 -0.043101065 0.43444645 4294901760
0.048965201 -0.043101065 0.43494645 4294901760
0.048965201 -0.043101065 0.43544644 4294901760
0.048965201 -0.043101065 0.43594646 4294901760
0.048965201 -0.043101065 0.43644646 4294901760
0.048965201 -0.043101065 0.43694645 4294901760
0.048965201 -0.043101065 0.43744645 4294901760
0.048965201 -0.043101065 0.43794644 4294901760
0.048965201 -0.043101065 0.43844646 4294901760
0.048965201 -0.043101065 0.43894646 4294901760
0.048965201 -0.043101065 0.43944645 4294901760
0.048965201 -0.043101065 0.43994644 4294901760
0.048965201 -0.043101065 0.44044644 4294901760
0.048965201 -0.043101065 0.44094646 4294901760
0.048965201 -0.043101065 0.44144645 4294901760
0.048965201 -0.043101065 0.44194645 4294901760
0.048965201 -0.043101065 0.44244644 4294901760
0.048965201 -0.043101065 0.44294643 4294901760
0.048965201 -0.043101065 0.44344646 4294901760
0.048965201 -0.043101065 0.44394645 4294901760
0.048965201 -0.043101065 0.44444644 4294901760
0.048965201 -0.043101065 0.44494647 4294901760
0.048965201 -0.043101065 0.44544646 4294901760
0.048965201 -0.043101065 0.44594646 4294901760
0.048965201 -0.043101065 0.44644645 4294901760
0.048965201 -0.043101065 0.44694644 4294901760
0.048965201 -0.043101065 0.44744647 4294901760
0.048965201 -0.043101065 0.44794646 4294901760
0.048965201 -0.043101065 0.44844645 4294901760
0.048965201 -0.043101065 0.39844644 4278255360
0.048767425 -0.042898599 0.39885861 4278255360
0.048569653 -0.042696133 0.3992708 4278255360
0.048371878 -0.042493671 0.399683 4278255360
0.048174106 -0.042291205 0.40009516 4278255360
0.04797633 -0.04208874 0.40050733 4278255360
0.047778558 -0.041886274 0.40091953 4278255360
0.047580782 -0.041683808 0.40133172 4278255360
0.04738301 -0.041481346 0.40174389 4278255360
0.047185235 -0.04127888 0.40215608 4278255360
0.046987463 -0.041076414 0.40256825 4278255360
0.046789687 -0.040873948 0.40298045 4278255360
0.046591915 -0.040671483 0.40339261 4278255360
0.04639414 -0.040469017 0.40380478 4278255360
0.046196364 -0.040266555 0.40421697 4278255360
0.045998592 -0.040064089 0.40462917 4278255360
0.045800816 -0.039861623 0.40504134 4278255360
0.045603044 -0.039659157 0.4054535 4278255360
0.045405269 -0.039456692 0.4058657 4278255360
0.045207497 -0.039254226 0.40627789 4278255360
0.045009721 -0.039051764 0.40669006 4278255360
0.044811949 -0.038849298 0.40710223 4278255360
0.044614173 -0.038646832 0.40751442 4278255360
0.044416398 -0.038444366 0.40792662 4278255360
0.044218626 -0.038241901 0.40833879 4278255360
0.044020854 -0.038039438 0.40875095 4278255360
0.043823078 -0.037836973 0.40916315 4278255360
0.043625303 -0.037634507 0.40957534 4278255360
0.043427531 -0.037432041 0.40998751 4278255360
0.043229755 -0.037229575 0.41039968 4278255360
0.043031983 -0.037027113 0.41081187 4278255360
0.042834207 -0.036824647 0.41122407 4278255360
0.042636435 -0.036622182 0.41163623 4278255360
0.04243866 -0.036419716 0.41204843 4278255360
0.042240888 -0.03621725 0.4124606 4278255360
0.042043112 -0.036014788 0.41287279 4278255360
0.041845337 -0.035812322 0.41328496 4278255360
0.041647565 -0.035609856 0.41369712 4278255360
0.041449793 -0.03540739 0.41410932 4278255360
0.041252017 -0.035204925 0.41452152 4278255360
0.041054241 -0.035002459 0.41493368 4278255360
0.040856469 -0.034799993 0.41534585 4278255360
0.040658697 -0.034597531 0.41575804 4278255360
0.040460922 -0.034395065 0.41617024 4278255360
0.040263146 -0.034192599 0.41658241 4278255360
0.040065374 -0.033990137 0.41699457 4278255360
0.039867599 -0.033787668 0.41740677 4278255360
0.039669827 -0.033585206 0.41781896 4278255360
0.039472051 -0.03338274 0.41823113 4278255360
0.039274275 -0.033180274 0.4186433 4278255360
0.039076503 -0.032977808 0.41905549 4278255360
0.038878731 -0.032775342 0.41946769 4278255360
0.038680956 -0.03257288 0.41987985 4278255360
0.03848318 -0.032370415 0.42029202 4278255360
0.038285408 -0.032167949 0.42070422 4278255360
0.038087633 -0.031965483 0.42111641 4278255360
0.037889861 -0.031763017 0.42152858 4278255360
0.037692085 -0.031560555 0.42194074 4278255360
0.037494313 -0.031358089 0.42235294 4278255360
0.037296537 -0.031155623 0.42276511 4278255360
0.037098765 -0.030953158 0.4231773 4278255360
0.03690099 -0.030750692 0.42358947 4278255360
0.036703214 -0.030548228 0.42400166 4278255360
0.036505442 -0.030345764 0.42441386 4278255360
0.03630767 -0.030143298 0.42482603 4278255360
0.036109895 -0.029940832 0.42523819 4278255360
0.035912119 -0.029738367 0.42565039 4278255360
0.035714347 -0.029535901 0.42606258 4278255360
0.035516571 -0.029333437 0.42647475 4278255360
0.035318799 -0.029130973 0.42688692 4278255360
0.035121024 -0.028928507 0.42729911 4278255360
0.034923252 -0.028726041 0.42771131 4278255360
0.034725476 -0.028523576 0.42812347 4278255360
0.034527704 -0.028321112 0.42853564 4278255360
0.034329928 -0.028118648 0.42894784 4278255360
0.034132153 -0.027916182 0.42936003 4278255360
0.033934381 -0.027713716 0.4297722 4278255360
0.033736609 -0.02751125 0.43018436 4278255360
0.033538833 -0.027308786 0.43059656 4278255360
0.033341058 -0.02710632 0.43100876 4278255360
0.033143282 -0.026903855 0.43142092 4278255360
0.03294551 -0.026701391 0.43183309 4278255360
0.032747738 -0.026498925 0.43224528 4278255360
0.032549962 -0.026296461 0.43265748 4278255360
0.03235219 -0.026093995 0.43306965 4278255360
0.032154415 -0.025891529 0.43348181 4278255360
0.031956643 -0.025689065 0.43389401 4278255360
0.031758867 -0.0254866 0.4343062 4278255360
0.031561092 -0.025284136 0.43471837 4278255360
0.03136332 -0.02508167 0.43513054 4278255360
0.031165546 -0.024879206 0.43554273 4278255360
0.03096777 -0.024676738 0.43595493 4278255360
0.030769996 -0.024474274 0.43636709 4278255360
0.030572223 -0.024271809 0.43677926 4278255360
0.030374451 -0.024069345 0.43719146 4278255360
0.030176677 -0.023866879 0.43760365 4278255360
0.029978903 -0.023664415 0.43801582 4278255360
0.029781127 -0.023461949 0.43842798 4278255360
0.029583354 -0.023259483 0.43884018 4278255360
0.02938558 -0.023057019 0.43925238 4278255360
0.029187806 -0.022854554 0.43966454 4278255360
