# .PCD v0.7 - Point Cloud Data file format
VERSION 0.7
FIELDS x y z rgb
SIZE 4 4 4 4
TYPE F F F U
COUNT 1 1 1 1
WIDTH 1054
HEIGHT 1
VIEWPOINT 0 0 0 1 0 0 0
POINTS 1054
DATA ascii
0.060258206 0.041016694 0.36300001 4281939478
0.061437227 0.041016694 0.36300001 4282465822
0.062788747 0.04112969 0.36400002 4280491782
0.063971028 0.04112969 0.36400002 4280163335
0.065332286 0.041242685 0.36500001 4280163337
0.066517808 0.041242685 0.36500001 4279965958
0.056564875 0.042079877 0.36200002 4281345810
0.057740647 0.042079877 0.36200002 4281149458
0.058916427 0.042079877 0.36200002 4280887056
0.060258206 0.042196121 0.36300001 4281281298
0.061437227 0.042196121 0.36300001 4281676056
0.062788747 0.042312365 0.36400002 4280491528
0.063971028 0.042312365 0.36400002 4280228358
0.065332286 0.042428605 0.36500001 4280294153
0.066517808 0.042428605 0.36500001 4280359946
0.067703329 0.042428605 0.36500001 4283321131
0.056564875 0.043256052 0.36200002 4281147148
0.057740647 0.043256052 0.36200002 4281017359
0.058916427 0.043256052 0.36200002 4280952079
0.060092207 0.043256052 0.36200002 4280821263
0.061437227 0.043375544 0.36300001 4281018642
0.062616251 0.043375544 0.36300001 4280491532
0.063971028 0.043495037 0.36400002 4280228106
0.065153301 0.043495037 0.36400002 4280228360
0.066517808 0.043614529 0.36500001 4280491532
0.056564875 0.044432227 0.36200002 4281147148
0.057581145 0.044309489 0.36100003 4280819980
0.058916427 0.044432227 0.36200002 4280688907
0.060092207 0.044432227 0.36200002 4280821263
0.061437227 0.044554967 0.36300001 4280887056
0.062616251 0.044554967 0.36300001 4280558093
0.063971028 0.044677708 0.36400002 4280097544
0.065153301 0.044677708 0.36400002 4279900424
0.066335566 0.044677708 0.36400002 4280032264
0.067703329 0.044800449 0.36500001 4281741334
0.056408621 0.045482416 0.36100003 4281344527
0.057581145 0.045482416 0.36100003 4280952081
0.058916427 0.045608405 0.36200002 4280820495
0.060092207 0.045608405 0.36200002 4280688909
0.061267979 0.045608405 0.36200002 4281149458
0.062616251 0.045734394 0.36300001 4280754702
0.063795276 0.045734394 0.36300001 4280162313
0.065153301 0.045860387 0.36400002 4280097805
0.066335566 0.045860387 0.36400002 4280032010
0.05523609 0.046655338 0.36100003 4282590485
0.056408621 0.046655338 0.36100003 4281936148
0.057581145 0.046655338 0.36100003 4281083919
0.058916427 0.046784576 0.36200002 4281017872
0.060092207 0.046784576 0.36200002 4281149458
0.061267979 0.046784576 0.36200002 4281215251
0.062616251 0.046913814 0.36300001 4280754189
0.063795276 0.046913814 0.36300001 4280294153
0.065153301 0.047043055 0.36400002 4279965704
0.066335566 0.047043055 0.36400002 4280228876
0.067517839 0.047043055 0.36400002 4279899136
0.05523609 0.047828268 0.36100003 4282851088
0.056408621 0.047828268 0.36100003 4282131728
0.057740647 0.047960754 0.36200002 4281281296
0.058916427 0.047960754 0.36200002 4281215505
0.060092207 0.047960754 0.36200002 4281281298
0.061437227 0.048093241 0.36300001 4281412884
0.062616251 0.048093241 0.36300001 4281083665
0.063795276 0.048093241 0.36300001 4280491532
0.065153301 0.048225731 0.36400002 4280163083
0.066335566 0.048225731 0.36400002 4280097290
0.05523609 0.049001191 0.36100003 4283375376
0.056564875 0.049136925 0.36200002 4282721299
0.057740647 0.049136925 0.36200002 4281675029
0.058916427 0.049136925 0.36200002 4281412884
0.060258206 0.049272664 0.36300001 4281478677
0.061437227 0.049272664 0.36300001 4281544470
0.062616251 0.049272664 0.36300001 4280688396
0.063971028 0.049408402 0.36400002 4280359433
0.065153301 0.049408402 0.36400002 4280228106
0.066335566 0.049408402 0.36400002 4280162567
0.05523609 0.050174121 0.36100003 4283703058
0.056721132 0.050452087 0.36300001 4283245333
0.057900153 0.050452087 0.36300001 4281937431
0.059079178 0.050452087 0.36300001 4281478677
0.060258206 0.050452087 0.36300001 4281412882
0.061606478 0.050591078 0.36400002 4281149710
0.062788747 0.050591078 0.36400002 4280819980
0.063971028 0.050591078 0.36400002 4280425224
0.065153301 0.050591078 0.36400002 4280227845
0.068888851 0.050730061 0.36500001 4281675793
0.05687739 0.051773753 0.36400002 4283703571
0.058059659 0.051773753 0.36400002 4282133012
0.059241932 0.051773753 0.36400002 4281806615
0.060424209 0.051773753 0.36400002 4281149712
0.061606478 0.051773753 0.36400002 4280623368
0.062961243 0.051915988 0.36500001 4280491530
0.064146765 0.051915988 0.36500001 4280228358
0.065332286 0.051915988 0.36500001 4283255088
0.057033643 0.053101905 0.36500001 4283571470
0.058219161 0.053101905 0.36500001 4282591766
0.059404682 0.053101905 0.36500001 4281345292
0.060590208 0.053101905 0.36500001 4280557321
0.061775722 0.053101905 0.36500001 4280557321
0.062961243 0.053101905 0.36500001 4280491530
0.056001134 0.054436568 0.36600003 4283701774
0.057033643 0.054287832 0.36500001 4283308559
0.05837867 0.054436568 0.36600003 4282392852
0.05956744 0.054436568 0.36600003 4281147148
0.06075621 0.054436568 0.36600003 4280623116
0.061944973 0.054436568 0.36600003 4280754702
0.068888851 0.054287832 0.36500001 4281807129
0.056001134 0.055625737 0.36600003 4283111950
0.057189904 0.055625737 0.36600003 4282915600
0.05837867 0.055625737 0.36600003 4282457875
0.05956744 0.055625737 0.36600003 4282132246
0.057346158 0.056970138 0.36700001 4282390285
0.058538172 0.056970138 0.36700001 4282327059
0.059730191 0.056970138 0.36700001 4282526488
0.057502419 0.05832104 0.36800003 4282325777
0.058697678 0.05832104 0.36800003 4282524440
0.057502419 0.059516713 0.36800003 4282588949
0.058697678 0.059516713 0.36800003 4282591516
0.059892945 0.059516713 0.36800003 4282329625
0.057502419 0.060712378 0.36800003 4282852635
0.05885718 0.060877357 0.36900002 4282460443
0.057658672 0.062076278 0.36900002 4282918428
0.05885718 0.062076278 0.36900002 4282133275
0.056460157 0.063275196 0.36900002 4283380264
0.057658672 0.063275196 0.36900002 4282461215
0.05885718 0.063275196 0.36900002 4281938461
0.056460157 0.064474113 0.36900002 4286218867
0.057814926 0.064648837 0.37 4281218599
0.059016682 0.064648837 0.37 4281282847
0.060218446 0.064648837 0.37 4281413663
0.06142021 0.064648837 0.37 4281544990
0.062621966 0.064648837 0.37 4281939746
0.056460157 0.065673038 0.36900002 4287274637
0.057814926 0.06585101 0.37 4287339660
0.059016682 0.06585101 0.37 4288064153
0.060218446 0.06585101 0.37 4287472016
0.06142021 0.06585101 0.37 4286550916
0.062621966 0.06585101 0.37 4286023800
0.06382373 0.06585101 0.37 4286812802
0.056460157 0.066871949 0.36900002 4287340432
0.057814926 0.067053176 0.37 4287406225
0.059016682 0.067053176 0.37 4287406225
0.060218446 0.067053176 0.37 4287340432
0.06142021 0.067053176 0.37 4287274639
0.062621966 0.067053176 0.37 4287274637
0.056460157 0.068070874 0.36900002 4287406225
0.057814926 0.068255343 0.37 4287537811
0.059016682 0.068255343 0.37 4287406225
0.060218446 0.068255343 0.37 4287472018
0.06142021 0.068255343 0.37 4287340432
0.062621966 0.068255343 0.37 4287340432
0.056460157 0.069269791 0.36900002 4287537811
0.057814926 0.069457509 0.37 4287406225
0.059016682 0.069457509 0.37 4287340432
0.060218446 0.069457509 0.37 4287472018
0.06142021 0.069457509 0.37 4287340430
0.062621966 0.069457509 0.37 4287406223
0.056460157 0.070468709 0.36900002 4287472018
0.057814926 0.070659682 0.37 4287406223
0.059016682 0.070659682 0.37 4287340430
0.060218446 0.070659682 0.37 4287274637
0.056460157 0.071667627 0.36900002 4287274639
0.057814926 0.071861841 0.37 4287340432
0.056460157 0.072866544 0.36900002 4287472018
0.057814926 0.073064014 0.37 4287472018
0.056460157 0.074065462 0.36900002 4287537811
0.057814926 0.07426618 0.37 4287603604
0.056460157 0.075264387 0.36900002 4287538324
0.057814926 0.075468346 0.37 4287406738
0.056460157 0.076463297 0.36900002 4287603604
0.057814926 0.076670513 0.37 4287537811
0.056460157 0.077662222 0.36900002 4287406225
0.057814926 0.077872686 0.37 4287406225
0.025819439 0.014280612 0.34400001 4287467643
0.026936755 0.014280612 0.34400001 4285557078
0.028054066 0.014280612 0.34400001 4285422925
0.021412257 0.015443066 0.34500003 4286617990
0.022532815 0.015443066 0.34500003 4287470730
0.023653379 0.015443066 0.34500003 4286342228
0.024702128 0.015398303 0.34400001 4286206272
0.025819439 0.015398303 0.34400001 4286071604
0.026936755 0.015398303 0.34400001 4286531385
0.028054066 0.015398303 0.34400001 4286597176
0.029086581 0.015353541 0.34300002 4286071602
0.030200643 0.015353541 0.34300002 4285219123
0.020291695 0.016564008 0.34500003 4286617990
0.021412257 0.016564008 0.34500003 4286739557
0.022532815 0.016564008 0.34500003 4284823083
0.023584817 0.016515994 0.34400001 4286133549
0.024702128 0.016515994 0.34400001 4286066979
0.025819439 0.016515994 0.34400001 4286065694
0.026936755 0.016515994 0.34400001 4285802522
0.027972514 0.016467985 0.34300002 4285737242
0.029086581 0.016467985 0.34300002 4285671449
0.030200643 0.016467985 0.34300002 4285081631
0.031223409 0.016419971 0.34200001 4285808182
0.032334227 0.016419971 0.34200001 4285224517
0.020291695 0.017684948 0.34500003 4286153841
0.02135019 0.017633686 0.34400001 4285870375
0.022467503 0.017633686 0.34400001 4285542178
0.023584817 0.017633686 0.34400001 4292389013
0.024702128 0.017633686 0.34400001 4285475097
0.025819439 0.017633686 0.34400001 4285802776
0.026858451 0.017582426 0.34300002 4285671190
0.027972514 0.017582426 0.34300002 4285341971
0.029086581 0.017582426 0.34300002 4285276693
0.030112594 0.017531164 0.34200001 4284488724
0.031223409 0.017531164 0.34200001 4290611071
0.032239683 0.017479904 0.34100002 4285284918
0.033347253 0.017479904 0.34100002 4286272326
0.019115565 0.018751377 0.34400001 4287799695
0.020232879 0.018751377 0.34400001 4284762683
0.02135019 0.018751377 0.34400001 4286594350
0.022467503 0.018751377 0.34400001 4287187257
0.023584817 0.018751377 0.34400001 4286527785
0.024630321 0.018696867 0.34300002 4285999385
0.025744384 0.018696867 0.34300002 4285539604
0.026858451 0.018696867 0.34300002 4285079312
0.027972514 0.018696867 0.34300002 4284948755
0.029001778 0.018642357 0.34200001 4284554513
0.030112594 0.018642357 0.34200001 4284751896
0.031132113 0.018587848 0.34100002 4285540642
0.032239683 0.018587848 0.34100002 4285936168
0.033249456 0.018533338 0.34 4286858553
0.03425274 0.018478828 0.33900002 4286203705
0.035353813 0.018478828 0.33900002 4285878338
0.017998252 0.019869069 0.34400001 4286617990
0.019115565 0.019869069 0.34400001 4286741867
0.020232879 0.019869069 0.34400001 4284757029
0.02135019 0.019869069 0.34400001 4285935396
0.022467503 0.019869069 0.34400001 4285935393
0.023516256 0.01981131 0.34300002 4285869598
0.024630321 0.01981131 0.34300002 4285606426
0.025744384 0.01981131 0.34300002 4285145877
0.026858451 0.01981131 0.34300002 4284817169
0.02789096 0.019753549 0.34200001 4284226833
0.029001778 0.019753549 0.34200001 4284161810
0.030024547 0.019695792 0.34100002 4283440663
0.031132113 0.019695792 0.34100002 4283703835
0.032145139 0.019638032 0.34 4285147422
0.033249456 0.019638032 0.34 4285869603
0.03425274 0.019580273 0.33900002 4286198822
0.035249524 0.019522516 0.33800003 4286066982
0.036347348 0.019522516 0.33800003 4286071865
0.017998252 0.020986758 0.34400001 4286683783
0.019115565 0.020986758 0.34400001 4286015062
0.020232879 0.020986758 0.34400001 4285151017
0.021288127 0.020925751 0.34300002 4287450175
0.022402192 0.020925751 0.34300002 4285607455
0.023516256 0.020925751 0.34300002 4285409306
0.024630321 0.020925751 0.34300002 4284752916
0.025669327 0.020864742 0.34200001 4284358158
0.026780145 0.020864742 0.34200001 4283897866
0.02789096 0.020864742 0.34200001 4282717967
0.028916979 0.020803735 0.34100002 4285947990
0.030024547 0.020803735 0.34100002 4287536012
0.031132113 0.020803735 0.34100002 4287536012
0.032145139 0.020742726 0.34 4288060553
0.033151668 0.020681718 0.33900002 4285819736
0.034151699 0.020620711 0.33800003 4284296739
0.035249524 0.020620711 0.33800003 4285739820
0.03623981 0.020559702 0.33700001 4286132520
0.037112817 0.020437686 0.33500001 4286527276
0.038086869 0.020376679 0.33400002 4285872426
0.039171703 0.020376679 0.33400002 4286795842
0.040136002 0.020315669 0.333 4286736986
0.017998252 0.022104451 0.34400001 4286749576
0.019115565 0.022104451 0.34400001 4285948754
0.020174062 0.022040194 0.34300002 4284559648
0.021288127 0.022040194 0.34300002 4285017117
0.022402192 0.022040194 0.34300002 4284621589
0.023516256 0.022040194 0.34300002 4284094732
0.024630321 0.022040194 0.34300002 4284095247
0.025669327 0.021975936 0.34200001 4283701259
0.026780145 0.021975936 0.34200001 4283569934
0.02789096 0.021975936 0.34200001 4287265647
0.028916979 0.021911681 0.34100002 4287339144
0.030024547 0.021911681 0.34100002 4286683783
0.031040816 0.021847421 0.34 4286683783
0.032050595 0.021783166 0.33900002 4286880392
0.033151668 0.021783166 0.33900002 4286880390
0.034151699 0.02171891 0.33800003 4287142279
0.035145234 0.021654651 0.33700001 4286877051
0.036132276 0.021590395 0.33600003 4284493603
0.037112817 0.021526137 0.33500001 4285146650
0.038086869 0.02146188 0.33400002 4286132002
0.03905442 0.021397622 0.333 4286263075
0.040015474 0.021333367 0.33200002 4285738787
0.040970035 0.021269109 0.33100003 4286399801
0.041918095 0.021204852 0.33000001 4286271043
0.042989939 0.021204852 0.33000001 4285679935
0.043928262 0.021140596 0.32900003 4285814088
0.04499685 0.021140596 0.32900003 4286805350
0.017998252 0.023222141 0.34400001 4287075459
0.019115565 0.023222141 0.34400001 4285219377
0.020232879 0.023222141 0.34400001 4284953121
0.021288127 0.023154637 0.34300002 4285148957
0.022402192 0.023154637 0.34300002 4284162321
0.023516256 0.023154637 0.34300002 4283703058
0.024558511 0.023087129 0.34200001 4284030999
0.025669327 0.023087129 0.34200001 4285082914
0.026780145 0.023087129 0.34200001 4285346599
0.027809409 0.023019623 0.34100002 4288577394
0.028916979 0.023019623 0.34100002 4287599232
0.029936496 0.022952117 0.34 4286880390
0.031040816 0.022952117 0.34 4286814597
0.032050595 0.022884611 0.33900002 4287011978
0.033053875 0.022817105 0.33800003 4286749576
0.034050658 0.022749599 0.33700001 4286749576
0.035040949 0.022682093 0.33600003 4286880392
0.036024738 0.022614585 0.33500001 4287602316
0.037002034 0.022547081 0.33400002 4285424980
0.037972834 0.022479573 0.333 4285803807
0.03893714 0.022412067 0.33200002 4287645239
0.040015474 0.022412067 0.33200002 4286988336
0.040970035 0.022344561 0.33100003 4287185969
0.041918095 0.022277055 0.33000001 4286595120
0.04285967 0.022209549 0.32900003 4286924344
0.043928262 0.022209549 0.32900003 4286266414
0.04499685 0.022209549 0.32900003 4285608484
0.018050574 0.024410589 0.34500003 4284497198
0.019115565 0.024339832 0.34400001 4283902231
0.020232879 0.024339832 0.34400001 4283704341
0.02135019 0.024339832 0.34400001 4283768081
0.022402192 0.024269078 0.34300002 4283966743
0.023516256 0.024269078 0.34300002 4283835673
0.024558511 0.024198322 0.34200001 4284098329
0.025669327 0.024198322 0.34200001 4285673248
0.026780145 0.024198322 0.34200001 4286396199
0.027809409 0.024127567 0.34100002 4286067236
0.028832177 0.024056811 0.34 4285672996
0.029936496 0.024056811 0.34 4285417535
0.03094952 0.023986056 0.33900002 4287528819
0.031956051 0.023915302 0.33800003 4287537291
0.032956082 0.023844546 0.33700001 4286946183
0.033949621 0.023773791 0.33600003 4286946183
0.034936655 0.023703035 0.33500001 4286748806
0.0359172 0.023632281 0.33400002 4287076740
0.036891248 0.023561524 0.333 4286804830
0.037972834 0.023561524 0.333 4286197793
0.03893714 0.02349077 0.33200002 4286130717
0.03989495 0.023420015 0.33100003 4286327323
0.040846258 0.023349259 0.33000001 4286326551
0.041918095 0.023349259 0.33000001 4285866770
0.04285967 0.023278505 0.32900003 4285669650
0.043928262 0.023278505 0.32900003 4285671449
0.04486008 0.023207746 0.32800001 4285804062
0.045925427 0.023207746 0.32800001 4284424980
0.017028159 0.025679536 0.347 4285152300
0.018102894 0.025605533 0.34600002 4284754462
0.019171134 0.025531529 0.34500003 4285349166
0.020291695 0.025531529 0.34500003 4284624158
0.02135019 0.025457524 0.34400001 4283967513
0.022467503 0.025457524 0.34400001 4283639321
0.023516256 0.025383521 0.34300002 4283639321
0.024630321 0.025383521 0.34300002 4284362530
0.025669327 0.025309514 0.34200001 4284360986
0.026701842 0.025235511 0.34100002 4284228630
0.027809409 0.025235511 0.34100002 4284951326
0.028832177 0.025161505 0.34 4285674279
0.029848449 0.025087502 0.33900002 4286264365
0.03094952 0.025087502 0.33900002 4285870377
0.031956051 0.025013499 0.33800003 4284495150
0.032956082 0.024939492 0.33700001 4287526252
0.033848576 0.024791483 0.33500001 4287208326
0.03483237 0.02471748 0.33400002 4286814084
0.0359172 0.02471748 0.33400002 4287396715
0.036891248 0.024643475 0.333 4285740070
0.037858803 0.02456947 0.33200002 4286131487
0.038819861 0.024495468 0.33100003 4288368703
0.03989495 0.024495468 0.33100003 4286064151
0.040846258 0.024421461 0.33000001 4286260760
0.041791074 0.024347458 0.32900003 4285669393
0.04285967 0.024347458 0.32900003 4285472014
0.04379474 0.024273453 0.32800001 4285275408
0.04486008 0.024273453 0.32800001 4285145107
0.045925427 0.024273453 0.32800001 4284488720
0.015992749 0.026961481 0.34900001 4284498743
0.017077232 0.02688423 0.34800002 4284490007
0.018155213 0.026806975 0.347 4285674279
0.019226702 0.026729722 0.34600002 4284688152
0.020350512 0.026729722 0.34600002 4284294421
0.021412257 0.02665247 0.34500003 4283506960
0.022532815 0.02665247 0.34500003 4283441682
0.023584817 0.026575215 0.34400001 4283178772
0.024630321 0.026497962 0.34300002 4283178772
0.025669327 0.026420707 0.34200001 4283575842
0.026701842 0.026343456 0.34100002 4285025087
0.027809409 0.026343456 0.34100002 4285027402
0.028832177 0.0262662 0.34 4285356369
0.029848449 0.026188947 0.33900002 4283836452
0.030858226 0.026111694 0.33800003 4285280041
0.031861506 0.026034439 0.33700001 4287913556
0.03285829 0.025957188 0.33600003 4286336834
0.033848576 0.025879933 0.33500001 4284560943
0.03483237 0.025802679 0.33400002 4288776573
0.035809662 0.025725424 0.333 4286134315
0.036780465 0.025648173 0.33200002 4286590752
0.037744772 0.02557092 0.33100003 4285539863
0.038819861 0.02557092 0.33100003 4287252280
0.039774418 0.025493665 0.33000001 4286063377
0.040846258 0.025493665 0.33000001 4285799694
0.041791074 0.025416413 0.32900003 4285472017
0.04285967 0.025416413 0.32900003 4284880652
0.04379474 0.025339158 0.32800001 4284552716
0.04486008 0.025339158 0.32800001 4284619536
0.045925427 0.025339158 0.32800001 4284226833
0.01494435 0.028256424 0.35100001 4284690212
0.016038576 0.028175922 0.35000002 4285411109
0.017126303 0.028095419 0.34900001 4285344803
0.018207535 0.028014917 0.34800002 4284621080
0.01928227 0.027934413 0.347 4284294425
0.020409327 0.027934413 0.347 4283308813
0.02147432 0.027853912 0.34600002 4283178770
0.022598127 0.027853912 0.34600002 4283244565
0.023653379 0.02777341 0.34500003 4282522645
0.024630321 0.027612403 0.34300002 4284697155
0.025669327 0.0275319 0.34200001 4286942592
0.026701842 0.027451398 0.34100002 4287536012
0.027809409 0.027451398 0.34100002 4287932567
0.028747378 0.027290393 0.33900002 4287537809
0.029760402 0.027209891 0.33800003 4286944902
0.030766927 0.027129387 0.33700001 4285757548
0.031766962 0.027048886 0.33600003 4284099622
0.032760497 0.026968382 0.33500001 4285939766
0.033747539 0.026887881 0.33400002 4287322956
0.03472808 0.026807375 0.333 4285740072
0.035702128 0.026726874 0.33200002 4286458909
0.036669683 0.026646372 0.33100003 4286589723
0.037744772 0.026646372 0.33100003 4288104507
0.038702577 0.026565868 0.33000001 4285736731
0.039774418 0.026565868 0.33000001 4285865748
0.040722482 0.026485367 0.32900003 4285274381
0.041791074 0.026485367 0.32900003 4284750095
0.012772494 0.029648112 0.354 4287792756
0.013882958 0.029564362 0.35300002 4284825648
0.014986928 0.029480612 0.35200003 4287056702
0.016084399 0.029396858 0.35100001 4286003242
0.017175376 0.029313108 0.35000002 4284687384
0.018259855 0.029229354 0.34900001 4283899667
0.019393407 0.029229354 0.34900001 4283046670
0.020468144 0.029145604 0.34800002 4282981391
0.021536384 0.02906185 0.347 4282850836
0.022663439 0.02906185 0.347 4283115557
0.023721937 0.0289781 0.34600002 4287008898
0.024702128 0.028810596 0.34400001 4286814086
0.025669327 0.028643092 0.34200001 4286485634
0.026701842 0.028559342 0.34100002 4287209357
0.027809409 0.028559342 0.34100002 4287078541
0.028747378 0.028391838 0.33900002 4287078541
0.029760402 0.028308088 0.33800003 4287078541
0.030766927 0.028224334 0.33700001 4286881162
0.031672414 0.02805683 0.33500001 4287865488
0.032662705 0.02797308 0.33400002 4283583038
0.033646494 0.027889326 0.333 4285016349
0.034623791 0.027805576 0.33200002 4285803037
0.035594594 0.027721826 0.33100003 4286064154
0.036669683 0.027721826 0.33100003 4286064151
0.037630737 0.027638072 0.33000001 4285669393
0.038702577 0.027638072 0.33000001 4285866518
0.03965389 0.027554322 0.32900003 4285275410
0.040722482 0.027554322 0.32900003 4284749836
0.010502495 0.030885298 0.35500002 4287529586
0.011655536 0.030885298 0.35500002 4285219125
0.012772494 0.030798296 0.354 4285936938
0.013882958 0.030711295 0.35300002 4285804582
0.014986928 0.030624295 0.35200003 4285411105
0.016084399 0.030537292 0.35100001 4285279006
0.017224448 0.030537292 0.35100001 4283965460
0.018312177 0.030450294 0.35000002 4283243790
0.019393407 0.030363292 0.34900001 4282719502
0.02052696 0.030363292 0.34900001 4282851090
0.021598449 0.030276291 0.34800002 4282594092
0.022728752 0.030276291 0.34800002 4287864979
0.023721937 0.030102288 0.34600002 4286749578
0.024845745 0.030102288 0.34600002 4286748808
0.025669327 0.029754285 0.34200001 4287011980
0.026701842 0.029667286 0.34100002 4287144336
0.027809409 0.029667286 0.34100002 4287210129
0.028747378 0.029493283 0.33900002 4287078543
0.029760402 0.029406283 0.33800003 4287078543
0.030675631 0.029232282 0.33600003 4286881164
0.031672414 0.02914528 0.33500001 4286683783
0.032564908 0.028971277 0.333 4286946185
0.033545457 0.028884279 0.33200002 4285092681
0.034623791 0.028884279 0.33200002 4285412652
0.035594594 0.028797278 0.33100003 4285539865
0.036558896 0.028710276 0.33000001 4285670936
0.037630737 0.028710276 0.33000001 4285209615
0.038585298 0.028623275 0.32900003 4285078801
0.03965389 0.028623275 0.32900003 4284553486
0.010502495 0.03203873 0.35500002 4286461742
0.011655536 0.03203873 0.35500002 4286000934
0.012772494 0.031948481 0.354 4286460454
0.013882958 0.031858232 0.35300002 4286066209
0.015029504 0.031858232 0.35300002 4285213726
0.016130224 0.031767983 0.35200003 4284227603
0.017224448 0.03167773 0.35100001 4283177743
0.018364497 0.03167773 0.35100001 4282915086
0.019448977 0.031587481 0.35000002 4282653711
0.020585777 0.031587481 0.35000002 4283578413
0.021660512 0.031497229 0.34900001 4287406223
0.022794064 0.031497229 0.34900001 4286814599
0.02392762 0.031497229 0.34900001 4286683785
0.02506117 0.031497229 0.34900001 4287012750
0.026194721 0.031497229 0.34900001 4287275922
0.026701842 0.030775232 0.34100002 4287079056
0.027809409 0.030775232 0.34100002 4287144849
0.028916979 0.030775232 0.34100002 4287079056
0.030024547 0.030775232 0.34100002 4287013263
0.031132113 0.030775232 0.34100002 4286815884
0.032239683 0.030775232 0.34100002 4286749578
0.032564908 0.03005323 0.333 4286552199
0.033545457 0.029962981 0.33200002 4287010693
0.034519505 0.029872732 0.33100003 4284964943
0.035594594 0.029872732 0.33100003 4284753175
0.036558896 0.029782481 0.33000001 4284883732
0.037630737 0.029782481 0.33000001 4284619536
0.038585298 0.029692233 0.32900003 4284357134
0.03965389 0.029692233 0.32900003 4284160527
0.0093757901 0.033285659 0.35600001 4286396719
0.010502495 0.033192161 0.35500002 4285738787
0.011655536 0.033192161 0.35500002 4288437324
0.012772494 0.03309866 0.354 4287908665
0.013882958 0.033005163 0.35300002 4286132770
0.015029504 0.033005163 0.35300002 4284029452
0.016130224 0.032911666 0.35200003 4283373839
0.017273521 0.032911666 0.35200003 4282718221
0.018364497 0.032818165 0.35100001 4282653198
0.020585777 0.032724667 0.35000002 4288060301
0.021660512 0.032631166 0.34900001 4286683783
0.022794064 0.032631166 0.34900001 4287012748
0.023859059 0.032537669 0.34800002 4286749576
0.024989363 0.032537669 0.34800002 4287078541
0.026044609 0.032444168 0.347 4287079054
0.027328275 0.032631166 0.34900001 4287013261
0.028461827 0.032631166 0.34900001 4287013261
0.029595383 0.032631166 0.34900001 4287078541
0.030728932 0.032631166 0.34900001 4286881162
0.031862486 0.032631166 0.34900001 4287012748
0.03299604 0.032631166 0.34900001 4286881162
0.033545457 0.031041684 0.33200002 4287996045
0.034519505 0.030948186 0.33100003 4283119655
0.035487056 0.030854685 0.33000001 4284425495
0.036558896 0.030854685 0.33000001 4284425493
0.037516706 0.030761188 0.32900003 4284096528
0.038585298 0.030761188 0.32900003 4283965458
0.008219501 0.034442339 0.35600001 4285806637
0.0093494533 0.034345593 0.35500002 4286263075
0.010502495 0.034345593 0.35500002 4290410344
0.011622703 0.034248844 0.354 4285540638
0.012772494 0.034248844 0.354 4288896330
0.013882958 0.034152094 0.35300002 4285540633
0.015029504 0.034152094 0.35300002 4283965460
0.016130224 0.034055348 0.35200003 4282980364
0.017273521 0.034055348 0.35200003 4282390026
0.018364497 0.033958599 0.35100001 4282323979
0.019504545 0.033958599 0.35100001 4287398516
0.020585777 0.033861853 0.35000002 4287273351
0.021660512 0.033765104 0.34900001 4286946185
0.022794064 0.033765104 0.34900001 4286881162
0.023859059 0.033668354 0.34800002 4286881162
0.024917552 0.033571605 0.347 4287078541
0.025969554 0.033474859 0.34600002 4286947468
0.02701506 0.033378113 0.34500003 4287276433
0.028054066 0.033281364 0.34400001 4287407506
0.029086581 0.033184614 0.34300002 4287539092
0.030200643 0.033184614 0.34300002 4287407506
0.031862486 0.033765104 0.34900001 4286881162
0.03299604 0.033765104 0.34900001 4286815369
0.032564908 0.032217134 0.333 4287472016
0.033545457 0.032120384 0.33200002 4284433718
0.034519505 0.032023638 0.33100003 4283768597
0.035594594 0.032023638 0.33100003 4283899153
0.036558896 0.031926889 0.33000001 4283833360
0.037516706 0.031830143 0.32900003 4283834644
0.038585298 0.031830143 0.32900003 4283768851
0.03965389 0.031830143 0.32900003 4283571985
0.0081964135 0.035499025 0.35500002 4285606431
0.0093494533 0.035499025 0.35500002 4286722086
0.010502495 0.035499025 0.35500002 4285867545
0.011622703 0.035399023 0.354 4285605404
0.012772494 0.035399023 0.354 4285869600
0.013882958 0.035299029 0.35300002 4284882708
0.015029504 0.035299029 0.35300002 4283111698
0.016130224 0.035199031 0.35200003 4282651660
0.017273521 0.035199031 0.35200003 4282389774
0.018364497 0.035099033 0.35100001 4282324494
0.020585777 0.034999039 0.35000002 4283250479
0.021660512 0.034899037 0.34900001 4286019945
0.022794064 0.034899037 0.34900001 4287995791
0.023859059 0.034799043 0.34800002 4287209357
0.024917552 0.034699045 0.347 4287472529
0.03299604 0.034899037 0.34900001 4287733389
0.033545457 0.033199087 0.33200002 4284359450
0.034623791 0.033199087 0.33200002 4284358421
0.035594594 0.033099093 0.33100003 4284554517
0.036558896 0.032999091 0.33000001 4284686103
0.037516706 0.032899097 0.32900003 4284227605
0.038585298 0.032899097 0.32900003 4283703058
0.0081964135 0.036652453 0.35500002 4285805352
0.0093494533 0.036652453 0.35500002 4285935139
0.01047291 0.036549207 0.354 4285539611
0.011622703 0.036549207 0.354 4285145623
0.012772494 0.036549207 0.354 4284949273
0.013882958 0.03644596 0.35300002 4283898638
0.015029504 0.03644596 0.35300002 4283046157
0.016130224 0.036342718 0.35200003 4282717705
0.017273521 0.036342718 0.35200003 4282389772
0.018416816 0.036342718 0.35200003 4282455565
0.019504545 0.036239468 0.35100001 4282653457
0.020585777 0.036136225 0.35000002 4283113497
0.021660512 0.036032975 0.34900001 4283508257
0.022794064 0.036032975 0.34900001 4284496948
0.033646494 0.034381032 0.333 4284031253
0.034623791 0.034277789 0.33200002 4284292115
0.035594594 0.034174543 0.33100003 4284882712
0.036558896 0.034071296 0.33000001 4284816919
0.037516706 0.03396805 0.32900003 4284751894
0.0093231164 0.03769939 0.354 4285147424
0.01047291 0.03769939 0.354 4284686873
0.011622703 0.03769939 0.354 4284555800
0.012736414 0.037592895 0.35300002 4283701520
0.013882958 0.037592895 0.35300002 4283571218
0.015029504 0.037592895 0.35300002 4282784014
0.016130224 0.0374864 0.35200003 4282520588
0.017273521 0.0374864 0.35200003 4282389772
0.018416816 0.0374864 0.35200003 4282652944
0.019504545 0.037379902 0.35100001 4283439380
0.020585777 0.037273411 0.35000002 4284425759
0.021660512 0.037166912 0.34900001 4284754722
0.022728752 0.037060417 0.34800002 4284360734
0.033747539 0.035569482 0.33400002 4283311641
0.034623791 0.035356492 0.33200002 4284162839
0.035594594 0.035249997 0.33100003 4284423699
0.036558896 0.035143498 0.33000001 4284686101
0.037516706 0.035037003 0.32900003 4284751894
0.038585298 0.035037003 0.32900003 4284488722
0.01047291 0.03884957 0.354 4284492322
0.01158987 0.038739827 0.35300002 4284097564
0.012736414 0.038739827 0.35300002 4283571479
0.013882958 0.038739827 0.35300002 4282980112
0.015029504 0.038739827 0.35300002 4282849039
0.016130224 0.038630083 0.35200003 4282586381
0.017273521 0.038630083 0.35200003 4282389772
0.018416816 0.038630083 0.35200003 4282718737
0.019504545 0.038520336 0.35100001 4284360218
0.020585777 0.038410597 0.35000002 4284359189
0.021660512 0.038300849 0.34900001 4284161810
0.022728752 0.038191106 0.34800002 4283243790
0.033747539 0.036654681 0.33400002 4280224261
0.03472808 0.036544934 0.333 4283441944
0.035702128 0.036435191 0.33200002 4284359189
0.036558896 0.036215704 0.33000001 4284490005
0.037516706 0.036105961 0.32900003 4284686871
0.038585298 0.036105961 0.32900003 4284817687
0.01158987 0.039886761 0.35300002 4284230692
0.012736414 0.039886761 0.35300002 4283768858
0.013882958 0.039886761 0.35300002 4283177491
0.015029504 0.039886761 0.35300002 4282586381
0.016130224 0.03977377 0.35200003 4282323979
0.017273521 0.03977377 0.35200003 4282389002
0.018364497 0.039660774 0.35100001 4283375637
0.019504545 0.039660774 0.35100001 4284293909
0.020585777 0.039547779 0.35000002 4284358419
0.021660512 0.039434783 0.34900001 4284096530
0.035702128 0.037513893 0.33200002 4283899413
0.036558896 0.037287906 0.33000001 4284293911
0.037516706 0.037174914 0.32900003 4284227603
0.038585298 0.037174914 0.32900003 4284555285
0.012736414 0.041033693 0.35300002 4283900185
0.013882958 0.041033693 0.35300002 4283242514
0.015029504 0.041033693 0.35300002 4282586381
0.016130224 0.040917452 0.35200003 4282323979
0.017273521 0.040917452 0.35200003 4282587151
0.018364497 0.040801208 0.35100001 4283770909
0.019504545 0.040801208 0.35100001 4284359704
0.020585777 0.040684965 0.35000002 4284227605
0.021660512 0.040568721 0.34900001 4283375635
0.038585298 0.038243867 0.32900003 4284359189
0.01158987 0.042180628 0.35300002 4284500028
0.012736414 0.042180628 0.35300002 4284162839
0.013882958 0.042180628 0.35300002 4283110667
0.014986928 0.042061135 0.35200003 4282849807
0.016130224 0.042061135 0.35200003 4282521871
0.017273521 0.042061135 0.35200003 4282127887
0.018364497 0.041941643 0.35100001 4283577128
0.019504545 0.041941643 0.35100001 4283703319
0.020585777 0.04182215 0.35000002 4284097562
0.021660512 0.041702658 0.34900001 4282062605
0.038702577 0.039432313 0.33000001 4284228632
0.03965389 0.039312821 0.32900003 4284359189
0.01158987 0.043327559 0.35300002 4283319350
0.012736414 0.043327559 0.35300002 4284425757
0.01384363 0.043204818 0.35200003 4283373839
0.014986928 0.043204818 0.35200003 4282653198
0.016130224 0.043204818 0.35200003 4282719252
0.017273521 0.043204818 0.35200003 4288254852
0.019448977 0.042959336 0.35000002 4287006586
0.020585777 0.042959336 0.35000002 4282198818
0.021660512 0.042836595 0.34900001 4281539607
0.039774418 0.040504515 0.33000001 4284555800
0.011557038 0.044348504 0.35200003 4284570444
0.012700334 0.044348504 0.35200003 4283635727
0.01384363 0.044348504 0.35200003 4283571218
0.014986928 0.044348504 0.35200003 4282980879
0.016130224 0.044348504 0.35200003 4282390285
0.017273521 0.044348504 0.35200003 4288059785
0.039774418 0.041576721 0.33000001 4284095765
0.01384363 0.045492187 0.35200003 4283701522
0.014986928 0.045492187 0.35200003 4283111952
0.016130224 0.045492187 0.35200003 4282915346
0.03965389 0.042519685 0.32900003 4283965460
0.012700334 0.046635874 0.35200003 4284294173
0.01384363 0.046635874 0.35200003 4283964694
0.014986928 0.046635874 0.35200003 4283637013
0.016130224 0.046635874 0.35200003 4283440917
0.012700334 0.047779553 0.35200003 4284558113
0.01384363 0.047779553 0.35200003 4284162071
0.014986928 0.047779553 0.35200003 4283702804
0.016084399 0.047643814 0.35100001 4283702806
0.017224448 0.047643814 0.35100001 4282397226
0.018364497 0.047643814 0.35100001 4287207560
0.038585298 0.044657595 0.32900003 4281339394
0.03965389 0.044657595 0.32900003 4284096019
0.01384363 0.048923239 0.35200003 4284161042
0.01494435 0.048784252 0.35100001 4284293657
0.016084399 0.048784252 0.35100001 4283767827
0.017224448 0.048784252 0.35100001 4281867025
0.013804302 0.04992469 0.35100001 4284818205
0.01494435 0.04992469 0.35100001 4284555546
0.016084399 0.04992469 0.35100001 4284095765
0.017224448 0.04992469 0.35100001 4283243286
0.01494435 0.051065121 0.35100001 4284751896
0.016084399 0.051065121 0.35100001 4284687386
0.017175376 0.050919637 0.35000002 4284359450
0.018312177 0.050919637 0.35000002 4287393120
0.01494435 0.052205559 0.35100001 4285014298
0.016084399 0.052205559 0.35100001 4285080091
0.017175376 0.052056827 0.35000002 4284883480
0.018312177 0.052056827 0.35000002 4283637011
0.01494435 0.053345989 0.35100001 4285408799
0.016038576 0.053194009 0.35000002 4285211420
0.017175376 0.053194009 0.35000002 4285343004
0.018312177 0.053194009 0.35000002 4285080089
0.016038576 0.054331198 0.35000002 4285539100
0.017175376 0.054331198 0.35000002 4285539098
0.018312177 0.054331198 0.35000002 4285539098
0.019393407 0.054175962 0.34900001 4283571731
0.02052696 0.054175962 0.34900001 4288584841
0.032064199 0.041652679 0.33798528 4294967295
0.032064199 0.041652679 0.33798528 4294901760
0.032064199 0.041152887 0.33799973 4294901760
0.032064199 0.040653098 0.33801419 4294901760
0.032064199 0.040153306 0.33802861 4294901760
0.032064199 0.039653514 0.33804306 4294901760
0.032064199 0.039153725 0.33805752 4294901760
0.032064199 0.038653933 0.33807197 4294901760
0.032064199 0.03815414 0.33808643 4294901760
0.032064199 0.037654351 0.33810085 4294901760
0.032064199 0.037154559 0.3381153 4294901760
0.032064199 0.036654767 0.33812976 4294901760
0.032064199 0.036154978 0.33814421 4294901760
0.032064199 0.035655186 0.33815867 4294901760
0.032064199 0.035155393 0.33817309 4294901760
0.032064199 0.034655601 0.33818755 4294901760
0.032064199 0.034155812 0.338202 4294901760
0.032064199 0.03365602 0.33821645 4294901760
0.032064199 0.033156231 0.33823091 4294901760
0.032064199 0.032656439 0.33824533 4294901760
0.032064199 0.032156646 0.33825979 4294901760
0.032064199 0.031656854 0.33827424 4294901760
0.032064199 0.031157065 0.33828869 4294901760
0.032064199 0.030657273 0.33830315 4294901760
0.032064199 0.03015748 0.33831757 4294901760
0.032064199 0.029657692 0.33833203 4294901760
0.032064199 0.029157899 0.33834648 4294901760
0.032064199 0.028658109 0.33836094 4294901760
0.032064199 0.028158316 0.33837539 4294901760
0.032064199 0.027658526 0.33838981 4294901760
0.032064199 0.027158735 0.33840427 4294901760
0.032064199 0.026658943 0.33841872 4294901760
0.032064199 0.026159152 0.33843318 4294901760
0.032064199 0.025659362 0.33844763 4294901760
0.032064199 0.025159569 0.33846205 4294901760
0.032064199 0.024659779 0.33847651 4294901760
0.032064199 0.024159988 0.33849096 4294901760
0.032064199 0.023660196 0.33850542 4294901760
0.032064199 0.023160405 0.33851987 4294901760
0.032064199 0.022660613 0.3385343 4294901760
0.032064199 0.022160823 0.33854875 4294901760
0.032064199 0.02166103 0.3385632 4294901760
0.032064199 0.02116124 0.33857766 4294901760
0.032064199 0.020661449 0.33859211 4294901760
0.032064199 0.020161657 0.33860654 4294901760
0.032064199 0.019661866 0.33862099 4294901760
0.032064199 0.019162076 0.33863544 4294901760
0.032064199 0.018662283 0.3386499 4294901760
0.032064199 0.018162493 0.33866435 4294901760
0.032064199 0.017662702 0.33867878 4294901760
0.032064199 0.01716291 0.33869323 4294901760
0.032064199 0.016663119 0.33870769 4294901760
0.032064199 0.016163329 0.33872214 4294901760
0.032064199 0.015663538 0.33873659 4294901760
0.032064199 0.015163748 0.33875102 4294901760
0.032064199 0.014663953 0.33876547 4294901760
0.032064199 0.014164163 0.33877993 4294901760
0.032064199 0.013664372 0.33879438 4294901760
0.032064199 0.013164582 0.33880883 4294901760
0.032064199 0.012664791 0.33882326 4294901760
0.032064199 0.012164999 0.33883771 4294901760
0.032064199 0.011665206 0.33885217 4294901760
0.032064199 0.011165416 0.33886662 4294901760
0.032064199 0.010665625 0.33888108 4294901760
0.032064199 0.010165833 0.3388955 4294901760
0.032064199 0.0096660443 0.33890995 4294901760
0.032064199 0.0091662519 0.33892441 4294901760
0.032064199 0.0086664595 0.33893886 4294901760
0.032064199 0.0081666671 0.33895332 4294901760
0.032064199 0.0076668784 0.33896774 4294901760
0.032064199 0.007167086 0.33898219 4294901760
0.032064199 0.0066672973 0.33899665 4294901760
0.032064199 0.0061675049 0.3390111 4294901760
0.032064199 0.0056677125 0.33902556 4294901760
0.032064199 0.0051679201 0.33903998 4294901760
0.032064199 0.0046681315 0.33905444 4294901760
0.032064199 0.0041683391 0.33906889 4294901760
0.032064199 0.0036685467 0.33908334 4294901760
0.032064199 0.003168758 0.3390978 4294901760
0.032064199 0.0026689656 0.33911222 4294901760
0.032064199 0.0021691732 0.33912668 4294901760
0.032064199 0.0016693808 0.33914113 4294901760
0.032064199 0.0011695921 0.33915558 4294901760
0.032064199 0.00066979975 0.33917004 4294901760
0.032064199 0.00017001107 0.33918446 4294901760
0.032064199 -0.00032978132 0.33919892 4294901760
0.032064199 -0.00082957372 0.33921337 4294901760
0.032064199 -0.0013293661 0.33922783 4294901760
0.032064199 -0.0018291548 0.33924228 4294901760
0.032064199 -0.0023289472 0.3392567 4294901760
0.032064199 -0.0028287359 0.33927116 4294901760
0.032064199 -0.0033285283 0.33928561 4294901760
0.032064199 -0.0038283207 0.33930007 4294901760
0.032064199 -0.004328113 0.33931452 4294901760
0.032064199 -0.0048279017 0.33932894 4294901760
0.032064199 -0.0053276941 0.3393434 4294901760
0.032064199 -0.0058274828 0.33935785 4294901760
0.032064199 -0.0063272752 0.33937231 4294901760
0.032064199 -0.0068270676 0.33938676 4294901760
0.032064199 -0.00732686 0.33940119 4294901760
0.032064199 -0.0078266487 0.33941564 4294901760
0.032064199 -0.008326441 0.33943009 4294901760
0.032064199 0.041652679 0.33798528 4278255360
0.032437269 0.041643061 0.3376525 4278255360
0.032810334 0.041633442 0.33731976 4278255360
0.033183403 0.04162382 0.33698699 4278255360
0.033556469 0.041614201 0.33665425 4278255360
0.033929538 0.041604582 0.33632147 4278255360
0.034302603 0.041594964 0.33598873 4278255360
0.034675673 0.041585341 0.33565596 4278255360
0.035048738 0.041575722 0.33532321 4278255360
0.035421807 0.041566104 0.33499044 4278255360
0.035794873 0.041556485 0.3346577 4278255360
0.036167942 0.041546863 0.33432493 4278255360
0.036541007 0.041537244 0.33399218 4278255360
0.036914077 0.041527625 0.33365941 4278255360
0.037287142 0.041518006 0.33332667 4278255360
0.037660211 0.041508388 0.33299389 4278255360
0.038033277 0.041498765 0.33266115 4278255360
0.038406346 0.041489147 0.33232838 4278255360
0.038779411 0.041479528 0.33199564 4278255360
0.039152481 0.041469909 0.33166286 4278255360
0.039525546 0.041460287 0.33133012 4278255360
0.039898615 0.041450668 0.33099735 4278255360
0.040271685 0.041441049 0.3306646 4278255360
0.04064475 0.041431431 0.33033183 4278255360
0.041017815 0.041421808 0.32999909 4278255360
0.041390885 0.04141219 0.32966632 4278255360
0.041763954 0.041402571 0.32933354 4278255360
0.042137019 0.041392952 0.3290008 4278255360
0.042510085 0.041383334 0.32866803 4278255360
0.042883154 0.041373711 0.32833529 4278255360
0.043256223 0.041364092 0.32800251 4278255360
0.043629289 0.041354474 0.32766977 4278255360
0.044002354 0.041344855 0.327337 4278255360
0.044375423 0.041335233 0.32700425 4278255360
0.044748493 0.041325614 0.32667148 4278255360
0.045121558 0.041315995 0.32633874 4278255360
0.045494627 0.041306376 0.32600597 4278255360
0.045867693 0.041296754 0.32567322 4278255360
0.046240762 0.041287135 0.32534045 4278255360
0.046613827 0.041277517 0.32500771 4278255360
0.046986897 0.041267898 0.32467493 4278255360
0.047359962 0.041258279 0.32434219 4278255360
0.047733031 0.041248657 0.32400942 4278255360
0.048106097 0.041239038 0.32367668 4278255360
0.048479166 0.041229419 0.3233439 4278255360
0.048852235 0.041219801 0.32301116 4278255360
0.049225301 0.041210178 0.32267839 4278255360
0.049598366 0.04120056 0.32234564 4278255360
0.049971435 0.041190941 0.32201287 4278255360
0.050344504 0.041181322 0.32168013 4278255360
0.05071757 0.0411717 0.32134736 4278255360
0.051090635 0.041162081 0.32101458 4278255360
0.051463705 0.041152462 0.32068184 4278255360
0.051836774 0.041142844 0.3203491 4278255360
0.052209839 0.041133225 0.32001632 4278255360
0.052582905 0.041123603 0.31968355 4278255360
0.052955974 0.041113984 0.31935081 4278255360
0.053329043 0.041104365 0.31901804 4278255360
0.053702109 0.041094746 0.31868529 4278255360
0.054075174 0.041085124 0.31835252 4278255360
0.054448247 0.041075505 0.31801978 4278255360
0.054821312 0.041065887 0.317687 4278255360
0.055194378 0.041056268 0.31735426 4278255360
0.055567443 0.041046649 0.31702149 4278255360
0.055940513 0.041037027 0.31668875 4278255360
0.056313582 0.041027408 0.31635597 4278255360
0.056686647 0.041017789 0.31602323 4278255360
0.057059716 0.041008171 0.31569046 4278255360
0.057432786 0.040998548 0.31535771 4278255360
0.057805851 0.04098893 0.31502494 4278255360
0.058178917 0.040979311 0.3146922 4278255360
0.058551982 0.040969692 0.31435943 4278255360
0.058925055 0.04096007 0.31402665 4278255360
0.05929812 0.040950451 0.31369391 4278255360
0.059671186 0.040940832 0.31336117 4278255360
0.060044255 0.040931214 0.3130284 4278255360
0.060417324 0.040921595 0.31269562 4278255360
0.06079039 0.040911973 0.31236288 4278255360
0.061163455 0.040902354 0.31203014 4278255360
0.061536528 0.040892735 0.31169736 4278255360
0.061909594 0.040883116 0.31136459 4278255360
0.062282659 0.040873494 0.31103185 4278255360
0.062655725 0.040863875 0.31069908 4278255360
0.063028798 0.040854257 0.31036633 4278255360
0.063401863 0.040844638 0.31003356 4278255360
0.063774928 0.040835015 0.30970082 4278255360
0.064147994 0.040825397 0.30936804 4278255360
0.064521059 0.040815778 0.3090353 4278255360
0.064894132 0.040806159 0.30870253 4278255360
0.065267198 0.040796541 0.30836979 4278255360
0.065640271 0.040786918 0.30803701 4278255360
0.066013336 0.0407773 0.30770427 4278255360
0.066386402 0.040767681 0.3073715 4278255360
0.066759467 0.040758062 0.30703875 4278255360
0.067132533 0.04074844 0.30670598 4278255360
0.067505598 0.040738821 0.30637324 4278255360
0.067878671 0.040729202 0.30604047 4278255360
0.068251744 0.040719584 0.30570769 4278255360
0.068624809 0.040709961 0.30537495 4278255360
0.068997875 0.040700343 0.30504221 4278255360
0.06937094 0.040690724 0.30470943 4278255360
0.032064199 0.041652679 0.33798528 4278190335
0.032397099 0.04166346 0.33835819 4278190335
0.032729995 0.041674241 0.33873111 4278190335
0.033062894 0.041685019 0.33910403 4278190335
0.03339579 0.0416958 0.33947691 4278190335
0.033728689 0.041706581 0.33984983 4278190335
0.034061585 0.041717362 0.34022275 4278190335
0.034394484 0.041728143 0.34059566 4278190335
0.03472738 0.041738924 0.34096858 4278190335
0.035060279 0.041749701 0.3413415 4278190335
0.035393175 0.041760482 0.34171438 4278190335
0.035726074 0.041771263 0.3420873 4278190335
0.03605897 0.041782044 0.34246022 4278190335
0.036391869 0.041792825 0.34283313 4278190335
0.036724765 0.041803602 0.34320605 4278190335
0.037057664 0.041814383 0.34357896 4278190335
0.03739056 0.041825164 0.34395185 4278190335
0.037723459 0.041835945 0.34432477 4278190335
0.038056355 0.041846726 0.34469768 4278190335
0.038389254 0.041857507 0.3450706 4278190335
0.03872215 0.041868284 0.34544352 4278190335
0.039055049 0.041879065 0.34581643 4278190335
0.039387945 0.041889846 0.34618932 4278190335
0.039720844 0.041900627 0.34656224 4278190335
0.04005374 0.041911408 0.34693515 4278190335
0.04038664 0.041922189 0.34730807 4278190335
0.040719539 0.041932967 0.34768099 4278190335
0.041052435 0.041943748 0.3480539 4278190335
0.04138533 0.041954529 0.34842682 4278190335
0.04171823 0.04196531 0.34879971 4278190335
0.042051129 0.041976091 0.34917262 4278190335
0.042384025 0.041986868 0.34954554 4278190335
0.04271692 0.041997649 0.34991845 4278190335
0.04304982 0.04200843 0.35029137 4278190335
0.043382719 0.042019211 0.35066429 4278190335
0.043715615 0.042029992 0.35103717 4278190335
0.044048514 0.042040773 0.35141009 4278190335
0.04438141 0.04205155 0.35178301 4278190335
0.044714309 0.042062331 0.35215592 4278190335
0.045047205 0.042073112 0.35252884 4278190335
0.045380104 0.042083893 0.35290176 4278190335
0.045713 0.042094674 0.35327464 4278190335
0.046045899 0.042105451 0.35364756 4278190335
0.046378799 0.042116232 0.35402048 4278190335
0.046711694 0.042127013 0.35439339 4278190335
0.04704459 0.042137794 0.35476631 4278190335
0.04737749 0.042148575 0.35513923 4278190335
0.047710389 0.042159356 0.35551214 4278190335
0.048043285 0.042170133 0.35588503 4278190335
0.04837618 0.042180914 0.35625795 4278190335
0.04870908 0.042191695 0.35663086 4278190335
0.049041979 0.042202476 0.35700378 4278190335
0.049374875 0.042213257 0.35737669 4278190335
0.04970777 0.042224035 0.35774958 4278190335
0.05004067 0.042234816 0.3581225 4278190335
0.050373569 0.042245597 0.35849541 4278190335
0.050706465 0.042256378 0.35886833 4278190335
0.05103936 0.042267159 0.35924125 4278190335
0.05137226 0.04227794 0.35961416 4278190335
0.051705159 0.042288717 0.35998708 4278190335
0.052038059 0.042299498 0.36035997 4278190335
0.052370954 0.042310279 0.36073288 4278190335
0.05270385 0.04232106 0.3611058 4278190335
0.053036749 0.042331841 0.36147872 4278190335
0.053369645 0.042342618 0.36185163 4278190335
0.053702541 0.042353399 0.36222455 4278190335
0.05403544 0.04236418 0.36259747 4278190335
0.054368339 0.042374961 0.36297035 4278190335
0.054701239 0.042385742 0.36334327 4278190335
0.055034135 0.042396523 0.36371619 4278190335
0.05536703 0.0424073 0.3640891 4278190335
0.05569993 0.042418081 0.36446202 4278190335
0.056032829 0.042428862 0.3648349 4278190335
0.056365725 0.042439643 0.36520782 4278190335
0.05669862 0.042450424 0.36558074 4278190335
0.05703152 0.042461202 0.36595365 4278190335
0.057364419 0.042471983 0.36632657 4278190335
0.057697315 0.042482764 0.36669949 4278190335
0.05803021 0.042493545 0.3670724 4278190335
0.05836311 0.042504326 0.36744529 4278190335
0.058696009 0.042515106 0.36781821 4278190335
0.059028905 0.042525884 0.36819112 4278190335
0.059361801 0.042536665 0.36856404 4278190335
0.0596947 0.042547446 0.36893696 4278190335
0.060027599 0.042558227 0.36930984 4278190335
0.060360499 0.042569008 0.36968276 4278190335
0.060693394 0.042579789 0.37005568 4278190335
0.06102629 0.042590566 0.37042859 4278190335
0.061359189 0.042601347 0.37080151 4278190335
0.061692085 0.042612128 0.37117442 4278190335
0.062024981 0.042622909 0.37154734 4278190335
0.06235788 0.04263369 0.37192023 4278190335
0.06269078 0.042644467 0.37229314 4278190335
0.063023679 0.042655248 0.37266606 4278190335
0.063356578 0.042666029 0.37303898 4278190335
0.06368947 0.04267681 0.37341189 4278190335
0.06402237 0.042687591 0.37378481 4278190335
0.064355269 0.042698372 0.37415773 4278190335
0.064688161 0.042709149 0.37453061 4278190335
0.065021068 0.04271993 0.37490353 4278190335
0.06535396 0.042730711 0.37527645 4278190335
0.032064199 0.041652679 0.33798528 4294967295
