# .PCD v0.7 - Point Cloud Data file format
VERSION 0.7
FIELDS x y z rgb
SIZE 4 4 4 4
TYPE F F F U
COUNT 1 1 1 1
WIDTH 1033
HEIGHT 1
VIEWPOINT 0 0 0 1 0 0 0
POINTS 1033
DATA ascii
-0.028823378 0.022277055 0.33000001 4278199296
-0.027751539 0.022277055 0.33000001 4278862363
-0.02659885 0.022209549 0.32900003 4278863390
-0.025530258 0.022209549 0.32900003 4278797597
-0.018014582 0.02092693 0.31 4278732570
-0.016952839 0.020859424 0.30900002 4278798365
-0.015949206 0.020859424 0.30900002 4278929951
-0.014897207 0.020791918 0.30800003 4278930464
-0.013896822 0.020791918 0.30800003 4278930464
-0.012854566 0.020724412 0.30700001 4278930462
-0.011857429 0.020724412 0.30700001 4278864669
-0.010860292 0.020724412 0.30700001 4279127841
-0.009863155 0.020724412 0.30700001 4278733337
-0.0088660195 0.020724412 0.30700001 4278864923
-0.0078688823 0.020724412 0.30700001 4278996509
-0.0068717459 0.020724412 0.30700001 4279062302
-0.03096706 0.023349259 0.33000001 4279191842
-0.02989522 0.023349259 0.33000001 4278201354
-0.028823378 0.023349259 0.33000001 4278792466
-0.027667444 0.023278505 0.32900003 4279255838
-0.02659885 0.023278505 0.32900003 4278862877
-0.025452657 0.023207746 0.32800001 4278929183
-0.024312964 0.023136992 0.32700002 4278863390
-0.020286774 0.022217173 0.31400001 4278929183
-0.019328261 0.022287929 0.31500003 4278929183
-0.018072695 0.022004908 0.31100002 4278863388
-0.017007701 0.021934152 0.31 4278929181
-0.015949206 0.021863397 0.30900002 4278929951
-0.014945573 0.021863397 0.30900002 4278798365
-0.013896822 0.021792643 0.30800003 4278995744
-0.012896438 0.021792643 0.30800003 4278995744
-0.011857429 0.021721886 0.30700001 4278929951
-0.010860292 0.021721886 0.30700001 4278929949
-0.009863155 0.021721886 0.30700001 4279061535
-0.0088660195 0.021721886 0.30700001 4278995742
-0.0078688823 0.021721886 0.30700001 4278798363
-0.0068717459 0.021721886 0.30700001 4278995742
-0.03096706 0.024421461 0.33000001 4279191588
-0.02980463 0.024347458 0.32900003 4279783211
-0.028736036 0.024347458 0.32900003 4279385889
-0.027667444 0.024347458 0.32900003 4279255838
-0.026518 0.024273453 0.32800001 4278533912
-0.025375059 0.024199449 0.32700002 4279389221
-0.024312964 0.024199449 0.32700002 4278993949
-0.02317976 0.024125444 0.32600001 4278928156
-0.020286774 0.02323739 0.31400001 4278863390
-0.019328261 0.023311397 0.31500003 4278863390
-0.018130805 0.023089381 0.31200001 4278797595
-0.017062565 0.023015378 0.31100002 4278863388
-0.01600082 0.022941373 0.31 4279060767
-0.014945573 0.022867369 0.30900002 4278732572
-0.013941941 0.022867369 0.30900002 4278798365
-0.012896438 0.022793366 0.30800003 4278798365
-0.011896053 0.022793366 0.30800003 4278732572
-0.010931043 0.022867369 0.30900002 4278732572
-0.0099274106 0.022867369 0.30900002 4278798365
-0.0089237783 0.022867369 0.30900002 4278995744
-0.0078688823 0.022719359 0.30700001 4278600986
-0.0068717459 0.022719359 0.30700001 4278929951
-0.03087322 0.025416413 0.32900003 4279125795
-0.02980463 0.025416413 0.32900003 4278200075
-0.028648691 0.025339158 0.32800001 4278529556
-0.027583348 0.025339158 0.32800001 4279190558
-0.026437154 0.025261905 0.32700002 4278198532
-0.025375059 0.025261905 0.32700002 4278526476
-0.024238611 0.02518465 0.32600001 4278394376
-0.023037553 0.025030144 0.324 4278196740
-0.021781635 0.024798384 0.32100001 4278396427
-0.020609813 0.024643876 0.31900001 4278660369
-0.01938962 0.024412116 0.31600001 4279056922
-0.018247029 0.024257608 0.31400001 4279386400
-0.017172294 0.024180356 0.31300002 4279257121
-0.016052438 0.024025848 0.31100002 4278797084
-0.015042309 0.024025848 0.31100002 4278797597
-0.01398706 0.023948593 0.31 4278797597
-0.012938309 0.023871342 0.30900002 4278929953
-0.011934676 0.023871342 0.30900002 4278929953
-0.010931043 0.023871342 0.30900002 4278863390
-0.0098952837 0.023794089 0.30800003 4279060769
-0.0089237783 0.023871342 0.30900002 4278863390
-0.007920146 0.023871342 0.30900002 4278863390
-0.0069165132 0.023871342 0.30900002 4278797595
-0.03087322 0.026485367 0.32900003 4279125795
-0.029714037 0.026404863 0.32800001 4279188510
-0.028648691 0.026404863 0.32800001 4280042281
-0.027583348 0.026404863 0.32800001 4279518756
-0.026437154 0.026324362 0.32700002 4278329097
-0.025297457 0.026243858 0.32600001 4278787853
-0.024164259 0.026163356 0.32500002 4278655756
-0.023037553 0.026082853 0.324 4278852365
-0.021781635 0.025841344 0.32100001 4278721549
-0.020609813 0.025680339 0.31900001 4278721549
-0.019450979 0.025519334 0.317 4278656269
-0.01830514 0.02535833 0.31500003 4278721547
-0.017227156 0.025277827 0.31400001 4278460169
-0.016155669 0.025197325 0.31300002 4278263304
-0.015090675 0.025116822 0.31200001 4278597654
-0.014032179 0.02503632 0.31100002 4278992412
-0.01298018 0.024955815 0.31 4279519269
-0.011934676 0.024875313 0.30900002 4279125281
-0.010931043 0.024875313 0.30900002 4278862623
-0.0099274106 0.024875313 0.30900002 4278928670
-0.0088948989 0.024794811 0.30800003 4278863390
-0.0078688823 0.024714308 0.30700001 4278731804
-0.006849363 0.024633806 0.30600002 4278797082
-0.0058554742 0.024633806 0.30600002 4278928668
-0.033010408 0.027554322 0.32900003 4279126562
-0.031844724 0.027470568 0.32800001 4279060769
-0.03077938 0.027470568 0.32800001 4279455014
-0.029714037 0.027470568 0.32800001 4278464785
-0.028648691 0.027470568 0.32800001 4280108840
-0.027499253 0.027386818 0.32700002 4279320861
-0.026356306 0.027303064 0.32600001 4278657548
-0.025297457 0.027303064 0.32600001 4279116305
-0.024089906 0.02713556 0.324 4278983437
-0.02296645 0.02705181 0.32300001 4279180816
-0.021781635 0.026884306 0.32100001 4278983437
-0.020609813 0.026716802 0.31900001 4278983437
-0.019512339 0.026633052 0.31800002 4278983437
-0.01836325 0.026465548 0.31600001 4279115023
-0.01728202 0.026381798 0.31500003 4278983437
-0.016155669 0.026214294 0.31300002 4278852365
-0.015090675 0.02613054 0.31200001 4278330380
-0.014077298 0.02613054 0.31200001 4278925338
-0.013022052 0.02604679 0.31100002 4278265870
-0.011973299 0.025963036 0.31 4278198536
-0.010931043 0.025879286 0.30900002 4278196994
-0.0099274106 0.025879286 0.30900002 4278198793
-0.0088948989 0.025795536 0.30800003 4278529556
-0.0078688823 0.025711782 0.30700001 4278991131
-0.006849363 0.025628032 0.30600002 4279386654
-0.0058554742 0.025628032 0.30600002 4279321629
-0.00482981 0.025460528 0.30400002 4279124761
-0.0038424178 0.025460528 0.30400002 4278993945
-0.0028456338 0.025376774 0.303 4278928666
-0.0018553457 0.025293024 0.30200002 4278862873
-0.00087155367 0.025209274 0.30100003 4279126045
0.00010574244 0.02512552 0.30000001 4278994461
0.0010765425 0.02504177 0.29900002 4278928668
0.0020408465 0.024958016 0.29800001 4278994461
0.003008751 0.024958016 0.29800001 4278929181
0.012474914 0.024539258 0.29300001 4279260197
0.013426579 0.024539258 0.29300001 4279260197
0.014329172 0.024455508 0.29200003 4281297477
0.015277587 0.024455508 0.29200003 4279453476
0.016226003 0.024455508 0.29200003 4280374065
0.017174421 0.024455508 0.29200003 4281425218
-0.034079 0.028623275 0.32900003 4279060515
-0.033010408 0.028623275 0.32900003 4278863390
-0.031844724 0.028536273 0.32800001 4279126562
-0.03077938 0.028536273 0.32800001 4278994463
-0.029714037 0.028536273 0.32800001 4278530578
-0.028561348 0.028449275 0.32700002 4279714852
-0.027499253 0.028449275 0.32700002 4279452193
-0.026356306 0.028362272 0.32600001 4278723341
-0.02521986 0.028275272 0.32500002 4280696622
-0.024089906 0.02818827 0.324 4279116820
-0.02296645 0.028101269 0.32300001 4279511578
-0.021781635 0.027927268 0.32100001 4279314199
-0.020609813 0.027753266 0.31900001 4279708957
-0.019512339 0.027666267 0.31800002 4279774235
-0.01836325 0.027492264 0.31600001 4278720777
-0.01728202 0.027405264 0.31500003 4278786058
-0.016207283 0.027318262 0.31400001 4278983437
-0.015139044 0.027231263 0.31300002 4279053590
-0.014077298 0.027144261 0.31200001 4279320607
-0.013022052 0.02705726 0.31100002 4279387683
-0.012011923 0.02705726 0.31100002 4279256097
-0.010966418 0.026970258 0.31 4279386400
-0.0099274106 0.026883258 0.30900002 4279780647
-0.0088948989 0.026796259 0.30800003 4279121947
-0.0078688823 0.026709257 0.30700001 4279055640
-0.006849363 0.026622256 0.30600002 4278197506
-0.0058554742 0.026622256 0.30600002 4278196992
-0.0048456974 0.026535254 0.30500001 4278197761
-0.0038424178 0.026448255 0.30400002 4278198275
-0.0028456338 0.026361253 0.303 4278660880
-0.0018553457 0.026274253 0.30200002 4279320094
-0.00087155367 0.026187252 0.30100003 4279519010
0.00010574244 0.02610025 0.30000001 4279124765
0.0010765425 0.026013251 0.29900002 4279059740
0.0020408465 0.025926249 0.29800001 4278862361
0.003008751 0.025926249 0.29800001 4279389219
0.0039633112 0.025839249 0.29700002 4278928668
0.0049113748 0.025752246 0.296 4278863388
0.0058727833 0.025752246 0.296 4278797595
0.0068111038 0.025665246 0.29500002 4278929951
0.0077692643 0.025665246 0.29500002 4278929951
0.0087274248 0.025665246 0.29500002 4278798363
0.0096855853 0.025665246 0.29500002 4278930462
0.010607664 0.025578244 0.294 4278733083
0.011562577 0.025578244 0.294 4278733853
0.012474914 0.025491245 0.29300001 4278799646
0.013426579 0.025491245 0.29300001 4278602267
0.014378243 0.025491245 0.29300001 4279586859
0.015277587 0.025404245 0.29200003 4282085968
0.016226003 0.025404245 0.29200003 4279848488
0.017174421 0.025404245 0.29200003 4279848488
0.018122837 0.025404245 0.29200003 4279910949
-0.035147592 0.029692233 0.32900003 4279060769
-0.034079 0.029692233 0.32900003 4279126562
-0.033010408 0.029692233 0.32900003 4279060769
-0.031844724 0.029601982 0.32800001 4279060769
-0.03077938 0.029601982 0.32800001 4278994463
-0.029714037 0.029601982 0.32800001 4278199557
-0.028561348 0.029511733 0.32700002 4279846438
-0.027499253 0.029511733 0.32700002 4279584549
-0.026356306 0.02942148 0.32600001 4278591755
-0.02521986 0.029331231 0.32500002 4279710238
-0.024089906 0.029240981 0.324 4279578652
-0.022895347 0.029060483 0.32200003 4278854416
-0.021781635 0.028970232 0.32100001 4278459658
-0.020609813 0.028789731 0.31900001 4279972125
-0.019512339 0.028699484 0.31800002 4278591755
-0.018421361 0.028609231 0.317 4279446553
-0.017336885 0.028518982 0.31600001 4278920722
-0.016258899 0.028428733 0.31500003 4278590474
-0.015187411 0.028338483 0.31400001 4279317275
-0.014122419 0.028248234 0.31300002 4279123998
-0.013063923 0.028157983 0.31200001 4279322914
-0.012011923 0.028067734 0.31100002 4278334995
-0.010966418 0.027977481 0.31 4279124511
-0.0099274106 0.027887233 0.30900002 4279190304
-0.0088948989 0.027796984 0.30800003 4279190304
-0.0078688823 0.027706733 0.30700001 4279124511
-0.0068717459 0.027706733 0.30700001 4279256097
-0.0058554742 0.027616484 0.30600002 4279255584
-0.0048456974 0.027526233 0.30500001 4279386400
-0.0038424178 0.027435984 0.30400002 4279649059
-0.0028456338 0.027345732 0.303 4279318812
-0.0018553457 0.027255483 0.30200002 4278331663
-0.00087155367 0.027165234 0.30100003 4278197508
0.00010574244 0.027074983 0.30000001 4278196481
0.0010765425 0.026984734 0.29900002 4278198537
0.0020408465 0.026894484 0.29800001 4278396943
0.0029986545 0.026804235 0.29700002 4279121433
0.0039499667 0.026713982 0.296 4279319324
0.0049113748 0.026713982 0.296 4279321631
0.0058727833 0.026713982 0.296 4279190558
0.0068111038 0.026623733 0.29500002 4278862363
0.0077692643 0.026623733 0.29500002 4278731289
0.0087274248 0.026623733 0.29500002 4278797595
0.0096855853 0.026623733 0.29500002 4278797593
0.010607664 0.026533483 0.294 4278732570
0.011562577 0.026533483 0.294 4278929951
0.012474914 0.026443234 0.29300001 4278667292
0.013426579 0.026443234 0.29300001 4278733085
0.014378243 0.026443234 0.29300001 4278600988
0.015277587 0.026352985 0.29200003 4281362497
0.016226003 0.026352985 0.29200003 4279520291
0.017174421 0.026352985 0.29200003 4279059740
0.018122837 0.026352985 0.29200003 4279584803
-0.035147592 0.030761188 0.32900003 4278863390
-0.034079 0.030761188 0.32900003 4279126562
-0.033010408 0.030761188 0.32900003 4279192355
-0.031844724 0.030667687 0.32800001 4279126562
-0.03077938 0.030667687 0.32800001 4279190558
-0.029714037 0.030667687 0.32800001 4278331915
-0.028561348 0.030574189 0.32700002 4279845670
-0.027499253 0.030574189 0.32700002 4279846951
-0.026356306 0.030480688 0.32600001 4278920207
-0.02521986 0.030387191 0.32500002 4279643932
-0.024015557 0.030200193 0.32300001 4278920720
-0.022895347 0.030106694 0.32200003 4279184406
-0.02171378 0.029919695 0.32000002 4278195457
-0.020609813 0.029826194 0.31900001 4280301090
-0.019512339 0.029732697 0.31800002 4278721549
-0.018421361 0.029639196 0.317 4279314199
-0.017336885 0.029545698 0.31600001 4279710238
-0.016258899 0.029452201 0.31500003 4278722830
-0.015187411 0.0293587 0.31400001 4280041768
-0.014122419 0.029265203 0.31300002 4279058718
-0.013063923 0.029171702 0.31200001 4278727959
-0.012011923 0.029078204 0.31100002 4278528013
-0.010966418 0.028984703 0.31 4278461453
-0.0099595375 0.028984703 0.31 4279517475
-0.0089237783 0.028891206 0.30900002 4278199305
-0.0078945141 0.028797708 0.30800003 4278333201
-0.0068717459 0.028704207 0.30700001 4279124513
-0.0058554742 0.02861071 0.30600002 4279124513
-0.0048456974 0.028517209 0.30500001 4279387683
-0.0038424178 0.02842371 0.30400002 4279190304
-0.0028456338 0.028330211 0.303 4279125281
-0.0018553457 0.028236711 0.30200002 4279256867
-0.00087155367 0.028143214 0.30100003 4279190304
0.00010574244 0.028049713 0.30000001 4279124511
0.0010765425 0.027956216 0.29900002 4279518756
0.0020408465 0.027862715 0.29800001 4279188510
0.0029986545 0.027769217 0.29700002 4279187226
0.0039499667 0.027675716 0.296 4278330634
0.0049113748 0.027675716 0.296 4278197252
0.0058727833 0.027675716 0.296 4278197252
0.0068111038 0.027582219 0.29500002 4278196224
0.0077692643 0.027582219 0.29500002 4278857494
0.0087274248 0.027582219 0.29500002 4278665498
0.0096855853 0.027582219 0.29500002 4278929179
0.010607664 0.027488718 0.294 4278666779
0.011562577 0.027488718 0.294 4278600988
0.012474914 0.02739522 0.29300001 4278535708
0.013426579 0.02739522 0.29300001 4278667294
0.014329172 0.027301723 0.29200003 4278601501
0.015277587 0.027301723 0.29200003 4279061539
0.016226003 0.027301723 0.29200003 4278731804
0.017174421 0.027301723 0.29200003 4278666009
0.018122837 0.027301723 0.29200003 4278599191
0.019071253 0.027301723 0.29200003 4278793498
-0.035147592 0.031830143 0.32900003 4279126049
-0.034079 0.031830143 0.32900003 4279257635
-0.033010408 0.031830143 0.32900003 4279192355
-0.031844724 0.031733394 0.32800001 4278929183
-0.03077938 0.031733394 0.32800001 4279257121
-0.029714037 0.031733394 0.32800001 4278199044
-0.028561348 0.031636644 0.32700002 4279450398
-0.027415155 0.031539895 0.32600001 4279846440
-0.026356306 0.031539895 0.32600001 4278919439
-0.025142258 0.031346399 0.324 4278918926
-0.024015557 0.031249652 0.32300001 4278983951
-0.022895347 0.031152904 0.32200003 4278983949
-0.02171378 0.030959409 0.32000002 4278852363
-0.020609813 0.030862659 0.31900001 4279247121
-0.019512339 0.030765912 0.31800002 4278786572
-0.018421361 0.030669162 0.317 4280301864
-0.017336885 0.030572414 0.31600001 4279975205
-0.016258899 0.030475669 0.31500003 4278459656
-0.015187411 0.030378917 0.31400001 4279121179
-0.014122419 0.030282171 0.31300002 4279123998
-0.013063923 0.030185422 0.31200001 4278395662
-0.012011923 0.030088674 0.31100002 4278918926
-0.011001795 0.030088674 0.31100002 4278985234
-0.0099595375 0.029991925 0.31 4279316764
-0.0089237783 0.029895177 0.30900002 4279846186
-0.0078945141 0.029798431 0.30800003 4279319842
-0.0068717459 0.029701682 0.30700001 4279648807
-0.0058554742 0.029604934 0.30600002 4278199563
-0.0048456974 0.029508185 0.30500001 4278727705
-0.0038424178 0.029411437 0.30400002 4278795035
-0.0028456338 0.029314687 0.303 4278862625
-0.0018553457 0.029217942 0.30200002 4278796830
-0.00087155367 0.029121194 0.30100003 4278862623
0.00010574244 0.029024445 0.30000001 4278862623
0.0010765425 0.028927697 0.29900002 4278928416
0.0020408465 0.028830947 0.29800001 4278993695
0.0029986545 0.0287342 0.29700002 4279059488
0.0039499667 0.02863745 0.296 4279125281
0.0049113748 0.02863745 0.296 4279387683
0.0058727833 0.02863745 0.296 4279255584
0.0068111038 0.028540704 0.29500002 4279254301
0.0077692643 0.028540704 0.29500002 4278858261
0.0087274248 0.028540704 0.29500002 4278531861
0.0096855853 0.028540704 0.29500002 4278797084
0.010607664 0.028443955 0.294 4278928670
0.011562577 0.028443955 0.294 4278862877
0.012474914 0.028347207 0.29300001 4278797343
0.013426579 0.028347207 0.29300001 4278600218
0.014329172 0.02825046 0.29200003 4278666011
0.015277587 0.02825046 0.29200003 4278468632
0.016226003 0.02825046 0.29200003 4278600218
0.017174421 0.02825046 0.29200003 4278929183
0.018060772 0.02815371 0.29100001 4278730007
0.019005939 0.02815371 0.29100001 4278530578
-0.035147592 0.032899097 0.32900003 4279125797
-0.034079 0.032899097 0.32900003 4279125795
-0.033010408 0.032899097 0.32900003 4279060769
-0.031844724 0.032799099 0.32800001 4279060769
-0.03077938 0.032799099 0.32800001 4279257635
-0.029714037 0.032799099 0.32800001 4279255584
-0.028561348 0.032699101 0.32700002 4279780647
-0.027415155 0.032599103 0.32600001 4279452963
-0.02627546 0.032499105 0.32500002 4278460171
-0.025142258 0.032399107 0.324 4278984721
-0.024015557 0.032299113 0.32300001 4278983697
-0.022824243 0.032099117 0.32100001 4278983183
-0.02171378 0.031999122 0.32000002 4279180816
-0.020545205 0.031799126 0.31800002 4278917390
-0.019450979 0.031699128 0.317 4278983437
-0.01836325 0.03159913 0.31600001 4278852365
-0.01728202 0.031499136 0.31500003 4278589963
-0.016258899 0.031499136 0.31500003 4278853135
-0.015187411 0.031399135 0.31400001 4280305194
-0.014122419 0.03129914 0.31300002 4279320609
-0.013063923 0.03119914 0.31200001 4278854416
-0.012011923 0.031099144 0.31100002 4279049744
-0.011001795 0.031099144 0.31100002 4279050514
-0.0099595375 0.030999146 0.31 4279381789
-0.0089237783 0.03089915 0.30900002 4279320609
-0.0078945141 0.030799154 0.30800003 4279716135
-0.0068717459 0.030699154 0.30700001 4280042535
-0.0058554742 0.03059916 0.30600002 4279516705
-0.0048456974 0.03049916 0.30500001 4279320607
-0.0038424178 0.030399164 0.30400002 4278198530
-0.0028456338 0.030299166 0.303 4278199559
-0.0018553457 0.03019917 0.30200002 4278795548
-0.00087155367 0.030099174 0.30100003 4279125281
0.00010574244 0.029999174 0.30000001 4278862109
0.0010765425 0.029899178 0.29900002 4278927902
0.0020408465 0.02979918 0.29800001 4278862109
0.0029986545 0.029699184 0.29700002 4278928156
0.0039633112 0.029699184 0.29700002 4278862363
0.0049113748 0.029599184 0.296 4278993949
0.0058727833 0.029599184 0.296 4278796570
0.0068111038 0.029499188 0.29500002 4279256351
0.0077692643 0.029499188 0.29500002 4279255068
0.0087274248 0.029499188 0.29500002 4278859545
0.0096855853 0.029499188 0.29500002 4278927902
0.010607664 0.02939919 0.294 4278862877
0.011562577 0.02939919 0.294 4279586600
0.012474914 0.029299194 0.29300001 4278928670
0.013426579 0.029299194 0.29300001 4278797084
0.014329172 0.029199198 0.29200003 4278731291
0.015277587 0.029199198 0.29200003 4278731291
0.016226003 0.029199198 0.29200003 4278468117
0.017115602 0.0290992 0.29100001 4278599189
0.018060772 0.0290992 0.29100001 4278531861
0.019005939 0.0290992 0.29100001 4279516191
-0.035147592 0.03396805 0.32900003 4279125795
-0.034079 0.03396805 0.32900003 4279125795
-0.033010408 0.03396805 0.32900003 4279191842
-0.031844724 0.033864804 0.32800001 4278994463
-0.03077938 0.033864804 0.32800001 4278795546
-0.029714037 0.033864804 0.32800001 4278596373
-0.028561348 0.033761557 0.32700002 4278465300
-0.027415155 0.033658311 0.32600001 4279256099
-0.02627546 0.033555064 0.32500002 4279715367
-0.025142258 0.033451818 0.324 4279516705
-0.024015557 0.033348572 0.32300001 4279053590
-0.022824243 0.033142079 0.32100001 4278328585
-0.021645924 0.032935586 0.31900001 4278524683
-0.020545205 0.032832339 0.31800002 4278983951
-0.019450979 0.032729093 0.317 4279115023
-0.01836325 0.032625847 0.31600001 4279180816
-0.01728202 0.0325226 0.31500003 4278983437
-0.016207283 0.032419354 0.31400001 4278983437
-0.015187411 0.032419354 0.31400001 4280239914
-0.014122419 0.032316107 0.31300002 4279452193
-0.013063923 0.032212861 0.31200001 4279052820
-0.012011923 0.032109614 0.31100002 4278853646
-0.011001795 0.032109614 0.31100002 4278656269
-0.0099595375 0.032006368 0.31 4280172586
-0.0089237783 0.031903122 0.30900002 4278397970
-0.0078945141 0.031799879 0.30800003 4278595349
-0.0068717459 0.031696629 0.30700001 4279648291
-0.0058554742 0.031593386 0.30600002 4279385119
-0.0048456974 0.031490136 0.30500001 4279123998
-0.0038424178 0.03138689 0.30400002 4278199044
-0.0028456338 0.031283643 0.303 4278596119
-0.0018553457 0.031180399 0.30200002 4278660628
-0.00087155367 0.031077154 0.30100003 4279515424
0.00010574244 0.030973906 0.30000001 4278266638
0.0010765425 0.030870659 0.29900002 4278200074
0.0020408465 0.030767413 0.29800001 4278200588
0.0029986545 0.030664166 0.29700002 4278991129
0.0039633112 0.030664166 0.29700002 4278399759
0.0049113748 0.030560918 0.296 4278729494
0.0058727833 0.030560918 0.296 4278928156
0.0068111038 0.030457674 0.29500002 4278993949
0.0077692643 0.030457674 0.29500002 4278663447
0.0087274248 0.030457674 0.29500002 4279320096
0.0096855853 0.030457674 0.29500002 4278928156
0.010607664 0.030354425 0.294 4278928670
0.011562577 0.030354425 0.294 4278862877
0.012474914 0.030251181 0.29300001 4278862877
0.013426579 0.030251181 0.29300001 4278797084
0.014329172 0.030147936 0.29200003 4278270740
0.015277587 0.030147936 0.29200003 4278533912
0.016170435 0.030044688 0.29100001 4278533398
0.017115602 0.030044688 0.29100001 4278664984
0.018060772 0.030044688 0.29100001 4278860058
0.019005939 0.030044688 0.29100001 4278594835
-0.034079 0.035037003 0.32900003 4279125535
-0.033010408 0.035037003 0.32900003 4279125533
-0.031844724 0.034930509 0.32800001 4278994461
-0.03077938 0.034930509 0.32800001 4279125533
-0.029714037 0.034930509 0.32800001 4279125535
-0.028561348 0.034824014 0.32700002 4279190304
-0.027415155 0.034717515 0.32600001 4279125795
-0.02627546 0.034611024 0.32500002 4278994209
-0.025142258 0.034504525 0.324 4279191588
-0.024015557 0.03439803 0.32300001 4279059488
-0.022824243 0.034185041 0.32100001 4279059490
-0.021645924 0.033972047 0.31900001 4279716137
-0.020545205 0.033865556 0.31800002 4279385889
-0.01938962 0.033652563 0.31600001 4279975459
-0.01830514 0.033546068 0.31500003 4278987027
-0.01728202 0.033546068 0.31500003 4278854416
-0.016207283 0.033439573 0.31400001 4278787855
-0.015139044 0.033333078 0.31300002 4280239660
-0.014122419 0.033333078 0.31300002 4278596371
-0.013063923 0.033226579 0.31200001 4280042022
-0.012011923 0.033120085 0.31100002 4279515678
-0.010966418 0.03301359 0.31 4279515937
-0.0099595375 0.03301359 0.31 4279451680
-0.0089237783 0.032907095 0.30900002 4279584551
-0.0078945141 0.0328006 0.30800003 4279189023
-0.0068717459 0.032694105 0.30700001 4279452195
-0.0058554742 0.03258761 0.30600002 4278464787
-0.0048456974 0.032481112 0.30500001 4278199563
-0.0038424178 0.032374617 0.30400002 4279779877
-0.0028456338 0.032268122 0.303 4280175151
-0.0018553457 0.032161627 0.30200002 4278725910
-0.00087155367 0.032055132 0.30100003 4278198280
0.00010574244 0.031948637 0.30000001 4280173354
0.0010765425 0.031842142 0.29900002 4278595089
0.0020408465 0.031735644 0.29800001 4279582498
0.0029986545 0.031629149 0.29700002 4278792214
0.0039633112 0.031629149 0.29700002 4278660369
0.0049113748 0.031522654 0.296 4279647777
0.0058727833 0.031522654 0.296 4278992414
0.0068341922 0.031522654 0.296 4278862109
0.0077692643 0.031416159 0.29500002 4278729242
0.0087274248 0.031416159 0.29500002 4279845670
0.0096855853 0.031416159 0.29500002 4279124765
0.010607664 0.031309661 0.294 4278862877
0.011562577 0.031309661 0.294 4278797084
0.012474914 0.031203168 0.29300001 4278731291
0.013426579 0.031203168 0.29300001 4278862877
0.014329172 0.031096673 0.29200003 4278665498
0.015277587 0.031096673 0.29200003 4278533912
0.016170435 0.030990176 0.29100001 4278533398
0.017115602 0.030990176 0.29100001 4278598421
0.018060772 0.030990176 0.29100001 4278860056
0.019005939 0.030990176 0.29100001 4278398224
-0.03077938 0.035996214 0.32800001 4278993949
-0.029714037 0.035996214 0.32800001 4279059742
-0.028561348 0.03588647 0.32700002 4278928670
-0.027415155 0.035776723 0.32600001 4278862877
-0.02627546 0.03566698 0.32500002 4279126049
-0.025142258 0.035557233 0.324 4278994463
-0.024015557 0.035447489 0.32300001 4278928670
-0.022824243 0.035228003 0.32100001 4278928670
-0.02157807 0.034898769 0.31800002 4279191842
-0.020480597 0.034789022 0.317 4279125535
-0.01938962 0.034679279 0.31600001 4279059742
-0.01830514 0.034569535 0.31500003 4279124765
-0.017227156 0.034459788 0.31400001 4279255838
-0.016207283 0.034459788 0.31400001 4279649572
-0.015139044 0.034350045 0.31300002 4279715367
-0.014077298 0.034240302 0.31200001 4279123230
-0.013063923 0.034240302 0.31200001 4278594322
-0.012011923 0.034130558 0.31100002 4278264587
-0.010966418 0.034020811 0.31 4278197766
-0.0099274106 0.033911068 0.30900002 4278198537
-0.0089237783 0.033911068 0.30900002 4278331917
-0.0078945141 0.033801325 0.30800003 4279188508
-0.0068717459 0.033691578 0.30700001 4279321377
-0.0058554742 0.033581834 0.30600002 4279452963
-0.0048456974 0.033472087 0.30500001 4279189791
-0.0038424178 0.033362344 0.30400002 4279255584
-0.0028456338 0.033252597 0.303 4279190304
-0.0018553457 0.033142857 0.30200002 4279387683
-0.00087155367 0.033033114 0.30100003 4279386402
0.00010574244 0.032923367 0.30000001 4279714854
0.0010765425 0.032813624 0.29900002 4278200074
0.0020408465 0.032703876 0.29800001 4278266638
0.0029986545 0.032594133 0.29700002 4279252765
0.0039633112 0.032594133 0.29700002 4278792214
0.0049113748 0.032484386 0.296 4278725908
0.0058727833 0.032484386 0.296 4279055900
0.0068341922 0.032484386 0.296 4278993697
0.0077692643 0.032374643 0.29500002 4278201613
0.0087274248 0.032374643 0.29500002 4279714852
0.0096855853 0.032374643 0.29500002 4279124765
0.010607664 0.032264896 0.294 4278862877
0.011562577 0.032264896 0.294 4278797084
0.012474914 0.032155152 0.29300001 4278731291
0.013426579 0.032155152 0.29300001 4278797084
0.014329172 0.032045413 0.29200003 4278731291
0.015277587 0.032045413 0.29200003 4278665498
0.016170435 0.031935666 0.29100001 4278730007
0.017115602 0.031935666 0.29100001 4278730007
0.018060772 0.031935666 0.29100001 4279058459
0.019005939 0.031935666 0.29100001 4278333966
0.019951109 0.031935666 0.29100001 4285631872
-0.025142258 0.036609944 0.324 4278993947
-0.024015557 0.036496952 0.32300001 4278862875
-0.022895347 0.036383957 0.32200003 4278862875
-0.021510212 0.035818987 0.317 4278797084
-0.02041599 0.035705995 0.31600001 4278862877
-0.019328261 0.035593003 0.31500003 4278797084
-0.018247029 0.035480008 0.31400001 4278862877
-0.017227156 0.035480008 0.31400001 4278994463
-0.016155669 0.035367016 0.31300002 4278928670
-0.015139044 0.035367016 0.31300002 4278928670
-0.014077298 0.03525402 0.31200001 4278928670
-0.013063923 0.03525402 0.31200001 4279059742
-0.012011923 0.035141028 0.31100002 4279256351
-0.010966418 0.035028033 0.31 4279583779
-0.0099595375 0.035028033 0.31 4279517473
-0.0089237783 0.034915041 0.30900002 4279055640
-0.0078945141 0.034802046 0.30800003 4278331404
-0.0068717459 0.03468905 0.30700001 4278197763
-0.0058554742 0.034576058 0.30600002 4278198023
-0.00482981 0.034350071 0.30400002 4278330380
-0.0038297782 0.034237076 0.303 4279186459
-0.0028362423 0.034124084 0.30200002 4279320609
-0.0018492022 0.034011092 0.30100003 4278729242
-0.00086865807 0.033898097 0.30000001 4279124513
0.00010574244 0.033898097 0.30000001 4278993695
0.0010765425 0.033785105 0.29900002 4279124511
0.0020408465 0.033672109 0.29800001 4279124511
0.0029986545 0.033559117 0.29700002 4279321377
0.0039633112 0.033559117 0.29700002 4279583779
0.0049113748 0.033446122 0.296 4278792214
0.0058727833 0.033446122 0.296 4279582498
0.0068341922 0.033446122 0.296 4279058718
0.0077692643 0.03333313 0.29500002 4278200586
0.0087274248 0.03333313 0.29500002 4279846438
0.0096855853 0.03333313 0.29500002 4279190556
0.010643746 0.03333313 0.29500002 4278797082
0.011562577 0.033220135 0.294 4278862875
0.012474914 0.033107139 0.29300001 4278731289
0.013426579 0.033107139 0.29300001 4278862873
0.014329172 0.032994147 0.29200003 4278797082
0.015277587 0.032994147 0.29200003 4278731289
0.016170435 0.032881152 0.29100001 4278796568
0.017115602 0.032881152 0.29100001 4278927384
0.018060772 0.032881152 0.29100001 4278992664
0.019005939 0.032881152 0.29100001 4278267919
0.019951109 0.032881152 0.29100001 4285828989
-0.021510212 0.036848951 0.317 4278928156
-0.02041599 0.036732711 0.31600001 4278928156
-0.019328261 0.036616471 0.31500003 4278993949
-0.018247029 0.036500227 0.31400001 4279125535
-0.017172294 0.036383983 0.31300002 4278928154
-0.016155669 0.036383983 0.31300002 4279059740
-0.015139044 0.036383983 0.31300002 4278993947
-0.014077298 0.036267739 0.31200001 4278928154
-0.013063923 0.036267739 0.31200001 4278928154
-0.012011923 0.036151499 0.31100002 4278928668
-0.011001795 0.036151499 0.31100002 4278928670
-0.0099595375 0.036035255 0.31 4279059742
-0.0089237783 0.035919011 0.30900002 4279256351
-0.0078945141 0.03580277 0.30800003 4279255838
-0.0068717459 0.035686526 0.30700001 4279320861
-0.0058554742 0.035570286 0.30600002 4279517473
-0.00482981 0.035337798 0.30400002 4279779875
-0.0038297782 0.035221554 0.303 4279450398
-0.0028362423 0.035105314 0.30200002 4278265357
-0.0018492022 0.03498907 0.30100003 4278197252
-0.00086865807 0.034872826 0.30000001 4278198025
0.00010538997 0.034756586 0.29900002 4278196737
0.0010765425 0.034756586 0.29900002 4278726935
0.0020408465 0.034640342 0.29800001 4279254816
0.0029986545 0.034524098 0.29700002 4279452963
0.0039633112 0.034524098 0.29700002 4279321377
0.0049113748 0.034407854 0.296 4279321377
0.0058727833 0.034407854 0.296 4279255584
0.0068341922 0.034407854 0.296 4279124765
0.0077692643 0.034291614 0.29500002 4278199813
0.0087274248 0.034291614 0.29500002 4279715365
0.0096855853 0.034291614 0.29500002 4279190304
0.010643746 0.034291614 0.29500002 4279520293
0.011562577 0.03417537 0.294 4278797084
0.012517489 0.03417537 0.294 4278731289
0.013426579 0.034059126 0.29300001 4278797082
0.014329172 0.033942886 0.29200003 4278665496
0.015277587 0.033942886 0.29200003 4278665496
0.016170435 0.033826642 0.29100001 4278335247
0.017115602 0.033826642 0.29100001 4278730005
0.018060772 0.033826642 0.29100001 4278926101
0.019005939 0.033826642 0.29100001 4278266636
0.019951109 0.033826642 0.29100001 4285895296
-0.018247029 0.037520442 0.31400001 4278993177
-0.017172294 0.037400953 0.31300002 4278927384
-0.016155669 0.037400953 0.31300002 4279058970
-0.015139044 0.037400953 0.31300002 4278993947
-0.014122419 0.037400953 0.31300002 4278928154
-0.013063923 0.037281457 0.31200001 4278928154
-0.012050547 0.037281457 0.31200001 4278993947
-0.011001795 0.037161969 0.31100002 4279059740
-0.0099916654 0.037161969 0.31100002 4278993947
-0.0089526577 0.037042476 0.31 4278993947
-0.007920146 0.036922984 0.30900002 4279322912
-0.0068941303 0.036803495 0.30800003 4278993947
-0.0058746096 0.036683999 0.30700001 4279059740
-0.0048139226 0.036206033 0.303 4279124765
-0.0038171387 0.036086541 0.30200002 4279256351
-0.0028362423 0.036086541 0.30200002 4279190045
-0.0018492022 0.035967052 0.30100003 4279452963
-0.00086865807 0.035847556 0.30000001 4279451680
0.00010538997 0.035728067 0.29900002 4279911461
0.0010729419 0.035608575 0.29800001 4278858521
0.0020408465 0.035608575 0.29800001 4278198278
0.0029986545 0.035489082 0.29700002 4278198536
0.0039633112 0.035489082 0.29700002 4278264587
0.0049113748 0.03536959 0.296 4278264589
0.0058727833 0.03536959 0.296 4278660628
0.0068341922 0.03536959 0.296 4279318810
0.0077956002 0.03536959 0.296 4278660369
0.0087274248 0.035250098 0.29500002 4279715365
0.0096855853 0.035250098 0.29500002 4279124765
0.010643746 0.035250098 0.29500002 4278993695
0.011562577 0.035130605 0.294 4278993695
0.012517489 0.035130605 0.294 4278665498
0.013426579 0.035011113 0.29300001 4278731289
0.014329172 0.034891624 0.29200003 4278862875
0.015277587 0.034891624 0.29200003 4278731289
0.016170435 0.034772132 0.29100001 4278730007
0.017115602 0.034772132 0.29100001 4278664214
0.018060772 0.034772132 0.29100001 4278860056
0.019005939 0.034772132 0.29100001 4278200331
0.019951109 0.034772132 0.29100001 4286092675
-0.017172294 0.03841792 0.31300002 4278991379
-0.016155669 0.03841792 0.31300002 4279452443
-0.015139044 0.03841792 0.31300002 4279255836
-0.014122419 0.03841792 0.31300002 4279124763
-0.013105796 0.03841792 0.31300002 4278993177
-0.012089171 0.03841792 0.31300002 4278993177
-0.01103717 0.03829518 0.31200001 4278928154
-0.010023793 0.03829518 0.31200001 4278862361
-0.0089815371 0.038172439 0.31100002 4278928154
-0.0079714088 0.038172439 0.31100002 4278993947
-0.0069388966 0.038049698 0.31 4278993945
-0.0058937455 0.037804216 0.30800003 4278928152
-0.0048139226 0.037190508 0.303 4278599187
-0.0038171387 0.037067771 0.30200002 4279125531
-0.0028268509 0.03694503 0.30100003 4279257119
-0.0018492022 0.03694503 0.30100003 4278993949
-0.00086865807 0.036822289 0.30000001 4279190558
0.00010538997 0.036699548 0.29900002 4279190558
0.0010729419 0.036576804 0.29800001 4279519523
0.0020408465 0.036576804 0.29800001 4279256351
0.0029986545 0.036454067 0.29700002 4279452447
0.0039633112 0.036454067 0.29700002 4279780899
0.0049279677 0.036454067 0.29700002 4279779623
0.0058727833 0.036331322 0.296 4278661144
0.0068341922 0.036331322 0.296 4278396945
0.0077956002 0.036331322 0.296 4278923289
0.0087570092 0.036331322 0.296 4279190045
0.0096855853 0.036208585 0.29500002 4279190558
0.010643746 0.036208585 0.29500002 4278994463
0.011562577 0.03608584 0.294 4278862877
0.012517489 0.03608584 0.294 4278928670
0.013426579 0.035963099 0.29300001 4278731291
0.014378243 0.035963099 0.29300001 4278731289
0.015277587 0.035840362 0.29200003 4278533910
0.016226003 0.035840362 0.29200003 4278663699
0.017115602 0.035717618 0.29100001 4278532115
0.018060772 0.035717618 0.29100001 4278727957
0.019005939 0.035717618 0.29100001 4279447578
-0.017172294 0.039434891 0.31300002 4279184398
-0.016155669 0.039434891 0.31300002 4279317268
-0.015187411 0.039560881 0.31400001 4279056406
-0.014167538 0.039560881 0.31400001 4279057174
-0.013147666 0.039560881 0.31400001 4279123480
-0.012127793 0.039560881 0.31400001 4279124250
-0.011072545 0.039434891 0.31300002 4279190043
-0.010055921 0.039434891 0.31300002 4279255836
-0.0090392968 0.039434891 0.31300002 4279124250
-0.0079970397 0.039308902 0.31200001 4278992664
-0.0069836639 0.039308902 0.31200001 4278993177
-0.0059128804 0.03893093 0.30900002 4279058970
-0.0047980351 0.038049001 0.30200002 4279124763
-0.0038171387 0.038049001 0.30200002 4279190556
-0.0028268509 0.037923012 0.30100003 4278993949
-0.0018430586 0.037797019 0.30000001 4278993695
-0.00086865807 0.037797019 0.30000001 4279388453
0.00010538997 0.037671033 0.29900002 4278993695
0.0010729419 0.03754504 0.29800001 4279059488
0.0020408465 0.03754504 0.29800001 4279059488
0.0029986545 0.037419051 0.29700002 4279059742
0.0039633112 0.037419051 0.29700002 4279125535
0.0049279677 0.037419051 0.29700002 4279125281
0.0058727833 0.037293058 0.296 4279125281
0.0068341922 0.037293058 0.296 4279256099
0.0077956002 0.037293058 0.296 4279190306
0.0087570092 0.037293058 0.296 4279124511
0.0096855853 0.037167072 0.29500002 4279125535
0.010643746 0.037167072 0.29500002 4278928670
0.011562577 0.037041079 0.294 4278862877
0.012517489 0.037041079 0.294 4278994463
0.013426579 0.03691509 0.29300001 4278862877
0.014378243 0.03691509 0.29300001 4278665496
0.015277587 0.036789101 0.29200003 4278664980
0.016226003 0.036789101 0.29200003 4278795283
0.017174421 0.036789101 0.29200003 4278662929
0.018122837 0.036789101 0.29200003 4279055127
0.019005939 0.036663108 0.29100001 4280763438
-0.015187411 0.040581096 0.31400001 4278851847
-0.014212659 0.040710337 0.31500003 4278391810
-0.013189538 0.040710337 0.31500003 4278788873
-0.012127793 0.040581096 0.31400001 4279513877
-0.011107921 0.040581096 0.31400001 4279713307
-0.010088048 0.040581096 0.31400001 4279582234
-0.0090681762 0.040581096 0.31400001 4279516955
-0.0080483034 0.040581096 0.31400001 4279582748
-0.0070060478 0.040451858 0.31300002 4279451932
-0.0060276939 0.040710337 0.31500003 4279517727
-0.0050204606 0.040839575 0.31600001 4279386400
-0.0039940923 0.040839575 0.31600001 4279518756
-0.0028268509 0.03890099 0.30100003 4279255584
-0.0018430586 0.038771749 0.30000001 4279321377
-0.00086865807 0.038771749 0.30000001 4279452963
0.00010538997 0.038642511 0.29900002 4279256097
0.0010729419 0.038513269 0.29800001 4279190304
0.0020408465 0.038513269 0.29800001 4278993695
0.0029986545 0.038384032 0.29700002 4279125281
0.0039633112 0.038384032 0.29700002 4279059488
0.0049279677 0.038384032 0.29700002 4279125281
0.0058926241 0.038384032 0.29700002 4278927904
0.0068341922 0.03825479 0.296 4278993697
0.0077956002 0.03825479 0.296 4279256867
0.0087570092 0.03825479 0.296 4279059742
0.0097184181 0.03825479 0.296 4278928156
0.010643746 0.038125552 0.29500002 4278928670
0.011562577 0.037996311 0.294 4278797084
0.012517489 0.037996311 0.294 4278862877
0.013426579 0.037867073 0.29300001 4278862875
0.014378243 0.037867073 0.29300001 4278862873
0.015277587 0.037737839 0.29200003 4278599187
0.016226003 0.037737839 0.29200003 4278597904
0.017174421 0.037737839 0.29200003 4278794002
0.018122837 0.037737839 0.29200003 4279318045
0.019071253 0.037737839 0.29200003 4283264344
-0.014212659 0.041733809 0.31500003 4279507211
-0.013189538 0.041733809 0.31500003 4279244809
-0.012166418 0.041733809 0.31500003 4279311369
-0.011143297 0.041733809 0.31500003 4279246859
-0.010120176 0.041733809 0.31500003 4279641617
-0.0090970555 0.041733809 0.31500003 4279775768
-0.0080739353 0.041733809 0.31500003 4279578389
-0.007050815 0.041733809 0.31500003 4279908635
-0.0060468293 0.041866295 0.31600001 4279711772
-0.0050204606 0.041866295 0.31600001 4279580188
-0.0039940923 0.041866295 0.31600001 4280172325
-0.0029677236 0.041866295 0.31600001 4280108588
-0.0019413551 0.041866295 0.31600001 4280108588
0.00010538997 0.039613996 0.29900002 4279846438
0.0010729419 0.039481506 0.29800001 4279781158
0.0020408465 0.039481506 0.29800001 4279649574
0.0029986545 0.039349016 0.29700002 4279649574
0.0039633112 0.039349016 0.29700002 4279715367
0.0049279677 0.039349016 0.29700002 4279715367
0.0058926241 0.039349016 0.29700002 4279321379
0.0068572811 0.039349016 0.29700002 4279519271
0.0077956002 0.039216526 0.296 4279256099
0.0087570092 0.039216526 0.296 4279190304
0.0097184181 0.039216526 0.296 4279124511
0.010643746 0.03908404 0.29500002 4278993695
0.011601906 0.03908404 0.29500002 4278796316
0.012517489 0.03895155 0.294 4278993949
0.013426579 0.038819063 0.29300001 4278928156
0.014378243 0.038819063 0.29300001 4278664730
0.015329907 0.038819063 0.29300001 4278992925
0.016226003 0.038686577 0.29200003 4279123228
0.017174421 0.038686577 0.29200003 4278925336
0.018122837 0.038686577 0.29200003 4279448350
-0.014257777 0.042893007 0.31600001 4279573004
-0.01323141 0.042893007 0.31600001 4279507211
-0.012205041 0.042893007 0.31600001 4279507211
-0.011178672 0.042893007 0.31600001 4279442188
-0.010152304 0.042893007 0.31600001 4279836946
-0.0091259349 0.042893007 0.31600001 4280495643
-0.0080739353 0.042757273 0.31500003 4280627999
-0.007050815 0.042757273 0.31500003 4280693792
-0.0060468293 0.042893007 0.31600001 4282404671
-0.0050204606 0.042893007 0.31600001 4286157954
-0.0039940923 0.042893007 0.31600001 4286618505
0.0049279677 0.040314 0.29700002 4279516455
0.0058926241 0.040314 0.29700002 4279516453
0.0068572811 0.040314 0.29700002 4279780393
0.0078219371 0.040314 0.29700002 4279780393
0.0087570092 0.040178258 0.296 4279780906
0.0097184181 0.040178258 0.296 4279649320
0.010643746 0.040042523 0.29500002 4279649574
0.011562577 0.039906785 0.294 4279583781
0.012517489 0.039906785 0.294 4279321379
0.013426579 0.039771046 0.29300001 4279255586
0.014378243 0.039771046 0.29300001 4279256099
0.015329907 0.039771046 0.29300001 4279189793
0.016226003 0.039635312 0.29200003 4279121179
0.017174421 0.039635312 0.29200003 4279712037
0.018122837 0.039635312 0.29200003 4284185196
-0.011178672 0.043919727 0.31600001 4279638797
-0.010152304 0.043919727 0.31600001 4279968532
-0.0091259349 0.043919727 0.31600001 4281087267
-0.0080995662 0.043919727 0.31600001 4280889888
-0.007073198 0.043919727 0.31600001 4281087013
0.0078219371 0.041278984 0.29700002 4284250987
0.0087570092 0.041139994 0.296 4282212941
0.0097184181 0.041139994 0.296 4281226046
0.010679825 0.041139994 0.296 4279844393
0.011562577 0.04086202 0.294 4279252256
0.012517489 0.04086202 0.294 4279581221
0.013426579 0.040723037 0.29300001 4279121183
0.014378243 0.040723037 0.29300001 4279318562
0.015329907 0.040723037 0.29300001 4279318562
0.016281571 0.040723037 0.29300001 4281421118
0.017174421 0.040584054 0.29200003 4285434493
0.014378243 0.041675027 0.29300001 4286093191
0.015329907 0.041675027 0.29300001 4286093191
0.016281571 0.041675027 0.29300001 4285960835
-0.0061682928 0.031339396 0.30744666 4294967295
-0.0061682928 0.031339396 0.30744666 4294901760
-0.0061682928 0.031339396 0.30794665 4294901760
-0.0061682928 0.031339396 0.30844665 4294901760
-0.0061682928 0.031339396 0.30894667 4294901760
-0.0061682928 0.031339396 0.30944666 4294901760
-0.0061682928 0.031339396 0.30994666 4294901760
-0.0061682928 0.031339396 0.31044665 4294901760
-0.0061682928 0.031339396 0.31094667 4294901760
-0.0061682928 0.031339396 0.31144667 4294901760
-0.0061682928 0.031339396 0.31194666 4294901760
-0.0061682928 0.031339396 0.31244665 4294901760
-0.0061682928 0.031339396 0.31294665 4294901760
-0.0061682928 0.031339396 0.31344667 4294901760
-0.0061682928 0.031339396 0.31394666 4294901760
-0.0061682928 0.031339396 0.31444666 4294901760
-0.0061682928 0.031339396 0.31494665 4294901760
-0.0061682928 0.031339396 0.31544667 4294901760
-0.0061682928 0.031339396 0.31594667 4294901760
-0.0061682928 0.031339396 0.31644666 4294901760
-0.0061682928 0.031339396 0.31694666 4294901760
-0.0061682928 0.031339396 0.31744665 4294901760
-0.0061682928 0.031339396 0.31794667 4294901760
-0.0061682928 0.031339396 0.31844667 4294901760
-0.0061682928 0.031339396 0.31894666 4294901760
-0.0061682928 0.031339396 0.31944665 4294901760
-0.0061682928 0.031339396 0.31994665 4294901760
-0.0061682928 0.031339396 0.32044667 4294901760
-0.0061682928 0.031339396 0.32094666 4294901760
-0.0061682928 0.031339396 0.32144666 4294901760
-0.0061682928 0.031339396 0.32194665 4294901760
-0.0061682928 0.031339396 0.32244667 4294901760
-0.0061682928 0.031339396 0.32294667 4294901760
-0.0061682928 0.031339396 0.32344666 4294901760
-0.0061682928 0.031339396 0.32394665 4294901760
-0.0061682928 0.031339396 0.32444668 4294901760
-0.0061682928 0.031339396 0.32494667 4294901760
-0.0061682928 0.031339396 0.32544667 4294901760
-0.0061682928 0.031339396 0.32594666 4294901760
-0.0061682928 0.031339396 0.32644665 4294901760
-0.0061682928 0.031339396 0.32694668 4294901760
-0.0061682928 0.031339396 0.32744667 4294901760
-0.0061682928 0.031339396 0.32794666 4294901760
-0.0061682928 0.031339396 0.32844666 4294901760
-0.0061682928 0.031339396 0.32894665 4294901760
-0.0061682928 0.031339396 0.32944667 4294901760
-0.0061682928 0.031339396 0.32994667 4294901760
-0.0061682928 0.031339396 0.33044666 4294901760
-0.0061682928 0.031339396 0.33094665 4294901760
-0.0061682928 0.031339396 0.33144668 4294901760
-0.0061682928 0.031339396 0.33194667 4294901760
-0.0061682928 0.031339396 0.33244666 4294901760
-0.0061682928 0.031339396 0.33294666 4294901760
-0.0061682928 0.031339396 0.33344665 4294901760
-0.0061682928 0.031339396 0.33394668 4294901760
-0.0061682928 0.031339396 0.33444667 4294901760
-0.0061682928 0.031339396 0.33494666 4294901760
-0.0061682928 0.031339396 0.33544666 4294901760
-0.0061682928 0.031339396 0.33594668 4294901760
-0.0061682928 0.031339396 0.33644667 4294901760
-0.0061682928 0.031339396 0.33694667 4294901760
-0.0061682928 0.031339396 0.33744666 4294901760
-0.0061682928 0.031339396 0.33794665 4294901760
-0.0061682928 0.031339396 0.33844668 4294901760
-0.0061682928 0.031339396 0.33894667 4294901760
-0.0061682928 0.031339396 0.33944666 4294901760
-0.0061682928 0.031339396 0.33994666 4294901760
-0.0061682928 0.031339396 0.34044668 4294901760
-0.0061682928 0.031339396 0.34094667 4294901760
-0.0061682928 0.031339396 0.34144667 4294901760
-0.0061682928 0.031339396 0.34194666 4294901760
-0.0061682928 0.031339396 0.34244666 4294901760
-0.0061682928 0.031339396 0.34294668 4294901760
-0.0061682928 0.031339396 0.34344667 4294901760
-0.0061682928 0.031339396 0.34394667 4294901760
-0.0061682928 0.031339396 0.34444666 4294901760
-0.0061682928 0.031339396 0.34494668 4294901760
-0.0061682928 0.031339396 0.34544668 4294901760
-0.0061682928 0.031339396 0.34594667 4294901760
-0.0061682928 0.031339396 0.34644666 4294901760
-0.0061682928 0.031339396 0.34694666 4294901760
-0.0061682928 0.031339396 0.34744668 4294901760
-0.0061682928 0.031339396 0.34794667 4294901760
-0.0061682928 0.031339396 0.34844667 4294901760
-0.0061682928 0.031339396 0.34894666 4294901760
-0.0061682928 0.031339396 0.34944665 4294901760
-0.0061682928 0.031339396 0.34994668 4294901760
-0.0061682928 0.031339396 0.35044667 4294901760
-0.0061682928 0.031339396 0.35094666 4294901760
-0.0061682928 0.031339396 0.35144666 4294901760
-0.0061682928 0.031339396 0.35194665 4294901760
-0.0061682928 0.031339396 0.35244668 4294901760
-0.0061682928 0.031339396 0.35294667 4294901760
-0.0061682928 0.031339396 0.35344666 4294901760
-0.0061682928 0.031339396 0.35394669 4294901760
-0.0061682928 0.031339396 0.35444668 4294901760
-0.0061682928 0.031339396 0.35494667 4294901760
-0.0061682928 0.031339396 0.35544667 4294901760
-0.0061682928 0.031339396 0.35594666 4294901760
-0.0061682928 0.031339396 0.35644668 4294901760
-0.0061682928 0.031339396 0.35694668 4294901760
-0.0061682928 0.031339396 0.35744667 4294901760
-0.0061682928 0.031339396 0.30744666 4278255360
-0.0058547207 0.031243445 0.30782411 4278255360
-0.0055411486 0.031147497 0.30820155 4278255360
-0.0052275765 0.031051546 0.308579 4278255360
-0.0049140044 0.030955596 0.30895644 4278255360
-0.0046004327 0.030859647 0.30933389 4278255360
-0.0042868606 0.030763697 0.30971134 4278255360
-0.0039732885 0.030667746 0.31008878 4278255360
-0.0036597163 0.030571796 0.31046623 4278255360
-0.0033461442 0.030475847 0.31084368 4278255360
-0.0030325721 0.030379897 0.31122112 4278255360
-0.0027190002 0.030283947 0.31159857 4278255360
-0.0024054281 0.030187998 0.31197602 4278255360
-0.0020918562 0.030092048 0.31235346 4278255360
-0.0017782841 0.029996097 0.31273091 4278255360
-0.0014647115 0.029900149 0.31310835 4278255360
-0.0011511398 0.029804198 0.3134858 4278255360
-0.00083756773 0.029708248 0.31386325 4278255360
-0.00052399561 0.029612299 0.31424069 4278255360
-0.00021042349 0.029516349 0.31461814 4278255360
0.00010314863 0.029420398 0.31499559 4278255360
0.00041672029 0.02932445 0.31537303 4278255360
0.00073029241 0.029228499 0.31575048 4278255360
0.001043865 0.029132549 0.31612793 4278255360
0.0013574366 0.0290366 0.31650537 4278255360
0.0016710088 0.02894065 0.31688285 4278255360
0.0019845804 0.028844699 0.31726027 4278255360
0.002298153 0.028748749 0.31763774 4278255360
0.0026117247 0.0286528 0.31801519 4278255360
0.0029252963 0.02855685 0.31839263 4278255360
0.0032388698 0.028460899 0.31877008 4278255360
0.0035524415 0.028364951 0.31914753 4278255360
0.0038660131 0.028269 0.31952497 4278255360
0.0041795857 0.02817305 0.31990242 4278255360
0.0044931574 0.028077099 0.32027987 4278255360
0.004806729 0.027981151 0.32065731 4278255360
0.0051203016 0.0278852 0.32103476 4278255360
0.0054338733 0.02778925 0.32141221 4278255360
0.0057474459 0.027693301 0.32178965 4278255360
0.0060610175 0.027597351 0.3221671 4278255360
