# .PCD v0.7 - Point Cloud Data file format
VERSION 0.7
FIELDS x y z rgb
SIZE 4 4 4 4
TYPE F F F U
COUNT 1 1 1 1
WIDTH 1071
HEIGHT 1
VIEWPOINT 0 0 0 1 0 0 0
POINTS 1071
DATA ascii
0.069574781 0.035963099 0.29300001 4282848010
0.070526451 0.035963099 0.29300001 4282913803
0.071478114 0.035963099 0.29300001 4283242253
0.072429776 0.035963099 0.29300001 4283176460
0.073381439 0.035963099 0.29300001 4282913288
0.074333102 0.035963099 0.29300001 4283176460
0.075284772 0.035963099 0.29300001 4284555800
0.076236434 0.035963099 0.29300001 4284686873
0.077188104 0.035963099 0.29300001 4284686103
0.078139767 0.035963099 0.29300001 4284818459
0.088480271 0.036699548 0.29900002 4284750869
0.089451425 0.036699548 0.29900002 4284881170
0.090422578 0.036699548 0.29900002 4285275156
0.091393732 0.036699548 0.29900002 4285998883
0.092673793 0.036822289 0.30000001 4285340179
0.093648195 0.036822289 0.30000001 4285603094
0.09462259 0.036822289 0.30000001 4285340181
0.095278338 0.036699548 0.29900002 4285078549
0.052438956 0.03830098 0.30400002 4284570935
0.053250603 0.038174991 0.303 4282067975
0.054234751 0.038174991 0.303 4283708184
0.055036653 0.038049001 0.30200002 4284231448
0.055832066 0.037923012 0.30100003 4284556566
0.056620974 0.037797019 0.30000001 4284554513
0.057403389 0.037671033 0.29900002 4284685072
0.058179308 0.03754504 0.29800001 4283830790
0.058948737 0.037419051 0.29700002 4286541383
0.059913389 0.037419051 0.29700002 4284570671
0.065037675 0.037041079 0.294 4281673744
0.065992586 0.037041079 0.294 4283441428
0.066719793 0.03691509 0.29300001 4283570448
0.067671455 0.03691509 0.29300001 4283833106
0.068623118 0.03691509 0.29300001 4283241483
0.069574781 0.03691509 0.29300001 4282717194
0.073381439 0.03691509 0.29300001 4282586381
0.074333102 0.03691509 0.29300001 4283046418
0.075284772 0.03691509 0.29300001 4283242768
0.076236434 0.03691509 0.29300001 4283570450
0.077188104 0.03691509 0.29300001 4283504143
0.078406453 0.037041079 0.294 4283898386
0.079361364 0.037041079 0.294 4284226835
0.080316268 0.037041079 0.294 4284292628
0.081547625 0.037167072 0.29500002 4284687386
0.082505785 0.037167072 0.29500002 4284425243
0.083746873 0.037293058 0.296 4285157445
0.088184342 0.03754504 0.29800001 4284553747
0.089451425 0.037671033 0.29900002 4284815377
0.090422578 0.037671033 0.29900002 4285144342
0.091393732 0.037671033 0.29900002 4290015334
0.092364885 0.037671033 0.29900002 4285344029
0.093336038 0.037671033 0.29900002 4285406742
0.094307184 0.037671033 0.29900002 4285471765
0.095278338 0.037671033 0.29900002 4285275156
0.096249491 0.037671033 0.29900002 4284688931
0.052438956 0.039288707 0.30400002 4283052051
0.053074859 0.039030228 0.30200002 4284035866
0.053876769 0.03890099 0.30100003 4284492824
0.054854415 0.03890099 0.30100003 4284687636
0.055646572 0.038771749 0.30000001 4284685583
0.05643224 0.038642511 0.29900002 4284422157
0.057211403 0.038513269 0.29800001 4283307526
0.057984076 0.038384032 0.29700002 4284695079
0.065037675 0.037996311 0.294 4284295195
0.065768123 0.037867073 0.29300001 4284163607
0.066719793 0.037867073 0.29300001 4289889394
0.067671455 0.037867073 0.29300001 4284491036
0.068623118 0.037867073 0.29300001 4283308046
0.069574781 0.037867073 0.29300001 4282520588
0.070526451 0.037867073 0.29300001 4282192908
0.071478114 0.037867073 0.29300001 4282590746
0.072429776 0.037867073 0.29300001 4283316522
0.073381439 0.037867073 0.29300001 4284109118
0.074333102 0.037867073 0.29300001 4284174911
0.075541712 0.037996311 0.294 4283910717
0.076496623 0.037996311 0.294 4282855721
0.078406453 0.037996311 0.294 4282585869
0.079361364 0.037996311 0.294 4282716170
0.080589458 0.038125552 0.29500002 4283045389
0.081547625 0.038125552 0.29500002 4283504655
0.082785465 0.03825479 0.296 4283898899
0.083746873 0.03825479 0.296 4284752925
0.084994465 0.038384032 0.29700002 4284424732
0.085959122 0.038384032 0.29700002 4286008902
0.087216437 0.038513269 0.29800001 4283899933
0.088184342 0.038513269 0.29800001 4284553490
0.089152247 0.038513269 0.29800001 4284684304
0.090120159 0.038513269 0.29800001 4284881170
0.091088064 0.038513269 0.29800001 4284617996
0.092364885 0.038642511 0.29900002 4289754465
0.093336038 0.038642511 0.29900002 4284619533
0.094307184 0.038642511 0.29900002 4285209363
0.095278338 0.038642511 0.29900002 4285011984
0.096249491 0.038642511 0.29900002 4284816919
0.097220644 0.038642511 0.29900002 4284625964
0.052899119 0.039878972 0.30100003 4284622872
0.053697772 0.039746482 0.30000001 4284226572
0.05467217 0.039746482 0.30000001 4284685583
0.055461086 0.039613996 0.29900002 4284421900
0.056243502 0.039481506 0.29800001 4283962380
0.05701942 0.039349016 0.29700002 4282986004
0.062172942 0.03895155 0.294 4282330129
0.062913135 0.038819063 0.29300001 4283311891
0.063864797 0.038819063 0.29300001 4284685329
0.06481646 0.038819063 0.29300001 4285014037
0.065768123 0.038819063 0.29300001 4283962630
0.066719793 0.038819063 0.29300001 4283371522
0.067671455 0.038819063 0.29300001 4282586121
0.083746873 0.039216526 0.296 4283176462
0.084994465 0.039349016 0.29700002 4283898899
0.085959122 0.039349016 0.29700002 4284555287
0.086923771 0.039349016 0.29700002 4284948503
0.087888427 0.039349016 0.29700002 4287185465
0.089152247 0.039481506 0.29800001 4284487695
0.090120159 0.039481506 0.29800001 4284683791
0.091088064 0.039481506 0.29800001 4285078547
0.092055969 0.039481506 0.29800001 4284947215
0.093023874 0.039481506 0.29800001 4285275158
0.094307184 0.039613996 0.29900002 4285340951
0.095278338 0.039613996 0.29900002 4285078547
0.096249491 0.039613996 0.29900002 4284487952
0.097220644 0.039613996 0.29900002 4283505940
0.050436068 0.040449735 0.29800001 4284952355
0.051403977 0.040449735 0.29800001 4284884250
0.05254763 0.040585473 0.29900002 4286133545
0.053518783 0.040585473 0.29900002 4286527528
0.054307688 0.040449735 0.29800001 4285144594
0.055275593 0.040449735 0.29800001 4284487952
0.056054767 0.040314 0.29700002 4283703058
0.061009806 0.039771046 0.29300001 4282396697
0.061961472 0.039771046 0.29300001 4283899665
0.062913135 0.039771046 0.29300001 4284422927
0.063864797 0.039771046 0.29300001 4284750095
0.06481646 0.039771046 0.29300001 4284158985
0.065768123 0.039771046 0.29300001 4282913540
0.067902416 0.039906785 0.294 4281606929
0.086923771 0.040314 0.29700002 4284030226
0.087888427 0.040314 0.29700002 4284948248
0.088853084 0.040314 0.29700002 4284553490
0.08981774 0.040314 0.29700002 4284421134
0.091088064 0.040449735 0.29800001 4284618513
0.092055969 0.040449735 0.29800001 4284684304
0.093023874 0.040449735 0.29800001 4284881683
0.094307184 0.040585473 0.29900002 4285144342
0.095278338 0.040585473 0.29900002 4284684304
0.096249491 0.040585473 0.29900002 4284422159
0.097220644 0.040585473 0.29900002 4283505940
0.050436068 0.041417968 0.29800001 4285411107
0.051403977 0.041417968 0.29800001 4285475615
0.052371882 0.041417968 0.29800001 4285410076
0.053339787 0.041417968 0.29800001 4285803805
0.054125451 0.041278984 0.29700002 4285013519
0.055090107 0.041278984 0.29700002 4284686099
0.055866025 0.041139994 0.296 4283310608
0.060058139 0.040723037 0.29300001 4282459410
0.061009806 0.040723037 0.29300001 4283375635
0.061961472 0.040723037 0.29300001 4284685074
0.062913135 0.040723037 0.29300001 4284750095
0.063864797 0.040723037 0.29300001 4283831562
0.065037675 0.04086202 0.294 4282914055
0.065992586 0.04086202 0.294 4281540363
0.066947497 0.04086202 0.294 4281279247
0.087888427 0.041278984 0.29700002 4283898640
0.088853084 0.041278984 0.29700002 4283831564
0.08981774 0.041278984 0.29700002 4284028173
0.091088064 0.041417968 0.29800001 4284158989
0.092055969 0.041417968 0.29800001 4284224782
0.093023874 0.041417968 0.29800001 4284356368
0.094307184 0.041556958 0.29900002 4284487952
0.095278338 0.041556958 0.29900002 4284290316
0.048500262 0.042386204 0.29800001 4284622363
0.049468167 0.042386204 0.29800001 4285015836
0.050436068 0.042386204 0.29800001 4285278236
0.051403977 0.042386204 0.29800001 4285475099
0.052196138 0.042243969 0.29700002 4285409049
0.053160798 0.042243969 0.29700002 4285474072
0.053943206 0.04210173 0.296 4285276693
0.054904617 0.04210173 0.296 4285210900
0.055677291 0.041959498 0.29500002 4284557079
0.060058139 0.041675027 0.29300001 4283833872
0.061009806 0.041675027 0.29300001 4284357136
0.061961472 0.041675027 0.29300001 4284487693
0.063127853 0.041817259 0.294 4283764999
0.065037675 0.041817259 0.294 4281606670
0.047691863 0.043499921 0.29900002 4284622363
0.048500262 0.043354433 0.29800001 4284555800
0.049468167 0.043354433 0.29800001 4285015836
0.050436068 0.043354433 0.29800001 4284817687
0.051231481 0.043208949 0.29700002 4285079314
0.052196138 0.043208949 0.29700002 4285209617
0.052981801 0.043063462 0.296 4285340433
0.053943206 0.043063462 0.296 4285406226
0.054719131 0.042917982 0.29500002 4285208847
0.055677291 0.042917982 0.29500002 4285144594
0.05835329 0.042772494 0.294 4282065937
0.059308197 0.042772494 0.294 4283310096
0.060263112 0.042772494 0.294 4284553486
0.061218027 0.042772494 0.294 4284224521
0.062172942 0.042772494 0.294 4283372807
0.046720713 0.044471405 0.29900002 4283836186
0.047691863 0.044471405 0.29900002 4284490777
0.048500262 0.044322666 0.29800001 4284621593
0.049468167 0.044322666 0.29800001 4284553745
0.050266825 0.044173937 0.29700002 4284619281
0.051231481 0.044173937 0.29700002 4284947215
0.05202039 0.044025198 0.296 4285275410
0.052981801 0.044025198 0.296 4285800984
0.053760968 0.043876469 0.29500002 4285472019
0.054719131 0.043876469 0.29500002 4285340433
0.055488553 0.043727729 0.294 4285275410
0.05644346 0.043727729 0.294 4284685074
0.057398375 0.043727729 0.294 4284096017
0.05835329 0.043727729 0.294 4283965458
0.059308197 0.043727729 0.294 4284029454
0.060263112 0.043727729 0.294 4284487695
0.061218027 0.043727729 0.294 4283896585
0.062172942 0.043727729 0.294 4281141504
0.076826438 0.044471405 0.29900002 4282133023
0.077797592 0.044471405 0.29900002 4282196506
0.078768745 0.044471405 0.29900002 4282717455
0.079739906 0.044471405 0.29900002 4282585356
0.080711059 0.044471405 0.29900002 4282781965
0.081682198 0.044471405 0.29900002 4282781452
0.082653359 0.044471405 0.29900002 4282781963
0.083624512 0.044471405 0.29900002 4282584584
0.046720713 0.045442883 0.29900002 4283638809
0.047532357 0.045290899 0.29800001 4284162839
0.048500262 0.045290899 0.29800001 4284227605
0.049302168 0.045138918 0.29700002 4284422159
0.050266825 0.045138918 0.29700002 4284750097
0.051058982 0.04498693 0.296 4285077777
0.05202039 0.04498693 0.296 4285208593
0.052802812 0.044834949 0.29500002 4288567118
0.053760968 0.044834949 0.29500002 4285936938
0.054533638 0.044682965 0.294 4285537555
0.055488553 0.044682965 0.294 4285274383
0.05644346 0.044682965 0.294 4285011984
0.057398375 0.044682965 0.294 4284946961
0.05835329 0.044682965 0.294 4285080341
0.059308197 0.044682965 0.294 4284421900
0.060263112 0.044682965 0.294 4283305731
0.071970679 0.045442883 0.29900002 4278650880
0.072941832 0.045442883 0.29900002 4278650880
0.073912986 0.045442883 0.29900002 4278848258
0.074884132 0.045442883 0.29900002 4278782465
0.076108977 0.045594864 0.30000001 4278715904
0.078057781 0.045594864 0.30000001 4281667595
0.079032183 0.045594864 0.30000001 4282454797
0.080006585 0.045594864 0.30000001 4282651147
0.080980986 0.045594864 0.30000001 4283240971
0.081955381 0.045594864 0.30000001 4283109385
0.082929783 0.045594864 0.30000001 4283240456
0.083904184 0.045594864 0.30000001 4283175176
0.084878586 0.045594864 0.30000001 4282781704
0.085566819 0.045442883 0.29900002 4282651147
0.046720713 0.046414368 0.29900002 4283376151
0.047532357 0.046259131 0.29800001 4283703317
0.048500262 0.046259131 0.29800001 4283899667
0.049302168 0.046103902 0.29700002 4284291343
0.050266825 0.046103902 0.29700002 4284685072
0.051058982 0.045948666 0.296 4284881422
0.051844649 0.045793436 0.29500002 4285209363
0.052802812 0.045793436 0.29500002 4285210648
0.053578723 0.045638204 0.294 4286924348
0.054533638 0.045638204 0.294 4285472787
0.055488553 0.045638204 0.294 4285208588
0.05644346 0.045638204 0.294 4285077261
0.057398375 0.045638204 0.294 4285143054
0.05835329 0.045638204 0.294 4285474072
0.059308197 0.045638204 0.294 4284158982
0.062595889 0.045948666 0.296 4281144072
0.06355729 0.045948666 0.296 4280750343
0.070028372 0.046414368 0.29900002 4278650112
0.070999525 0.046414368 0.29900002 4278716928
0.071970679 0.046414368 0.29900002 4278585344
0.073185779 0.046569597 0.30000001 4278585089
0.074160181 0.046569597 0.30000001 4278585089
0.075134575 0.046569597 0.30000001 4278585089
0.076108977 0.046569597 0.30000001 4278585091
0.077083379 0.046569597 0.30000001 4278913027
0.080006585 0.046569597 0.30000001 4282061324
0.080980986 0.046569597 0.30000001 4282913290
0.081955381 0.046569597 0.30000001 4283109383
0.082929783 0.046569597 0.30000001 4283240456
0.083904184 0.046569597 0.30000001 4283240456
0.08682739 0.046569597 0.30000001 4282717455
0.045596547 0.04722736 0.29800001 4282656026
0.046564456 0.04722736 0.29800001 4282917401
0.047532357 0.04722736 0.29800001 4283309844
0.048337512 0.047068883 0.29700002 4283637524
0.049302168 0.047068883 0.29700002 4283898638
0.050097574 0.046910398 0.296 4283963148
0.051058982 0.046910398 0.296 4284487693
0.051844649 0.04675192 0.29500002 4284881168
0.052623816 0.046593435 0.294 4285406742
0.053578723 0.046593435 0.294 4290410090
0.054533638 0.046593435 0.294 4284881422
0.055488553 0.046593435 0.294 4285078029
0.05644346 0.046593435 0.294 4285011468
0.057398375 0.046593435 0.294 4284617226
0.05835329 0.046593435 0.294 4284750095
0.059509929 0.04675192 0.29500002 4283566850
0.061634477 0.046910398 0.296 4282323979
0.062595889 0.046910398 0.296 4282192395
0.063772015 0.047068883 0.29700002 4282323981
0.064736672 0.047068883 0.29700002 4282127115
0.070999525 0.047385845 0.29900002 4278519298
0.072211385 0.047544327 0.30000001 4278716677
0.073185779 0.047544327 0.30000001 4278716675
0.074160181 0.047544327 0.30000001 4278716675
0.075134575 0.047544327 0.30000001 4278585089
0.076108977 0.047544327 0.30000001 4278585089
0.077083379 0.047544327 0.30000001 4278585091
0.078057781 0.047544327 0.30000001 4278716677
0.079032183 0.047544327 0.30000001 4279110147
0.080980986 0.047544327 0.30000001 4282258186
0.082929783 0.047544327 0.30000001 4282913290
0.045596547 0.048195597 0.29800001 4282263834
0.046564456 0.048195597 0.29800001 4282721819
0.047532357 0.048195597 0.29800001 4282850836
0.048337512 0.048033867 0.29700002 4283375637
0.049302168 0.048033867 0.29700002 4283438862
0.050097574 0.047872137 0.296 4283569675
0.050886486 0.047710408 0.29500002 4283897355
0.051844649 0.047710408 0.29500002 4284487952
0.052623816 0.047548674 0.294 4284684302
0.053578723 0.047548674 0.294 4284946961
0.054533638 0.047548674 0.294 4284946445
0.055488553 0.047548674 0.294 4285275410
0.05644346 0.047548674 0.294 4284748812
0.057398375 0.047548674 0.294 4284420617
0.058551773 0.047710408 0.29500002 4283634185
0.059509929 0.047710408 0.29500002 4282977284
0.060673065 0.047872137 0.296 4282651401
0.061634477 0.047872137 0.296 4282914573
0.062807359 0.048033867 0.29700002 4282980366
0.063772015 0.048033867 0.29700002 4282651401
0.064954638 0.048195597 0.29800001 4282257416
0.065922543 0.048195597 0.29800001 4280945410
0.072211385 0.048519056 0.30000001 4278717447
0.073185779 0.048519056 0.30000001 4278914056
0.074160181 0.048519056 0.30000001 4278716677
0.075134575 0.048519056 0.30000001 4278454275
0.076108977 0.048519056 0.30000001 4278454275
0.077083379 0.048519056 0.30000001 4278585861
0.078057781 0.048519056 0.30000001 4278848261
0.079295628 0.04868079 0.30100003 4281875763
0.080273278 0.04868079 0.30100003 4279044867
0.081955381 0.048519056 0.30000001 4282127887
0.08682739 0.048519056 0.30000001 4286677880
0.087801784 0.048519056 0.30000001 4285627245
0.088776186 0.048519056 0.30000001 4286544752
0.045596547 0.049163826 0.29800001 4282002459
0.046408199 0.048998848 0.29700002 4282263834
0.047372855 0.048998848 0.29700002 4282392084
0.048337512 0.048998848 0.29700002 4282785045
0.049136166 0.048833866 0.296 4283111952
0.050097574 0.048833866 0.296 4283176462
0.050886486 0.048668891 0.29500002 4283635468
0.051668901 0.048503909 0.294 4284160527
0.052623816 0.048503909 0.294 4284422159
0.053578723 0.048503909 0.294 4284487695
0.054533638 0.048503909 0.294 4284486410
0.055488553 0.048503909 0.294 4285144340
0.05644346 0.048503909 0.294 4284552716
0.057398375 0.048503909 0.294 4283961349
0.058551773 0.048668891 0.29500002 4283109124
0.059711657 0.048833866 0.296 4282846725
0.060673065 0.048833866 0.296 4282782217
0.061842706 0.048998848 0.29700002 4282913803
0.062807359 0.048998848 0.29700002 4282913290
0.063986734 0.049163826 0.29800001 4282782217
0.064954638 0.049163826 0.29800001 4281142535
0.076108977 0.049493786 0.30000001 4278586631
0.077083379 0.049493786 0.30000001 4278651652
0.078057781 0.049493786 0.30000001 4278783238
0.085852988 0.049493786 0.30000001 4286283122
0.08682739 0.049493786 0.30000001 4285562224
0.087801784 0.049493786 0.30000001 4285562224
0.088776186 0.049493786 0.30000001 4286087283
0.089750588 0.049493786 0.30000001 4280160264
0.045443542 0.049963836 0.29700002 4282529318
0.046408199 0.049963836 0.29700002 4282528035
0.047372855 0.049963836 0.29700002 4282656539
0.048174758 0.049795605 0.296 4282457877
0.049136166 0.049795605 0.296 4282586635
0.049928326 0.049627379 0.29500002 4282651401
0.050886486 0.049627379 0.29500002 4283504141
0.051668901 0.049459144 0.294 4283766800
0.052623816 0.049459144 0.294 4283701261
0.053578723 0.049459144 0.294 4283832077
0.054533638 0.049459144 0.294 4284028173
0.055488553 0.049459144 0.294 4283962380
0.05644346 0.049459144 0.294 4283633415
0.05759361 0.049627379 0.29500002 4283305220
0.058551773 0.049627379 0.29500002 4282847495
0.059711657 0.049795605 0.296 4282781704
0.060673065 0.049795605 0.296 4282848010
0.061842706 0.049963836 0.29700002 4282781704
0.063018829 0.050132062 0.29800001 4282716170
0.063986734 0.050132062 0.29800001 4282388490
0.066143766 0.050300293 0.29900002 4278781184
0.070028372 0.050300293 0.29900002 4278453505
0.078057781 0.050468519 0.30000001 4278783238
0.080273278 0.05063675 0.30100003 4281744947
0.083904184 0.050468519 0.30000001 4284894534
0.084878586 0.050468519 0.30000001 4285891189
0.085852988 0.050468519 0.30000001 4285694323
0.08682739 0.050468519 0.30000001 4285628530
0.087801784 0.050468519 0.30000001 4285496690
0.088776186 0.050468519 0.30000001 4285562224
0.089750588 0.050468519 0.30000001 4281478691
0.045443542 0.050928816 0.29700002 4281476630
0.046408199 0.050928816 0.29700002 4282331426
0.047213346 0.050757334 0.296 4282920996
0.048174758 0.050757334 0.296 4282524955
0.049136166 0.050757334 0.296 4282521873
0.049928326 0.050585859 0.29500002 4282389002
0.050886486 0.050585859 0.29500002 4282913290
0.051668901 0.05041438 0.294 4283176460
0.052623816 0.05041438 0.294 4283373323
0.053578723 0.05041438 0.294 4283702288
0.054533638 0.05041438 0.294 4283504909
0.055488553 0.05041438 0.294 4283307276
0.05644346 0.05041438 0.294 4283109897
0.05759361 0.050585859 0.29500002 4282584838
0.058551773 0.050585859 0.29500002 4282585608
0.059711657 0.050757334 0.296 4282717194
0.060878046 0.050928816 0.29700002 4282781704
0.061842706 0.050928816 0.29700002 4282781704
0.063018829 0.051100291 0.29800001 4282454022
0.063986734 0.051100291 0.29800001 4281010179
0.079032183 0.051443245 0.30000001 4279045894
0.080006585 0.051443245 0.30000001 4278586113
0.080980986 0.051443245 0.30000001 4278784010
0.081955381 0.051443245 0.30000001 4278979849
0.082929783 0.051443245 0.30000001 4281939246
0.083904184 0.051443245 0.30000001 4286022005
0.084878586 0.051443245 0.30000001 4285694323
0.085566819 0.05127177 0.29900002 4285694323
0.08682739 0.051443245 0.30000001 4285759862
0.087801784 0.051443245 0.30000001 4285628530
0.088776186 0.051443245 0.30000001 4285628530
0.089750588 0.051443245 0.30000001 4284507483
0.046408199 0.0518938 0.29700002 4281871386
0.047213346 0.051719073 0.296 4282132248
0.048174758 0.051719073 0.296 4282920481
0.048970167 0.051544346 0.29500002 4282524442
0.049928326 0.051544346 0.29500002 4282193678
0.050713986 0.051369619 0.294 4282455049
0.051668901 0.051369619 0.294 4282717707
0.052623816 0.051369619 0.294 4282913801
0.053578723 0.051369619 0.294 4283045387
0.054533638 0.051369619 0.294 4283045387
0.055488553 0.051369619 0.294 4282848008
0.05644346 0.051369619 0.294 4282650629
0.05759361 0.051544346 0.29500002 4282650629
0.058551773 0.051544346 0.29500002 4282717194
0.059711657 0.051719073 0.296 4282782987
0.060878046 0.0518938 0.29700002 4282782217
0.062050927 0.052068524 0.29800001 4282782217
0.068086065 0.052243255 0.29900002 4278519296
0.080980986 0.052417979 0.30000001 4278850314
0.082929783 0.052417979 0.30000001 4278717445
0.083904184 0.052417979 0.30000001 4286088827
0.084595665 0.052243255 0.29900002 4285759862
0.085566819 0.052243255 0.29900002 4285628276
0.086537972 0.052243255 0.29900002 4285628276
0.087801784 0.052417979 0.30000001 4285496690
0.088776186 0.052417979 0.30000001 4285496944
0.089750588 0.052417979 0.30000001 4285166183
0.047213346 0.052680809 0.296 4282196760
0.048970167 0.052502833 0.29500002 4281996299
0.049928326 0.052502833 0.29500002 4282522643
0.050713986 0.052324854 0.294 4282324492
0.051668901 0.052324854 0.294 4282193160
0.052444827 0.052146882 0.29300001 4282258440
0.053396486 0.052146882 0.29300001 4282257670
0.054348152 0.052146882 0.29300001 4282323463
0.055488553 0.052324854 0.294 4282586121
0.05644346 0.052324854 0.294 4282980364
0.05759361 0.052502833 0.29500002 4282651399
0.058551773 0.052502833 0.29500002 4282651914
0.059711657 0.052680809 0.296 4282586121
0.060878046 0.052858785 0.29700002 4282586121
0.062050927 0.053036761 0.29800001 4282388742
0.063018829 0.053036761 0.29800001 4280945156
0.080006585 0.053392712 0.30000001 4278585859
0.081955381 0.053392712 0.30000001 4278916109
0.082929783 0.053392712 0.30000001 4278652422
0.083904184 0.053392712 0.30000001 4286220413
0.084595665 0.05321474 0.29900002 4285497458
0.085566819 0.05321474 0.29900002 4285629044
0.086537972 0.05321474 0.29900002 4285628530
0.087801784 0.053392712 0.30000001 4285628530
0.088776186 0.053392712 0.30000001 4285496944
0.089750588 0.053392712 0.30000001 4286482556
0.048970167 0.053461317 0.29500002 4281930508
0.049928326 0.053461317 0.29500002 4281798920
0.050713986 0.053280089 0.294 4281799947
0.05149316 0.053098865 0.29300001 4281734922
0.052444827 0.053098865 0.29300001 4282261779
0.053396486 0.053098865 0.29300001 4282722330
0.054348152 0.053098865 0.29300001 4282062092
0.055299819 0.053098865 0.29300001 4282586635
0.05644346 0.053280089 0.294 4282979081
0.057398375 0.053280089 0.294 4282848008
0.063018829 0.05400499 0.29800001 4280617989
0.063986734 0.05400499 0.29800001 4278781184
0.080006585 0.054367442 0.30000001 4279178250
0.083904184 0.054367442 0.30000001 4286023548
0.084595665 0.054186217 0.29900002 4285563251
0.085566819 0.054186217 0.29900002 4285563251
0.08682739 0.054367442 0.30000001 4285628530
0.087801784 0.054367442 0.30000001 4285496944
0.088776186 0.054367442 0.30000001 4285694323
0.090049759 0.05454867 0.30100003 4286416761
0.055299819 0.054050855 0.29300001 4282390285
0.056251481 0.054050855 0.29300001 4283373069
0.057398375 0.054235328 0.294 4282586119
0.063986734 0.054973226 0.29800001 4279110147
0.080980986 0.055342171 0.30000001 4278783238
0.081955381 0.055342171 0.30000001 4279112203
0.082929783 0.055342171 0.30000001 4278322689
0.083904184 0.055342171 0.30000001 4286220927
0.084878586 0.055342171 0.30000001 4285694837
0.085852988 0.055342171 0.30000001 4285825909
0.08682739 0.055342171 0.30000001 4285759603
0.087801784 0.055342171 0.30000001 4285693810
0.088776186 0.055342171 0.30000001 4285562224
0.090049759 0.055526651 0.30100003 4286350457
0.055299819 0.055002838 0.29300001 4282521871
0.056251481 0.055002838 0.29300001 4283307276
0.057398375 0.055190559 0.294 4282520840
0.065172613 0.05612918 0.29900002 4278521349
0.067114912 0.05612918 0.29900002 4278849031
0.080980986 0.056316901 0.30000001 4278914056
0.081955381 0.056316901 0.30000001 4278783240
0.082929783 0.056316901 0.30000001 4278191872
0.083904184 0.056316901 0.30000001 4286351999
0.084878586 0.056316901 0.30000001 4285562997
0.085852988 0.056316901 0.30000001 4285497458
0.08682739 0.056316901 0.30000001 4285628530
0.087801784 0.056316901 0.30000001 4285694323
0.089072116 0.056504626 0.30100003 4285496942
0.090049759 0.056504626 0.30100003 4285428581
0.055111084 0.055763859 0.29200003 4282718991
0.056059498 0.055763859 0.29200003 4283373839
0.057203144 0.055954829 0.29300001 4282586633
0.063986734 0.056909688 0.29800001 4278914054
0.065172613 0.057100665 0.29900002 4278191616
0.066143766 0.057100665 0.29900002 4278191616
0.067114912 0.057100665 0.29900002 4278914054
0.080006585 0.057291634 0.30000001 4279243789
0.080980986 0.057291634 0.30000001 4278717447
0.081955381 0.057291634 0.30000001 4278914826
0.082929783 0.057291634 0.30000001 4278784008
0.083904184 0.057291634 0.30000001 4285760376
0.084878586 0.057291634 0.30000001 4285366642
0.085852988 0.057291634 0.30000001 4285563251
0.08682739 0.057291634 0.30000001 4285563251
0.087801784 0.057291634 0.30000001 4285563251
0.089072116 0.057482608 0.30100003 4285496944
0.090049759 0.057482608 0.30100003 4284045903
0.055111084 0.056712594 0.29200003 4282653198
0.056059498 0.056712594 0.29200003 4283373069
0.057203144 0.056906812 0.29300001 4282915598
0.063018829 0.057877917 0.29800001 4280558102
0.063986734 0.057877917 0.29800001 4278914051
0.065172613 0.058072142 0.29900002 4278718215
0.067114912 0.058072142 0.29900002 4278914824
0.080006585 0.05826636 0.30000001 4278848263
0.080980986 0.05826636 0.30000001 4278913803
0.081955381 0.05826636 0.30000001 4279111952
0.082929783 0.05826636 0.30000001 4283127629
0.083904184 0.05826636 0.30000001 4285366388
0.084878586 0.05826636 0.30000001 4285366388
0.085852988 0.05826636 0.30000001 4285497204
0.08682739 0.05826636 0.30000001 4285562997
0.088094465 0.058460586 0.30100003 4285694069
0.089072116 0.058460586 0.30100003 4285824626
0.090049759 0.058460586 0.30100003 4281741093
0.054922346 0.057463862 0.29100001 4282653711
0.056059498 0.057661336 0.29200003 4283438862
0.057203144 0.057858802 0.29300001 4284099874
0.063986734 0.058846153 0.29800001 4278914308
0.065172613 0.059043627 0.29900002 4278718217
0.068086065 0.059043627 0.29900002 4279045640
0.079032183 0.059241094 0.30000001 4278913797
0.080006585 0.059241094 0.30000001 4278848263
0.080980986 0.059241094 0.30000001 4278782987
0.081955381 0.059241094 0.30000001 4278322436
0.082929783 0.059241094 0.30000001 4286286720
0.083904184 0.059241094 0.30000001 4285497974
0.084878586 0.059241094 0.30000001 4285365618
0.085852988 0.059241094 0.30000001 4285497204
0.08682739 0.059241094 0.30000001 4285562997
0.088094465 0.059438568 0.30100003 4285497204
0.089072116 0.059438568 0.30100003 4286678398
0.090049759 0.059438568 0.30100003 4281209874
0.054922346 0.058409348 0.29100001 4282391055
0.055867508 0.058409348 0.29100001 4283569936
0.057203144 0.058810785 0.29300001 4283967774
0.066143766 0.060015105 0.29900002 4278323457
0.067114912 0.060015105 0.29900002 4278191104
0.068086065 0.060015105 0.29900002 4278784008
0.078057781 0.060215823 0.30000001 4279241733
0.079032183 0.060215823 0.30000001 4278979844
0.080006585 0.060215823 0.30000001 4278979844
0.080980986 0.060215823 0.30000001 4279046412
0.081955381 0.060215823 0.30000001 4282797896
0.082929783 0.060215823 0.30000001 4285563251
0.083904184 0.060215823 0.30000001 4285497458
0.084878586 0.060215823 0.30000001 4285694583
0.085852988 0.060215823 0.30000001 4285562997
0.087116823 0.060416546 0.30100003 4285562997
0.088094465 0.060416546 0.30100003 4285365618
0.055675529 0.059150871 0.29000002 4283504657
0.057203144 0.059762776 0.29300001 4283110669
0.064201459 0.06098659 0.29900002 4285694583
0.065172613 0.06098659 0.29900002 4278979847
0.068086065 0.06098659 0.29900002 4278192640
0.070028372 0.06098659 0.29900002 4278717699
0.070999525 0.06098659 0.29900002 4278387968
0.075134575 0.061190557 0.30000001 4278453760
0.076108977 0.061190557 0.30000001 4278519296
0.078317977 0.061394528 0.30100003 4279045637
0.079295628 0.061394528 0.30100003 4278979847
0.080273278 0.061394528 0.30100003 4279177226
0.080980986 0.061190557 0.30000001 4278981389
0.081955381 0.061190557 0.30000001 4286286208
0.082929783 0.061190557 0.30000001 4285694323
0.083904184 0.061190557 0.30000001 4285694323
0.084878586 0.061190557 0.30000001 4285760116
0.086139172 0.061394528 0.30100003 4285694323
0.087116823 0.061394528 0.30100003 4285694323
0.088094465 0.061394528 0.30100003 4285825909
0.089072116 0.061394528 0.30100003 4283312936
0.055483539 0.059885889 0.289 4283308561
0.066364981 0.062165283 0.30000001 4278651652
0.069288179 0.062165283 0.30000001 4278849031
0.072211385 0.062165283 0.30000001 4278782468
0.073185779 0.062165283 0.30000001 4278848263
0.074407384 0.062372506 0.30100003 4278848263
0.075385034 0.062372506 0.30100003 4278913799
0.077340335 0.062372506 0.30100003 4278519298
0.078317977 0.062372506 0.30100003 4282138681
0.079295628 0.062372506 0.30100003 4279045640
0.080273278 0.062372506 0.30100003 4278716677
0.080980986 0.062165283 0.30000001 4286154874
0.082228571 0.062372506 0.30100003 4285694069
0.083206221 0.062372506 0.30100003 4285628790
0.084183872 0.062372506 0.30100003 4285563251
0.085161522 0.062372506 0.30100003 4285760116
0.086139172 0.062372506 0.30100003 4285628530
0.087116823 0.062372506 0.30100003 4285496944
0.088094465 0.062372506 0.30100003 4285100388
0.067339376 0.06314002 0.30000001 4278782211
0.072452091 0.063350484 0.30100003 4278585089
0.073429734 0.063350484 0.30100003 4282731842
0.079559065 0.063560948 0.30200002 4278848261
0.080539964 0.063560948 0.30200002 4286351740
0.081520863 0.063560948 0.30200002 4285694323
0.082228571 0.063350484 0.30100003 4285891702
0.083206221 0.063350484 0.30100003 4285694323
0.084183872 0.063350484 0.30100003 4285760116
0.085161522 0.063350484 0.30100003 4285694323
0.086139172 0.063350484 0.30100003 4285694323
0.087116823 0.063350484 0.30100003 4286876799
0.088094465 0.063350484 0.30100003 4282789158
0.067339376 0.064114749 0.30000001 4285957241
0.069519147 0.064328469 0.30100003 4278913797
0.072692789 0.064542182 0.30200002 4279177480
0.075635478 0.064542182 0.30200002 4278651906
0.076616377 0.064542182 0.30200002 4278848515
0.077597275 0.064542182 0.30200002 4278782465
0.080539964 0.064542182 0.30200002 4285693810
0.081520863 0.064542182 0.30200002 4285760116
0.082228571 0.064328469 0.30100003 4285694323
0.083206221 0.064328469 0.30100003 4285825909
0.084183872 0.064328469 0.30100003 4285694323
0.085161522 0.064328469 0.30100003 4285694323
0.086139172 0.064328469 0.30100003 4285693810
0.049302168 0.064438581 0.29700002 4282654744
0.050266825 0.064438581 0.29700002 4282914832
0.051231481 0.064438581 0.29700002 4283635214
0.052196138 0.064438581 0.29700002 4283833106
0.053160798 0.064438581 0.29700002 4281404937
0.054125451 0.064438581 0.29700002 4280158983
0.055090107 0.064438581 0.29700002 4279898893
0.069519147 0.065306447 0.30100003 4285825657
0.07171189 0.065523408 0.30200002 4279307272
0.072692789 0.065523408 0.30200002 4279175940
0.073917635 0.065740369 0.303 4279110147
0.074901782 0.065740369 0.303 4279110147
0.075885922 0.065740369 0.303 4279372036
0.076870069 0.065740369 0.303 4280684814
0.077854216 0.065740369 0.303 4282129432
0.078838356 0.065740369 0.303 4282588184
0.079559065 0.065523408 0.30200002 4281606168
0.080539964 0.065523408 0.30200002 4286218871
0.081520863 0.065523408 0.30200002 4285694323
0.082501754 0.065523408 0.30200002 4285430897
0.083206221 0.065306447 0.30100003 4285694323
0.084183872 0.065306447 0.30100003 4285694323
0.085161522 0.065306447 0.30100003 4285628528
0.086139172 0.065306447 0.30100003 4285032798
0.048500262 0.065623783 0.29800001 4280687894
0.049302168 0.065403573 0.29700002 4282785045
0.050266825 0.065403573 0.29700002 4283242514
0.051231481 0.065403573 0.29700002 4283897357
0.052196138 0.065403573 0.29700002 4284094736
0.053160798 0.065403573 0.29700002 4284160529
0.054125451 0.065403573 0.29700002 4284160788
0.055090107 0.065403573 0.29700002 4284294173
0.055866025 0.065183349 0.296 4284228126
0.056827433 0.065183349 0.296 4283833108
0.070965201 0.066724852 0.303 4286286206
0.071949348 0.066724852 0.303 4280356614
0.072933495 0.066724852 0.303 4281209613
0.073917635 0.066724852 0.303 4281603086
0.074901782 0.066724852 0.303 4282062094
0.075885922 0.066724852 0.303 4282585871
0.079822503 0.066724852 0.303 4282324494
0.08080665 0.066724852 0.303 4286544752
0.081520863 0.066504642 0.30200002 4285628530
0.082501754 0.066504642 0.30200002 4285694069
0.083482653 0.066504642 0.30200002 4285760116
0.084183872 0.066284426 0.30100003 4285825909
0.085161522 0.066284426 0.30100003 4286344547
0.048500262 0.066592008 0.29800001 4281214236
0.049468167 0.066592008 0.29800001 4282720022
0.050436068 0.066592008 0.29800001 4283045905
0.051231481 0.06636855 0.29700002 4284226835
0.052196138 0.06636855 0.29700002 4284490007
0.053160798 0.06636855 0.29700002 4284422931
0.054125451 0.06636855 0.29700002 4284488722
0.055090107 0.06636855 0.29700002 4284750867
0.055866025 0.066145085 0.296 4285079062
0.056827433 0.066145085 0.296 4287056450
0.073174201 0.067932792 0.30400002 4282455567
0.079822503 0.067709327 0.303 4282848010
0.08080665 0.067709327 0.303 4287200367
0.081520863 0.067485869 0.30200002 4285496944
0.082501754 0.067485869 0.30200002 4285628530
0.083482653 0.067485869 0.30200002 4285693038
0.048500262 0.067560248 0.29800001 4281740068
0.049468167 0.067560248 0.29800001 4282983194
0.050436068 0.067560248 0.29800001 4283375385
0.051403977 0.067560248 0.29800001 4283965206
0.052196138 0.067333534 0.29700002 4284161812
0.053160798 0.067333534 0.29700002 4284226320
0.054125451 0.067333534 0.29700002 4284487952
0.055090107 0.067333534 0.29700002 4284946963
0.055866025 0.067106821 0.296 4285275926
0.056827433 0.067106821 0.296 4289755240
0.057788841 0.067106821 0.296 4283963146
0.073174201 0.068920523 0.30400002 4282522643
0.08080665 0.068693802 0.303 4287194973
0.081790797 0.068693802 0.303 4285627243
0.082501754 0.068467095 0.30200002 4286350455
0.048500262 0.068528473 0.29800001 4282332203
0.049468167 0.068528473 0.29800001 4282983194
0.050436068 0.068528473 0.29800001 4283507483
0.051403977 0.068528473 0.29800001 4283768599
0.052196138 0.068298519 0.29700002 4283965460
0.053160798 0.068298519 0.29700002 4284292626
0.054125451 0.068298519 0.29700002 4284093964
0.054904617 0.068068549 0.296 4284617998
0.055866025 0.068068549 0.296 4285077777
0.056827433 0.068068549 0.296 4285474592
0.05759361 0.067838594 0.29500002 4285079580
0.058551773 0.067838594 0.29500002 4285210135
0.059308197 0.067608625 0.294 4284946963
0.060263112 0.067608625 0.294 4284815890
0.061218027 0.067608625 0.294 4284487695
0.073414907 0.070138201 0.30500001 4281800465
0.048500262 0.069496706 0.29800001 4281608480
0.049468167 0.069496706 0.29800001 4282917401
0.050436068 0.069496706 0.29800001 4283310874
0.051403977 0.069496706 0.29800001 4283638294
0.052196138 0.069263503 0.29700002 4283571985
0.053160798 0.069263503 0.29700002 4284095247
0.054125451 0.069263503 0.29700002 4284224780
0.054904617 0.069030285 0.296 4284683791
0.055866025 0.069030285 0.296 4284881170
0.056827433 0.069030285 0.296 4284946963
0.05759361 0.068797082 0.29500002 4289356382
0.05835329 0.068563864 0.294 4286134065
0.059308197 0.068563864 0.294 4285013269
0.060263112 0.068563864 0.294 4284619279
0.061218027 0.068563864 0.294 4284619279
0.062172942 0.068563864 0.294 4284422157
0.048500262 0.070464939 0.29800001 4280228626
0.049468167 0.070464939 0.29800001 4282327576
0.050436068 0.070464939 0.29800001 4282917914
0.051403977 0.070464939 0.29800001 4283047702
0.052371882 0.070464939 0.29800001 4283309842
0.053160798 0.07022848 0.29700002 4283570188
0.054125451 0.07022848 0.29700002 4283832077
0.054904617 0.069992021 0.296 4284224780
0.055866025 0.069992021 0.296 4284553488
0.056635451 0.069755562 0.29500002 4284553488
0.05759361 0.069755562 0.29500002 4284554515
0.05835329 0.069519103 0.294 4283829513
0.059308197 0.069519103 0.294 4284552720
0.060263112 0.069519103 0.294 4284487695
0.061218027 0.069519103 0.294 4284158987
0.062172942 0.069519103 0.294 4284356366
0.046720713 0.071672887 0.29900002 4279573524
0.047691863 0.071672887 0.29900002 4279507731
0.048663016 0.071672887 0.29900002 4279835410
0.049468167 0.071433172 0.29800001 4281868056
0.050436068 0.071433172 0.29800001 4282590748
0.051403977 0.071433172 0.29800001 4282851608
0.052196138 0.071193472 0.29700002 4282915346
0.053160798 0.071193472 0.29700002 4283242253
0.054125451 0.071193472 0.29700002 4283569421
0.054904617 0.070953757 0.296 4283831564
0.055866025 0.070953757 0.296 4284093966
0.056635451 0.070714049 0.29500002 4284226322
0.05759361 0.070714049 0.29500002 4284358421
0.058551773 0.070714049 0.29500002 4284225552
0.059308197 0.070474342 0.294 4284224782
0.060263112 0.070474342 0.294 4284158989
0.061218027 0.070474342 0.294 4283765001
0.062172942 0.070474342 0.294 4284094736
0.046720713 0.072644368 0.29900002 4279507731
0.047691863 0.072644368 0.29900002 4279507731
0.048663016 0.072644368 0.29900002 4279506961
0.049468167 0.072401412 0.29800001 4280949267
0.050436068 0.072401412 0.29800001 4282395168
0.051403977 0.072401412 0.29800001 4282721821
0.052196138 0.072158456 0.29700002 4282654227
0.053160798 0.072158456 0.29700002 4282849293
0.054125451 0.072158456 0.29700002 4282848008
0.054904617 0.071915492 0.296 4283504141
0.055866025 0.071915492 0.296 4283635468
0.056635451 0.071672536 0.29500002 4283898640
0.05759361 0.071672536 0.29500002 4283964433
0.058551773 0.071672536 0.29500002 4283897870
0.059308197 0.071429573 0.294 4284160529
0.060263112 0.071429573 0.294 4284160529
0.061218027 0.071429573 0.294 4283503882
0.062172942 0.071429573 0.294 4282323981
0.046720713 0.073615849 0.29900002 4279639317
0.047691863 0.073615849 0.29900002 4279573524
0.048500262 0.073369637 0.29800001 4279638547
0.049468167 0.073369637 0.29800001 4279900946
0.050436068 0.073369637 0.29800001 4281411101
0.051403977 0.073369637 0.29800001 4282461215
0.052196138 0.073123433 0.29700002 4282394137
0.053160798 0.073123433 0.29700002 4282456848
0.054125451 0.073123433 0.29700002 4282653198
0.054904617 0.072877221 0.296 4282915084
0.055866025 0.072877221 0.296 4283111950
0.056827433 0.072877221 0.296 4283439632
0.05759361 0.072631024 0.29500002 4283767827
0.058551773 0.072631024 0.29500002 4283898386
0.059509929 0.072631024 0.29500002 4283898386
0.060263112 0.072384812 0.294 4284098077
0.061218027 0.072384812 0.294 4282718739
0.062172942 0.072384812 0.294 4286218099
0.047691863 0.07458733 0.29900002 4279968536
0.048500262 0.07433787 0.29800001 4279705364
0.049468167 0.07433787 0.29800001 4279770387
0.050436068 0.07433787 0.29800001 4279966996
0.051403977 0.07433787 0.29800001 4280819218
0.052196138 0.074088417 0.29700002 4282133023
0.053160798 0.074088417 0.29700002 4282327576
0.054125451 0.074088417 0.29700002 4282062607
0.054904617 0.073838957 0.296 4282522125
0.055866025 0.073838957 0.296 4282455819
0.056827433 0.073838957 0.296 4282586635
0.057788841 0.073838957 0.296 4283112465
0.058551773 0.073589511 0.29500002 4283375124
0.059509929 0.073589511 0.29500002 4283704089
0.060263112 0.073340051 0.294 4283508766
0.061218027 0.073340051 0.294 4285221955
0.062172942 0.073340051 0.294 4286153591
0.046720713 0.075558811 0.29900002 4279441938
0.047532357 0.075306103 0.29800001 4279178766
0.048500262 0.075306103 0.29800001 4279244559
0.049468167 0.075306103 0.29800001 4279376145
0.050436068 0.075306103 0.29800001 4279244559
0.051231481 0.075053401 0.29700002 4279703567
0.052196138 0.075053401 0.29700002 4280360212
0.053160798 0.075053401 0.29700002 4281146646
0.054125451 0.075053401 0.29700002 4281475095
0.054904617 0.074800692 0.296 4281736209
0.055866025 0.074800692 0.296 4281866512
0.056827433 0.074800692 0.296 4282193678
0.057788841 0.074800692 0.296 4282391057
0.058750253 0.074800692 0.296 4282194193
0.059711657 0.074800692 0.296 4284300083
0.060673065 0.074800692 0.296 4282194191
0.061634477 0.074800692 0.296 4282194193
0.062595889 0.074800692 0.296 4281405709
0.047532357 0.076274335 0.29800001 4279441938
0.048500262 0.076274335 0.29800001 4279244559
0.049468167 0.076274335 0.29800001 4279178766
0.050266825 0.076018386 0.29700002 4279244559
0.051231481 0.076018386 0.29700002 4279244559
0.052196138 0.076018386 0.29700002 4279638547
0.053160798 0.076018386 0.29700002 4279966996
0.054125451 0.076018386 0.29700002 4279900946
0.054904617 0.075762428 0.296 4280227854
0.055866025 0.075762428 0.296 4281542171
0.056827433 0.075762428 0.296 4283384121
0.057788841 0.075762428 0.296 4285688675
0.058750253 0.075762428 0.296 4284967262
0.059711657 0.075762428 0.296 4283650375
0.060673065 0.075762428 0.296 4282593574
0.061634477 0.075762428 0.296 4281539089
0.062595889 0.075762428 0.296 4281669392
0.047532357 0.077242576 0.29800001 4279441938
0.048500262 0.077242576 0.29800001 4279178768
0.049302168 0.07698337 0.29700002 4279376145
0.050266825 0.07698337 0.29700002 4279244561
0.051231481 0.07698337 0.29700002 4279178766
0.052196138 0.07698337 0.29700002 4279572754
0.053160798 0.07698337 0.29700002 4279704340
0.053943206 0.076724164 0.296 4279506961
0.054904617 0.076724164 0.296 4279506961
0.055866025 0.076724164 0.296 4280229914
0.056827433 0.076724164 0.296 4280888614
0.057788841 0.076724164 0.296 4284838501
0.058750253 0.076724164 0.296 4284707428
0.059711657 0.076724164 0.296 4284970600
0.060673065 0.076724164 0.296 4285233520
0.061634477 0.076724164 0.296 4285628278
0.062595889 0.076724164 0.296 4286350457
0.048500262 0.078210801 0.29800001 4279507731
0.049302168 0.077948347 0.29700002 4279441938
0.050266825 0.077948347 0.29700002 4279244559
0.051231481 0.077948347 0.29700002 4279244559
0.052196138 0.077948347 0.29700002 4279441938
0.052981801 0.077685893 0.296 4279507731
0.053943206 0.077685893 0.296 4279441938
0.054904617 0.077685893 0.296 4279376145
0.055866025 0.077685893 0.296 4280230686
0.056827433 0.077685893 0.296 4281416241
0.057788841 0.077685893 0.296 4284707174
0.058750253 0.077685893 0.296 4284707688
0.059711657 0.077685893 0.296 4285168239
0.060673065 0.077685893 0.296 4285365106
0.061634477 0.077685893 0.296 4285496692
0.062595889 0.077685893 0.296 4285759864
0.049302168 0.078913331 0.29700002 4279507731
0.050266825 0.078913331 0.29700002 4279441938
0.051231481 0.078913331 0.29700002 4279244559
0.052196138 0.078913331 0.29700002 4279573524
0.052981801 0.078647628 0.296 4279507731
0.053943206 0.078647628 0.296 4279376145
0.054904617 0.078647628 0.296 4279376145
0.055866025 0.078647628 0.296 4280955179
0.056827433 0.078647628 0.296 4281878075
0.057788841 0.078647628 0.296 4284576102
0.058750253 0.078647628 0.296 4284773483
0.059711657 0.078647628 0.296 4285102448
0.060673065 0.078647628 0.296 4285365620
0.061634477 0.078647628 0.296 4285497206
0.062595889 0.078647628 0.296 4285694585
0.050266825 0.079878323 0.29700002 4279178766
0.051231481 0.079878323 0.29700002 4279244559
0.052196138 0.079878323 0.29700002 4279507731
0.052981801 0.079609364 0.296 4279441940
0.053943206 0.079609364 0.296 4279178766
0.050266825 0.080843307 0.29700002 4279441938
0.051231481 0.080843307 0.29700002 4279376147
0.052196138 0.080843307 0.29700002 4279507733
0.052981801 0.0805711 0.296 4279507731
0.073881216 0.056025591 0.29847437 4294967295
0.073881216 0.056025591 0.29847437 4294901760
0.073881216 0.056025591 0.29897436 4294901760
0.073881216 0.056025591 0.29947436 4294901760
0.073881216 0.056025591 0.29997438 4294901760
0.073881216 0.056025591 0.30047438 4294901760
0.073881216 0.056025591 0.30097437 4294901760
0.073881216 0.056025591 0.30147436 4294901760
0.073881216 0.056025591 0.30197439 4294901760
0.073881216 0.056025591 0.30247438 4294901760
0.073881216 0.056025591 0.30297437 4294901760
0.073881216 0.056025591 0.30347437 4294901760
0.073881216 0.056025591 0.30397436 4294901760
0.073881216 0.056025591 0.30447438 4294901760
0.073881216 0.056025591 0.30497438 4294901760
0.073881216 0.056025591 0.30547437 4294901760
0.073881216 0.056025591 0.30597436 4294901760
0.073881216 0.056025591 0.30647439 4294901760
0.073881216 0.056025591 0.30697438 4294901760
0.073881216 0.056025591 0.30747437 4294901760
0.073881216 0.056025591 0.30797437 4294901760
0.073881216 0.056025591 0.30847436 4294901760
0.073881216 0.056025591 0.30897439 4294901760
0.073881216 0.056025591 0.30947438 4294901760
0.073881216 0.056025591 0.30997437 4294901760
0.073881216 0.056025591 0.31047437 4294901760
0.073881216 0.056025591 0.31097436 4294901760
0.073881216 0.056025591 0.31147438 4294901760
0.073881216 0.056025591 0.31197438 4294901760
0.073881216 0.056025591 0.31247437 4294901760
0.073881216 0.056025591 0.31297436 4294901760
0.073881216 0.056025591 0.31347439 4294901760
0.073881216 0.056025591 0.31397438 4294901760
0.073881216 0.056025591 0.31447437 4294901760
0.073881216 0.056025591 0.31497437 4294901760
0.073881216 0.056025591 0.31547439 4294901760
0.073881216 0.056025591 0.31597438 4294901760
0.073881216 0.056025591 0.31647438 4294901760
0.073881216 0.056025591 0.31697437 4294901760
0.073881216 0.056025591 0.31747437 4294901760
0.073881216 0.056025591 0.31797439 4294901760
0.073881216 0.056025591 0.31847438 4294901760
0.073881216 0.056025591 0.31897438 4294901760
0.073881216 0.056025591 0.31947437 4294901760
0.073881216 0.056025591 0.31997436 4294901760
0.073881216 0.056025591 0.32047439 4294901760
0.073881216 0.056025591 0.32097438 4294901760
0.073881216 0.056025591 0.32147437 4294901760
0.073881216 0.056025591 0.32197437 4294901760
0.073881216 0.056025591 0.32247439 4294901760
0.073881216 0.056025591 0.32297438 4294901760
0.073881216 0.056025591 0.32347438 4294901760
0.073881216 0.056025591 0.32397437 4294901760
0.073881216 0.056025591 0.32447436 4294901760
0.073881216 0.056025591 0.32497439 4294901760
0.073881216 0.056025591 0.32547438 4294901760
0.073881216 0.056025591 0.32597438 4294901760
0.073881216 0.056025591 0.32647437 4294901760
0.073881216 0.056025591 0.32697439 4294901760
0.073881216 0.056025591 0.32747439 4294901760
0.073881216 0.056025591 0.32797438 4294901760
0.073881216 0.056025591 0.32847437 4294901760
0.073881216 0.056025591 0.32897437 4294901760
0.073881216 0.056025591 0.32947439 4294901760
0.073881216 0.056025591 0.32997438 4294901760
0.073881216 0.056025591 0.33047438 4294901760
0.073881216 0.056025591 0.33097437 4294901760
0.073881216 0.056025591 0.33147439 4294901760
0.073881216 0.056025591 0.33197439 4294901760
0.073881216 0.056025591 0.33247438 4294901760
0.073881216 0.056025591 0.33297437 4294901760
0.073881216 0.056025591 0.33347437 4294901760
0.073881216 0.056025591 0.33397439 4294901760
0.073881216 0.056025591 0.33447438 4294901760
0.073881216 0.056025591 0.33497438 4294901760
0.073881216 0.056025591 0.33547437 4294901760
0.073881216 0.056025591 0.3359744 4294901760
0.073881216 0.056025591 0.33647439 4294901760
0.073881216 0.056025591 0.33697438 4294901760
0.073881216 0.056025591 0.33747438 4294901760
0.073881216 0.056025591 0.33797437 4294901760
0.073881216 0.056025591 0.33847439 4294901760
0.073881216 0.056025591 0.33897439 4294901760
0.073881216 0.056025591 0.33947438 4294901760
0.073881216 0.056025591 0.33997437 4294901760
0.073881216 0.056025591 0.34047437 4294901760
0.073881216 0.056025591 0.34097439 4294901760
0.073881216 0.056025591 0.34147438 4294901760
0.073881216 0.056025591 0.34197438 4294901760
0.073881216 0.056025591 0.34247437 4294901760
0.073881216 0.056025591 0.34297436 4294901760
0.073881216 0.056025591 0.34347439 4294901760
0.073881216 0.056025591 0.34397438 4294901760
0.073881216 0.056025591 0.34447438 4294901760
0.073881216 0.056025591 0.3449744 4294901760
0.073881216 0.056025591 0.34547439 4294901760
0.073881216 0.056025591 0.34597439 4294901760
0.073881216 0.056025591 0.34647438 4294901760
0.073881216 0.056025591 0.34697437 4294901760
0.073881216 0.056025591 0.3474744 4294901760
