# .PCD v0.7 - Point Cloud Data file format
VERSION 0.7
FIELDS x y z rgb
SIZE 4 4 4 4
TYPE F F F U
COUNT 1 1 1 1
WIDTH 1063
HEIGHT 1
VIEWPOINT 0 0 0 1 0 0 0
POINTS 1063
DATA ascii
0.068078846 0.030955732 0.34300002 4281759311
0.069192901 0.030955732 0.34300002 4279061800
0.070306972 0.030955732 0.34300002 4278863390
0.071421035 0.030955732 0.34300002 4279388707
0.060631879 0.032257173 0.34500003 4283064398
0.064736649 0.032070175 0.34300002 4280176940
0.065850712 0.032070175 0.34300002 4280046383
0.066964775 0.032070175 0.34300002 4279389480
0.068078846 0.032070175 0.34300002 4278733605
0.069192901 0.032070175 0.34300002 4281168460
0.070306972 0.032070175 0.34300002 4279652652
0.071421035 0.032070175 0.34300002 4279257635
0.072535105 0.032070175 0.34300002 4279126047
0.073649161 0.032070175 0.34300002 4279124763
0.074763231 0.032070175 0.34300002 4279453215
0.076098509 0.032163672 0.34400001 4279519008
0.077215821 0.032163672 0.34400001 4279584033
0.078560852 0.032257173 0.34500003 4279715106
0.081922531 0.032257173 0.34500003 4279318297
0.060631879 0.033378113 0.34500003 4283854686
0.063622586 0.033184614 0.34300002 4280111147
0.064736649 0.033184614 0.34300002 4280440625
0.065850712 0.033184614 0.34300002 4280440625
0.066964775 0.033184614 0.34300002 4280309039
0.068078846 0.033184614 0.34300002 4279718699
0.069192901 0.033184614 0.34300002 4278667294
0.070306972 0.033184614 0.34300002 4282615392
0.071421035 0.033184614 0.34300002 4279719215
0.072535105 0.033184614 0.34300002 4279389732
0.073649161 0.033184614 0.34300002 4278929181
0.074981198 0.033281364 0.34400001 4279323426
0.076098509 0.033281364 0.34400001 4278862875
0.077215821 0.033281364 0.34400001 4278862875
0.078560852 0.033378113 0.34500003 4278862875
0.079681411 0.033378113 0.34500003 4278928668
0.080801971 0.033378113 0.34500003 4278797082
0.081922531 0.033378113 0.34500003 4278993177
0.083043091 0.033378113 0.34500003 4279256347
0.083919697 0.033281364 0.34400001 4279321629
0.085037008 0.033281364 0.34400001 4279584031
0.085903868 0.033184614 0.34300002 4279451680
0.087017938 0.033184614 0.34300002 4279517473
0.089246072 0.033184614 0.34300002 4279450398
0.09009669 0.033087865 0.34200001 4279383838
0.060631879 0.034499053 0.34500003 4285301362
0.062508516 0.034299057 0.34300002 4280898610
0.063622586 0.034299057 0.34300002 4280637491
0.064736649 0.034299057 0.34300002 4280703284
0.065850712 0.034299057 0.34300002 4280769336
0.066964775 0.034299057 0.34300002 4280835129
0.068078846 0.034299057 0.34300002 4280375602
0.069192901 0.034299057 0.34300002 4279850285
0.070306972 0.034299057 0.34300002 4279127845
0.071421035 0.034299057 0.34300002 4279062822
0.072535105 0.034299057 0.34300002 4278931234
0.073863879 0.034399055 0.34400001 4278996257
0.074981198 0.034399055 0.34400001 4279193121
0.076098509 0.034399055 0.34400001 4278995742
0.077215821 0.034399055 0.34400001 4278930203
0.078333132 0.034399055 0.34400001 4278929949
0.079681411 0.034499053 0.34500003 4278995742
0.080801971 0.034499053 0.34500003 4278798363
0.081685066 0.034399055 0.34400001 4278863386
0.082802385 0.034399055 0.34400001 4278863386
0.083919697 0.034399055 0.34400001 4278862873
0.085037008 0.034399055 0.34400001 4278862873
0.085903868 0.034299057 0.34300002 4279058970
0.087017938 0.034299057 0.34300002 4278993177
0.088132001 0.034299057 0.34300002 4278730005
0.088985875 0.034199059 0.34200001 4279058970
0.09009669 0.034199059 0.34200001 4279255838
0.091207512 0.034199059 0.34200001 4279255068
0.092318326 0.034199059 0.34200001 4279582750
0.093429133 0.034199059 0.34200001 4279319578
0.094539955 0.034199059 0.34200001 4279450910
0.09565077 0.034199059 0.34200001 4279385117
0.060631879 0.035619993 0.34500003 4285103983
0.061573446 0.035516743 0.34400001 4281224243
0.062508516 0.0354135 0.34300002 4281161014
0.063622586 0.0354135 0.34300002 4280965432
0.064736649 0.0354135 0.34300002 4280703030
0.065850712 0.0354135 0.34300002 4280900409
0.066964775 0.0354135 0.34300002 4281031995
0.068078846 0.0354135 0.34300002 4280835129
0.069192901 0.0354135 0.34300002 4280571957
0.070306972 0.0354135 0.34300002 4280375348
0.071421035 0.0354135 0.34300002 4280112944
0.072746575 0.035516743 0.34400001 4279718699
0.073863879 0.035516743 0.34400001 4279652904
0.074981198 0.035516743 0.34400001 4279126558
0.076098509 0.035516743 0.34400001 4279061019
0.077215821 0.035516743 0.34400001 4279061789
0.078333132 0.035516743 0.34400001 4278930462
0.079450443 0.035516743 0.34400001 4278733085
0.080567755 0.035516743 0.34400001 4279127843
0.081685066 0.035516743 0.34400001 4278798363
0.082802385 0.035516743 0.34400001 4278798363
0.083919697 0.035516743 0.34400001 4278929951
0.084789813 0.0354135 0.34300002 4278732572
0.085903868 0.0354135 0.34300002 4278862875
0.087017938 0.0354135 0.34300002 4278862875
0.087875053 0.03531025 0.34200001 4278928666
0.088985875 0.03531025 0.34200001 4278665494
0.09009669 0.03531025 0.34200001 4278797080
0.090940826 0.035207007 0.34100002 4278993945
0.092048392 0.035207007 0.34100002 4278993175
0.093429133 0.03531025 0.34200001 4278993175
0.094539955 0.03531025 0.34200001 4278730005
0.09565077 0.03531025 0.34200001 4278795285
0.096761592 0.03531025 0.34200001 4279058459
0.1020165 0.035207007 0.34100002 4279581730
0.10282166 0.035103757 0.34 4279647010
0.10392597 0.035103757 0.34 4279712805
0.10472139 0.035000514 0.33900002 4279120670
0.10582246 0.035000514 0.33900002 4279581221
0.10692353 0.035000514 0.33900002 4279909162
0.1080246 0.035000514 0.33900002 4281157173
0.062508516 0.036527943 0.34300002 4281817409
0.063622586 0.036527943 0.34300002 4281097020
0.064736649 0.036527943 0.34300002 4280900411
0.065850712 0.036527943 0.34300002 4280966202
0.066964775 0.036527943 0.34300002 4281098042
0.068078846 0.036527943 0.34300002 4281098042
0.069394633 0.036634434 0.34400001 4280374319
0.070511945 0.036634434 0.34400001 4280572211
0.071629256 0.036634434 0.34400001 4280309039
0.072746575 0.036634434 0.34400001 4280244016
0.073863879 0.036634434 0.34400001 4280178223
0.074981198 0.036634434 0.34400001 4279980844
0.076098509 0.036634434 0.34400001 4279980842
0.077215821 0.036634434 0.34400001 4280046633
0.078333132 0.036634434 0.34400001 4279783975
0.079450443 0.036634434 0.34400001 4279718697
0.080567755 0.036634434 0.34400001 4280113453
0.081685066 0.036634434 0.34400001 4279258144
0.082802385 0.036634434 0.34400001 4279192353
0.083919697 0.036634434 0.34400001 4279060767
0.084789813 0.036527943 0.34300002 4278468630
0.085903868 0.036527943 0.34300002 4279060767
0.086764239 0.036421444 0.34200001 4278929181
0.087875053 0.036421444 0.34200001 4279060767
0.088725686 0.036314949 0.34100002 4279060765
0.089833252 0.036314949 0.34100002 4278731800
0.090940826 0.036314949 0.34100002 4278797080
0.092048392 0.036314949 0.34100002 4278731287
0.09315595 0.036314949 0.34100002 4278731287
0.094263524 0.036314949 0.34100002 4278796566
0.095371097 0.036314949 0.34100002 4278862359
0.096478663 0.036314949 0.34100002 4278993945
0.1020165 0.036314949 0.34100002 4278861080
0.10282166 0.036208451 0.34 4278992666
0.10392597 0.036208451 0.34 4278992666
0.10472139 0.03610196 0.33900002 4279189275
0.10582246 0.03610196 0.33900002 4279123228
0.10692353 0.03610196 0.33900002 4279516703
0.1080246 0.03610196 0.33900002 4279713568
0.10880377 0.035995465 0.33800003 4279909918
0.1099016 0.035995465 0.33800003 4279777819
0.11470793 0.035782471 0.33600003 4284774755
0.11579926 0.035782471 0.33600003 4285695603
0.064736649 0.037642382 0.34300002 4281097020
0.065850712 0.037642382 0.34300002 4281162811
0.067160003 0.037752125 0.34400001 4281097018
0.068277322 0.037752125 0.34400001 4280768307
0.069394633 0.037752125 0.34400001 4280834100
0.070511945 0.037752125 0.34400001 4280571698
0.071629256 0.037752125 0.34400001 4280571698
0.072746575 0.037752125 0.34400001 4280374832
0.073863879 0.037752125 0.34400001 4280111660
0.074981198 0.037752125 0.34400001 4280111660
0.076098509 0.037752125 0.34400001 4279980074
0.077215821 0.037752125 0.34400001 4280111660
0.078333132 0.037752125 0.34400001 4280045867
0.079450443 0.037752125 0.34400001 4280111660
0.080567755 0.037752125 0.34400001 4280111660
0.081685066 0.037752125 0.34400001 4279782182
0.082802385 0.037752125 0.34400001 4280176170
0.083919697 0.037752125 0.34400001 4280111658
0.084789813 0.037642382 0.34300002 4279849256
0.085903868 0.037642382 0.34300002 4279718184
0.086764239 0.037532635 0.34200001 4279586598
0.087875053 0.037532635 0.34200001 4279652391
0.088725686 0.037422892 0.34100002 4279126047
0.089833252 0.037422892 0.34100002 4279191840
0.090940826 0.037422892 0.34100002 4278994461
0.092048392 0.037422892 0.34100002 4278994461
0.09315595 0.037422892 0.34100002 4279323426
0.094263524 0.037422892 0.34100002 4279126045
0.095371097 0.037422892 0.34100002 4279454496
0.096478663 0.037422892 0.34100002 4278928666
0.097586237 0.037422892 0.34100002 4278731289
0.098693803 0.037422892 0.34100002 4278994461
0.099508688 0.037313148 0.34 4278731289
0.10090894 0.037422892 0.34100002 4278664982
0.1020165 0.037422892 0.34100002 4278928156
0.10282166 0.037313148 0.34 4278599191
0.10392597 0.037313148 0.34 4278664984
0.10472139 0.037203405 0.33900002 4278598421
0.10582246 0.037203405 0.33900002 4278729494
0.10692353 0.037203405 0.33900002 4278926103
0.1080246 0.037203405 0.33900002 4278926103
0.10880377 0.037093662 0.33800003 4279254553
0.1099016 0.037093662 0.33800003 4279057174
0.11099943 0.037093662 0.33800003 4279648025
0.11209726 0.037093662 0.33800003 4279648025
0.11319507 0.037093662 0.33800003 4279648027
0.11395475 0.036983915 0.33700001 4279779100
0.11504932 0.036983915 0.33700001 4279514647
0.11579926 0.036874171 0.33600003 4279382807
0.1165427 0.036764424 0.33500001 4279777567
0.11727965 0.036654681 0.33400002 4279711004
0.11836448 0.036654681 0.33400002 4280762665
0.067160003 0.038869817 0.34400001 4281097018
0.068277322 0.038869817 0.34400001 4280833846
0.069596365 0.038982812 0.34500003 4280768053
0.070716925 0.038982812 0.34500003 4281163581
0.071837485 0.038982812 0.34500003 4280374065
0.072746575 0.038869817 0.34400001 4280571698
0.073863879 0.038869817 0.34400001 4280177453
0.075199164 0.038982812 0.34500003 4280111660
0.076319732 0.038982812 0.34500003 4280045867
0.077440284 0.038982812 0.34500003 4280177453
0.078560852 0.038982812 0.34500003 4280045867
0.079450443 0.038869817 0.34400001 4279979561
0.080567755 0.038869817 0.34400001 4279714852
0.082802385 0.038869817 0.34400001 4280306221
0.083919697 0.038869817 0.34400001 4280176686
0.084789813 0.038756825 0.34300002 4280111406
0.085903868 0.038756825 0.34300002 4279980590
0.087017938 0.038756825 0.34300002 4279783211
0.087875053 0.03864383 0.34200001 4279849004
0.088985875 0.03864383 0.34200001 4279979820
0.089833252 0.038530838 0.34100002 4280111660
0.090940826 0.038530838 0.34100002 4279980842
0.092048392 0.038530838 0.34100002 4279454498
0.09315595 0.038530838 0.34100002 4279717670
0.094263524 0.038530838 0.34100002 4279454498
0.095371097 0.038530838 0.34100002 4279717670
0.096761592 0.03864383 0.34200001 4279059740
0.09815859 0.038756825 0.34300002 4278336531
0.099272653 0.038756825 0.34300002 4278862875
0.10038671 0.038756825 0.34300002 4279191840
0.10090894 0.038530838 0.34100002 4278994461
0.1020165 0.038530838 0.34100002 4279191840
0.10282166 0.038417842 0.34 4278993947
0.10392597 0.038417842 0.34 4279190556
0.1050303 0.038417842 0.34 4279058970
0.10582246 0.03830485 0.33900002 4279058970
0.10692353 0.03830485 0.33900002 4279058970
0.1080246 0.03830485 0.33900002 4279058457
0.10912567 0.03830485 0.33900002 4279190043
0.11022675 0.03830485 0.33900002 4279058457
0.11132782 0.03830485 0.33900002 4278861078
0.1124289 0.03830485 0.33900002 4278729492
0.11319507 0.038191859 0.33800003 4279123480
0.1142929 0.038191859 0.33800003 4278991894
0.11504932 0.038078863 0.33700001 4279057174
0.1161439 0.038078863 0.33700001 4279386139
0.1165427 0.037852872 0.33500001 4279320861
0.11727965 0.03773988 0.33400002 4279320348
0.11836448 0.03773988 0.33400002 4279582750
0.11944931 0.03773988 0.33400002 4279648029
0.12712426 0.038756825 0.34300002 4279709723
0.067355245 0.040103752 0.34500003 4281422392
0.068475805 0.040103752 0.34500003 4281358907
0.069596365 0.040103752 0.34500003 4281161528
0.070716925 0.040103752 0.34500003 4280570676
0.071837485 0.040103752 0.34500003 4280505653
0.072958045 0.040103752 0.34500003 4280242479
0.074078605 0.040103752 0.34500003 4279781928
0.075199164 0.040103752 0.34500003 4279913514
0.076319732 0.040103752 0.34500003 4279650855
0.077440284 0.040103752 0.34500003 4279979561
0.078560852 0.040103752 0.34500003 4279584803
0.080801971 0.040103752 0.34500003 4279119383
0.081685066 0.039987508 0.34400001 4281029176
0.082802385 0.039987508 0.34400001 4280306991
0.085037008 0.039987508 0.34400001 4278593552
0.085903868 0.039871268 0.34300002 4279578391
0.087017938 0.039871268 0.34300002 4279315219
0.088132001 0.039871268 0.34300002 4278658062
0.088985875 0.03975502 0.34200001 4279448861
0.09009669 0.03975502 0.34200001 4279450398
0.090940826 0.03963878 0.34100002 4280371498
0.092048392 0.03963878 0.34100002 4280636208
0.093429133 0.03975502 0.34200001 4280505135
0.094539955 0.03975502 0.34200001 4280242733
0.09565077 0.03975502 0.34200001 4280440112
0.096761592 0.03975502 0.34200001 4280242731
0.09815859 0.039871268 0.34300002 4279914279
0.099272653 0.039871268 0.34300002 4280111660
0.10009404 0.03975502 0.34200001 4279716902
0.10120485 0.03975502 0.34200001 4280045867
0.1020165 0.03963878 0.34100002 4280111658
0.10312407 0.03963878 0.34100002 4279585314
0.10423165 0.03963878 0.34100002 4278993179
0.1050303 0.039522536 0.34 4278928156
0.10613462 0.039522536 0.34 4279257119
0.10723893 0.039522536 0.34 4279519521
0.10834325 0.039522536 0.34 4279519521
0.10944758 0.039522536 0.34 4279256349
0.11055189 0.039522536 0.34 4279190556
0.11165622 0.039522536 0.34 4278795798
0.11276054 0.039522536 0.34 4278993177
0.11352996 0.039406296 0.33900002 4278993177
0.11463103 0.039406296 0.33900002 4278992664
0.11539072 0.039290052 0.33800003 4279255066
0.11648855 0.039290052 0.33800003 4279058457
0.11689059 0.039057568 0.33600003 4278861078
0.11763078 0.038941324 0.33500001 4278795285
0.11836448 0.03882508 0.33400002 4278992664
0.11944931 0.03882508 0.33400002 4278992664
0.12053414 0.03882508 0.33400002 4279187990
0.12489614 0.039871268 0.34300002 4279451162
0.12601019 0.039871268 0.34300002 4279582234
0.12712426 0.039871268 0.34300002 4279647516
0.12823834 0.039871268 0.34300002 4279909918
0.12935241 0.039871268 0.34300002 4280107297
0.13008608 0.03975502 0.34200001 4280172323
0.1311969 0.03975502 0.34200001 4279908383
0.13230772 0.03975502 0.34200001 4279776283
0.13341853 0.03975502 0.34200001 4280893481
0.069596365 0.041224692 0.34500003 4284907883
0.070716925 0.041224692 0.34500003 4282409035
0.071837485 0.041224692 0.34500003 4281356860
0.074078605 0.041224692 0.34500003 4279780645
0.075199164 0.041224692 0.34500003 4280043047
0.076319732 0.041224692 0.34500003 4279846438
0.077440284 0.041224692 0.34500003 4279715367
0.079681411 0.041224692 0.34500003 4279448350
0.083043091 0.041224692 0.34500003 4280241457
0.083919697 0.0411052 0.34400001 4279447582
0.085037008 0.0411052 0.34400001 4279708703
0.086154319 0.0411052 0.34400001 4281419060
0.087271631 0.0411052 0.34400001 4280892714
0.088132001 0.040985707 0.34300002 4280169504
0.089246072 0.040985707 0.34300002 4279972125
0.090360135 0.040985707 0.34300002 4279840541
0.091207512 0.040866215 0.34200001 4279774748
0.092318326 0.040866215 0.34200001 4278920209
0.093429133 0.040866215 0.34200001 4279578137
0.094816387 0.040985707 0.34300002 4279183379
0.095930457 0.040985707 0.34300002 4279249172
0.09815859 0.040985707 0.34300002 4280437032
0.099272653 0.040985707 0.34300002 4280175657
0.10038671 0.040985707 0.34300002 4280176686
0.10150078 0.040985707 0.34300002 4279979820
0.10231567 0.040866215 0.34200001 4279979820
0.10342649 0.040866215 0.34200001 4280111147
0.10453731 0.040866215 0.34200001 4280242479
0.10564812 0.040866215 0.34200001 4280176940
0.10644679 0.040746726 0.34100002 4280242731
0.10755435 0.040746726 0.34100002 4280176938
0.10866191 0.040746726 0.34100002 4280440110
0.10976949 0.040746726 0.34100002 4279584801
0.11087705 0.040746726 0.34100002 4279453215
0.11198463 0.040746726 0.34100002 4279190556
0.1130922 0.040746726 0.34100002 4279125535
0.11386485 0.04062723 0.34 4279388707
0.11496918 0.04062723 0.34 4279454500
0.1160735 0.04062723 0.34 4279256351
0.11683318 0.040507741 0.33900002 4279256349
0.11689059 0.040149264 0.33600003 4279190556
0.11763078 0.040029772 0.33500001 4279058457
0.11871886 0.040029772 0.33500001 4279123478
0.12302563 0.0411052 0.34400001 4279255064
0.12414294 0.0411052 0.34400001 4279057172
0.12489614 0.040985707 0.34300002 4278991379
0.12601019 0.040985707 0.34300002 4279057172
0.12712426 0.040985707 0.34300002 4279254553
0.12823834 0.040985707 0.34300002 4279122197
0.12935241 0.040985707 0.34300002 4279187990
0.13046646 0.040985707 0.34300002 4279319576
0.13158052 0.040985707 0.34300002 4279451164
0.13230772 0.040866215 0.34200001 4279779102
0.13341853 0.040866215 0.34200001 4279647516
0.13452935 0.040866215 0.34200001 4279975457
0.13564017 0.040866215 0.34200001 4280303139
0.13675098 0.040866215 0.34200001 4280302112
0.1378618 0.040866215 0.34200001 4280432928
0.076319732 0.042345632 0.34500003 4285105262
0.077440284 0.042345632 0.34500003 4283986781
0.078560852 0.042345632 0.34500003 4282210372
0.086404771 0.042345632 0.34500003 4279380760
0.087271631 0.042222891 0.34400001 4279183381
0.088388942 0.042222891 0.34400001 4279314197
0.089506261 0.042222891 0.34400001 4279511576
0.090360135 0.04210015 0.34300002 4279379477
0.091474198 0.04210015 0.34300002 4280036123
0.093702324 0.04210015 0.34300002 4279576856
0.095092818 0.042222891 0.34400001 4279050512
0.097327448 0.042222891 0.34400001 4280826923
0.09844476 0.042222891 0.34400001 4279905821
0.099562079 0.042222891 0.34400001 4279380762
0.10067938 0.042222891 0.34400001 4279975207
0.10179669 0.042222891 0.34400001 4280110643
0.10261484 0.04210015 0.34300002 4279188769
0.10372891 0.04210015 0.34300002 4279779102
0.10484298 0.04210015 0.34300002 4280042274
0.10595704 0.04210015 0.34300002 4280700715
0.10707111 0.04210015 0.34300002 4280701229
0.10818516 0.04210015 0.34300002 4280438827
0.10929923 0.04210015 0.34300002 4280373034
0.1104133 0.04210015 0.34300002 4280307756
0.1112022 0.041977406 0.34200001 4280505135
0.11231302 0.041977406 0.34200001 4280111145
0.11342384 0.041977406 0.34200001 4279914279
0.11453465 0.041977406 0.34200001 4280177199
0.11564547 0.041977406 0.34200001 4279585062
0.1164149 0.041854668 0.34100002 4279453728
0.11752246 0.041854668 0.34100002 4279124763
0.11932582 0.04210015 0.34300002 4279256347
0.12079101 0.042222891 0.34400001 4279190554
0.12190833 0.042222891 0.34400001 4279649822
0.12302563 0.042222891 0.34400001 4279715615
0.12414294 0.042222891 0.34400001 4279715615
0.12526026 0.042222891 0.34400001 4279386137
0.12637757 0.042222891 0.34400001 4279320346
0.12749489 0.042222891 0.34400001 4279320346
0.12861221 0.042222891 0.34400001 4279254555
0.12972951 0.042222891 0.34400001 4279189275
0.13046646 0.04210015 0.34300002 4279123482
0.13158052 0.04210015 0.34300002 4278926103
0.13269459 0.04210015 0.34300002 4279123482
0.13380866 0.04210015 0.34300002 4279254553
0.13492273 0.04210015 0.34300002 4279188760
0.13603678 0.04210015 0.34300002 4279254553
0.13715084 0.04210015 0.34300002 4279648029
0.13826491 0.04210015 0.34300002 4279713309
0.13937898 0.04210015 0.34300002 4279975457
0.14049304 0.04210015 0.34300002 4279974944
0.14160711 0.04210015 0.34300002 4280171555
0.080801971 0.043466575 0.34500003 4284708710
0.081922531 0.043466575 0.34500003 4285038186
0.083043091 0.043466575 0.34500003 4284709991
0.084163651 0.043466575 0.34500003 4284052574
0.085284211 0.043466575 0.34500003 4282341956
0.08864589 0.043466575 0.34500003 4280369450
0.089506261 0.043340582 0.34400001 4280303657
0.090623572 0.043340582 0.34400001 4280434473
0.092858203 0.043340582 0.34400001 4279380758
0.093975507 0.043340582 0.34400001 4279117586
0.095369257 0.043466575 0.34500003 4278788623
0.096489817 0.043466575 0.34500003 4278920209
0.097610384 0.043466575 0.34500003 4279511576
0.098730944 0.043466575 0.34500003 4279642649
0.099851504 0.043466575 0.34500003 4280171301
0.10097206 0.043466575 0.34500003 4280437293
0.10179669 0.043340582 0.34400001 4280700979
0.10291401 0.043340582 0.34400001 4279779363
0.10403132 0.043340582 0.34400001 4279316762
0.10514864 0.043340582 0.34400001 4280039715
0.10626595 0.043340582 0.34400001 4281422390
0.10738327 0.043340582 0.34400001 4280831020
0.10850057 0.043340582 0.34400001 4280699434
0.10961788 0.043340582 0.34400001 4279712539
0.11073519 0.043340582 0.34400001 4279909918
0.11185251 0.043340582 0.34400001 4279844641
0.11296982 0.043340582 0.34400001 4280437032
0.11375549 0.043214593 0.34300002 4280898094
0.11486955 0.043214593 0.34300002 4280569643
0.11598361 0.043214593 0.34300002 4280636206
0.11709768 0.043214593 0.34300002 4280373547
0.1178671 0.043088604 0.34200001 4280505133
0.1196737 0.043340582 0.34400001 4280307754
0.12079101 0.043340582 0.34400001 4280307754
0.12190833 0.043340582 0.34400001 4280636719
0.12302563 0.043340582 0.34400001 4280044582
0.12450383 0.043466575 0.34500003 4279452445
0.12562439 0.043466575 0.34500003 4279584799
0.12674496 0.043466575 0.34500003 4278992662
0.12786552 0.043466575 0.34500003 4279519008
0.12898608 0.043466575 0.34500003 4279518756
0.12972951 0.043340582 0.34400001 4279518756
0.13084681 0.043340582 0.34400001 4279519010
0.13196413 0.043340582 0.34400001 4279190045
0.13269459 0.043214593 0.34300002 4279190045
0.13380866 0.043214593 0.34300002 4278992664
0.13492273 0.043214593 0.34300002 4278729490
0.13603678 0.043214593 0.34300002 4279123478
0.13715084 0.043214593 0.34300002 4279188760
0.13826491 0.043214593 0.34300002 4279188760
0.13937898 0.043214593 0.34300002 4279188760
0.14049304 0.043214593 0.34300002 4279122197
0.14160711 0.043214593 0.34300002 4279253271
0.14272118 0.043214593 0.34300002 4279779102
0.085284211 0.044587512 0.34500003 4284445538
0.086404771 0.044587512 0.34500003 4284445536
0.08752533 0.044587512 0.34500003 4284511329
0.08864589 0.044587512 0.34500003 4283459156
0.089766458 0.044587512 0.34500003 4283855197
0.090887018 0.044587512 0.34500003 4282013509
0.091740884 0.04445827 0.34400001 4280172075
0.092858203 0.04445827 0.34400001 4280172073
0.094248697 0.044587512 0.34500003 4280303657
0.096489817 0.044587512 0.34500003 4280369963
0.097610384 0.044587512 0.34500003 4280172073
0.098730944 0.044587512 0.34500003 4280172586
0.099851504 0.044587512 0.34500003 4279712805
0.10097206 0.044587512 0.34500003 4279055388
0.10209262 0.044587512 0.34500003 4280041770
0.10321318 0.044587512 0.34500003 4279579166
0.10433374 0.044587512 0.34500003 4279774748
0.1054543 0.044587512 0.34500003 4280366885
0.10657487 0.044587512 0.34500003 4280171301
0.10769543 0.044587512 0.34500003 4279974946
0.10881598 0.044587512 0.34500003 4280896559
0.10993654 0.044587512 0.34500003 4280896559
0.1110571 0.044587512 0.34500003 4279974946
0.11217767 0.044587512 0.34500003 4281093425
0.11296982 0.04445827 0.34400001 4281027116
0.11408714 0.04445827 0.34400001 4281027116
0.11520445 0.04445827 0.34400001 4281356851
0.11632176 0.04445827 0.34400001 4280765227
0.11709768 0.044329032 0.34300002 4279252758
0.11821175 0.044329032 0.34300002 4279779102
0.1196737 0.04445827 0.34400001 4280765225
0.12079101 0.04445827 0.34400001 4281029167
0.12190833 0.04445827 0.34400001 4280832301
0.12338327 0.044587512 0.34500003 4280701231
0.12450383 0.044587512 0.34500003 4280636208
0.12562439 0.044587512 0.34500003 4280373036
0.12674496 0.044587512 0.34500003 4280241961
0.12786552 0.044587512 0.34500003 4280110375
0.12898608 0.044587512 0.34500003 4280044582
0.13010664 0.044587512 0.34500003 4279781410
0.1312272 0.044587512 0.34500003 4279584033
0.13196413 0.04445827 0.34400001 4279781412
0.13308145 0.04445827 0.34400001 4279519010
0.13419876 0.04445827 0.34400001 4279519010
0.13531607 0.04445827 0.34400001 4279650596
0.13603678 0.044329032 0.34300002 4279519010
0.13715084 0.044329032 0.34300002 4279782180
0.13826491 0.044329032 0.34300002 4279453215
0.13937898 0.044329032 0.34300002 4279124250
0.14049304 0.044329032 0.34300002 4279189273
0.14160711 0.044329032 0.34300002 4279057174
0.14272118 0.044329032 0.34300002 4279188760
0.14383525 0.044329032 0.34300002 4279778330
0.095645688 0.045840941 0.34600002 4279577636
0.097893305 0.045840941 0.34600002 4279711272
0.099017113 0.045840941 0.34600002 4279908651
0.10014093 0.045840941 0.34600002 4279909416
0.10126472 0.045840941 0.34600002 4279844393
0.10238854 0.045840941 0.34600002 4280107563
0.10351235 0.045840941 0.34600002 4279844391
0.10433374 0.045708455 0.34500003 4280238379
0.1054543 0.045708455 0.34500003 4280172584
0.10657487 0.045708455 0.34500003 4279844389
0.10769543 0.045708455 0.34500003 4279713057
0.10881598 0.045708455 0.34500003 4279514906
0.10993654 0.045708455 0.34500003 4280830766
0.1110571 0.045708455 0.34500003 4281620282
0.11217767 0.045708455 0.34500003 4280304422
0.11329823 0.045708455 0.34500003 4280633128
0.11441879 0.045708455 0.34500003 4281093679
0.11520445 0.045575965 0.34400001 4280500772
0.11632176 0.045575965 0.34400001 4281291058
0.11743907 0.045575965 0.34400001 4279844125
0.11855639 0.045575965 0.34400001 4281620536
0.1196737 0.045575965 0.34400001 4281620021
0.12079101 0.045575965 0.34400001 4281356851
0.12226272 0.045708455 0.34500003 4281620023
0.12338327 0.045708455 0.34500003 4281028399
0.12450383 0.045708455 0.34500003 4280567848
0.12562439 0.045708455 0.34500003 4279712539
0.12674496 0.045708455 0.34500003 4279779102
0.12786552 0.045708455 0.34500003 4280437032
0.12898608 0.045708455 0.34500003 4280832303
0.13010664 0.045708455 0.34500003 4280767024
0.1312272 0.045708455 0.34500003 4280767024
0.13234776 0.045708455 0.34500003 4280503850
0.13308145 0.045575965 0.34400001 4280438059
0.13419876 0.045575965 0.34400001 4280175657
0.13531607 0.045575965 0.34400001 4280110377
0.13643339 0.045575965 0.34400001 4279453217
0.1375507 0.045575965 0.34400001 4279584033
0.13866802 0.045575965 0.34400001 4279649826
0.13978532 0.045575965 0.34400001 4279519010
0.14090264 0.045575965 0.34400001 4279519010
0.14201996 0.045575965 0.34400001 4279320859
0.14272118 0.045443479 0.34300002 4279386139
0.14383525 0.045443479 0.34300002 4279451162
0.10238854 0.04696513 0.34600002 4280565044
0.10351235 0.04696513 0.34600002 4280565044
0.10463616 0.04696513 0.34600002 4280105260
0.1054543 0.046829391 0.34500003 4280171305
0.10657487 0.046829391 0.34500003 4279974692
0.10769543 0.046829391 0.34500003 4279843106
0.10913139 0.04696513 0.34600002 4280303657
0.1102552 0.04696513 0.34600002 4280632876
0.11137901 0.04696513 0.34600002 4280566311
0.11217767 0.046829391 0.34500003 4281487667
0.11329823 0.046829391 0.34500003 4281092395
0.11441879 0.046829391 0.34500003 4280828710
0.11553934 0.046829391 0.34500003 4280434465
0.11665991 0.046829391 0.34500003 4280632358
0.11743907 0.046693653 0.34400001 4281421620
0.11855639 0.046693653 0.34400001 4281421622
0.1196737 0.046693653 0.34400001 4280632104
0.12079101 0.046693653 0.34400001 4281355827
0.12226272 0.046829391 0.34500003 4280039967
0.12338327 0.046829391 0.34500003 4281356081
0.12450383 0.046829391 0.34500003 4281027114
0.12562439 0.046829391 0.34500003 4281487665
0.12674496 0.046829391 0.34500003 4281290288
0.12823614 0.04696513 0.34600002 4281356081
0.12935995 0.04696513 0.34600002 4281159731
0.13010664 0.046829391 0.34500003 4281357364
0.1312272 0.046829391 0.34500003 4281750839
0.13234776 0.046829391 0.34500003 4280962093
0.13346832 0.046829391 0.34500003 4279317529
0.13419876 0.046693653 0.34400001 4281094708
0.13531607 0.046693653 0.34400001 4281161266
0.13643339 0.046693653 0.34400001 4281029680
0.1375507 0.046693653 0.34400001 4281095473
0.13866802 0.046693653 0.34400001 4280832301
0.13978532 0.046693653 0.34400001 4280569643
0.14090264 0.046693653 0.34400001 4280307241
0.14201996 0.046693653 0.34400001 4280503850
0.14313726 0.046693653 0.34400001 4279977506
0.14425458 0.046693653 0.34400001 4279976481
0.10238854 0.048089322 0.34600002 4281025086
0.10351235 0.048089322 0.34600002 4280827707
0.10463616 0.048089322 0.34600002 4280894013
0.10575996 0.048089322 0.34600002 4280630839
0.10657487 0.047950335 0.34500003 4280892977
0.10769543 0.047950335 0.34500003 4281287735
0.10913139 0.048089322 0.34600002 4280235819
0.1102552 0.048089322 0.34600002 4280498991
0.11137901 0.048089322 0.34600002 4284773985
0.11250281 0.048089322 0.34600002 4285234536
0.11329823 0.047950335 0.34500003 4284643169
0.11441879 0.047950335 0.34500003 4284643682
0.11553934 0.047950335 0.34500003 4282604097
0.11665991 0.047950335 0.34500003 4282998855
0.11743907 0.047811348 0.34400001 4282144064
0.11855639 0.047811348 0.34400001 4282342210
0.1196737 0.047811348 0.34400001 4282079038
0.12079101 0.047811348 0.34400001 4281420595
0.12226272 0.047950335 0.34500003 4280828458
0.12338327 0.047950335 0.34500003 4281157421
0.12450383 0.047950335 0.34500003 4281946937
0.12562439 0.047950335 0.34500003 4281749558
0.12674496 0.047950335 0.34500003 4281552692
0.12823614 0.048089322 0.34600002 4281092655
0.12935995 0.048089322 0.34600002 4282079550
0.13048376 0.048089322 0.34600002 4281620021
0.1312272 0.047950335 0.34500003 4281751609
0.13234776 0.047950335 0.34500003 4279907354
0.13346832 0.047950335 0.34500003 4281158188
0.13458888 0.047950335 0.34500003 4281554230
0.13531607 0.047811348 0.34400001 4281160755
0.13643339 0.047811348 0.34400001 4281160501
0.1375507 0.047811348 0.34400001 4281687099
0.13866802 0.047811348 0.34400001 4281358134
0.13978532 0.047811348 0.34400001 4281358130
0.14090264 0.047811348 0.34400001 4281489716
0.14201996 0.047811348 0.34400001 4281488946
0.14313726 0.047811348 0.34400001 4282146876
0.14425458 0.047811348 0.34400001 4282670660
0.1196737 0.048929039 0.34400001 4285168489
0.12079101 0.048929039 0.34400001 4285168743
0.12226272 0.049071278 0.34500003 4284970848
0.12338327 0.049071278 0.34500003 4284905309
0.12450383 0.049071278 0.34500003 4283721549
0.12562439 0.049071278 0.34500003 4283393100
0.12674496 0.049071278 0.34500003 4281814068
0.12823614 0.049213514 0.34600002 4282275132
0.12935995 0.049213514 0.34600002 4281682736
0.13048376 0.049213514 0.34600002 4281091110
0.13160756 0.049213514 0.34600002 4281617456
0.13273136 0.049213514 0.34600002 4282209593
0.13385518 0.049213514 0.34600002 4281750839
0.13497899 0.049213514 0.34600002 4281685816
0.1361028 0.049213514 0.34600002 4281817402
0.13643339 0.048929039 0.34400001 4281554230
0.1375507 0.048929039 0.34400001 4281817402
0.13866802 0.048929039 0.34400001 4281685816
0.13978532 0.048929039 0.34400001 4281883191
0.14090264 0.048929039 0.34400001 4282277949
0.14201996 0.048929039 0.34400001 4283131465
0.14313726 0.048929039 0.34400001 4284578141
0.14425458 0.048929039 0.34400001 4285891952
0.10191154 0.040296722 0.34308374 4294967295
0.10191154 0.040296722 0.34308374 4294901760
0.10199112 0.039815504 0.34297377 4294901760
0.1020707 0.039334286 0.34286377 4294901760
0.10215028 0.038853064 0.3427538 4294901760
0.10222986 0.038371846 0.34264383 4294901760
0.10230944 0.037890628 0.34253383 4294901760
0.10238902 0.03740941 0.34242386 4294901760
0.10246861 0.036928192 0.34231389 4294901760
0.10254819 0.036446974 0.34220392 4294901760
0.10262777 0.035965752 0.34209391 4294901760
0.10270735 0.035484534 0.34198394 4294901760
0.10278693 0.035003316 0.34187397 4294901760
0.10286651 0.034522098 0.34176397 4294901760
0.10294609 0.034040879 0.341654 4294901760
0.10302567 0.033559658 0.34154403 4294901760
0.10310525 0.03307844 0.34143403 4294901760
0.10318483 0.032597221 0.34132406 4294901760
0.10326441 0.032116003 0.34121409 4294901760
0.10334399 0.031634785 0.34110412 4294901760
0.10342357 0.031153565 0.34099412 4294901760
0.10350315 0.030672345 0.34088415 4294901760
0.10358273 0.030191127 0.34077418 4294901760
0.10366231 0.029709909 0.34066418 4294901760
0.10374189 0.029228691 0.34055421 4294901760
0.10382147 0.028747473 0.34044424 4294901760
0.10390105 0.028266253 0.34033424 4294901760
0.10398063 0.027785035 0.34022427 4294901760
0.10406021 0.027303815 0.3401143 4294901760
0.10413979 0.026822597 0.34000432 4294901760
0.10421937 0.026341379 0.33989432 4294901760
0.10429895 0.025860159 0.33978435 4294901760
0.10437853 0.025378941 0.33967438 4294901760
0.10445812 0.024897721 0.33956438 4294901760
0.1045377 0.024416503 0.33945441 4294901760
0.10461728 0.023935284 0.33934444 4294901760
0.10469685 0.023454066 0.33923447 4294901760
0.10477643 0.022972846 0.33912447 4294901760
0.10485601 0.022491628 0.3390145 4294901760
0.10493559 0.022010408 0.33890453 4294901760
0.10501517 0.02152919 0.33879453 4294901760
0.10509475 0.02104797 0.33868456 4294901760
0.10517433 0.020566752 0.33857459 4294901760
0.10525391 0.020085534 0.33846459 4294901760
0.10533349 0.019604314 0.33835462 4294901760
0.10541308 0.019123096 0.33824465 4294901760
0.10549266 0.018641878 0.33813465 4294901760
0.10557224 0.018160658 0.33802468 4294901760
0.10565182 0.01767944 0.33791471 4294901760
0.1057314 0.017198222 0.33780473 4294901760
0.10581098 0.016717002 0.33769473 4294901760
0.10589056 0.016235784 0.33758476 4294901760
0.10597014 0.015754566 0.33747479 4294901760
0.10604972 0.015273347 0.33736479 4294901760
0.1061293 0.014792129 0.33725482 4294901760
0.10620888 0.014310908 0.33714485 4294901760
0.10628846 0.013829689 0.33703488 4294901760
0.10636804 0.013348471 0.33692488 4294901760
0.10644762 0.012867253 0.33681491 4294901760
0.1065272 0.012386035 0.33670494 4294901760
0.10660678 0.011904815 0.33659494 4294901760
0.10668636 0.011423595 0.33648497 4294901760
0.10676594 0.010942377 0.336375 4294901760
0.10684552 0.010461159 0.336265 4294901760
0.1069251 0.0099799391 0.33615503 4294901760
0.10700468 0.009498721 0.33604506 4294901760
0.10708426 0.0090175048 0.33593509 4294901760
0.10716384 0.0085362829 0.33582509 4294901760
0.10724342 0.0080550648 0.33571512 4294901760
0.107323 0.0075738467 0.33560514 4294901760
0.10740258 0.0070926286 0.33549514 4294901760
0.10748217 0.0066114105 0.33538517 4294901760
0.10756174 0.0061301887 0.3352752 4294901760
0.10764132 0.0056489706 0.3351652 4294901760
0.1077209 0.0051677525 0.33505523 4294901760
0.10780048 0.0046865344 0.33494526 4294901760
0.10788006 0.0042053126 0.33483529 4294901760
0.10795964 0.0037240945 0.33472529 4294901760
0.10803922 0.0032428764 0.33461532 4294901760
0.1081188 0.0027616583 0.33450535 4294901760
0.10819838 0.0022804402 0.33439535 4294901760
0.10827796 0.0017992184 0.33428538 4294901760
0.10835755 0.0013180003 0.33417541 4294901760
0.10843713 0.00083678216 0.33406541 4294901760
0.10851671 0.00035556406 0.33395544 4294901760
0.10859629 -0.00012565404 0.33384547 4294901760
0.10867587 -0.00060687587 0.33373547 4294901760
0.10875545 -0.001088094 0.3336255 4294901760
0.10883503 -0.0015693121 0.33351552 4294901760
0.10891461 -0.0020505302 0.33340555 4294901760
0.10899419 -0.0025317483 0.33329555 4294901760
0.10907377 -0.0030129664 0.33318558 4294901760
0.10915335 -0.0034941882 0.33307561 4294901760
0.10923292 -0.0039754063 0.33296561 4294901760
0.1093125 -0.0044566244 0.33285564 4294901760
0.10939209 -0.0049378425 0.33274567 4294901760
0.10947167 -0.0054190606 0.3326357 4294901760
0.10955125 -0.0059002787 0.3325257 4294901760
0.10963083 -0.0063815005 0.33241573 4294901760
0.10971041 -0.0068627186 0.33230576 4294901760
0.10978999 -0.0073439367 0.33219576 4294901760
0.10986957 -0.0078251548 0.33208579 4294901760
0.10191154 0.040296722 0.34308374 4278255360
0.10240476 0.040378787 0.34308153 4278255360
0.10289797 0.040460851 0.34307936 4278255360
0.10339119 0.040542919 0.34307715 4278255360
0.1038844 0.040624984 0.34307498 4278255360
0.10437762 0.040707048 0.34307277 4278255360
0.10487083 0.040789112 0.34307057 4278255360
0.10536405 0.040871177 0.34306839 4278255360
0.10585726 0.040953245 0.34306619 4278255360
0.10635047 0.041035309 0.34306401 4278255360
0.10684369 0.041117374 0.3430618 4278255360
0.1073369 0.041199438 0.34305963 4278255360
0.10783011 0.041281503 0.34305742 4278255360
0.10832334 0.041363571 0.34305522 4278255360
0.10881655 0.041445635 0.34305304 4278255360
0.10930976 0.0415277 0.34305084 4278255360
0.10980298 0.041609764 0.34304866 4278255360
0.11029619 0.041691829 0.34304646 4278255360
0.1107894 0.041773897 0.34304425 4278255360
0.11128262 0.041855961 0.34304208 4278255360
0.11177583 0.041938026 0.34303987 4278255360
0.11226904 0.04202009 0.34303769 4278255360
0.11276226 0.042102154 0.34303549 4278255360
0.11325548 0.042184222 0.34303328 4278255360
0.11374869 0.042266287 0.34303111 4278255360
0.11424191 0.042348351 0.3430289 4278255360
0.11473512 0.042430416 0.34302673 4278255360
0.11522833 0.04251248 0.34302452 4278255360
0.11572155 0.042594548 0.34302232 4278255360
0.11621476 0.042676613 0.34302014 4278255360
0.11670798 0.042758677 0.34301794 4278255360
0.11720119 0.042840742 0.34301576 4278255360
0.11769441 0.042922806 0.34301355 4278255360
0.11818762 0.043004874 0.34301138 4278255360
0.11868083 0.043086939 0.34300917 4278255360
0.11917405 0.043169003 0.34300697 4278255360
0.11966726 0.043251067 0.34300479 4278255360
0.12016048 0.043333132 0.34300259 4278255360
0.12065369 0.0434152 0.34300041 4278255360
0.1211469 0.043497264 0.34299821 4278255360
0.12164012 0.043579329 0.342996 4278255360
0.12213334 0.043661393 0.34299383 4278255360
0.12262655 0.043743458 0.34299162 4278255360
0.12311976 0.043825526 0.34298944 4278255360
0.12361298 0.04390759 0.34298724 4278255360
0.12410619 0.043989655 0.34298503 4278255360
0.12459941 0.044071719 0.34298286 4278255360
0.12509263 0.044153783 0.34298065 4278255360
0.12558584 0.044235852 0.34297848 4278255360
0.12607905 0.044317916 0.34297627 4278255360
0.12657227 0.04439998 0.34297407 4278255360
0.12706548 0.044482045 0.34297189 4278255360
0.12755869 0.044564109 0.34296969 4278255360
0.12805191 0.044646174 0.34296751 4278255360
0.12854512 0.044728242 0.3429653 4278255360
0.12903833 0.044810306 0.34296313 4278255360
0.12953155 0.044892371 0.34296092 4278255360
0.13002476 0.044974435 0.34295872 4278255360
0.13051797 0.045056503 0.34295654 4278255360
0.13101119 0.045138568 0.34295434 4278255360
0.13150442 0.045220632 0.34295216 4278255360
0.13199763 0.045302697 0.34294996 4278255360
0.13249084 0.045384761 0.34294775 4278255360
0.13298406 0.045466829 0.34294558 4278255360
0.13347727 0.045548894 0.34294337 4278255360
0.13397048 0.045630958 0.34294119 4278255360
0.1344637 0.045713022 0.34293899 4278255360
0.13495691 0.045795087 0.34293678 4278255360
0.13545012 0.045877155 0.34293461 4278255360
0.13594334 0.045959219 0.3429324 4278255360
0.13643655 0.046041284 0.34293023 4278255360
0.13692977 0.046123348 0.34292802 4278255360
0.13742298 0.046205416 0.34292585 4278255360
0.13791621 0.046287481 0.34292364 4278255360
0.13840941 0.046369545 0.34292144 4278255360
0.13890263 0.04645161 0.34291926 4278255360
0.13939583 0.046533674 0.34291705 4278255360
0.13988906 0.046615738 0.34291488 4278255360
0.14038226 0.046697803 0.34291267 4278255360
0.14087549 0.046779871 0.34291047 4278255360
0.1413687 0.046861935 0.34290829 4278255360
0.14186192 0.046944 0.34290609 4278255360
0.14235513 0.047026064 0.34290391 4278255360
0.14284834 0.047108132 0.34290171 4278255360
0.14334156 0.047190197 0.3428995 4278255360
0.14383477 0.047272261 0.34289733 4278255360
0.14432798 0.047354326 0.34289512 4278255360
0.1448212 0.04743639 0.34289294 4278255360
0.14531441 0.047518458 0.34289074 4278255360
0.14580762 0.047600523 0.34288853 4278255360
0.14630084 0.047682587 0.34288636 4278255360
0.14679405 0.047764651 0.34288415 4278255360
0.14728728 0.047846716 0.34288198 4278255360
0.14778048 0.047928784 0.34287977 4278255360
0.14827371 0.048010848 0.3428776 4278255360
0.14876692 0.048092913 0.34287539 4278255360
0.14926013 0.048174977 0.34287319 4278255360
0.14975335 0.048257045 0.34287101 4278255360
0.15024656 0.04833911 0.3428688 4278255360
0.15073977 0.048421174 0.34286663 4278255360
0.15123299 0.048503239 0.34286442 4278255360
0.10191154 0.040296722 0.34308374 4278190335
0.10192867 0.040188082 0.34357148 4278190335
0.1019458 0.040079441 0.34405926 4278190335
0.10196293 0.0399708 0.344547 4278190335
0.10198006 0.03986216 0.34503475 4278190335
0.10199719 0.039753519 0.34552252 4278190335
0.10201432 0.039644878 0.34601027 4278190335
0.10203145 0.039536238 0.34649801 4278190335
0.10204858 0.039427597 0.34698576 4278190335
0.1020657 0.039318956 0.34747353 4278190335
0.10208283 0.039210316 0.34796128 4278190335
0.10209996 0.039101675 0.34844902 4278190335
0.10211709 0.038993038 0.3489368 4278190335
0.10213422 0.038884398 0.34942454 4278190335
0.10215135 0.038775757 0.34991229 4278190335
0.10216848 0.038667116 0.35040006 4278190335
0.10218561 0.038558476 0.35088781 4278190335
0.10220274 0.038449835 0.35137555 4278190335
0.10221986 0.038341194 0.35186329 4278190335
0.10223699 0.038232554 0.35235107 4278190335
0.10225412 0.038123913 0.35283881 4278190335
0.10227125 0.038015272 0.35332656 4278190335
0.10228838 0.037906632 0.35381433 4278190335
0.10230551 0.037797991 0.35430208 4278190335
0.10232264 0.037689351 0.35478982 4278190335
0.10233976 0.03758071 0.3552776 4278190335
0.10235689 0.037472069 0.35576534 4278190335
0.10237402 0.037363429 0.35625309 4278190335
0.10239115 0.037254788 0.35674083 4278190335
0.10240828 0.037146147 0.35722861 4278190335
0.1024254 0.037037507 0.35771635 4278190335
0.10244253 0.036928866 0.3582041 4278190335
0.10245966 0.036820225 0.35869187 4278190335
0.10247679 0.036711585 0.35917962 4278190335
0.10249392 0.036602944 0.35966736 4278190335
0.10251105 0.036494303 0.36015511 4278190335
0.10252818 0.036385663 0.36064288 4278190335
0.10254531 0.036277026 0.36113063 4278190335
0.10256243 0.036168382 0.36161837 4278190335
0.10257956 0.036059745 0.36210614 4278190335
0.10259669 0.035951104 0.36259389 4278190335
0.10261382 0.035842463 0.36308163 4278190335
0.10263095 0.035733823 0.36356941 4278190335
0.10264808 0.035625182 0.36405715 4278190335
0.10266521 0.035516541 0.3645449 4278190335
0.10268234 0.035407901 0.36503267 4278190335
0.10269947 0.03529926 0.36552042 4278190335
0.10271659 0.03519062 0.36600816 4278190335
0.10273372 0.035081979 0.36649591 4278190335
0.10275085 0.034973338 0.36698368 4278190335
0.10276798 0.034864698 0.36747143 4278190335
0.10278511 0.034756057 0.36795917 4278190335
0.10280224 0.034647416 0.36844695 4278190335
0.10281937 0.034538776 0.36893469 4278190335
0.1028365 0.034430135 0.36942244 4278190335
0.10285363 0.034321494 0.36991018 4278190335
0.10287075 0.034212854 0.37039796 4278190335
0.10288788 0.034104213 0.3708857 4278190335
0.10290501 0.033995572 0.37137344 4278190335
0.10292214 0.033886932 0.37186122 4278190335
0.10293927 0.033778291 0.37234896 4278190335
0.1029564 0.033669651 0.37283671 4278190335
0.10297353 0.033561014 0.37332448 4278190335
0.10299066 0.033452369 0.37381223 4278190335
0.10300779 0.033343732 0.37429997 4278190335
0.10302491 0.033235092 0.37478775 4278190335
0.10304204 0.033126451 0.37527549 4278190335
0.10305917 0.03301781 0.37576324 4278190335
0.1030763 0.03290917 0.37625098 4278190335
0.10309343 0.032800529 0.37673876 4278190335
0.10311056 0.032691889 0.3772265 4278190335
0.10312769 0.032583248 0.37771425 4278190335
0.10314482 0.032474607 0.37820202 4278190335
0.10316195 0.032365967 0.37868977 4278190335
0.10317907 0.032257326 0.37917751 4278190335
0.1031962 0.032148685 0.37966526 4278190335
0.10321333 0.032040045 0.38015303 4278190335
0.10323045 0.031931404 0.38064077 4278190335
0.10324758 0.031822763 0.38112852 4278190335
0.10326471 0.031714123 0.38161629 4278190335
0.10328184 0.031605482 0.38210404 4278190335
0.10329897 0.031496841 0.38259178 4278190335
0.1033161 0.031388201 0.38307956 4278190335
0.10333323 0.03127956 0.3835673 4278190335
0.10335036 0.031170921 0.38405505 4278190335
0.10336749 0.031062279 0.38454282 4278190335
0.10338461 0.03095364 0.38503057 4278190335
0.10340174 0.030844999 0.38551831 4278190335
0.10341887 0.030736359 0.38600606 4278190335
0.103436 0.030627718 0.38649383 4278190335
0.10345313 0.030519079 0.38698158 4278190335
0.10347026 0.030410437 0.38746932 4278190335
0.10348739 0.030301798 0.3879571 4278190335
0.10350452 0.030193157 0.38844484 4278190335
0.10352165 0.030084517 0.38893259 4278190335
0.10353877 0.029975876 0.38942033 4278190335
0.1035559 0.029867236 0.38990811 4278190335
0.10357303 0.029758595 0.39039585 4278190335
0.10359016 0.029649954 0.39088359 4278190335
0.10360729 0.029541314 0.39137137 4278190335
0.10362442 0.029432673 0.39185911 4278190335
0.10191154 0.040296722 0.34308374 4294967295
0.10180877 0.040948566 0.34015721 4294967295
0.101706 0.041600406 0.33723068 4294967295
0.10160322 0.04225225 0.33430418 4294967295
0.10150045 0.042904094 0.33137766 4294967295
0.10139769 0.043555938 0.32845113 4294967295
0.10129491 0.044207782 0.3255246 4294967295
0.10119214 0.044859622 0.32259807 4294967295
0.10108937 0.045511466 0.31967154 4294967295
0.10098659 0.046163309 0.31674504 4294967295
0.10088382 0.046815153 0.31381851 4294967295
0.10078105 0.047466993 0.31089199 4294967295
0.10067827 0.048118837 0.30796546 4294967295
0.10057551 0.048770681 0.30503893 4294967295
0.10047273 0.049422525 0.3021124 4294967295
0.10036996 0.050074369 0.29918587 4294967295
0.10026719 0.050726209 0.29625937 4294967295
0.10016441 0.051378053 0.29333284 4294967295
0.10006164 0.052029897 0.29040632 4294967295
0.099958867 0.052681737 0.28747979 4294967295
0.099856094 0.05333358 0.28455326 4294967295
0.099753328 0.053985424 0.28162676 4294967295
0.099650554 0.054637268 0.27870023 4294967295
0.099547781 0.055289112 0.2757737 4294967295
0.099445008 0.055940952 0.27284718 4294967295
0.099342234 0.056592796 0.26992065 4294967295
0.099239461 0.057244636 0.26699412 4294967295
0.099136688 0.05789648 0.26406759 4294967295
0.099033915 0.058548324 0.26114109 4294967295
0.098931149 0.059200168 0.25821456 4294967295
0.098828375 0.059852012 0.25528803 4294967295
0.098725602 0.060503855 0.25236151 4294967295
0.098622829 0.061155695 0.24943499 4294967295
0.098520055 0.061807543 0.24650846 4294967295
0.098417282 0.062459383 0.24358195 4294967295
0.098314509 0.063111223 0.24065542 4294967295
0.098211735 0.063763067 0.23772889 4294967295
0.098108962 0.064414911 0.23480237 4294967295
0.098006196 0.065066755 0.23187585 4294967295
0.097903423 0.065718599 0.22894934 4294967295
0.09780065 0.066370443 0.22602281 4294967295
0.097697876 0.067022279 0.22309628 4294967295
0.097595103 0.067674123 0.22016975 4294967295
0.09749233 0.068325967 0.21724322 4294967295
0.097389556 0.06897781 0.21431671 4294967295
0.097286783 0.069629654 0.2113902 4294967295
0.097184017 0.070281498 0.20846365 4294967295
0.097081244 0.070933342 0.20553714 4294967295
0.096978471 0.071585178 0.20261063 4294967295
0.096875697 0.07223703 0.19968408 4294967295
0.096772924 0.072888866 0.19675757 4294967295
0.096670151 0.073540717 0.19383106 4294967295
0.096567377 0.074192554 0.19090453 4294967295
0.096464604 0.074844398 0.18797801 4294967295
0.096361831 0.075496241 0.18505147 4294967295
0.096259065 0.076148085 0.18212494 4294967295
0.096156292 0.076799929 0.17919843 4294967295
0.096053518 0.077451766 0.17627192 4294967295
0.095950745 0.078103617 0.17334539 4294967295
0.095847972 0.078755453 0.17041887 4294967295
0.095745198 0.079407305 0.16749233 4294967295
0.095642425 0.080059141 0.1645658 4294967295
0.095539652 0.080710985 0.16163929 4294967295
0.095436886 0.081362829 0.15871277 4294967295
0.095334113 0.082014665 0.15578625 4294967295
0.095231339 0.082666516 0.15285973 4294967295
0.095128566 0.08331836 0.14993319 4294967295
0.095025793 0.083970204 0.14700666 4294967295
0.094923019 0.08462204 0.14408015 4294967295
0.094820246 0.085273884 0.14115363 4294967295
0.094717473 0.085925728 0.13822711 4294967295
0.094614707 0.086577572 0.13530059 4294967295
0.094511934 0.087229416 0.13237405 4294967295
0.09440916 0.08788126 0.12944752 4294967295
0.094306387 0.088533103 0.12652101 4294967295
