# .PCD v0.7 - Point Cloud Data file format
VERSION 0.7
FIELDS x y z rgb
SIZE 4 4 4 4
TYPE F F F U
COUNT 1 1 1 1
WIDTH 1019
HEIGHT 1
VIEWPOINT 0 0 0 1 0 0 0
POINTS 1019
DATA ascii
-0.0066736727 -0.012391439 0.528 4285961089
-0.0049587279 -0.012391439 0.528 4286814086
-0.003243783 -0.012391439 0.528 4286020202
-0.0015259427 -0.01236797 0.52700001 4285090878
-0.013687242 -0.010797231 0.53400004 4285763196
-0.011930427 -0.010777012 0.53300005 4286420611
-0.01016097 -0.010736573 0.53100002 4287339146
-0.0084203929 -0.010716353 0.53000003 4285885539
-0.0066863131 -0.010696134 0.52900004 4283711030
-0.0049587279 -0.010675914 0.528 4285416763
-0.0032376396 -0.010655694 0.52700001 4285216558
-0.0015259427 -0.010655694 0.52700001 4285215013
0.00018575421 -0.010655694 0.52700001 4284688156
0.0018938506 -0.010635475 0.52600002 4284492833
0.0036022994 -0.010635475 0.52600002 4284362530
-0.025828272 -0.0090622101 0.53400004 4286026368
-0.02409384 -0.0090622101 0.53400004 4286157954
-0.022359408 -0.0090622101 0.53400004 4286019175
-0.020663599 -0.0090791807 0.53500003 4284766796
-0.018925916 -0.0090791807 0.53500003 4283909173
-0.017188234 -0.0090791807 0.53500003 4284106038
-0.015421676 -0.0090622101 0.53400004 4284103987
-0.013687242 -0.0090622101 0.53400004 4283642153
-0.011930427 -0.0090452395 0.53300005 4284034862
-0.01016097 -0.0090112984 0.53100002 4284363827
-0.0084203929 -0.0089943279 0.53000003 4284495413
-0.0066863131 -0.0089773582 0.52900004 4285415230
-0.0049587279 -0.0089603867 0.528 4285083427
-0.0032376396 -0.0089434162 0.52700001 4288175698
-0.0015259427 -0.0089434162 0.52700001 4284358421
0.00018540173 -0.0089264465 0.52600002 4284752664
0.0018938506 -0.0089264465 0.52600002 4284359704
0.0036022994 -0.0089264465 0.52600002 4283835157
0.0053107482 -0.0089264465 0.52600002 4283182368
-0.027562706 -0.0073271897 0.53400004 4286026368
-0.025828272 -0.0073271897 0.53400004 4286943357
-0.02409384 -0.0073271897 0.53400004 4283842614
-0.022359408 -0.0073271897 0.53400004 4285282867
-0.020624975 -0.0073271897 0.53400004 4285150765
-0.018925916 -0.0073409108 0.53500003 4285546804
-0.017188234 -0.0073409108 0.53500003 4284099360
-0.015421676 -0.0073271897 0.53400004 4283049502
-0.013661611 -0.0073134685 0.53300005 4285487701
-0.011908042 -0.0072997469 0.53200001 4287008896
-0.01016097 -0.0072860257 0.53100002 4286812287
-0.0084203929 -0.0072723045 0.53000003 4287335805
-0.0066736727 -0.0072448612 0.528 4283576358
-0.0049587279 -0.0072448612 0.528 4285213215
-0.0032376396 -0.00723114 0.52700001 4285476387
-0.0015230472 -0.0072174189 0.52600002 4284753179
0.00018540173 -0.0072174189 0.52600002 4284556570
0.0018938506 -0.0072174189 0.52600002 4283373839
0.0036022994 -0.0072174189 0.52600002 4283178258
0.0053006518 -0.0072036977 0.52500004 4282983707
-0.027562706 -0.0055921692 0.53400004 4286552199
-0.025828272 -0.0055921692 0.53400004 4285285949
-0.02409384 -0.0055921692 0.53400004 4285217589
-0.022359408 -0.0055921692 0.53400004 4287452489
-0.020624975 -0.0055921692 0.53400004 4285213728
-0.018890541 -0.0055921692 0.53400004 4283703571
-0.017156107 -0.0055921692 0.53400004 4287591014
-0.015421676 -0.0055921692 0.53400004 4286550142
-0.013661611 -0.005581697 0.53300005 4286418556
-0.011908042 -0.0055712243 0.53200001 4287141252
-0.01016097 -0.005560752 0.53100002 4287403141
-0.0084203929 -0.0055502802 0.53000003 4288449405
-0.0066736727 -0.0055293352 0.528 4283245335
-0.0049493364 -0.005518863 0.52700001 4284557083
-0.0032376396 -0.005518863 0.52700001 4284227605
-0.0015230472 -0.0055083912 0.52600002 4283899667
0.00018540173 -0.0055083912 0.52600002 4283374093
0.0018938506 -0.0055083912 0.52600002 4282914832
0.0035954511 -0.0054979189 0.52500004 4282390287
0.0053006518 -0.0054979189 0.52500004 4282587666
0.0070058531 -0.0054979189 0.52500004 4283770657
-0.029352002 -0.0038643717 0.53500003 4285828735
-0.027562706 -0.0038571486 0.53400004 4284772706
-0.025828272 -0.0038571486 0.53400004 4284953132
-0.02409384 -0.0038571486 0.53400004 4286070330
-0.022359408 -0.0038571486 0.53400004 4284818718
-0.020624975 -0.0038571486 0.53400004 4284621078
-0.018890541 -0.0038571486 0.53400004 4283570448
-0.017156107 -0.0038571486 0.53400004 4289035378
-0.015421676 -0.0038571486 0.53400004 4284432952
-0.013661611 -0.0038499255 0.53300005 4284232493
-0.011908042 -0.0038427021 0.53200001 4284099624
-0.01016097 -0.003835479 0.53100002 4283901731
-0.0084203929 -0.0038282559 0.53000003 4284427558
-0.0066736727 -0.0038138095 0.528 4283901466
-0.0049493364 -0.0038065866 0.52700001 4283703571
-0.0032376396 -0.0038065866 0.52700001 4283834903
-0.0015230472 -0.0037993635 0.52600002 4283309842
0.00018540173 -0.0037993635 0.52600002 4282849293
0.0018938506 -0.0037993635 0.52600002 4281929736
0.0035954511 -0.0037921404 0.52500004 4282327574
0.0053006518 -0.0037921404 0.52500004 4282194703
0.0070058531 -0.0037921404 0.52500004 4283836448
-0.029352002 -0.0021261021 0.53500003 4285828735
-0.027614322 -0.0021261021 0.53500003 4283652940
-0.025876639 -0.0021261021 0.53500003 4284755753
-0.02409384 -0.0021221281 0.53400004 4284491038
-0.022359408 -0.0021221281 0.53400004 4284491036
-0.020624975 -0.0021221281 0.53400004 4283898899
-0.018890541 -0.0021221281 0.53400004 4285346599
-0.017156107 -0.0021221281 0.53400004 4284295195
-0.015421676 -0.0021221281 0.53400004 4283047702
-0.013661611 -0.0021181542 0.53300005 4282982424
-0.011908042 -0.00211418 0.53200001 4282917403
-0.01016097 -0.0021102058 0.53100002 4283378729
-0.0084203929 -0.0021062319 0.53000003 4283314987
-0.0066863131 -0.0021022579 0.52900004 4283051815
-0.0049587279 -0.0020982837 0.528 4282850323
-0.0032376396 -0.0020943098 0.52700001 4282916116
-0.0015230472 -0.0020903358 0.52600002 4283376151
0.00018540173 -0.0020903358 0.52600002 4283112463
0.0018938506 -0.0020903358 0.52600002 4284894523
0.0035954511 -0.0020863619 0.52500004 4283649071
0.0053006518 -0.0020863619 0.52500004 4283978034
0.0070058531 -0.0020863619 0.52500004 4283184670
0.008711054 -0.0020863619 0.52500004 4284163868
0.010416255 -0.0020863619 0.52500004 4284694314
-0.029406866 -0.00038855724 0.53600001 4285828735
-0.027614322 -0.00038783232 0.53500003 4284706143
-0.025876639 -0.00038783232 0.53500003 4283507485
-0.024138959 -0.00038783232 0.53500003 4284032284
-0.022401279 -0.00038783232 0.53500003 4283638296
-0.020663599 -0.00038783232 0.53500003 4283178258
-0.018890541 -0.0003871074 0.53400004 4282784014
-0.017156107 -0.0003871074 0.53400004 4282455565
-0.015421676 -0.0003871074 0.53400004 4281471500
-0.013661611 -0.00038638251 0.53300005 4283777596
-0.011908042 -0.00038565753 0.53200001 4286943875
-0.01016097 -0.00038493265 0.53100002 4286747523
-0.0084203929 -0.00038420773 0.53000003 4286550142
-0.0066863131 -0.00038348281 0.52900004 4285954409
-0.0049587279 -0.00038275786 0.528 4282195223
-0.0032376396 -0.00038203294 0.52700001 4282325777
-0.0015259427 -0.00038203294 0.52700001 4282784784
0.00018540173 -0.00038130803 0.52600002 4283901979
0.0018938506 -0.00038130803 0.52600002 4283835925
0.0036022994 -0.00038130803 0.52600002 4284697646
0.0053107482 -0.00038130803 0.52600002 4283847727
0.0070058531 -0.00038058314 0.52500004 4284110645
0.008711054 -0.00038058314 0.52500004 4283311891
0.010416255 -0.00038058314 0.52500004 4284296476
0.012121457 -0.00038058314 0.52500004 4284500528
-0.029406866 0.0013529615 0.53600001 4286026368
-0.027665935 0.0013529615 0.53600001 4282600254
-0.025925007 0.0013529615 0.53600001 4284035114
-0.024138959 0.0013504374 0.53500003 4283245085
-0.022401279 0.0013504374 0.53500003 4282917401
-0.020663599 0.0013504374 0.53500003 4282259471
-0.018925916 0.0013504374 0.53500003 4282194191
-0.017156107 0.0013479133 0.53400004 4282065435
-0.015421676 0.0013479133 0.53400004 4287011463
-0.013661611 0.0013453892 0.53300005 4286090876
-0.011908042 0.0013428648 0.53200001 4286025083
-0.01016097 0.0013403407 0.53100002 4286090876
-0.0084203929 0.0013378165 0.53000003 4285959290
-0.0066863131 0.0013352924 0.52900004 4281612587
-0.0049587279 0.0013327681 0.528 4282655004
-0.003243783 0.0013327681 0.528 4282325779
-0.0015259427 0.0013302439 0.52700001 4282259471
0.00018575421 0.0013302439 0.52700001 4282456848
0.0018938506 0.0013277198 0.52600002 4284427292
0.0036022994 0.0013277198 0.52600002 4283769360
0.0053107482 0.0013277198 0.52600002 4284767032
0.0070058531 0.0013251957 0.52500004 4284440632
0.008711054 0.0013251957 0.52500004 4284634933
0.010416255 0.0013251957 0.52500004 4283311891
0.012121457 0.0013251957 0.52500004 4284296476
-0.031322129 0.0031118002 0.53900003 4286091907
-0.029461728 0.0031002534 0.537 4286222462
-0.027717551 0.0031002534 0.537 4282662449
-0.025925007 0.0030944804 0.53600001 4284629046
-0.024184078 0.0030944804 0.53600001 4283312157
-0.022443149 0.0030944804 0.53600001 4282456850
-0.02070222 0.0030944804 0.53600001 4282194193
-0.018925916 0.0030887071 0.53500003 4282794033
-0.017188234 0.0030887071 0.53500003 4286484349
-0.015421676 0.0030829338 0.53400004 4286091646
-0.013661611 0.0030771606 0.53300005 4285960060
-0.011930427 0.0030771606 0.53300005 4286091648
-0.010180105 0.0030713871 0.53200001 4285894269
-0.0084362803 0.0030656138 0.53100002 4286616707
-0.0066989521 0.0030598408 0.53000003 4281609248
-0.0049681198 0.0030540675 0.52900004 4283179292
-0.003243783 0.003048294 0.528 4283046934
-0.0015288382 0.003048294 0.528 4282652946
0.00018575421 0.0030425207 0.52700001 4282192906
0.001897451 0.0030425207 0.52700001 4283708196
0.0036022994 0.0030367475 0.52600002 4283770393
0.0053107482 0.0030367475 0.52600002 4282653961
0.0070191976 0.0030367475 0.52600002 4282462994
0.008711054 0.0030309744 0.52500004 4283714342
0.010416255 0.0030309744 0.52500004 4286278473
0.012121457 0.0030309744 0.52500004 4284492570
-0.031322129 0.0048630661 0.53900003 4286026114
-0.029516594 0.0048540439 0.53800005 4287272068
-0.027769169 0.0048540439 0.53800005 4283645235
-0.025973374 0.0048450213 0.537 4285813058
-0.024229197 0.0048450213 0.537 4282784530
-0.022443149 0.0048359991 0.53600001 4281865742
-0.02070222 0.0048359991 0.53600001 4280814855
-0.018961292 0.0048359991 0.53600001 4286550912
-0.017188234 0.0048269765 0.53500003 4285828474
-0.015421676 0.0048179543 0.53400004 4285960062
-0.013687242 0.0048179543 0.53400004 4285960062
-0.011930427 0.0048089321 0.53300005 4286749837
-0.010180105 0.0047999094 0.53200001 4283459676
-0.0084362803 0.0047908872 0.53100002 4279968282
-0.0066989521 0.0047818646 0.53000003 4279769615
-0.0049681198 0.0047728424 0.52900004 4282000158
-0.003243783 0.0047638197 0.528 4282524442
-0.0015288382 0.0047638197 0.528 4282653457
0.00018575421 0.0047547976 0.52700001 4281863941
0.001897451 0.0047547976 0.52700001 4283583278
0.0036022994 0.0047457754 0.52600002 4282329107
0.0053107482 0.0047457754 0.52600002 4283967513
0.0070058531 0.0047367527 0.52500004 4285549875
0.008711054 0.0047367527 0.52500004 4284899638
0.010416255 0.0047367527 0.52500004 4283777825
0.012121457 0.0047367527 0.52500004 4284492822
-0.033134162 0.0066266037 0.54000002 4286091907
-0.031322129 0.0066143326 0.53900003 4285894782
-0.029571457 0.0066143326 0.53900003 4287334522
-0.027769169 0.006602061 0.53800005 4283576358
-0.025973374 0.0065897889 0.537 4284034851
-0.024229197 0.0065897889 0.537 4282587664
-0.022485022 0.0065897889 0.537 4281734674
-0.02070222 0.0065775178 0.53600001 4287727745
-0.018961292 0.0065775178 0.53600001 4285828474
-0.017188234 0.0065652463 0.53500003 4285894269
-0.015450555 0.0065652463 0.53500003 4285828222
-0.013687242 0.0065529752 0.53400004 4286288775
-0.011930427 0.0065407036 0.53300005 4278851862
-0.010180105 0.0065284315 0.53200001 4279310616
-0.0084362803 0.0065161604 0.53100002 4278850316
-0.0066989521 0.0065038889 0.53000003 4279113486
-0.0049681198 0.0064916178 0.52900004 4281285425
-0.003249927 0.0064916178 0.52900004 4279835410
-0.0015288382 0.0064793457 0.528 4281146128
0.00018610668 0.0064793457 0.528 4281474316
0.001897451 0.0064670742 0.52700001 4282663973
0.0036022994 0.006454803 0.52600002 4281610261
0.0053107482 0.006454803 0.52600002 4283311380
0.0070058531 0.0064425315 0.52500004 4283637263
0.008711054 0.0064425315 0.52500004 4285019679
0.010416255 0.0064425315 0.52500004 4284557331
0.012121457 0.0064425315 0.52500004 4285015316
0.013826657 0.0064425315 0.52500004 4285146902
-0.033134162 0.008381119 0.54000002 4286092161
-0.031322129 0.0083655985 0.53900003 4286157954
-0.029571457 0.0083655985 0.53900003 4283513903
-0.027769169 0.008350078 0.53800005 4284299565
-0.026021743 0.008350078 0.53800005 4283179542
-0.024229197 0.0083345566 0.537 4282128398
-0.022485022 0.0083345566 0.537 4280093958
-0.02070222 0.008319037 0.53600001 4285957491
-0.018961292 0.008319037 0.53600001 4285828474
-0.017188234 0.0083035165 0.53500003 4285894269
-0.015421676 0.0082879961 0.53400004 4286617738
-0.013687242 0.0082879961 0.53400004 4278523665
-0.011930427 0.0082724756 0.53300005 4279376409
-0.010180105 0.0082569541 0.53200001 4279113237
-0.0084362803 0.0082414337 0.53100002 4278456075
-0.0066989521 0.0082259132 0.53000003 4278785553
-0.0049681198 0.0082103927 0.52900004 4278653967
-0.003249927 0.0082103927 0.52900004 4281087795
-0.0015288382 0.0081948712 0.528 4280098582
0.00018610668 0.0081948712 0.528 4280361493
0.001897451 0.0081793517 0.52700001 4280427018
0.0036022994 0.0081638312 0.52600002 4280624397
0.0053107482 0.0081638312 0.52600002 4282261518
0.0070058531 0.0081483107 0.52500004 4285479467
0.0086944615 0.0081327902 0.52400005 4285474842
0.010396414 0.0081327902 0.52400005 4286528039
0.012098368 0.0081327902 0.52400005 4285606683
0.013826657 0.0081483107 0.52500004 4285080082
-0.033134162 0.010135635 0.54000002 4286026368
-0.031322129 0.010116865 0.53900003 4287209357
-0.029571457 0.010116865 0.53900003 4283970602
-0.027769169 0.010098096 0.53800005 4284495661
-0.026021743 0.010098096 0.53800005 4282390285
-0.024229197 0.010079325 0.537 4281997326
-0.022485022 0.010079325 0.537 4285295968
-0.02070222 0.010060555 0.53600001 4286090363
-0.018961292 0.010060555 0.53600001 4286025083
-0.017188234 0.010041786 0.53500003 4285696890
-0.015421676 0.010023016 0.53400004 4280102180
-0.013661611 0.010004248 0.53300005 4279377177
-0.011930427 0.010004248 0.53300005 4278718477
-0.010180105 0.0099854767 0.53200001 4283654227
-0.0084362803 0.0099667069 0.53100002 4287864205
-0.0066989521 0.0099479379 0.53000003 4284444766
-0.0049681198 0.009929168 0.52900004 4287670680
-0.003249927 0.009929168 0.52900004 4279313434
-0.0015288382 0.0099103972 0.528 4281350189
0.00018575421 0.0098916283 0.52700001 4279244041
0.001897451 0.0098916283 0.52700001 4280098578
0.0036022994 0.0098728584 0.52600002 4279835403
0.0053006518 0.0098540895 0.52500004 4281540111
0.0070058531 0.0098540895 0.52500004 4283638548
0.0086944615 0.0098353196 0.52400005 4284948501
0.010396414 0.0098353196 0.52400005 4285014037
0.012098368 0.0098353196 0.52400005 4284751119
0.013826657 0.0098540895 0.52500004 4284423181
-0.033072803 0.01186813 0.53900003 4286091646
-0.031322129 0.01186813 0.53900003 4283125053
-0.029516594 0.011846112 0.53800005 4284231978
-0.027769169 0.011846112 0.53800005 4283837472
-0.026021743 0.011846112 0.53800005 4282323979
-0.024229197 0.011824093 0.537 4281931533
-0.022485022 0.011824093 0.537 4287206275
-0.02070222 0.011802074 0.53600001 4285893495
-0.018925916 0.011780055 0.53500003 4286025083
-0.017188234 0.011780055 0.53500003 4286748293
-0.015421676 0.011758037 0.53400004 4281088046
-0.013661611 0.011736019 0.53300005 4281153839
-0.011908042 0.011713998 0.53200001 4283720016
-0.01016097 0.01169198 0.53100002 4282206261
-0.0084362803 0.01169198 0.53100002 4283191355
-0.0066989521 0.011669962 0.53000003 4284245842
-0.0049681198 0.011647943 0.52900004 4283261777
-0.003249927 0.011647943 0.52900004 4287537809
-0.0015288382 0.011625923 0.528 4278785545
0.00018575421 0.011603905 0.52700001 4282140988
0.0018938506 0.011581887 0.52600002 4279573776
0.0036022994 0.011581887 0.52600002 4279703820
0.0053006518 0.011559867 0.52500004 4280555274
0.0069925091 0.011537849 0.52400005 4283115032
0.0086944615 0.011537849 0.52400005 4284621591
0.010396414 0.011537849 0.52400005 4284751894
0.012121457 0.011559867 0.52500004 4284423699
0.013852993 0.011581887 0.52600002 4283503882
-0.03475887 0.013594129 0.53800005 4286026368
-0.033072803 0.013619397 0.53900003 4287732106
-0.031264018 0.013594129 0.53800005 4285419847
-0.029516594 0.013594129 0.53800005 4285479728
-0.027769169 0.013594129 0.53800005 4284164122
-0.025973374 0.01356886 0.537 4282455565
-0.024229197 0.01356886 0.537 4281733640
-0.022443149 0.013543592 0.53600001 4285620570
-0.02070222 0.013543592 0.53600001 4284503626
-0.018925916 0.013518325 0.53500003 4283182631
-0.017156107 0.013493057 0.53400004 4283709745
-0.015392796 0.01346779 0.53300005 4283322178
-0.013661611 0.01346779 0.53300005 4280165143
-0.011908042 0.01344252 0.53200001 4281877294
-0.01016097 0.013417253 0.53100002 4282072613
-0.0084203929 0.013391986 0.53000003 4282860830
-0.0066989521 0.013391986 0.53000003 4281414935
-0.0049681198 0.013366718 0.52900004 4283787606
-0.003243783 0.013341448 0.528 4279971616
-0.0015288382 0.013341448 0.528 4278852111
0.00018575421 0.013316181 0.52700001 4279904799
0.0018938506 0.013290914 0.52600002 4279376912
0.0035954511 0.013265646 0.52500004 4279506186
0.0053006518 0.013265646 0.52500004 4279964423
0.0069925091 0.013240378 0.52400005 4282130195
0.0086944615 0.013240378 0.52400005 4283439886
0.010396414 0.013240378 0.52400005 4284031253
0.012098368 0.013240378 0.52400005 4283178256
0.013826657 0.013265646 0.52500004 4282718221
-0.036506295 0.015342146 0.53800005 4286026114
-0.03475887 0.015342146 0.53800005 4286289286
-0.033011444 0.015342146 0.53800005 4284694587
-0.031264018 0.015342146 0.53800005 4285215025
-0.029516594 0.015342146 0.53800005 4286399033
-0.027717551 0.015313628 0.537 4284951587
-0.025973374 0.015313628 0.537 4282520842
-0.024184078 0.015285112 0.53600001 4282127885
-0.022443149 0.015285112 0.53600001 4282785047
-0.020663599 0.015256595 0.53500003 4284099108
-0.018925916 0.015256595 0.53500003 4284098075
-0.017156107 0.015228079 0.53400004 4283968034
-0.015392796 0.015199562 0.53300005 4282794553
-0.013635978 0.015171044 0.53200001 4281284394
-0.011885659 0.015142526 0.53100002 4281349919
-0.01016097 0.015142526 0.53100002 4281283351
-0.0084203929 0.01511401 0.53000003 4281809173
-0.0066989521 0.01511401 0.53000003 4280624903
-0.0049681198 0.015085493 0.52900004 4282340162
-0.003243783 0.015056975 0.528 4279049744
-0.0015288382 0.015056975 0.528 4278654734
0.00018575421 0.015028458 0.52700001 4282010177
0.0018938506 0.014999942 0.52600002 4278652422
0.0035954511 0.014971425 0.52500004 4279506445
0.0052905558 0.014942909 0.52400005 4279899143
0.0069925091 0.014942909 0.52400005 4281999892
0.0086778682 0.014914391 0.523 4283440915
0.010376574 0.014914391 0.523 4283046157
0.012075279 0.014914391 0.523 4282653198
0.01380032 0.014942909 0.52400005 4282390539
0.015591026 0.015028458 0.52700001 4282391570
-0.036506295 0.017090164 0.53800005 4286157700
-0.03475887 0.017090164 0.53800005 4286286974
-0.033011444 0.017090164 0.53800005 4285413172
-0.031264018 0.017090164 0.53800005 4286595649
-0.029461728 0.017058397 0.537 4284621341
-0.027717551 0.017058397 0.537 4285081890
-0.025973374 0.017058397 0.537 4283177743
-0.024184078 0.017026631 0.53600001 4282520842
-0.022443149 0.017026631 0.53600001 4283835675
-0.020663599 0.016994866 0.53500003 4284097562
-0.018890541 0.0169631 0.53400004 4284359704
-0.01712398 0.016931335 0.53300005 4284163868
-0.015392796 0.016931335 0.53300005 4280688407
-0.013635978 0.016899567 0.53200001 4279704594
-0.011885659 0.0168678 0.53100002 4282599984
-0.01016097 0.0168678 0.53100002 4282599466
-0.0084203929 0.016836034 0.53000003 4281808664
-0.0066989521 0.016836034 0.53000003 4280493835
-0.0049681198 0.016804269 0.52900004 4282404671
-0.003243783 0.016772501 0.528 4280562469
-0.0015288382 0.016772501 0.528 4278325255
0.00018575421 0.016740736 0.52700001 4278654734
0.0018938506 0.01670897 0.52600002 4279376399
0.0035954511 0.016677205 0.52500004 4279506443
0.0052905558 0.016645439 0.52400005 4280030729
0.0069925091 0.016645439 0.52400005 4282460443
0.0086778682 0.016613672 0.523 4282586635
0.010376574 0.016613672 0.523 4282851606
0.012075279 0.016613672 0.523 4282063889
0.013773983 0.016613672 0.523 4281866510
0.015531858 0.016677205 0.52500004 4282063121
-0.036506295 0.01883818 0.53800005 4286288773
-0.03475887 0.01883818 0.53800005 4284179799
-0.033011444 0.01883818 0.53800005 4285215021
-0.031205904 0.018803164 0.537 4285213478
-0.029461728 0.018803164 0.537 4285015584
-0.027717551 0.018803164 0.537 4284226581
-0.025925007 0.018768148 0.53600001 4283637524
-0.024184078 0.018768148 0.53600001 4282915084
-0.022401279 0.018733134 0.53500003 4283176462
-0.020663599 0.018733134 0.53500003 4284030487
-0.018890541 0.01869812 0.53400004 4283964692
-0.01712398 0.018663105 0.53300005 4283768599
-0.015363916 0.018628089 0.53200001 4279832071
-0.013635978 0.018628089 0.53200001 4279703570
-0.011885659 0.018593073 0.53100002 4283324488
-0.010141834 0.018558059 0.53000003 4282403379
-0.0084203929 0.018558059 0.53000003 4281481505
-0.0066989521 0.018558059 0.53000003 4283390785
-0.0049681198 0.018523045 0.52900004 4281088296
-0.003249927 0.018523045 0.52900004 4280100635
-0.0015288382 0.018488027 0.528 4279905569
0.00018575421 0.018453013 0.52700001 4281681980
0.0018938506 0.018417997 0.52600002 4279638801
0.0035954511 0.018382983 0.52500004 4279703563
0.0052905558 0.018347967 0.52400005 4279767044
0.0069791637 0.018312952 0.523 4282591516
0.0086778682 0.018312952 0.523 4282193930
0.010356734 0.018277936 0.52200001 4281605134
0.01205219 0.018277936 0.52200001 4280951056
0.013747646 0.018277936 0.52200001 4281015566
0.015472688 0.018312952 0.523 4281406990
-0.038253717 0.020586198 0.53800005 4286223493
-0.036506295 0.020586198 0.53800005 4286289540
-0.03475887 0.020586198 0.53800005 4285431149
-0.033011444 0.020586198 0.53800005 4284297771
-0.031205904 0.020547932 0.537 4284362019
-0.029461728 0.020547932 0.537 4283900183
-0.027717551 0.020547932 0.537 4283833620
-0.025925007 0.020509668 0.53600001 4283900183
-0.024184078 0.020509668 0.53600001 4283374352
-0.022401279 0.020471403 0.53500003 4283243538
-0.020663599 0.020471403 0.53500003 4283637526
-0.018890541 0.020433141 0.53400004 4283178520
-0.01712398 0.020394877 0.53300005 4282654742
-0.015363916 0.02035661 0.53200001 4280624667
-0.013635978 0.02035661 0.53200001 4279441687
-0.011885659 0.020318346 0.53100002 4279112975
-0.01016097 0.020318346 0.53100002 4280100122
-0.0084203929 0.020280082 0.53000003 4281679665
-0.0066989521 0.020280082 0.53000003 4281153319
-0.0049681198 0.020241819 0.52900004 4279376912
-0.003249927 0.020241819 0.52900004 4280955690
-0.0015288382 0.020203553 0.528 4281418038
0.00018575421 0.020165289 0.52700001 4278851084
0.0018938506 0.020127025 0.52600002 4279964169
0.0035954511 0.020088762 0.52500004 4280358927
0.0052905558 0.020050498 0.52400005 4281146128
0.0069791637 0.020012232 0.523 4283115291
0.0086612757 0.019973967 0.52200001 4281866508
0.010356734 0.019973967 0.52200001 4281345042
0.01205219 0.019973967 0.52200001 4280688911
0.013747646 0.019973967 0.52200001 4280753677
0.015443104 0.019973967 0.52200001 4281473550
-0.038253717 0.022334214 0.53800005 4286092421
-0.036506295 0.022334214 0.53800005 4286289286
-0.03475887 0.022334214 0.53800005 4286947470
-0.033011444 0.022334214 0.53800005 4282593322
-0.031264018 0.022334214 0.53800005 4283773225
-0.029461728 0.0222927 0.537 4283441690
-0.027717551 0.0222927 0.537 4283638555
-0.025973374 0.0222927 0.537 4284163357
-0.024184078 0.022251187 0.53600001 4283702806
-0.022401279 0.022209672 0.53500003 4283243538
-0.020663599 0.022209672 0.53500003 4288774775
-0.018890541 0.022168159 0.53400004 4286944127
-0.01712398 0.022126647 0.53300005 4286287994
-0.015363916 0.022085132 0.53200001 4286288253
-0.013610347 0.022043619 0.53100002 4281024300
-0.011885659 0.022043619 0.53100002 4279639579
-0.01016097 0.022043619 0.53100002 4279375894
-0.0084203929 0.022002107 0.53000003 4281943355
-0.0066989521 0.022002107 0.53000003 4279113486
-0.0049775112 0.022002107 0.53000003 4283522639
-0.003249927 0.021960594 0.52900004 4281219886
-0.0015288382 0.021919077 0.528 4279836180
0.00018575421 0.021877564 0.52700001 4281015060
0.0018938506 0.021836052 0.52600002 4287456598
0.0035954511 0.021794539 0.52500004 4283049498
0.0052905558 0.021753026 0.52400005 4282852119
0.0069791637 0.021711512 0.523 4283310356
0.0086612757 0.021669999 0.52200001 4281803535
0.010356734 0.021669999 0.52200001 4280754189
0.01205219 0.021669999 0.52200001 4280359944
0.013747646 0.021669999 0.52200001 4281670927
0.015443104 0.021669999 0.52200001 4281934099
-0.036506295 0.02408223 0.53800005 4286223493
-0.03475887 0.02408223 0.53800005 4286157700
-0.033011444 0.02408223 0.53800005 4287339148
-0.031264018 0.02408223 0.53800005 4282598459
-0.029516594 0.02408223 0.53800005 4282721569
-0.027717551 0.024037465 0.537 4282194453
-0.025973374 0.024037465 0.537 4284888622
-0.024184078 0.023992704 0.53600001 4284162333
-0.022401279 0.023947943 0.53500003 4284031001
-0.020663599 0.023947943 0.53500003 4286074184
-0.018890541 0.02390318 0.53400004 4286484349
-0.01712398 0.023858419 0.53300005 4286025083
-0.015363916 0.023813654 0.53200001 4286090876
-0.013610347 0.023768893 0.53100002 4286091646
-0.011885659 0.023768893 0.53100002 4283391830
-0.01016097 0.023768893 0.53100002 4278785555
-0.0084203929 0.023724129 0.53000003 4280955692
-0.0066989521 0.023724129 0.53000003 4280231967
-0.0049775112 0.023724129 0.53000003 4279441938
-0.003249927 0.023679368 0.52900004 4279703824
-0.0015288382 0.023634603 0.528 4282062867
0.00018575421 0.023589842 0.52700001 4284097564
0.0018938506 0.023545079 0.52600002 4284555285
0.0035954511 0.023500318 0.52500004 4287516481
0.0052905558 0.023455556 0.52400005 4284295195
0.0069791637 0.023410792 0.523 4283112463
0.0086612757 0.023366028 0.52200001 4281279247
0.010356734 0.023366028 0.52200001 4280229128
0.01205219 0.023366028 0.52200001 4281541906
0.013747646 0.023366028 0.52200001 4282130193
0.01541352 0.023321267 0.52100003 4282329625
-0.036506295 0.02583025 0.53800005 4286091907
-0.034823477 0.02587826 0.53900003 4286157700
-0.033072803 0.02587826 0.53900003 4286222980
-0.031264018 0.02583025 0.53800005 4286289027
-0.029516594 0.02583025 0.53800005 4282399795
-0.027769169 0.02583025 0.53800005 4282527018
-0.025973374 0.025782235 0.537 4286868063
-0.024229197 0.025782235 0.537 4284363046
-0.022443149 0.025734225 0.53600001 4284424732
-0.020663599 0.025686214 0.53500003 4284096280
-0.018890541 0.025638202 0.53400004 4287466621
-0.01712398 0.025590193 0.53300005 4286024568
-0.015363916 0.025542177 0.53200001 4286025083
-0.013610347 0.025494168 0.53100002 4285960060
-0.011885659 0.025494168 0.53100002 4285894782
-0.01016097 0.025494168 0.53100002 4286486665
-0.0084203929 0.025446156 0.53000003 4286289540
-0.0066989521 0.025446156 0.53000003 4285367925
-0.0049775112 0.025446156 0.53000003 4281744947
-0.003249927 0.025398144 0.52900004 4281607710
-0.0015288382 0.025350131 0.528 4284097564
0.00018575421 0.02530212 0.52700001 4284621339
0.0018938506 0.02525411 0.52600002 4285211416
0.0035954511 0.025206098 0.52500004 4285474588
0.0052905558 0.025158087 0.52400005 4284030737
0.0069791637 0.025110073 0.523 4282982928
0.0086778682 0.025110073 0.523 4281741336
0.010356734 0.025062062 0.52200001 4281018896
0.01205219 0.025062062 0.52200001 4281999631
0.013747646 0.025062062 0.52200001 4282260496
-0.034823477 0.027629526 0.53900003 4286223493
-0.033072803 0.027629526 0.53900003 4286091907
-0.031322129 0.027629526 0.53900003 4286157700
-0.029571457 0.027629526 0.53900003 4286419843
-0.027769169 0.027578266 0.53800005 4282139705
-0.026021743 0.027578266 0.53800005 4281802011
-0.024229197 0.027527003 0.537 4285223238
-0.022443149 0.027475743 0.53600001 4284754210
-0.020663599 0.027424483 0.53500003 4284818720
-0.018890541 0.027373223 0.53400004 4283111698
-0.01712398 0.027321963 0.53300005 4288055417
-0.015363916 0.027270699 0.53200001 4286090874
-0.013610347 0.027219439 0.53100002 4285894269
-0.011885659 0.027219439 0.53100002 4285960062
-0.010141834 0.027168179 0.53000003 4285894782
-0.0084203929 0.027168179 0.53000003 4285894782
-0.0066989521 0.027168179 0.53000003 4285763196
-0.0049681198 0.027116919 0.52900004 4284773733
-0.003249927 0.027116919 0.52900004 4282530096
-0.0015288382 0.027065657 0.528 4284162587
0.00018575421 0.027014397 0.52700001 4285146654
0.0018938506 0.026963137 0.52600002 4285539611
0.0035954511 0.026911877 0.52500004 4285276439
0.0052905558 0.026860617 0.52400005 4283503882
0.0069925091 0.026860617 0.52400005 4283113747
0.0086778682 0.026809353 0.523 4281608466
0.010376574 0.026809353 0.523 4281740052
0.012075279 0.026809353 0.523 4282523408
0.013773983 0.026809353 0.523 4282655508
0.015502274 0.026860617 0.52400005 4281279247
-0.034888085 0.029435301 0.54000002 4286091907
-0.033134162 0.029435301 0.54000002 4286223493
-0.03138024 0.029435301 0.54000002 4286091907
-0.029571457 0.029380793 0.53900003 4286091907
-0.027820785 0.029380793 0.53900003 4286289027
-0.026021743 0.029326282 0.53800005 4282726193
-0.024229197 0.02927177 0.537 4284037688
-0.022443149 0.029217262 0.53600001 4283704862
-0.020663599 0.029162752 0.53500003 4285016867
-0.018855166 0.029053735 0.53300005 4284883998
-0.017091852 0.028999222 0.53200001 4284292376
-0.015363916 0.028999222 0.53200001 4286871402
-0.013610347 0.028944712 0.53100002 4286417529
-0.011863275 0.028890204 0.53000003 4286024570
-0.010141834 0.028890204 0.53000003 4285959290
-0.0084203929 0.028890204 0.53000003 4285960060
-0.0066989521 0.028890204 0.53000003 4285828474
-0.0049681198 0.028835695 0.52900004 4285762681
-0.003249927 0.028835695 0.52900004 4284510045
-0.0015288382 0.028781181 0.528 4284428839
0.00018575421 0.028726673 0.52700001 4284951328
0.0018938506 0.028672164 0.52600002 4285736477
0.0035954511 0.028617654 0.52500004 4287250229
0.0052905558 0.028563146 0.52400005 4285279010
0.0069925091 0.028563146 0.52400005 4284490005
0.0086944615 0.028563146 0.52400005 4283442194
0.010396414 0.028563146 0.52400005 4282587916
0.012098368 0.028563146 0.52400005 4282784784
0.01380032 0.028563146 0.52400005 4282654994
0.015502274 0.028563146 0.52400005 4281148945
-0.034888085 0.031189816 0.54000002 4286289286
-0.033134162 0.031189816 0.54000002 4286157700
-0.03138024 0.031189816 0.54000002 4286157700
-0.029626319 0.031189816 0.54000002 4286157700
-0.027820785 0.031132057 0.53900003 4286157700
-0.026021743 0.0310743 0.53800005 4287601807
-0.024229197 0.031016538 0.537 4282331435
-0.022443149 0.030958779 0.53600001 4284630077
-0.020663599 0.030901022 0.53500003 4283380264
-0.018855166 0.030785505 0.53300005 4284951076
-0.017091852 0.030727744 0.53200001 4285016099
-0.015335036 0.030669985 0.53100002 4285279271
-0.013610347 0.030669985 0.53100002 4284622884
-0.011863275 0.030612227 0.53000003 4286474848
-0.010141834 0.030612227 0.53000003 4287596924
-0.0084203929 0.030612227 0.53000003 4287204992
-0.0066863131 0.03055447 0.52900004 4287270785
-0.0049681198 0.03055447 0.52900004 4287006838
-0.003243783 0.030496707 0.528 4285751890
-0.0015259427 0.03043895 0.52700001 4286399287
0.00018575421 0.03043895 0.52700001 4285475615
0.0018938506 0.030381192 0.52600002 4285802524
0.0035954511 0.030323433 0.52500004 4289422422
0.0053006518 0.030323433 0.52500004 4285080087
0.0069925091 0.030265674 0.52400005 4284882708
0.0086944615 0.030265674 0.52400005 4284030735
0.010396414 0.030265674 0.52400005 4283374352
0.012121457 0.030323433 0.52500004 4282653457
0.013826657 0.030323433 0.52500004 4282656026
0.015531858 0.030323433 0.52500004 4280754704
-0.033134162 0.032944329 0.54000002 4286157700
-0.03138024 0.032944329 0.54000002 4286157700
-0.029626319 0.032944329 0.54000002 4286026114
-0.027820785 0.032883324 0.53900003 4286157700
-0.026021743 0.032822315 0.53800005 4286091907
-0.024229197 0.032761306 0.537 4286484351
-0.022443149 0.032700296 0.53600001 4283380780
-0.020624975 0.032578282 0.53400004 4287261284
-0.018855166 0.032517277 0.53300005 4285214761
-0.017091852 0.032456264 0.53200001 4288700759
-0.015335036 0.032395259 0.53100002 4285081631
-0.013610347 0.032395259 0.53100002 4287057729
-0.011863275 0.032334249 0.53000003 4285872943
-0.010141834 0.032334249 0.53000003 4284950306
-0.0084203929 0.032334249 0.53000003 4284622111
-0.0066863131 0.032273244 0.52900004 4285017382
-0.0049681198 0.032273244 0.52900004 4285082660
-0.003243783 0.032212231 0.528 4285082144
-0.0015259427 0.032151226 0.52700001 4284884250
0.00018540173 0.032090217 0.52600002 4284686101
0.0018938506 0.032090217 0.52600002 4285211670
0.0035954511 0.032029212 0.52500004 4285474072
0.0053006518 0.032029212 0.52500004 4285474845
0.0070058531 0.032029212 0.52500004 4284422927
0.008711054 0.032029212 0.52500004 4283109897
0.010416255 0.032029212 0.52500004 4282717453
0.012121457 0.032029212 0.52500004 4282326291
0.013826657 0.032029212 0.52500004 4282065685
0.015531858 0.032029212 0.52500004 4280688911
-0.033134162 0.034698848 0.54000002 4286552458
-0.031438351 0.034763105 0.54100001 4286157700
-0.029626319 0.034698848 0.54000002 4286157700
-0.027872398 0.034698848 0.54000002 4286026114
-0.026021743 0.034570336 0.53800005 4286091907
-0.024229197 0.034506075 0.537 4286289027
-0.022401279 0.034377564 0.53500003 4284700233
-0.020624975 0.034313306 0.53400004 4284956986
-0.018855166 0.034249049 0.53300005 4285346086
-0.017091852 0.034184791 0.53200001 4285607973
-0.015335036 0.034120534 0.53100002 4285014039
-0.013610347 0.034120534 0.53100002 4285343006
-0.011863275 0.034056276 0.53000003 4285146652
-0.010141834 0.034056276 0.53000003 4285278238
-0.0084203929 0.034056276 0.53000003 4285148453
-0.0066863131 0.033992022 0.52900004 4284754208
-0.0049681198 0.033992022 0.52900004 4283572764
-0.003243783 0.033927761 0.528 4283774509
-0.0015259427 0.033863503 0.52700001 4287265649
0.00018540173 0.03379925 0.52600002 4283510051
0.0018938506 0.03379925 0.52600002 4284555546
0.0035954511 0.033734992 0.52500004 4284357654
0.0053006518 0.033734992 0.52500004 4283897616
0.0070058531 0.033734992 0.52500004 4283504141
0.008711054 0.033734992 0.52500004 4282651660
0.010416255 0.033734992 0.52500004 4282324494
0.012121457 0.033734992 0.52500004 4282130197
0.013852993 0.03379925 0.52600002 4281343761
-0.031438351 0.036520869 0.54100001 4286288773
-0.029681183 0.036520869 0.54100001 4286223493
-0.027872398 0.036453363 0.54000002 4286091907
-0.02607011 0.036385857 0.53900003 4286026114
-0.024229197 0.036250841 0.537 4286026114
-0.022401279 0.036115833 0.53500003 4287206275
-0.020624975 0.036048327 0.53400004 4283315754
-0.018855166 0.035980821 0.53300005 4287584073
-0.017091852 0.035913311 0.53200001 4285016349
-0.015335036 0.035845805 0.53100002 4284553747
-0.013610347 0.035845805 0.53100002 4284817689
-0.011863275 0.035778299 0.53000003 4282583303
-0.010141834 0.035778299 0.53000003 4288577657
-0.0084203929 0.035778299 0.53000003 4287206529
-0.0066989521 0.035778299 0.53000003 4286878334
-0.0049681198 0.035710797 0.52900004 4286615935
-0.003243783 0.035643287 0.528 4285892982
-0.0015259427 0.035575781 0.52700001 4285958775
0.00018540173 0.035508275 0.52600002 4284111178
0.0018938506 0.035508275 0.52600002 4283507223
0.0035954511 0.035440769 0.52500004 4283638296
0.0053006518 0.035440769 0.52500004 4283441176
0.0070058531 0.035440769 0.52500004 4282717967
0.008711054 0.035440769 0.52500004 4282259471
0.010416255 0.035440769 0.52500004 4282326293
0.012121457 0.035440769 0.52500004 4282000410
-0.024184078 0.037924856 0.53600001 4286026114
-0.022359408 0.037783347 0.53400004 4286485123
-0.020586351 0.037712593 0.53300005 4282991160
-0.018819788 0.037641834 0.53200001 4284558628
-0.017091852 0.037641834 0.53200001 4284294941
-0.015335036 0.03757108 0.53100002 4283965206
-0.013610347 0.03757108 0.53100002 4283637011
-0.011885659 0.03757108 0.53100002 4282521873
-0.010141834 0.037500326 0.53000003 4285684050
-0.0084203929 0.037500326 0.53000003 4287075459
-0.0066989521 0.037500326 0.53000003 4287010181
-0.0049681198 0.037429571 0.52900004 4286878595
-0.003249927 0.037429571 0.52900004 4285891187
-0.0015288382 0.037358813 0.528 4283385407
0.00018575421 0.037288059 0.52700001 4281604630
0.0018938506 0.037217304 0.52600002 4283905325
0.0035954511 0.03714655 0.52500004 4282457879
0.0053006518 0.03714655 0.52500004 4282720024
0.0070058531 0.03714655 0.52500004 4282588436
0.008711054 0.03714655 0.52500004 4282327061
0.010416255 0.03714655 0.52500004 4282656539
-0.022317536 0.039444365 0.53300005 4286223234
-0.020586351 0.039444365 0.53300005 4285825909
-0.018819788 0.039370354 0.53200001 4284168243
-0.017091852 0.039370354 0.53200001 4283903526
-0.015335036 0.039296351 0.53100002 4283311389
-0.013610347 0.039296351 0.53100002 4282720022
-0.011885659 0.039296351 0.53100002 4282523672
-0.01016097 0.039296351 0.53100002 4282328092
-0.0084362803 0.039296351 0.53100002 4282393635
-0.0066989521 0.039222348 0.53000003 4282065183
-0.0049775112 0.039222348 0.53000003 4281344542
-0.003249927 0.039148346 0.52900004 4281740070
-0.0015288382 0.039074335 0.528 4282398514
0.00018575421 0.039000332 0.52700001 4283385409
0.0018938506 0.038926329 0.52600002 4283516991
0.0036022994 0.038926329 0.52600002 4283385918
0.0053006518 0.038852327 0.52500004 4282725162
0.0070058531 0.038852327 0.52500004 4281670675
-0.022317536 0.041176133 0.53300005 4286157189
-0.020547727 0.041098878 0.53200001 4286157187
-0.018819788 0.041098878 0.53200001 4285230432
-0.017091852 0.041098878 0.53200001 4282331433
-0.015335036 0.041021626 0.53100002 4282854438
-0.013610347 0.041021626 0.53100002 4282788645
-0.011885659 0.041021626 0.53100002 4282920744
-0.01016097 0.041021626 0.53100002 4282262814
-0.0084362803 0.041021626 0.53100002 4282595893
-0.0067115915 0.041021626 0.53100002 4285822573
-0.0049775112 0.040944371 0.53000003 4286418046
-0.003249927 0.04086712 0.52900004 4286681732
-0.0015317338 0.04086712 0.52900004 4285958779
0.0053006518 0.040558103 0.52500004 4281350700
-0.018819788 0.042827398 0.53200001 4285960062
-0.017091852 0.042827398 0.53200001 4286945672
-0.015335036 0.042746898 0.53100002 4285824622
-0.013610347 0.042746898 0.53100002 4284113493
-0.011885659 0.042746898 0.53100002 4285166183
-0.01016097 0.042746898 0.53100002 4287075463
-0.0084362803 0.042746898 0.53100002 4285892984
-0.0067115915 0.042746898 0.53100002 4286156156
-0.010412723 0.015646968 0.53086269 4294967295
-0.010412723 0.015646968 0.53086269 4294901760
-0.010412723 0.015646968 0.53136271 4294901760
-0.010412723 0.015646968 0.53186268 4294901760
-0.010412723 0.015646968 0.5323627 4294901760
-0.010412723 0.015646968 0.53286266 4294901760
-0.010412723 0.015646968 0.53336269 4294901760
-0.010412723 0.015646968 0.53386271 4294901760
-0.010412723 0.015646968 0.53436267 4294901760
-0.010412723 0.015646968 0.5348627 4294901760
-0.010412723 0.015646968 0.53536266 4294901760
-0.010412723 0.015646968 0.53586268 4294901760
-0.010412723 0.015646968 0.53636271 4294901760
-0.010412723 0.015646968 0.53686267 4294901760
-0.010412723 0.015646968 0.53736269 4294901760
-0.010412723 0.015646968 0.53786272 4294901760
-0.010412723 0.015646968 0.53836268 4294901760
-0.010412723 0.015646968 0.53886271 4294901760
-0.010412723 0.015646968 0.53936267 4294901760
-0.010412723 0.015646968 0.53986269 4294901760
-0.010412723 0.015646968 0.54036272 4294901760
-0.010412723 0.015646968 0.54086268 4294901760
-0.010412723 0.015646968 0.5413627 4294901760
-0.010412723 0.015646968 0.54186267 4294901760
-0.010412723 0.015646968 0.54236269 4294901760
-0.010412723 0.015646968 0.54286271 4294901760
-0.010412723 0.015646968 0.54336268 4294901760
-0.010412723 0.015646968 0.5438627 4294901760
-0.010412723 0.015646968 0.54436266 4294901760
-0.010412723 0.015646968 0.54486269 4294901760
-0.010412723 0.015646968 0.54536271 4294901760
-0.010412723 0.015646968 0.54586267 4294901760
-0.010412723 0.015646968 0.5463627 4294901760
-0.010412723 0.015646968 0.54686272 4294901760
-0.010412723 0.015646968 0.54736269 4294901760
-0.010412723 0.015646968 0.54786271 4294901760
-0.010412723 0.015646968 0.54836267 4294901760
-0.010412723 0.015646968 0.5488627 4294901760
-0.010412723 0.015646968 0.54936272 4294901760
-0.010412723 0.015646968 0.54986268 4294901760
-0.010412723 0.015646968 0.55036271 4294901760
-0.010412723 0.015646968 0.55086267 4294901760
-0.010412723 0.015646968 0.55136269 4294901760
-0.010412723 0.015646968 0.55186272 4294901760
-0.010412723 0.015646968 0.55236268 4294901760
-0.010412723 0.015646968 0.5528627 4294901760
-0.010412723 0.015646968 0.55336267 4294901760
-0.010412723 0.015646968 0.55386269 4294901760
-0.010412723 0.015646968 0.55436271 4294901760
-0.010412723 0.015646968 0.55486268 4294901760
-0.010412723 0.015646968 0.5553627 4294901760
-0.010412723 0.015646968 0.55586267 4294901760
-0.010412723 0.015646968 0.55636269 4294901760
-0.010412723 0.015646968 0.55686271 4294901760
-0.010412723 0.015646968 0.55736268 4294901760
-0.010412723 0.015646968 0.5578627 4294901760
-0.010412723 0.015646968 0.55836272 4294901760
-0.010412723 0.015646968 0.55886269 4294901760
-0.010412723 0.015646968 0.55936271 4294901760
-0.010412723 0.015646968 0.55986267 4294901760
-0.010412723 0.015646968 0.5603627 4294901760
-0.010412723 0.015646968 0.56086272 4294901760
-0.010412723 0.015646968 0.56136268 4294901760
-0.010412723 0.015646968 0.56186271 4294901760
-0.010412723 0.015646968 0.56236267 4294901760
-0.010412723 0.015646968 0.56286269 4294901760
-0.010412723 0.015646968 0.56336272 4294901760
-0.010412723 0.015646968 0.56386268 4294901760
-0.010412723 0.015646968 0.5643627 4294901760
-0.010412723 0.015646968 0.56486273 4294901760
-0.010412723 0.015646968 0.56536269 4294901760
-0.010412723 0.015646968 0.56586272 4294901760
-0.010412723 0.015646968 0.56636268 4294901760
-0.010412723 0.015646968 0.5668627 4294901760
-0.010412723 0.015646968 0.56736273 4294901760
-0.010412723 0.015646968 0.56786269 4294901760
-0.010412723 0.015646968 0.56836271 4294901760
-0.010412723 0.015646968 0.56886268 4294901760
-0.010412723 0.015646968 0.5693627 4294901760
-0.010412723 0.015646968 0.56986272 4294901760
-0.010412723 0.015646968 0.57036269 4294901760
-0.010412723 0.015646968 0.57086271 4294901760
-0.010412723 0.015646968 0.57136267 4294901760
-0.010412723 0.015646968 0.5718627 4294901760
-0.010412723 0.015646968 0.57236272 4294901760
-0.010412723 0.015646968 0.57286268 4294901760
-0.010412723 0.015646968 0.57336271 4294901760
-0.010412723 0.015646968 0.57386267 4294901760
-0.010412723 0.015646968 0.5743627 4294901760
-0.010412723 0.015646968 0.57486272 4294901760
-0.010412723 0.015646968 0.57536268 4294901760
-0.010412723 0.015646968 0.57586271 4294901760
-0.010412723 0.015646968 0.57636273 4294901760
-0.010412723 0.015646968 0.57686269 4294901760
-0.010412723 0.015646968 0.57736272 4294901760
-0.010412723 0.015646968 0.57786268 4294901760
-0.010412723 0.015646968 0.5783627 4294901760
-0.010412723 0.015646968 0.57886273 4294901760
-0.010412723 0.015646968 0.57936269 4294901760
-0.010412723 0.015646968 0.57986271 4294901760
-0.010412723 0.015646968 0.58036268 4294901760
-0.010412723 0.015646968 0.5808627 4294901760
-0.010412723 0.015646968 0.53086269 4278255360
-0.010233734 0.015628288 0.53132915 4278255360
-0.010054745 0.015609608 0.53179568 4278255360
-0.0098757558 0.015590928 0.53226215 4278255360
-0.0096967677 0.015572249 0.53272867 4278255360
-0.0095177786 0.015553568 0.53319514 4278255360
-0.0093387896 0.015534889 0.53366166 4278255360
-0.0091598006 0.015516209 0.53412813 4278255360
-0.0089808116 0.01549753 0.5345946 4278255360
-0.0088018226 0.015478849 0.53506112 4278255360
-0.0086228335 0.01546017 0.53552759 4278255360
-0.0084438454 0.01544149 0.53599411 4278255360
-0.0082648564 0.01542281 0.53646058 4278255360
-0.0080858674 0.01540413 0.53692704 4278255360
-0.0079068784 0.015385451 0.53739357 4278255360
-0.0077278893 0.01536677 0.53786004 4278255360
-0.0075489003 0.015348091 0.53832656 4278255360
-0.0073699113 0.015329411 0.53879303 4278255360
-0.0071909227 0.015310731 0.53925955 4278255360
-0.0070119342 0.015292051 0.53972602 4278255360
-0.0068329452 0.015273372 0.54019248 4278255360
-0.0066539561 0.015254691 0.54065901 4278255360
-0.0064749671 0.015236012 0.54112548 4278255360
-0.0062959781 0.015217332 0.541592 4278255360
-0.0061169895 0.015198653 0.54205847 4278255360
-0.0059380005 0.015179972 0.54252493 4278255360
-0.005759012 0.015161293 0.54299146 4278255360
-0.0055800225 0.015142613 0.54345793 4278255360
-0.0054010339 0.015123933 0.54392445 4278255360
-0.0052220449 0.015105253 0.54439092 4278255360
-0.0050430559 0.015086574 0.54485744 4278255360
-0.0048640673 0.015067893 0.54532391 4278255360
-0.0046850783 0.015049214 0.54579037 4278255360
-0.0045060893 0.015030534 0.5462569 4278255360
-0.0043271002 0.015011854 0.54672337 4278255360
-0.0041481117 0.014993174 0.54718989 4278255360
-0.0039691227 0.014974494 0.54765636 4278255360
-0.0037901336 0.014955815 0.54812288 4278255360
-0.0036111451 0.014937134 0.54858935 4278255360
-0.0034321561 0.014918455 0.54905581 4278255360
-0.003253167 0.014899775 0.54952234 4278255360
-0.0030741785 0.014881095 0.54998881 4278255360
-0.0028951894 0.014862415 0.55045533 4278255360
-0.0027162004 0.014843736 0.5509218 4278255360
-0.0025372114 0.014825055 0.55138826 4278255360
-0.0023582233 0.014806376 0.55185479 4278255360
-0.0021792334 0.014787696 0.55232126 4278255360
-0.0020002453 0.014769016 0.55278778 4278255360
-0.0018212562 0.014750336 0.55325425 4278255360
-0.0016422672 0.014731657 0.55372077 4278255360
-0.0014632782 0.014712976 0.55418724 4278255360
-0.0012842892 0.014694297 0.5546537 4278255360
-0.0011053011 0.014675617 0.55512023 4278255360
-0.00092631206 0.014656938 0.5555867 4278255360
-0.0007473221 0.014638257 0.55605322 4278255360
-0.00056833308 0.014619578 0.55651969 4278255360
-0.00038934499 0.014600898 0.55698621 4278255360
-0.00021035597 0.014582218 0.55745268 4278255360
-3.1366944e-05 0.014563538 0.55791914 4278255360
0.00014762115 0.014544859 0.55838567 4278255360
0.0003266111 0.014526178 0.55885214 4278255360
0.00050560012 0.014507499 0.55931866 4278255360
0.00068458822 0.014488819 0.55978513 4278255360
0.00086357724 0.01447014 0.56025159 4278255360
0.0010425663 0.014451459 0.56071812 4278255360
0.0012215544 0.01443278 0.56118459 4278255360
0.0014005443 0.0144141 0.56165111 4278255360
0.0015795333 0.01439542 0.56211758 4278255360
0.0017585224 0.01437674 0.5625841 4278255360
0.0019375104 0.01435806 0.56305057 4278255360
0.0021164995 0.01433938 0.56351703 4278255360
0.0022954885 0.0143207 0.56398356 4278255360
0.0024744775 0.014302021 0.56445003 4278255360
0.0026534665 0.01428334 0.56491655 4278255360
0.0028324556 0.014264661 0.56538302 4278255360
0.0030114446 0.014245981 0.56584954 4278255360
0.0031904327 0.014227301 0.56631601 4278255360
0.0033694217 0.014208621 0.56678247 4278255360
0.0035484107 0.014189942 0.567249 4278255360
0.0037273997 0.014171261 0.56771547 4278255360
0.0039063888 0.014152582 0.56818199 4278255360
0.0040853778 0.014133902 0.56864846 4278255360
0.0042643659 0.014115223 0.56911492 4278255360
0.0044433549 0.014096542 0.56958145 4278255360
0.0046223439 0.014077863 0.57004791 4278255360
0.0048013339 0.014059183 0.57051444 4278255360
0.004980322 0.014040503 0.57098091 4278255360
0.005159311 0.014021823 0.57144743 4278255360
0.0053383 0.014003144 0.5719139 4278255360
0.005517289 0.013984464 0.57238036 4278255360
0.0056962762 0.013965784 0.57284689 4278255360
0.0058752671 0.013947104 0.57331336 4278255360
0.0060542561 0.013928425 0.57377988 4278255360
0.0062332451 0.013909744 0.57424635 4278255360
0.0064122323 0.013891065 0.57471287 4278255360
0.0065912213 0.013872385 0.57517934 4278255360
0.0067702103 0.013853705 0.5756458 4278255360
0.0069491994 0.013835025 0.57611233 4278255360
0.0071281884 0.013816345 0.5765788 4278255360
0.0073071774 0.013797665 0.57704532 4278255360
0.0074861664 0.013778985 0.57751179 4278255360
