# .PCD v0.7 - Point Cloud Data file format
VERSION 0.7
FIELDS x y z rgb
SIZE 4 4 4 4
TYPE F F F U
COUNT 1 1 1 1
WIDTH 1019
HEIGHT 1
VIEWPOINT 0 0 0 1 0 0 0
POINTS 1019
DATA ascii
0.035561837 0.046700582 0.32100001 4281546271
0.042208303 0.050295163 0.324 4281743130
0.035056908 0.051664833 0.32600001 4282007597
0.035056908 0.052724041 0.32600001 4282140214
0.036004975 0.052562311 0.32500002 4281613870
0.037060574 0.052562311 0.32500002 4281087013
0.038116176 0.052562311 0.32500002 4281021220
0.039051246 0.052400582 0.324 4281217829
0.035056908 0.053783245 0.32600001 4281878327
0.036004975 0.053618267 0.32500002 4281943607
0.037060574 0.053618267 0.32500002 4281943605
0.038116176 0.053618267 0.32500002 4281746226
0.039051246 0.053453285 0.324 4281746226
0.040103596 0.053453285 0.324 4282074421
0.041155949 0.053453285 0.324 4284245581
0.031978156 0.055010688 0.32700002 4281680946
0.035056908 0.054842453 0.32600001 4281614644
0.037060574 0.054674231 0.32500002 4282075193
0.038116176 0.054674231 0.32500002 4281680433
0.039051246 0.054505996 0.324 4281812019
0.040103596 0.054505996 0.324 4281812019
0.041155949 0.054505996 0.324 4281811501
0.043260656 0.054505996 0.324 4281677862
0.030916061 0.05607314 0.32700002 4283785545
0.031978156 0.05607314 0.32700002 4281613870
0.032939211 0.055901662 0.32600001 4282074423
0.035056908 0.055901662 0.32600001 4284772704
0.037060574 0.055730186 0.32500002 4280562469
0.040103596 0.055558704 0.324 4281549360
0.041155949 0.055558704 0.324 4281943089
0.042208303 0.055558704 0.324 4281811503
0.043127138 0.055387229 0.32300001 4281810990
0.039051246 0.056611415 0.324 4281944636
0.042078033 0.056436691 0.32300001 4281745710
0.043127138 0.056436691 0.32300001 4281679917
0.04417624 0.056436691 0.32300001 4281877296
0.04508533 0.056261968 0.32200003 4281611817
0.041028924 0.057486154 0.32300001 4280233502
0.043127138 0.057486154 0.32300001 4281220136
0.044039473 0.057308178 0.32200003 4281285929
0.04508533 0.057308178 0.32200003 4281549101
0.046131186 0.057308178 0.32200003 4281482286
0.037881613 0.058535609 0.32300001 4285166433
0.038930718 0.058535609 0.32300001 4288656542
0.039979823 0.058535609 0.32300001 4281682230
0.041028924 0.058535609 0.32300001 4281811251
0.04508533 0.058354389 0.32200003 4281548847
0.046131186 0.058354389 0.32200003 4281614640
0.047177047 0.058354389 0.32200003 4281811249
0.046131186 0.059400603 0.32200003 4281878325
0.047177047 0.059400603 0.32200003 4281745710
0.048222899 0.059400603 0.32200003 4281614124
0.049268756 0.059400603 0.32200003 4282008115
0.036718477 0.06044681 0.32200003 4281943607
0.037764337 0.06044681 0.32200003 4281811251
0.03881019 0.06044681 0.32200003 4281680435
0.039856046 0.06044681 0.32200003 4281483056
0.04508533 0.06044681 0.32200003 4280100381
0.046131186 0.06044681 0.32200003 4280232221
0.048222899 0.06044681 0.32200003 4281942835
0.049268756 0.06044681 0.32200003 4281745710
0.050314616 0.06044681 0.32200003 4281285159
0.051360469 0.06044681 0.32200003 4281218599
0.035672624 0.061493024 0.32200003 4285761659
0.036718477 0.061493024 0.32200003 4281418038
0.040901903 0.061493024 0.32200003 4281615419
0.047323558 0.061683994 0.32300001 4281021222
0.049268756 0.061493024 0.32200003 4282140214
0.050314616 0.061493024 0.32200003 4281942835
0.051360469 0.061493024 0.32200003 4281811249
0.052406326 0.061493024 0.32200003 4281679663
0.034626763 0.062539235 0.32200003 4281812023
0.045225345 0.062733449 0.32300001 4279903002
0.048372656 0.062733449 0.32300001 4283785039
0.049268756 0.062539235 0.32200003 4284574555
0.051360469 0.062539235 0.32200003 4281811249
0.052406326 0.062539235 0.32200003 4281483056
0.030537883 0.063782915 0.32300001 4282207542
0.031586986 0.063782915 0.32300001 4282600754
0.04299362 0.063585445 0.32200003 4281483580
0.04627445 0.063782915 0.32300001 4280099868
0.049421765 0.063782915 0.32300001 4283654223
0.050314616 0.063585445 0.32200003 4284312153
0.051360469 0.063585445 0.32200003 4284574809
0.05328618 0.063387968 0.32100001 4281350698
0.02852772 0.065033086 0.324 4284839526
0.029488776 0.064832367 0.32300001 4285168489
0.030537883 0.064832367 0.32300001 4282469168
0.045225345 0.064832367 0.32300001 4281416495
0.046417713 0.065033086 0.324 4283917399
0.05047087 0.064832367 0.32300001 4283850832
0.051360469 0.064631656 0.32200003 4283983442
0.052406326 0.064631656 0.32200003 4284575579
0.05328618 0.06443093 0.32100001 4283718987
0.054328788 0.06443093 0.32100001 4282008367
0.051360469 0.065677866 0.32200003 4283720270
0.052406326 0.065677866 0.32200003 4283983442
0.043127138 0.066931292 0.32300001 4281023020
0.052406326 0.066724077 0.32200003 4283522891
0.042078033 0.067980751 0.32300001 4281746743
0.055371396 0.067559816 0.32100001 4281744943
0.044313006 0.069243923 0.324 4281284907
0.04656098 0.069457643 0.32500002 4283917649
0.047763094 0.069671355 0.32600001 4283721043
0.048821937 0.069671355 0.32600001 4284049494
0.054328788 0.068602778 0.32100001 4281613870
0.055371396 0.068602778 0.32100001 4281942324
0.048821937 0.070730567 0.32600001 4283917649
0.054498039 0.069862708 0.32200003 4281284909
0.055543896 0.069862708 0.32200003 4281416241
0.049880788 0.071789771 0.32600001 4284179799
0.054116182 0.071789771 0.32600001 4281284392
0.055175029 0.071789771 0.32600001 4281613872
0.042208303 0.072402053 0.324 4281877296
0.051252153 0.073295906 0.32800001 4283457359
0.05338284 0.073295906 0.32800001 4281350185
0.054448184 0.073295906 0.32800001 4281350185
0.052317493 0.074361615 0.32800001 4281548847
0.0533133 0.072437823 0.31500003 4281219112
0.051252153 0.076493025 0.32800001 4281350967
0.052290183 0.074484758 0.31500003 4280890149
0.0533133 0.074484758 0.31500003 4282206007
0.054336421 0.074484758 0.31500003 4282998855
0.055359542 0.074484758 0.31500003 4280697383
0.049220819 0.075508229 0.31500003 4283391566
0.052290183 0.075508229 0.31500003 4281088550
0.0533133 0.075508229 0.31500003 4281156138
0.054336421 0.075508229 0.31500003 4280238370
0.055359542 0.075508229 0.31500003 4280304676
0.049220819 0.076531693 0.31500003 4282931017
0.050243936 0.076531693 0.31500003 4281021224
0.051104303 0.07628873 0.31400001 4280758052
0.052124176 0.07628873 0.31400001 4280631079
0.0533133 0.076531693 0.31500003 4280304676
0.054336421 0.076531693 0.31500003 4279780897
0.055359542 0.076531693 0.31500003 4279977506
0.049220819 0.077555157 0.31500003 4281877046
0.050243936 0.077555157 0.31500003 4281284655
0.051104303 0.077308945 0.31400001 4280825639
0.052124176 0.077308945 0.31400001 4279779102
0.0533133 0.077555157 0.31500003 4279649313
0.054336421 0.077555157 0.31500003 4279649826
0.050084431 0.078329168 0.31400001 4280628774
0.051104303 0.078329168 0.31400001 4280302627
0.052124176 0.078329168 0.31400001 4279255838
0.0533133 0.078578629 0.31500003 4279255836
0.054336421 0.078578629 0.31500003 4278729494
0.050941553 0.079096682 0.31300002 4279779100
0.051958181 0.079096682 0.31300002 4279124763
0.049605917 0.079601742 0.31100002 4279976227
0.050778799 0.079857692 0.31200001 4279386139
0.051792175 0.079857692 0.31200001 4279124763
0.052636303 0.079601742 0.31100002 4279190556
0.048595794 0.08061222 0.31100002 4280630055
0.049605917 0.08061222 0.31100002 4279254555
0.050616048 0.08061222 0.31100002 4279453217
0.051626176 0.08061222 0.31100002 4279190558
0.052636303 0.08061222 0.31100002 4279256351
0.048595794 0.081622683 0.31100002 4281026096
0.049605917 0.081622683 0.31100002 4279517727
0.050616048 0.081622683 0.31100002 4279058972
0.051626176 0.081622683 0.31100002 4279190558
0.052636303 0.081622683 0.31100002 4279256351
0.04743265 0.08236745 0.31 4281355315
0.048439533 0.08236745 0.31 4281159731
0.049446411 0.08236745 0.31 4279190045
0.050616048 0.082633153 0.31100002 4279256349
0.051626176 0.082633153 0.31100002 4279058970
0.052636303 0.082633153 0.31100002 4279453728
0.04743265 0.083374672 0.31 4281619769
0.048439533 0.083374672 0.31 4280173090
0.049446411 0.083374672 0.31 4279321629
0.05045329 0.083374672 0.31 4279453728
0.051460173 0.083374672 0.31 4279256349
0.052467052 0.083374672 0.31 4279453728
0.04743265 0.084381893 0.31 4280699182
0.048439533 0.084381893 0.31 4280173606
0.049446411 0.084381893 0.31 4279058457
0.05045329 0.084381893 0.31 4279453726
0.051460173 0.084381893 0.31 4279585312
0.052467052 0.084381893 0.31 4279387935
0.044555277 0.08566457 0.31100002 4282929719
0.045565408 0.08566457 0.31100002 4281945654
0.046575531 0.08566457 0.31100002 4281816126
0.04743265 0.085389122 0.31 4280568879
0.048439533 0.085389122 0.31 4280897842
0.049446411 0.085389122 0.31 4279913766
0.05045329 0.085389122 0.31 4279322912
0.051460173 0.085389122 0.31 4280178221
0.052467052 0.085389122 0.31 4279257119
0.044555277 0.086675033 0.31100002 4282665007
0.045565408 0.086675033 0.31100002 4282079036
0.046575531 0.086675033 0.31100002 4280632622
0.04743265 0.086396337 0.31 4281160503
0.048439533 0.086396337 0.31 4281226294
0.049446411 0.086396337 0.31 4280177451
0.05045329 0.086396337 0.31 4278928668
0.051294174 0.08611764 0.30900002 4284124520
0.052297805 0.08611764 0.30900002 4280701229
0.053301439 0.08611764 0.30900002 4279715102
0.044555277 0.087685511 0.31100002 4282335267
0.045565408 0.087685511 0.31100002 4281223981
0.046575531 0.087685511 0.31100002 4281686077
0.04743265 0.087403558 0.31 4281884224
0.048439533 0.087403558 0.31 4281621052
0.049446411 0.087403558 0.31 4280702512
0.05029054 0.087121613 0.30900002 4279716639
0.051294174 0.087121613 0.30900002 4280043297
0.052297805 0.087121613 0.30900002 4286753671
0.053301439 0.087121613 0.30900002 4279649822
0.054305073 0.087121613 0.30900002 4279584799
0.055308707 0.087121613 0.30900002 4279977506
0.056312338 0.087121613 0.30900002 4280304161
0.04469854 0.088981174 0.31200001 4282334756
0.045565408 0.088695981 0.31100002 4281420847
0.046575531 0.088695981 0.31100002 4282015294
0.047585662 0.088695981 0.31100002 4282015040
0.048439533 0.08841078 0.31 4281883454
0.049446411 0.08841078 0.31 4281688124
0.05029054 0.088125587 0.30900002 4280767792
0.051294174 0.088125587 0.30900002 4280175907
0.052297805 0.088125587 0.30900002 4283926108
0.053301439 0.088125587 0.30900002 4279847205
0.054305073 0.088125587 0.30900002 4279519008
0.055129718 0.087840393 0.30800003 4279453217
0.056130096 0.087840393 0.30800003 4279780899
0.057130482 0.087840393 0.30800003 4280304163
0.04469854 0.0899949 0.31200001 4282004767
0.045711916 0.0899949 0.31200001 4282210363
0.046575531 0.089706458 0.31100002 4281817915
0.047585662 0.089706458 0.31100002 4282146880
0.048439533 0.089418001 0.31 4281883708
0.049446411 0.089418001 0.31 4281621306
0.05029054 0.08912956 0.30900002 4281621819
0.051294174 0.08912956 0.30900002 4280505903
0.052297805 0.08912956 0.30900002 4279782180
0.053301439 0.08912956 0.30900002 4281032247
0.054129332 0.088841125 0.30800003 4279980074
0.055129718 0.088841125 0.30800003 4279585316
0.056130096 0.088841125 0.30800003 4279256351
0.057130482 0.088841125 0.30800003 4279912996
0.058130872 0.088841125 0.30800003 4279912483
0.058939263 0.088552669 0.30700001 4280500004
0.045711916 0.091008611 0.31200001 4282210361
0.046575531 0.090716921 0.31100002 4282080572
0.047585662 0.090716921 0.31100002 4282147648
0.048439533 0.090425216 0.31 4282016062
0.049446411 0.090425216 0.31 4282081857
0.05029054 0.090133525 0.30900002 4281687099
0.051294174 0.090133525 0.30900002 4281358647
0.052297805 0.090133525 0.30900002 4281294138
0.053128943 0.089841835 0.30800003 4279651107
0.054129332 0.089841835 0.30800003 4279520291
0.055129718 0.089841835 0.30800003 4279455012
0.056130096 0.089841835 0.30800003 4279257119
0.057130482 0.089841835 0.30800003 4279387935
0.05794213 0.089550138 0.30700001 4279321629
0.058939263 0.089550138 0.30700001 4279912485
0.059936401 0.089550138 0.30700001 4280043301
0.049446411 0.091432445 0.31 4281950271
0.05045329 0.091432445 0.31 4281950271
0.051294174 0.091137506 0.30900002 4282542408
0.052297805 0.091137506 0.30900002 4281424440
0.053128943 0.090842567 0.30800003 4281162552
0.054129332 0.090842567 0.30800003 4279584801
0.055129718 0.090842567 0.30800003 4279717670
0.056130096 0.090842567 0.30800003 4279322912
0.056944992 0.090547614 0.30700001 4279059742
0.05794213 0.090547614 0.30700001 4279519523
0.058939263 0.090547614 0.30700001 4279585314
0.059741173 0.090252675 0.30600002 4279519521
0.060735062 0.090252675 0.30600002 4279913768
0.061728947 0.090252675 0.30600002 4280240166
0.062722839 0.090252675 0.30600002 4281878325
0.049446411 0.092439666 0.31 4281950271
0.05045329 0.092439666 0.31 4281884478
0.051294174 0.092141479 0.30900002 4281489720
0.052297805 0.092141479 0.30900002 4281292854
0.053128943 0.091843292 0.30800003 4281161782
0.054129332 0.091843292 0.30800003 4280833587
0.055129718 0.091843292 0.30800003 4280703282
0.055947855 0.09154509 0.30700001 4279585314
0.056944992 0.09154509 0.30700001 4279388705
0.05794213 0.09154509 0.30700001 4279454500
0.05874728 0.091246903 0.30600002 4279125531
0.059741173 0.091246903 0.30600002 4279257117
0.060735062 0.091246903 0.30600002 4279387933
0.061728947 0.091246903 0.30600002 4279716385
0.062722839 0.091246903 0.30600002 4280371750
0.047738668 0.094049774 0.31200001 4282342974
0.048752047 0.094049774 0.31200001 4281883706
0.049605917 0.093748339 0.31100002 4281950271
0.05045329 0.093446888 0.31 4281884478
0.051460173 0.093446888 0.31 4281621306
0.052297805 0.093145452 0.30900002 4281490233
0.053301439 0.093145452 0.30900002 4281358647
0.054129332 0.092844017 0.30800003 4281161268
0.055129718 0.092844017 0.30800003 4280898608
0.055947855 0.092542566 0.30700001 4280373034
0.056944992 0.092542566 0.30700001 4279584801
0.05794213 0.092542566 0.30700001 4279519519
0.05874728 0.092241131 0.30600002 4279257117
0.059741173 0.092241131 0.30600002 4279388703
0.060735062 0.092241131 0.30600002 4279322910
0.061527215 0.091939688 0.30500001 4279257117
0.062517859 0.091939688 0.30500001 4279453728
0.063508496 0.091939688 0.30500001 4279782180
0.06428767 0.091638245 0.30400002 4280632874
0.048752047 0.095063485 0.31200001 4282078775
0.049605917 0.094758801 0.31100002 4281948986
0.050616048 0.094758801 0.31100002 4281883193
0.051460173 0.094454102 0.31 4281620534
0.052467052 0.094454102 0.31 4281686329
0.053301439 0.094149418 0.30900002 4281358134
0.054129332 0.093844734 0.30800003 4281555513
0.055129718 0.093844734 0.30800003 4281358132
0.055947855 0.093540035 0.30700001 4281094960
0.056944992 0.093540035 0.30700001 4280569643
0.05794213 0.093540035 0.30700001 4280044582
0.05874728 0.093235351 0.30600002 4279584799
0.059741173 0.093235351 0.30600002 4279453726
0.060536578 0.092930652 0.30500001 4279585566
0.061527215 0.092930652 0.30500001 4279388957
0.062517859 0.092930652 0.30500001 4279059740
0.063300274 0.092625968 0.30400002 4279125533
0.06428767 0.092625968 0.30400002 4279519008
0.065275058 0.092625968 0.30400002 4279846438
0.049605917 0.095769271 0.31100002 4282210874
0.050616048 0.095769271 0.31100002 4282079288
0.051460173 0.095461331 0.31 4281751607
0.052467052 0.095461331 0.31 4281883193
0.053301439 0.095153391 0.30900002 4281751607
0.054305073 0.095153391 0.30900002 4281554741
0.055129718 0.094845459 0.30800003 4281291569
0.056130096 0.094845459 0.30800003 4281357362
0.056944992 0.094537511 0.30700001 4281357364
0.05794213 0.094537511 0.30700001 4280963374
0.05874728 0.094229579 0.30600002 4280438055
0.059741173 0.094229579 0.30600002 4279846688
0.060536578 0.093921632 0.30500001 4279452695
0.061527215 0.093921632 0.30500001 4279453467
0.062517859 0.093921632 0.30500001 4279257117
0.063300274 0.093613699 0.30400002 4279388703
0.06428767 0.093613699 0.30400002 4279519006
0.065275058 0.093613699 0.30400002 4279715617
0.06604448 0.093305752 0.303 4279845922
0.067028627 0.093305752 0.303 4280240166
0.051460173 0.096468553 0.31 4281685816
0.052467052 0.096468553 0.31 4281620536
0.053301439 0.096157365 0.30900002 4281555513
0.054305073 0.096157365 0.30900002 4281358134
0.055129718 0.095846184 0.30800003 4281620534
0.056130096 0.095846184 0.30800003 4281291569
0.056944992 0.095534988 0.30700001 4281554743
0.05794213 0.095534988 0.30700001 4281291571
0.05874728 0.095223807 0.30600002 4281029680
0.059741173 0.095223807 0.30600002 4281095473
0.060735062 0.095223807 0.30600002 4279912994
0.061527215 0.094912611 0.30500001 4279387933
0.062517859 0.094912611 0.30500001 4279388957
0.063300274 0.094601423 0.30400002 4279388957
0.06428767 0.094601423 0.30400002 4279453726
0.065060332 0.094290234 0.303 4279387933
0.06604448 0.094290234 0.303 4279451930
0.067028627 0.094290234 0.303 4279912483
0.068012767 0.094290234 0.303 4279976994
0.068996914 0.094290234 0.303 4280567848
0.052467052 0.097475775 0.31 4282210622
0.053301439 0.097161345 0.30900002 4281817148
0.054305073 0.097161345 0.30900002 4281488950
0.055308707 0.097161345 0.30900002 4281423927
0.056130096 0.096846908 0.30800003 4281358134
0.057130482 0.096846908 0.30800003 4281358134
0.05794213 0.096532464 0.30700001 4281423927
0.058939263 0.096532464 0.30700001 4281358647
0.059741173 0.096218035 0.30600002 4280437032
0.060735062 0.096218035 0.30600002 4280832301
0.061527215 0.09590359 0.30500001 4280438827
0.062517859 0.09590359 0.30500001 4279650592
0.063300274 0.095589153 0.30400002 4279453726
0.06428767 0.095589153 0.30400002 4279190554
0.065060332 0.095274709 0.303 4279716639
0.06604448 0.095274709 0.303 4279716639
0.067028627 0.095274709 0.303 4279519260
0.068012767 0.095274709 0.303 4279781408
0.068996914 0.095274709 0.303 4279781410
0.069981061 0.095274709 0.303 4280042787
0.054305073 0.098165318 0.30900002 4282144316
0.055308707 0.098165318 0.30900002 4281684792
0.056130096 0.097847633 0.30800003 4281685562
0.057130482 0.097847633 0.30800003 4281488950
0.058130872 0.097847633 0.30800003 4281358134
0.058939263 0.09752994 0.30700001 4280831020
0.059936401 0.09752994 0.30700001 4280632104
0.060735062 0.097212255 0.30600002 4280829483
0.061527215 0.09689457 0.30500001 4280172325
0.062517859 0.09689457 0.30500001 4280832301
0.063300274 0.096576884 0.30400002 4280307239
0.06428767 0.096576884 0.30400002 4279781408
0.065060332 0.096259192 0.303 4279452443
0.06604448 0.096259192 0.303 4279584801
0.067028627 0.096259192 0.303 4279651107
0.068012767 0.096259192 0.303 4279387935
0.068996914 0.096259192 0.303 4279453215
0.069981061 0.096259192 0.303 4279649824
0.070965201 0.096259192 0.303 4279715104
0.07171189 0.095941506 0.30200002 4280632106
0.072692789 0.095941506 0.30200002 4281879611
0.056312338 0.099169284 0.30900002 4281816378
0.057130482 0.09884835 0.30800003 4281685562
0.058130872 0.09884835 0.30800003 4280896046
0.05913125 0.09884835 0.30800003 4280761895
0.059936401 0.098527409 0.30700001 4280497440
0.060735062 0.098206475 0.30600002 4280763438
0.061728947 0.098206475 0.30600002 4281225524
0.062517859 0.097885534 0.30500001 4281095471
0.063300274 0.0975646 0.30400002 4280898092
0.06428767 0.0975646 0.30400002 4280701997
0.065060332 0.097243659 0.303 4280175653
0.06604448 0.097243659 0.303 4279584801
0.067028627 0.097243659 0.303 4279585314
0.068012767 0.097243659 0.303 4279322912
0.068996914 0.097243659 0.303 4279519521
0.0697501 0.096922733 0.30200002 4279519008
0.070730999 0.096922733 0.30200002 4279453215
0.07171189 0.096922733 0.30200002 4279715104
0.072692789 0.096922733 0.30200002 4280108326
0.05913125 0.099849075 0.30800003 4280892714
0.060933538 0.099524885 0.30700001 4281292602
0.061728947 0.099200703 0.30600002 4281095223
0.062517859 0.098876514 0.30500001 4281029682
0.063300274 0.098552331 0.30400002 4280963889
0.06428767 0.098552331 0.30400002 4281029680
0.065060332 0.098228142 0.303 4280898094
0.06604448 0.098228142 0.303 4280373034
0.067028627 0.098228142 0.303 4279715617
0.068012767 0.098228142 0.303 4279584801
0.068769202 0.097903959 0.30200002 4279584801
0.0697501 0.097903959 0.30200002 4279584801
0.070730999 0.097903959 0.30200002 4279519006
0.07171189 0.097903959 0.30200002 4279453213
0.072692789 0.097903959 0.30200002 4279715615
0.073673688 0.097903959 0.30200002 4280109094
0.074407384 0.097579777 0.30100003 4280437032
0.05913125 0.1008498 0.30800003 4280893481
0.060933538 0.10052236 0.30700001 4281357110
0.061728947 0.10019493 0.30600002 4281291317
0.06428767 0.099540062 0.30400002 4280302625
0.065275058 0.099540062 0.30400002 4281421874
0.06604448 0.099212624 0.303 4281029167
0.067028627 0.099212624 0.303 4280634922
0.068012767 0.099212624 0.303 4280109092
0.068769202 0.098885193 0.30200002 4279649822
0.0697501 0.098885193 0.30200002 4279453726
0.070730999 0.098885193 0.30200002 4279387935
0.07171189 0.098885193 0.30200002 4279387935
0.072692789 0.098885193 0.30200002 4279321629
0.073673688 0.098885193 0.30200002 4279649824
0.074407384 0.098557763 0.30100003 4279649313
0.075385034 0.098557763 0.30100003 4279845668
0.060933538 0.10151984 0.30700001 4281881911
0.061728947 0.10118916 0.30600002 4280367905
0.06604448 0.1001971 0.303 4281158188
0.067028627 0.1001971 0.303 4281093679
0.068012767 0.1001971 0.303 4281029682
0.068769202 0.09986642 0.30200002 4280372266
0.0697501 0.09986642 0.30200002 4280045352
0.070730999 0.09986642 0.30200002 4279519008
0.07171189 0.09986642 0.30200002 4279519006
0.072692789 0.09986642 0.30200002 4279651105
0.073429734 0.099535741 0.30100003 4279453213
0.074407384 0.099535741 0.30100003 4279321629
0.075385034 0.099535741 0.30100003 4279519010
0.076362684 0.099535741 0.30100003 4279912998
0.068012767 0.10118157 0.303 4281357110
0.068996914 0.10118157 0.303 4281029682
0.0697501 0.10084765 0.30200002 4280503852
0.070730999 0.10084765 0.30200002 4280438057
0.07171189 0.10084765 0.30200002 4279584029
0.072692789 0.10084765 0.30200002 4279716385
0.073429734 0.10051372 0.30100003 4279716900
0.074407384 0.10051372 0.30100003 4279585314
0.075385034 0.10051372 0.30100003 4279715617
0.076362684 0.10051372 0.30100003 4279519008
0.077340335 0.10051372 0.30100003 4279715619
0.079032183 0.10017978 0.30000001 4280960303
0.080006585 0.10017978 0.30000001 4282603847
0.068996914 0.10216605 0.303 4281354030
0.0697501 0.10182887 0.30200002 4280963122
0.070730999 0.10182887 0.30200002 4280963376
0.07171189 0.10182887 0.30200002 4280701227
0.072692789 0.10182887 0.30200002 4279715615
0.073429734 0.1014917 0.30100003 4279650592
0.074407384 0.1014917 0.30100003 4279650594
0.075385034 0.1014917 0.30100003 4279584801
0.076362684 0.1014917 0.30100003 4279584801
0.077340335 0.1014917 0.30100003 4279716387
0.078317977 0.1014917 0.30100003 4279715619
0.079032183 0.10115451 0.30000001 4279780899
0.080862641 0.09980578 0.296 4284706141
0.070730999 0.10281011 0.30200002 4281093425
0.07171189 0.10281011 0.30200002 4281094960
0.072692789 0.10281011 0.30200002 4280437541
0.073429734 0.10246968 0.30100003 4280175653
0.074407384 0.10246968 0.30100003 4279978274
0.075385034 0.10246968 0.30100003 4279584801
0.076362684 0.10246968 0.30100003 4279584799
0.077340335 0.10246968 0.30100003 4279453215
0.078057781 0.10212924 0.30000001 4279321629
0.079032183 0.10212924 0.30000001 4279584801
0.079739906 0.10178882 0.29900002 4279649824
0.080862641 0.10076752 0.296 4280699180
0.081547625 0.10042709 0.29500002 4281615155
0.066262454 0.10447869 0.30400002 4281879093
0.07171189 0.10379133 0.30200002 4280961071
0.072692789 0.10379133 0.30200002 4280897329
0.073673688 0.10379133 0.30200002 4280701229
0.074407384 0.10344766 0.30100003 4280307241
0.075385034 0.10344766 0.30100003 4279847205
0.076362684 0.10344766 0.30100003 4279781412
0.077340335 0.10344766 0.30100003 4279650596
0.078057781 0.10310397 0.30000001 4279584803
0.079032183 0.10310397 0.30000001 4279453215
0.079739906 0.1027603 0.29900002 4279321629
0.080441117 0.10241661 0.29800001 4279584031
0.081135832 0.10207294 0.29700002 4279781412
0.082505785 0.10138558 0.29500002 4281486647
0.073673688 0.10477257 0.30200002 4281620536
0.074654587 0.10477257 0.30200002 4280832301
0.075385034 0.10442565 0.30100003 4280372264
0.076362684 0.10442565 0.30100003 4280438055
0.077340335 0.10442565 0.30100003 4279649822
0.078057781 0.10407871 0.30000001 4279782178
0.079032183 0.10407871 0.30000001 4279585314
0.079739906 0.10373178 0.29900002 4279322912
0.080441117 0.10338485 0.29800001 4279387937
0.081135832 0.10303792 0.29700002 4279321631
0.081824049 0.10269099 0.296 4279780899
0.082785465 0.10269099 0.296 4279845922
0.084135927 0.10199713 0.294 4281091891
0.067249849 0.10645415 0.30400002 4284115028
0.069224633 0.10645415 0.30400002 4281680433
0.074654587 0.10575379 0.30200002 4281026864
0.075635478 0.10575379 0.30200002 4281094192
0.076362684 0.10540362 0.30100003 4280896811
0.077340335 0.10540362 0.30100003 4280963885
0.079032183 0.10505343 0.30000001 4279256349
0.079739906 0.10470325 0.29900002 4279388705
0.080441117 0.10435308 0.29800001 4279519523
0.081135832 0.1040029 0.29700002 4279519521
0.082100488 0.1040029 0.29700002 4279321629
0.082785465 0.10365272 0.296 4279649824
0.083463944 0.10330255 0.29500002 4279912485
0.085090838 0.10295236 0.294 4281420345
0.076362684 0.1063816 0.30100003 4281421622
0.077340335 0.1063816 0.30100003 4281358134
0.078057781 0.10602816 0.30000001 4280634924
0.079739906 0.10567474 0.29900002 4279584803
0.080441117 0.10532131 0.29800001 4279782182
0.081409015 0.10532131 0.29800001 4279650596
0.082100488 0.10496788 0.29700002 4279256349
0.082785465 0.10461445 0.296 4279387933
0.083746873 0.10461445 0.296 4279519006
0.084422112 0.10426103 0.29500002 4279912994
0.085090838 0.1039076 0.294 4279845668
0.086704746 0.10355417 0.29300001 4281090606
0.071949348 0.10807292 0.303 4281680687
0.076616377 0.10771625 0.30200002 4281421368
0.077340335 0.10735958 0.30100003 4280896559
0.078057781 0.1070029 0.30000001 4280963122
0.079032183 0.1070029 0.30000001 4280832303
0.080441117 0.10628954 0.29800001 4279912483
0.081409015 0.10628954 0.29800001 4279781410
0.082100488 0.10593287 0.29700002 4279519008
0.083065145 0.10593287 0.29700002 4279584799
0.083746873 0.10557619 0.296 4279585312
0.084708281 0.10557619 0.296 4279519006
0.085380271 0.10521952 0.29500002 4279321629
0.086045742 0.10486283 0.294 4279584803
0.087656409 0.10450616 0.29300001 4281091630
0.074901782 0.1090574 0.303 4281286706
0.075635478 0.10869748 0.30200002 4281683513
0.076616377 0.10869748 0.30200002 4281159220
0.077340335 0.10833756 0.30100003 4281093427
0.078057781 0.10797763 0.30000001 4280632876
0.079032183 0.10797763 0.30000001 4281093679
0.079739906 0.10761771 0.29900002 4281159470
0.080441117 0.10725778 0.29800001 4281094190
0.082100488 0.10689785 0.29700002 4279649824
0.083065145 0.10689785 0.29700002 4279453215
0.083746873 0.10653792 0.296 4279584801
0.084708281 0.10653792 0.296 4279716387
0.085669689 0.10653792 0.296 4279190043
0.086338423 0.10617801 0.29500002 4279321629
0.087000661 0.10581807 0.294 4279649311
0.089254081 0.10509823 0.29200003 4280762926
0.072933495 0.11004187 0.303 4284115028
0.073917635 0.11004187 0.303 4281287472
0.074901782 0.11004187 0.303 4281287985
0.075635478 0.1096787 0.30200002 4280959790
0.076616377 0.1096787 0.30200002 4281091889
0.077340335 0.10931554 0.30100003 4280894764
0.078317977 0.10931554 0.30100003 4281092143
0.079032183 0.10895235 0.30000001 4281091628
0.079739906 0.10858919 0.29900002 4281223468
0.080441117 0.108226 0.29800001 4281092655
0.081409015 0.108226 0.29800001 4281291058
0.084029801 0.10786283 0.29700002 4279846692
0.084708281 0.10749965 0.296 4279912483
0.085669689 0.10749965 0.296 4279649824
0.086338423 0.10713648 0.29500002 4279715617
0.087296583 0.10713648 0.29500002 4279649311
0.087955572 0.1067733 0.294 4279517725
0.088608071 0.10641013 0.29300001 4279911199
0.059514988 0.088339925 0.3088448 4294967295
0.059514988 0.088339925 0.3088448 4294901760
0.059867654 0.08799772 0.30875248 4294901760
0.06022032 0.087655514 0.30866015 4294901760
0.060572986 0.087313317 0.30856785 4294901760
0.060925651 0.086971112 0.30847552 4294901760
0.061278317 0.086628906 0.3083832 4294901760
0.061630983 0.086286701 0.30829087 4294901760
0.061983652 0.085944504 0.30819854 4294901760
0.062336318 0.085602298 0.30810624 4294901760
0.062688984 0.085260093 0.30801392 4294901760
0.06304165 0.084917888 0.30792159 4294901760
0.063394316 0.084575683 0.30782926 4294901760
0.063746981 0.084233485 0.30773693 4294901760
0.064099647 0.08389128 0.30764461 4294901760
0.064452313 0.083549075 0.30755231 4294901760
0.064804979 0.08320687 0.30745998 4294901760
0.065157644 0.082864664 0.30736765 4294901760
0.06551031 0.082522467 0.30727533 4294901760
0.065862976 0.082180262 0.307183 4294901760
0.066215642 0.081838056 0.3070907 4294901760
0.066568308 0.081495851 0.30699837 4294901760
0.066920973 0.081153654 0.30690604 4294901760
0.067273639 0.080811448 0.30681372 4294901760
0.067626305 0.080469243 0.30672139 4294901760
0.067978971 0.080127038 0.30662909 4294901760
0.068331636 0.079784833 0.30653676 4294901760
0.068684302 0.079442635 0.30644444 4294901760
0.069036976 0.07910043 0.30635211 4294901760
0.069389641 0.078758225 0.30625978 4294901760
0.069742307 0.07841602 0.30616748 4294901760
0.070094973 0.078073815 0.30607516 4294901760
0.070447639 0.077731617 0.30598283 4294901760
0.070800304 0.077389412 0.3058905 4294901760
0.07115297 0.077047206 0.30579817 4294901760
0.071505636 0.076705001 0.30570585 4294901760
0.071858302 0.076362804 0.30561355 4294901760
0.072210968 0.076020598 0.30552122 4294901760
0.072563633 0.075678393 0.30542889 4294901760
0.072916299 0.075336188 0.30533656 4294901760
0.073268965 0.074993983 0.30524424 4294901760
0.073621631 0.074651785 0.30515194 4294901760
0.073974296 0.07430958 0.30505961 4294901760
0.074326962 0.073967375 0.30496728 4294901760
0.074679628 0.07362517 0.30487496 4294901760
0.075032294 0.073282972 0.30478263 4294901760
0.07538496 0.072940767 0.30469033 4294901760
0.075737625 0.072598562 0.304598 4294901760
0.076090291 0.072256356 0.30450568 4294901760
0.076442957 0.071914151 0.30441335 4294901760
0.076795623 0.071571946 0.30432102 4294901760
0.077148288 0.071229748 0.30422872 4294901760
0.077500954 0.070887543 0.3041364 4294901760
0.07785362 0.070545338 0.30404407 4294901760
0.078206286 0.07020314 0.30395174 4294901760
0.078558952 0.069860935 0.30385941 4294901760
0.078911617 0.06951873 0.30376709 4294901760
0.079264283 0.069176525 0.30367479 4294901760
0.079616949 0.06883432 0.30358246 4294901760
0.079969615 0.068492115 0.30349013 4294901760
0.080322281 0.068149917 0.3033978 4294901760
0.080674954 0.067807712 0.30330548 4294901760
0.08102762 0.067465506 0.30321318 4294901760
0.081380285 0.067123301 0.30312085 4294901760
0.081732951 0.066781104 0.30302852 4294901760
0.082085617 0.066438898 0.3029362 4294901760
0.082438283 0.066096693 0.30284387 4294901760
0.082790948 0.065754488 0.30275157 4294901760
0.083143614 0.065412283 0.30265924 4294901760
0.08349628 0.065070078 0.30256692 4294901760
0.083848946 0.06472788 0.30247459 4294901760
0.084201612 0.064385675 0.30238226 4294901760
0.084554277 0.06404347 0.30228996 4294901760
0.084906943 0.063701265 0.30219764 4294901760
0.085259609 0.063359067 0.30210531 4294901760
0.085612275 0.063016862 0.30201298 4294901760
0.08596494 0.062674657 0.30192065 4294901760
0.086317606 0.062332455 0.30182832 4294901760
0.086670272 0.061990254 0.30173603 4294901760
0.087022938 0.061648048 0.3016437 4294901760
0.087375604 0.061305843 0.30155137 4294901760
0.087728269 0.060963638 0.30145904 4294901760
0.088080935 0.060621437 0.30136672 4294901760
0.088433601 0.060279235 0.30127442 4294901760
0.088786267 0.05993703 0.30118209 4294901760
0.089138933 0.059594825 0.30108976 4294901760
0.089491606 0.05925262 0.30099744 4294901760
0.089844272 0.058910418 0.30090511 4294901760
0.090196937 0.058568217 0.30081281 4294901760
0.090549603 0.058226012 0.30072048 4294901760
0.090902269 0.057883807 0.30062816 4294901760
0.091254935 0.057541605 0.30053583 4294901760
0.0916076 0.0571994 0.3004435 4294901760
0.091960266 0.056857195 0.30035117 4294901760
0.092312932 0.056514993 0.30025887 4294901760
0.092665598 0.056172788 0.30016655 4294901760
0.093018264 0.055830587 0.30007422 4294901760
0.093370929 0.055488382 0.29998189 4294901760
0.093723595 0.055146176 0.29988956 4294901760
0.094076261 0.054803975 0.29979727 4294901760
0.094428927 0.05446177 0.29970494 4294901760
0.094781592 0.054119568 0.29961261 4294901760
0.059514988 0.088339925 0.3088448 4278255360
0.059808467 0.088694885 0.3086502 4278255360
0.060101949 0.089049838 0.30845559 4278255360
0.060395427 0.089404799 0.30826098 4278255360
0.060688909 0.089759752 0.30806634 4278255360
0.060982388 0.090114713 0.30787173 4278255360
0.06127587 0.090469666 0.30767712 4278255360
0.061569348 0.090824626 0.30748251 4278255360
0.06186283 0.091179587 0.3072879 4278255360
0.062156308 0.09153454 0.30709329 4278255360
0.062449791 0.091889501 0.30689865 4278255360
0.062743269 0.092244454 0.30670404 4278255360
0.063036747 0.092599414 0.30650944 4278255360
0.063330233 0.092954367 0.30631483 4278255360
0.063623711 0.093309328 0.30612022 4278255360
0.06391719 0.093664289 0.30592561 4278255360
0.064210668 0.094019242 0.30573097 4278255360
0.064504154 0.094374202 0.30553636 4278255360
0.064797632 0.094729155 0.30534175 4278255360
0.065091111 0.095084116 0.30514714 4278255360
0.065384589 0.095439076 0.30495253 4278255360
0.065678075 0.09579403 0.30475792 4278255360
0.065971553 0.09614899 0.30456328 4278255360
0.066265032 0.096503943 0.30436867 4278255360
0.06655851 0.096858904 0.30417407 4278255360
0.066851996 0.097213864 0.30397946 4278255360
0.067145474 0.097568817 0.30378485 4278255360
0.067438953 0.097923778 0.30359024 4278255360
0.067732431 0.098278731 0.30339563 4278255360
0.068025917 0.098633692 0.30320099 4278255360
0.068319395 0.098988652 0.30300638 4278255360
0.068612874 0.099343605 0.30281177 4278255360
0.068906352 0.099698558 0.30261716 4278255360
0.069199838 0.10005352 0.30242255 4278255360
0.069493316 0.10040848 0.30222794 4278255360
0.069786794 0.10076343 0.30203331 4278255360
0.070080273 0.10111839 0.3018387 4278255360
0.070373759 0.10147335 0.30164409 4278255360
0.070667237 0.10182831 0.30144948 4278255360
0.070960715 0.10218327 0.30125487 4278255360
0.071254194 0.10253822 0.30106026 4278255360
0.071547672 0.10289318 0.30086562 4278255360
0.071841158 0.10324813 0.30067101 4278255360
0.072134636 0.10360309 0.3004764 4278255360
0.072428115 0.10395806 0.30028179 4278255360
0.072721601 0.10431301 0.30008718 4278255360
0.073015079 0.10466797 0.29989257 4278255360
0.073308557 0.10502292 0.29969794 4278255360
0.073602036 0.10537788 0.29950333 4278255360
0.073895514 0.10573284 0.29930872 4278255360
0.074189 0.1060878 0.29911411 4278255360
0.074482478 0.10644275 0.2989195 4278255360
0.074775957 0.10679771 0.29872489 4278255360
0.075069435 0.10715267 0.29853028 4278255360
0.075362921 0.10750763 0.29833564 4278255360
0.075656399 0.10786258 0.29814103 4278255360
0.075949878 0.10821754 0.29794642 4278255360
0.076243356 0.1085725 0.29775181 4278255360
0.076536842 0.10892746 0.2975572 4278255360
0.07683032 0.10928241 0.2973626 4278255360
0.077123798 0.10963737 0.29716796 4278255360
0.077417284 0.10999233 0.29697335 4278255360
0.077710763 0.11034729 0.29677874 4278255360
0.078004241 0.11070225 0.29658413 4278255360
0.078297719 0.1110572 0.29638952 4278255360
0.078591198 0.11141215 0.29619491 4278255360
0.078884684 0.11176711 0.29600027 4278255360
0.079178162 0.11212207 0.29580566 4278255360
0.07947164 0.11247703 0.29561105 4278255360
0.079765126 0.11283199 0.29541644 4278255360
0.080058604 0.11318694 0.29522184 4278255360
0.080352083 0.1135419 0.29502723 4278255360
0.080645561 0.11389686 0.29483259 4278255360
0.08093904 0.11425182 0.29463798 4278255360
0.081232525 0.11460678 0.29444337 4278255360
0.081526004 0.11496173 0.29424876 4278255360
0.081819482 0.11531669 0.29405415 4278255360
0.082112961 0.11567165 0.29385954 4278255360
0.082406446 0.1160266 0.29366493 4278255360
0.082699925 0.11638156 0.29347029 4278255360
0.082993403 0.11673652 0.29327568 4278255360
0.083286881 0.11709148 0.29308107 4278255360
0.08358036 0.11744644 0.29288647 4278255360
0.083873846 0.11780139 0.29269186 4278255360
0.084167324 0.11815634 0.29249725 4278255360
0.08446081 0.1185113 0.29230261 4278255360
0.084754288 0.11886626 0.292108 4278255360
0.085047767 0.11922123 0.29191339 4278255360
0.085341245 0.11957618 0.29171878 4278255360
0.085634723 0.11993113 0.29152417 4278255360
0.085928202 0.12028609 0.29132956 4278255360
0.086221687 0.12064105 0.29113492 4278255360
0.086515166 0.12099601 0.29094031 4278255360
0.086808644 0.12135097 0.29074571 4278255360
0.08710213 0.12170592 0.2905511 4278255360
0.087395608 0.12206088 0.29035649 4278255360
0.087689087 0.12241584 0.29016188 4278255360
0.087982565 0.1227708 0.28996724 4278255360
0.088276044 0.12312575 0.28977263 4278255360
0.088569529 0.12348071 0.28957802 4278255360
0.088863008 0.12383567 0.28938341 4278255360
0.059514988 0.088339925 0.3088448 4278190335
0.059669819 0.088371508 0.30931917 4278190335
0.059824649 0.088403091 0.30979356 4278190335
0.05997948 0.088434681 0.31026793 4278190335
0.06013431 0.088466264 0.31074229 4278190335
0.060289141 0.088497847 0.31121668 4278190335
0.060443968 0.08852943 0.31169105 4278190335
0.060598798 0.088561013 0.31216541 4278190335
0.060753629 0.088592596 0.3126398 4278190335
0.060908459 0.088624187 0.31311417 4278190335
0.06106329 0.08865577 0.31358853 4278190335
0.06121812 0.088687353 0.31406292 4278190335
0.061372951 0.088718936 0.31453729 4278190335
0.061527781 0.088750519 0.31501165 4278190335
0.061682612 0.088782102 0.31548604 4278190335
0.061837442 0.088813692 0.31596041 4278190335
0.061992273 0.088845275 0.31643477 4278190335
0.062147103 0.088876858 0.31690916 4278190335
0.06230193 0.088908441 0.31738353 4278190335
0.062456761 0.088940024 0.31785789 4278190335
0.062611595 0.088971607 0.31833228 4278190335
0.062766425 0.089003198 0.31880665 4278190335
0.062921256 0.089034781 0.31928101 4278190335
0.063076079 0.089066364 0.31975541 4278190335
0.063230909 0.089097947 0.32022977 4278190335
0.06338574 0.08912953 0.32070413 4278190335
0.06354057 0.089161113 0.32117853 4278190335
0.063695401 0.089192703 0.32165289 4278190335
0.063850231 0.089224286 0.32212725 4278190335
0.064005062 0.089255869 0.32260165 4278190335
0.064159892 0.089287452 0.32307601 4278190335
0.064314723 0.089319035 0.32355037 4278190335
0.064469554 0.089350618 0.32402477 4278190335
0.064624384 0.089382209 0.32449913 4278190335
0.064779215 0.089413792 0.32497349 4278190335
0.064934045 0.089445375 0.32544789 4278190335
0.065088876 0.089476958 0.32592225 4278190335
0.065243706 0.089508541 0.32639661 4278190335
0.065398537 0.089540124 0.32687101 4278190335
0.065553367 0.089571714 0.32734537 4278190335
0.065708198 0.089603297 0.32781973 4278190335
0.065863028 0.08963488 0.3282941 4278190335
0.066017859 0.089666463 0.32876849 4278190335
0.066172689 0.089698046 0.32924286 4278190335
0.066327512 0.089729629 0.32971722 4278190335
0.066482343 0.08976122 0.33019161 4278190335
0.066637173 0.089792803 0.33066598 4278190335
0.066792004 0.089824386 0.33114034 4278190335
0.066946834 0.089855969 0.33161473 4278190335
0.067101665 0.089887552 0.3320891 4278190335
0.067256495 0.089919135 0.33256346 4278190335
0.067411326 0.089950725 0.33303785 4278190335
0.067566156 0.089982308 0.33351222 4278190335
0.067720987 0.090013891 0.33398658 4278190335
0.067875817 0.090045474 0.33446097 4278190335
0.068030648 0.090077057 0.33493534 4278190335
0.068185478 0.090108648 0.3354097 4278190335
0.068340309 0.090140231 0.33588409 4278190335
0.068495139 0.090171814 0.33635846 4278190335
0.06864997 0.090203397 0.33683282 4278190335
0.068804801 0.09023498 0.33730721 4278190335
0.068959631 0.090266563 0.33778158 4278190335
0.069114462 0.090298153 0.33825594 4278190335
0.069269292 0.090329736 0.33873034 4278190335
0.069424123 0.090361319 0.3392047 4278190335
0.069578946 0.090392902 0.33967906 4278190335
0.069733784 0.090424486 0.34015346 4278190335
0.069888607 0.090456069 0.34062782 4278190335
0.070043445 0.090487659 0.34110218 4278190335
0.070198268 0.090519242 0.34157658 4278190335
0.070353098 0.090550825 0.34205094 4278190335
0.070507929 0.090582408 0.3425253 4278190335
0.070662759 0.090613991 0.3429997 4278190335
0.07081759 0.090645574 0.34347406 4278190335
0.07097242 0.090677164 0.34394842 4278190335
0.071127251 0.090708748 0.34442282 4278190335
0.071282081 0.090740331 0.34489718 4278190335
0.071436912 0.090771914 0.34537154 4278190335
0.071591742 0.090803497 0.34584594 4278190335
0.071746573 0.09083508 0.3463203 4278190335
0.071901403 0.09086667 0.34679466 4278190335
0.072056234 0.090898253 0.34726906 4278190335
0.072211064 0.090929836 0.34774342 4278190335
0.072365895 0.090961419 0.34821779 4278190335
0.072520725 0.090993002 0.34869218 4278190335
0.072675556 0.091024585 0.34916654 4278190335
0.072830386 0.091056176 0.34964091 4278190335
0.072985217 0.091087759 0.3501153 4278190335
0.07314004 0.091119342 0.35058966 4278190335
0.073294878 0.091150925 0.35106403 4278190335
0.073449701 0.091182508 0.35153842 4278190335
0.073604539 0.091214091 0.35201278 4278190335
0.073759362 0.091245681 0.35248715 4278190335
0.073914193 0.091277264 0.35296154 4278190335
0.074069023 0.091308847 0.3534359 4278190335
0.074223854 0.09134043 0.35391027 4278190335
0.074378684 0.091372013 0.35438466 4278190335
0.074533515 0.091403604 0.35485902 4278190335
0.074688345 0.091435187 0.35533339 4278190335
0.074843176 0.09146677 0.35580778 4278190335
0.074998006 0.091498353 0.35628214 4278190335
0.059514988 0.088339925 0.3088448 4294967295
0.058586009 0.088150419 0.30599856 4294967295
0.057657026 0.087960914 0.30315232 4294967295
0.056728046 0.087771408 0.30030608 4294967295
0.055799063 0.087581903 0.29745984 4294967295
0.054870084 0.087392397 0.2946136 4294967295
0.053941101 0.087202892 0.29176736 4294967295
0.053012121 0.087013386 0.28892112 4294967295
0.052083142 0.086823881 0.28607488 4294967295
0.051154159 0.086634375 0.28322864 4294967295
0.050225176 0.08644487 0.28038239 4294967295
0.049296197 0.086255364 0.27753615 4294967295
0.048367217 0.086065859 0.27468991 4294967295
0.047438234 0.085876353 0.27184367 4294967295
0.046509255 0.085686848 0.26899743 4294967295
0.045580272 0.085497342 0.26615119 4294967295
0.044651292 0.085307837 0.26330495 4294967295
0.043722309 0.085118331 0.26045871 4294967295
0.04279333 0.084928825 0.25761247 4294967295
0.04186435 0.08473932 0.25476626 4294967295
0.040935367 0.084549814 0.25192001 4294967295
0.040006388 0.084360309 0.24907377 4294967295
0.039077409 0.084170803 0.24622753 4294967295
0.038148426 0.083981298 0.24338129 4294967295
0.037219442 0.083791792 0.24053505 4294967295
0.036290463 0.083602287 0.23768881 4294967295
0.035361484 0.083412781 0.23484257 4294967295
0.034432501 0.083223276 0.23199633 4294967295
0.033503518 0.08303377 0.22915009 4294967295
0.032574542 0.082844265 0.22630385 4294967295
0.031645559 0.082654759 0.2234576 4294967295
0.030716578 0.082465254 0.22061136 4294967295
0.029787596 0.082275748 0.21776512 4294967295
0.028858613 0.082086243 0.21491888 4294967295
0.027929634 0.081896737 0.21207264 4294967295
0.027000654 0.081707232 0.2092264 4294967295
0.026071671 0.081517726 0.20638016 4294967295
0.025142692 0.081328221 0.20353392 4294967295
0.024213709 0.081138715 0.20068768 4294967295
0.02328473 0.08094921 0.19784144 4294967295
0.022355746 0.080759704 0.19499519 4294967295
0.021426767 0.080570199 0.19214895 4294967295
0.020497788 0.080380693 0.18930273 4294967295
0.019568805 0.080191188 0.18645647 4294967295
0.018639825 0.080001682 0.18361025 4294967295
0.017710842 0.079812177 0.180764 4294967295
0.016781863 0.079622671 0.17791776 4294967295
0.01585288 0.079433165 0.17507152 4294967295
0.0149239 0.07924366 0.17222528 4294967295
0.013994917 0.079054154 0.16937904 4294967295
0.013065938 0.078864649 0.1665328 4294967295
0.012136959 0.078675143 0.16368656 4294967295
0.011207979 0.078485638 0.16084032 4294967295
0.010278996 0.078296132 0.15799409 4294967295
0.009350013 0.078106627 0.15514784 4294967295
0.0084210336 0.077917121 0.15230159 4294967295
0.0074920505 0.077727616 0.14945535 4294967295
0.0065630712 0.07753811 0.14660913 4294967295
0.0056340918 0.077348605 0.14376289 4294967295
0.0047051124 0.077159099 0.14091665 4294967295
0.0037761256 0.076969594 0.13807039 4294967295
0.0028471462 0.076780088 0.13522415 4294967295
0.0019181669 0.076590583 0.13237792 4294967295
0.00098918378 0.076401077 0.12953168 4294967295
6.0204417e-05 0.076211572 0.12668544 4294967295
-0.00086877495 0.076022066 0.1238392 4294967295
-0.0017977618 0.075832561 0.12099294 4294967295
-0.0027267411 0.075643055 0.11814672 4294967295
-0.0036557205 0.07545355 0.11530048 4294967295
-0.0045847036 0.075264044 0.11245424 4294967295
-0.0055136792 0.075074539 0.10960799 4294967295
-0.0064426623 0.074885033 0.10676177 4294967295
-0.0073716454 0.074695528 0.10391551 4294967295
-0.0083006285 0.074506022 0.10106927 4294967295
-0.0092296042 0.074316517 0.098223031 4294967295
-0.010158587 0.074127011 0.09537679 4294967295
-0.01108757 0.073937505 0.092530563 4294967295
-0.012016546 0.073748 0.089684322 4294967295
-0.012945529 0.073558494 0.086838081 4294967295
-0.013874512 0.073368989 0.083991826 4294967295
-0.014803495 0.073179483 0.081145599 4294967295
-0.015732471 0.072989978 0.078299358 4294967295
-0.016661454 0.072800472 0.075453117 4294967295
-0.017590437 0.072610967 0.072606876 4294967295
-0.018519413 0.072421461 0.06976065 4294967295
-0.019448396 0.072231956 0.066914394 4294967295
-0.020377379 0.07204245 0.064068154 4294967295
-0.021306362 0.071852945 0.061221913 4294967295
-0.022235338 0.071663439 0.058375686 4294967295
-0.023164321 0.071473934 0.055529445 4294967295
-0.024093304 0.071284428 0.052683204 4294967295
-0.025022287 0.071094923 0.049836934 4294967295
-0.025951263 0.070905417 0.046990722 4294967295
-0.026880246 0.070715912 0.044144481 4294967295
-0.027809229 0.070526406 0.04129824 4294967295
-0.028738204 0.070336901 0.038451999 4294967295
-0.029667187 0.070147395 0.035605758 4294967295
-0.030596171 0.06995789 0.032759517 4294967295
-0.031525154 0.069768384 0.029913276 4294967295
-0.032454129 0.069578879 0.027067035 4294967295
-0.033383112 0.069389373 0.024220794 4294967295
