# .PCD v0.7 - Point Cloud Data file format
VERSION 0.7
FIELDS x y z rgb
SIZE 4 4 4 4
TYPE F F F U
COUNT 1 1 1 1
WIDTH 1066
HEIGHT 1
VIEWPOINT 0 0 0 1 0 0 0
POINTS 1066
DATA ascii
0.10015789 0.061598495 0.30200002 4284685074
0.054356135 0.059678674 0.28800002 4282261268
0.054907586 0.059264239 0.28600001 4283438864
0.055836517 0.059264239 0.28600001 4283242768
0.05835329 0.060921974 0.294 4285030997
0.059711657 0.061336413 0.296 4284969317
0.060878046 0.061543632 0.29700002 4284708458
0.062050927 0.061750848 0.29800001 4284708971
0.063018829 0.061750848 0.29800001 4284840559
0.064201459 0.061958067 0.29900002 4285103731
0.065390579 0.062165283 0.30000001 4280823593
0.066364981 0.062165283 0.30000001 4278716677
0.067339376 0.062165283 0.30000001 4280495139
0.068313777 0.062165283 0.30000001 4280692518
0.069288179 0.062165283 0.30000001 4278981389
0.070262581 0.062165283 0.30000001 4281416243
0.071236983 0.062165283 0.30000001 4278454528
0.072211385 0.062165283 0.30000001 4278782468
0.073185779 0.062165283 0.30000001 4278848263
0.074407384 0.062372506 0.30100003 4278848263
0.075385034 0.062372506 0.30100003 4278454273
0.076362684 0.062372506 0.30100003 4279375375
0.077340335 0.062372506 0.30100003 4279901203
0.078317977 0.062372506 0.30100003 4279178250
0.079295628 0.062372506 0.30100003 4279046410
0.080273278 0.062372506 0.30100003 4280099868
0.080980986 0.062165283 0.30000001 4285365872
0.081955381 0.062165283 0.30000001 4285497458
0.082929783 0.062165283 0.30000001 4285366388
0.083904184 0.062165283 0.30000001 4285563251
0.084878586 0.062165283 0.30000001 4285629044
0.085852988 0.062165283 0.30000001 4285629044
0.08682739 0.062165283 0.30000001 4285562224
0.088094465 0.062372506 0.30100003 4282266926
0.089072116 0.062372506 0.30100003 4283831571
0.090049759 0.062372506 0.30100003 4283700239
0.091027409 0.062372506 0.30100003 4283765771
0.092005059 0.062372506 0.30100003 4283831564
0.092982709 0.062372506 0.30100003 4284028173
0.09396036 0.062372506 0.30100003 4284028173
0.094938003 0.062372506 0.30100003 4284619281
0.095915653 0.062372506 0.30100003 4284815890
0.096893303 0.062372506 0.30100003 4285275928
0.098196104 0.062579721 0.30200002 4285210135
0.099176995 0.062579721 0.30200002 4284815890
0.10015789 0.062579721 0.30200002 4284356368
0.053235218 0.060403947 0.287 4280096270
0.054356135 0.060614418 0.28800002 4281999640
0.054907586 0.060193483 0.28600001 4283373841
0.055836517 0.060193483 0.28600001 4283504657
0.059711657 0.062298149 0.296 4284639067
0.060878046 0.06250862 0.29700002 4284839274
0.062050927 0.062719084 0.29800001 4285102446
0.063018829 0.062719084 0.29800001 4285037423
0.064201459 0.062929556 0.29900002 4285169009
0.065390579 0.06314002 0.30000001 4285562999
0.066364981 0.06314002 0.30000001 4280299045
0.067339376 0.06314002 0.30000001 4278980101
0.068313777 0.06314002 0.30000001 4279572756
0.069288179 0.06314002 0.30000001 4281218349
0.07049679 0.063350484 0.30100003 4280034075
0.07147444 0.063350484 0.30100003 4278585861
0.072452091 0.063350484 0.30100003 4278914056
0.073429734 0.063350484 0.30100003 4282270267
0.074407384 0.063350484 0.30100003 4282271037
0.075385034 0.063350484 0.30100003 4278454273
0.076616377 0.063560948 0.30200002 4281612337
0.077597275 0.063560948 0.30200002 4280033559
0.078578167 0.063560948 0.30200002 4278915078
0.079295628 0.063350484 0.30100003 4280298530
0.080273278 0.063350484 0.30100003 4286023548
0.081250928 0.063350484 0.30100003 4285629042
0.082228571 0.063350484 0.30100003 4285694321
0.083206221 0.063350484 0.30100003 4285694321
0.083904184 0.06314002 0.30000001 4285760114
0.084878586 0.06314002 0.30000001 4285694321
0.086139172 0.063350484 0.30100003 4285496942
0.087116823 0.063350484 0.30100003 4286150509
0.088094465 0.063350484 0.30100003 4282719254
0.089072116 0.063350484 0.30100003 4283897103
0.090049759 0.063350484 0.30100003 4283962126
0.091027409 0.063350484 0.30100003 4283830794
0.092005059 0.063350484 0.30100003 4284093966
0.092982709 0.063350484 0.30100003 4284093966
0.09396036 0.063350484 0.30100003 4284158989
0.094938003 0.063350484 0.30100003 4284487695
0.095915653 0.063350484 0.30100003 4284553486
0.096893303 0.063350484 0.30100003 4284618509
0.097870953 0.063350484 0.30100003 4285079060
0.099176995 0.063560948 0.30200002 4284685331
0.10015789 0.063560948 0.30200002 4283962896
0.050097574 0.063259885 0.296 4283111182
0.051058982 0.063259885 0.296 4283176975
0.05202039 0.063259885 0.296 4281010949
0.052981801 0.063259885 0.296 4279373830
0.053943206 0.063259885 0.296 4279373832
0.059711657 0.063259885 0.296 4284964175
0.060878046 0.063473605 0.29700002 4284576102
0.062050927 0.063687317 0.29800001 4284905067
0.063018829 0.063687317 0.29800001 4285037423
0.064201459 0.063901037 0.29900002 4285366388
0.065390579 0.064114749 0.30000001 4285169009
0.066364981 0.064114749 0.30000001 4285169009
0.067339376 0.064114749 0.30000001 4283587410
0.068313777 0.064114749 0.30000001 4278651652
0.069519147 0.064328469 0.30100003 4279835156
0.07049679 0.064328469 0.30100003 4280955177
0.07147444 0.064328469 0.30100003 4279177998
0.072692789 0.064542182 0.30200002 4279243019
0.073673688 0.064542182 0.30200002 4281350189
0.074654587 0.064542182 0.30200002 4281744693
0.075635478 0.064542182 0.30200002 4279045642
0.076616377 0.064542182 0.30200002 4278716675
0.077597275 0.064542182 0.30200002 4278782211
0.078578167 0.064542182 0.30200002 4280293138
0.079559065 0.064542182 0.30200002 4285956728
0.080539964 0.064542182 0.30200002 4285366388
0.081250928 0.064328469 0.30100003 4285366388
0.082228571 0.064328469 0.30100003 4285366388
0.083206221 0.064328469 0.30100003 4285694837
0.084183872 0.064328469 0.30100003 4285694323
0.085161522 0.064328469 0.30100003 4285628530
0.086139172 0.064328469 0.30100003 4286154359
0.087116823 0.064328469 0.30100003 4283309592
0.088094465 0.064328469 0.30100003 4284160788
0.089072116 0.064328469 0.30100003 4284158989
0.090049759 0.064328469 0.30100003 4284158989
0.091027409 0.064328469 0.30100003 4284224525
0.092005059 0.064328469 0.30100003 4284356368
0.092982709 0.064328469 0.30100003 4284093966
0.09396036 0.064328469 0.30100003 4283962380
0.094938003 0.064328469 0.30100003 4284093966
0.095915653 0.064328469 0.30100003 4284028171
0.096893303 0.064328469 0.30100003 4284158987
0.097870953 0.064328469 0.30100003 4284422159
0.099176995 0.064542182 0.30200002 4284291345
0.10015789 0.064542182 0.30200002 4284029202
0.048174758 0.064221613 0.296 4281607710
0.049136166 0.064221613 0.296 4282850836
0.050097574 0.064221613 0.296 4283176975
0.051058982 0.064221613 0.296 4283766802
0.05202039 0.064221613 0.296 4283439380
0.052981801 0.064221613 0.296 4280421640
0.053943206 0.064221613 0.296 4279963657
0.054904617 0.064221613 0.296 4280096270
0.05454487 0.062702864 0.289 4280686862
0.069519147 0.065306447 0.30100003 4282930252
0.070730999 0.065523408 0.30200002 4278585861
0.07171189 0.065523408 0.30200002 4278913797
0.072692789 0.065523408 0.30200002 4279044613
0.073673688 0.065523408 0.30200002 4279044613
0.074901782 0.065740369 0.303 4279109893
0.075885922 0.065740369 0.303 4279437575
0.076870069 0.065740369 0.303 4280619534
0.077854216 0.065740369 0.303 4282457111
0.078838356 0.065740369 0.303 4282850586
0.079559065 0.065523408 0.30200002 4285097821
0.080539964 0.065523408 0.30200002 4285694323
0.081520863 0.065523408 0.30200002 4285366388
0.082501754 0.065523408 0.30200002 4285234802
0.083482653 0.065523408 0.30200002 4285562997
0.084183872 0.065306447 0.30100003 4285562997
0.085161522 0.065306447 0.30100003 4285693808
0.086139172 0.065306447 0.30100003 4282858801
0.087116823 0.065306447 0.30100003 4284094484
0.088094465 0.065306447 0.30100003 4284158989
0.08936803 0.065523408 0.30200002 4284027403
0.090348929 0.065523408 0.30200002 4284422161
0.091329828 0.065523408 0.30200002 4284356368
0.092310719 0.065523408 0.30200002 4284224782
0.093291618 0.065523408 0.30200002 4283963150
0.094272517 0.065523408 0.30200002 4283897616
0.095253408 0.065523408 0.30200002 4283635214
0.096234307 0.065523408 0.30200002 4283766800
0.097215205 0.065523408 0.30200002 4283898386
0.098196104 0.065523408 0.30200002 4283964179
0.099176995 0.065523408 0.30200002 4283635727
0.047372855 0.065403573 0.29700002 4279439625
0.048174758 0.065183349 0.296 4281607197
0.049136166 0.065183349 0.296 4282784530
0.050097574 0.065183349 0.296 4283373841
0.051058982 0.065183349 0.296 4283898388
0.05202039 0.065183349 0.296 4284029204
0.052981801 0.065183349 0.296 4284160790
0.053943206 0.065183349 0.296 4284228380
0.054904617 0.065183349 0.296 4283638042
0.055866025 0.065183349 0.296 4283505686
0.070730999 0.066504642 0.30200002 4283127113
0.071949348 0.066724852 0.303 4280355847
0.072933495 0.066724852 0.303 4281274636
0.073917635 0.066724852 0.303 4281667082
0.074901782 0.066724852 0.303 4282192910
0.075885922 0.066724852 0.303 4282980627
0.076870069 0.066724852 0.303 4283374102
0.077854216 0.066724852 0.303 4283701784
0.078838356 0.066724852 0.303 4283570196
0.079822503 0.066724852 0.303 4283712827
0.08080665 0.066724852 0.303 4285693040
0.081520863 0.066504642 0.30200002 4285497204
0.082501754 0.066504642 0.30200002 4285365618
0.083482653 0.066504642 0.30200002 4285562997
0.084463552 0.066504642 0.30200002 4285694837
0.085444443 0.066504642 0.30200002 4284236602
0.086425342 0.066504642 0.30200002 4283768599
0.08740624 0.066504642 0.30200002 4284422161
0.088387132 0.066504642 0.30200002 4284422159
0.08936803 0.066504642 0.30200002 4284290316
0.090348929 0.066504642 0.30200002 4284224523
0.091329828 0.066504642 0.30200002 4284224780
0.092310719 0.066504642 0.30200002 4284158987
0.093291618 0.066504642 0.30200002 4283635214
0.094272517 0.066504642 0.30200002 4283176462
0.095253408 0.066504642 0.30200002 4283111952
0.096234307 0.066504642 0.30200002 4283111952
0.097215205 0.066504642 0.30200002 4283374354
0.098196104 0.066504642 0.30200002 4283505940
0.099176995 0.066504642 0.30200002 4283179288
0.047372855 0.06636855 0.29700002 4279242246
0.048174758 0.066145085 0.296 4282068002
0.049136166 0.066145085 0.296 4283046932
0.050097574 0.066145085 0.296 4283439634
0.051058982 0.066145085 0.296 4284030487
0.05202039 0.066145085 0.296 4284161560
0.052981801 0.066145085 0.296 4284292115
0.053943206 0.066145085 0.296 4284488724
0.054904617 0.066145085 0.296 4285079062
0.055677291 0.065921627 0.29500002 4285145627
0.056635451 0.065921627 0.29500002 4285476902
0.05759361 0.065921627 0.29500002 4284094736
0.070730999 0.067485869 0.30200002 4285957495
0.071949348 0.067709327 0.303 4281470982
0.072933495 0.067709327 0.303 4283045905
0.073917635 0.067709327 0.303 4283307278
0.075148985 0.067932792 0.30400002 4283109899
0.076136373 0.067932792 0.30400002 4283437837
0.076870069 0.067709327 0.303 4283898388
0.077854216 0.067709327 0.303 4284095767
0.078838356 0.067709327 0.303 4283964181
0.079822503 0.067709327 0.303 4282327572
0.08080665 0.067709327 0.303 4285888364
0.081790797 0.067709327 0.303 4285496944
0.082774937 0.067709327 0.303 4285694321
0.083482653 0.067485869 0.30200002 4285758318
0.084463552 0.067485869 0.30200002 4283449653
0.085444443 0.067485869 0.30200002 4284291863
0.086425342 0.067485869 0.30200002 4284421904
0.08740624 0.067485869 0.30200002 4284618511
0.088387132 0.067485869 0.30200002 4284421900
0.089663945 0.067709327 0.303 4284421900
0.090648092 0.067709327 0.303 4284487693
0.09163224 0.067709327 0.303 4284158987
0.092616387 0.067709327 0.303 4283569675
0.093600526 0.067709327 0.303 4282914319
0.094272517 0.067485869 0.30200002 4282651662
0.095253408 0.067485869 0.30200002 4282783762
0.096234307 0.067485869 0.30200002 4282849555
0.097215205 0.067485869 0.30200002 4283244313
0.098196104 0.067485869 0.30200002 4282588436
0.047372855 0.067333534 0.29700002 4279241731
0.048337512 0.067333534 0.29700002 4281936414
0.049302168 0.067333534 0.29700002 4283310358
0.050097574 0.067106821 0.296 4283637013
0.051058982 0.067106821 0.296 4284293657
0.05202039 0.067106821 0.296 4284227351
0.052981801 0.067106821 0.296 4284422929
0.053943206 0.067106821 0.296 4284619538
0.054904617 0.067106821 0.296 4285144340
0.055677291 0.066880114 0.29500002 4289159255
0.056635451 0.066880114 0.29500002 4285478183
0.05759361 0.066880114 0.29500002 4284882705
0.05835329 0.066653393 0.294 4284948244
0.072186805 0.068920523 0.30400002 4281931281
0.073174201 0.068920523 0.30400002 4283242255
0.074161589 0.068920523 0.30400002 4283700237
0.075148985 0.068920523 0.30400002 4283437065
0.076136373 0.068920523 0.30400002 4283699724
0.077123769 0.068920523 0.30400002 4283831823
0.078111164 0.068920523 0.30400002 4284095765
0.078838356 0.068693802 0.303 4284161558
0.079822503 0.068693802 0.303 4283112465
0.08080665 0.068693802 0.303 4287201653
0.081790797 0.068693802 0.303 4285496429
0.082774937 0.068693802 0.303 4286350453
0.083759077 0.068693802 0.303 4283639839
0.084743224 0.068693802 0.303 4284292376
0.085727371 0.068693802 0.303 4284487954
0.086711518 0.068693802 0.303 4284552718
0.087695666 0.068693802 0.303 4284618511
0.088679798 0.068693802 0.303 4284618509
0.089663945 0.068693802 0.303 4284487693
0.090648092 0.068693802 0.303 4284290314
0.09163224 0.068693802 0.303 4283438602
0.092616387 0.068693802 0.303 4282651401
0.093600526 0.068693802 0.303 4282523156
0.094584674 0.068693802 0.303 4283642153
0.095568813 0.068693802 0.303 4283052582
0.096234307 0.068467095 0.30200002 4283382317
0.097215205 0.068467095 0.30200002 4284900179
0.047372855 0.068298519 0.29700002 4280097040
0.048337512 0.068298519 0.29700002 4281936414
0.049302168 0.068298519 0.29700002 4283310104
0.050266825 0.068298519 0.29700002 4283572503
0.051231481 0.068298519 0.29700002 4283833620
0.05202039 0.068068549 0.296 4284030739
0.052981801 0.068068549 0.296 4284291343
0.053943206 0.068068549 0.296 4284291343
0.054719131 0.067838594 0.29500002 4284815375
0.055677291 0.067838594 0.29500002 4285472789
0.056635451 0.067838594 0.29500002 4287119415
0.05759361 0.067838594 0.29500002 4285210646
0.05835329 0.067608625 0.294 4284881422
0.059308197 0.067608625 0.294 4284749582
0.060263112 0.067608625 0.294 4284422927
0.072186805 0.069908246 0.30400002 4284237634
0.073174201 0.069908246 0.30400002 4283111700
0.074161589 0.069908246 0.30400002 4283766030
0.075148985 0.069908246 0.30400002 4283633931
0.076136373 0.069908246 0.30400002 4283765517
0.077123769 0.069908246 0.30400002 4283831310
0.078111164 0.069908246 0.30400002 4284490007
0.078838356 0.069678284 0.303 4284555800
0.079822503 0.069678284 0.303 4284752664
0.08080665 0.069678284 0.303 4287124555
0.081790797 0.069678284 0.303 4285945424
0.082774937 0.069678284 0.303 4283111700
0.083759077 0.069678284 0.303 4284357654
0.084743224 0.069678284 0.303 4284619283
0.085727371 0.069678284 0.303 4284553488
0.086711518 0.069678284 0.303 4284618511
0.087695666 0.069678284 0.303 4284618511
0.088679798 0.069678284 0.303 4284619281
0.089959875 0.069908246 0.30400002 4284487695
0.090947263 0.069908246 0.30400002 4284158987
0.091934659 0.069908246 0.30400002 4282256902
0.092922054 0.069908246 0.30400002 4282061322
0.09390945 0.069908246 0.30400002 4281341710
0.095568813 0.069678284 0.303 4285824622
0.096234307 0.069448322 0.30200002 4285890669
0.047372855 0.069263503 0.29700002 4279966737
0.048337512 0.069263503 0.29700002 4281936414
0.049302168 0.069263503 0.29700002 4282983194
0.050266825 0.069263503 0.29700002 4283245081
0.051231481 0.069263503 0.29700002 4283506708
0.052196138 0.069263503 0.29700002 4283571218
0.052981801 0.069030285 0.296 4283766030
0.053943206 0.069030285 0.296 4284225298
0.054719131 0.068797082 0.29500002 4284683791
0.055677291 0.068797082 0.29500002 4285077777
0.056635451 0.068797082 0.29500002 4284815890
0.057398375 0.068563864 0.294 4289817953
0.05835329 0.068563864 0.294 4284224003
0.059308197 0.068563864 0.294 4284815629
0.060058139 0.06833066 0.29300001 4284487693
0.061009806 0.06833066 0.29300001 4284487695
0.074161589 0.070895977 0.30400002 4284556316
0.075148985 0.070895977 0.30400002 4284291861
0.076136373 0.070895977 0.30400002 4284093712
0.077123769 0.070895977 0.30400002 4284487954
0.078111164 0.070895977 0.30400002 4284685333
0.078838356 0.070662759 0.303 4284685333
0.079822503 0.070662759 0.303 4284685074
0.08080665 0.070662759 0.303 4284750097
0.081790797 0.070662759 0.303 4284882455
0.082774937 0.070662759 0.303 4284750869
0.083759077 0.070662759 0.303 4284619281
0.084743224 0.070662759 0.303 4284881683
0.085727371 0.070662759 0.303 4284881683
0.086711518 0.070662759 0.303 4284881683
0.087985091 0.070895977 0.30400002 4284750867
0.088972479 0.070895977 0.30400002 4284553488
0.089959875 0.070895977 0.30400002 4284094736
0.090947263 0.070895977 0.30400002 4283372555
0.091934659 0.070895977 0.30400002 4282258186
0.092922054 0.070895977 0.30400002 4283710512
0.09390945 0.070895977 0.30400002 4286153074
0.094896838 0.070895977 0.30400002 4285693038
0.095568813 0.070662759 0.303 4285891187
0.047532357 0.070464939 0.29800001 4279769363
0.048500262 0.070464939 0.29800001 4281344538
0.049468167 0.070464939 0.29800001 4282523670
0.050266825 0.07022848 0.29700002 4282852121
0.051231481 0.07022848 0.29700002 4283178772
0.052196138 0.07022848 0.29700002 4283374352
0.052981801 0.069992021 0.296 4283766030
0.053943206 0.069992021 0.296 4283962380
0.054719131 0.069755562 0.29500002 4284618511
0.055677291 0.069755562 0.29500002 4284684304
0.056635451 0.069755562 0.29500002 4284750095
0.057398375 0.069519103 0.294 4284751896
0.05835329 0.069519103 0.294 4283632386
0.059308197 0.069519103 0.294 4284684304
0.060058139 0.069282643 0.29300001 4284421902
0.061009806 0.069282643 0.29300001 4284290318
0.075148985 0.071883701 0.30400002 4284553493
0.076136373 0.071883701 0.30400002 4284553236
0.077123769 0.071883701 0.30400002 4284750099
0.078111164 0.071883701 0.30400002 4284815890
0.078838356 0.071647234 0.303 4284750097
0.079822503 0.071647234 0.303 4284750095
0.08080665 0.071647234 0.303 4284881168
0.081790797 0.071647234 0.303 4285013267
0.082774937 0.071647234 0.303 4284881681
0.083759077 0.071647234 0.303 4285013267
0.085022911 0.071883701 0.30400002 4285079060
0.086010307 0.071883701 0.30400002 4285013267
0.086997695 0.071883701 0.30400002 4284881681
0.087985091 0.071883701 0.30400002 4284487695
0.088972479 0.071883701 0.30400002 4284225552
0.089959875 0.071883701 0.30400002 4282847497
0.091246434 0.07212016 0.30500001 4282322182
0.09223707 0.07212016 0.30500001 4285688925
0.093227714 0.07212016 0.30500001 4285692523
0.09390945 0.071883701 0.30400002 4285693808
0.094896838 0.071883701 0.30400002 4285956980
0.047532357 0.071433172 0.29800001 4279572754
0.048500262 0.071433172 0.29800001 4280951579
0.049468167 0.071433172 0.29800001 4282327576
0.050436068 0.071433172 0.29800001 4282721051
0.051231481 0.071193472 0.29700002 4282850836
0.052196138 0.071193472 0.29700002 4283046932
0.053160798 0.071193472 0.29700002 4283438348
0.053943206 0.070953757 0.296 4283635214
0.054904617 0.070953757 0.296 4284093966
0.055677291 0.070714049 0.29500002 4284093966
0.056635451 0.070714049 0.29500002 4284423701
0.057398375 0.070474342 0.294 4284226835
0.05835329 0.070474342 0.294 4284093966
0.059308197 0.070474342 0.294 4284224528
0.060058139 0.070234634 0.29300001 4284093196
0.061009806 0.070234634 0.29300001 4283830794
0.061961472 0.070234634 0.29300001 4284160529
0.077123769 0.072871432 0.30400002 4284881170
0.078111164 0.072871432 0.30400002 4284881170
0.078838356 0.072631717 0.303 4284815377
0.079822503 0.072631717 0.303 4284881168
0.08080665 0.072631717 0.303 4284881168
0.081790797 0.072631717 0.303 4285078801
0.082774937 0.072631717 0.303 4285145107
0.084035516 0.072871432 0.30400002 4284619538
0.085022911 0.072871432 0.30400002 4285079830
0.086010307 0.072871432 0.30400002 4284948244
0.086997695 0.072871432 0.30400002 4284422157
0.087985091 0.072871432 0.30400002 4283767054
0.088972479 0.072871432 0.30400002 4282979083
0.090255789 0.073111132 0.30500001 4282062605
0.091246434 0.073111132 0.30500001 4286937967
0.09223707 0.073111132 0.30500001 4285890419
0.093227714 0.073111132 0.30500001 4285759603
0.094218358 0.073111132 0.30500001 4285891187
0.047691863 0.072644368 0.29900002 4279573524
0.048663016 0.072644368 0.29900002 4279835410
0.049468167 0.072401412 0.29800001 4281803545
0.050436068 0.072401412 0.29800001 4282460191
0.051403977 0.072401412 0.29800001 4282524440
0.052196138 0.072158456 0.29700002 4282654227
0.053160798 0.072158456 0.29700002 4282782987
0.053943206 0.071915492 0.296 4283242255
0.054904617 0.071915492 0.296 4283569934
0.055677291 0.071672536 0.29500002 4283635214
0.056635451 0.071672536 0.29500002 4284029972
0.057398375 0.071429573 0.294 4283766800
0.05835329 0.071429573 0.294 4283831823
0.059308197 0.071429573 0.294 4283963150
0.060058139 0.071186624 0.29300001 4283897870
0.061009806 0.071186624 0.29300001 4283504141
0.061961472 0.071186624 0.29300001 4282323979
0.078111164 0.073859155 0.30400002 4285209363
0.078578167 0.073373243 0.30200002 4285144340
0.079559065 0.073373243 0.30200002 4284946961
0.08080665 0.073616199 0.303 4285144340
0.081790797 0.073616199 0.303 4284619536
0.08304812 0.073859155 0.30400002 4289955187
0.084035516 0.073859155 0.30400002 4290808713
0.085022911 0.073859155 0.30400002 4283699726
0.086010307 0.073859155 0.30400002 4284029456
0.087283872 0.074102111 0.30500001 4283176462
0.088274516 0.074102111 0.30500001 4282389002
0.089265145 0.074102111 0.30500001 4282456850
0.090255789 0.074102111 0.30500001 4286678132
0.091246434 0.074102111 0.30500001 4285889902
0.09223707 0.074102111 0.30500001 4285825142
0.093227714 0.074102111 0.30500001 4285825655
0.047691863 0.073615849 0.29900002 4279441938
0.048663016 0.073615849 0.29900002 4279572754
0.04963417 0.073615849 0.29900002 4280424720
0.050605319 0.073615849 0.29900002 4282922541
0.051403977 0.073369637 0.29800001 4282394652
0.052371882 0.073369637 0.29800001 4282524440
0.053160798 0.073123433 0.29700002 4282587151
0.054125451 0.073123433 0.29700002 4282783760
0.054904617 0.072877221 0.296 4283046159
0.055866025 0.072877221 0.296 4283176975
0.056635451 0.072631024 0.29500002 4283373841
0.05759361 0.072631024 0.29500002 4283898901
0.05835329 0.072384812 0.294 4283898386
0.059308197 0.072384812 0.294 4284160788
0.060263112 0.072384812 0.294 4283374352
0.061218027 0.072384812 0.294 4285089599
0.062172942 0.072384812 0.294 4285889904
0.075855285 0.073615849 0.29900002 4285209363
0.076826438 0.073615849 0.29900002 4285340179
0.078317977 0.074108265 0.30100003 4285340949
0.079559065 0.07435447 0.30200002 4285341719
0.080539964 0.07435447 0.30200002 4285407512
0.081790797 0.074600674 0.303 4284948244
0.082774937 0.074600674 0.303 4284224778
0.084035516 0.074846886 0.30400002 4283569682
0.085022911 0.074846886 0.30400002 4283505688
0.086293228 0.075093083 0.30500001 4282061324
0.087283872 0.075093083 0.30500001 4282192910
0.088274516 0.075093083 0.30500001 4281737492
0.090255789 0.075093083 0.30500001 4285824624
0.047851365 0.074836783 0.30000001 4279639830
0.048825767 0.074836783 0.30000001 4279836950
0.049800169 0.074836783 0.30000001 4279836180
0.050605319 0.07458733 0.29900002 4280229909
0.051576477 0.07458733 0.29900002 4281146128
0.052371882 0.07433787 0.29800001 4282329629
0.053339787 0.07433787 0.29800001 4282063121
0.054125451 0.074088417 0.29700002 4282062092
0.055090107 0.074088417 0.29700002 4282455567
0.055866025 0.073838957 0.296 4282586383
0.056827433 0.073838957 0.296 4282980625
0.05759361 0.073589511 0.29500002 4283243284
0.05835329 0.073340051 0.294 4283637272
0.059308197 0.073340051 0.294 4283572762
0.060263112 0.073340051 0.294 4283378463
0.061218027 0.073340051 0.294 4287001194
0.062172942 0.073340051 0.294 4285233772
0.075855285 0.07458733 0.29900002 4285078801
0.077083379 0.074836783 0.30000001 4285011984
0.078317977 0.075086243 0.30100003 4284685329
0.079295628 0.075086243 0.30100003 4285276180
0.080539964 0.075335696 0.30200002 4285209617
0.081790797 0.075585149 0.303 4285078801
0.082774937 0.075585149 0.303 4284553486
0.084035516 0.07583461 0.30400002 4283964694
0.085022911 0.07583461 0.30400002 4282192397
0.086293228 0.076084062 0.30500001 4281733388
0.087283872 0.076084062 0.30500001 4282656541
0.089265145 0.076084062 0.30500001 4285956210
0.090255789 0.076084062 0.30500001 4285891187
0.091246434 0.076084062 0.30500001 4286022773
0.048010875 0.076064222 0.30100003 4279179279
0.048988525 0.076064222 0.30100003 4279244559
0.049800169 0.075811513 0.30000001 4279244559
0.050774567 0.075811513 0.30000001 4279506961
0.051748969 0.075811513 0.30000001 4279965967
0.05254763 0.075558811 0.29900002 4280491026
0.053339787 0.075306103 0.29800001 4281475095
0.054307688 0.075306103 0.29800001 4281737238
0.055090107 0.075053401 0.29700002 4281931535
0.056054767 0.075053401 0.29700002 4282194193
0.056827433 0.074800692 0.296 4282522645
0.05759361 0.074547991 0.29500002 4282456852
0.05835329 0.074295282 0.294 4282655256
0.059308197 0.074295282 0.294 4284168495
0.060263112 0.074295282 0.294 4281931021
0.061218027 0.074295282 0.294 4281536523
0.062172942 0.074295282 0.294 4281474843
0.074160181 0.075811513 0.30000001 4284029202
0.075134575 0.075811513 0.30000001 4284291343
0.075855285 0.075558811 0.29900002 4284619536
0.077083379 0.075811513 0.30000001 4284552718
0.078057781 0.075811513 0.30000001 4287910728
0.079295628 0.076064222 0.30100003 4288636249
0.080539964 0.076316923 0.30200002 4285079060
0.081520863 0.076316923 0.30200002 4284947215
0.082774937 0.076569624 0.303 4284553486
0.084035516 0.076822333 0.30400002 4283898899
0.085022911 0.076822333 0.30400002 4283771427
0.086010307 0.076822333 0.30400002 4281671961
0.087283872 0.077075042 0.30500001 4286480242
0.088274516 0.077075042 0.30500001 4285890417
0.089265145 0.077075042 0.30500001 4285956210
0.090255789 0.077075042 0.30500001 4285956982
0.048170377 0.077298157 0.30200002 4279310865
0.048988525 0.077042207 0.30100003 4279376658
0.049966175 0.077042207 0.30100003 4279244559
0.050943818 0.077042207 0.30100003 4279244559
0.051748969 0.07678625 0.30000001 4279506961
0.05272337 0.07678625 0.30000001 4279770133
0.053518783 0.076530293 0.29900002 4280032530
0.054307688 0.076274335 0.29800001 4280031247
0.055275593 0.076274335 0.29800001 4280818194
0.056054767 0.076018386 0.29700002 4281803806
0.05701942 0.076018386 0.29700002 4284240202
0.057788841 0.075762428 0.296 4285491296
0.058750253 0.075762428 0.296 4284174661
0.059711657 0.075762428 0.296 4282068515
0.060673065 0.075762428 0.296 4281868056
0.061634477 0.075762428 0.296 4282326811
0.062595889 0.075762428 0.296 4281866260
0.074160181 0.07678625 0.30000001 4283176721
0.075134575 0.07678625 0.30000001 4283569934
0.076108977 0.07678625 0.30000001 4284160527
0.077083379 0.07678625 0.30000001 4284619281
0.078057781 0.07678625 0.30000001 4284618511
0.079295628 0.077042207 0.30100003 4288896349
0.080273278 0.077042207 0.30100003 4285078297
0.081520863 0.077298157 0.30200002 4285013267
0.082774937 0.077554107 0.303 4284685072
0.083759077 0.077554107 0.303 4283831823
0.085022911 0.077810064 0.30400002 4284100392
0.086010307 0.077810064 0.30400002 4286218099
0.086997695 0.077810064 0.30400002 4285956210
0.088274516 0.078066014 0.30500001 4286022003
0.048170377 0.078279383 0.30200002 4279376145
0.049151275 0.078279383 0.30200002 4279376147
0.05013217 0.078279383 0.30200002 4279441940
0.050943818 0.078020185 0.30100003 4279441940
0.051921468 0.078020185 0.30100003 4279244561
0.052899119 0.078020185 0.30100003 4279704340
0.053697772 0.07776098 0.30000001 4279704340
0.054489933 0.077501781 0.29900002 4279573008
0.055461086 0.077501781 0.29900002 4279835410
0.056243502 0.077242576 0.29800001 4280822048
0.057211403 0.077242576 0.29800001 4283651402
0.058179308 0.077242576 0.29800001 4284639837
0.059147213 0.077242576 0.29800001 4284838501
0.060115114 0.077242576 0.29800001 4285167979
0.061083019 0.077242576 0.29800001 4285496944
0.062050927 0.077242576 0.29800001 4285760116
0.063018829 0.077242576 0.29800001 4285888107
0.072452091 0.078020185 0.30100003 4281277462
0.073429734 0.078020185 0.30100003 4282260498
0.074160181 0.07776098 0.30000001 4282586381
0.075134575 0.07776098 0.30000001 4283635727
0.076108977 0.07776098 0.30000001 4284095249
0.077083379 0.07776098 0.30000001 4284553745
0.078057781 0.07776098 0.30000001 4284685074
0.079295628 0.078020185 0.30100003 4285013269
0.080273278 0.078020185 0.30100003 4285144855
0.081520863 0.078279383 0.30200002 4285079832
0.082501754 0.078279383 0.30200002 4284487952
0.083759077 0.078538589 0.303 4283898640
0.084743224 0.078538589 0.303 4285220158
0.086010307 0.078797795 0.30400002 4285891187
0.086997695 0.078797795 0.30400002 4285956980
0.047345739 0.079523057 0.303 4279376658
0.048329879 0.079523057 0.303 4279376658
0.049151275 0.07926061 0.30200002 4279376145
0.05013217 0.07926061 0.30200002 4279244559
0.051113065 0.07926061 0.30200002 4279244559
0.052093964 0.07926061 0.30200002 4279244561
0.052899119 0.078998163 0.30100003 4279507733
0.053876769 0.078998163 0.30100003 4279376145
0.054489933 0.078473255 0.29900002 4279376145
0.055461086 0.078473255 0.29900002 4279441938
0.056243502 0.078210801 0.29800001 4280559133
0.057211403 0.078210801 0.29800001 4283061066
0.058179308 0.078210801 0.29800001 4284509282
0.059147213 0.078210801 0.29800001 4284839274
0.060115114 0.078210801 0.29800001 4285037423
0.061083019 0.078210801 0.29800001 4285103216
0.062050927 0.078210801 0.29800001 4285169009
0.063018829 0.078210801 0.29800001 4285497204
0.072452091 0.078998163 0.30100003 4282260246
0.073429734 0.078998163 0.30100003 4282456848
0.074160181 0.078735702 0.30000001 4282784014
0.075134575 0.078735702 0.30000001 4283438862
0.076108977 0.078735702 0.30000001 4283701261
0.077083379 0.078735702 0.30000001 4284225552
0.078317977 0.078998163 0.30100003 4284357138
0.079295628 0.078998163 0.30100003 4284422159
0.080273278 0.078998163 0.30100003 4284422159
0.081250928 0.078998163 0.30100003 4284619538
0.082501754 0.07926061 0.30200002 4284093964
0.083482653 0.07926061 0.30200002 4283439632
0.084743224 0.079523057 0.303 4286079060
0.086010307 0.079785518 0.30400002 4285760114
0.086997695 0.079785518 0.30400002 4285826421
0.048329879 0.080507539 0.303 4279179279
0.049314026 0.080507539 0.303 4279376658
0.05013217 0.080241837 0.30200002 4279244559
0.051113065 0.080241837 0.30200002 4279244559
0.052093964 0.080241837 0.30200002 4279507731
0.053074859 0.080241837 0.30200002 4279441938
0.053876769 0.079976141 0.30100003 4279441938
0.055036653 0.080241837 0.30200002 4279376145
0.056017552 0.080241837 0.30200002 4279638547
0.056998447 0.080241837 0.30200002 4280493856
0.057979342 0.080241837 0.30200002 4283851352
0.05896024 0.080241837 0.30200002 4284772967
0.059941135 0.080241837 0.30200002 4284839274
0.06092203 0.080241837 0.30200002 4284905839
0.061902929 0.080241837 0.30200002 4285169011
0.062883824 0.080241837 0.30200002 4285234804
0.063864723 0.080241837 0.30200002 4285628790
0.072452091 0.079976141 0.30100003 4282656028
0.073429734 0.079976141 0.30100003 4282457363
0.074407384 0.079976141 0.30100003 4282587151
0.075385034 0.079976141 0.30100003 4283045389
0.076108977 0.079710439 0.30000001 4283702036
0.077340335 0.079976141 0.30100003 4283833108
0.078317977 0.079976141 0.30100003 4283701520
0.079295628 0.079976141 0.30100003 4283831823
0.080273278 0.079976141 0.30100003 4284094482
0.081250928 0.079976141 0.30100003 4283963150
0.082501754 0.080241837 0.30200002 4283766284
0.083482653 0.080241837 0.30200002 4282391057
0.084743224 0.080507539 0.303 4287070580
0.049314026 0.081492022 0.303 4279441938
0.050298169 0.081492022 0.303 4279507731
0.051113065 0.081223071 0.30200002 4279244559
0.052093964 0.081223071 0.30200002 4279244559
0.053074859 0.081223071 0.30200002 4279441938
0.054055758 0.081223071 0.30200002 4279507731
0.055036653 0.081223071 0.30200002 4279376145
0.056017552 0.081223071 0.30200002 4279835926
0.056998447 0.081223071 0.30200002 4281020970
0.057979342 0.081223071 0.30200002 4284115037
0.05896024 0.081223071 0.30200002 4284444516
0.059941135 0.081223071 0.30200002 4284904553
0.06092203 0.081223071 0.30200002 4285168241
0.061902929 0.081223071 0.30200002 4285234804
0.062883824 0.081223071 0.30200002 4285366390
0.063864723 0.081223071 0.30200002 4285366390
0.072452091 0.080954127 0.30100003 4281867541
0.073429734 0.080954127 0.30100003 4282721051
0.074407384 0.080954127 0.30100003 4282391572
0.075385034 0.080954127 0.30100003 4282718739
0.076362684 0.080954127 0.30100003 4282915346
0.077340335 0.080954127 0.30100003 4283440917
0.078317977 0.080954127 0.30100003 4283176975
0.079295628 0.080954127 0.30100003 4283373841
0.080273278 0.080954127 0.30100003 4283702036
0.081250928 0.080954127 0.30100003 4283439634
0.082228571 0.080954127 0.30100003 4283638296
0.083482653 0.081223071 0.30200002 4284043587
0.050298169 0.082476497 0.303 4279507731
0.051113065 0.082204305 0.30200002 4279376145
0.052093964 0.082204305 0.30200002 4279376145
0.053074859 0.082204305 0.30200002 4279441938
0.054055758 0.082204305 0.30200002 4279376145
0.055036653 0.082204305 0.30200002 4279441938
0.056017552 0.082204305 0.30200002 4279835926
0.056998447 0.082204305 0.30200002 4280626212
0.057979342 0.082204305 0.30200002 4283655000
0.05896024 0.082204305 0.30200002 4284576102
0.059941135 0.082204305 0.30200002 4285102446
0.06092203 0.082204305 0.30200002 4285365618
0.061902929 0.082204305 0.30200002 4285562999
0.062883824 0.082204305 0.30200002 4285497206
0.073429734 0.081932105 0.30100003 4282856746
0.074407384 0.081932105 0.30100003 4282064404
0.075385034 0.081932105 0.30100003 4282523158
0.076362684 0.081932105 0.30100003 4282588436
0.077340335 0.081932105 0.30100003 4282850323
0.078317977 0.081932105 0.30100003 4282849553
0.079295628 0.081932105 0.30100003 4283177745
0.080273278 0.081932105 0.30100003 4283177745
0.081250928 0.081932105 0.30100003 4282851608
0.082228571 0.081932105 0.30100003 4283776051
0.083206221 0.081932105 0.30100003 4285824622
0.074407384 0.082910091 0.30100003 4286285175
0.075385034 0.082910091 0.30100003 4283845694
0.076362684 0.082910091 0.30100003 4282329629
0.077340335 0.082910091 0.30100003 4281866510
0.078317977 0.082910091 0.30100003 4282325777
0.079295628 0.082910091 0.30100003 4282062603
0.080273278 0.082910091 0.30100003 4283380264
0.081250928 0.082910091 0.30100003 4285228892
0.082228571 0.082910091 0.30100003 4286087281
0.077340335 0.083888061 0.30100003 4286744695
0.078317977 0.083888061 0.30100003 4286547316
0.079295628 0.083888061 0.30100003 4286219121
0.080273278 0.083888061 0.30100003 4286482039
0.081250928 0.083888061 0.30100003 4286285173
0.082228571 0.083888061 0.30100003 4286154357
0.070719831 0.058466662 0.2986457 4294967295
0.070719831 0.058466662 0.2986457 4294901760
0.070719831 0.057969484 0.29859263 4294901760
0.070719831 0.057472311 0.29853958 4294901760
0.070719831 0.056975134 0.2984865 4294901760
0.070719831 0.05647796 0.29843342 4294901760
0.070719831 0.055980783 0.29838037 4294901760
0.070719831 0.055483606 0.2983273 4294901760
0.070719831 0.054986432 0.29827422 4294901760
0.070719831 0.054489255 0.29822114 4294901760
0.070719831 0.053992078 0.29816809 4294901760
0.070719831 0.053494904 0.29811502 4294901760
0.070719831 0.052997727 0.29806194 4294901760
0.070719831 0.052500553 0.29800889 4294901760
0.070719831 0.052003376 0.29795581 4294901760
0.070719831 0.051506203 0.29790273 4294901760
0.070719831 0.051009025 0.29784968 4294901760
0.070719831 0.050511852 0.29779661 4294901760
0.070719831 0.050014675 0.29774353 4294901760
0.070719831 0.049517497 0.29769048 4294901760
0.070719831 0.049020324 0.2976374 4294901760
0.070719831 0.048523147 0.29758433 4294901760
0.070719831 0.048025973 0.29753128 4294901760
0.070719831 0.047528796 0.2974782 4294901760
0.070719831 0.047031619 0.29742512 4294901760
0.070719831 0.046534445 0.29737204 4294901760
0.070719831 0.046037268 0.29731899 4294901760
0.070719831 0.045540094 0.29726592 4294901760
0.070719831 0.045042917 0.29721284 4294901760
0.070719831 0.04454574 0.29715979 4294901760
0.070719831 0.044048566 0.29710671 4294901760
0.070719831 0.043551389 0.29705364 4294901760
0.070719831 0.043054212 0.29700059 4294901760
0.070719831 0.042557038 0.29694751 4294901760
0.070719831 0.042059861 0.29689443 4294901760
0.070719831 0.041562684 0.29684138 4294901760
0.070719831 0.04106551 0.29678831 4294901760
0.070719831 0.040568333 0.29673523 4294901760
0.070719831 0.04007116 0.29668215 4294901760
0.070719831 0.039573982 0.2966291 4294901760
0.070719831 0.039076809 0.29657602 4294901760
0.070719831 0.038579632 0.29652295 4294901760
0.070719831 0.038082458 0.2964699 4294901760
0.070719831 0.037585281 0.29641682 4294901760
0.070719831 0.037088104 0.29636374 4294901760
0.070719831 0.036590926 0.29631069 4294901760
0.070719831 0.036093753 0.29625762 4294901760
0.070719831 0.035596579 0.29620454 4294901760
0.070719831 0.035099402 0.29615149 4294901760
0.070719831 0.034602225 0.29609841 4294901760
0.070719831 0.034105048 0.29604533 4294901760
0.070719831 0.033607874 0.29599226 4294901760
0.070719831 0.033110701 0.29593921 4294901760
0.070719831 0.032613523 0.29588613 4294901760
0.070719831 0.032116346 0.29583305 4294901760
0.070719831 0.031619169 0.29578 4294901760
0.070719831 0.031121995 0.29572693 4294901760
0.070719831 0.03062482 0.29567385 4294901760
0.070719831 0.030127645 0.2956208 4294901760
0.070719831 0.029630469 0.29556772 4294901760
0.070719831 0.029133294 0.29551464 4294901760
0.070719831 0.028636115 0.2954616 4294901760
0.070719831 0.028138939 0.29540852 4294901760
0.070719831 0.027641764 0.29535544 4294901760
0.070719831 0.027144589 0.29530239 4294901760
0.070719831 0.026647415 0.29524931 4294901760
0.070719831 0.026150238 0.29519624 4294901760
0.070719831 0.025653061 0.29514316 4294901760
0.070719831 0.025155887 0.29509011 4294901760
0.070719831 0.02465871 0.29503703 4294901760
0.070719831 0.024161536 0.29498395 4294901760
0.070719831 0.023664359 0.29493091 4294901760
0.070719831 0.023167185 0.29487783 4294901760
0.070719831 0.022670005 0.29482475 4294901760
0.070719831 0.022172831 0.2947717 4294901760
0.070719831 0.021675654 0.29471862 4294901760
0.070719831 0.02117848 0.29466555 4294901760
0.070719831 0.020681307 0.2946125 4294901760
0.070719831 0.020184129 0.29455942 4294901760
0.070719831 0.019686956 0.29450634 4294901760
0.070719831 0.019189775 0.29445326 4294901760
0.070719831 0.018692601 0.29440022 4294901760
0.070719831 0.018195424 0.29434714 4294901760
0.070719831 0.017698251 0.29429406 4294901760
0.070719831 0.017201073 0.29424101 4294901760
0.070719831 0.0167039 0.29418793 4294901760
0.070719831 0.016206723 0.29413486 4294901760
0.070719831 0.015709545 0.29408181 4294901760
0.070719831 0.015212372 0.29402873 4294901760
0.070719831 0.014715195 0.29397565 4294901760
0.070719831 0.014218021 0.2939226 4294901760
0.070719831 0.013720844 0.29386953 4294901760
0.070719831 0.013223667 0.29381645 4294901760
0.070719831 0.012726493 0.2937634 4294901760
0.070719831 0.012229316 0.29371032 4294901760
0.070719831 0.011732142 0.29365724 4294901760
0.070719831 0.011234965 0.29360417 4294901760
0.070719831 0.010737792 0.29355112 4294901760
0.070719831 0.010240611 0.29349804 4294901760
0.070719831 0.0097434372 0.29344496 4294901760
0.070719831 0.0092462599 0.29339191 4294901760
0.070719831 0.0087490864 0.29333884 4294901760
0.070719831 0.058466662 0.2986457 4278255360
0.0712163 0.058460366 0.29870468 4278255360
0.07171277 0.058454074 0.29876363 4278255360
0.072209246 0.058447778 0.29882261 4278255360
0.072705716 0.058441486 0.29888156 4278255360
0.073202185 0.05843519 0.29894054 4278255360
0.073698655 0.058428898 0.29899952 4278255360
0.074195124 0.058422603 0.29905847 4278255360
0.074691594 0.058416311 0.29911745 4278255360
0.075188071 0.058410015 0.29917639 4278255360
0.07568454 0.058403719 0.29923537 4278255360
0.076181009 0.058397427 0.29929432 4278255360
0.076677479 0.058391131 0.2993533 4278255360
0.077173948 0.058384839 0.29941228 4278255360
0.077670425 0.058378544 0.29947123 4278255360
0.078166895 0.058372252 0.29953021 4278255360
0.078663364 0.058365956 0.29958916 4278255360
0.079159833 0.05835966 0.29964814 4278255360
0.079656303 0.058353368 0.29970711 4278255360
0.08015278 0.058347072 0.29976606 4278255360
0.080649249 0.05834078 0.29982504 4278255360
0.081145719 0.058334485 0.29988399 4278255360
0.081642188 0.058328193 0.29994297 4278255360
0.082138658 0.058321897 0.30000195 4278255360
0.082635134 0.058315605 0.3000609 4278255360
0.083131604 0.058309309 0.30011988 4278255360
0.083628073 0.058303013 0.30017883 4278255360
0.084124543 0.058296721 0.3002378 4278255360
0.084621012 0.058290426 0.30029678 4278255360
0.085117489 0.058284134 0.30035573 4278255360
0.085613959 0.058277838 0.30041471 4278255360
0.086110428 0.058271546 0.30047366 4278255360
0.086606897 0.05826525 0.30053264 4278255360
0.087103367 0.058258958 0.30059159 4278255360
0.087599844 0.058252662 0.30065057 4278255360
0.088096306 0.058246367 0.30070955 4278255360
0.088592783 0.058240075 0.30076849 4278255360
0.089089252 0.058233779 0.30082747 4278255360
0.089585721 0.058227487 0.30088642 4278255360
0.090082191 0.058221191 0.3009454 4278255360
0.090578668 0.058214899 0.30100438 4278255360
0.091075137 0.058208603 0.30106333 4278255360
0.091571607 0.058202308 0.30112231 4278255360
0.092068076 0.058196016 0.30118126 4278255360
0.092564546 0.05818972 0.30124024 4278255360
0.093061015 0.058183428 0.30129921 4278255360
0.093557492 0.058177132 0.30135816 4278255360
0.094053961 0.05817084 0.30141714 4278255360
0.094550431 0.058164544 0.30147609 4278255360
0.0950469 0.058158252 0.30153507 4278255360
0.09554337 0.058151957 0.30159402 4278255360
0.096039847 0.058145661 0.301653 4278255360
0.096536316 0.058139369 0.30171198 4278255360
0.097032785 0.058133073 0.30177093 4278255360
0.097529262 0.058126781 0.3018299 4278255360
0.098025724 0.058120485 0.30188885 4278255360
0.098522201 0.058114193 0.30194783 4278255360
0.099018671 0.058107898 0.30200681 4278255360
0.09951514 0.058101606 0.30206576 4278255360
0.10001161 0.05809531 0.30212474 4278255360
0.10050808 0.058089014 0.30218369 4278255360
0.10100456 0.058082722 0.30224267 4278255360
0.10150103 0.058076426 0.30230165 4278255360
0.10199749 0.058070134 0.30236059 4278255360
0.10249396 0.058063839 0.30241957 4278255360
0.10299043 0.058057547 0.30247852 4278255360
0.10348691 0.058051251 0.3025375 4278255360
0.10398338 0.058044955 0.30259648 4278255360
0.10447985 0.058038663 0.30265543 4278255360
0.10497632 0.058032367 0.30271441 4278255360
0.10547279 0.058026075 0.30277336 4278255360
0.10596927 0.05801978 0.30283234 4278255360
0.10646573 0.058013488 0.30289128 4278255360
0.1069622 0.058007192 0.30295026 4278255360
0.10745867 0.0580009 0.30300924 4278255360
0.10795514 0.057994604 0.30306819 4278255360
0.10845162 0.057988308 0.30312717 4278255360
0.10894808 0.057982016 0.30318612 4278255360
0.10944456 0.057975721 0.3032451 4278255360
0.10994103 0.057969429 0.30330408 4278255360
0.1104375 0.057963133 0.30336303 4278255360
0.11093397 0.057956841 0.303422 4278255360
0.11143044 0.057950545 0.30348095 4278255360
0.11192691 0.057944253 0.30353993 4278255360
0.11242338 0.057937957 0.30359891 4278255360
0.11291985 0.057931662 0.30365786 4278255360
0.11341633 0.05792537 0.30371684 4278255360
0.11391279 0.057919074 0.30377579 4278255360
0.11440927 0.057912782 0.30383477 4278255360
0.11490574 0.057906486 0.30389374 4278255360
0.11540221 0.057900194 0.30395269 4278255360
0.11589868 0.057893898 0.30401167 4278255360
0.11639515 0.057887603 0.30407062 4278255360
0.11689162 0.057881311 0.3041296 4278255360
0.11738809 0.057875015 0.30418855 4278255360
0.11788456 0.057868723 0.30424753 4278255360
0.11838103 0.057862427 0.30430651 4278255360
0.1188775 0.057856135 0.30436546 4278255360
0.11937398 0.057849839 0.30442443 4278255360
0.11987045 0.057843547 0.30448338 4278255360
0.12036692 0.057837252 0.30454236 4278255360
0.070719831 0.058466662 0.2986457 4278190335
0.070660532 0.058413967 0.29913938 4278190335
0.070601225 0.058361273 0.29963303 4278190335
0.070541926 0.058308579 0.3001267 4278190335
0.070482627 0.058255885 0.30062038 4278190335
0.07042332 0.058203191 0.30111402 4278190335
0.070364021 0.058150496 0.3016077 4278190335
0.070304722 0.058097802 0.30210137 4278190335
0.070245422 0.058045108 0.30259505 4278190335
0.070186116 0.057992414 0.30308869 4278190335
0.070126817 0.057939719 0.30358237 4278190335
0.070067517 0.057887025 0.30407605 4278190335
0.070008211 0.057834331 0.30456969 4278190335
0.069948912 0.057781637 0.30506337 4278190335
0.069889612 0.057728942 0.30555704 4278190335
0.069830306 0.057676248 0.30605072 4278190335
0.069771007 0.057623554 0.30654436 4278190335
0.069711708 0.05757086 0.30703804 4278190335
0.069652401 0.057518169 0.30753171 4278190335
0.069593102 0.057465475 0.30802536 4278190335
0.069533803 0.057412781 0.30851904 4278190335
0.069474503 0.057360087 0.30901271 4278190335
0.069415197 0.057307392 0.30950636 4278190335
0.069355898 0.057254698 0.31000003 4278190335
0.069296598 0.057202004 0.31049371 4278190335
0.069237292 0.05714931 0.31098735 4278190335
0.069177993 0.057096615 0.31148103 4278190335
0.069118693 0.057043921 0.3119747 4278190335
0.069059387 0.056991227 0.31246838 4278190335
0.069000088 0.056938533 0.31296203 4278190335
0.068940789 0.056885839 0.3134557 4278190335
0.068881482 0.056833144 0.31394938 4278190335
0.068822183 0.05678045 0.31444302 4278190335
0.068762884 0.056727756 0.3149367 4278190335
0.068703577 0.056675062 0.31543037 4278190335
0.068644278 0.056622367 0.31592405 4278190335
0.068584979 0.056569673 0.31641769 4278190335
0.068525679 0.056516979 0.31691137 4278190335
0.068466373 0.056464285 0.31740505 4278190335
0.068407074 0.05641159 0.31789869 4278190335
0.068347774 0.056358896 0.31839237 4278190335
0.068288468 0.056306202 0.31888604 4278190335
0.068229169 0.056253508 0.31937969 4278190335
0.068169869 0.056200814 0.31987336 4278190335
0.068110563 0.056148119 0.32036704 4278190335
0.068051264 0.056095425 0.32086068 4278190335
0.067991965 0.056042731 0.32135436 4278190335
0.067932658 0.055990037 0.32184803 4278190335
0.067873359 0.055937342 0.32234171 4278190335
0.06781406 0.055884648 0.32283536 4278190335
0.06775476 0.055831954 0.32332903 4278190335
0.067695454 0.055779263 0.32382271 4278190335
0.067636155 0.055726569 0.32431635 4278190335
0.067576855 0.055673875 0.32481003 4278190335
0.067517549 0.055621181 0.3253037 4278190335
0.06745825 0.055568486 0.32579738 4278190335
0.06739895 0.055515792 0.32629102 4278190335
0.067339644 0.055463098 0.3267847 4278190335
0.067280345 0.055410404 0.32727838 4278190335
0.067221045 0.05535771 0.32777202 4278190335
0.067161739 0.055305015 0.3282657 4278190335
0.06710244 0.055252321 0.32875937 4278190335
0.067043141 0.055199627 0.32925302 4278190335
0.066983834 0.055146933 0.32974669 4278190335
0.066924535 0.055094238 0.33024037 4278190335
0.066865236 0.055041544 0.33073401 4278190335
0.066805929 0.05498885 0.33122769 4278190335
0.06674663 0.054936156 0.33172137 4278190335
0.066687331 0.054883461 0.33221504 4278190335
0.066628031 0.054830767 0.33270869 4278190335
0.066568725 0.054778073 0.33320236 4278190335
0.066509426 0.054725379 0.33369604 4278190335
0.066450126 0.054672685 0.33418971 4278190335
0.06639082 0.05461999 0.33468336 4278190335
0.066331521 0.054567296 0.33517703 4278190335
0.066272222 0.054514602 0.33567071 4278190335
0.066212915 0.054461908 0.33616436 4278190335
0.066153616 0.054409213 0.33665803 4278190335
0.066094317 0.054356519 0.33715171 4278190335
0.066035017 0.054303825 0.33764535 4278190335
0.065975711 0.054251131 0.33813903 4278190335
0.065916412 0.054198436 0.3386327 4278190335
0.065857112 0.054145746 0.33912635 4278190335
0.065797806 0.054093048 0.33962002 4278190335
0.065738507 0.054040357 0.3401137 4278190335
0.065679207 0.05398766 0.34060735 4278190335
0.065619901 0.053934969 0.34110102 4278190335
0.065560602 0.053882275 0.3415947 4278190335
0.065501302 0.053829581 0.34208837 4278190335
0.065441996 0.053776886 0.34258202 4278190335
0.065382697 0.053724192 0.34307569 4278190335
0.065323398 0.053671498 0.34356937 4278190335
0.065264091 0.053618804 0.34406301 4278190335
