# .PCD v0.7 - Point Cloud Data file format
VERSION 0.7
FIELDS x y z rgb
SIZE 4 4 4 4
TYPE F F F U
COUNT 1 1 1 1
WIDTH 1008
HEIGHT 1
VIEWPOINT 0 0 0 1 0 0 0
POINTS 1008
DATA ascii
0.053831767 -0.013754779 0.45900002 4281822026
0.055322599 -0.013754779 0.45900002 4281297225
0.05681343 -0.013754779 0.45900002 4281034053
0.058304261 -0.013754779 0.45900002 4280770881
0.059795097 -0.013754779 0.45900002 4280836674
0.061285932 -0.013754779 0.45900002 4280178744
0.062776759 -0.013754779 0.45900002 4280244537
0.064267598 -0.013754779 0.45900002 4279718193
0.065901689 -0.013784746 0.46000001 4280377147
0.067395777 -0.013784746 0.46000001 4279916342
0.069039613 -0.013814714 0.46100003 4281690960
0.070536949 -0.013814714 0.46100003 4285831302
-0.013108037 -0.010900837 0.40800002 4281024300
-0.011811732 -0.010927555 0.40900001 4280827438
-0.010508931 -0.010954273 0.41000003 4280366633
-0.0091772508 -0.010954273 0.41000003 4280564782
-0.0078647053 -0.010980991 0.41100001 4280038440
-0.0065456638 -0.011007708 0.41200003 4280696368
-0.0052074874 -0.011007708 0.41200003 4280761391
-0.0011987482 -0.011061144 0.41400003 4280695598
0.050517749 -0.012183289 0.45600003 4279655986
0.052112866 -0.012210007 0.45700002 4279655471
0.053714488 -0.012236725 0.45800003 4279327019
0.055202074 -0.012236725 0.45800003 4279064617
0.056689657 -0.012236725 0.45800003 4278998824
0.05817724 -0.012236725 0.45800003 4279196205
0.059664827 -0.012236725 0.45800003 4279327791
0.061152413 -0.012236725 0.45800003 4278670374
0.062776759 -0.012263442 0.45900002 4278867753
0.064267598 -0.012263442 0.45900002 4279130925
0.065901689 -0.012290159 0.46000001 4279130671
0.067395777 -0.012290159 0.46000001 4279328304
0.069039613 -0.012316878 0.46100003 4279327791
0.070536949 -0.012316878 0.46100003 4280637248
-0.010457668 -0.0095752031 0.40800002 4280167973
-0.0091548664 -0.0095986715 0.40900001 4280497708
-0.0078455694 -0.0096221408 0.41000003 4280234536
-0.0065297759 -0.0096456092 0.41100001 4280431913
-0.0052074874 -0.0096690776 0.41200003 4280826671
-0.0011987482 -0.0097160153 0.41400003 4280366374
0.00014592457 -0.0097160153 0.41400003 4280761132
0.0014905973 -0.0097160153 0.41400003 4280300581
0.0028284215 -0.009692546 0.41300002 4280300581
0.048714045 -0.010631291 0.45300001 4278211103
0.050406963 -0.010678229 0.45500001 4278342943
0.051884804 -0.010678229 0.45500001 4278802980
0.053479929 -0.010701698 0.45600003 4278539808
0.054961015 -0.010701698 0.45600003 4278868773
0.056565877 -0.010725167 0.45700002 4278473245
0.058050212 -0.010725167 0.45700002 4278604831
0.059664827 -0.010748635 0.45800003 4278670624
0.061152413 -0.010748635 0.45800003 4278539808
0.062639996 -0.010748635 0.45800003 4278474015
0.064267598 -0.010772103 0.45900002 4278671394
0.065758429 -0.010772103 0.45900002 4278539808
0.067395777 -0.010795572 0.46000001 4278670111
0.069039613 -0.010819041 0.46100003 4279261224
0.070536949 -0.010819041 0.46100003 4279586094
-0.0065297759 -0.0083102286 0.41100001 4280892464
-0.0012016437 -0.0083911065 0.41500002 4280233504
0.00014627705 -0.0083911065 0.41500002 4280562469
0.0014905973 -0.0083708875 0.41400003 4279970846
0.0028284215 -0.0083506675 0.41300002 4280628776
0.0093739256 -0.0082091307 0.40600002 4279258916
0.01071895 -0.0082293497 0.40700001 4279129127
0.012040887 -0.0082293497 0.40700001 4279590961
0.046721261 -0.0090583507 0.44800001 4278276636
0.048498977 -0.0091190096 0.45100003 4278604831
0.050074611 -0.0091392295 0.45200002 4278473245
0.051656738 -0.0091594486 0.45300001 4278407452
0.053245366 -0.0091796685 0.45400003 4278341659
0.054840483 -0.0091998875 0.45500001 4278604318
0.056318324 -0.0091998875 0.45500001 4278472732
0.05792319 -0.0092201075 0.45600003 4278406939
0.059534553 -0.0092403265 0.45700002 4278472732
0.061018892 -0.0092403265 0.45700002 4278472732
0.062639996 -0.0092605464 0.45800003 4278603548
0.064127579 -0.0092605464 0.45800003 4278603548
0.065758429 -0.0092807664 0.45900002 4279063586
0.067395777 -0.0093009854 0.46000001 4279194658
0.068889849 -0.0093009854 0.46000001 4279983150
0.070536949 -0.0093212053 0.46100003 4279453478
-0.0052074874 -0.0069918176 0.41200003 4280958257
-0.0012045392 -0.0070596989 0.41600001 4280430368
0.00014662951 -0.0070596989 0.41600001 4280364575
0.0014941978 -0.0070427288 0.41500002 4280036123
0.0028421185 -0.0070427288 0.41500002 4280234016
0.0080750771 -0.0069069648 0.40700001 4280497692
0.009397014 -0.0069069648 0.40700001 4279321629
0.010745288 -0.0069239358 0.40800002 4279456295
0.012070472 -0.0069239358 0.40800002 4278998052
0.013461323 -0.0069578765 0.41000003 4278933029
0.014793002 -0.0069578765 0.41000003 4279327789
0.045165118 -0.0075857826 0.44700003 4278538525
0.046512682 -0.0075688115 0.44600001 4278867490
0.048176363 -0.0076027527 0.44800001 4278800925
0.049853042 -0.0076366938 0.45000002 4278998304
0.051428676 -0.0076536643 0.45100003 4278669339
0.053010803 -0.0076706344 0.45200002 4278800925
0.054599427 -0.0076876045 0.45300001 4278800414
0.056194548 -0.0077045755 0.45400003 4278668828
0.057796162 -0.0077215456 0.45500001 4278865439
0.059274007 -0.0077215456 0.45500001 4278996255
0.060885374 -0.0077385162 0.45600003 4278206230
0.062503226 -0.0077554868 0.45700002 4278199553
0.063987561 -0.0077554868 0.45700002 4278200065
0.06561517 -0.0077724573 0.45800003 4279323426
0.067249268 -0.0077894274 0.45900002 4279522086
0.068889849 -0.007806398 0.46000001 4279719467
0.070383936 -0.007806398 0.46000001 4279650857
-0.0025557079 -0.0057080728 0.41600001 4280497706
-0.0012074348 -0.0057217944 0.41700003 4280561956
0.00014733446 -0.0057355152 0.41800001 4280232989
0.0015122001 -0.005762958 0.42000002 4279838231
0.0028763607 -0.005762958 0.42000002 4280299295
0.006769733 -0.005598302 0.40800002 4281023016
0.008094918 -0.005598302 0.40800002 4280235038
0.0094431909 -0.0056120232 0.40900001 4279187992
0.010771624 -0.0056120232 0.40900001 4279124765
0.012100057 -0.0056120232 0.40900001 4278863386
0.013461323 -0.0056257448 0.41000003 4279061789
0.014829082 -0.005639466 0.41100001 4279064099
0.01620334 -0.0056531876 0.41200003 4278998306
0.017541517 -0.0056531876 0.41200003 4279064615
0.018925518 -0.0056669088 0.41300002 4279197486
0.036379423 -0.0058864499 0.42900002 4278604577
0.037860863 -0.0059001711 0.43000001 4278669857
0.039440095 -0.0059276139 0.43200001 4278669857
0.041032325 -0.0059550568 0.43400002 4278866466
0.042637542 -0.0059824996 0.43600002 4278998052
0.044255752 -0.0060099419 0.43800002 4279129125
0.046199817 -0.0060785487 0.44300002 4279129379
0.047853757 -0.0061059915 0.44500002 4279654437
0.04952069 -0.0061334339 0.44700003 4279851303
0.05120061 -0.0061608767 0.44900003 4278928406
0.052776244 -0.0061745979 0.45000002 4278202374
0.054358374 -0.0061883195 0.45100003 4278198528
0.056070771 -0.0062157619 0.45300001 4278201094
0.05766914 -0.0062294835 0.45400003 4278729494
0.059143737 -0.0062294835 0.45400003 4279914281
0.060751848 -0.0062432047 0.45500001 4279980072
0.062366456 -0.0062569259 0.45600003 4279849256
0.063987561 -0.006270647 0.45700002 4279585062
0.06561517 -0.0062843687 0.45800003 4280309809
0.067102753 -0.0062843687 0.45800003 4279522090
0.068740092 -0.0062980899 0.45900002 4279851055
0.070383936 -0.006311811 0.46000001 4280307252
-0.0025557079 -0.0043564462 0.41600001 4280497190
-0.0012103303 -0.0043773907 0.41800001 4280430368
0.00014733446 -0.0043773907 0.41800001 4280824356
0.0015122001 -0.0043983352 0.42000002 4280298782
0.0028763607 -0.0043983352 0.42000002 4280167709
0.0055112713 -0.0043250294 0.41300002 4280826153
0.0068029179 -0.0042936131 0.41000003 4280957991
0.0081345988 -0.0042936131 0.41000003 4280432930
0.0094662802 -0.0042936131 0.41000003 4279318810
0.010797961 -0.0042936131 0.41000003 4279320607
0.012159226 -0.0043040849 0.41100001 4279059740
0.013494154 -0.0043040849 0.41100001 4278928666
0.014865164 -0.0043145572 0.41200003 4278995996
0.01620334 -0.0043145572 0.41200003 4279193888
0.017584093 -0.0043250294 0.41300002 4278800414
0.018971344 -0.0043355017 0.41400003 4278735904
0.020365089 -0.004345974 0.41500002 4278473245
0.021765329 -0.0043564462 0.41600001 4278670624
0.023172066 -0.0043669185 0.41700003 4278868003
0.024526484 -0.0043669185 0.41700003 4278933796
0.025942964 -0.0043773907 0.41800001 4278670111
0.027300628 -0.0043773907 0.41800001 4278670109
0.028726855 -0.004387863 0.41900003 4278204424
0.030231385 -0.0044088075 0.42100003 4278930462
0.031673849 -0.0044192798 0.42200002 4278800673
0.033201117 -0.0044402243 0.42400002 4278735650
0.034741372 -0.0044611688 0.42600003 4278669857
0.036294624 -0.0044821128 0.42800003 4278800673
0.037860863 -0.0045030573 0.43000001 4279063332
0.039440095 -0.0045240019 0.43200001 4278997279
0.040937781 -0.0045344741 0.43300003 4279390754
0.042539749 -0.0045554186 0.43500003 4278666009
0.044154711 -0.0045763627 0.43700001 4278199297
0.045991242 -0.0046182517 0.44100001 4278198785
0.047638681 -0.0046391962 0.44300002 4278268941
0.049299117 -0.0046601407 0.44500002 4280242729
0.050972544 -0.0046810852 0.44700003 4280374828
0.052658964 -0.0047020297 0.44900003 4279848486
0.054237843 -0.004712502 0.45000002 4279323426
0.055946995 -0.0047334465 0.45200002 4279191840
0.057542115 -0.0047439183 0.45300001 4279258146
0.059143737 -0.004754391 0.45400003 4279587111
0.060751848 -0.0047648628 0.45500001 4279521318
0.062229685 -0.0047648628 0.45500001 4279521316
0.063847549 -0.0047753355 0.45600003 4278203660
0.065471902 -0.0047858073 0.45700002 4279783979
0.067102753 -0.0047962801 0.45800003 4279587883
0.068590336 -0.0047962801 0.45800003 4279851055
0.070230931 -0.0048067519 0.45900002 4283529828
-0.0025557079 -0.0030048196 0.41600001 4280366374
-0.0012103303 -0.0030192661 0.41800001 4280759844
0.00014768694 -0.0030264892 0.41900003 4280825637
0.0015085997 -0.0030264892 0.41900003 4280298780
0.0028626637 -0.0030192661 0.41800001 4280694053
0.0042001354 -0.0030048196 0.41600001 4280694053
0.0055246158 -0.0029903736 0.41400003 4281220395
0.0081544397 -0.0029687041 0.41100001 4280367135
0.0094893686 -0.0029687041 0.41100001 4279582236
0.010824297 -0.0029687041 0.41100001 4279386654
0.012159226 -0.0029687041 0.41100001 4278928154
0.013526988 -0.0029759274 0.41200003 4278928668
0.014865164 -0.0029759274 0.41200003 4278996255
0.016242668 -0.0029831503 0.41300002 4279193634
0.017584093 -0.0029831503 0.41300002 4278865953
0.018971344 -0.0029903736 0.41400003 4278734880
0.020365089 -0.0029975967 0.41500002 4278604064
0.021765329 -0.0030048196 0.41600001 4278670111
0.023172066 -0.003012043 0.41700003 4278670111
0.024526484 -0.003012043 0.41700003 4278538525
0.025942964 -0.0030192661 0.41800001 4278735904
0.027365942 -0.0030264892 0.41900003 4278670111
0.028726855 -0.0030264892 0.41900003 4279060767
0.030231385 -0.0030409356 0.42100003 4279389732
0.031673849 -0.0030481585 0.42200002 4279653674
0.033201117 -0.0030626049 0.42400002 4278204945
0.034741372 -0.0030770511 0.42600003 4278333966
0.036294624 -0.0030914973 0.42800003 4278198784
0.037860863 -0.0031059433 0.43000001 4278198534
0.0393488 -0.0031131667 0.43100002 4278395914
0.040937781 -0.0031276129 0.43300003 4278722828
0.042539749 -0.0031420593 0.43500003 4280765745
0.044154711 -0.0031565053 0.43700001 4279783463
0.045886952 -0.0031781748 0.44000003 4279717670
0.047531147 -0.0031926211 0.44200003 4279454496
0.049188334 -0.0032070675 0.44400004 4278204429
0.050858509 -0.0032215135 0.44600001 4279125785
0.052541681 -0.0032359597 0.44800001 4278201859
0.054117315 -0.003243183 0.44900003 4278731289
0.055823222 -0.0032576292 0.45100003 4278665496
0.057415091 -0.0032648523 0.45200002 4278468117
0.05901346 -0.0032720752 0.45300001 4278336017
0.06061833 -0.0032792985 0.45400003 4278993177
0.062229685 -0.0032865216 0.45500001 4279849254
0.063847549 -0.0032937448 0.45600003 4278336531
0.065471902 -0.0033009679 0.45700002 4279850285
0.066956237 -0.0033009679 0.45700002 4279653676
0.068590336 -0.0033081912 0.45800003 4279390250
0.070230931 -0.0033154141 0.45900002 4286818710
-0.0012103303 -0.0016611414 0.41800001 4280694565
0.00014733446 -0.0016611414 0.41800001 4280891944
0.0015085997 -0.0016651155 0.41900003 4280759844
0.0028558155 -0.0016571674 0.41700003 4280694569
0.0042001354 -0.0016531934 0.41600001 4280694569
0.0068526953 -0.0016412713 0.41300002 4280957477
0.0081742806 -0.0016372973 0.41200003 4279841561
0.0095124571 -0.0016372973 0.41200003 4278728211
0.010850633 -0.0016372973 0.41200003 4279190043
0.012188811 -0.0016372973 0.41200003 4279059738
0.01355982 -0.0016412713 0.41300002 4278928666
0.014901243 -0.0016412713 0.41300002 4279062048
0.016242668 -0.0016412713 0.41300002 4279062818
0.017626671 -0.0016452454 0.41400003 4278800160
0.019017167 -0.0016492193 0.41500002 4278998052
0.020414161 -0.0016531934 0.41600001 4278669857
0.021765329 -0.0016531934 0.41600001 4278209049
0.023172066 -0.0016571674 0.41700003 4278866720
0.024526484 -0.0016571674 0.41700003 4278800927
0.025942964 -0.0016611414 0.41800001 4278669339
0.027365942 -0.0016651155 0.41900003 4278735132
0.028795416 -0.0016690894 0.42000002 4279323939
0.030231385 -0.0016730635 0.42100003 4279192353
0.031673849 -0.0016770376 0.42200002 4278199559
0.033201117 -0.0016849856 0.42400002 4278657035
0.034741372 -0.0016929336 0.42600003 4278787853
0.036294624 -0.0017008816 0.42800003 4278919441
0.037860863 -0.0017088297 0.43000001 4278787855
0.0393488 -0.0017128037 0.43100002 4278524683
0.040937781 -0.0017207518 0.43300003 4278657550
0.042539749 -0.0017286999 0.43500003 4280700979
0.044154711 -0.0017366478 0.43700001 4278201354
0.045782663 -0.0017445958 0.43900001 4278200331
0.047423609 -0.001752544 0.44100001 4278993179
0.049077548 -0.001760492 0.44300002 4279059740
0.050744478 -0.00176844 0.44500002 4278993945
0.052424401 -0.0017763881 0.44700003 4279059738
0.054117315 -0.0017843362 0.44900003 4278598421
0.055823222 -0.0017922842 0.45100003 4278203150
0.057415091 -0.0017962581 0.45200002 4278201351
0.05901346 -0.0018002321 0.45300001 4279256351
0.06061833 -0.0018042063 0.45400003 4279124765
0.062229685 -0.0018081802 0.45500001 4280441393
0.063847549 -0.0018121543 0.45600003 4278929183
0.065328635 -0.0018121543 0.45600003 4279588142
0.066956237 -0.0018161283 0.45700002 4279785521
0.068590336 -0.0018201023 0.45800003 4279849268
-0.0052074874 -0.00029866715 0.41200003 4281154602
0.0042001354 -0.00030156682 0.41600001 4281023280
0.0081941206 -0.00029939206 0.41300002 4280170526
0.0095355455 -0.00029939206 0.41300002 4279386652
0.010876969 -0.00029939206 0.41300002 4279255836
0.012218395 -0.00029939206 0.41300002 4278993945
0.01355982 -0.00029939206 0.41300002 4278994459
0.014901243 -0.00029939206 0.41300002 4278929949
0.016281998 -0.00030011698 0.41400003 4279127841
0.017626671 -0.00030011698 0.41400003 4278800160
0.019017167 -0.0003008419 0.41500002 4278866466
0.020414161 -0.00030156682 0.41600001 4278800673
0.021765329 -0.00030156682 0.41600001 4278734880
0.023172066 -0.00030229174 0.41700003 4278800927
0.024585299 -0.00030301666 0.41800001 4278800927
0.025942964 -0.00030301666 0.41800001 4278734619
0.027365942 -0.00030374157 0.41900003 4278602519
0.028795416 -0.00030446649 0.42000002 4278201094
0.030231385 -0.00030519141 0.42100003 4279717670
0.031748902 -0.00030664125 0.42300001 4278394376
0.033201117 -0.00030736616 0.42400002 4278920211
0.034741372 -0.00030881603 0.42600003 4280170278
0.036294624 -0.00031026587 0.42800003 4280302375
0.037860863 -0.00031171567 0.43000001 4279052824
0.0393488 -0.00031244062 0.43100002 4279842340
0.040937781 -0.00031389046 0.43300003 4278197254
0.042539749 -0.00031534029 0.43500003 4280833333
0.04405367 -0.00031606521 0.43600002 4278265611
0.045678377 -0.00031751505 0.43800002 4278329867
0.047316074 -0.00031896491 0.44000003 4279254814
0.049077548 -0.00032113967 0.44300002 4278992664
0.050744478 -0.00032258951 0.44500002 4278203660
0.052424401 -0.00032403934 0.44700003 4279257119
0.054117315 -0.00032548918 0.44900003 4279783979
0.055699442 -0.0003262141 0.45000002 4279323428
0.057415091 -0.00032766393 0.45200002 4279652393
0.05901346 -0.00032838885 0.45300001 4279322914
0.06061833 -0.0003291138 0.45400003 4278334995
0.062229685 -0.00032983869 0.45500001 4278200070
0.063847549 -0.00033056363 0.45600003 4279981871
0.065328635 -0.00033056363 0.45600003 4279654189
0.066956237 -0.00033128855 0.45700002 4279520814
0.068440571 -0.00033128855 0.45700002 4285504134
0.0028558155 0.0010525839 0.41700003 4283721297
0.0068692882 0.0010450114 0.41400003 4283985239
0.0082139615 0.0010450114 0.41400003 4279974428
0.0095586339 0.0010450114 0.41400003 4279320861
0.010903306 0.0010450114 0.41400003 4279255836
0.01224798 0.0010450114 0.41400003 4279059738
0.013592653 0.0010450114 0.41400003 4279060765
0.014937324 0.0010450114 0.41400003 4279062048
0.016281998 0.0010450114 0.41400003 4278799646
0.017669247 0.0010475356 0.41500002 4278865953
0.019062992 0.0010500597 0.41600001 4279063332
0.020414161 0.0010500597 0.41600001 4278669087
0.021817649 0.0010525839 0.41700003 4278800673
0.023172066 0.0010525839 0.41700003 4278800673
0.024585299 0.0010551082 0.41800001 4278866207
0.025942964 0.0010551082 0.41800001 4278997279
0.027365942 0.0010576323 0.41900003 4279654185
0.028795416 0.0010601565 0.42000002 4279651109
0.030231385 0.0010626807 0.42100003 4279190045
0.031748902 0.001067729 0.42300001 4279843106
0.033201117 0.0010702532 0.42400002 4279053590
0.034741372 0.0010753016 0.42600003 4280303659
0.036294624 0.00108035 0.42800003 4279579936
0.037860863 0.0010853983 0.43000001 4279250199
0.0393488 0.0010879225 0.43100002 4281093427
0.040937781 0.0010929708 0.43300003 4278199047
0.042539749 0.0010980192 0.43500003 4280373036
0.04405367 0.0011005434 0.43600002 4278198281
0.045678377 0.0011055918 0.43800002 4280106791
0.047316074 0.0011106401 0.44000003 4279913768
0.048966765 0.0011156885 0.44200003 4280176940
0.050630447 0.0011207369 0.44400004 4279190045
0.052424401 0.0011283094 0.44700003 4278532115
0.054117315 0.0011333578 0.44900003 4278197760
0.055823222 0.0011384061 0.45100003 4278198784
0.057415091 0.0011409303 0.45200002 4279189791
0.05901346 0.0011434545 0.45300001 4280505651
0.06061833 0.0011459787 0.45400003 4279586086
0.062229685 0.0011485028 0.45500001 4279915051
0.063847549 0.001151027 0.45600003 4279718699
0.065328635 0.001151027 0.45600003 4279126308
0.066956237 0.0011535512 0.45700002 4284187758
-0.0012074348 0.0024074595 0.41700003 4283852883
0.00014698198 0.0024074595 0.41700003 4283786836
0.0042001354 0.0024016863 0.41600001 4283721043
0.0055379602 0.002395913 0.41500002 4284181594
0.0068858806 0.002395913 0.41500002 4284052574
0.0082338015 0.002395913 0.41500002 4279976229
0.0095586339 0.0023901397 0.41400003 4279453217
0.010903306 0.0023901397 0.41400003 4279453215
0.01224798 0.0023901397 0.41400003 4279125533
0.013592653 0.0023901397 0.41400003 4279191838
0.014973405 0.002395913 0.41500002 4279061535
0.016321326 0.002395913 0.41500002 4279062048
0.017669247 0.002395913 0.41500002 4278734367
0.019062992 0.0024016863 0.41600001 4278865953
0.020463234 0.0024074595 0.41700003 4278998052
0.021817649 0.0024074595 0.41700003 4278800673
0.023227634 0.0024132328 0.41800001 4278800673
0.024585299 0.0024132328 0.41800001 4278734880
0.02600503 0.0024190061 0.41900003 4278866207
0.027365942 0.0024190061 0.41900003 4278337814
0.028795416 0.0024247793 0.42000002 4280309809
0.030303193 0.0024363259 0.42200002 4278202893
0.031748902 0.0024420992 0.42300001 4279842336
0.033279419 0.0024536457 0.42500001 4278460683
0.034741372 0.0024594192 0.42600003 4278658064
0.036294624 0.0024709657 0.42800003 4278657552
0.037860863 0.0024825123 0.43000001 4278853648
0.039440095 0.0024940588 0.43200001 4278656269
0.040937781 0.0024998321 0.43300003 4279779361
0.042539749 0.0025113788 0.43500003 4280110375
0.04405367 0.0025171519 0.43600002 4278727189
0.045678377 0.0025286984 0.43800002 4278198275
0.047316074 0.0025402452 0.44000003 4278200328
0.048966765 0.0025517917 0.44200003 4279255068
0.050630447 0.0025633383 0.44400004 4280044330
0.052424401 0.0025806581 0.44700003 4279584549
0.054117315 0.0025922046 0.44900003 4279586086
0.055823222 0.0026037514 0.45100003 4279586600
0.057415091 0.0026095244 0.45200002 4279916848
0.05901346 0.0026152977 0.45300001 4279390504
0.06061833 0.0026210712 0.45400003 4279257894
0.062229685 0.0026268442 0.45500001 4279256615
0.06370753 0.0026268442 0.45500001 4282213968
0.065328635 0.0026326177 0.45600003 4286884244
-0.0012074348 0.0037623351 0.41700003 4283590227
0.00014698198 0.0037623351 0.41700003 4283853399
0.0015013987 0.0037623351 0.41700003 4284050780
0.0028558155 0.0037623351 0.41700003 4284182364
0.0042001354 0.0037533126 0.41600001 4283590227
0.0055513047 0.0037533126 0.41600001 4284445536
0.0068858806 0.0037442902 0.41500002 4280763692
0.0082338015 0.0037442902 0.41500002 4279779363
0.0095817223 0.0037442902 0.41500002 4279453217
0.010929643 0.0037442902 0.41500002 4279190556
0.012277564 0.0037442902 0.41500002 4278862875
0.013625485 0.0037442902 0.41500002 4279258144
0.014973405 0.0037442902 0.41500002 4279325220
0.016360654 0.0037533126 0.41600001 4279062048
0.017711822 0.0037533126 0.41600001 4278931232
0.019062992 0.0037533126 0.41600001 4278866207
0.020463234 0.0037623351 0.41700003 4279063586
0.021817649 0.0037623351 0.41700003 4278932000
0.023227634 0.0037713575 0.41800001 4278866207
0.024585299 0.0037713575 0.41800001 4278734621
0.02600503 0.0037803799 0.41900003 4279194658
0.027431253 0.0037894021 0.42000002 4278202118
0.028863978 0.0037984247 0.42100003 4279914279
0.030303193 0.0038074469 0.42200002 4278199811
0.031748902 0.0038164693 0.42300001 4278919441
0.033279419 0.0038345142 0.42500001 4278919187
0.034741372 0.0038435366 0.42600003 4278984467
0.036294624 0.0038615814 0.42800003 4278787601
0.037860863 0.003879626 0.43000001 4278459406
0.0393488 0.0038886485 0.43100002 4278591759
0.040937781 0.0039066933 0.43300003 4280044330
0.042539749 0.0039247382 0.43500003 4279913514
0.04405367 0.0039337603 0.43600002 4279584549
0.045678377 0.0039518052 0.43800002 4280242733
0.047316074 0.00396985 0.44000003 4279520289
0.048966765 0.0039878949 0.44200003 4279323424
0.050630447 0.0040059397 0.44400004 4279192351
0.052424401 0.0040330067 0.44700003 4279192351
0.054117315 0.0040510516 0.44900003 4279323937
0.055823222 0.0040690964 0.45100003 4279521318
0.057415091 0.0040781186 0.45200002 4279387685
0.05901346 0.0040871408 0.45300001 4282544216
0.06061833 0.0040961634 0.45400003 4286357900
0.062229685 0.0041051856 0.45500001 4286488716
0.06370753 0.0041051856 0.45500001 4286487949
0.065185368 0.0041051856 0.45500001 4286882961
-0.0012103303 0.0051294821 0.41800001 4284051032
0.00014733446 0.0051294821 0.41800001 4284051545
0.0015013987 0.005117211 0.41700003 4283919705
0.0028558155 0.005117211 0.41700003 4283788119
0.0042001354 0.005104939 0.41600001 4283722326
0.0055513047 0.005104939 0.41600001 4283919705
0.0069024726 0.005104939 0.41600001 4279449115
0.0082338015 0.0050926679 0.41500002 4279977256
0.0095817223 0.0050926679 0.41500002 4279321631
0.010929643 0.0050926679 0.41500002 4279124763
0.012277564 0.0050926679 0.41500002 4278862875
0.013658317 0.005104939 0.41600001 4279061537
0.015009484 0.005104939 0.41600001 4279062050
0.016360654 0.005104939 0.41600001 4278865441
0.017711822 0.005104939 0.41600001 4278931746
0.019108817 0.005117211 0.41700003 4278931746
0.020463234 0.005117211 0.41700003 4278800414
0.021869969 0.0051294821 0.41800001 4278734621
0.023227634 0.0051294821 0.41800001 4278800414
0.024644116 0.0051417537 0.41900003 4279063072
0.02600503 0.0051417537 0.41900003 4279652902
0.027431253 0.0051540253 0.42000002 4278203147
0.028863978 0.0051662968 0.42100003 4280045865
0.030303193 0.0051785684 0.42200002 4278200838
0.031748902 0.0051908395 0.42300001 4279382809
0.033201117 0.0052031111 0.42400002 4279909412
0.034741372 0.0052276542 0.42600003 4280109871
0.036294624 0.0052521974 0.42800003 4280045102
0.037860863 0.0052767401 0.43000001 4279454246
0.0393488 0.0052890116 0.43100002 4279980590
0.040937781 0.0053135548 0.43300003 4279323941
0.042441957 0.0053258259 0.43400002 4279193125
0.04405367 0.005350369 0.43600002 4279061539
0.045678377 0.0053749122 0.43800002 4278995744
0.047316074 0.0053994553 0.44000003 4279193123
0.048966765 0.005423998 0.44200003 4279127330
0.050630447 0.0054485411 0.44400004 4279059742
0.052424401 0.0054853554 0.44700003 4280373297
0.054117315 0.0055098985 0.44900003 4284055143
0.055823222 0.0055344417 0.45100003 4286291335
0.057415091 0.0055467128 0.45200002 4286290822
0.05901346 0.0055589844 0.45300001 4285962370
0.06061833 0.0055712559 0.45400003 4286357130
0.062092919 0.0055712559 0.45400003 4286685841
0.06370753 0.005583527 0.45500001 4286948500
0.065185368 0.005583527 0.45500001 4286751121
0.0015049991 0.006487607 0.41800001 4283984985
0.0028558155 0.0064720865 0.41700003 4283590227
0.0042102323 0.0064720865 0.41700003 4283853399
0.0055513047 0.0064565656 0.41600001 4284248670
0.0069024726 0.0064565656 0.41600001 4280172838
0.0082536414 0.0064565656 0.41600001 4279649061
0.0096048107 0.0064565656 0.41600001 4279190556
0.010955979 0.0064565656 0.41600001 4278993947
0.012307148 0.0064565656 0.41600001 4278994461
0.013658317 0.0064565656 0.41600001 4279127843
0.015009484 0.0064565656 0.41600001 4278997027
0.016360654 0.0064565656 0.41600001 4278865441
0.0177544 0.0064720865 0.41700003 4278602781
0.019108817 0.0064720865 0.41700003 4279063332
0.020512305 0.006487607 0.41800001 4278931746
0.021869969 0.006487607 0.41800001 4278865953
0.023283204 0.006503128 0.41900003 4278931746
0.024644116 0.006503128 0.41900003 4279063072
0.02600503 0.006503128 0.41900003 4278666777
0.027431253 0.006518648 0.42000002 4278203658
0.028863978 0.006534169 0.42100003 4279389217
0.030303193 0.0065496895 0.42200002 4279586596
0.031748902 0.0065652099 0.42300001 4279389219
0.033201117 0.0065807309 0.42400002 4279323426
0.034741372 0.0066117719 0.42600003 4279193123
0.036294624 0.0066428133 0.42800003 4278996257
0.037772816 0.0066583334 0.42900002 4279193636
0.0393488 0.0066893748 0.43100002 4278996259
0.040843233 0.0067048953 0.43200001 4278995746
0.042441957 0.0067359363 0.43400002 4279061539
0.04405367 0.0067669777 0.43600002 4279718186
0.045678377 0.0067980192 0.43800002 4279453730
0.047208536 0.0068135392 0.43900001 4280702010
0.048855979 0.0068445806 0.44100001 4284583284
0.050516412 0.0068756216 0.44300002 4286817166
0.052424401 0.0069377045 0.44700003 4285632892
0.057542115 0.0070308275 0.45300001 4286225031
0.05901346 0.0070308275 0.45300001 4286225031
0.06061833 0.0070463484 0.45400003 4285896066
0.062092919 0.0070463484 0.45400003 4286947984
0.0042102323 0.0078269625 0.41700003 4283459156
0.0069024726 0.0078081922 0.41600001 4279911463
0.0082536414 0.0078081922 0.41600001 4279649574
0.0096048107 0.0078081922 0.41600001 4279387937
0.010955979 0.0078081922 0.41600001 4279125535
0.012307148 0.0078081922 0.41600001 4279192353
0.013658317 0.0078081922 0.41600001 4279127330
0.015009484 0.0078081922 0.41600001 4279062820
0.016399983 0.0078269625 0.41700003 4278997025
0.0177544 0.0078269625 0.41700003 4279063332
0.01915464 0.0078457315 0.41800001 4278865953
0.020512305 0.0078457315 0.41800001 4278865953
0.021869969 0.0078457315 0.41800001 4278865953
0.023283204 0.0078645013 0.41900003 4278865953
0.024644116 0.0078645013 0.41900003 4278865953
0.026067093 0.0078832712 0.42000002 4278864671
0.027431253 0.0078832712 0.42000002 4279193123
0.028863978 0.0079020411 0.42100003 4279389730
0.030303193 0.007920811 0.42200002 4279323937
0.031748902 0.0079395799 0.42300001 4279389730
0.033201117 0.0079583498 0.42400002 4279258914
0.034659818 0.0079771196 0.42500001 4279522090
0.036294624 0.0080334293 0.42800003 4279258918
0.037772816 0.0080521982 0.42900002 4279521320
0.0393488 0.008089738 0.43100002 4280045613
0.040843233 0.0081085078 0.43200001 4281162046
0.042441957 0.0081460467 0.43400002 4283529824
0.04405367 0.0081835864 0.43600002 4286489484
0.045678377 0.0082211262 0.43800002 4286422923
0.047208536 0.0082398951 0.43900001 4285896579
0.0055646491 0.0091818376 0.41700003 4279513375
0.0069024726 0.0091598183 0.41600001 4279582246
0.0082536414 0.0091598183 0.41600001 4279583527
0.0096048107 0.0091598183 0.41600001 4279190304
0.010955979 0.0091598183 0.41600001 4279125535
0.012307148 0.0091598183 0.41600001 4279323939
0.013658317 0.0091598183 0.41600001 4279390502
0.015045566 0.0091818376 0.41700003 4279193636
0.016399983 0.0091818376 0.41700003 4279456808
0.0177544 0.0091818376 0.41700003 4279194920
0.01915464 0.0092038559 0.41800001 4279129127
0.020512305 0.0092038559 0.41800001 4278931746
0.02192229 0.0092258751 0.41900003 4279063332
0.023283204 0.0092258751 0.41900003 4278997025
0.024644116 0.0092258751 0.41900003 4278997025
0.026067093 0.0092478935 0.42000002 4279193121
0.027431253 0.0092478935 0.42000002 4279587881
0.028863978 0.0092699127 0.42100003 4279718184
0.030231385 0.0092699127 0.42100003 4279849770
0.031673849 0.0092919311 0.42200002 4279717166
0.033122811 0.0093139503 0.42300001 4280504631
0.034659818 0.0093579879 0.42500001 4283331933
0.0069024726 0.010511445 0.41600001 4284910454
0.0082536414 0.010511445 0.41600001 4279778600
0.0096048107 0.010511445 0.41600001 4279516451
0.010955979 0.010511445 0.41600001 4279452195
0.012307148 0.010511445 0.41600001 4279455014
0.013658317 0.010511445 0.41600001 4279718699
0.015045566 0.010536713 0.41700003 4279850283
0.016399983 0.010536713 0.41700003 4279522088
0.017796976 0.01056198 0.41800001 4279720750
0.01915464 0.01056198 0.41800001 4279720750
0.020512305 0.01056198 0.41800001 4279654187
0.02192229 0.010587249 0.41900003 4279522088
0.023283204 0.010587249 0.41900003 4280178223
0.024644116 0.010587249 0.41900003 4279849004
0.026067093 0.010612517 0.42000002 4280242481
0.027431253 0.010612517 0.42000002 4283070297
0.013658317 0.011863071 0.41600001 4279517475
0.015045566 0.01189159 0.41700003 4279978024
0.016399983 0.01189159 0.41700003 4280372266
0.017796976 0.011920106 0.41800001 4280175657
0.01915464 0.011920106 0.41800001 4280701749
0.020512305 0.011920106 0.41800001 4282806103
0.032932848 -0.00060238905 0.43091026 4294967295
0.032932848 -0.00060238905 0.43091026 4294901760
0.032972734 -0.0001041494 0.43092316 4294901760
0.033012621 0.00039409025 0.43093604 4294901760
0.033052512 0.0008923299 0.43094894 4294901760
0.033092398 0.0013905696 0.43096185 4294901760
0.033132285 0.0018888093 0.43097472 4294901760
0.033172172 0.0023870489 0.43098763 4294901760
0.033212062 0.0028852886 0.4310005 4294901760
0.033251949 0.0033835282 0.43101341 4294901760
0.033291835 0.0038817681 0.43102631 4294901760
0.033331722 0.0043800073 0.43103918 4294901760
0.033371612 0.0048782472 0.43105209 4294901760
0.033411499 0.0053764866 0.43106499 4294901760
0.033451386 0.005874726 0.43107787 4294901760
0.033491272 0.0063729659 0.43109077 4294901760
0.033531163 0.0068712058 0.43110365 4294901760
0.03357105 0.0073694452 0.43111655 4294901760
0.033610936 0.0078676855 0.43112946 4294901760
0.033650823 0.0083659254 0.43114233 4294901760
0.033690713 0.0088641644 0.43115523 4294901760
0.0337306 0.0093624042 0.43116814 4294901760
0.033770487 0.0098606441 0.43118101 4294901760
0.033810373 0.010358884 0.43119392 4294901760
0.033850264 0.010857124 0.43120679 4294901760
0.03389015 0.011355363 0.4312197 4294901760
0.033930037 0.011853603 0.4312326 4294901760
0.033969924 0.012351842 0.43124548 4294901760
0.034009814 0.012850082 0.43125838 4294901760
0.034049701 0.013348321 0.43127128 4294901760
0.034089588 0.013846561 0.43128416 4294901760
0.034129474 0.014344801 0.43129706 4294901760
0.034169361 0.014843041 0.43130997 4294901760
0.034209251 0.01534128 0.43132284 4294901760
0.034249138 0.015839521 0.43133575 4294901760
0.034289025 0.01633776 0.43134862 4294901760
0.034328911 0.016835999 0.43136153 4294901760
0.034368802 0.01733424 0.43137443 4294901760
0.034408689 0.017832479 0.43138731 4294901760
0.034448575 0.018330717 0.43140021 4294901760
0.034488462 0.018828956 0.43141311 4294901760
0.034528352 0.019327197 0.43142599 4294901760
0.034568239 0.019825436 0.43143889 4294901760
0.034608126 0.020323677 0.43145177 4294901760
0.034648012 0.020821918 0.43146467 4294901760
0.034687903 0.021320157 0.43147758 4294901760
0.034727789 0.021818396 0.43149045 4294901760
0.034767676 0.022316637 0.43150336 4294901760
0.034807563 0.022814875 0.43151626 4294901760
0.034847453 0.023313114 0.43152913 4294901760
0.03488734 0.023811355 0.43154204 4294901760
0.034927227 0.024309594 0.43155491 4294901760
0.034967113 0.024807833 0.43156782 4294901760
0.035007 0.025306072 0.43158072 4294901760
0.03504689 0.025804311 0.4315936 4294901760
0.035086777 0.026302554 0.4316065 4294901760
0.035126664 0.026800793 0.43161941 4294901760
0.03516655 0.027299032 0.43163228 4294901760
0.035206441 0.027797271 0.43164518 4294901760
0.035246328 0.028295511 0.43165809 4294901760
0.035286214 0.02879375 0.43167096 4294901760
0.035326101 0.029291991 0.43168387 4294901760
0.035365991 0.029790232 0.43169674 4294901760
0.035405878 0.030288471 0.43170965 4294901760
0.035445765 0.03078671 0.43172255 4294901760
0.035485651 0.031284947 0.43173543 4294901760
0.035525542 0.031783186 0.43174833 4294901760
0.035565428 0.032281429 0.43176123 4294901760
0.035605315 0.032779668 0.43177411 4294901760
0.035645202 0.033277906 0.43178701 4294901760
0.035685092 0.033776145 0.43179989 4294901760
0.035724979 0.034274384 0.43181279 4294901760
0.035764866 0.034772623 0.4318257 4294901760
0.035804752 0.035270866 0.43183857 4294901760
0.035844643 0.035769105 0.43185148 4294901760
0.035884529 0.036267344 0.43186438 4294901760
0.035924416 0.036765583 0.43187726 4294901760
0.035964303 0.037263822 0.43189016 4294901760
0.036004189 0.037762061 0.43190306 4294901760
0.03604408 0.0382603 0.43191594 4294901760
0.036083966 0.038758542 0.43192884 4294901760
0.036123853 0.039256781 0.43194172 4294901760
0.03616374 0.03975502 0.43195462 4294901760
0.03620363 0.040253259 0.43196753 4294901760
0.036243517 0.040751502 0.4319804 4294901760
0.036283404 0.041249741 0.43199331 4294901760
0.03632329 0.04174798 0.43200621 4294901760
0.036363181 0.042246222 0.43201908 4294901760
0.036403067 0.042744461 0.43203199 4294901760
0.036442954 0.0432427 0.43204486 4294901760
0.036482841 0.043740939 0.43205777 4294901760
0.036522731 0.044239178 0.43207067 4294901760
0.036562618 0.044737421 0.43208355 4294901760
0.036602505 0.04523566 0.43209645 4294901760
0.036642391 0.045733899 0.43210936 4294901760
0.036682282 0.046232138 0.43212223 4294901760
0.036722168 0.046730377 0.43213513 4294901760
0.036762055 0.047228616 0.43214801 4294901760
0.036801942 0.047726858 0.43216091 4294901760
0.036841832 0.048225097 0.43217382 4294901760
0.036881719 0.048723336 0.43218669 4294901760
0.036921605 0.049221575 0.4321996 4294901760
0.032932848 -0.00060238905 0.43091026 4278255360
0.033324376 -0.00064171635 0.43121874 4278255360
0.033715904 -0.00068104366 0.43152723 4278255360
0.034107428 -0.00072037097 0.43183571 4278255360
0.034498956 -0.00075969828 0.43214417 4278255360
0.034890484 -0.00079902564 0.43245265 4278255360
0.035282012 -0.00083835295 0.43276113 4278255360
0.03567354 -0.00087768026 0.43306962 4278255360
0.036065064 -0.00091700756 0.4333781 4278255360
0.036456592 -0.00095633487 0.43368658 4278255360
0.03684812 -0.00099566218 0.43399507 4278255360
0.037239648 -0.0010349895 0.43430355 4278255360
0.037631176 -0.0010743168 0.43461201 4278255360
0.038022701 -0.0011136441 0.43492049 4278255360
0.038414229 -0.0011529714 0.43522897 4278255360
0.038805757 -0.0011922987 0.43553746 4278255360
0.039197285 -0.001231626 0.43584594 4278255360
0.039588813 -0.0012709533 0.43615443 4278255360
0.039980337 -0.0013102808 0.43646291 4278255360
0.040371865 -0.0013496079 0.43677139 4278255360
0.040763393 -0.0013889354 0.43707985 4278255360
0.041154921 -0.0014282626 0.43738833 4278255360
0.041546449 -0.00146759 0.43769681 4278255360
0.041937977 -0.0015069172 0.4380053 4278255360
0.042329501 -0.0015462446 0.43831378 4278255360
0.042721029 -0.0015855718 0.43862227 4278255360
0.043112557 -0.0016248992 0.43893075 4278255360
0.043504085 -0.0016642264 0.4392392 4278255360
0.04389561 -0.0017035538 0.43954769 4278255360
0.044287138 -0.001742881 0.43985617 4278255360
0.044678666 -0.0017822084 0.44016466 4278255360
0.045070194 -0.0018215356 0.44047314 4278255360
0.045461722 -0.0018608631 0.44078162 4278255360
0.04585325 -0.0019001905 0.44109011 4278255360
0.046244774 -0.0019395177 0.44139859 4278255360
0.046636302 -0.0019788449 0.44170704 4278255360
0.04702783 -0.0020181723 0.44201553 4278255360
0.047419358 -0.0020574997 0.44232401 4278255360
0.047810882 -0.0020968269 0.4426325 4278255360
0.04820241 -0.0021361541 0.44294098 4278255360
0.048593938 -0.0021754815 0.44324946 4278255360
0.048985466 -0.0022148089 0.44355795 4278255360
0.049376994 -0.0022541361 0.44386643 4278255360
0.049768522 -0.0022934636 0.44417489 4278255360
0.050160047 -0.0023327908 0.44448337 4278255360
0.050551575 -0.0023721179 0.44479185 4278255360
0.050943103 -0.0024114454 0.44510034 4278255360
0.051334627 -0.0024507728 0.44540882 4278255360
0.051726155 -0.0024901 0.4457173 4278255360
0.052117683 -0.0025294274 0.44602579 4278255360
0.052509211 -0.0025687546 0.44633424 4278255360
0.052900739 -0.0026080818 0.44664273 4278255360
0.053292267 -0.0026474092 0.44695121 4278255360
0.053683791 -0.0026867364 0.44725969 4278255360
0.054075323 -0.0027260638 0.44756818 4278255360
0.054466847 -0.0027653913 0.44787666 4278255360
0.054858375 -0.0028047184 0.44818515 4278255360
0.0552499 -0.0028440459 0.44849363 4278255360
0.055641428 -0.0028833731 0.44880208 4278255360
0.056032956 -0.0029227003 0.44911057 4278255360
0.056424484 -0.0029620279 0.44941905 4278255360
0.056816012 -0.0030013551 0.44972754 4278255360
0.05720754 -0.0030406823 0.45003602 4278255360
0.057599068 -0.0030800097 0.4503445 4278255360
0.057990592 -0.0031193369 0.45065299 4278255360
0.058382116 -0.0031586641 0.45096147 4278255360
0.058773648 -0.0031979918 0.45126992 4278255360
0.059165176 -0.0032373189 0.45157841 4278255360
0.0595567 -0.0032766461 0.45188689 4278255360
0.059948228 -0.0033159736 0.45219538 4278255360
0.060339756 -0.0033553008 0.45250386 4278255360
0.060731284 -0.0033946282 0.45281234 4278255360
0.061122812 -0.0034339556 0.45312083 4278255360
0.06151434 -0.0034732828 0.45342928 4278255360
0.061905868 -0.0035126102 0.45373777 4278255360
0.062297393 -0.0035519374 0.45404625 4278255360
0.062688917 -0.0035912646 0.45435473 4278255360
0.063080445 -0.003630592 0.45466322 4278255360
0.063471973 -0.0036699192 0.4549717 4278255360
0.063863501 -0.0037092466 0.45528018 4278255360
0.064255029 -0.0037485741 0.45558867 4278255360
0.064646557 -0.0037879013 0.45589715 4278255360
0.065038085 -0.0038272287 0.45620561 4278255360
0.065429613 -0.0038665559 0.45651409 4278255360
0.065821141 -0.0039058831 0.45682257 4278255360
0.066212669 -0.0039452109 0.45713106 4278255360
0.066604197 -0.0039845379 0.45743954 4278255360
0.066995725 -0.0040238653 0.45774803 4278255360
0.067387246 -0.0040631928 0.45805651 4278255360
0.067778774 -0.0041025197 0.45836496 4278255360
0.068170302 -0.0041418471 0.45867345 4278255360
0.06856183 -0.0041811746 0.45898193 4278255360
0.068953358 -0.004220502 0.45929042 4278255360
0.069344878 -0.0042598289 0.4595989 4278255360
0.069736406 -0.0042991564 0.45990738 4278255360
0.070127934 -0.0043384838 0.46021587 4278255360
0.070519462 -0.0043778112 0.46052432 4278255360
0.07091099 -0.0044171386 0.4608328 4278255360
0.071302518 -0.0044564656 0.46114129 4278255360
0.071694046 -0.004495793 0.46144977 4278255360
0.072085574 -0.0045351204 0.46175826 4278255360
0.032932848 -0.00060238905 0.43091026 4278190335
0.033307731 -0.00062385749 0.43058011 4278190335
0.033682618 -0.00064532593 0.43024996 4278190335
0.034057502 -0.00066679443 0.42991981 4278190335
0.034432385 -0.00068826287 0.42958966 4278190335
0.034807272 -0.00070973131 0.42925951 4278190335
0.035182156 -0.00073119975 0.42892936 4278190335
0.035557039 -0.00075266825 0.42859918 4278190335
0.035931926 -0.00077413663 0.42826903 4278190335
0.03630681 -0.00079560513 0.42793888 4278190335
0.036681693 -0.00081707357 0.42760873 4278190335
0.03705658 -0.00083854201 0.42727858 4278190335
0.037431464 -0.00086001051 0.42694843 4278190335
0.037806347 -0.00088147889 0.42661828 4278190335
0.03818123 -0.00090294739 0.42628813 4278190335
0.038556118 -0.00092441583 0.42595798 4278190335
0.038931001 -0.00094588427 0.42562783 4278190335
0.039305888 -0.00096735277 0.42529768 4278190335
0.039680772 -0.00098882127 0.42496753 4278190335
0.040055655 -0.0010102896 0.42463735 4278190335
0.040430538 -0.001031758 0.4243072 4278190335
0.040805425 -0.0010532265 0.42397705 4278190335
0.041180309 -0.001074695 0.4236469 4278190335
0.041555196 -0.0010961634 0.42331675 4278190335
0.041930079 -0.0011176319 0.4229866 4278190335
0.042304963 -0.0011391004 0.42265645 4278190335
0.042679846 -0.0011605688 0.4223263 4278190335
0.043054733 -0.0011820373 0.42199615 4278190335
0.043429617 -0.0012035058 0.421666 4278190335
0.0438045 -0.0012249742 0.42133585 4278190335
0.044179387 -0.0012464426 0.4210057 4278190335
0.044554271 -0.0012679111 0.42067555 4278190335
0.044929154 -0.0012893796 0.42034537 4278190335
0.045304041 -0.0013108479 0.42001522 4278190335
0.045678925 -0.0013323164 0.41968507 4278190335
0.046053808 -0.0013537849 0.41935492 4278190335
0.046428695 -0.0013752533 0.41902477 4278190335
0.046803579 -0.0013967218 0.41869462 4278190335
0.047178462 -0.0014181902 0.41836447 4278190335
0.047553346 -0.0014396587 0.41803432 4278190335
0.047928233 -0.0014611271 0.41770416 4278190335
0.048303116 -0.0014825956 0.41737401 4278190335
0.048678003 -0.0015040641 0.41704386 4278190335
0.049052887 -0.0015255325 0.41671371 4278190335
0.04942777 -0.001547001 0.41638353 4278190335
0.049802653 -0.0015684695 0.41605338 4278190335
0.050177541 -0.0015899378 0.41572323 4278190335
0.050552424 -0.0016114062 0.41539308 4278190335
0.050927311 -0.0016328748 0.41506293 4278190335
0.051302195 -0.0016543432 0.41473278 4278190335
0.051677078 -0.0016758116 0.41440263 4278190335
0.052051961 -0.00169728 0.41407248 4278190335
0.052426845 -0.0017187486 0.41374233 4278190335
0.052801728 -0.001740217 0.41341218 4278190335
0.053176619 -0.0017616856 0.41308203 4278190335
0.053551503 -0.001783154 0.41275188 4278190335
0.053926386 -0.0018046224 0.4124217 4278190335
0.054301269 -0.0018260907 0.41209155 4278190335
0.054676153 -0.0018475591 0.4117614 4278190335
0.055051036 -0.0018690277 0.41143125 4278190335
0.055425927 -0.0018904961 0.4111011 4278190335
0.05580081 -0.0019119647 0.41077095 4278190335
0.056175694 -0.0019334331 0.4104408 4278190335
0.056550577 -0.0019549015 0.41011065 4278190335
0.056925461 -0.0019763699 0.4097805 4278190335
0.057300344 -0.0019978385 0.40945035 4278190335
0.057675235 -0.0020193069 0.4091202 4278190335
0.058050118 -0.0020407755 0.40879005 4278190335
0.058425002 -0.0020622439 0.4084599 4278190335
0.058799885 -0.0020837123 0.40812975 4278190335
0.059174769 -0.0021051806 0.40779957 4278190335
0.059549652 -0.002126649 0.40746942 4278190335
0.059924543 -0.0021481176 0.40713927 4278190335
0.060299426 -0.002169586 0.40680912 4278190335
0.06067431 -0.0021910546 0.40647897 4278190335
0.061049193 -0.002212523 0.40614882 4278190335
0.061424077 -0.0022339914 0.40581867 4278190335
0.06179896 -0.0022554598 0.40548852 4278190335
0.062173843 -0.0022769282 0.40515837 4278190335
0.062548734 -0.0022983968 0.40482822 4278190335
0.062923618 -0.0023198652 0.40449807 4278190335
0.063298501 -0.0023413338 0.40416789 4278190335
0.063673384 -0.0023628022 0.40383774 4278190335
0.064048268 -0.0023842705 0.40350759 4278190335
0.064423159 -0.0024057389 0.40317744 4278190335
0.064798042 -0.0024272075 0.40284729 4278190335
0.065172926 -0.0024486759 0.40251714 4278190335
0.065547809 -0.0024701443 0.40218699 4278190335
0.065922692 -0.0024916129 0.40185684 4278190335
0.066297576 -0.0025130813 0.40152669 4278190335
0.066672459 -0.0025345497 0.40119654 4278190335
0.067047343 -0.0025560183 0.40086639 4278190335
0.067422234 -0.0025774867 0.40053624 4278190335
0.067797117 -0.0025989551 0.40020609 4278190335
0.068172 -0.0026204234 0.39987594 4278190335
0.068546884 -0.0026418918 0.39954576 4278190335
0.068921775 -0.0026633604 0.39921561 4278190335
0.069296658 -0.0026848288 0.39888546 4278190335
0.069671541 -0.0027062974 0.39855531 4278190335
0.070046425 -0.0027277658 0.39822516 4278190335
0.070421308 -0.0027492342 0.39789501 4278190335
0.032932848 -0.00060238905 0.43091026 4294967295
0.03068354 -0.00047357834 0.43289116 4294967295
0.028434232 -0.00034476761 0.43487209 4294967295
0.026184926 -0.00021595691 0.43685299 4294967295
0.023935618 -8.7146182e-05 0.43883392 4294967295
0.02168631 4.166452e-05 0.44081482 4294967295
0.019437004 0.00017047522 0.44279575 4294967295
0.017187696 0.00029928592 0.44477665 4294967295
0.014938388 0.00042809668 0.44675758 4294967295
0.01268908 0.00055690744 0.44873849 4294967295
0.010439772 0.00068571809 0.45071942 4294967295
0.0081904661 0.00081452884 0.45270032 4294967295
0.0059411582 0.00094333949 0.45468125 4294967295
0.0036918521 0.0010721502 0.45666215 4294967295
0.0014425442 0.0012009609 0.45864308 4294967295
-0.00080676749 0.0013297717 0.46062398 4294967295
-0.0030560717 0.0014585825 0.46260491 4294967295
-0.0053053796 0.0015873932 0.46458581 4294967295
-0.0075546876 0.001716204 0.46656674 4294967295
-0.0098039955 0.0018450145 0.46854764 4294967295
-0.012053303 0.0019738253 0.47052857 4294967295
-0.014302608 0.0021026358 0.47250947 4294967295
-0.016551916 0.0022314468 0.4744904 4294967295
-0.018801223 0.0023602576 0.4764713 4294967295
-0.021050531 0.0024890681 0.47845224 4294967295
-0.023299839 0.0026178788 0.48043314 4294967295
-0.025549144 0.0027466894 0.48241407 4294967295
-0.027798455 0.0028755004 0.48439497 4294967295
-0.030047759 0.0030043109 0.4863759 4294967295
-0.032297067 0.0031331216 0.4883568 4294967295
-0.034546383 0.0032619326 0.49033773 4294967295
-0.036795683 0.0033907432 0.49231863 4294967295
-0.039044991 0.0035195539 0.49429956 4294967295
-0.041294299 0.0036483647 0.49628046 4294967295
-0.043543607 0.0037771754 0.49826139 4294967295
-0.045792915 0.0039059857 0.50024229 4294967295
-0.048042223 0.0040347967 0.50222319 4294967295
-0.050291531 0.004163607 0.50420415 4294967295
-0.052540839 0.0042924178 0.50618505 4294967295
-0.054790139 0.0044212285 0.50816596 4294967295
-0.057039455 0.0045500393 0.51014686 4294967295
-0.059288755 0.0046788501 0.51212776 4294967295
-0.061538063 0.0048076604 0.51410872 4294967295
-0.063787378 0.0049364716 0.51608962 4294967295
-0.066036679 0.0050652823 0.51807052 4294967295
-0.068285987 0.0051940926 0.52005148 4294967295
-0.070535295 0.0053229039 0.52203238 4294967295
-0.072784603 0.0054517142 0.52401328 4294967295
-0.075033911 0.0055805249 0.52599418 4294967295
-0.077283219 0.0057093357 0.52797508 4294967295
-0.079532526 0.0058381464 0.52995604 4294967295
-0.081781834 0.0059669572 0.53193694 4294967295
-0.084031135 0.0060957675 0.53391784 4294967295
-0.086280443 0.0062245782 0.53589875 4294967295
-0.088529758 0.0063533895 0.53787971 4294967295
-0.090779066 0.0064822002 0.53986061 4294967295
-0.093028367 0.0066110105 0.54184151 4294967295
-0.095277682 0.0067398213 0.54382241 4294967295
-0.097526982 0.006868632 0.54580337 4294967295
-0.099776283 0.0069974423 0.54778427 4294967295
-0.10202561 0.007126254 0.54976517 4294967295
-0.10427491 0.0072550648 0.55174613 4294967295
-0.10652421 0.0073838751 0.55372703 4294967295
-0.10877353 0.0075126854 0.55570793 4294967295
-0.11102283 0.0076414966 0.55768883 4294967295
-0.11327213 0.0077703069 0.55966973 4294967295
-0.11552145 0.0078991186 0.56165069 4294967295
-0.11777076 0.0080279289 0.56363159 4294967295
-0.12002006 0.0081567401 0.56561249 4294967295
-0.12226936 0.0082855504 0.56759346 4294967295
-0.12451868 0.0084143607 0.56957436 4294967295
-0.12676798 0.0085431719 0.57155526 4294967295
-0.12901729 0.0086719831 0.57353616 4294967295
-0.13126661 0.0088007934 0.57551706 4294967295
-0.13351591 0.0089296037 0.57749802 4294967295
-0.13576521 0.009058415 0.57947892 4294967295
-0.13801453 0.0091872253 0.58145982 4294967295
