# .PCD v0.7 - Point Cloud Data file format
VERSION 0.7
FIELDS x y z rgb
SIZE 4 4 4 4
TYPE F F F U
COUNT 1 1 1 1
WIDTH 1065
HEIGHT 1
VIEWPOINT 0 0 0 1 0 0 0
POINTS 1065
DATA ascii
0.063721359 0.022875536 0.35600001 4278729492
0.064695403 0.022811281 0.35500002 4278598419
0.06566295 0.022747021 0.354 4278664212
0.066812746 0.022747021 0.354 4278664212
0.067770556 0.022682765 0.35300002 4279058457
0.068917103 0.022682765 0.35300002 4279189273
0.069865167 0.02261851 0.35200003 4278663697
0.071008459 0.02261851 0.35200003 4278532624
0.072151758 0.02261851 0.35200003 4278335245
0.073086828 0.02255425 0.35100001 4278466831
0.074226879 0.02255425 0.35100001 4278269454
0.075366922 0.02255425 0.35100001 4278466833
0.10302076 0.02261851 0.35200003 4279058972
0.047028389 0.024369748 0.36100003 4279442442
0.04820092 0.024369748 0.36100003 4279313682
0.049236674 0.024302242 0.36000001 4279250451
0.050545976 0.024369748 0.36100003 4279056152
0.05157524 0.024302242 0.36000001 4278661648
0.052744523 0.024302242 0.36000001 4278530832
0.053913798 0.024302242 0.36000001 4278729494
0.055083081 0.024302242 0.36000001 4278992664
0.056252364 0.024302242 0.36000001 4278795285
0.05742164 0.024302242 0.36000001 4279190043
0.058590923 0.024302242 0.36000001 4278992664
0.059594207 0.024234736 0.35900003 4278992664
0.060760234 0.024234736 0.35900003 4278861078
0.061753768 0.024167228 0.35800001 4278597906
0.06274081 0.024099724 0.35700002 4278860308
0.063721359 0.024032217 0.35600001 4278926101
0.064695403 0.023964711 0.35500002 4278926101
0.06566295 0.023897203 0.354 4278663699
0.066812746 0.023897203 0.354 4278794517
0.067770556 0.023829699 0.35300002 4278265609
0.068917103 0.023829699 0.35300002 4278528013
0.069865167 0.023762193 0.35200003 4278859027
0.071008459 0.023762193 0.35200003 4278860310
0.072151758 0.023762193 0.35200003 4278729494
0.073295057 0.023762193 0.35200003 4278729494
0.074438356 0.023762193 0.35200003 4278861078
0.075581647 0.023762193 0.35200003 4278729492
0.076724946 0.023762193 0.35200003 4278795285
0.083822183 0.023829699 0.35300002 4278466833
0.084968723 0.023829699 0.35300002 4278203661
0.086115263 0.023829699 0.35300002 4278730005
0.087261811 0.023829699 0.35300002 4278532626
0.088408351 0.023829699 0.35300002 4278532626
0.089554898 0.023829699 0.35300002 4278466833
0.091587804 0.023762193 0.35200003 4278466831
0.099590883 0.023762193 0.35200003 4278862359
0.10073418 0.023762193 0.35200003 4278928152
0.10187748 0.023762193 0.35200003 4278928152
0.10302076 0.023762193 0.35200003 4278664980
0.10416406 0.023762193 0.35200003 4278862359
0.10530736 0.023762193 0.35200003 4278796566
0.10645066 0.023762193 0.35200003 4278862359
0.10759396 0.023762193 0.35200003 4278928152
0.10873725 0.023762193 0.35200003 4278862361
0.10988055 0.023762193 0.35200003 4279124763
0.11070843 0.023694685 0.35100001 4279124250
0.04820092 0.025542675 0.36100003 4279314449
0.049236674 0.025471918 0.36000001 4279251223
0.050545976 0.025542675 0.36100003 4279055638
0.051718507 0.025542675 0.36100003 4278530062
0.052891035 0.025542675 0.36100003 4278465039
0.054063562 0.025542675 0.36100003 4278795285
0.05523609 0.025542675 0.36100003 4278861078
0.056408621 0.025542675 0.36100003 4278861078
0.057581145 0.025542675 0.36100003 4279058457
0.058590923 0.025471918 0.36000001 4278861078
0.059594207 0.025401164 0.35900003 4278992664
0.060760234 0.025401164 0.35900003 4278861078
0.061753768 0.025330408 0.35800001 4278729492
0.06274081 0.025259653 0.35700002 4278926101
0.063721359 0.025188897 0.35600001 4278926101
0.064695403 0.025118142 0.35500002 4278860308
0.06566295 0.025047386 0.354 4278860308
0.066812746 0.025047386 0.354 4278794002
0.067770556 0.024976632 0.35300002 4278196992
0.068917103 0.024976632 0.35300002 4278330121
0.070063643 0.024976632 0.35300002 4279121431
0.071008459 0.024905877 0.35200003 4279121945
0.072151758 0.024905877 0.35200003 4278991383
0.073295057 0.024905877 0.35200003 4278859797
0.074438356 0.024905877 0.35200003 4278991383
0.075581647 0.024905877 0.35200003 4278991383
0.076724946 0.024905877 0.35200003 4278859795
0.078089461 0.024976632 0.35300002 4278991381
0.083822183 0.024976632 0.35300002 4278795285
0.084968723 0.024976632 0.35300002 4278663699
0.086115263 0.024976632 0.35300002 4278861078
0.087261811 0.024976632 0.35300002 4278861078
0.088408351 0.024976632 0.35300002 4278729492
0.089554898 0.024976632 0.35300002 4278663699
0.090701446 0.024976632 0.35300002 4278926101
0.091847993 0.024976632 0.35300002 4278729492
0.092994541 0.024976632 0.35300002 4278663699
0.094141088 0.024976632 0.35300002 4278597906
0.099873804 0.024976632 0.35300002 4278598417
0.10102035 0.024976632 0.35300002 4278599187
0.1021669 0.024976632 0.35300002 4278796566
0.10331343 0.024976632 0.35300002 4278796566
0.10445998 0.024976632 0.35300002 4279059738
0.10560653 0.024976632 0.35300002 4278928152
0.10675307 0.024976632 0.35300002 4279190554
0.10759396 0.024905877 0.35200003 4278993945
0.10873725 0.024905877 0.35200003 4278993945
0.10988055 0.024905877 0.35200003 4278862359
0.11102384 0.024905877 0.35200003 4278993175
0.11184848 0.024835119 0.35100001 4278993175
0.11298853 0.024835119 0.35100001 4278993175
0.11412858 0.024835119 0.35100001 4279190554
0.11494023 0.024764366 0.35000002 4279124248
0.11607704 0.024764366 0.35000002 4279255834
0.11721382 0.024764366 0.35000002 4279255066
0.11835063 0.024764366 0.35000002 4279649826
0.11948743 0.024764366 0.35000002 4279517727
0.12062424 0.024764366 0.35000002 4279582750
0.12210892 0.024835119 0.35100001 4280371752
0.12324897 0.024835119 0.35100001 4280108580
0.050545976 0.026715601 0.36100003 4278924566
0.051718507 0.026715601 0.36100003 4278661394
0.052891035 0.026715601 0.36100003 4278201866
0.054063562 0.026715601 0.36100003 4278663699
0.05523609 0.026715601 0.36100003 4278861078
0.056408621 0.026715601 0.36100003 4278992664
0.057581145 0.026715601 0.36100003 4279058457
0.058753677 0.026715601 0.36100003 4278861078
0.059760205 0.026641594 0.36000001 4278663699
0.060760234 0.026567591 0.35900003 4278729492
0.061753768 0.026493585 0.35800001 4278860308
0.06274081 0.026419582 0.35700002 4278926101
0.063721359 0.026345577 0.35600001 4278794515
0.064695403 0.026271572 0.35500002 4278794515
0.06566295 0.026197568 0.354 4278794515
0.066812746 0.026197568 0.354 4278794004
0.067962535 0.026197568 0.354 4278196224
0.068917103 0.026123563 0.35300002 4279184660
0.070063643 0.026123563 0.35300002 4278990359
0.071210191 0.026123563 0.35300002 4278727187
0.072356731 0.026123563 0.35300002 4278196736
0.073503278 0.026123563 0.35300002 4278195712
0.074649826 0.026123563 0.35300002 4278196994
0.075796366 0.026123563 0.35300002 4278328835
0.076942913 0.026123563 0.35300002 4278461705
0.078089461 0.026123563 0.35300002 4278725390
0.083822183 0.026123563 0.35300002 4278859797
0.084968723 0.026123563 0.35300002 4278925588
0.086115263 0.026123563 0.35300002 4278925588
0.087261811 0.026123563 0.35300002 4278991381
0.088408351 0.026123563 0.35300002 4279057174
0.089554898 0.026123563 0.35300002 4278794002
0.090701446 0.026123563 0.35300002 4278925588
0.091847993 0.026123563 0.35300002 4278926101
0.092994541 0.026123563 0.35300002 4278926101
0.094141088 0.026123563 0.35300002 4278794515
0.095287628 0.026123563 0.35300002 4278926101
0.096434169 0.026123563 0.35300002 4278794515
0.099873804 0.026123563 0.35300002 4278728720
0.10102035 0.026123563 0.35300002 4278794513
0.1021669 0.026123563 0.35300002 4278531341
0.10331343 0.026123563 0.35300002 4278531341
0.10445998 0.026123563 0.35300002 4278400525
0.10560653 0.026123563 0.35300002 4278663697
0.10675307 0.026123563 0.35300002 4278597904
0.10789962 0.026123563 0.35300002 4278532113
0.10904616 0.026123563 0.35300002 4278664212
0.10988055 0.02604956 0.35200003 4278664982
0.11102384 0.02604956 0.35200003 4278993947
0.11216714 0.02604956 0.35200003 4278928154
0.11331044 0.02604956 0.35200003 4278993947
0.11445374 0.02604956 0.35200003 4278928154
0.11526863 0.025975555 0.35100001 4279058970
0.11640868 0.025975555 0.35100001 4279124763
0.11754872 0.025975555 0.35100001 4278796568
0.11868877 0.025975555 0.35100001 4278993945
0.11982882 0.025975555 0.35100001 4278993175
0.12131351 0.02604956 0.35200003 4278993175
0.12245681 0.02604956 0.35200003 4278795796
0.12395124 0.026123563 0.35300002 4279058968
0.12580656 0.026271572 0.35500002 4279255834
0.12695959 0.026271572 0.35500002 4279649822
0.12847351 0.026345577 0.35600001 4279977254
0.049510211 0.027965778 0.36200002 4279515676
0.050685991 0.027965778 0.36200002 4278990359
0.05186177 0.027965778 0.36200002 4278595855
0.053037547 0.027965778 0.36200002 4278926103
0.054213319 0.027965778 0.36200002 4278861078
0.055389099 0.027965778 0.36200002 4278598419
0.056564875 0.027965778 0.36200002 4279058970
0.057740647 0.027965778 0.36200002 4278993177
0.058753677 0.027888525 0.36100003 4278927384
0.059760205 0.027811272 0.36000001 4278795285
0.060760234 0.027734019 0.35900003 4278729492
0.061753768 0.027656764 0.35800001 4279123480
0.06274081 0.027579511 0.35700002 4278860308
0.063721359 0.027502256 0.35600001 4278860308
0.064695403 0.027425004 0.35500002 4278794517
0.065848447 0.027425004 0.35500002 4278926103
0.066812746 0.027347749 0.354 4278858773
0.067962535 0.027347749 0.354 4278590474
0.069112331 0.027347749 0.354 4279842336
0.070262127 0.027347749 0.354 4279121947
0.071210191 0.027270496 0.35300002 4278200331
0.072356731 0.027270496 0.35300002 4278391814
0.073503278 0.027270496 0.35300002 4278522886
0.074649826 0.027270496 0.35300002 4278522632
0.075796366 0.027270496 0.35300002 4278654472
0.076942913 0.027270496 0.35300002 4278654472
0.078310676 0.027347749 0.354 4278522886
0.079460464 0.027347749 0.354 4278654472
0.080837972 0.027425004 0.35500002 4278522886
0.081991017 0.027425004 0.35500002 4278523400
0.083144054 0.027425004 0.35500002 4278392582
0.084059633 0.027347749 0.354 4278262277
0.085209429 0.027347749 0.354 4278262277
0.086359218 0.027347749 0.354 4278196740
0.087509014 0.027347749 0.354 4278462218
0.088658802 0.027347749 0.354 4279055125
0.089808591 0.027347749 0.354 4278923539
0.090701446 0.027270496 0.35300002 4279055379
0.091847993 0.027270496 0.35300002 4279384344
0.092994541 0.027270496 0.35300002 4279055892
0.094141088 0.027270496 0.35300002 4278924820
0.095287628 0.027270496 0.35300002 4278794004
0.096434169 0.027270496 0.35300002 4278925590
0.097580716 0.027270496 0.35300002 4278991381
0.098727256 0.027270496 0.35300002 4278859795
0.099873804 0.027270496 0.35300002 4278860310
0.10102035 0.027270496 0.35300002 4278794515
0.1021669 0.027270496 0.35300002 4279188760
0.1036061 0.027347749 0.354 4278991381
0.10475589 0.027347749 0.354 4278859795
0.10590569 0.027347749 0.354 4278925588
0.10675307 0.027270496 0.35300002 4278991381
0.10789962 0.027270496 0.35300002 4278991894
0.10904616 0.027270496 0.35300002 4278728722
0.11019271 0.027270496 0.35300002 4278728722
0.11133925 0.027270496 0.35300002 4278663699
0.1124858 0.027270496 0.35300002 4278400527
0.11363234 0.027270496 0.35300002 4278597906
0.11477888 0.027270496 0.35300002 4278729492
0.11559703 0.027193245 0.35200003 4278992664
0.11674033 0.027193245 0.35200003 4278861078
0.11788362 0.027193245 0.35200003 4278993175
0.11936506 0.027270496 0.35300002 4279190808
0.12051161 0.027270496 0.35300002 4279190808
0.12165815 0.027270496 0.35300002 4279125015
0.12315258 0.027347749 0.354 4279190808
0.12430238 0.027347749 0.354 4278927636
0.12616093 0.027502256 0.35600001 4279058709
0.12731722 0.027502256 0.35600001 4278992916
0.12847351 0.027502256 0.35600001 4279254551
0.12999393 0.027579511 0.35700002 4279319576
0.049646977 0.029222455 0.36300001 4279647264
0.050826006 0.029222455 0.36300001 4278596371
0.05200503 0.029222455 0.36300001 4278465039
0.053184059 0.029222455 0.36300001 4278926101
0.054363079 0.029222455 0.36300001 4278861076
0.055542104 0.029222455 0.36300001 4278664212
0.056721132 0.029222455 0.36300001 4278993177
0.057740647 0.029141953 0.36200002 4279124763
0.058916427 0.029141953 0.36200002 4278795798
0.059926208 0.029061452 0.36100003 4278663699
0.060760234 0.028900446 0.35900003 4278795285
0.061753768 0.028819943 0.35800001 4278795285
0.06274081 0.028739441 0.35700002 4278861078
0.063721359 0.028658936 0.35600001 4278794517
0.064877644 0.028658936 0.35600001 4278794517
0.065848447 0.028578434 0.35500002 4278860310
0.067001484 0.028578434 0.35500002 4278266122
0.068154521 0.028578434 0.35500002 4278722830
0.069112331 0.028497931 0.354 4279514395
0.070262127 0.028497931 0.354 4279055127
0.071411915 0.028497931 0.354 4278197254
0.072561711 0.028497931 0.354 4278851851
0.0737115 0.028497931 0.354 4279246609
0.074861296 0.028497931 0.354 4278982924
0.076011084 0.028497931 0.354 4279312402
0.07716088 0.028497931 0.354 4278851849
0.078310676 0.028497931 0.354 4278786056
0.079684928 0.028578434 0.35500002 4278588166
0.080837972 0.028578434 0.35500002 4278653189
0.081991017 0.028578434 0.35500002 4278719752
0.083144054 0.028578434 0.35500002 4278719752
0.084059633 0.028497931 0.354 4278588166
0.085209429 0.028497931 0.354 4278654472
0.086359218 0.028497931 0.354 4278589193
0.087509014 0.028497931 0.354 4279643932
0.088658802 0.028497931 0.354 4279185943
0.089808591 0.028497931 0.354 4279778080
0.090958387 0.028497931 0.354 4279251221
0.092108183 0.028497931 0.354 4278395912
0.093257979 0.028497931 0.354 4278197764
0.094141088 0.028417429 0.35300002 4278195712
0.095287628 0.028417429 0.35300002 4278194944
0.096434169 0.028417429 0.35300002 4278195712
0.09785714 0.028497931 0.354 4278197250
0.099006936 0.028497931 0.354 4278725392
0.10015673 0.028497931 0.354 4279055125
0.10130653 0.028497931 0.354 4278791953
0.10245632 0.028497931 0.354 4279318810
0.1036061 0.028497931 0.354 4278858773
0.10475589 0.028497931 0.354 4278990613
0.10590569 0.028497931 0.354 4279056406
0.10705549 0.028497931 0.354 4278925590
0.10820528 0.028497931 0.354 4278925588
0.10935507 0.028497931 0.354 4278925588
0.11050487 0.028497931 0.354 4279057174
0.11165465 0.028497931 0.354 4278925588
0.11280444 0.028497931 0.354 4278991381
0.11395424 0.028497931 0.354 4278925588
0.11510403 0.028497931 0.354 4278991381
0.11625383 0.028497931 0.354 4278925586
0.11740362 0.028497931 0.354 4278859793
0.11855341 0.028497931 0.354 4278794513
0.1197032 0.028497931 0.354 4278926099
0.12085299 0.028497931 0.354 4278532365
0.12234744 0.028578434 0.35500002 4278598158
0.12350047 0.028578434 0.35500002 4278992662
0.12500465 0.028658936 0.35600001 4279190041
0.12616093 0.028658936 0.35600001 4279190295
0.12767486 0.028739441 0.35700002 4279255318
0.1288344 0.028739441 0.35700002 4279189525
0.12999393 0.028739441 0.35700002 4279255318
0.049646977 0.030401878 0.36300001 4279580186
0.050826006 0.030401878 0.36300001 4278859027
0.05200503 0.030401878 0.36300001 4278530832
0.053184059 0.030401878 0.36300001 4278860306
0.054363079 0.030401878 0.36300001 4278991892
0.055695117 0.030485632 0.36400002 4278795285
0.056721132 0.030401878 0.36300001 4279190043
0.057900153 0.030401878 0.36300001 4278992664
0.058916427 0.030318128 0.36200002 4278795287
0.059926208 0.030234378 0.36100003 4278861080
0.060929481 0.030150624 0.36000001 4278861080
0.061926268 0.030066874 0.35900003 4278663699
0.06274081 0.02989937 0.35700002 4278794515
0.063900352 0.02989937 0.35700002 4278860308
0.064877644 0.029815616 0.35600001 4278728722
0.06603393 0.029815616 0.35600001 4278596623
0.067001484 0.029731866 0.35500002 4278197762
0.068154521 0.029731866 0.35500002 4279184406
0.069307566 0.029731866 0.35500002 4279318297
0.07046061 0.029731866 0.35500002 4279514906
0.071411915 0.029648112 0.354 4278458886
0.072561711 0.029648112 0.354 4279247121
0.0737115 0.029648112 0.354 4279313684
0.074861296 0.029648112 0.354 4279116305
0.076011084 0.029648112 0.354 4278326019
0.07716088 0.029648112 0.354 4280037407
0.078310676 0.029648112 0.354 4278721547
0.079684928 0.029731866 0.35500002 4279313684
0.080837972 0.029731866 0.35500002 4279116305
0.081991017 0.029731866 0.35500002 4278852363
0.083144054 0.029731866 0.35500002 4279444502
0.084297091 0.029731866 0.35500002 4279181330
0.085450135 0.029731866 0.35500002 4279576088
0.086603172 0.029731866 0.35500002 4278654986
0.087756217 0.029731866 0.35500002 4279578650
0.088909253 0.029731866 0.35500002 4279187224
0.089808591 0.029648112 0.354 4279055638
0.090958387 0.029648112 0.354 4279120918
0.092108183 0.029648112 0.354 4278988562
0.093257979 0.029648112 0.354 4279317529
0.094407767 0.029648112 0.354 4279318299
0.095557563 0.029648112 0.354 4279252504
0.096707352 0.029648112 0.354 4279252504
0.09785714 0.029648112 0.354 4279384090
0.099006936 0.029648112 0.354 4279449113
0.10015673 0.029648112 0.354 4279448600
0.10130653 0.029648112 0.354 4279382807
0.10245632 0.029648112 0.354 4279053844
0.1036061 0.029648112 0.354 4278527500
0.10475589 0.029648112 0.354 4278593293
0.10590569 0.029648112 0.354 4278196480
0.10705549 0.029648112 0.354 4278195456
0.10820528 0.029648112 0.354 4278196480
0.10935507 0.029648112 0.354 4278197765
0.11050487 0.029648112 0.354 4278592523
0.11165465 0.029648112 0.354 4279053842
0.11280444 0.029648112 0.354 4279448600
0.11395424 0.029648112 0.354 4279054609
0.11510403 0.029648112 0.354 4279318551
0.11658224 0.029731866 0.35500002 4279252758
0.11773527 0.029731866 0.35500002 4279187478
0.11888831 0.029731866 0.35500002 4279319062
0.12004135 0.029731866 0.35500002 4279122197
0.12119439 0.029731866 0.35500002 4278925588
0.12269207 0.029815616 0.35600001 4279057174
0.12384836 0.029815616 0.35600001 4278925588
0.1253558 0.02989937 0.35700002 4278991381
0.12651533 0.02989937 0.35700002 4278991379
0.12767486 0.02989937 0.35700002 4278860560
0.12919527 0.02998312 0.35800001 4278860560
0.13035806 0.02998312 0.35800001 4278860306
0.13152085 0.02998312 0.35800001 4279188760
0.048735 0.031755306 0.36500001 4283065683
0.049783751 0.031668305 0.36400002 4279579934
0.050966024 0.031668305 0.36400002 4278530062
0.052148297 0.031668305 0.36400002 4278727441
0.053330574 0.031668305 0.36400002 4278926101
0.05451284 0.031668305 0.36400002 4278926099
0.055695117 0.031668305 0.36400002 4278861078
0.05687739 0.031668305 0.36400002 4279058457
0.058059659 0.031668305 0.36400002 4278992664
0.059079178 0.031581301 0.36300001 4278663699
0.060092207 0.031494305 0.36200002 4278729494
0.060929481 0.0313203 0.36000001 4278795287
0.061926268 0.031233301 0.35900003 4278794515
0.062916555 0.031146299 0.35800001 4278991894
0.063900352 0.031059299 0.35700002 4278794517
0.064877644 0.030972296 0.35600001 4278728724
0.06603393 0.030972296 0.35600001 4278331404
0.067190222 0.030972296 0.35600001 4278458888
0.068154521 0.030885298 0.35500002 4278196226
0.069307566 0.030885298 0.35500002 4279055127
0.07046061 0.030885298 0.35500002 4279777565
0.071613647 0.030885298 0.35500002 4278458375
0.072766684 0.030885298 0.35500002 4278523400
0.073919728 0.030885298 0.35500002 4278589193
0.075072773 0.030885298 0.35500002 4278524168
0.07622581 0.030885298 0.35500002 4278984719
0.077378854 0.030885298 0.35500002 4279313684
0.078531891 0.030885298 0.35500002 4278720263
0.079684928 0.030885298 0.35500002 4279379477
0.080837972 0.030885298 0.35500002 4278392584
0.081991017 0.030885298 0.35500002 4278589961
0.083144054 0.030885298 0.35500002 4279906334
0.084297091 0.030885298 0.35500002 4278525449
0.085450135 0.030885298 0.35500002 4278524683
0.086603172 0.030885298 0.35500002 4278327302
0.087756217 0.030885298 0.35500002 4279317016
0.088909253 0.030885298 0.35500002 4278989845
0.090062298 0.030885298 0.35500002 4278462218
0.091215335 0.030885298 0.35500002 4278524933
0.092108183 0.030798296 0.354 4278458886
0.093257979 0.030798296 0.354 4278196999
0.094407767 0.030798296 0.354 4279251223
0.095557563 0.030798296 0.354 4278461707
0.096707352 0.030798296 0.354 4278198533
0.09785714 0.030798296 0.354 4278462988
0.099286623 0.030885298 0.35500002 4279252504
0.10043967 0.030885298 0.35500002 4278923539
0.1015927 0.030885298 0.35500002 4278857746
0.10274575 0.030885298 0.35500002 4279186711
0.10389878 0.030885298 0.35500002 4279121431
0.10505182 0.030885298 0.35500002 4279055638
0.10620487 0.030885298 0.35500002 4279253017
0.1073579 0.030885298 0.35500002 4279318297
0.10851095 0.030885298 0.35500002 4279384090
0.10966399 0.030885298 0.35500002 4279449113
0.11081703 0.030885298 0.35500002 4279646492
0.11197007 0.030885298 0.35500002 4279777565
0.1131231 0.030885298 0.35500002 4279514393
0.11427615 0.030885298 0.35500002 4279447832
0.11542919 0.030885298 0.35500002 4278921488
0.11658224 0.030885298 0.35500002 4278592523
0.11806692 0.030972296 0.35600001 4278195968
0.1192232 0.030972296 0.35600001 4278196224
0.12037949 0.030972296 0.35600001 4278460421
0.12153578 0.030972296 0.35600001 4279186963
0.12303672 0.031059299 0.35700002 4279319062
0.12419625 0.031059299 0.35700002 4278859795
0.12570693 0.031146299 0.35800001 4278925588
0.12686971 0.031146299 0.35800001 4279122197
0.12803249 0.031146299 0.35800001 4278990611
0.12919527 0.031146299 0.35800001 4279188758
0.13035806 0.031146299 0.35800001 4278991379
0.13152085 0.031146299 0.35800001 4278794002
0.047549479 0.03294123 0.36500001 4283261779
0.048735 0.03294123 0.36500001 4282933584
0.049783751 0.032850981 0.36400002 4283065683
0.050966024 0.032850981 0.36400002 4279252758
0.052148297 0.032850981 0.36400002 4279056406
0.053330574 0.032850981 0.36400002 4279320348
0.0546626 0.03294123 0.36500001 4278860310
0.055848122 0.03294123 0.36500001 4279255066
0.05687739 0.032850981 0.36400002 4279190043
0.058059659 0.032850981 0.36400002 4278992664
0.059079178 0.032760728 0.36300001 4279058457
0.060092207 0.032670479 0.36200002 4278729494
0.060929481 0.032489982 0.36000001 4278795287
0.061926268 0.032399733 0.35900003 4278860310
0.062916555 0.03230948 0.35800001 4278991383
0.063900352 0.032219231 0.35700002 4278925590
0.065059885 0.032219231 0.35700002 4278859797
0.06603393 0.032128979 0.35600001 4278923541
0.067190222 0.032128979 0.35600001 4279316762
0.068346508 0.032128979 0.35600001 4279448348
0.069502793 0.032128979 0.35600001 4279186713
0.07046061 0.03203873 0.35500002 4279842590
0.071613647 0.03203873 0.35500002 4278654984
0.072766684 0.03203873 0.35500002 4278720265
0.073919728 0.03203873 0.35500002 4278851338
0.075072773 0.03203873 0.35500002 4278785545
0.07622581 0.03203873 0.35500002 4278719752
0.077378854 0.03203873 0.35500002 4278588166
0.078531891 0.03203873 0.35500002 4278785545
0.079684928 0.03203873 0.35500002 4278719752
0.080837972 0.03203873 0.35500002 4278719498
0.081991017 0.03203873 0.35500002 4278523398
0.083378255 0.032128979 0.35600001 4278392580
0.084534548 0.032128979 0.35600001 4278655752
0.085450135 0.03203873 0.35500002 4278524168
0.086603172 0.03203873 0.35500002 4280039201
0.087756217 0.03203873 0.35500002 4279120920
0.088909253 0.03203873 0.35500002 4278988049
0.090062298 0.03203873 0.35500002 4278327300
0.091215335 0.03203873 0.35500002 4278786570
0.092368379 0.03203873 0.35500002 4278917642
0.093521424 0.03203873 0.35500002 4278195459
0.094674461 0.03203873 0.35500002 4278195969
0.095827505 0.03203873 0.35500002 4279449115
0.096980534 0.03203873 0.35500002 4279252506
0.098133579 0.03203873 0.35500002 4278195968
0.099286623 0.03203873 0.35500002 4278658316
0.10043967 0.03203873 0.35500002 4279580186
0.1015927 0.03203873 0.35500002 4279448600
0.10274575 0.03203873 0.35500002 4278198535
0.10389878 0.03203873 0.35500002 4279514906
0.10505182 0.03203873 0.35500002 4279120918
0.10620487 0.03203873 0.35500002 4278923539
0.1073579 0.03203873 0.35500002 4279384344
0.10851095 0.03203873 0.35500002 4279581723
0.10966399 0.03203873 0.35500002 4279121172
0.11081703 0.03203873 0.35500002 4279186965
0.11197007 0.03203873 0.35500002 4279186965
0.1131231 0.03203873 0.35500002 4279318551
0.11459805 0.032128979 0.35600001 4279318551
0.11575434 0.032128979 0.35600001 4279252758
0.11691063 0.032128979 0.35600001 4279515930
0.11806692 0.032128979 0.35600001 4279318551
0.1192232 0.032128979 0.35600001 4279579418
0.12071764 0.032219231 0.35700002 4278459140
0.12187718 0.032219231 0.35700002 4279448854
0.12303672 0.032219231 0.35700002 4279318549
0.12454414 0.03230948 0.35800001 4279253269
0.12570693 0.03230948 0.35800001 4279056404
0.12686971 0.03230948 0.35800001 4279056404
0.12803249 0.03230948 0.35800001 4279319576
0.12919527 0.03230948 0.35800001 4279187988
0.13035806 0.03230948 0.35800001 4278990609
0.13152085 0.03230948 0.35800001 4279121685
0.046363954 0.03412715 0.36500001 4283327572
0.047549479 0.03412715 0.36500001 4283261779
0.048735 0.03412715 0.36500001 4283261779
0.049783751 0.034033652 0.36400002 4282999377
0.050966024 0.034033652 0.36400002 4283065166
0.052148297 0.034033652 0.36400002 4279315732
0.053330574 0.034033652 0.36400002 4279318810
0.0546626 0.03412715 0.36500001 4279188762
0.055848122 0.03412715 0.36500001 4279255838
0.057033643 0.03412715 0.36500001 4279124252
0.058059659 0.034033652 0.36400002 4278861080
0.059079178 0.033940151 0.36300001 4278926103
0.060092207 0.033846654 0.36200002 4279123482
0.061098732 0.033753157 0.36100003 4278926103
0.061926268 0.033566158 0.35900003 4278860310
0.062916555 0.033472657 0.35800001 4278926103
0.064079344 0.033472657 0.35800001 4278860310
0.065059885 0.03337916 0.35700002 4278926103
0.066219419 0.03337916 0.35700002 4278593552
0.067190222 0.033285659 0.35600001 4278987799
0.068346508 0.033285659 0.35600001 4278923541
0.069502793 0.033285659 0.35600001 4279318810
0.070659086 0.033285659 0.35600001 4279253017
0.071613647 0.033192161 0.35500002 4279514906
0.072766684 0.033192161 0.35500002 4279512857
0.073919728 0.033192161 0.35500002 4279381271
0.075072773 0.033192161 0.35500002 4279249172
0.07622581 0.033192161 0.35500002 4278260994
0.077378854 0.033192161 0.35500002 4278720265
0.078531891 0.033192161 0.35500002 4278456580
0.079684928 0.033192161 0.35500002 4278785291
0.080837972 0.033192161 0.35500002 4278785291
0.08222197 0.033285659 0.35600001 4278719752
0.083378255 0.033285659 0.35600001 4278851338
0.084534548 0.033285659 0.35600001 4278719752
0.085690841 0.033285659 0.35600001 4278851851
0.086847119 0.033285659 0.35600001 4279381785
0.088003412 0.033285659 0.35600001 4279318299
0.088909253 0.033192161 0.35500002 4279382809
0.090062298 0.033192161 0.35500002 4278984717
0.091215335 0.033192161 0.35500002 4278786056
0.092368379 0.033192161 0.35500002 4278917129
0.093521424 0.033192161 0.35500002 4279381273
0.094674461 0.033192161 0.35500002 4279381785
0.095827505 0.033192161 0.35500002 4278198023
0.096980534 0.033192161 0.35500002 4278198277
0.098133579 0.033192161 0.35500002 4279053844
0.099286623 0.033192161 0.35500002 4278196994
0.10043967 0.033192161 0.35500002 4279382807
0.1015927 0.033192161 0.35500002 4279251221
0.10274575 0.033192161 0.35500002 4278330121
0.10419145 0.033285659 0.35600001 4279317014
0.10534774 0.033285659 0.35600001 4278854927
0.10650403 0.033285659 0.35600001 4278789134
0.10766032 0.033285659 0.35600001 4278789900
0.10881661 0.033285659 0.35600001 4279053072
0.1099729 0.033285659 0.35600001 4278329349
0.11112919 0.033285659 0.35600001 4279579416
0.11228547 0.033285659 0.35600001 4278263556
0.11344176 0.033285659 0.35600001 4279251221
0.11459805 0.033285659 0.35600001 4278461705
0.11575434 0.033285659 0.35600001 4278198533
0.11691063 0.033285659 0.35600001 4279318551
0.11806692 0.033285659 0.35600001 4279187478
0.1195581 0.03337916 0.35700002 4279710750
0.12071764 0.03337916 0.35700002 4279249172
0.12221856 0.033472657 0.35800001 4279384342
0.12338135 0.033472657 0.35800001 4279450646
0.12454414 0.033472657 0.35800001 4279253267
0.12605807 0.033566158 0.35900003 4279056404
0.1272241 0.033566158 0.35900003 4279385371
0.12839013 0.033566158 0.35900003 4278924818
0.12955616 0.033566158 0.35900003 4278990611
0.13035806 0.033472657 0.35800001 4279516441
0.13152085 0.033472657 0.35800001 4279515930
0.046363954 0.035313074 0.36500001 4283261779
0.047419205 0.035216328 0.36400002 4283261779
0.048601482 0.035216328 0.36400002 4283130193
0.049783751 0.035216328 0.36400002 4283130193
0.050966024 0.035216328 0.36400002 4283130193
0.052148297 0.035216328 0.36400002 4283064398
0.053330574 0.035216328 0.36400002 4283065681
0.0546626 0.035313074 0.36500001 4280698415
0.055848122 0.035313074 0.36500001 4278923541
0.057033643 0.035313074 0.36500001 4279121947
0.058059659 0.035216328 0.36400002 4279187738
0.059079178 0.035119578 0.36300001 4279121945
0.060092207 0.035022829 0.36200002 4279056922
0.061098732 0.034926083 0.36100003 4278925336
0.061926268 0.034732588 0.35900003 4278925336
0.062916555 0.034635838 0.35800001 4278991129
0.064079344 0.034635838 0.35800001 4278991129
0.065059885 0.034539089 0.35700002 4279254301
0.066219419 0.034539089 0.35700002 4278925336
0.067378961 0.034539089 0.35700002 4279187740
0.068346508 0.034442339 0.35600001 4279121947
0.069502793 0.034442339 0.35600001 4279121947
0.070659086 0.034442339 0.35600001 4279187738
0.071815372 0.034442339 0.35600001 4279056152
0.072766684 0.034345593 0.35500002 4279121945
0.073919728 0.034345593 0.35500002 4278990359
0.075072773 0.034345593 0.35500002 4279253017
0.07622581 0.034345593 0.35500002 4279121431
0.077378854 0.034345593 0.35500002 4279252506
0.078531891 0.034345593 0.35500002 4279186713
0.079684928 0.034345593 0.35500002 4279251736
0.081065685 0.034442339 0.35600001 4279383322
0.08222197 0.034442339 0.35600001 4279711774
0.083378255 0.034442339 0.35600001 4279513625
0.084534548 0.034442339 0.35600001 4279644443
0.085690841 0.034442339 0.35600001 4279381271
0.086847119 0.034442339 0.35600001 4279579418
0.088003412 0.034442339 0.35600001 4278195200
0.088909253 0.034345593 0.35500002 4278195456
0.090062298 0.034345593 0.35500002 4278195456
0.091215335 0.034345593 0.35500002 4278458886
0.092368379 0.034345593 0.35500002 4279051023
0.093521424 0.034345593 0.35500002 4279249685
0.094674461 0.034345593 0.35500002 4279513371
0.095827505 0.034345593 0.35500002 4279514395
0.096980534 0.034345593 0.35500002 4279514395
0.098133579 0.034345593 0.35500002 4279449113
0.099286623 0.034345593 0.35500002 4279317527
0.10043967 0.034345593 0.35500002 4279514393
0.10187888 0.034442339 0.35600001 4279119635
0.10303517 0.034442339 0.35600001 4279383320
0.10419145 0.034442339 0.35600001 4279251734
0.10534774 0.034442339 0.35600001 4279251736
0.10650403 0.034442339 0.35600001 4279317016
0.10766032 0.034442339 0.35600001 4279513625
0.10881661 0.034442339 0.35600001 4279184660
0.1099729 0.034442339 0.35600001 4278987281
0.11112919 0.034442339 0.35600001 4278592523
0.11228547 0.034442339 0.35600001 4279118867
0.11344176 0.034442339 0.35600001 4278194688
0.11459805 0.034442339 0.35600001 4279315732
0.11575434 0.034442339 0.35600001 4278657802
0.11723904 0.034539089 0.35700002 4279252758
0.11839858 0.034539089 0.35700002 4279384344
0.1195581 0.034539089 0.35700002 4278723341
0.12105578 0.034635838 0.35800001 4279842076
0.12221856 0.034635838 0.35800001 4279186963
0.123726 0.034732588 0.35900003 4279384340
0.12489203 0.034732588 0.35900003 4279121681
0.12605807 0.034732588 0.35900003 4279319060
0.12757848 0.034829333 0.36000001 4279056402
0.12839013 0.034732588 0.35900003 4279187990
0.12955616 0.034732588 0.35900003 4279253269
0.13072219 0.034732588 0.35900003 4279187476
0.13188823 0.034732588 0.35900003 4279449113
0.046236932 0.036398999 0.36400002 4283327572
0.047419205 0.036398999 0.36400002 4283327572
0.048601482 0.036398999 0.36400002 4283195986
0.049783751 0.036398999 0.36400002 4283261779
0.050966024 0.036398999 0.36400002 4283064400
0.052148297 0.036398999 0.36400002 4283130193
0.053330574 0.036398999 0.36400002 4283195986
0.05451284 0.036398999 0.36400002 4282999375
0.055695117 0.036398999 0.36400002 4282868300
0.05687739 0.036398999 0.36400002 4283065679
0.058059659 0.036398999 0.36400002 4282934347
0.059079178 0.036299001 0.36300001 4282342724
0.060092207 0.036199003 0.36200002 4282277447
0.060929481 0.035999011 0.36000001 4281159220
0.061926268 0.035899013 0.35900003 4279974174
0.062916555 0.035799015 0.35800001 4278922256
0.064079344 0.035799015 0.35800001 4278660115
0.065059885 0.035699017 0.35700002 4278594835
0.066219419 0.035699017 0.35700002 4279253019
0.067378961 0.035699017 0.35700002 4279121433
0.068346508 0.035599019 0.35600001 4279318812
0.069502793 0.035599019 0.35600001 4279253019
0.070659086 0.035599019 0.35600001 4279056154
0.071815372 0.035599019 0.35600001 4279056154
0.072766684 0.035499025 0.35500002 4279121945
0.073919728 0.035499025 0.35500002 4279121945
0.075072773 0.035499025 0.35500002 4279056152
0.07622581 0.035499025 0.35500002 4279056152
0.077378854 0.035499025 0.35500002 4278990359
0.078531891 0.035499025 0.35500002 4278990359
0.079684928 0.035499025 0.35500002 4278727187
0.081065685 0.035599019 0.35600001 4278990359
0.08222197 0.035599019 0.35600001 4279187738
0.083378255 0.035599019 0.35600001 4279187738
0.084534548 0.035599019 0.35600001 4279253017
0.085690841 0.035599019 0.35600001 4279187224
0.086847119 0.035599019 0.35600001 4279253017
0.088003412 0.035599019 0.35600001 4279253017
0.088909253 0.035499025 0.35500002 4279252504
0.090062298 0.035499025 0.35500002 4279449113
0.091215335 0.035499025 0.35500002 4279646492
0.092368379 0.035499025 0.35500002 4279514393
0.093521424 0.035499025 0.35500002 4279974946
0.094674461 0.035499025 0.35500002 4279842590
0.095827505 0.035499025 0.35500002 4279513625
0.096980534 0.035499025 0.35500002 4278724109
0.098133579 0.035499025 0.35500002 4278328837
0.099286623 0.035499025 0.35500002 4278196224
0.10072259 0.035599019 0.35600001 4278591755
0.10187888 0.035599019 0.35600001 4278196997
0.10303517 0.035599019 0.35600001 4278197251
0.10419145 0.035599019 0.35600001 4278724109
0.10534774 0.035599019 0.35600001 4279118867
0.10650403 0.035599019 0.35600001 4279513625
0.10766032 0.035599019 0.35600001 4279974176
0.10881661 0.035599019 0.35600001 4279382039
0.1099729 0.035599019 0.35600001 4279448602
0.11112919 0.035599019 0.35600001 4279382809
0.11228547 0.035599019 0.35600001 4279448600
0.11344176 0.035599019 0.35600001 4279382807
0.11491996 0.035699017 0.35700002 4280238116
0.1160795 0.035699017 0.35700002 4279514906
0.11723904 0.035699017 0.35700002 4279252758
0.11839858 0.035699017 0.35700002 4279647516
0.11989299 0.035799015 0.35800001 4278196738
0.12105578 0.035799015 0.35800001 4279448854
0.12255996 0.035899013 0.35900003 4279515928
0.123726 0.035899013 0.35900003 4279384342
0.12523992 0.035999011 0.36000001 4279253269
0.1264092 0.035999011 0.36000001 4279319062
0.12757848 0.035999011 0.36000001 4279056404
0.12874776 0.035999011 0.36000001 4279187990
0.12991704 0.035999011 0.36000001 4278990611
0.13072219 0.035899013 0.35900003 4279516441
0.13188823 0.035899013 0.35900003 4279645211
0.047419205 0.037581671 0.36400002 4283327572
0.048601482 0.037581671 0.36400002 4283327572
0.049783751 0.037581671 0.36400002 4283327572
0.050966024 0.037581671 0.36400002 4283261779
0.052148297 0.037581671 0.36400002 4283130193
0.053330574 0.037581671 0.36400002 4283130193
0.05451284 0.037581671 0.36400002 4283195984
0.055695117 0.037581671 0.36400002 4282933580
0.05687739 0.037581671 0.36400002 4282801224
0.057900153 0.037478425 0.36300001 4282801224
0.059079178 0.037478425 0.36300001 4282340673
0.059926208 0.037271935 0.36100003 4282735431
0.060929481 0.037168685 0.36000001 4282998605
0.061926268 0.037065443 0.35900003 4283459926
0.062916555 0.036962193 0.35800001 4283526232
0.064079344 0.036962193 0.35800001 4283592539
0.065059885 0.03685895 0.35700002 4283855711
0.066219419 0.03685895 0.35700002 4284053090
0.067378961 0.03685895 0.35700002 4284316262
0.068538494 0.03685895 0.35700002 4284250469
0.069502793 0.0367557 0.35600001 4283658330
0.070659086 0.0367557 0.35600001 4282737228
0.071815372 0.0367557 0.35600001 4280764208
0.072766684 0.036652453 0.35500002 4279448861
0.073919728 0.036652453 0.35500002 4279448861
0.075072773 0.036652453 0.35500002 4278856978
0.07622581 0.036652453 0.35500002 4278988564
0.077378854 0.036652453 0.35500002 4279317527
0.078531891 0.036652453 0.35500002 4279383320
0.079684928 0.036652453 0.35500002 4279514906
0.081065685 0.0367557 0.35600001 4279317527
0.08222197 0.0367557 0.35600001 4279384090
0.083378255 0.0367557 0.35600001 4279253017
0.084534548 0.0367557 0.35600001 4279121431
0.085690841 0.0367557 0.35600001 4279187224
0.086847119 0.0367557 0.35600001 4279318810
0.088003412 0.0367557 0.35600001 4279450396
0.088909253 0.036652453 0.35500002 4279253017
0.090062298 0.036652453 0.35500002 4279187224
0.091215335 0.036652453 0.35500002 4279121431
0.092368379 0.036652453 0.35500002 4279253017
0.093521424 0.036652453 0.35500002 4279450396
0.094674461 0.036652453 0.35500002 4279318810
0.095827505 0.036652453 0.35500002 4279252504
0.096980534 0.036652453 0.35500002 4279252504
0.098133579 0.036652453 0.35500002 4279449367
0.099286623 0.036652453 0.35500002 4279646746
0.10072259 0.0367557 0.35600001 4279515160
0.10187888 0.0367557 0.35600001 4279383574
0.10303517 0.0367557 0.35600001 4279514647
0.10419145 0.0367557 0.35600001 4279448600
0.10534774 0.0367557 0.35600001 4279448600
0.10650403 0.0367557 0.35600001 4279777565
0.10766032 0.0367557 0.35600001 4278921488
0.10881661 0.0367557 0.35600001 4279118353
0.1099729 0.0367557 0.35600001 4278328324
0.11112919 0.0367557 0.35600001 4278196224
0.11228547 0.0367557 0.35600001 4278194432
0.11344176 0.0367557 0.35600001 4278196226
0.11491996 0.03685895 0.35700002 4278197765
0.1160795 0.03685895 0.35700002 4278526730
0.11723904 0.03685895 0.35700002 4278987281
0.11839858 0.03685895 0.35700002 4278460423
0.11989299 0.036962193 0.35800001 4280039967
0.12105578 0.036962193 0.35800001 4279318549
0.12255996 0.037065443 0.35900003 4279319062
0.12407064 0.037168685 0.36000001 4279319062
0.12523992 0.037168685 0.36000001 4279253269
0.12676035 0.037271935 0.36100003 4279450648
0.12793288 0.037271935 0.36100003 4279319576
0.12910539 0.037271935 0.36100003 4279187990
0.12991704 0.037168685 0.36000001 4279385369
0.050966024 0.038764346 0.36400002 4283327572
0.052148297 0.038764346 0.36400002 4283195986
0.053330574 0.038764346 0.36400002 4283328342
0.05451284 0.038764346 0.36400002 4283065170
0.055695117 0.038764346 0.36400002 4283130191
0.05687739 0.038764346 0.36400002 4283130191
0.057900153 0.038657848 0.36300001 4283129678
0.058916427 0.038551353 0.36200002 4282208576
0.059926208 0.038444858 0.36100003 4282603847
0.060929481 0.038338363 0.36000001 4283130961
0.061926268 0.038231868 0.35900003 4283525719
0.063092306 0.038231868 0.35900003 4283788891
0.064258337 0.038231868 0.35900003 4283788893
0.065059885 0.038018879 0.35700002 4283920479
0.066219419 0.038018879 0.35700002 4284052065
0.067378961 0.038018879 0.35700002 4284052065
0.068538494 0.038018879 0.35700002 4284117858
0.069698036 0.038018879 0.35700002 4284184162
0.07085757 0.038018879 0.35700002 4284052576
0.072017103 0.038018879 0.35700002 4283986783
0.073176645 0.038018879 0.35700002 4283921504
0.073919728 0.037805885 0.35500002 4283855711
0.075072773 0.037805885 0.35500002 4284316260
0.07622581 0.037805885 0.35500002 4284644711
0.077378854 0.037805885 0.35500002 4284645227
0.078531891 0.037805885 0.35500002 4284645227
0.079684928 0.037805885 0.35500002 4284184414
0.081065685 0.03791238 0.35600001 4282868554
0.08222197 0.03791238 0.35600001 4281355061
0.083378255 0.03791238 0.35600001 4279973408
0.084534548 0.03791238 0.35600001 4279249937
0.085690841 0.03791238 0.35600001 4279184144
0.086847119 0.03791238 0.35600001 4279447830
0.088003412 0.03791238 0.35600001 4279448600
0.088909253 0.037805885 0.35500002 4279251734
0.090062298 0.037805885 0.35500002 4279383320
0.091215335 0.037805885 0.35500002 4279449113
0.092368379 0.037805885 0.35500002 4279515676
0.093521424 0.037805885 0.35500002 4279187224
0.094674461 0.037805885 0.35500002 4279253271
0.095827505 0.037805885 0.35500002 4278661134
0.096980534 0.037805885 0.35500002 4279187478
0.098133579 0.037805885 0.35500002 4279253271
0.099566296 0.03791238 0.35600001 4279319064
0.10072259 0.03791238 0.35600001 4279319064
0.10187888 0.03791238 0.35600001 4279450650
0.10303517 0.03791238 0.35600001 4279515930
0.10419145 0.03791238 0.35600001 4279515930
0.10534774 0.03791238 0.35600001 4279384342
0.10650403 0.03791238 0.35600001 4279252756
0.10766032 0.03791238 0.35600001 4279384344
0.10881661 0.03791238 0.35600001 4279318551
0.1099729 0.03791238 0.35600001 4279252758
0.11112919 0.03791238 0.35600001 4279384344
0.11228547 0.03791238 0.35600001 4279646746
0.11376042 0.038018879 0.35700002 4279580186
0.11491996 0.038018879 0.35700002 4279514393
0.1160795 0.038018879 0.35700002 4279711772
0.11723904 0.038018879 0.35700002 4279909151
0.11873022 0.03812537 0.35800001 4279711772
0.11989299 0.03812537 0.35800001 4279581721
0.12139393 0.038231868 0.35900003 4279253269
0.12255996 0.038231868 0.35900003 4279187476
0.12407064 0.038338363 0.36000001 4279319062
0.12558781 0.038444858 0.36100003 4279450646
0.12676035 0.038444858 0.36100003 4279319060
0.12793288 0.038444858 0.36100003 4279450646
0.12910539 0.038444858 0.36100003 4279582232
0.13027792 0.038444858 0.36100003 4279383574
0.085690841 0.03906906 0.35600001 4284249442
0.086847119 0.03906906 0.35600001 4284578407
0.088003412 0.03906906 0.35600001 4284907372
0.088909253 0.038959317 0.35500002 4284973676
0.090062298 0.038959317 0.35500002 4284842090
0.091215335 0.038959317 0.35500002 4283986783
0.092368379 0.038959317 0.35500002 4282868300
0.093521424 0.038959317 0.35500002 4281881919
0.094674461 0.038959317 0.35500002 4280895278
0.095827505 0.038959317 0.35500002 4280039969
0.096980534 0.038959317 0.35500002 4279842076
0.09841001 0.03906906 0.35600001 4279250451
0.099566296 0.03906906 0.35600001 4279053072
0.10072259 0.03906906 0.35600001 4279579416
0.10187888 0.03906906 0.35600001 4278988049
0.10303517 0.03906906 0.35600001 4279317529
0.10419145 0.03906906 0.35600001 4278988564
0.10534774 0.03906906 0.35600001 4279186195
0.10650403 0.03906906 0.35600001 4279449367
0.10766032 0.03906906 0.35600001 4279449367
0.10881661 0.03906906 0.35600001 4279251988
0.1099729 0.03906906 0.35600001 4279317527
0.11112919 0.03906906 0.35600001 4279777565
0.11228547 0.03906906 0.35600001 4279777565
0.11376042 0.039178807 0.35700002 4279777565
0.11491996 0.039178807 0.35700002 4279712285
0.1160795 0.039178807 0.35700002 4279712285
0.11723904 0.039178807 0.35700002 4279384090
0.11873022 0.039288551 0.35800001 4279515930
0.11989299 0.039288551 0.35800001 4279581723
0.12139393 0.039398298 0.35900003 4279581723
0.12290135 0.039508041 0.36000001 4279515928
0.12441529 0.039617784 0.36100003 4279581721
0.12558781 0.039617784 0.36100003 4279581721
0.12711148 0.039727528 0.36200002 4279581721
0.12828726 0.039727528 0.36200002 4279121170
0.12910539 0.039617784 0.36100003 4280039967
0.09609744 0.040225741 0.35600001 4284381539
0.097253717 0.040225741 0.35600001 4284447332
0.09841001 0.040225741 0.35600001 4284381541
0.099566296 0.040225741 0.35600001 4284381541
0.10072259 0.040225741 0.35600001 4284381539
0.10187888 0.040225741 0.35600001 4284513125
0.10303517 0.040225741 0.35600001 4285105262
0.10419145 0.040225741 0.35600001 4284842090
0.10534774 0.040225741 0.35600001 4285105516
0.10650403 0.040225741 0.35600001 4285368688
0.10766032 0.040225741 0.35600001 4285631347
0.10881661 0.040225741 0.35600001 4285631093
0.1099729 0.040225741 0.35600001 4285697401
0.11112919 0.040225741 0.35600001 4285368434
0.11228547 0.040225741 0.35600001 4285170542
0.11376042 0.040338736 0.35700002 4284578659
0.11491996 0.040338736 0.35700002 4283985750
0.1160795 0.040338736 0.35700002 4283787858
0.11756743 0.040451728 0.35800001 4282998855
0.11873022 0.040451728 0.35800001 4282473535
0.1202279 0.040564723 0.35900003 4281881398
0.12139393 0.040564723 0.35900003 4281486640
0.12290135 0.040677715 0.36000001 4280960296
0.12441529 0.040790711 0.36100003 4281157675
0.12558781 0.040790711 0.36100003 4282012730
0.12711148 0.040903702 0.36200002 4283986520
0.12828726 0.040903702 0.36200002 4285959027
0.09609744 0.041382421 0.35600001 4284511842
0.097253717 0.041382421 0.35600001 4284577635
0.09841001 0.041382421 0.35600001 4284511842
0.099566296 0.041382421 0.35600001 4284774501
0.10072259 0.041382421 0.35600001 4284971880
0.10187888 0.041382421 0.35600001 4284971880
0.10303517 0.041382421 0.35600001 4285037675
0.10419145 0.041382421 0.35600001 4285103468
0.10534774 0.041382421 0.35600001 4285169261
0.10650403 0.041382421 0.35600001 4285037675
0.10766032 0.041382421 0.35600001 4285103470
0.10881661 0.041382421 0.35600001 4285169776
0.1099729 0.041382421 0.35600001 4285301362
0.11112919 0.041382421 0.35600001 4285367155
0.11228547 0.041382421 0.35600001 4285301362
0.11376042 0.041498665 0.35700002 4285366642
0.11491996 0.041498665 0.35700002 4285498226
0.1160795 0.041498665 0.35700002 4285498226
0.11756743 0.041614905 0.35800001 4285367153
0.11873022 0.041614905 0.35800001 4285367153
0.1202279 0.041731153 0.35900003 4285366640
0.12139393 0.041731153 0.35900003 4285432431
0.12290135 0.041847393 0.36000001 4285564017
0.12441529 0.041963637 0.36100003 4285432946
0.12558781 0.041963637 0.36100003 4285432946
0.12711148 0.042079877 0.36200002 4285498739
0.083402604 0.029512519 0.35771719 4294967295
0.083402604 0.029512519 0.35771719 4294901760
0.083462216 0.029034993 0.3575815 4294901760
0.083521828 0.028557464 0.35744578 4294901760
0.08358144 0.028079938 0.35731009 4294901760
0.083641052 0.02760241 0.3571744 4294901760
0.083700664 0.027124884 0.35703868 4294901760
0.083760276 0.026647355 0.35690299 4294901760
0.083819889 0.026169829 0.3567673 4294901760
0.083879501 0.025692301 0.35663161 4294901760
0.083939113 0.025214775 0.35649589 4294901760
0.083998725 0.024737246 0.3563602 4294901760
0.084058337 0.02425972 0.35622451 4294901760
0.084117949 0.023782194 0.35608879 4294901760
0.084177561 0.023304665 0.3559531 4294901760
0.084237173 0.022827137 0.35581741 4294901760
0.084296785 0.022349611 0.35568172 4294901760
0.084356397 0.021872085 0.355546 4294901760
0.084416002 0.021394556 0.35541031 4294901760
0.084475614 0.020917028 0.35527462 4294901760
0.084535226 0.020439502 0.3551389 4294901760
0.084594838 0.019961976 0.35500321 4294901760
0.08465445 0.019484449 0.35486752 4294901760
0.084714063 0.019006921 0.3547318 4294901760
0.084773675 0.018529393 0.35459611 4294901760
0.084833287 0.018051866 0.35446042 4294901760
0.084892899 0.01757434 0.3543247 4294901760
0.084952511 0.017096814 0.35418901 4294901760
0.085012123 0.016619284 0.35405332 4294901760
0.085071735 0.016141757 0.35391763 4294901760
0.085131347 0.015664231 0.35378191 4294901760
0.085190959 0.015186703 0.35364622 4294901760
0.085250571 0.014709176 0.35351053 4294901760
0.085310183 0.014231649 0.35337481 4294901760
0.085369796 0.01375412 0.35323912 4294901760
0.085429408 0.013276594 0.35310343 4294901760
0.08548902 0.012799067 0.35296774 4294901760
0.085548632 0.012321539 0.35283202 4294901760
0.085608244 0.011844013 0.35269633 4294901760
0.085667856 0.011366487 0.35256064 4294901760
0.085727468 0.010888958 0.35242492 4294901760
0.08578708 0.01041143 0.35228923 4294901760
0.085846692 0.0099339038 0.35215354 4294901760
0.085906304 0.0094563775 0.35201782 4294901760
0.085965917 0.0089788493 0.35188213 4294901760
0.086025529 0.0085013229 0.35174644 4294901760
0.086085141 0.0080237966 0.35161072 4294901760
0.086144753 0.0075462684 0.35147503 4294901760
0.086204365 0.0070687402 0.35133934 4294901760
0.086263977 0.0065912139 0.35120365 4294901760
0.086323589 0.0061136857 0.35106793 4294901760
0.086383194 0.0056361593 0.35093224 4294901760
0.086442806 0.005158633 0.35079655 4294901760
0.086502418 0.0046811067 0.35066083 4294901760
0.08656203 0.0042035785 0.35052514 4294901760
0.086621642 0.0037260503 0.35038945 4294901760
0.086681254 0.0032485221 0.35025376 4294901760
0.086740866 0.0027709957 0.35011804 4294901760
0.086800478 0.0022934694 0.34998235 4294901760
0.08686009 0.001815943 0.34984666 4294901760
0.086919703 0.0013384167 0.34971094 4294901760
0.086979315 0.00086088665 0.34957525 4294901760
0.087038927 0.00038336031 0.34943956 4294901760
0.087098539 -9.4167888e-05 0.34930384 4294901760
0.087158151 -0.00057169423 0.34916815 4294901760
0.087217763 -0.0010492206 0.34903246 4294901760
