# .PCD v0.7 - Point Cloud Data file format
VERSION 0.7
FIELDS x y z rgb
SIZE 4 4 4 4
TYPE F F F U
COUNT 1 1 1 1
WIDTH 739
HEIGHT 1
VIEWPOINT 0 0 0 1 0 0 0
POINTS 739
DATA ascii
-0.0023959761 0.01112163 0.39000002 4280891694
0.0039174343 0.011064596 0.38800001 4279974176
0.0051910039 0.011093114 0.38900003 4280304940
0.0064544762 0.011093114 0.38900003 4280637752
0.0077179489 0.011093114 0.38900003 4280901692
0.00900451 0.01112163 0.39000002 4281690179
0.0064544762 0.012357014 0.38900003 4279387683
0.0077179489 0.012357014 0.38900003 4279192101
0.00900451 0.01238878 0.39000002 4279456808
0.010271231 0.01238878 0.39000002 4279391015
0.011567537 0.012420547 0.39100003 4279260713
0.012837506 0.012420547 0.39100003 4279984951
0.014143554 0.012452313 0.39200002 4282088794
0.01541677 0.012452313 0.39200002 4279982902
0.016732562 0.012484078 0.39300001 4280113973
-0.0036533056 0.013620915 0.38900003 4280957741
0.00013676021 0.013585899 0.38800001 4280499239
0.0013969848 0.013585899 0.38800001 4280366374
0.002650361 0.013550884 0.38700002 4280695339
0.0064378832 0.013585899 0.38800001 4279515676
0.0077179489 0.013620915 0.38900003 4279453217
0.0089814216 0.013620915 0.38900003 4278733087
0.010271231 0.01365593 0.39000002 4278536476
0.011567537 0.013690946 0.39100003 4278471197
0.012837506 0.013690946 0.39100003 4278207510
0.014143554 0.013725961 0.39200002 4278208796
0.01541677 0.013725961 0.39200002 4279919676
0.016732562 0.013760975 0.39300001 4279788853
0.018100677 0.013831005 0.39500001 4279788853
0.019481784 0.013901036 0.39700001 4279525168
0.020823561 0.013936052 0.39800003 4279327021
0.022116266 0.013936052 0.39800003 4278998824
-0.0036533056 0.014884816 0.38900003 4280694569
-0.0023898329 0.014884816 0.38900003 4280497706
-0.00112636 0.014884816 0.38900003 4280695852
0.002650361 0.014808287 0.38700002 4280630057
0.0039073378 0.014808287 0.38700002 4280958509
0.0064378832 0.01484655 0.38800001 4279184144
0.007698108 0.01484655 0.38800001 4279451164
0.0089814216 0.014884816 0.38900003 4278993949
0.010271231 0.014923079 0.39000002 4278797082
0.011537951 0.014923079 0.39000002 4278600986
0.012837506 0.014961344 0.39100003 4278996257
0.014107473 0.014961344 0.39100003 4278668576
0.01541677 0.014999609 0.39200002 4278734882
0.016732562 0.015037872 0.39300001 4278933031
0.018100677 0.015114401 0.39500001 4278998824
0.019432712 0.015152666 0.39600003 4279064617
0.020771239 0.015190929 0.39700001 4278933029
0.022116266 0.015229194 0.39800003 4278867236
0.023350153 0.015190929 0.39700001 4278735650
-0.0073863165 0.016024174 0.38600001 4280629805
-0.0036439139 0.016107202 0.38800001 4280496676
-0.0023898329 0.016148716 0.38900003 4280234018
-0.00112636 0.016148716 0.38900003 4280432167
0.00013605527 0.016024174 0.38600001 4280103202
0.0013897839 0.016024174 0.38600001 4281024300
0.0026435126 0.016024174 0.38600001 4280234784
0.0038972411 0.016024174 0.38600001 4280695335
0.0051643145 0.016065689 0.38700002 4280958761
0.0064212908 0.016065689 0.38700002 4280762917
0.007698108 0.016107202 0.38800001 4279319578
0.0089814216 0.016148716 0.38900003 4279058457
0.010244895 0.016148716 0.38900003 4278927384
0.011537951 0.016190229 0.39000002 4278731289
0.012837506 0.016231744 0.39100003 4278863388
0.014107473 0.016231744 0.39100003 4278733083
0.01541677 0.016273256 0.39200002 4278733337
0.016732562 0.016314769 0.39300001 4278602781
0.018054854 0.016356282 0.39400002 4278734367
0.019383637 0.016397797 0.39500001 4279129125
0.020718919 0.016439309 0.39600003 4278865953
0.022005128 0.016439309 0.39600003 4278669087
0.023291336 0.016439309 0.39600003 4278734880
0.024577547 0.016439309 0.39600003 4278669087
0.02579844 0.016397797 0.39500001 4278734880
0.027149964 0.016439309 0.39600003 4278207252
0.028436171 0.016439309 0.39600003 4278602781
0.02972238 0.016439309 0.39600003 4278537755
0.055626374 0.017726226 0.42700002 4278537755
0.057146799 0.017767739 0.42800003 4278669341
0.058536936 0.017767739 0.42800003 4278340376
0.059927084 0.017767739 0.42800003 4278669087
0.061460495 0.017809251 0.42900002 4278800673
-0.0036439139 0.017367853 0.38800001 4280365090
-0.0011089868 0.017144041 0.38300002 4280298784
0.00013535032 0.017188802 0.384 4280298784
0.0013861834 0.017233565 0.38500002 4280365088
0.0026366641 0.017233565 0.38500002 4280299295
0.0038871446 0.017233565 0.38500002 4280432165
0.0051509701 0.017278329 0.38600001 4280827175
0.0064212908 0.017323092 0.38700002 4279973914
0.007678268 0.017323092 0.38700002 4279516443
0.0089583332 0.017367853 0.38800001 4279190043
0.010244895 0.017412616 0.38900003 4279058457
0.011537951 0.017457379 0.39000002 4278928152
0.012804672 0.017457379 0.39000002 4278994459
0.014107473 0.017502142 0.39100003 4278798363
0.015377442 0.017502142 0.39100003 4278733083
0.016689988 0.017546903 0.39200002 4278799648
0.018009027 0.017591666 0.39300001 4278799648
0.019334566 0.01763643 0.39400002 4279260197
0.020666597 0.017681191 0.39500001 4278931232
0.021949559 0.017681191 0.39500001 4278733853
0.02323252 0.017681191 0.39500001 4278733853
0.02451548 0.017681191 0.39500001 4278733853
0.02579844 0.017681191 0.39500001 4278667290
0.027149964 0.017725954 0.39600003 4279389221
0.028436171 0.017725954 0.39600003 4279521318
0.02972238 0.017725954 0.39600003 4278733853
0.031086894 0.017770715 0.39700001 4278734107
0.053985428 0.019024067 0.42500001 4278602521
0.055626374 0.019113591 0.42700002 4278602521
0.057013273 0.019113591 0.42700002 4278734107
0.058536936 0.019158354 0.42800003 4278734107
0.060067099 0.019203117 0.42900002 4278865693
0.061460495 0.019203117 0.42900002 4278536474
0.063000396 0.019247878 0.43000001 4278602267
0.064546801 0.019292641 0.43100002 4278931232
0.066099696 0.019337403 0.43200001 4278733855
0.067502834 0.019337403 0.43200001 4278601501
-0.0048914989 0.018580494 0.38700002 4280826925
-0.0036345224 0.018580494 0.38700002 4280233250
-0.0023468281 0.018340437 0.38200003 4279904285
-0.0011089868 0.018388448 0.38300002 4280298784
0.00013535032 0.01843646 0.384 4279904539
0.0013825829 0.01843646 0.384 4280496674
0.0026366641 0.018484471 0.38500002 4280233502
0.0038871446 0.018484471 0.38500002 4280497956
0.0051509701 0.018532483 0.38600001 4280498210
0.0064046984 0.018532483 0.38600001 4279710488
0.007678268 0.018580494 0.38700002 4279319064
0.0089583332 0.018628506 0.38800001 4278861080
0.010244895 0.018676519 0.38900003 4278993179
0.011508367 0.018676519 0.38900003 4278993945
0.012804672 0.018724529 0.39000002 4278928666
0.014071392 0.018724529 0.39000002 4278929179
0.015377442 0.018772542 0.39100003 4278995742
0.016647412 0.018772542 0.39100003 4278996255
0.017963205 0.018820552 0.39200002 4278931232
0.019285493 0.018868564 0.39300001 4278997027
0.020614278 0.018916577 0.39400002 4278931232
0.021893991 0.018916577 0.39400002 4278733853
0.02323252 0.018964587 0.39500001 4278931232
0.02451548 0.018964587 0.39500001 4278733853
0.02579844 0.018964587 0.39500001 4279193634
0.027149964 0.0190126 0.39600003 4278862877
0.028436171 0.0190126 0.39600003 4278929181
0.029797435 0.01906061 0.39700001 4278532626
0.063000396 0.020644994 0.43000001 4278666009
0.064546801 0.020693006 0.43100002 4278864671
0.066099696 0.020741018 0.43200001 4279062050
0.067659095 0.020789029 0.43300003 4279258916
-0.0036345224 0.019837897 0.38700002 4280102180
-0.0023529716 0.019632854 0.38300002 4280035871
-0.0011089868 0.019632854 0.38300002 4280035871
0.00013499784 0.019632854 0.38300002 4280101918
0.0013825829 0.019684114 0.384 4280496676
0.0026298154 0.019684114 0.384 4280102432
0.0038871446 0.019735375 0.38500002 4280562981
0.0051376256 0.019735375 0.38500002 4280431393
0.0064046984 0.019786635 0.38600001 4279644697
0.007678268 0.019837897 0.38700002 4279318297
0.0089583332 0.019889157 0.38800001 4278927386
0.010218557 0.019889157 0.38800001 4279058972
0.011508367 0.019940419 0.38900003 4278797082
0.01277184 0.019940419 0.38900003 4278731287
0.014071392 0.019991679 0.39000002 4278929433
0.015338113 0.019991679 0.39000002 4279061789
0.016647412 0.020042941 0.39100003 4278996509
0.01791738 0.020042941 0.39100003 4278931486
0.019236421 0.020094201 0.39200002 4279194406
0.020561956 0.020145461 0.39300001 4278931234
0.021838421 0.020145461 0.39300001 4278799646
0.023173705 0.020196723 0.39400002 4278996255
0.024453416 0.020196723 0.39400002 4279127841
0.02579844 0.020247983 0.39500001 4278468628
0.052109923 0.021580761 0.42100003 4279387683
0.053858403 0.021734543 0.42400002 4278993695
0.055496104 0.021837065 0.42600003 4279125281
0.057013273 0.021888325 0.42700002 4279125281
0.058536936 0.021939587 0.42800003 4278993695
0.060067099 0.021990847 0.42900002 4279256867
0.061603755 0.022042107 0.43000001 4279783211
0.063146912 0.022093369 0.43100002 4279388453
0.064696558 0.022144629 0.43200001 4278732320
0.066099696 0.022144629 0.43200001 4279258916
0.067659095 0.022195891 0.43300003 4279192353
0.069224976 0.022247151 0.43400002 4285963915
-0.0036063476 0.020931769 0.384 4280430116
-0.0023529716 0.020877261 0.38300002 4280233250
-0.0011089868 0.020877261 0.38300002 4280496676
0.00013499784 0.020877261 0.38300002 4280036125
0.0013825829 0.020931769 0.384 4279970846
0.0026366641 0.020986279 0.38500002 4280036639
0.0038871446 0.020986279 0.38500002 4280168223
0.0051509701 0.02104079 0.38600001 4281023530
0.0064046984 0.02104079 0.38600001 4279579418
0.007678268 0.0210953 0.38700002 4279515676
0.0089352448 0.0210953 0.38700002 4278992925
0.010218557 0.021149809 0.38800001 4278992925
0.011508367 0.021204319 0.38900003 4279059740
0.01277184 0.021204319 0.38900003 4278994461
0.014071392 0.021258829 0.39000002 4278798365
0.015338113 0.021258829 0.39000002 4279061535
0.016604833 0.021258829 0.39000002 4278931232
0.01791738 0.021313339 0.39100003 4278997025
0.01918735 0.021313339 0.39100003 4279194404
0.020509636 0.021367848 0.39200002 4278931234
0.021838421 0.021422358 0.39300001 4278799648
0.023173705 0.021476869 0.39400002 4278865439
0.024453416 0.021476869 0.39400002 4278930462
0.02579844 0.021531377 0.39500001 4279587109
0.027149964 0.021585887 0.39600003 4278794263
0.052109923 0.022948634 0.42100003 4278797084
0.053858403 0.023112163 0.42400002 4278731802
0.055496104 0.023221184 0.42600003 4278731802
0.058536936 0.023330202 0.42800003 4278863388
0.060067099 0.023384711 0.42900002 4278928668
0.061603755 0.023439221 0.43000001 4279323426
0.063146912 0.023493731 0.43100002 4278928416
0.064696558 0.02354824 0.43200001 4278995746
0.066252708 0.023602752 0.43300003 4278995744
0.067659095 0.023602752 0.43300003 4279193123
0.069224976 0.02365726 0.43400002 4285108606
-0.0037284377 0.022930291 0.39700001 4280562215
-0.0023529716 0.022121666 0.38300002 4280496422
-0.0011089868 0.022121666 0.38300002 4281220399
0.00013499784 0.022121666 0.38300002 4280035871
0.0013825829 0.022179425 0.384 4280365604
0.0026366641 0.022237184 0.38500002 4280431397
0.0038871446 0.022237184 0.38500002 4280826153
0.0051509701 0.022294942 0.38600001 4280891944
0.0064046984 0.022294942 0.38600001 4279514393
0.007678268 0.022352701 0.38700002 4279450396
0.0089583332 0.02241046 0.38800001 4278992925
0.010218557 0.02241046 0.38800001 4278862109
0.011508367 0.02246822 0.38900003 4278928154
0.01277184 0.02246822 0.38900003 4279192353
0.014035312 0.02246822 0.38900003 4278995744
0.015338113 0.022525977 0.39000002 4279062050
0.016604833 0.022525977 0.39000002 4278799648
0.017871555 0.022525977 0.39000002 4279062820
0.01918735 0.022583738 0.39100003 4278997025
0.020509636 0.022641497 0.39200002 4278865439
0.021838421 0.022699254 0.39300001 4278733853
0.023114886 0.022699254 0.39300001 4278931232
0.024453416 0.022757014 0.39400002 4278930462
0.027149964 0.022872532 0.39600003 4279453217
0.02850798 0.022930291 0.39700001 4279256351
0.050501458 0.024200987 0.41900003 4279453476
0.057013273 0.024663059 0.42700002 4278729240
0.060207114 0.024836333 0.43000001 4279190558
0.061603755 0.024836333 0.43000001 4279190558
0.063146912 0.024894094 0.43100002 4279191842
0.064696558 0.024951853 0.43200001 4279061537
0.066252708 0.025009612 0.43300003 4278798365
0.067659095 0.025009612 0.43300003 4279193123
0.069224976 0.02506737 0.43400002 4284647541
-0.0049420572 0.023854136 0.39100003 4280891694
-0.0037190462 0.024159176 0.39600003 4280628008
-0.0024328374 0.024159176 0.39600003 4280496422
0.0013825829 0.023427079 0.384 4280496676
0.0026435126 0.023549095 0.38600001 4280628776
0.0038972411 0.023549095 0.38600001 4280957739
0.0051509701 0.023549095 0.38600001 4280957737
0.0064212908 0.023610104 0.38700002 4279449115
0.007678268 0.023610104 0.38700002 4279254301
0.0089583332 0.023671111 0.38800001 4279058972
0.010218557 0.023671111 0.38800001 4278795800
0.011508367 0.02373212 0.38900003 4278862361
0.01277184 0.02373212 0.38900003 4278994461
0.014035312 0.02373212 0.38900003 4278864671
0.015298785 0.02373212 0.38900003 4278930464
0.016604833 0.023793127 0.39000002 4278800162
0.017871555 0.023793127 0.39000002 4278865955
0.01918735 0.023854136 0.39100003 4278865955
0.020509636 0.023915144 0.39200002 4278734367
0.021782853 0.023915144 0.39200002 4278405402
0.023114886 0.023976151 0.39300001 4278865441
0.024453416 0.02403716 0.39400002 4278995742
0.02579844 0.024098167 0.39500001 4279126045
0.027149964 0.024159176 0.39600003 4279453217
0.055496104 0.025989417 0.42600003 4278860058
0.060207114 0.026233448 0.43000001 4278730007
0.063293427 0.026355464 0.43200001 4278797084
0.064846322 0.026416473 0.43300003 4278930464
0.066252708 0.026416473 0.43300003 4278864671
0.067815349 0.02647748 0.43400002 4278666527
0.069224976 0.02647748 0.43400002 4286291853
-0.0049546966 0.025188792 0.39200002 4280496936
-0.0037096546 0.025381563 0.39500001 4280759594
-0.0024328374 0.025445823 0.39600003 4280496422
-0.0011466288 0.025445823 0.39600003 4280825641
0.00013958002 0.025445823 0.39600003 4280694055
0.0014257887 0.025445823 0.39600003 4280694055
0.002650361 0.024867509 0.38700002 4280562469
0.0039073378 0.024867509 0.38700002 4280694567
0.0051643145 0.024867509 0.38700002 4281024300
0.0064212908 0.024867509 0.38700002 4279384092
0.007698108 0.024931764 0.38800001 4279320096
0.0089583332 0.024931764 0.38800001 4278993179
0.010218557 0.024931764 0.38800001 4278927386
0.011508367 0.024996022 0.38900003 4279059740
0.01277184 0.024996022 0.38900003 4278994461
0.014035312 0.024996022 0.38900003 4278929949
0.015298785 0.024996022 0.38900003 4279193634
0.016604833 0.025060279 0.39000002 4278733853
0.017871555 0.025060279 0.39000002 4279260197
0.01918735 0.025124537 0.39100003 4278931232
0.020509636 0.025188792 0.39200002 4278799646
0.021782853 0.025188792 0.39200002 4278734367
0.023114886 0.02525305 0.39300001 4278734367
0.024453416 0.025317308 0.39400002 4278799646
0.02579844 0.025381563 0.39500001 4278664982
0.027149964 0.025445823 0.39600003 4279123482
0.045864798 0.026602451 0.41400003 4279452963
0.047323503 0.026666706 0.41500002 4279388707
0.048905987 0.026795221 0.41700003 4279388705
0.050501458 0.026923737 0.41900003 4279388705
0.0522337 0.027116507 0.42200002 4278993947
0.053858403 0.027245022 0.42400002 4279520293
0.055496104 0.027373536 0.42600003 4279257121
0.057146799 0.027502051 0.42800003 4278928156
0.058673706 0.027566306 0.42900002 4279388707
0.060207114 0.027630564 0.43000001 4279519521
0.063293427 0.027759077 0.43200001 4278929953
0.064846322 0.027823336 0.43300003 4279062052
0.066252708 0.027823336 0.43300003 4279127332
0.067815349 0.027887592 0.43400002 4279125283
-0.0049546966 0.026462441 0.39200002 4280365604
-0.0037096546 0.026664959 0.39500001 4281220145
-0.0024266939 0.026664959 0.39500001 4280759594
-0.0011437332 0.026664959 0.39500001 4281023020
0.00013922754 0.026664959 0.39500001 4281483571
0.0014113868 0.026462441 0.39200002 4281286192
0.002664058 0.026259923 0.38900003 4280628776
0.0039174343 0.026192416 0.38800001 4281089323
0.005177659 0.026192416 0.38800001 4281287726
0.0064378832 0.026192416 0.38800001 4279450396
0.007698108 0.026192416 0.38800001 4279254814
0.0089583332 0.026192416 0.38800001 4279058718
0.010244895 0.026259923 0.38900003 4278927902
0.011508367 0.026259923 0.38900003 4278993949
0.01277184 0.026259923 0.38900003 4278994461
0.014035312 0.026259923 0.38900003 4278929949
0.015298785 0.026259923 0.38900003 4279061535
0.016604833 0.026327427 0.39000002 4278865693
0.017871555 0.026327427 0.39000002 4278931232
0.01918735 0.026394935 0.39100003 4278997025
0.020509636 0.026462441 0.39200002 4278799646
0.021838421 0.026529947 0.39300001 4278733853
0.023173705 0.026597453 0.39400002 4278734367
0.024453416 0.026597453 0.39400002 4278864671
0.02579844 0.026664959 0.39500001 4278203148
0.027149964 0.026732467 0.39600003 4278925851
0.061890285 0.02916269 0.43200001 4279650344
0.063439943 0.029230196 0.43300003 4278798113
0.064846322 0.029230196 0.43300003 4278996259
0.066405714 0.029297702 0.43400002 4279258664
0.067815349 0.029297702 0.43400002 4281821259
-0.0049546966 0.027736088 0.39200002 4280826925
0.0039275307 0.027523823 0.38900003 4282471746
0.0051910039 0.027523823 0.38900003 4279710752
0.0064544762 0.027523823 0.38900003 4279385887
0.0077179489 0.027523823 0.38900003 4279190045
0.0089814216 0.027523823 0.38900003 4278993949
0.010244895 0.027523823 0.38900003 4278862363
0.011508367 0.027523823 0.38900003 4278993949
0.01277184 0.027523823 0.38900003 4278994461
0.014035312 0.027523823 0.38900003 4279061535
0.015298785 0.027523823 0.38900003 4278995742
0.016604833 0.027594578 0.39000002 4278800160
0.017871555 0.027594578 0.39000002 4278865953
0.01918735 0.027665334 0.39100003 4278865953
0.020509636 0.027736088 0.39200002 4278799646
0.021838421 0.027806843 0.39300001 4278733853
0.023173705 0.027877599 0.39400002 4278733853
0.024453416 0.027877599 0.39400002 4278930462
0.02579844 0.027948353 0.39500001 4278204945
0.027149964 0.028019112 0.39600003 4279256867
0.02850798 0.028089866 0.39700001 4279454246
0.038479622 0.028797418 0.40700001 4279321377
0.039899349 0.028868174 0.40800002 4279453730
0.041426618 0.029009685 0.41000003 4279454500
0.042862587 0.029080439 0.41100001 4279388707
0.044305053 0.029151196 0.41200003 4279256867
0.045864798 0.029292706 0.41400003 4279388453
0.047323503 0.029363461 0.41500002 4279059488
0.049023267 0.029575726 0.41800001 4279256867
0.050621986 0.029717239 0.42000002 4279322660
0.052357472 0.029929504 0.42300001 4279191588
0.053985428 0.030071015 0.42500001 4279126049
0.055756651 0.030283282 0.42800003 4278994463
0.057280317 0.030354036 0.42900002 4279191588
0.058947243 0.030495547 0.43100002 4279126049
0.060487147 0.030566301 0.43200001 4279126049
0.062033553 0.030637057 0.43300003 4279126562
0.063439943 0.030637057 0.43300003 4279587113
0.064996079 0.030707812 0.43400002 4279323941
0.066405714 0.030707812 0.43400002 4279058466
0.067815349 0.030707812 0.43400002 4286094728
-0.0099194059 0.028639715 0.38700002 4280892718
0.0051910039 0.028787725 0.38900003 4279053592
0.0064544762 0.028787725 0.38900003 4279320094
0.0077179489 0.028787725 0.38900003 4279058205
0.0089814216 0.028787725 0.38900003 4279190558
0.010244895 0.028787725 0.38900003 4279190558
0.011508367 0.028787725 0.38900003 4278994461
0.01277184 0.028787725 0.38900003 4278929181
0.014035312 0.028787725 0.38900003 4278995744
0.015338113 0.028861728 0.39000002 4279127330
0.016604833 0.028861728 0.39000002 4278996257
0.01791738 0.028935732 0.39100003 4278997027
0.01918735 0.028935732 0.39100003 4279063334
0.020509636 0.029009737 0.39200002 4278668576
0.021838421 0.02908374 0.39300001 4278536476
0.023173705 0.029157747 0.39400002 4278404890
0.02451548 0.029231749 0.39500001 4279061537
0.02579844 0.029231749 0.39500001 4278203660
0.027149964 0.029305754 0.39600003 4278993695
0.02850798 0.029379759 0.39700001 4278995746
0.029872492 0.029453764 0.39800003 4278930466
0.031243503 0.029527768 0.39900002 4279062052
0.032702558 0.029675776 0.40100002 4278733085
0.034089811 0.029749781 0.40200001 4278469915
0.035571601 0.029897789 0.40400001 4279062052
0.037066389 0.030045798 0.40600002 4278996257
0.038479622 0.030119803 0.40700001 4278864671
0.039899349 0.030193808 0.40800002 4278733085
0.041325577 0.03026781 0.40900001 4278667292
0.042862587 0.03041582 0.41100001 4278864671
0.044305053 0.030489827 0.41200003 4278864671
0.045864798 0.030637836 0.41400003 4278667292
0.047323503 0.030711839 0.41500002 4278995744
0.049023267 0.030933851 0.41800001 4278798365
0.050621986 0.031081861 0.42000002 4278929953
0.052481253 0.031377878 0.42400002 4279061539
0.054112453 0.031525888 0.42600003 4278995746
0.055756651 0.031673897 0.42800003 4278929953
0.057413835 0.031821903 0.43000001 4279127332
0.058947243 0.031895909 0.43100002 4279127332
0.060487147 0.031969912 0.43200001 4279192355
0.062033553 0.032043919 0.43300003 4279323941
0.063586451 0.032117922 0.43400002 4279388453
0.064996079 0.032117922 0.43400002 4279189023
0.066405714 0.032117922 0.43400002 4285501054
0.0051910039 0.030051624 0.38900003 4279843108
0.0064544762 0.030051624 0.38900003 4279385889
0.0077179489 0.030051624 0.38900003 4279386400
0.0089814216 0.030051624 0.38900003 4278993179
0.010244895 0.030051624 0.38900003 4279190558
0.011508367 0.030051624 0.38900003 4279322912
0.01277184 0.030051624 0.38900003 4279323426
0.014035312 0.030051624 0.38900003 4279127330
0.015338113 0.030128878 0.39000002 4279061537
0.016604833 0.030128878 0.39000002 4279127843
0.01791738 0.030206133 0.39100003 4279062050
0.019236421 0.030283384 0.39200002 4278997027
0.020509636 0.030283384 0.39200002 4278997027
0.021838421 0.030360637 0.39300001 4278931234
0.023173705 0.030437892 0.39400002 4278799648
0.02451548 0.030515144 0.39500001 4278996257
0.02579844 0.030515144 0.39500001 4279193636
0.027149964 0.030592399 0.39600003 4278995744
0.02850798 0.030669652 0.39700001 4279193123
0.029797435 0.030669652 0.39700001 4278930464
0.031243503 0.030824158 0.39900002 4278930464
0.032702558 0.030978667 0.40100002 4278864671
0.034089811 0.03105592 0.40200001 4278930464
0.035571601 0.031210426 0.40400001 4279127843
0.037066389 0.031364933 0.40600002 4279391015
0.038479622 0.031442188 0.40700001 4278996257
0.039899349 0.031519443 0.40800002 4278930464
0.041325577 0.031596694 0.40900001 4279456808
0.042862587 0.031751201 0.41100001 4278996257
0.044305053 0.031828456 0.41200003 4279062052
0.047209471 0.031982962 0.41400003 4279062052
0.049023267 0.032291975 0.41800001 4279061539
0.050621986 0.032446481 0.42000002 4279193125
0.052605029 0.032832749 0.42500001 4279126562
0.054239478 0.032987259 0.42700002 4279257381
0.055886921 0.033141766 0.42900002 4279059490
0.057413835 0.033219017 0.43000001 4279057955
0.059084009 0.033373524 0.43200001 4280044082
0.060627166 0.033450779 0.43300003 4282476372
0.062033553 0.033450779 0.43300003 4285239165
0.063586451 0.033528034 0.43400002 4286028935
0.064996079 0.033528034 0.43400002 4285896579
0.0026709065 0.031396028 0.39000002 4280104231
0.0039376272 0.031396028 0.39000002 4280104998
0.0051910039 0.031315524 0.38900003 4279316766
0.0064544762 0.031315524 0.38900003 4279582246
0.0077179489 0.031315524 0.38900003 4279451428
0.0089814216 0.031315524 0.38900003 4279189793
0.010244895 0.031315524 0.38900003 4279058207
0.011508367 0.031315524 0.38900003 4279585064
0.01277184 0.031315524 0.38900003 4279257381
0.014035312 0.031315524 0.38900003 4279126308
0.015338113 0.031396028 0.39000002 4279061539
0.016604833 0.031396028 0.39000002 4279325224
0.01791738 0.031476531 0.39100003 4279193638
0.019236421 0.031557031 0.39200002 4279062822
0.020561956 0.031637534 0.39300001 4278865443
0.021838421 0.031637534 0.39300001 4278996259
0.023173705 0.031718038 0.39400002 4278667294
0.02451548 0.031798538 0.39500001 4279061539
0.02579844 0.031798538 0.39500001 4279193125
0.027149964 0.031879045 0.39600003 4278929699
0.028436171 0.031879045 0.39600003 4279061285
0.029797435 0.031959545 0.39700001 4279127078
0.031243503 0.032120552 0.39900002 4279193125
0.032702558 0.032281555 0.40100002 4278666781
0.034089811 0.032362059 0.40200001 4278798113
0.035571601 0.032523062 0.40400001 4278862623
0.037066389 0.032684069 0.40600002 4279257381
0.039899349 0.032845076 0.40800002 4279126049
0.041325577 0.032925576 0.40900001 4278928416
0.042862587 0.033086583 0.41100001 4279323176
0.045754012 0.033247586 0.41300002 4279387685
0.047209471 0.03332809 0.41400003 4279649320
0.049023267 0.0336501 0.41800001 4280109360
0.052605029 0.034213617 0.42500001 4284713586
0.055886921 0.034535628 0.42900002 4286292366
0.057413835 0.034616131 0.43000001 4285831302
0.059084009 0.034777138 0.43200001 4285896325
0.060627166 0.034857642 0.43300003 4286027398
0.062033553 0.034857642 0.43300003 4286027398
0.010244895 0.032579426 0.38900003 4279647525
0.011508367 0.032579426 0.38900003 4279121695
0.01277184 0.032579426 0.38900003 4279451432
0.014035312 0.032579426 0.38900003 4279584301
0.034089811 0.033668198 0.40200001 4281162050
0.039899349 0.03417071 0.40800002 4284647793
0.041325577 0.034254458 0.40900001 4284910967
0.042862587 0.034421962 0.41100001 4285831556
0.025395237 0.023924025 0.40050641 4294967295
0.025395237 0.023924025 0.40050641 4294901760
0.025395237 0.023924025 0.4010064 4294901760
0.025395237 0.023924025 0.40150639 4294901760
0.025395237 0.023924025 0.40200642 4294901760
0.025395237 0.023924025 0.40250641 4294901760
0.025395237 0.023924025 0.4030064 4294901760
0.025395237 0.023924025 0.4035064 4294901760
0.025395237 0.023924025 0.40400642 4294901760
0.025395237 0.023924025 0.40450642 4294901760
0.025395237 0.023924025 0.40500641 4294901760
0.025395237 0.023924025 0.4055064 4294901760
0.025395237 0.023924025 0.4060064 4294901760
0.025395237 0.023924025 0.40650642 4294901760
0.025395237 0.023924025 0.40700641 4294901760
0.025395237 0.023924025 0.40750641 4294901760
0.025395237 0.023924025 0.4080064 4294901760
0.025395237 0.023924025 0.40850639 4294901760
0.025395237 0.023924025 0.40900642 4294901760
0.025395237 0.023924025 0.40950641 4294901760
0.025395237 0.023924025 0.4100064 4294901760
0.025395237 0.023924025 0.4105064 4294901760
0.025395237 0.023924025 0.41100642 4294901760
0.025395237 0.023924025 0.41150641 4294901760
0.025395237 0.023924025 0.41200641 4294901760
0.025395237 0.023924025 0.4125064 4294901760
0.025395237 0.023924025 0.41300642 4294901760
0.025395237 0.023924025 0.41350642 4294901760
0.025395237 0.023924025 0.41400641 4294901760
0.025395237 0.023924025 0.41450641 4294901760
0.025395237 0.023924025 0.4150064 4294901760
0.025395237 0.023924025 0.41550642 4294901760
0.025395237 0.023924025 0.41600642 4294901760
0.025395237 0.023924025 0.41650641 4294901760
0.025395237 0.023924025 0.4170064 4294901760
0.025395237 0.023924025 0.4175064 4294901760
0.025395237 0.023924025 0.41800642 4294901760
0.025395237 0.023924025 0.41850641 4294901760
0.025395237 0.023924025 0.41900641 4294901760
0.025395237 0.023924025 0.4195064 4294901760
0.025395237 0.023924025 0.42000642 4294901760
0.025395237 0.023924025 0.42050642 4294901760
0.025395237 0.023924025 0.42100641 4294901760
0.025395237 0.023924025 0.4215064 4294901760
0.025395237 0.023924025 0.42200643 4294901760
0.025395237 0.023924025 0.42250642 4294901760
0.025395237 0.023924025 0.42300642 4294901760
0.025395237 0.023924025 0.42350641 4294901760
0.025395237 0.023924025 0.4240064 4294901760
0.025395237 0.023924025 0.42450643 4294901760
0.025395237 0.023924025 0.42500642 4294901760
0.025395237 0.023924025 0.42550641 4294901760
0.025395237 0.023924025 0.42600641 4294901760
0.025395237 0.023924025 0.4265064 4294901760
0.025395237 0.023924025 0.42700642 4294901760
0.025395237 0.023924025 0.42750642 4294901760
0.025395237 0.023924025 0.42800641 4294901760
0.025395237 0.023924025 0.4285064 4294901760
0.025395237 0.023924025 0.4290064 4294901760
0.025395237 0.023924025 0.42950642 4294901760
0.025395237 0.023924025 0.43000641 4294901760
0.025395237 0.023924025 0.43050641 4294901760
0.025395237 0.023924025 0.4310064 4294901760
0.025395237 0.023924025 0.43150643 4294901760
0.025395237 0.023924025 0.43200642 4294901760
0.025395237 0.023924025 0.43250641 4294901760
0.025395237 0.023924025 0.43300641 4294901760
0.025395237 0.023924025 0.43350643 4294901760
0.025395237 0.023924025 0.43400642 4294901760
0.025395237 0.023924025 0.43450642 4294901760
0.025395237 0.023924025 0.43500641 4294901760
0.025395237 0.023924025 0.4355064 4294901760
0.025395237 0.023924025 0.43600643 4294901760
0.025395237 0.023924025 0.43650642 4294901760
0.025395237 0.023924025 0.43700641 4294901760
0.025395237 0.023924025 0.43750641 4294901760
0.025395237 0.023924025 0.4380064 4294901760
0.025395237 0.023924025 0.43850642 4294901760
0.025395237 0.023924025 0.43900642 4294901760
0.025395237 0.023924025 0.43950641 4294901760
0.025395237 0.023924025 0.44000641 4294901760
0.025395237 0.023924025 0.44050643 4294901760
0.025395237 0.023924025 0.44100642 4294901760
0.025395237 0.023924025 0.44150642 4294901760
0.025395237 0.023924025 0.44200641 4294901760
0.025395237 0.023924025 0.4425064 4294901760
0.025395237 0.023924025 0.44300643 4294901760
0.025395237 0.023924025 0.44350642 4294901760
0.025395237 0.023924025 0.44400641 4294901760
0.025395237 0.023924025 0.44450641 4294901760
0.025395237 0.023924025 0.44500643 4294901760
0.025395237 0.023924025 0.44550642 4294901760
0.025395237 0.023924025 0.44600642 4294901760
0.025395237 0.023924025 0.44650641 4294901760
0.025395237 0.023924025 0.4470064 4294901760
0.025395237 0.023924025 0.44750643 4294901760
0.025395237 0.023924025 0.44800642 4294901760
0.025395237 0.023924025 0.44850641 4294901760
0.025395237 0.023924025 0.44900641 4294901760
0.025395237 0.023924025 0.44950643 4294901760
0.025395237 0.023924025 0.45000643 4294901760
0.025395237 0.023924025 0.45050642 4294901760
0.025395237 0.023924025 0.40050641 4278255360
0.0252054 0.023907937 0.4009687 4278255360
0.025015565 0.023891851 0.40143096 4278255360
0.024825729 0.023875764 0.40189326 4278255360
0.024635892 0.023859678 0.40235552 4278255360
0.024446055 0.02384359 0.40281782 4278255360
0.02425622 0.023827504 0.40328008 4278255360
0.024066385 0.023811417 0.40374237 4278255360
0.023876548 0.023795331 0.40420467 4278255360
0.023686711 0.023779243 0.40466693 4278255360
0.023496876 0.023763157 0.40512922 4278255360
0.02330704 0.02374707 0.40559149 4278255360
0.023117203 0.023730984 0.40605378 4278255360
0.022927366 0.023714896 0.40651605 4278255360
0.022737531 0.02369881 0.40697834 4278255360
0.022547696 0.023682723 0.40744063 4278255360
0.022357859 0.023666637 0.4079029 4278255360
0.022168022 0.023650549 0.40836519 4278255360
0.021978186 0.023634464 0.40882745 4278255360
0.021788351 0.023618376 0.40928975 4278255360
0.021598514 0.02360229 0.40975201 4278255360
0.021408677 0.023586202 0.4102143 4278255360
0.021218842 0.023570117 0.4106766 4278255360
0.021029007 0.023554029 0.41113886 4278255360
0.02083917 0.023537943 0.41160116 4278255360
0.020649333 0.023521855 0.41206342 4278255360
0.020459497 0.02350577 0.41252571 4278255360
0.020269662 0.023489682 0.41298798 4278255360
0.020079825 0.023473596 0.41345027 4278255360
0.019889988 0.023457509 0.41391256 4278255360
0.019700153 0.023441423 0.41437483 4278255360
0.019510318 0.023425335 0.41483712 4278255360
0.019320481 0.023409249 0.41529939 4278255360
0.019130643 0.023393162 0.41576168 4278255360
0.018940808 0.023377076 0.41622394 4278255360
0.018750973 0.023360988 0.41668624 4278255360
0.018561136 0.023344902 0.41714853 4278255360
0.018371299 0.023328815 0.41761079 4278255360
0.018181464 0.023312729 0.41807309 4278255360
0.017991628 0.023296641 0.41853535 4278255360
0.017801791 0.023280555 0.41899765 4278255360
0.017611954 0.023264468 0.41945991 4278255360
0.017422119 0.023248382 0.4199222 4278255360
0.017232284 0.023232294 0.42038447 4278255360
0.017042447 0.023216208 0.42084676 4278255360
0.01685261 0.023200121 0.42130905 4278255360
0.016662775 0.023184035 0.42177132 4278255360
0.016472939 0.023167947 0.42223361 4278255360
0.016283102 0.023151862 0.42269588 4278255360
0.016093265 0.023135774 0.42315817 4278255360
0.01590343 0.023119688 0.42362046 4278255360
0.015713595 0.0231036 0.42408273 4278255360
0.015523758 0.023087513 0.42454502 4278255360
0.015333923 0.023071427 0.42500728 4278255360
0.015144086 0.023055339 0.42546958 4278255360
0.014954249 0.023039253 0.42593184 4278255360
0.014764413 0.023023166 0.42639413 4278255360
0.014574577 0.02300708 0.4268564 4278255360
0.014384741 0.022990992 0.42731869 4278255360
0.014194906 0.022974906 0.42778099 4278255360
0.014005069 0.022958819 0.42824325 4278255360
0.013815233 0.022942733 0.42870554 4278255360
0.013625396 0.022926645 0.42916781 4278255360
0.01343556 0.02291056 0.4296301 4278255360
0.013245724 0.022894472 0.43009236 4278255360
0.013055888 0.022878386 0.43055466 4278255360
0.012866051 0.022862298 0.43101695 4278255360
0.012676216 0.022846213 0.43147922 4278255360
0.01248638 0.022830125 0.43194151 4278255360
0.012296543 0.022814039 0.43240377 4278255360
0.012106707 0.022797951 0.43286607 4278255360
0.011916871 0.022781866 0.43332833 4278255360
0.011727034 0.022765778 0.43379062 4278255360
0.011537199 0.022749692 0.43425292 4278255360
0.011347363 0.022733605 0.43471518 4278255360
0.011157527 0.022717519 0.43517748 4278255360
0.01096769 0.022701431 0.43563974 4278255360
0.010777854 0.022685345 0.43610203 4278255360
0.010588019 0.022669258 0.4365643 4278255360
0.010398182 0.022653172 0.43702659 4278255360
0.010208346 0.022637084 0.43748888 4278255360
0.01001851 0.022620998 0.43795115 4278255360
0.0098286737 0.022604911 0.43841344 4278255360
0.0096388385 0.022588825 0.43887571 4278255360
0.0094490014 0.022572737 0.439338 4278255360
0.0092591643 0.022556651 0.43980026 4278255360
0.0090693291 0.022540564 0.44026256 4278255360
0.0088794921 0.022524478 0.44072485 4278255360
0.0086896569 0.02250839 0.44118711 4278255360
0.0084998216 0.022492304 0.44164941 4278255360
0.0083099846 0.022476217 0.44211167 4278255360
0.0081201475 0.022460131 0.44257396 4278255360
0.0079303123 0.022444043 0.44303626 4278255360
0.0077404752 0.022427958 0.44349852 4278255360
0.00755064 0.02241187 0.44396082 4278255360
0.0073608048 0.022395784 0.44442308 4278255360
0.0071709678 0.022379696 0.44488537 4278255360
0.0069811307 0.022363611 0.44534764 4278255360
0.0067912955 0.022347523 0.44580993 4278255360
0.0066014584 0.022331435 0.44627219 4278255360
0.0064116232 0.022315349 0.44673449 4278255360
