# .PCD v0.7 - Point Cloud Data file format
VERSION 0.7
FIELDS x y z rgb
SIZE 4 4 4 4
TYPE F F F U
COUNT 1 1 1 1
WIDTH 884
HEIGHT 1
VIEWPOINT 0 0 0 1 0 0 0
POINTS 884
DATA ascii
0.076071844 -0.077636719 0.42500001 4286815632
0.0745157 -0.076076433 0.42400002 4286356363
0.076071844 -0.076255858 0.42500001 4281161276
0.077452242 -0.076255858 0.42500001 4280768055
0.078832641 -0.076255858 0.42500001 4279979307
0.080213048 -0.076255858 0.42500001 4280305192
0.0745157 -0.074698813 0.42400002 4281490243
0.075892851 -0.074698813 0.42400002 4280375862
0.077270001 -0.074698813 0.42400002 4279851053
0.078832641 -0.074874982 0.42500001 4279587881
0.080213048 -0.074874982 0.42500001 4279258146
0.07142289 -0.072975338 0.42200002 4284054121
0.072793551 -0.072975338 0.42200002 4280704061
0.074339949 -0.073148265 0.42300001 4279916594
0.075713858 -0.073148265 0.42300001 4279392299
0.077270001 -0.073321193 0.42400002 4279326506
0.078647159 -0.073321193 0.42400002 4279326504
0.080213048 -0.073494121 0.42500001 4279257633
0.069720238 -0.071264856 0.42000002 4282542415
0.071253642 -0.071434543 0.42100003 4280900411
0.072621055 -0.071434543 0.42100003 4279917107
0.074164212 -0.071604215 0.42200002 4279523633
0.075534865 -0.071604215 0.42200002 4279327019
0.07708776 -0.071773894 0.42300001 4279129640
0.078647159 -0.071943574 0.42400002 4279716902
0.080024309 -0.071943574 0.42400002 4283331924
0.068193324 -0.069733813 0.41900003 4281884487
0.06955424 -0.069733813 0.41900003 4280440371
0.071084395 -0.069900237 0.42000002 4279916848
0.072448559 -0.069900237 0.42000002 4279523887
0.073988467 -0.070066668 0.42100003 4279261226
0.075534865 -0.070233099 0.42200002 4279063847
0.076905519 -0.070233099 0.42200002 4279851566
0.078461662 -0.070399523 0.42300001 4282280263
0.080024309 -0.070565954 0.42400002 4285040235
0.066513397 -0.068046071 0.41700003 4281227839
0.068030566 -0.068209253 0.41800001 4280769336
0.06955424 -0.068372436 0.41900003 4279654705
0.070915148 -0.068372436 0.41900003 4279523887
0.072448559 -0.068535611 0.42000002 4279261226
0.073812723 -0.068535611 0.42000002 4279129640
0.07535588 -0.068698794 0.42100003 4280705594
0.076905519 -0.068861976 0.42200002 4281296704
0.078461662 -0.069025151 0.42300001 4282015812
0.065002732 -0.066531263 0.41600001 4281687108
0.066353895 -0.066531263 0.41600001 4280244789
0.067867815 -0.066691197 0.41700003 4279523119
0.069388233 -0.066851124 0.41800001 4278998572
0.070915148 -0.067011058 0.41900003 4279065132
0.072276063 -0.067011058 0.41900003 4278998826
0.073812723 -0.067170985 0.42000002 4280377912
0.07535588 -0.067330919 0.42100003 4280308785
0.076723285 -0.067330919 0.42100003 4281821511
0.063345544 -0.064866282 0.41400003 4280702010
0.064846471 -0.06502296 0.41500002 4280375096
0.066194393 -0.06502296 0.41500002 4279523633
0.067705065 -0.065179639 0.41600001 4279064365
0.069222234 -0.065336324 0.41700003 4278998824
0.070745893 -0.065493003 0.41800001 4278933031
0.072276063 -0.065649688 0.41900003 4280770874
0.073636979 -0.065649688 0.41900003 4280571698
0.07517688 -0.065806367 0.42000002 4281556288
0.076723285 -0.065963052 0.42100003 4281950019
0.060363177 -0.06321428 0.41200003 4283595369
0.06170135 -0.06321428 0.41200003 4280834881
0.063192531 -0.06336771 0.41300002 4279916855
0.064690217 -0.063521147 0.41400003 4279654707
0.066034891 -0.063521147 0.41400003 4279195951
0.067542315 -0.063674577 0.41500002 4278933292
0.069222234 -0.063981444 0.41700003 4278602785
0.070745893 -0.064134873 0.41800001 4280968766
0.07210356 -0.064134873 0.41800001 4279979561
0.073636979 -0.064288311 0.41900003 4281688126
0.07517688 -0.064441741 0.42000002 4282344007
0.076723285 -0.064595178 0.42100003 4284645479
0.060216662 -0.061725467 0.41100001 4280441918
0.061551586 -0.061725467 0.41100001 4279982902
0.063039526 -0.061875656 0.41200003 4279195181
0.064533964 -0.062025838 0.41300002 4279130158
0.065875381 -0.062025838 0.41300002 4279064365
0.067379564 -0.062176023 0.41400003 4279458353
0.069056235 -0.062476385 0.41600001 4280705340
0.070576653 -0.06262657 0.41700003 4280571957
0.07210356 -0.062776752 0.41800001 4281557569
0.073636979 -0.062926941 0.41900003 4281228345
0.07517688 -0.063077122 0.42000002 4282277701
0.058595203 -0.060096215 0.40900001 4280439608
0.059923634 -0.060096215 0.40900001 4279720500
0.061401825 -0.060243152 0.41000003 4279392301
0.062886514 -0.060390085 0.41100001 4278998826
0.064221449 -0.060390085 0.41100001 4278999339
0.065715879 -0.060537022 0.41200003 4278931750
0.067216806 -0.060683955 0.41300002 4280575037
0.069056235 -0.061124757 0.41600001 4280309557
0.070576653 -0.061271694 0.41700003 4281426755
0.07210356 -0.061418626 0.41800001 4281425470
0.073636979 -0.061565563 0.41900003 4282213189
0.056986734 -0.058479965 0.40700001 4280637498
0.058308672 -0.058479965 0.40700001 4279719217
0.059777126 -0.058623653 0.40800002 4279261228
0.061102305 -0.058623653 0.40800002 4279327789
0.062580496 -0.058767337 0.40900001 4279130410
0.063908935 -0.058767337 0.40900001 4279130410
0.065396868 -0.058911026 0.41000003 4280706364
0.066728555 -0.058911026 0.41000003 4280507188
0.069056235 -0.059773132 0.41600001 4281294397
0.07210356 -0.060060505 0.41800001 4281423675
0.055254489 -0.056736268 0.40400001 4280769084
0.056706704 -0.056876708 0.40500003 4279654189
0.058165409 -0.057017144 0.40600002 4279327019
0.059484098 -0.057017144 0.40600002 4279130410
0.06095254 -0.057157576 0.40700001 4279130410
0.062274482 -0.057157576 0.40700001 4279983154
0.063752681 -0.057298016 0.40800002 4281231425
0.065077856 -0.057298016 0.40800002 4280374578
0.066565797 -0.057438452 0.40900001 4281557056
0.06756223 -0.057157576 0.40700001 4281490493
0.070407398 -0.058421504 0.41600001 4281358393
0.05367526 -0.055149261 0.40200001 4280310071
0.055117723 -0.055286452 0.40300003 4279785523
0.056566685 -0.055423636 0.40400001 4279195431
0.057878878 -0.055423636 0.40400001 4279064615
0.05933759 -0.055560827 0.40500003 4278998822
0.060802784 -0.055698011 0.40600002 4280116024
0.062121473 -0.055698011 0.40600002 4280968766
0.06359642 -0.055835195 0.40700001 4280638774
0.064918354 -0.055835195 0.40700001 4281359679
0.066240288 -0.055835195 0.40700001 4281490495
0.06756223 -0.055835195 0.40700001 4281947966
0.04938684 -0.053441305 0.39900002 4288198567
0.050682791 -0.053441305 0.39900002 4281294147
0.052109014 -0.053575244 0.40000001 4280704315
0.053541742 -0.053709183 0.40100002 4279522603
0.054980952 -0.053843118 0.40200001 4279195435
0.05642667 -0.053977061 0.40300003 4279064617
0.057735614 -0.053977061 0.40300003 4278867236
0.059191074 -0.054110996 0.40400001 4280246324
0.060653023 -0.054244936 0.40500003 4280640569
0.061968468 -0.054244936 0.40500003 4280835383
0.063440166 -0.054378871 0.40600002 4281098042
0.066077538 -0.054378871 0.40600002 4281621054
0.050682791 -0.052144911 0.39900002 4279916596
0.051978745 -0.052144911 0.39900002 4279194154
0.053408217 -0.052275598 0.40000001 4279195433
0.054844186 -0.052406289 0.40100002 4279130410
0.056286652 -0.052536976 0.40200001 4279130410
0.057735614 -0.05266767 0.40300003 4280641852
0.059044562 -0.05266767 0.40300003 4281231938
0.060503263 -0.052798357 0.40400001 4280836153
0.061968468 -0.052929047 0.40500003 4280768307
0.063283913 -0.052929047 0.40500003 4281359677
0.06459935 -0.052929047 0.40500003 4281751870
0.04784983 -0.050593644 0.39700001 4280898104
0.049139284 -0.050593644 0.39700001 4280441141
0.050555769 -0.050721087 0.39800003 4279326506
0.051978745 -0.050848521 0.39900002 4279261226
0.053408217 -0.05097596 0.40000001 4279064615
0.054707415 -0.05097596 0.40000001 4279064615
0.056146637 -0.051103402 0.40100002 4280706364
0.057592351 -0.05123084 0.40200001 4280836926
0.059044562 -0.051358283 0.40300003 4281098301
0.060503263 -0.051485721 0.40400001 4281360444
0.061815456 -0.051485721 0.40400001 4281688126
0.046325814 -0.049055368 0.39500001 4280832313
0.047729302 -0.049179561 0.39600003 4280113975
0.049139284 -0.049303748 0.39700001 4279523373
0.050428741 -0.049303748 0.39700001 4279196203
0.051848475 -0.049427941 0.39800003 4279064617
0.053274699 -0.049552131 0.39900002 4279064617
0.054707415 -0.049676321 0.40000001 4280904254
0.056146637 -0.049800515 0.40100002 4280836153
0.057592351 -0.049924701 0.40200001 4280901692
0.060353503 -0.050048895 0.40300003 4281687358
0.061815456 -0.050173085 0.40400001 4281621052
0.044814784 -0.047530089 0.39300001 4280702008
0.046208534 -0.047651034 0.39400002 4280178998
0.04760877 -0.047771972 0.39500001 4279261228
0.049015511 -0.047892917 0.39600003 4279130410
0.050428741 -0.048013855 0.39700001 4278473763
0.051848475 -0.0481348 0.39800003 4278539556
0.053274699 -0.048255742 0.39900002 4280838461
0.054707415 -0.048376679 0.40000001 4281297729
0.044814784 -0.046253193 0.39300001 4279982387
0.046091251 -0.046253193 0.39300001 4279260199
0.047488246 -0.046370886 0.39400002 4279393580
0.048891731 -0.046488576 0.39500001 4279130921
0.050301719 -0.046606272 0.39600003 4278933031
0.051718198 -0.046723962 0.39700001 4280181303
0.05314118 -0.046841659 0.39800003 4281427266
0.057449088 -0.047194734 0.40100002 4281224759
0.041939247 -0.044632964 0.39000002 4280767288
0.043316755 -0.044747408 0.39100003 4279718447
0.044700753 -0.044861849 0.39200002 4279195433
0.046091251 -0.04497629 0.39300001 4279524396
0.047488246 -0.045090739 0.39400002 4279065382
0.048891731 -0.04520518 0.39500001 4279131175
0.050301719 -0.045319624 0.39600003 4280510266
0.051718198 -0.045434065 0.39700001 4281231421
0.04046395 -0.043143425 0.38800001 4280701499
0.041831709 -0.043254621 0.38900003 4279982902
0.043205969 -0.043365814 0.39000002 4279326767
0.044586722 -0.04347701 0.39100003 4279196203
0.045973971 -0.043588202 0.39200002 4279064615
0.047367714 -0.043699395 0.39300001 4279195431
0.048767958 -0.043810591 0.39400002 4280378680
0.050174691 -0.043921784 0.39500001 4281361725
0.051718198 -0.044144172 0.39700001 4279450650
0.05314118 -0.044255368 0.39800003 4281356597
0.054433882 -0.044255368 0.39800003 4281750587
0.018307893 -0.046416473 0.43000001 4281287222
0.019704534 -0.046416473 0.43000001 4280694315
0.021101175 -0.046416473 0.43000001 4280234534
0.022445494 -0.046308529 0.42900002 4280234534
0.023838889 -0.046308529 0.42900002 4281355063
0.025232282 -0.046308529 0.42900002 4281092407
0.039001644 -0.04166688 0.38600001 4280176434
0.040359661 -0.041774828 0.38700002 4280047158
0.041724171 -0.041882772 0.38800001 4279195435
0.043095186 -0.04199072 0.38900003 4279262511
0.044586722 -0.042206611 0.39100003 4278802728
0.045973971 -0.042314555 0.39200002 4279130923
0.047367714 -0.0424225 0.39300001 4280508983
0.048767958 -0.042530444 0.39400002 4281428290
0.051587928 -0.042746335 0.39600003 4281028147
0.016911251 -0.045019358 0.43000001 4282340164
0.018307893 -0.045019358 0.43000001 4281089327
0.019704534 -0.045019358 0.43000001 4280694569
0.021052103 -0.044914667 0.42900002 4280432167
0.022393174 -0.044809971 0.42800003 4280695339
0.023783321 -0.044809971 0.42800003 4280958509
0.025114648 -0.044705272 0.42700002 4280498471
0.037747912 -0.040412728 0.38600001 4280571446
0.039001644 -0.040412728 0.38600001 4279324970
0.040359661 -0.040517427 0.38700002 4279194920
0.041724171 -0.040622123 0.38800001 4278933542
0.043095186 -0.040726818 0.38900003 4279065128
0.044472687 -0.040831514 0.39000002 4279327789
0.045856692 -0.040936213 0.39100003 4280181303
0.047367714 -0.0411456 0.39300001 4282084167
0.016911251 -0.043622248 0.43000001 4280958507
0.018265318 -0.043520801 0.42900002 4280957227
0.019658711 -0.043520801 0.42900002 4280299297
0.021003032 -0.043419354 0.42800003 4280299297
0.022340855 -0.043317907 0.42700002 4280167711
0.02372775 -0.043317907 0.42700002 4280168225
0.025055833 -0.043216459 0.42600003 4280102432
0.029272038 -0.039564364 0.39000002 4279129642
0.030382153 -0.039361469 0.38800001 4279064619
0.031479269 -0.039158575 0.38600001 4279130158
0.032648202 -0.039057128 0.38500002 4279589426
0.033898681 -0.039057128 0.38500002 4280244791
0.035149161 -0.039057128 0.38500002 4280112692
0.036399644 -0.039057128 0.38500002 4279850285
0.037747912 -0.039158575 0.38600001 4279522601
0.039001644 -0.039158575 0.38600001 4279261224
0.040359661 -0.039260022 0.38700002 4279458603
0.041724171 -0.039361469 0.38800001 4278801956
0.043095186 -0.039462917 0.38900003 4279196203
0.044472687 -0.039564364 0.39000002 4280509498
0.045973971 -0.039767258 0.39200002 4279850285
0.047367714 -0.039868705 0.39300001 4280766518
0.016871924 -0.042126935 0.42900002 4280563749
0.018265318 -0.042126935 0.42900002 4280759848
0.019612886 -0.04202874 0.42800003 4280167198
0.020953959 -0.041930541 0.42700002 4280167198
0.022288535 -0.041832343 0.42600003 4279904026
0.023616614 -0.041734144 0.42500001 4280233504
0.0249382 -0.041635945 0.42400002 4280101918
0.026253287 -0.041537747 0.42300001 4280035871
0.030303849 -0.038002621 0.38700002 4278933031
0.031479269 -0.037904423 0.38600001 4278999337
0.032648202 -0.037806224 0.38500002 4279986232
0.033898681 -0.037806224 0.38500002 4280444221
0.035149161 -0.037806224 0.38500002 4279260201
0.036399644 -0.037806224 0.38500002 4279392299
0.037747912 -0.037904423 0.38600001 4279326504
0.039102685 -0.038002621 0.38700002 4279394347
0.040359661 -0.038002621 0.38700002 4279460140
0.041724171 -0.038100816 0.38800001 4279525166
0.043095186 -0.038199019 0.38900003 4279852850
0.044586722 -0.038395412 0.39100003 4281165891
0.045973971 -0.038493611 0.39200002 4280834616
0.047367714 -0.038591806 0.39300001 4280700213
0.016871924 -0.040733073 0.42900002 4281089325
0.018265318 -0.040733073 0.42900002 4280562467
0.019612886 -0.040638123 0.42800003 4280167711
0.020953959 -0.040543173 0.42700002 4280167711
0.022236213 -0.040353276 0.42500001 4280167198
0.023561046 -0.040258329 0.42400002 4280101405
0.024879381 -0.040163375 0.42300001 4280232991
0.026191223 -0.040068429 0.42200002 4280101405
0.030303849 -0.03674522 0.38700002 4278405142
0.031479269 -0.03665027 0.38600001 4278406939
0.032733001 -0.03665027 0.38600001 4278472991
0.033986729 -0.03665027 0.38600001 4278210855
0.035240456 -0.03665027 0.38600001 4281565782
0.036494188 -0.03665027 0.38600001 4282681947
0.037747912 -0.03665027 0.38600001 4279722029
0.039102685 -0.03674522 0.38700002 4278999589
0.04046395 -0.036840167 0.38800001 4279065382
0.041831709 -0.036935117 0.38900003 4280510266
0.043205969 -0.037030064 0.39000002 4280639799
0.044586722 -0.037125014 0.39100003 4280110895
0.015478531 -0.039339207 0.42900002 4282340162
0.016871924 -0.039339207 0.42900002 4280957739
0.018222742 -0.039247509 0.42800003 4280233504
0.019567061 -0.039155807 0.42700002 4280299297
0.020904887 -0.039064109 0.42600003 4280365090
0.022236213 -0.038972408 0.42500001 4280101918
0.023505477 -0.038789008 0.42300001 4280036125
0.024820566 -0.03869731 0.42200002 4280036125
0.026067093 -0.03851391 0.42000002 4280036125
0.027300628 -0.03833051 0.41800001 4280036125
0.028589735 -0.038238809 0.41700003 4279773465
0.029947549 -0.036588214 0.39900002 4278598167
0.030303849 -0.035487816 0.38700002 4278533912
0.031560823 -0.035487816 0.38700002 4278272532
0.032733001 -0.035396114 0.38600001 4278668574
0.033986729 -0.035396114 0.38600001 4278867749
0.035240456 -0.035396114 0.38600001 4278671140
0.036494188 -0.035396114 0.38600001 4279000107
0.037845708 -0.035487816 0.38700002 4279262509
0.039102685 -0.035487816 0.38700002 4279721775
0.04046395 -0.035579514 0.38800001 4280116020
0.041831709 -0.035671216 0.38900003 4280837946
0.043205969 -0.035762914 0.39000002 4281166143
0.044586722 -0.035854615 0.39100003 4280242227
0.016871924 -0.037945341 0.42900002 4280891948
0.018222742 -0.037856892 0.42800003 4280365604
0.019567061 -0.037768442 0.42700002 4280365604
0.020904887 -0.037679993 0.42600003 4280168225
0.022183893 -0.03750309 0.42400002 4280102432
0.023505477 -0.037414636 0.42300001 4280036639
0.024761749 -0.037237737 0.42100003 4279970846
0.026067093 -0.037149288 0.42000002 4279905053
0.027300628 -0.036972385 0.41800001 4280101918
0.028589735 -0.036883935 0.41700003 4279641879
0.029800532 -0.036707032 0.41500002 4279645211
0.031148452 -0.036707032 0.41500002 4278795033
0.030303849 -0.034230415 0.38700002 4278664730
0.031560823 -0.034230415 0.38700002 4278533910
0.032817803 -0.034230415 0.38700002 4279061537
0.03407478 -0.034230415 0.38700002 4278997025
0.035331756 -0.034230415 0.38700002 4279194918
0.036588732 -0.034230415 0.38700002 4279589678
0.037845708 -0.034230415 0.38700002 4279655469
0.039203726 -0.034318864 0.38800001 4280048945
0.04056824 -0.034407318 0.38900003 4280771385
0.041939247 -0.034495767 0.39000002 4281034044
0.043316755 -0.034584217 0.39100003 4281362495
0.018222742 -0.036466278 0.42800003 4280102432
0.019567061 -0.036381073 0.42700002 4280102432
0.020855812 -0.036210671 0.42500001 4279970592
0.022183893 -0.03612547 0.42400002 4279970592
0.023449909 -0.035955068 0.42200002 4280431143
0.024761749 -0.035869867 0.42100003 4280036385
0.026067093 -0.035784662 0.42000002 4279905053
0.027300628 -0.03561426 0.41800001 4279641881
0.028589735 -0.035529058 0.41700003 4279380758
0.030015958 -0.03561426 0.41800001 4278857748
0.03137362 -0.03561426 0.41800001 4278729494
0.032731287 -0.03561426 0.41800001 4278664984
0.031642377 -0.033058211 0.38800001 4278665496
0.032902602 -0.033058211 0.38800001 4279060767
0.03407478 -0.032973014 0.38700002 4279193634
0.035331756 -0.032973014 0.38700002 4280114738
0.036588732 -0.032973014 0.38700002 4279720750
0.037943501 -0.033058211 0.38800001 4279918129
0.039304767 -0.033143416 0.38900003 4280705592
0.04056824 -0.033143416 0.38900003 4281099837
0.041939247 -0.033228617 0.39000002 4281230909
0.043316755 -0.033313818 0.39100003 4281361214
0.018222742 -0.035075661 0.42800003 4280103202
0.019567061 -0.034993708 0.42700002 4280168225
0.020855812 -0.034829803 0.42500001 4280167971
0.022131572 -0.034665897 0.42300001 4280036385
0.023449909 -0.034583945 0.42200002 4280036385
0.024761749 -0.034501996 0.42100003 4279773213
0.026067093 -0.03442004 0.42000002 4279707420
0.027365942 -0.034338091 0.41900003 4279707674
0.028658295 -0.034256134 0.41800001 4279710750
0.030015958 -0.034256134 0.41800001 4279055640
0.03137362 -0.034256134 0.41800001 4278729492
0.030538762 -0.031961467 0.39000002 4278598419
0.031723931 -0.031879514 0.38900003 4278797082
0.032902602 -0.031797562 0.38800001 4279586598
0.034162827 -0.031797562 0.38800001 4278732574
0.035423048 -0.031797562 0.38800001 4280114740
0.036683276 -0.031797562 0.38800001 4279654957
0.038041294 -0.031879514 0.38900003 4280115508
0.039304767 -0.031879514 0.38900003 4280640571
0.040672526 -0.031961467 0.39000002 4280902460
0.041939247 -0.031961467 0.39000002 4281296704
0.043316755 -0.03204342 0.39100003 4281360190
0.018222742 -0.033685043 0.42800003 4280167971
0.019612886 -0.033685043 0.42800003 4280101664
0.020806741 -0.03337023 0.42400002 4280167971
0.022131572 -0.033291526 0.42300001 4280102178
0.023449909 -0.033212822 0.42200002 4280167971
0.024761749 -0.033134121 0.42100003 4279970592
0.026067093 -0.033055414 0.42000002 4280101664
0.027365942 -0.032976713 0.41900003 4279707674
0.028726855 -0.032976713 0.41900003 4279318299
0.030087767 -0.032976713 0.41900003 4278596371
0.029422153 -0.030851722 0.39200002 4278795285
0.030617068 -0.030773019 0.39100003 4278992664
0.031805482 -0.030694313 0.39000002 4279388705
0.032987405 -0.030615611 0.38900003 4279586598
0.034250874 -0.030615611 0.38900003 4279587111
0.035514347 -0.030615611 0.38900003 4280048432
0.03677782 -0.030615611 0.38900003 4279983152
0.038041294 -0.030615611 0.38900003 4280247094
0.039304767 -0.030615611 0.38900003 4280508985
0.040672526 -0.030694313 0.39000002 4281166145
0.020806741 -0.031992611 0.42400002 4281352245
0.022131572 -0.031917155 0.42300001 4280365350
0.023449909 -0.031841703 0.42200002 4280167973
0.024761749 -0.031766247 0.42100003 4280167973
0.026067093 -0.031690791 0.42000002 4279905053
0.027431253 -0.031690791 0.42000002 4279313684
0.028795416 -0.031690791 0.42000002 4279055892
0.028292555 -0.029728983 0.39400002 4278860310
0.029497208 -0.029653527 0.39300001 4278861080
0.030695371 -0.029578073 0.39200002 4279190558
0.031887036 -0.029502621 0.39100003 4279323428
0.033072203 -0.029427165 0.39000002 4279521318
0.034338925 -0.029427165 0.39000002 4280311606
0.035514347 -0.029351711 0.38900003 4280442422
0.03677782 -0.029351711 0.38900003 4280574778
0.038139086 -0.029427165 0.39000002 4280508985
0.039405808 -0.029427165 0.39000002 4280836667
0.040672526 -0.029427165 0.39000002 4281163835
0.023505477 -0.030542785 0.42300001 4280431397
0.024879381 -0.030542785 0.42300001 4280036639
0.026253287 -0.030542785 0.42300001 4279642651
0.025733128 -0.028448837 0.39400002 4280039201
0.027012844 -0.028448837 0.39400002 4278991383
0.028292555 -0.028448837 0.39400002 4278794515
0.029497208 -0.02837663 0.39300001 4278730005
0.030695371 -0.028304426 0.39200002 4278928154
0.031887036 -0.028232221 0.39100003 4279258148
0.033157006 -0.028232221 0.39100003 4279193125
0.034338925 -0.028160015 0.39000002 4280246326
0.035605643 -0.028160015 0.39000002 4280246324
0.036872365 -0.028160015 0.39000002 4280311604
0.038139086 -0.028160015 0.39000002 4280705592
0.023505477 -0.029168414 0.42300001 4279971614
0.023173705 -0.027168689 0.39400002 4280432165
0.024453416 -0.027168689 0.39400002 4279447578
0.025733128 -0.027168689 0.39400002 4279318812
0.027012844 -0.027168689 0.39400002 4279056922
0.028220745 -0.027099732 0.39300001 4278531343
0.029497208 -0.027099732 0.39300001 4278927384
0.030695371 -0.027030777 0.39200002 4279059740
0.031968586 -0.027030777 0.39200002 4279323939
0.033157006 -0.026961822 0.39100003 4279390504
0.034426972 -0.026961822 0.39100003 4280114738
0.035696942 -0.026961822 0.39100003 4280114738
0.036872365 -0.026892865 0.39000002 4280574776
0.038139086 -0.026892865 0.39000002 4281097788
0.023505477 -0.027794044 0.42300001 4286684546
0.024453416 -0.025888544 0.39400002 4279251223
0.025733128 -0.025888544 0.39400002 4279581984
0.027012844 -0.025888544 0.39400002 4279123482
0.028220745 -0.025822837 0.39300001 4279255066
0.029497208 -0.025822837 0.39300001 4279059740
0.030695371 -0.02575713 0.39200002 4279322912
0.031968586 -0.02575713 0.39200002 4279192353
0.033241805 -0.02575713 0.39200002 4280048947
0.034426972 -0.025691424 0.39100003 4279851568
0.035696942 -0.025691424 0.39100003 4280312119
0.023505477 -0.026419675 0.42300001 4286223995
0.026944282 -0.02454594 0.39300001 4279317781
0.028220745 -0.02454594 0.39300001 4279581723
0.029497208 -0.02454594 0.39300001 4279453215
0.030695371 -0.024483481 0.39200002 4279651107
0.031968586 -0.024483481 0.39200002 4279652391
0.033241805 -0.024483481 0.39200002 4280771387
0.03451502 -0.024483481 0.39200002 4280310582
0.044911556 -0.045485836 0.40570188 4294967295
0.044911556 -0.045485836 0.40570188 4294901760
0.044586319 -0.045856059 0.40578645 4294901760
0.044261079 -0.046226285 0.40587103 4294901760
0.043935843 -0.046596508 0.40595561 4294901760
0.043610603 -0.046966732 0.40604019 4294901760
0.043285366 -0.047336958 0.40612477 4294901760
0.042960126 -0.047707181 0.40620938 4294901760
0.042634889 -0.048077408 0.40629396 4294901760
0.042309649 -0.048447631 0.40637854 4294901760
0.041984413 -0.048817854 0.40646312 4294901760
0.041659176 -0.049188081 0.4065477 4294901760
0.041333936 -0.049558304 0.40663227 4294901760
0.0410087 -0.049928527 0.40671685 4294901760
0.040683459 -0.050298754 0.40680143 4294901760
0.040358223 -0.050668977 0.40688601 4294901760
0.040032983 -0.051039204 0.40697059 4294901760
0.039707746 -0.051409427 0.40705517 4294901760
0.03938251 -0.05177965 0.40713978 4294901760
0.03905727 -0.052149877 0.40722436 4294901760
0.038732033 -0.0525201 0.40730894 4294901760
0.038406793 -0.052890323 0.40739352 4294901760
0.038081557 -0.05326055 0.40747809 4294901760
0.037756316 -0.053630773 0.40756267 4294901760
0.03743108 -0.054000996 0.40764725 4294901760
0.037105843 -0.054371223 0.40773183 4294901760
0.036780603 -0.054741446 0.40781641 4294901760
0.036455367 -0.055111669 0.40790099 4294901760
0.036130127 -0.055481896 0.40798557 4294901760
0.03580489 -0.055852119 0.40807018 4294901760
0.03547965 -0.056222346 0.40815476 4294901760
0.035154413 -0.056592569 0.40823933 4294901760
0.034829173 -0.056962796 0.40832391 4294901760
0.034503937 -0.057333019 0.40840849 4294901760
0.034178697 -0.057703242 0.40849307 4294901760
0.03385346 -0.058073469 0.40857765 4294901760
0.033528224 -0.058443692 0.40866223 4294901760
0.033202983 -0.058813915 0.40874681 4294901760
0.032877747 -0.059184141 0.40883139 4294901760
0.032552507 -0.059554365 0.40891597 4294901760
0.03222727 -0.059924588 0.40900058 4294901760
0.03190203 -0.060294814 0.40908515 4294901760
0.031576794 -0.060665037 0.40916973 4294901760
0.031251557 -0.061035261 0.40925431 4294901760
0.030926317 -0.061405487 0.40933889 4294901760
0.030601081 -0.061775714 0.40942347 4294901760
0.03027584 -0.062145934 0.40950805 4294901760
0.029950604 -0.06251616 0.40959263 4294901760
0.029625364 -0.062886387 0.40967721 4294901760
0.029300127 -0.063256606 0.40976179 4294901760
0.028974889 -0.063626833 0.40984637 4294901760
0.028649651 -0.06399706 0.40993094 4294901760
0.028324412 -0.064367279 0.41001555 4294901760
0.027999176 -0.064737506 0.41010013 4294901760
0.027673937 -0.065107733 0.41018471 4294901760
0.027348697 -0.065477952 0.41026929 4294901760
0.027023459 -0.065848179 0.41035387 4294901760
0.026698222 -0.066218406 0.41043845 4294901760
0.026372984 -0.066588625 0.41052303 4294901760
0.026047746 -0.066958852 0.41060761 4294901760
0.025722509 -0.067329079 0.41069219 4294901760
0.025397269 -0.067699306 0.41077676 4294901760
0.025072031 -0.068069525 0.41086137 4294901760
0.024746792 -0.068439752 0.41094595 4294901760
0.024421556 -0.068809979 0.41103053 4294901760
0.024096318 -0.069180198 0.41111511 4294901760
0.023771079 -0.069550425 0.41119969 4294901760
0.023445839 -0.069920652 0.41128427 4294901760
0.023120603 -0.070290878 0.41136885 4294901760
0.022795364 -0.070661098 0.41145343 4294901760
0.022470126 -0.071031325 0.411538 4294901760
0.022144889 -0.071401551 0.41162258 4294901760
0.021819651 -0.071771771 0.41170716 4294901760
0.021494411 -0.072141998 0.41179174 4294901760
0.021169173 -0.072512224 0.41187635 4294901760
0.020843936 -0.072882444 0.41196093 4294901760
0.020518698 -0.07325267 0.41204551 4294901760
0.020193459 -0.073622897 0.41213009 4294901760
0.019868223 -0.073993117 0.41221467 4294901760
0.019542985 -0.074363343 0.41229925 4294901760
0.019217744 -0.07473357 0.41238382 4294901760
0.018892506 -0.07510379 0.4124684 4294901760
0.01856727 -0.075474016 0.41255298 4294901760
0.018242031 -0.075844243 0.41263756 4294901760
0.017916793 -0.076214463 0.41272214 4294901760
0.017591557 -0.076584689 0.41280675 4294901760
0.017266316 -0.076954916 0.41289133 4294901760
0.016941078 -0.077325135 0.41297591 4294901760
0.01661584 -0.077695362 0.41306049 4294901760
0.016290603 -0.078065589 0.41314507 4294901760
0.015965365 -0.078435808 0.41322964 4294901760
0.015640127 -0.078806035 0.41331422 4294901760
0.015314886 -0.079176262 0.4133988 4294901760
0.01498965 -0.079546481 0.41348338 4294901760
0.014664412 -0.079916708 0.41356796 4294901760
0.014339173 -0.080286935 0.41365254 4294901760
0.014013937 -0.080657154 0.41373715 4294901760
0.013688698 -0.081027381 0.41382173 4294901760
0.013363458 -0.081397608 0.41390631 4294901760
0.013038222 -0.081767827 0.41399089 4294901760
0.012712982 -0.082138062 0.41407546 4294901760
0.012387745 -0.082508281 0.41416004 4294901760
0.044911556 -0.045485836 0.40570188 4278255360
0.04528768 -0.045784488 0.40584093 4278255360
0.045663808 -0.046083145 0.40597999 4278255360
0.046039931 -0.046381798 0.40611902 4278255360
0.046416059 -0.04668045 0.40625808 4278255360
0.046792183 -0.046979107 0.40639713 4278255360
0.047168307 -0.04727776 0.40653619 4278255360
0.047544435 -0.047576413 0.40667525 4278255360
0.047920559 -0.047875069 0.40681431 4278255360
0.048296683 -0.048173722 0.40695333 4278255360
0.04867281 -0.048472375 0.40709239 4278255360
0.049048934 -0.048771031 0.40723145 4278255360
0.049425058 -0.049069684 0.40737051 4278255360
0.049801186 -0.049368337 0.40750957 4278255360
0.05017731 -0.049666993 0.40764859 4278255360
0.050553437 -0.049965646 0.40778765 4278255360
0.050929561 -0.050264303 0.40792671 4278255360
0.051305689 -0.050562955 0.40806577 4278255360
0.051681813 -0.050861608 0.40820482 4278255360
0.052057937 -0.051160265 0.40834388 4278255360
0.052434064 -0.051458918 0.40848291 4278255360
0.052810188 -0.05175757 0.40862197 4278255360
0.053186312 -0.052056227 0.40876102 4278255360
0.05356244 -0.05235488 0.40890008 4278255360
0.053938564 -0.052653532 0.40903914 4278255360
0.054314688 -0.052952189 0.4091782 4278255360
0.054690816 -0.053250842 0.40931723 4278255360
0.055066939 -0.053549498 0.40945628 4278255360
0.055443067 -0.053848151 0.40959534 4278255360
0.055819191 -0.054146804 0.4097344 4278255360
0.056195319 -0.05444546 0.40987346 4278255360
0.056571443 -0.054744113 0.41001248 4278255360
0.056947567 -0.055042766 0.41015154 4278255360
0.057323694 -0.055341423 0.4102906 4278255360
0.057699818 -0.055640075 0.41042966 4278255360
0.058075942 -0.055938728 0.41056871 4278255360
0.05845207 -0.056237385 0.41070777 4278255360
0.058828194 -0.056536037 0.4108468 4278255360
0.059204318 -0.05683469 0.41098586 4278255360
0.059580445 -0.057133347 0.41112491 4278255360
0.059956569 -0.057432 0.41126397 4278255360
0.060332693 -0.057730652 0.41140303 4278255360
0.060708821 -0.058029309 0.41154206 4278255360
0.061084948 -0.058327962 0.41168112 4278255360
0.061461069 -0.058626615 0.41182017 4278255360
0.061837196 -0.058925271 0.41195923 4278255360
0.062213324 -0.059223924 0.41209829 4278255360
0.062589452 -0.059522577 0.41223735 4278255360
0.062965572 -0.059821233 0.41237637 4278255360
0.0633417 -0.060119886 0.41251543 4278255360
0.063717827 -0.060418539 0.41265449 4278255360
0.064093947 -0.060717195 0.41279355 4278255360
0.064470075 -0.061015848 0.4129326 4278255360
0.064846203 -0.061314501 0.41307163 4278255360
0.065222323 -0.061613157 0.41321069 4278255360
0.065598451 -0.061911814 0.41334975 4278255360
0.065974578 -0.062210463 0.41348881 4278255360
0.066350698 -0.06250912 0.41362786 4278255360
0.066726826 -0.062807769 0.41376692 4278255360
0.067102954 -0.063106425 0.41390595 4278255360
0.067479074 -0.063405082 0.41404501 4278255360
0.067855202 -0.063703738 0.41418406 4278255360
0.068231329 -0.064002387 0.41432312 4278255360
0.06860745 -0.064301044 0.41446218 4278255360
0.068983577 -0.0645997 0.41460121 4278255360
0.069359705 -0.064898349 0.41474026 4278255360
0.069735833 -0.065197006 0.41487932 4278255360
0.070111953 -0.065495662 0.41501838 4278255360
0.07048808 -0.065794319 0.41515744 4278255360
0.070864201 -0.066092968 0.41529649 4278255360
0.071240328 -0.066391625 0.41543552 4278255360
0.071616456 -0.066690274 0.41557458 4278255360
0.071992584 -0.06698893 0.41571364 4278255360
0.072368711 -0.067287587 0.4158527 4278255360
0.072744831 -0.067586243 0.41599175 4278255360
0.073120959 -0.067884892 0.41613078 4278255360
0.073497087 -0.068183549 0.41626984 4278255360
0.073873207 -0.068482205 0.4164089 4278255360
0.074249335 -0.068780854 0.41654795 4278255360
0.074625462 -0.069079511 0.41668701 4278255360
0.075001583 -0.069378167 0.41682607 4278255360
0.07537771 -0.069676816 0.4169651 4278255360
0.075753838 -0.069975473 0.41710415 4278255360
0.076129958 -0.07027413 0.41724321 4278255360
0.076506086 -0.070572779 0.41738227 4278255360
0.076882213 -0.070871435 0.41752133 4278255360
0.077258334 -0.071170092 0.41766039 4278255360
0.077634461 -0.071468741 0.41779941 4278255360
0.078010589 -0.071767397 0.41793847 4278255360
0.078386709 -0.072066054 0.41807753 4278255360
0.078762837 -0.072364703 0.41821659 4278255360
0.079138964 -0.072663359 0.41835564 4278255360
0.079515085 -0.072962016 0.41849467 4278255360
0.079891212 -0.073260665 0.41863373 4278255360
0.08026734 -0.073559321 0.41877279 4278255360
0.08064346 -0.073857978 0.41891184 4278255360
0.081019588 -0.074156627 0.4190509 4278255360
0.081395715 -0.074455284 0.41918996 4278255360
0.081771836 -0.07475394 0.41932899 4278255360
0.082147971 -0.075052589 0.41946805 4278255360
0.082524091 -0.075351246 0.4196071 4278255360
0.044911556 -0.045485836 0.40570188 4278190335
0.044735663 -0.045240283 0.40610033 4278190335
0.044559766 -0.044994731 0.40649879 4278190335
0.044383869 -0.044749178 0.40689725 4278190335
0.044207975 -0.044503625 0.40729567 4278190335
0.044032082 -0.044258073 0.40769413 4278190335
0.043856185 -0.04401252 0.40809259 4278190335
0.043680288 -0.043766968 0.40849105 4278190335
0.043504395 -0.043521415 0.4088895 4278190335
0.043328498 -0.043275863 0.40928796 4278190335
0.043152604 -0.04303031 0.40968642 4278190335
0.042976707 -0.042784758 0.41008484 4278190335
0.042800814 -0.042539205 0.4104833 4278190335
0.042624921 -0.042293653 0.41088176 4278190335
0.042449024 -0.0420481 0.41128021 4278190335
0.042273127 -0.041802548 0.41167867 4278190335
0.042097233 -0.041556992 0.41207713 4278190335
0.04192134 -0.041311443 0.41247559 4278190335
0.041745443 -0.041065887 0.41287401 4278190335
0.041569546 -0.040820338 0.41327247 4278190335
0.041393653 -0.040574782 0.41367093 4278190335
0.041217759 -0.040329229 0.41406938 4278190335
0.041041862 -0.040083677 0.41446784 4278190335
0.040865965 -0.039838124 0.4148663 4278190335
0.040690072 -0.039592572 0.41526476 4278190335
0.040514179 -0.039347019 0.41566318 4278190335
0.040338282 -0.039101467 0.41606164 4278190335
0.040162385 -0.038855914 0.4164601 4278190335
0.039986491 -0.038610362 0.41685855 4278190335
0.039810598 -0.038364809 0.41725701 4278190335
0.039634701 -0.038119256 0.41765547 4278190335
0.039458804 -0.037873704 0.41805393 4278190335
0.039282911 -0.037628151 0.41845238 4278190335
0.039107017 -0.037382599 0.41885081 4278190335
0.03893112 -0.037137046 0.41924927 4278190335
0.038755223 -0.036891494 0.41964772 4278190335
0.03857933 -0.036645941 0.42004618 4278190335
0.038403437 -0.036400389 0.42044464 4278190335
0.03822754 -0.036154836 0.42084309 4278190335
0.038051646 -0.035909284 0.42124155 4278190335
0.037875749 -0.035663731 0.42163998 4278190335
0.037699856 -0.035418179 0.42203844 4278190335
0.037523959 -0.035172626 0.42243689 4278190335
0.037348062 -0.034927074 0.42283535 4278190335
0.037172168 -0.034681521 0.42323381 4278190335
0.036996275 -0.034435969 0.42363226 4278190335
0.036820378 -0.034190416 0.42403072 4278190335
0.036644481 -0.03394486 0.42442915 4278190335
0.036468588 -0.033699311 0.42482761 4278190335
0.036292695 -0.033453755 0.42522606 4278190335
0.036116797 -0.033208206 0.42562452 4278190335
0.0359409 -0.03296265 0.42602298 4278190335
0.035765007 -0.032717101 0.42642143 4278190335
0.035589114 -0.032471545 0.42681989 4278190335
0.035413217 -0.032225993 0.42721832 4278190335
0.03523732 -0.03198044 0.42761678 4278190335
0.035061426 -0.031734888 0.42801523 4278190335
0.034885533 -0.031489335 0.42841369 4278190335
0.034709636 -0.031243782 0.42881215 4278190335
0.034533739 -0.030998232 0.4292106 4278190335
0.034357846 -0.030752677 0.42960906 4278190335
0.034181952 -0.030507125 0.43000752 4278190335
0.034006055 -0.030261572 0.43040594 4278190335
0.033830158 -0.03001602 0.4308044 4278190335
0.033654265 -0.029770467 0.43120286 4278190335
0.033478372 -0.029524915 0.43160132 4278190335
0.033302475 -0.029279362 0.43199977 4278190335
0.033126578 -0.02903381 0.43239823 4278190335
0.032950684 -0.028788257 0.43279666 4278190335
0.032774791 -0.028542705 0.43319511 4278190335
0.032598894 -0.028297152 0.43359357 4278190335
0.032422997 -0.0280516 0.43399203 4278190335
0.032247104 -0.027806045 0.43439049 4278190335
0.03207121 -0.027560493 0.43478894 4278190335
0.031895313 -0.02731494 0.4351874 4278190335
0.031719416 -0.02706939 0.43558586 4278190335
0.031543523 -0.026823837 0.43598428 4278190335
0.03136763 -0.026578285 0.43638274 4278190335
0.031191733 -0.026332732 0.4367812 4278190335
0.031015838 -0.026087178 0.43717965 4278190335
0.030839942 -0.025841625 0.43757811 4278190335
0.030664047 -0.025596073 0.43797657 4278190335
0.030488152 -0.02535052 0.438375 4278190335
0.030312257 -0.025104968 0.43877345 4278190335
0.030136362 -0.024859415 0.43917191 4278190335
0.029960467 -0.024613863 0.43957037 4278190335
0.029784571 -0.02436831 0.43996882 4278190335
0.029608676 -0.024122758 0.44036728 4278190335
0.029432781 -0.023877205 0.44076574 4278190335
0.029256886 -0.023631653 0.4411642 4278190335
0.029080991 -0.0233861 0.44156262 4278190335
0.028905096 -0.023140546 0.44196108 4278190335
0.0287292 -0.022894993 0.44235954 4278190335
0.028553305 -0.022649441 0.44275799 4278190335
0.02837741 -0.022403888 0.44315645 4278190335
0.028201515 -0.022158336 0.44355491 4278190335
0.02802562 -0.021912785 0.44395334 4278190335
0.027849725 -0.021667231 0.44435179 4278190335
0.027673829 -0.021421678 0.44475025 4278190335
0.027497934 -0.021176126 0.44514871 4278190335
0.027322039 -0.020930573 0.44554716 4278190335
0.044911556 -0.045485836 0.40570188 4294967295
0.045966927 -0.046959151 0.40331116 4294967295
0.047022298 -0.048432466 0.40092045 4294967295
0.048077669 -0.049905784 0.39852971 4294967295
0.04913304 -0.051379099 0.396139 4294967295
0.050188411 -0.052852415 0.39374828 4294967295
0.051243782 -0.05432573 0.39135757 4294967295
0.052299153 -0.055799045 0.38896686 4294967295
0.053354524 -0.05727236 0.38657615 4294967295
0.054409895 -0.058745679 0.3841854 4294967295
0.055465266 -0.060218994 0.38179469 4294967295
0.056520637 -0.061692309 0.37940398 4294967295
0.057576008 -0.063165627 0.37701327 4294967295
0.058631379 -0.064638942 0.37462255 4294967295
0.05968675 -0.066112258 0.37223181 4294967295
0.060742125 -0.067585573 0.3698411 4294967295
0.061797492 -0.069058888 0.36745039 4294967295
0.062852867 -0.070532203 0.36505967 4294967295
0.063908234 -0.072005525 0.36266896 4294967295
0.064963609 -0.073478833 0.36027825 4294967295
0.066018976 -0.074952155 0.35788751 4294967295
0.067074344 -0.076425463 0.35549679 4294967295
0.068129718 -0.077898785 0.35310608 4294967295
0.069185093 -0.079372101 0.35071537 4294967295
0.07024046 -0.080845416 0.34832466 4294967295
0.071295835 -0.082318731 0.34593391 4294967295
0.072351202 -0.083792046 0.3435432 4294967295
0.073406577 -0.085265368 0.34115249 4294967295
0.074461944 -0.086738676 0.33876178 4294967295
0.075517319 -0.088211991 0.33637106 4294967295
0.076572686 -0.089685306 0.33398032 4294967295
0.077628061 -0.091158628 0.33158961 4294967295
0.078683428 -0.092631936 0.3291989 4294967295
0.079738803 -0.094105259 0.32680818 4294967295
0.08079417 -0.095578574 0.32441747 4294967295
0.081849545 -0.097051889 0.32202673 4294967295
0.08290492 -0.098525211 0.31963602 4294967295
0.083960287 -0.099998519 0.3172453 4294967295
0.085015655 -0.10147183 0.31485459 4294967295
0.086071029 -0.10294515 0.31246388 4294967295
0.087126404 -0.10441847 0.31007314 4294967295
0.088181771 -0.10589178 0.30768245 4294967295
0.089237139 -0.1073651 0.30529171 4294967295
0.090292513 -0.10883841 0.302901 4294967295
0.091347888 -0.11031173 0.30051029 4294967295
0.092403255 -0.11178504 0.29811957 4294967295
0.093458623 -0.11325836 0.29572886 4294967295
0.094513997 -0.11473168 0.29333812 4294967295
0.095569372 -0.11620499 0.29094741 4294967295
0.096624739 -0.11767831 0.28855669 4294967295
0.097680107 -0.11915162 0.28616598 4294967295
0.098735482 -0.12062494 0.28377527 4294967295
0.099790849 -0.12209825 0.28138453 4294967295
0.10084622 -0.12357157 0.27899384 4294967295
0.1019016 -0.1250449 0.2766031 4294967295
0.10295697 -0.1265182 0.27421236 4294967295
0.10401234 -0.12799153 0.27182168 4294967295
0.10506771 -0.12946483 0.26943094 4294967295
0.10612307 -0.13093814 0.26704025 4294967295
0.10717845 -0.13241147 0.26464951 4294967295
0.10823382 -0.13388479 0.26225877 4294967295
0.10928919 -0.1353581 0.25986809 4294967295
0.11034457 -0.13683142 0.25747734 4294967295
0.11139993 -0.13830473 0.25508666 4294967295
0.1124553 -0.13977805 0.25269592 4294967295
0.11351068 -0.14125136 0.25030521 4294967295
0.11456605 -0.14272468 0.24791448 4294967295
0.11562142 -0.144198 0.24552377 4294967295
0.11667679 -0.14567131 0.24313305 4294967295
0.11773216 -0.14714463 0.24074234 4294967295
0.11878753 -0.14861794 0.23835161 4294967295
0.1198429 -0.15009126 0.2359609 4294967295
0.12089828 -0.15156458 0.23357017 4294967295
0.12195365 -0.15303789 0.23117946 4294967295
0.12300902 -0.15451121 0.22878873 4294967295
0.12406439 -0.15598452 0.22639802 4294967295
0.12511976 -0.15745783 0.22400731 4294967295
0.12617514 -0.15893115 0.2216166 4294967295
0.1272305 -0.16040446 0.21922588 4294967295
0.12828588 -0.16187778 0.21683514 4294967295
0.12934124 -0.1633511 0.21444443 4294967295
0.1303966 -0.16482441 0.21205372 4294967295
0.13145199 -0.16629773 0.209663 4294967295
0.13250735 -0.16777104 0.20727229 4294967295
0.13356271 -0.16924436 0.20488156 4294967295
0.1346181 -0.17071769 0.20249084 4294967295
0.13567346 -0.17219099 0.20010012 4294967295
0.13672884 -0.17366432 0.19770941 4294967295
0.13778421 -0.17513762 0.1953187 4294967295
0.13883957 -0.17661095 0.19292797 4294967295
0.13989496 -0.17808425 0.19053726 4294967295
0.14095032 -0.17955758 0.18814653 4294967295
0.1420057 -0.1810309 0.18575582 4294967295
0.14306107 -0.18250421 0.18336509 4294967295
0.14411643 -0.18397753 0.18097438 4294967295
0.14517181 -0.18545084 0.17858367 4294967295
0.14622718 -0.18692416 0.17619295 4294967295
0.14728256 -0.18839748 0.17380223 4294967295
0.14833793 -0.18987079 0.1714115 4294967295
0.14939329 -0.19134411 0.16902079 4294967295
0.15044867 -0.19281742 0.16663007 4294967295
