# .PCD v0.7 - Point Cloud Data file format
VERSION 0.7
FIELDS x y z rgb
SIZE 4 4 4 4
TYPE F F F U
COUNT 1 1 1 1
WIDTH 1023
HEIGHT 1
VIEWPOINT 0 0 0 1 0 0 0
POINTS 1023
DATA ascii
-0.039519124 -0.0024486391 0.33900002 4285672996
-0.038418051 -0.0024486391 0.33900002 4285607973
-0.037206899 -0.0024414163 0.33800003 4285476902
-0.036109079 -0.0024414163 0.33800003 4285218103
-0.049428776 -0.0013471936 0.33900002 4286683785
-0.048327703 -0.0013471936 0.33900002 4286815371
-0.047226634 -0.0013471936 0.33900002 4288125319
-0.046125561 -0.0013471936 0.33900002 4284628532
-0.045024484 -0.0013471936 0.33900002 4285741619
-0.043923415 -0.0013471936 0.33900002 4285413676
-0.042822342 -0.0013471936 0.33900002 4285740070
-0.041721269 -0.0013471936 0.33900002 4285409822
-0.040620197 -0.0013471936 0.33900002 4285475615
-0.039402552 -0.0013432197 0.33800003 4285146650
-0.038304724 -0.0013432197 0.33800003 4284752666
-0.037206899 -0.0013432197 0.33800003 4287254596
-0.036109079 -0.0013432197 0.33800003 4285476902
-0.035114832 -0.0013471936 0.33900002 4286070582
-0.050529853 -0.00024574794 0.33900002 4287012748
-0.049428776 -0.00024574794 0.33900002 4286749576
-0.048327703 -0.00024574794 0.33900002 4287800981
-0.047226634 -0.00024574794 0.33900002 4284235058
-0.046125561 -0.00024574794 0.33900002 4285020208
-0.045024484 -0.00024574794 0.33900002 4286796106
-0.043923415 -0.00024574794 0.33900002 4285479217
-0.042822342 -0.00024574794 0.33900002 4285739557
-0.041721269 -0.00024574794 0.33900002 4285410076
-0.040620197 -0.00024574794 0.33900002 4284883478
-0.039402552 -0.00024502305 0.33800003 4284621078
-0.038304724 -0.00024502305 0.33800003 4284884252
-0.037206899 -0.00024502305 0.33800003 4286134317
-0.036215909 -0.00024574794 0.33900002 4285936168
-0.035114832 -0.00024574794 0.33900002 4286134317
-0.034013763 -0.00024574794 0.33900002 4285744697
-0.050529853 0.00085569773 0.33900002 4287012750
-0.049428776 0.00085569773 0.33900002 4287077256
-0.048327703 0.00085569773 0.33900002 4284308557
-0.047226634 0.00085569773 0.33900002 4285941310
-0.046125561 0.00085569773 0.33900002 4286994514
-0.045024484 0.00085569773 0.33900002 4287913819
-0.043923415 0.00085569773 0.33900002 4285542441
-0.042822342 0.00085569773 0.33900002 4285279008
-0.041721269 0.00085569773 0.33900002 4284686871
-0.040620197 0.00085569773 0.33900002 4284358937
-0.039402552 0.00085317355 0.33800003 4284029972
-0.038304724 0.00085317355 0.33800003 4284029972
-0.037206899 0.00085317355 0.33800003 4285213730
-0.036109079 0.00085317355 0.33800003 4285475617
-0.035114832 0.00085569773 0.33900002 4286199340
-0.034013763 0.00085569773 0.33900002 4286002729
-0.032912686 0.00085569773 0.33900002 4286334006
-0.050380796 0.0019513702 0.33800003 4286815371
-0.049428776 0.0019571434 0.33900002 4287602318
-0.048327703 0.0019571434 0.33900002 4284106554
-0.047226634 0.0019571434 0.33900002 4285676342
-0.046125561 0.0019571434 0.33900002 4285412404
-0.045024484 0.0019571434 0.33900002 4285476650
-0.043923415 0.0019571434 0.33900002 4285345832
-0.042822342 0.0019571434 0.33900002 4284951074
-0.041721269 0.0019571434 0.33900002 4284227351
-0.040620197 0.0019571434 0.33900002 4283702034
-0.039402552 0.0019513702 0.33800003 4282584584
-0.038304724 0.0019513702 0.33800003 4282855203
-0.037206899 0.0019513702 0.33800003 4285883994
-0.036109079 0.0019513702 0.33800003 4283642669
-0.035011251 0.0019513702 0.33800003 4284558376
-0.033913426 0.0019513702 0.33800003 4286002733
-0.032815602 0.0019513702 0.33800003 4285936168
-0.031060901 0.0019109572 0.33100003 4286398772
-0.02989522 0.0019051838 0.33000001 4286795842
-0.028823378 0.0019051838 0.33000001 4286078547
-0.050380796 0.0030495666 0.33800003 4286881164
-0.049282972 0.0030495666 0.33800003 4287075974
-0.048327703 0.0030585888 0.33900002 4283449653
-0.047226634 0.0030585888 0.33900002 4286664522
-0.046125561 0.0030585888 0.33900002 4285083689
-0.045024484 0.0030585888 0.33900002 4284556829
-0.043923415 0.0030585888 0.33900002 4284622622
-0.042822342 0.0030585888 0.33900002 4283768599
-0.041721269 0.0030585888 0.33900002 4283636759
-0.040500373 0.0030495666 0.33800003 4283843128
-0.039402552 0.0030495666 0.33800003 4287271809
-0.038304724 0.0030495666 0.33800003 4286879879
-0.037096821 0.0030405442 0.33700001 4286551427
-0.036109079 0.0030495666 0.33800003 4287010695
-0.035011251 0.0030495666 0.33800003 4287799697
-0.033913426 0.0030495666 0.33800003 4285356369
-0.032815602 0.0030495666 0.33800003 4285217589
-0.03096706 0.0029773875 0.33000001 4285937451
-0.02980463 0.0029683651 0.32900003 4285936168
-0.028736036 0.0029683651 0.32900003 4286199340
-0.027499253 0.0029503203 0.32700002 4285477418
-0.026356306 0.0029412978 0.32600001 4284760116
-0.025297457 0.0029412978 0.32600001 4286934369
-0.051478624 0.0041477634 0.33800003 4287013263
-0.050380796 0.0041477634 0.33800003 4287078543
-0.049282972 0.0041477634 0.33800003 4287405451
-0.048327703 0.0041600345 0.33900002 4282727727
-0.047226634 0.0041600345 0.33900002 4285020208
-0.046125561 0.0041600345 0.33900002 4284032030
-0.045024484 0.0041600345 0.33900002 4284031517
-0.043923415 0.0041600345 0.33900002 4284031771
-0.042822342 0.0041600345 0.33900002 4283571220
-0.041721269 0.0041600345 0.33900002 4283637013
-0.040500373 0.0041477634 0.33800003 4288388491
-0.039402552 0.0041477634 0.33800003 4286616959
-0.038191397 0.0041354918 0.33700001 4286748806
-0.037096821 0.0041354918 0.33700001 4286880392
-0.036109079 0.0041477634 0.33800003 4286946185
-0.035011251 0.0041477634 0.33800003 4286880392
-0.032910071 0.0040250481 0.32800001 4286748808
-0.031844724 0.0040250481 0.32800001 4287272070
-0.03087322 0.0040373197 0.32900003 4284295456
-0.029714037 0.0040250481 0.32800001 4286003246
-0.028561348 0.004012777 0.32700002 4287186235
-0.027415155 0.004000505 0.32600001 4286133547
-0.026356306 0.004000505 0.32600001 4286266416
-0.02521986 0.0039882339 0.32500002 4285937451
-0.024089906 0.0039759623 0.324 4285346086
-0.023037553 0.0039759623 0.324 4285216810
-0.021985201 0.0039759623 0.324 4283646514
-0.051478624 0.0052459599 0.33800003 4287012750
-0.050529853 0.0052614803 0.33900002 4287144336
-0.049428776 0.0052614803 0.33900002 4287143564
-0.048327703 0.0052614803 0.33900002 4285956208
-0.047226634 0.0052614803 0.33900002 4284824880
-0.046125561 0.0052614803 0.33900002 4284100644
-0.045024484 0.0052614803 0.33900002 4284230692
-0.043923415 0.0052614803 0.33900002 4284492835
-0.042822342 0.0052614803 0.33900002 4288306771
-0.041598201 0.0052459599 0.33800003 4285872178
-0.040500373 0.0052459599 0.33800003 4285679935
-0.039285973 0.0052304394 0.33700001 4287988854
-0.03807807 0.0052149189 0.33600003 4287339660
-0.03687666 0.0051993979 0.33500001 4286551429
-0.035147592 0.0051062745 0.32900003 4286814601
-0.033975415 0.0050907535 0.32800001 4286748808
-0.032910071 0.0050907535 0.32800001 4286814601
-0.031747639 0.0050752335 0.32700002 4287600522
-0.03077938 0.0050907535 0.32800001 4285280552
-0.029623447 0.0050752335 0.32700002 4285870375
-0.028474003 0.0050597126 0.32600001 4285803553
-0.027415155 0.0050597126 0.32600001 4285934621
-0.02627546 0.0050441921 0.32500002 4285539863
-0.02521986 0.0050441921 0.32500002 4285474070
-0.024089906 0.0050286711 0.324 4285277718
-0.023037553 0.0050286711 0.324 4285080341
-0.021985201 0.0050286711 0.324 4284166689
-0.020932849 0.0050286711 0.324 4283580210
-0.051630925 0.0063629262 0.33900002 4287144334
-0.050529853 0.0063629262 0.33900002 4287012748
-0.049428776 0.0063629262 0.33900002 4286881162
-0.048327703 0.0063629262 0.33900002 4286613879
-0.047226634 0.0063629262 0.33900002 4283575842
-0.046125561 0.0063629262 0.33900002 4283641122
-0.045024484 0.0063629262 0.33900002 4283771679
-0.043923415 0.0063629262 0.33900002 4284888361
-0.042822342 0.0063629262 0.33900002 4285542691
-0.041598201 0.0063441568 0.33800003 4285805350
-0.040380549 0.0063253865 0.33700001 4285805350
-0.039169401 0.0063066171 0.33600003 4285805352
-0.037964739 0.0062878472 0.33500001 4284755755
-0.036656499 0.0062503079 0.333 4285945424
-0.035147592 0.0061752293 0.32900003 4287602320
-0.033975415 0.0061564595 0.32800001 4286814088
-0.032809734 0.00613769 0.32700002 4287596157
-0.031747639 0.00613769 0.32700002 4284822833
-0.030685542 0.00613769 0.32700002 4286001191
-0.029532854 0.0061189197 0.32600001 4286330926
-0.028474003 0.0061189197 0.32600001 4285803807
-0.027331062 0.0061001503 0.32500002 4285605658
-0.02619461 0.0060813804 0.324 4285342484
-0.025142258 0.0060813804 0.324 4285210898
-0.024089906 0.0060813804 0.324 4284882962
-0.023037553 0.0060813804 0.324 4285014548
-0.021917347 0.006062611 0.32300001 4284294423
-0.020868244 0.006062611 0.32300001 4282918164
-0.051783226 0.0074863899 0.34 4287144336
-0.050678905 0.0074863899 0.34 4287078543
-0.049574584 0.0074863899 0.34 4288060301
-0.048470259 0.0074863899 0.34 4284302395
-0.047365945 0.0074863899 0.34 4284495402
-0.04626162 0.0074863899 0.34 4283508766
-0.045157298 0.0074863899 0.34 4283507737
-0.043923415 0.0074643716 0.33900002 4283375124
-0.042696025 0.0074423528 0.33800003 4283439380
-0.041598201 0.0074423528 0.33800003 4284362532
-0.040260728 0.0073983152 0.33600003 4283705114
-0.039052822 0.007376296 0.33500001 4285346859
-0.037738085 0.0073322584 0.333 4286002479
-0.03654642 0.0073102401 0.33200002 4286002479
-0.035147592 0.0072441837 0.32900003 4284232493
-0.033975415 0.0072221644 0.32800001 4287065188
-0.032809734 0.0072001461 0.32700002 4285741103
-0.031650547 0.0071781268 0.32600001 4286330158
-0.0305917 0.0071781268 0.32600001 4286925118
-0.029442262 0.0071561085 0.32500002 4286727739
-0.02838666 0.0071561085 0.32500002 4285803810
-0.027246963 0.0071340892 0.324 4285145623
-0.02619461 0.0071340892 0.324 4284882451
-0.025142258 0.0071340892 0.324 4284619536
-0.024015557 0.0071120709 0.32300001 4284292113
-0.02296645 0.0071120709 0.32300001 4284160527
-0.021917347 0.0071120709 0.32300001 4284096532
-0.020868244 0.0071120709 0.32300001 4283309842
-0.019819137 0.0071120709 0.32300001 4280888091
-0.0533542 0.0086668888 0.34300002 4287275152
-0.052087836 0.0086416202 0.34200001 4287209359
-0.050977018 0.0086416202 0.34200001 4287603602
-0.049866199 0.0086416202 0.34200001 4284563251
-0.048612822 0.0086163525 0.34100002 4285020976
-0.047505256 0.0086163525 0.34100002 4284692011
-0.046397686 0.0086163525 0.34100002 4283047956
-0.045290116 0.0086163525 0.34100002 4282784530
-0.043923415 0.008565817 0.33900002 4283244311
-0.042696025 0.0085405493 0.33800003 4282324496
-0.041475128 0.0085152807 0.33700001 4284171581
-0.040260728 0.0084900139 0.33600003 4284571475
-0.038936246 0.0084394775 0.33400002 4285821283
-0.037624758 0.0083889421 0.33200002 4284559148
-0.036436345 0.0083636744 0.33100003 4286398520
-0.035040759 0.0082878703 0.32800001 4286333492
-0.03387183 0.0082626026 0.32700002 4285871660
-0.032709397 0.008237334 0.32600001 4286263336
-0.031553462 0.0082120663 0.32500002 4285210646
-0.030497862 0.0082120663 0.32500002 4289293146
-0.02935167 0.0081867985 0.324 4285278236
-0.028299315 0.0081867985 0.324 4285014294
-0.027162869 0.0081615308 0.32300001 4284685329
-0.026113763 0.0081615308 0.32300001 4284488720
-0.02506466 0.0081615308 0.32300001 4284094732
-0.024015557 0.0081615308 0.32300001 4283635981
-0.02296645 0.0081615308 0.32300001 4283373069
-0.021917347 0.0081615308 0.32300001 4283702806
-0.020868244 0.0081615308 0.32300001 4283177745
-0.019757777 0.0081362631 0.32200003 4280686860
-0.053509753 0.0098098479 0.34400001 4287078543
-0.052240141 0.0097813308 0.34300002 4287865490
-0.051126074 0.0097813308 0.34300002 4284700233
-0.050012007 0.0097813308 0.34300002 4284758574
-0.048897941 0.0097813308 0.34300002 4283836702
-0.047783881 0.0097813308 0.34300002 4282981393
-0.046533749 0.0097528137 0.34200001 4282915600
-0.045290116 0.0097242966 0.34100002 4282850323
-0.043923415 0.0096672634 0.33900002 4282258188
-0.042696025 0.0096387463 0.33800003 4285493347
-0.041352056 0.0095817121 0.33600003 4287010695
-0.040140901 0.009553195 0.33500001 4286946187
-0.038819671 0.0094961608 0.333 4286814601
-0.037624758 0.0094676437 0.33200002 4288061586
-0.036326263 0.0094106095 0.33000001 4283514930
-0.035040759 0.0093535762 0.32800001 4285938219
-0.033768244 0.009296542 0.32600001 4285936936
-0.032609064 0.0092680249 0.32500002 4285935141
-0.031553462 0.0092680249 0.32500002 4286000164
-0.030404022 0.0092395078 0.324 4285408795
-0.02935167 0.0092395078 0.324 4285738017
-0.028211974 0.0092109907 0.32300001 4284817685
-0.027162869 0.0092109907 0.32300001 4284357906
-0.026113763 0.0092109907 0.32300001 4283701259
-0.024987061 0.0091824746 0.32200003 4283504395
-0.023941206 0.0091824746 0.32200003 4282913801
-0.022895347 0.0091824746 0.32200003 4282782987
-0.021849493 0.0091824746 0.32200003 4282915086
-0.020803636 0.0091824746 0.32200003 4282586635
-0.019757777 0.0091824746 0.32200003 4281671699
-0.053665306 0.010959306 0.34500003 4287402371
-0.05254475 0.010959306 0.34500003 4286339150
-0.051275127 0.010927539 0.34400001 4284888876
-0.050157815 0.010927539 0.34400001 4283640093
-0.0490405 0.010927539 0.34400001 4283047956
-0.047923192 0.010927539 0.34400001 4282981393
-0.046669815 0.010895774 0.34300002 4282981139
-0.04542293 0.010864007 0.34200001 4281996560
-0.043923415 0.010768709 0.33900002 4288648845
-0.042569701 0.010705177 0.33700001 4286945670
-0.041352056 0.010673411 0.33600003 4286815369
-0.040021081 0.010609878 0.33400002 4287078543
-0.038819671 0.010578112 0.333 4286881164
-0.037511431 0.010514581 0.33100003 4286749578
-0.036216184 0.010451049 0.32900003 4287669908
-0.034933928 0.010387516 0.32700002 4284299054
-0.033768244 0.010355749 0.32600001 4285543978
-0.032609064 0.010323984 0.32500002 4285607973
-0.031456374 0.010292217 0.324 4285146650
-0.030310182 0.010260452 0.32300001 4284948501
-0.029261079 0.010260452 0.32300001 4284949271
-0.028211974 0.010260452 0.32300001 4284096017
-0.027078776 0.010228686 0.32200003 4283570188
-0.026032917 0.010228686 0.32200003 4282979083
-0.024987061 0.010228686 0.32200003 4282913803
-0.023941206 0.010228686 0.32200003 4282389002
-0.022895347 0.010228686 0.32200003 4282323979
-0.021849493 0.010228686 0.32200003 4282258699
-0.020803636 0.010228686 0.32200003 4282390285
-0.019757777 0.010228686 0.32200003 4281540113
-0.057688165 0.012220306 0.34900001 4287734418
-0.056554615 0.012220306 0.34900001 4286611058
-0.055262264 0.012185291 0.34800002 4285019699
-0.053976405 0.012150276 0.347 4286069816
-0.052697051 0.012115261 0.34600002 4285741103
-0.051573239 0.012115261 0.34600002 4284558628
-0.050303623 0.012080246 0.34500003 4283640093
-0.049183063 0.012080246 0.34500003 4282850577
-0.048062503 0.012080246 0.34500003 4282653198
-0.046805877 0.012045231 0.34400001 4282192910
-0.045555748 0.012010216 0.34300002 4288059533
-0.04366428 0.011800124 0.33700001 4287076488
-0.042569701 0.011800124 0.33700001 4287011978
-0.041228984 0.011730094 0.33500001 4287012750
-0.040021081 0.011695079 0.33400002 4286881164
-0.038703095 0.011625048 0.33200002 4286815371
-0.037511431 0.011590033 0.33100003 4286947470
-0.036216184 0.011520003 0.32900003 4286815884
-0.034827095 0.011414956 0.32600001 4288324756
-0.033664662 0.011379941 0.32500002 4283447086
-0.032508727 0.011344926 0.324 4285082660
-0.031456374 0.011344926 0.324 4284292626
-0.030310182 0.011309911 0.32300001 4284292113
-0.029261079 0.011309911 0.32300001 4284292113
-0.02812463 0.011274897 0.32200003 4283373323
-0.027078776 0.011274897 0.32200003 4282980366
-0.026032917 0.011274897 0.32200003 4282585867
-0.024987061 0.011274897 0.32200003 4282389002
-0.023941206 0.011274897 0.32200003 4282258186
-0.022895347 0.011274897 0.32200003 4282062090
-0.021849493 0.011274897 0.32200003 4281996299
-0.020803636 0.011274897 0.32200003 4282259471
-0.019757777 0.011274897 0.32200003 4281934101
-0.059955273 0.013354243 0.34900001 4287274639
-0.058821719 0.013354243 0.34900001 4287406225
-0.057688165 0.013354243 0.34900001 4285550920
-0.056554615 0.013354243 0.34900001 4285543986
-0.055262264 0.013315978 0.34800002 4289294175
-0.053976405 0.013277714 0.347 4286266418
-0.052849352 0.013277714 0.347 4284819488
-0.051722292 0.013277714 0.347 4284032284
-0.050449431 0.01323945 0.34600002 4282916370
-0.049325619 0.01323945 0.34600002 4282718991
-0.048062503 0.013201186 0.34500003 4282587664
-0.046941943 0.013201186 0.34500003 4286211164
-0.04582138 0.013201186 0.34500003 4286814088
-0.04366428 0.012895071 0.33700001 4287011467
-0.042569701 0.012895071 0.33700001 4287011980
-0.041228984 0.012818542 0.33500001 4286815371
-0.040021081 0.012780279 0.33400002 4286881164
-0.038703095 0.012703749 0.33200002 4286750091
-0.037511431 0.012665486 0.33100003 4286750091
-0.036436345 0.012665486 0.33100003 4286750091
-0.034827095 0.012474163 0.32600001 4286815371
-0.033664662 0.0124359 0.32500002 4284179799
-0.032508727 0.012397635 0.324 4284888109
-0.031359285 0.01235937 0.32300001 4284229661
-0.030310182 0.01235937 0.32300001 4283834390
-0.029170489 0.012321107 0.32200003 4283767827
-0.02812463 0.012321107 0.32200003 4283176973
-0.027078776 0.012321107 0.32200003 4282915084
-0.026032917 0.012321107 0.32200003 4282323979
-0.024987061 0.012321107 0.32200003 4282192906
-0.023941206 0.012321107 0.32200003 4282062090
-0.022895347 0.012321107 0.32200003 4282062090
-0.021849493 0.012321107 0.32200003 4282127883
-0.020803636 0.012321107 0.32200003 4282128398
-0.019757777 0.012321107 0.32200003 4281933588
-0.018711921 0.012321107 0.32200003 4288123784
-0.061088823 0.014488179 0.34900001 4286946185
-0.059955273 0.014488179 0.34900001 4287339660
-0.058821719 0.014488179 0.34900001 4285689443
-0.057688165 0.014488179 0.34900001 4286595131
-0.056554615 0.014488179 0.34900001 4286595131
-0.055421062 0.014488179 0.34900001 4287056700
-0.054131959 0.014446666 0.34800002 4285608484
-0.052849352 0.014405152 0.347 4284754722
-0.051722292 0.014405152 0.347 4283375637
-0.050595235 0.014405152 0.347 4282785043
-0.049325619 0.014363639 0.34600002 4282521871
-0.048201814 0.014363639 0.34600002 4281274375
-0.046941943 0.014322126 0.34500003 4288190860
-0.04582138 0.014322126 0.34500003 4286814601
-0.04379385 0.014031532 0.33800003 4287143566
-0.042569701 0.013990019 0.33700001 4287143566
-0.041352056 0.013948506 0.33600003 4287011980
-0.040021081 0.013865478 0.33400002 4286946187
-0.038703095 0.013782452 0.33200002 4286749578
-0.037398104 0.013699424 0.33000001 4286617992
-0.036106102 0.013616397 0.32800001 4286750091
-0.034827095 0.013533371 0.32600001 4286750091
-0.033664662 0.013491858 0.32500002 4287604887
-0.032508727 0.013450343 0.324 4282524442
-0.031359285 0.01340883 0.32300001 4283969058
-0.030310182 0.01340883 0.32300001 4283770395
-0.029170489 0.013367318 0.32200003 4283309844
-0.02812463 0.013367318 0.32200003 4282915600
-0.027078776 0.013367318 0.32200003 4282390539
-0.025952067 0.013325804 0.32100001 4282193676
-0.024909461 0.013325804 0.32100001 4282193676
-0.023866853 0.013325804 0.32100001 4282127885
-0.022895347 0.013367318 0.32200003 4282127885
-0.021849493 0.013367318 0.32200003 4282391057
-0.020803636 0.013367318 0.32200003 4282193678
-0.019757777 0.013367318 0.32200003 4282130967
-0.018711921 0.013367318 0.32200003 4287727743
-0.062222376 0.015622116 0.34900001 4287011980
-0.061088823 0.015622116 0.34900001 4287143566
-0.059955273 0.015622116 0.34900001 4288455059
-0.058821719 0.015622116 0.34900001 4284891704
-0.057688165 0.015622116 0.34900001 4285936688
-0.056554615 0.015622116 0.34900001 4286989635
-0.055421062 0.015622116 0.34900001 4288238153
-0.054131959 0.015577354 0.34800002 4285345053
-0.053001657 0.015577354 0.34800002 4283638807
-0.051871352 0.015577354 0.34800002 4283047956
-0.050595235 0.01553259 0.347 4282653457
-0.049468178 0.01553259 0.347 4282587664
-0.048201814 0.015487828 0.34600002 4283906608
-0.046941943 0.015443066 0.34500003 4288452233
-0.045555748 0.015353541 0.34300002 4287537807
-0.044052981 0.015219253 0.34 4286880390
-0.042696025 0.015129728 0.33800003 4286946185
-0.041475128 0.015084965 0.33700001 4287143566
-0.040021081 0.014950679 0.33400002 4286419078
-0.038703095 0.014861153 0.33200002 4283326035
-0.037398104 0.014771628 0.33000001 4284247139
-0.036106102 0.014682103 0.32800001 4287209107
-0.034827095 0.014592578 0.32600001 4286551945
-0.033664662 0.014547816 0.32500002 4287209359
-0.032508727 0.014503052 0.324 4283313186
-0.031359285 0.01445829 0.32300001 4283705116
-0.030310182 0.01445829 0.32300001 4283507737
-0.029170489 0.014413528 0.32200003 4283047186
-0.02812463 0.014413528 0.32200003 4282587151
-0.027078776 0.014413528 0.32200003 4282192906
-0.025952067 0.014368765 0.32100001 4282193676
-0.024909461 0.014368765 0.32100001 4282062092
-0.023866853 0.014368765 0.32100001 4282193678
-0.022895347 0.014413528 0.32200003 4282259471
-0.021849493 0.014413528 0.32200003 4282784532
-0.020803636 0.014413528 0.32200003 4282390287
-0.019757777 0.014413528 0.32200003 4282195475
-0.06335593 0.016756052 0.34900001 4287077258
-0.062222376 0.016756052 0.34900001 4287208844
-0.061088823 0.016756052 0.34900001 4287208844
-0.059955273 0.016756052 0.34900001 4287332725
-0.058821719 0.016756052 0.34900001 4285742650
-0.057688165 0.016756052 0.34900001 4286134065
-0.056554615 0.016756052 0.34900001 4285672998
-0.055421062 0.016756052 0.34900001 4285607203
-0.054131959 0.016708042 0.34800002 4284423701
-0.053001657 0.016708042 0.34800002 4283310358
-0.051871352 0.016708042 0.34800002 4282785297
-0.050595235 0.016660029 0.347 4282587664
-0.049468178 0.016660029 0.347 4282587664
-0.048201814 0.016612019 0.34600002 4282391572
-0.046941943 0.016564008 0.34500003 4281932051
-0.045555748 0.016467985 0.34300002 4282591525
-0.04418255 0.01637196 0.34100002 4285424474
-0.04294866 0.016323948 0.34 4287207045
-0.041598201 0.016227927 0.33800003 4281219632
-0.040620197 0.016275937 0.33900002 4280034077
-0.039519124 0.016275937 0.33900002 4279639066
-0.038418051 0.016275937 0.33900002 4279836445
-0.036106102 0.01574781 0.32800001 4279243540
-0.034827095 0.015651787 0.32600001 4283324238
-0.033664662 0.015603775 0.32500002 4284242510
-0.032508727 0.015555763 0.324 4283901468
-0.031456374 0.015555763 0.324 4284623390
-0.030310182 0.015507751 0.32300001 4283505938
-0.029170489 0.015459741 0.32200003 4282718221
-0.02812463 0.015459741 0.32200003 4282456848
-0.026994677 0.015411728 0.32100001 4282325775
-0.025952067 0.015411728 0.32100001 4281800717
-0.024909461 0.015411728 0.32100001 4281735437
-0.023866853 0.015411728 0.32100001 4281669644
-0.022895347 0.015459741 0.32200003 4282194189
-0.021849493 0.015459741 0.32200003 4283046672
-0.064674273 0.017941251 0.35000002 4287274637
-0.06335593 0.01788999 0.34900001 4287077258
-0.062222376 0.01788999 0.34900001 4287208844
-0.061088823 0.01788999 0.34900001 4287208844
-0.059955273 0.01788999 0.34900001 4286541926
-0.058821719 0.01788999 0.34900001 4285676857
-0.057688165 0.01788999 0.34900001 4285476389
-0.056554615 0.01788999 0.34900001 4285344031
-0.055421062 0.01788999 0.34900001 4284621078
-0.054287508 0.01788999 0.34900001 4284162071
-0.053001657 0.01783873 0.34800002 4283244565
-0.051871352 0.01783873 0.34800002 4282587918
-0.050741047 0.01783873 0.34800002 4282587664
-0.049468178 0.017787468 0.347 4282390285
-0.048201814 0.017736208 0.34600002 4282391057
-0.046941943 0.017684948 0.34500003 4283114780
-0.045688562 0.017633686 0.34400001 4283638557
-0.044312119 0.017531164 0.34200001 4284231210
-0.04294866 0.017428642 0.34 4281015575
-0.041721269 0.017377382 0.33900002 4283322182
-0.040620197 0.017377382 0.33900002 4279573526
-0.039519124 0.017377382 0.33900002 4279573526
-0.038418051 0.017377382 0.33900002 4279507480
-0.037316978 0.017377382 0.33900002 4279507480
-0.034827095 0.016710993 0.32600001 4279571727
-0.033664662 0.016659733 0.32500002 4282068261
-0.032609064 0.016659733 0.32500002 4283967259
-0.031456374 0.016608471 0.324 4284491290
-0.030404022 0.016608471 0.324 4283899667
-0.02935167 0.016608471 0.324 4282520842
-0.028299315 0.016608471 0.324 4282327061
-0.027246963 0.016608471 0.324 4281998611
-0.02619461 0.016608471 0.324 4281080076
-0.025142258 0.016608471 0.324 4280883726
-0.024089906 0.016608471 0.324 4280948490
-0.023037553 0.016608471 0.324 4282325775
-0.021985201 0.016608471 0.324 4283441430
-0.064674273 0.019078437 0.35000002 4287340430
-0.063537471 0.019078437 0.35000002 4287208844
-0.062222376 0.019023925 0.34900001 4287208844
-0.061088823 0.019023925 0.34900001 4287077258
-0.059955273 0.019023925 0.34900001 4288584848
-0.058821719 0.019023925 0.34900001 4284825659
-0.057688165 0.019023925 0.34900001 4285016869
-0.056554615 0.019023925 0.34900001 4284556316
-0.055421062 0.019023925 0.34900001 4284032284
-0.054287508 0.019023925 0.34900001 4283572503
-0.053001657 0.018969417 0.34800002 4282850836
-0.051871352 0.018969417 0.34800002 4282456848
-0.050741047 0.018969417 0.34800002 4282391055
-0.049468178 0.018914906 0.347 4282522641
-0.048201814 0.018860396 0.34600002 4282717967
-0.046941943 0.018805888 0.34500003 4283835421
-0.045688562 0.018751377 0.34400001 4284229148
-0.044312119 0.018642357 0.34200001 4283638807
-0.04307498 0.018587848 0.34100002 4280753173
-0.041844342 0.018533338 0.34 4282532412
-0.040620197 0.018478828 0.33900002 4282732355
-0.039519124 0.018478828 0.33900002 4279573778
-0.038304724 0.018424319 0.33800003 4279507733
-0.037206899 0.018424319 0.33800003 4279441940
-0.035468087 0.018097259 0.33200002 4279374859
-0.033664662 0.017715691 0.32500002 4280427290
-0.032609064 0.017715691 0.32500002 4284102700
-0.031553462 0.017715691 0.32500002 4284098329
-0.030497862 0.017715691 0.32500002 4284688154
-0.029442262 0.017715691 0.32500002 4283176973
-0.02838666 0.017715691 0.32500002 4282261783
-0.027331062 0.017715691 0.32500002 4281803285
-0.02627546 0.017715691 0.32500002 4280818700
-0.02521986 0.017715691 0.32500002 4280424712
-0.024164259 0.017715691 0.32500002 4280752394
-0.023108657 0.017715691 0.32500002 4282523668
-0.022053057 0.017715691 0.32500002 4283374354
-0.064674273 0.020215621 0.35000002 4287275150
-0.063537471 0.020215621 0.35000002 4287143564
-0.062222376 0.020157862 0.34900001 4287011978
-0.061088823 0.020157862 0.34900001 4287011978
-0.059955273 0.020157862 0.34900001 4287997076
-0.058821719 0.020157862 0.34900001 4282530096
-0.057688165 0.020157862 0.34900001 4284166696
-0.056554615 0.020157862 0.34900001 4284231206
-0.055421062 0.020157862 0.34900001 4283770909
-0.054287508 0.020157862 0.34900001 4283244311
-0.053153958 0.020157862 0.34900001 4282588434
-0.051871352 0.020100104 0.34800002 4282523156
-0.050741047 0.020100104 0.34800002 4282325777
-0.049468178 0.020042345 0.347 4282588436
-0.048341125 0.020042345 0.347 4283834392
-0.047078006 0.019984586 0.34600002 4284162587
-0.045688562 0.019869069 0.34400001 4284031001
-0.044312119 0.019753549 0.34200001 4282192906
-0.04294866 0.019638032 0.34 4284440663
-0.041721269 0.019580273 0.33900002 4279244559
-0.040620197 0.019580273 0.33900002 4279639317
-0.039402552 0.019522516 0.33800003 4280296477
-0.038304724 0.019522516 0.33800003 4280296477
-0.037206899 0.019522516 0.33800003 4279573526
-0.036109079 0.019522516 0.33800003 4280034329
-0.035011251 0.019522516 0.33800003 4281350700
-0.033913426 0.019522516 0.33800003 4281737238
-0.032815602 0.019522516 0.33800003 4283507737
-0.031717777 0.019522516 0.33800003 4284951328
-0.030619955 0.019522516 0.33800003 4283373839
-0.029522128 0.019522516 0.33800003 4281801230
-0.028424304 0.019522516 0.33800003 4281671697
-0.027326478 0.019522516 0.33800003 4280423688
-0.026228655 0.019522516 0.33800003 4280227081
-0.025130831 0.019522516 0.33800003 4280489481
-0.024033004 0.019522516 0.33800003 4282327059
-0.064674273 0.021352807 0.35000002 4287208844
-0.063537471 0.021352807 0.35000002 4287208844
-0.062400669 0.021352807 0.35000002 4287077258
-0.061088823 0.021291798 0.34900001 4287011978
-0.059955273 0.021291798 0.34900001 4287143564
-0.058821719 0.021291798 0.34900001 4287470734
-0.057688165 0.021291798 0.34900001 4284103222
-0.056554615 0.021291798 0.34900001 4284233772
-0.055421062 0.021291798 0.34900001 4284099874
-0.054287508 0.021291798 0.34900001 4283375383
-0.053153958 0.021291798 0.34900001 4282850836
-0.052020404 0.021291798 0.34900001 4282457363
-0.050741047 0.021230791 0.34800002 4282325777
-0.049610738 0.021230791 0.34800002 4282588436
-0.048341125 0.021169782 0.347 4283834390
-0.047078006 0.021108774 0.34600002 4284227351
-0.045688562 0.020986758 0.34400001 4283638296
-0.044312119 0.020864742 0.34200001 4281142789
-0.04294866 0.020742726 0.34 4282468668
-0.041721269 0.020681718 0.33900002 4282600767
-0.040500373 0.020620711 0.33800003 4285890415
-0.039402552 0.020620711 0.33800003 4289706148
-0.038191397 0.020559702 0.33700001 4281943868
-0.037206899 0.020620711 0.33800003 4282404935
-0.036109079 0.020620711 0.33800003 4278652935
-0.035011251 0.020620711 0.33800003 4280298014
-0.033913426 0.020620711 0.33800003 4279635204
-0.032815602 0.020620711 0.33800003 4282129684
-0.031717777 0.020620711 0.33800003 4284491036
-0.030619955 0.020620711 0.33800003 4283307276
-0.029522128 0.020620711 0.33800003 4282194703
-0.028424304 0.020620711 0.33800003 4281671695
-0.027326478 0.020620711 0.33800003 4280885261
-0.026228655 0.020620711 0.33800003 4281017361
-0.025130831 0.020620711 0.33800003 4280359433
-0.024033004 0.020620711 0.33800003 4281736205
-0.063537471 0.022489995 0.35000002 4287274637
-0.062400669 0.022489995 0.35000002 4287208844
-0.061088823 0.022425735 0.34900001 4287274637
-0.059955273 0.022425735 0.34900001 4287274637
-0.058821719 0.022425735 0.34900001 4287077258
-0.057688165 0.022425735 0.34900001 4288060305
-0.056554615 0.022425735 0.34900001 4283975745
-0.055421062 0.022425735 0.34900001 4284165413
-0.054287508 0.022425735 0.34900001 4283638555
-0.053153958 0.022425735 0.34900001 4282850838
-0.052020404 0.022425735 0.34900001 4282391570
-0.050741047 0.02236148 0.34800002 4282325777
-0.049610738 0.02236148 0.34800002 4282786326
-0.048341125 0.022297222 0.347 4283901466
-0.047078006 0.022232965 0.34600002 4284163355
-0.045688562 0.022104451 0.34400001 4283376667
-0.044312119 0.021975936 0.34200001 4282131996
-0.042822342 0.021783166 0.33900002 4282468666
-0.041598201 0.02171891 0.33800003 4281810990
-0.040380549 0.021654651 0.33700001 4281941036
-0.039285973 0.021654651 0.33700001 4294310118
-0.03807807 0.021590395 0.33600003 4281284646
-0.037206899 0.02171891 0.33800003 4279904026
-0.036109079 0.02171891 0.33800003 4280694055
-0.035011251 0.02171891 0.33800003 4280101405
-0.033913426 0.02171891 0.33800003 4281743405
-0.032815602 0.02171891 0.33800003 4281081366
-0.031717777 0.02171891 0.33800003 4284229150
-0.030619955 0.02171891 0.33800003 4283373841
-0.029522128 0.02171891 0.33800003 4282193676
-0.028424304 0.02171891 0.33800003 4281933584
-0.027326478 0.02171891 0.33800003 4281279249
-0.026228655 0.02171891 0.33800003 4280556810
-0.025130831 0.02171891 0.33800003 4280294151
-0.024033004 0.02171891 0.33800003 4281211144
-0.062400669 0.023627181 0.35000002 4287340430
-0.061088823 0.023559673 0.34900001 4287274637
-0.059783485 0.023492167 0.34800002 4287011467
-0.05865318 0.023492167 0.34800002 4287208846
-0.057522871 0.023492167 0.34800002 4287208846
-0.056554615 0.023559673 0.34900001 4288325530
-0.055421062 0.023559673 0.34900001 4283508770
-0.054287508 0.023559673 0.34900001 4283375899
-0.053153958 0.023559673 0.34900001 4282785045
-0.052020404 0.023559673 0.34900001 4282588436
-0.050886851 0.023559673 0.34900001 4282391570
-0.049610738 0.023492167 0.34800002 4283117092
-0.048341125 0.023424661 0.347 4282721567
-0.047214065 0.023424661 0.347 4283968806
-0.046087008 0.023424661 0.347 4282195475
-0.043534715 0.022682093 0.33600003 4283583290
-0.042569701 0.022749599 0.33700001 4281743907
-0.041475128 0.022749599 0.33700001 4285427790
-0.040260728 0.022682093 0.33600003 4286150228
-0.039169401 0.022682093 0.33600003 4283320879
-0.037964739 0.022614585 0.33500001 4280887837
-0.036766581 0.022547081 0.33400002 4281021737
-0.036109079 0.022817105 0.33800003 4282010429
-0.035011251 0.022817105 0.33800003 4279312402
-0.033913426 0.022817105 0.33800003 4282733125
-0.032815602 0.022817105 0.33800003 4280426518
-0.031717777 0.022817105 0.33800003 4283705116
-0.029170489 0.021737006 0.32200003 4283571731
-0.028037285 0.021669498 0.32100001 4282325777
-0.026994677 0.021669498 0.32100001 4282065172
-0.025952067 0.021669498 0.32100001 4281410324
-0.026228655 0.022817105 0.33800003 4280622605
-0.023792502 0.021601994 0.32000002 4280228106
-0.02275314 0.021601994 0.32000002 4280487937
-0.02171378 0.021601994 0.32000002 4284031251
-0.020674421 0.021601994 0.32000002 4283308298
-0.060913786 0.024622854 0.34800002 4287274637
-0.059783485 0.024622854 0.34800002 4287274639
-0.05865318 0.024622854 0.34800002 4287208846
-0.057522871 0.024622854 0.34800002 4287143566
-0.056392573 0.024622854 0.34800002 4288128660
-0.055421062 0.024693608 0.34900001 4284495665
-0.054287508 0.024693608 0.34900001 4283836450
-0.053153958 0.024693608 0.34900001 4282916118
-0.052020404 0.024693608 0.34900001 4282785045
-0.050886851 0.024693608 0.34900001 4281997328
-0.049753297 0.024693608 0.34900001 4288583304
-0.048619747 0.024693608 0.34900001 4287470732
-0.047486193 0.024693608 0.34900001 4287337352
-0.044493221 0.023703035 0.33500001 4281411101
-0.043534715 0.023773791 0.33600003 4281742115
-0.042443383 0.023773791 0.33600003 4281677339
-0.041352056 0.023773791 0.33600003 4283914036
-0.040260728 0.023773791 0.33600003 4282859805
-0.039052822 0.023703035 0.33500001 4281741588
-0.037964739 0.023703035 0.33500001 4281809450
-0.036766581 0.023632281 0.33400002 4281217831
-0.035681751 0.023632281 0.33400002 4281351472
-0.035011251 0.023915302 0.33800003 4278390533
-0.032308057 0.022783216 0.32200003 4279376147
-0.0312622 0.022783216 0.32200003 4279112203
-0.030216344 0.022783216 0.32200003 4282128396
-0.029170489 0.022783216 0.32200003 4283441430
-0.028037285 0.02271246 0.32100001 4282325777
-0.026994677 0.02271246 0.32100001 4282130195
-0.025952067 0.02271246 0.32100001 4281475347
-0.024909461 0.02271246 0.32100001 4280622605
-0.023792502 0.022641705 0.32000002 4279833350
-0.02275314 0.022641705 0.32000002 4280356612
-0.02171378 0.022641705 0.32000002 4284294423
-0.020674421 0.022641705 0.32000002 4283635979
-0.019635059 0.022641705 0.32000002 4282457102
-0.060913786 0.025753543 0.34800002 4287077260
-0.059783485 0.025753543 0.34800002 4287077260
-0.05865318 0.025753543 0.34800002 4287208846
-0.057522871 0.025753543 0.34800002 4287011978
-0.056392573 0.025753543 0.34800002 4287799697
-0.055262264 0.025753543 0.34800002 4284956986
-0.054287508 0.025827546 0.34900001 4283507485
-0.053153958 0.025827546 0.34900001 4283179290
-0.052020404 0.025827546 0.34900001 4282785045
-0.050886851 0.025827546 0.34900001 4281538060
-0.049753297 0.025827546 0.34900001 4288716434
-0.048619747 0.025827546 0.34900001 4286945670
-0.047486193 0.025827546 0.34900001 4286946185
-0.044493221 0.024791483 0.33500001 4283784276
-0.043405145 0.024791483 0.33500001 4282006572
-0.042443383 0.024865489 0.33600003 4281875234
-0.041228984 0.024791483 0.33500001 4281874718
-0.040140901 0.024791483 0.33500001 4281478162
-0.039052822 0.024791483 0.33500001 4281149197
-0.037851412 0.02471748 0.33400002 4285297249
-0.036766581 0.02471748 0.33400002 4280561182
-0.035574917 0.024643475 0.333 4280495393
-0.034493331 0.024643475 0.333 4279705110
-0.032308057 0.023829427 0.32200003 4282929734
-0.0312622 0.023829427 0.32200003 4281020452
-0.030216344 0.023829427 0.32200003 4282524438
-0.029170489 0.023829427 0.32200003 4283507737
-0.028037285 0.023755422 0.32100001 4282128398
-0.026994677 0.023755422 0.32100001 4281998611
-0.025952067 0.023755422 0.32100001 4281606933
-0.024909461 0.023755422 0.32100001 4280425226
-0.023792502 0.023681419 0.32000002 4280030729
-0.02275314 0.023681419 0.32000002 4280160003
-0.02171378 0.023681419 0.32000002 4284294423
-0.020674421 0.023681419 0.32000002 4284424982
-0.019635059 0.023681419 0.32000002 4282718989
-0.018595697 0.023681419 0.32000002 4282194957
-0.017556338 0.023681419 0.32000002 4281343244
-0.060913786 0.02688423 0.34800002 4287077260
-0.059783485 0.02688423 0.34800002 4287077260
-0.05865318 0.02688423 0.34800002 4287472018
-0.057522871 0.02688423 0.34800002 4287077260
-0.056392573 0.02688423 0.34800002 4288194457
-0.055262264 0.02688423 0.34800002 4284562228
-0.054287508 0.026961481 0.34900001 4283572764
-0.053153958 0.026961481 0.34900001 4283375899
-0.052020404 0.026961481 0.34900001 4283113497
-0.050886851 0.026961481 0.34900001 4281735185
-0.049753297 0.026961481 0.34900001 4288651665
-0.048619747 0.026961481 0.34900001 4286946183
-0.047486193 0.026961481 0.34900001 4287012750
-0.044493221 0.025879933 0.33500001 4284773221
-0.043405145 0.025879933 0.33500001 4282271541
-0.042443383 0.025957188 0.33600003 4281414685
-0.041228984 0.025879933 0.33500001 4281742878
-0.040140901 0.025879933 0.33500001 4281215251
-0.039052822 0.025879933 0.33500001 4280688907
-0.037851412 0.025802679 0.33400002 4281679150
-0.036766581 0.025802679 0.33400002 4279640082
-0.035681751 0.025802679 0.33400002 4280165143
-0.034493331 0.025725424 0.333 4279836180
-0.032308057 0.024875637 0.32200003 4280230684
-0.0312622 0.024875637 0.32200003 4279243273
-0.030216344 0.024875637 0.32200003 4281800717
-0.029170489 0.024875637 0.32200003 4283967774
-0.028037285 0.024798384 0.32100001 4282194189
-0.026994677 0.024798384 0.32100001 4281998609
-0.025952067 0.024798384 0.32100001 4281541138
-0.024909461 0.024798384 0.32100001 4280556298
-0.023792502 0.024721131 0.32000002 4280228108
-0.02275314 0.024721131 0.32000002 4280094212
-0.02171378 0.024721131 0.32000002 4284161812
-0.020674421 0.024721131 0.32000002 4284687386
-0.019635059 0.024721131 0.32000002 4282980879
-0.018595697 0.024721131 0.32000002 4282522895
-0.017556338 0.024721131 0.32000002 4281934097
-0.059611689 0.027934413 0.347 4287208846
-0.05865318 0.028014917 0.34800002 4287077260
-0.057522871 0.028014917 0.34800002 4287077260
-0.056392573 0.028014917 0.34800002 4287668625
-0.055262264 0.028014917 0.34800002 4284430640
-0.054287508 0.028095419 0.34900001 4284689449
-0.053153958 0.028095419 0.34900001 4283901216
-0.052020404 0.028095419 0.34900001 4283441178
-0.051032662 0.028175922 0.35000002 4282917916
-0.04989586 0.028175922 0.35000002 4289043855
-0.048759062 0.028175922 0.35000002 4286880390
-0.04762226 0.028175922 0.35000002 4287144334
-0.044493221 0.026968382 0.33500001 4286748041
-0.043534715 0.027048886 0.33600003 4281679665
-0.042443383 0.027048886 0.33600003 4281547300
-0.041228984 0.026968382 0.33500001 4282467628
-0.040140901 0.026968382 0.33500001 4283717174
-0.039052822 0.026968382 0.33500001 4281349144
-0.037851412 0.026887881 0.33400002 4282600252
-0.036766581 0.026887881 0.33400002 4280164373
-0.035681751 0.026887881 0.33400002 4281087015
-0.034596916 0.026887881 0.33400002 4279244041
-0.032308057 0.02592185 0.32200003 4279506961
-0.0312622 0.02592185 0.32200003 4279308555
-0.030216344 0.02592185 0.32200003 4281932301
-0.029170489 0.02592185 0.32200003 4283506710
-0.028037285 0.025841344 0.32100001 4282717967
-0.026994677 0.025841344 0.32100001 4282457361
-0.025952067 0.025841344 0.32100001 4281933586
-0.024909461 0.025841344 0.32100001 4281276939
-0.023792502 0.025760842 0.32000002 4281012999
-0.02275314 0.025760842 0.32000002 4282720022
-0.02171378 0.025760842 0.32000002 4284818972
-0.020674421 0.025760842 0.32000002 4284950558
-0.019635059 0.025760842 0.32000002 4283571220
-0.018595697 0.025760842 0.32000002 4282784784
-0.017556338 0.025760842 0.32000002 4281999631
-0.05865318 0.029145604 0.34800002 4287208846
-0.057522871 0.029145604 0.34800002 4287077260
-0.056392573 0.029145604 0.34800002 4287274637
-0.055421062 0.029229354 0.34900001 4283774509
-0.054287508 0.029229354 0.34900001 4284164388
-0.053153958 0.029229354 0.34900001 4284295972
-0.052169465 0.029313108 0.35000002 4283703835
-0.051178467 0.029396858 0.35100001 4283245083
-0.050180979 0.029480612 0.35200003 4288252026
-0.049037687 0.029480612 0.35200003 4287011463
-0.047894388 0.029480612 0.35200003 4287011978
-0.044493221 0.02805683 0.33500001 4288063901
-0.043534715 0.028140584 0.33600003 4283128142
-0.042443383 0.028140584 0.33600003 4283061570
-0.041352056 0.028140584 0.33600003 4281218335
-0.040140901 0.02805683 0.33500001 4280690960
-0.039052822 0.02805683 0.33500001 4282271021
-0.037964739 0.02805683 0.33500001 4279573004
-0.036766581 0.02797308 0.33400002 4281546794
-0.035681751 0.02797308 0.33400002 4280758048
-0.034596916 0.02797308 0.33400002 4279376397
-0.032308057 0.02696806 0.32200003 4279572756
-0.0312622 0.02696806 0.32200003 4279045640
-0.030216344 0.02696806 0.32200003 4282458129
-0.029170489 0.02696806 0.32200003 4283637524
-0.028037285 0.026884306 0.32100001 4283898386
-0.026994677 0.026884306 0.32100001 4284885281
-0.025952067 0.026884306 0.32100001 4285082660
-0.024831861 0.026800556 0.32000002 4285016867
-0.023792502 0.026800556 0.32000002 4285147937
-0.02275314 0.026800556 0.32000002 4285607973
-0.02171378 0.026800556 0.32000002 4287055932
-0.020674421 0.026800556 0.32000002 4285608486
-0.019635059 0.026800556 0.32000002 4283899413
-0.018595697 0.026800556 0.32000002 4283375122
-0.017556338 0.026800556 0.32000002 4282195473
-0.016516978 0.026800556 0.32000002 4281606416
-0.057522871 0.030276291 0.34800002 4287077260
-0.056392573 0.030276291 0.34800002 4287339662
-0.055421062 0.030363292 0.34900001 4284236089
-0.054287508 0.030363292 0.34900001 4285217589
-0.053306267 0.030450294 0.35000002 4284295202
-0.052169465 0.030450294 0.35000002 4283966491
-0.051178467 0.030537292 0.35100001 4283901468
-0.050180979 0.030624295 0.35200003 4285090880
-0.049037687 0.030624295 0.35200003 4287076738
-0.047894388 0.030624295 0.35200003 4287011463
-0.046751089 0.030624295 0.35200003 4286879627
-0.04366428 0.029319281 0.33700001 4280037157
-0.042443383 0.029232282 0.33600003 4282075195
-0.041352056 0.029232282 0.33600003 4282074423
-0.040260728 0.029232282 0.33600003 4281942828
-0.039052822 0.02914528 0.33500001 4285101405
-0.037964739 0.02914528 0.33500001 4280427545
-0.03687666 0.02914528 0.33500001 4281809966
-0.035681751 0.029058279 0.33400002 4282271289
-0.033975415 0.028536273 0.32800001 4279638801
-0.032910071 0.028536273 0.32800001 4279506963
-0.0312622 0.028014271 0.32200003 4280822048
-0.030216344 0.028014271 0.32200003 4283311128
-0.029170489 0.028014271 0.32200003 4285346599
-0.028037285 0.027927268 0.32100001 4286923831
-0.026994677 0.027927268 0.32100001 4285936166
-0.025952067 0.027927268 0.32100001 4285869605
-0.024831861 0.027840268 0.32000002 4285869348
-0.023792502 0.027840268 0.32000002 4285605404
-0.02275314 0.027840268 0.32000002 4285276693
-0.02171378 0.027840268 0.32000002 4285210900
-0.020674421 0.027840268 0.32000002 4285145107
-0.019635059 0.027840268 0.32000002 4284292111
-0.018595697 0.027840268 0.32000002 4283504909
-0.017556338 0.027840268 0.32000002 4282523154
-0.016516978 0.027840268 0.32000002 4281999890
-0.057522871 0.03140698 0.34800002 4287143566
-0.056392573 0.03140698 0.34800002 4287143566
-0.055421062 0.031497229 0.34900001 4286409316
-0.054287508 0.031497229 0.34900001 4285021496
-0.053306267 0.031587481 0.35000002 4284623908
-0.052169465 0.031587481 0.35000002 4284359966
-0.051178467 0.03167773 0.35100001 4284294173
-0.050038416 0.03167773 0.35100001 4283375897
-0.048898373 0.03167773 0.35100001 4287470984
-0.047758322 0.03167773 0.35100001 4287208326
-0.046751089 0.031767983 0.35200003 4287340432
-0.04379385 0.030504482 0.33800003 4281353017
-0.042569701 0.030414231 0.33700001 4281154352
-0.041475128 0.030414231 0.33700001 4281876792
-0.040260728 0.030323982 0.33600003 4282337593
-0.039169401 0.030323982 0.33600003 4282864191
-0.037964739 0.030233731 0.33500001 4283192902
-0.03687666 0.030233731 0.33500001 4283324488
-0.035681751 0.030143483 0.33400002 4279506443
-0.033975415 0.029601982 0.32800001 4279703824
-0.032910071 0.029601982 0.32800001 4279703570
-0.0312622 0.029060483 0.32200003 4282663480
-0.030216344 0.029060483 0.32200003 4283901466
-0.029079895 0.028970232 0.32100001 4285672996
-0.028037285 0.028970232 0.32100001 4286328098
-0.026994677 0.028970232 0.32100001 4288303939
-0.025952067 0.028970232 0.32100001 4286066982
-0.024831861 0.028879983 0.32000002 4285671197
-0.023792502 0.028879983 0.32000002 4285341719
-0.02275314 0.028879983 0.32000002 4285276693
-0.02171378 0.028879983 0.32000002 4284882705
-0.020674421 0.028879983 0.32000002 4284619536
-0.019635059 0.028879983 0.32000002 4284422929
-0.018595697 0.028879983 0.32000002 4283898640
-0.017556338 0.028879983 0.32000002 4283178772
-0.016516978 0.028879983 0.32000002 4282392082
-0.015477616 0.028879983 0.32000002 4280952853
-0.057522871 0.032537669 0.34800002 4287209359
-0.056392573 0.032537669 0.34800002 4287209359
-0.055421062 0.032631166 0.34900001 4288780431
-0.054287508 0.032631166 0.34900001 4284890423
-0.053306267 0.032724667 0.35000002 4284952101
-0.052169465 0.032724667 0.35000002 4284687902
-0.051178467 0.032818165 0.35100001 4284687902
-0.050038416 0.032818165 0.35100001 4284031769
-0.048759062 0.032724667 0.35000002 4288324495
-0.04762226 0.032724667 0.35000002 4287339912
-0.046751089 0.032911666 0.35200003 4287011467
-0.043923415 0.031696178 0.33900002 4287866522
-0.042696025 0.031602681 0.33800003 4282668877
-0.041475128 0.03150918 0.33700001 4282865224
-0.040380549 0.03150918 0.33700001 4279969049
-0.039169401 0.031415682 0.33600003 4279508498
-0.03807807 0.031415682 0.33600003 4280626212
-0.03687666 0.031322181 0.33500001 4279112975
-0.035681751 0.031228682 0.33400002 4279309584
-0.033975415 0.030667687 0.32800001 4279769365
-0.032910071 0.030667687 0.32800001 4279506445
-0.0312622 0.030106694 0.32200003 4281543714
-0.030216344 0.030106694 0.32200003 4284491550
-0.029079895 0.030013194 0.32100001 4285869346
-0.028037285 0.030013194 0.32100001 4287250483
-0.026994677 0.030013194 0.32100001 4287516222
-0.025871221 0.029919695 0.32000002 4285802783
-0.024831861 0.029919695 0.32000002 4285539611
-0.023792502 0.029919695 0.32000002 4285014037
-0.02275314 0.029919695 0.32000002 4284750865
-0.02171378 0.029919695 0.32000002 4284291343
-0.020674421 0.029919695 0.32000002 4283963148
-0.019635059 0.029919695 0.32000002 4283833106
-0.018595697 0.029919695 0.32000002 4283438862
-0.017556338 0.029919695 0.32000002 4282981139
-0.016516978 0.029919695 0.32000002 4281931533
-0.015477616 0.029919695 0.32000002 4283914572
-0.056392573 0.033668354 0.34800002 4287274639
-0.055421062 0.033765104 0.34900001 4288848790
-0.054287508 0.033765104 0.34900001 4284892218
-0.053153958 0.033765104 0.34900001 4285346086
-0.052169465 0.033861853 0.35000002 4285016351
-0.051032662 0.033861853 0.35000002 4284818459
-0.04989586 0.033861853 0.35000002 4285016351
-0.048619747 0.033765104 0.34900001 4288123007
-0.047486193 0.033765104 0.34900001 4287339398
-0.046087008 0.033571605 0.347 4287208074
-0.044052981 0.032894369 0.34 4287274639
-0.042822342 0.032797623 0.33900002 4281156151
-0.041598201 0.032700874 0.33800003 4281022768
-0.040380549 0.032604124 0.33700001 4280561186
-0.039285973 0.032604124 0.33700001 4279705110
-0.03807807 0.032507379 0.33600003 4279770133
-0.03687666 0.032410629 0.33500001 4281810486
-0.035681751 0.032313883 0.33400002 4282665795
-0.033975415 0.031733394 0.32800001 4279638547
-0.032910071 0.031733394 0.32800001 4280820763
-0.0312622 0.031152904 0.32200003 4281540886
-0.030216344 0.031152904 0.32200003 4285346086
-0.029079895 0.031056155 0.32100001 4285869348
-0.028037285 0.031056155 0.32100001 4286526760
-0.026994677 0.031056155 0.32100001 4285539865
-0.025871221 0.030959409 0.32000002 4285342486
-0.024831861 0.030959409 0.32000002 4284948501
-0.023792502 0.030959409 0.32000002 4284357908
-0.02275314 0.030959409 0.32000002 4284161042
-0.02171378 0.030959409 0.32000002 4283439116
-0.020674421 0.030959409 0.32000002 4283242253
-0.019635059 0.030959409 0.32000002 4282980364
-0.018595697 0.030959409 0.32000002 4283046157
-0.017556338 0.030959409 0.32000002 4282653198
-0.016516978 0.030959409 0.32000002 4281997328
