# .PCD v0.7 - Point Cloud Data file format
VERSION 0.7
FIELDS x y z rgb
SIZE 4 4 4 4
TYPE F F F U
COUNT 1 1 1 1
WIDTH 784
HEIGHT 1
VIEWPOINT 0 0 0 1 0 0 0
POINTS 784
DATA ascii
0.011508367 0.011093114 0.38900003 4283400293
0.0064212908 0.012293482 0.38700002 4279452965
0.007698108 0.012325248 0.38800001 4279323687
0.0089583332 0.012325248 0.38800001 4278996257
0.010218557 0.012325248 0.38800001 4278931232
0.011508367 0.012357014 0.38900003 4279523885
0.012804672 0.01238878 0.39000002 4280116537
0.014071392 0.01238878 0.39000002 4282220634
0.015377442 0.012420547 0.39100003 4279982900
0.016647412 0.012420547 0.39100003 4279982900
0.007678268 0.013550884 0.38700002 4279255584
0.0089583332 0.013585899 0.38800001 4278666781
0.010218557 0.013585899 0.38800001 4278666777
0.011508367 0.013620915 0.38900003 4278602781
0.012804672 0.01365593 0.39000002 4278669087
0.014071392 0.01365593 0.39000002 4278405919
0.015377442 0.013690946 0.39100003 4279721777
0.016647412 0.013690946 0.39100003 4279723060
0.018054854 0.01379599 0.39400002 4279130923
0.019383637 0.013831005 0.39500001 4279327789
0.020666597 0.013831005 0.39500001 4279130410
0.022005128 0.013866021 0.39600003 4279064615
0.023291336 0.013866021 0.39600003 4279196201
0.0064212908 0.014808287 0.38700002 4279514395
0.007678268 0.014808287 0.38700002 4279254301
0.0089583332 0.01484655 0.38800001 4279059742
0.010218557 0.01484655 0.38800001 4278731289
0.011508367 0.014884816 0.38900003 4278600986
0.01277184 0.014884816 0.38900003 4278930462
0.014071392 0.014923079 0.39000002 4278273302
0.015377442 0.014961344 0.39100003 4278865953
0.016647412 0.014961344 0.39100003 4278735650
0.018054854 0.015076137 0.39400002 4278933031
0.019383637 0.015114401 0.39500001 4278998824
0.020666597 0.015114401 0.39500001 4278933029
0.021949559 0.015114401 0.39500001 4278933029
0.023291336 0.015152666 0.39600003 4278604064
0.007678268 0.016065689 0.38700002 4279516191
0.0089352448 0.016065689 0.38700002 4278993179
0.010218557 0.016107202 0.38800001 4278927386
0.011508367 0.016148716 0.38900003 4278797082
0.01277184 0.016148716 0.38900003 4278797595
0.014071392 0.016190229 0.39000002 4278930462
0.015338113 0.016190229 0.39000002 4278536474
0.016647412 0.016231744 0.39100003 4278602781
0.017963205 0.016273256 0.39200002 4278865953
0.019285493 0.016314769 0.39300001 4279063332
0.020614278 0.016356282 0.39400002 4278931746
0.021949559 0.016397797 0.39500001 4278734367
0.02323252 0.016397797 0.39500001 4278668574
0.02451548 0.016397797 0.39500001 4278800160
0.02579844 0.016397797 0.39500001 4278734621
0.027081402 0.016397797 0.39500001 4278205195
0.028436171 0.016439309 0.39600003 4278996255
0.007678268 0.017323092 0.38700002 4279121431
0.0089352448 0.017323092 0.38700002 4279058459
0.010218557 0.017367853 0.38800001 4278993179
0.011478783 0.017367853 0.38800001 4278731289
0.01277184 0.017412616 0.38900003 4279060767
0.014071392 0.017457379 0.39000002 4278798363
0.015338113 0.017457379 0.39000002 4278864669
0.016647412 0.017502142 0.39100003 4278733855
0.017963205 0.017546903 0.39200002 4278800162
0.019236421 0.017546903 0.39200002 4279063332
0.020614278 0.01763643 0.39400002 4279194404
0.021893991 0.01763643 0.39400002 4278733853
0.02323252 0.017681191 0.39500001 4278931232
0.02451548 0.017681191 0.39500001 4278799646
0.02579844 0.017681191 0.39500001 4278601497
0.027149964 0.017725954 0.39600003 4279914281
0.028436171 0.017725954 0.39600003 4279652389
0.029797435 0.017770715 0.39700001 4278864923
0.031086894 0.017770715 0.39700001 4278930716
0.035571601 0.018084053 0.40400001 4278733337
0.039801557 0.01821834 0.40700001 4278864669
0.041224536 0.018263103 0.40800002 4278667290
0.052605029 0.019024067 0.42500001 4278864669
0.054239478 0.019113591 0.42700002 4278667544
0.055756651 0.019158354 0.42800003 4278667544
0.057280317 0.019203117 0.42900002 4278667544
0.058810472 0.019247878 0.43000001 4278733337
0.060347132 0.019292641 0.43100002 4278470935
0.061747022 0.019292641 0.43100002 4278470935
0.063293427 0.019337403 0.43200001 4278734107
0.064846322 0.019382168 0.43300003 4278602781
0.066405714 0.019426929 0.43400002 4278668578
0.06797161 0.019471692 0.43500003 4279193384
0.0064046984 0.018532483 0.38600001 4279447832
0.0076584271 0.018532483 0.38600001 4279450650
0.0089352448 0.018580494 0.38700002 4279058972
0.010218557 0.018628506 0.38800001 4278927386
0.011478783 0.018628506 0.38800001 4278928156
0.01277184 0.018676519 0.38900003 4278731289
0.014035312 0.018676519 0.38900003 4278732572
0.015338113 0.018724529 0.39000002 4278864671
0.016604833 0.018724529 0.39000002 4278602783
0.01791738 0.018772542 0.39100003 4278865955
0.019236421 0.018820552 0.39200002 4278931748
0.020561956 0.018868564 0.39300001 4278668574
0.021893991 0.018916577 0.39400002 4278668574
0.023173705 0.018916577 0.39400002 4278602781
0.02451548 0.018964587 0.39500001 4278733853
0.02579844 0.018964587 0.39500001 4278996255
0.027149964 0.0190126 0.39600003 4279256349
0.028436171 0.0190126 0.39600003 4279192351
0.029797435 0.01906061 0.39700001 4278204431
0.031165199 0.019108623 0.39800003 4278200067
0.032621007 0.019204644 0.40000001 4278196992
0.034089811 0.019300669 0.40200001 4278196480
0.035483554 0.019348681 0.40300003 4278197248
0.036975093 0.019444704 0.40500003 4278197248
0.038385078 0.019492716 0.40600002 4278198531
0.039801557 0.019540727 0.40700001 4278197760
0.041224536 0.019588739 0.40800002 4278198528
0.042654008 0.01963675 0.40900001 4278197248
0.044089977 0.019684762 0.41000003 4278196480
0.050863042 0.020260902 0.42200002 4278197248
0.052481253 0.020356925 0.42400002 4278196992
0.054112453 0.020452948 0.42600003 4278196480
0.055626374 0.02050096 0.42700002 4278196736
0.057146799 0.020548971 0.42800003 4278196992
0.058810472 0.020644994 0.43000001 4278196992
0.060207114 0.020644994 0.43000001 4278196480
0.061747022 0.020693006 0.43100002 4278197248
0.063293427 0.020741018 0.43200001 4278798365
0.064846322 0.020789029 0.43300003 4278602267
0.066405714 0.020837041 0.43400002 4278799648
0.06797161 0.020885052 0.43500003 4279390502
0.069384485 0.020885052 0.43500003 4286161034
0.0064046984 0.019786635 0.38600001 4279579416
0.0076584271 0.019786635 0.38600001 4279450396
0.0089352448 0.019837897 0.38700002 4279124252
0.010218557 0.019889157 0.38800001 4278993179
0.011478783 0.019889157 0.38800001 4278993949
0.01277184 0.019940419 0.38900003 4278797082
0.014035312 0.019940419 0.38900003 4278535193
0.015298785 0.019940419 0.38900003 4278929951
0.016604833 0.019991679 0.39000002 4278799648
0.01791738 0.020042941 0.39100003 4278931748
0.01918735 0.020042941 0.39100003 4279062820
0.020509636 0.020094201 0.39200002 4278799646
0.021838421 0.020145461 0.39300001 4278799646
0.023173705 0.020196723 0.39400002 4278865439
0.024453416 0.020196723 0.39400002 4278865439
0.02579844 0.020247983 0.39500001 4278667290
0.027149964 0.020299245 0.39600003 4278199296
0.028436171 0.020299245 0.39600003 4279783463
0.029797435 0.020350505 0.39700001 4278196999
0.031165199 0.020401767 0.39800003 4278655756
0.032621007 0.020504287 0.40000001 4278786318
0.034089811 0.020606807 0.40200001 4278852111
0.035483554 0.020658068 0.40300003 4278983951
0.036975093 0.02076059 0.40500003 4278852365
0.038385078 0.02081185 0.40600002 4278786572
0.039801557 0.02086311 0.40700001 4278525453
0.041224536 0.020914372 0.40800002 4279190304
0.042758297 0.021016894 0.41000003 4279256351
0.044197515 0.021068154 0.41100001 4279519523
0.045754012 0.021170676 0.41300002 4279256351
0.047323503 0.021273198 0.41500002 4279387937
0.048905987 0.021375719 0.41700003 4279322912
0.050621986 0.021529501 0.42000002 4279389219
0.052357472 0.021683281 0.42300001 4279257633
0.053985428 0.021785803 0.42500001 4278994463
0.055626374 0.021888325 0.42700002 4279125535
0.057146799 0.021939587 0.42800003 4279257119
0.058673706 0.021990847 0.42900002 4279190556
0.060207114 0.022042107 0.43000001 4279256351
0.061747022 0.022093369 0.43100002 4279453476
0.063293427 0.022144629 0.43200001 4278928670
0.064846322 0.022195891 0.43300003 4278732572
0.066405714 0.022247151 0.43400002 4278996255
0.06797161 0.022298412 0.43500003 4279258916
0.069384485 0.022298412 0.43500003 4286161032
0.0064046984 0.02104079 0.38600001 4279842588
0.007678268 0.0210953 0.38700002 4279318810
0.0089352448 0.0210953 0.38700002 4279190045
0.010218557 0.021149809 0.38800001 4279255838
0.011478783 0.021149809 0.38800001 4279783465
0.01277184 0.021204319 0.38900003 4279191842
0.014035312 0.021204319 0.38900003 4278929179
0.015298785 0.021204319 0.38900003 4278995742
0.016562259 0.021204319 0.38900003 4278996255
0.017871555 0.021258829 0.39000002 4278865953
0.01918735 0.021313339 0.39100003 4279063332
0.020509636 0.021367848 0.39200002 4279063332
0.021838421 0.021422358 0.39300001 4278865439
0.023114886 0.021422358 0.39300001 4278865439
0.024453416 0.021476869 0.39400002 4278930464
0.02579844 0.021531377 0.39500001 4279193123
0.027149964 0.021585887 0.39600003 4280241198
0.028436171 0.021585887 0.39600003 4280045354
0.029797435 0.021640398 0.39700001 4278591757
0.031165199 0.021694908 0.39800003 4278655502
0.032621007 0.021803927 0.40000001 4278852111
0.034089811 0.021912945 0.40200001 4278984467
0.035483554 0.021967458 0.40300003 4279248152
0.036975093 0.022076476 0.40500003 4278656269
0.038385078 0.022130987 0.40600002 4279708957
0.039801557 0.022185495 0.40700001 4278328585
0.041325577 0.022294514 0.40900001 4278993949
0.042758297 0.022349026 0.41000003 4278202377
0.044197515 0.022403535 0.41100001 4278199808
0.045754012 0.022512555 0.41300002 4278599189
0.047323503 0.022621574 0.41500002 4278202375
0.048905987 0.022730595 0.41700003 4278204172
0.050621986 0.022894124 0.42000002 4278200832
0.0522337 0.023003142 0.42200002 4278797593
0.053858403 0.023112163 0.42400002 4279258144
0.055496104 0.023221184 0.42600003 4278929179
0.057146799 0.023330202 0.42800003 4278665494
0.058673706 0.023384711 0.42900002 4279191838
0.060207114 0.023439221 0.43000001 4278994459
0.061747022 0.023493731 0.43100002 4279126045
0.063293427 0.02354824 0.43200001 4279455012
0.064846322 0.023602752 0.43300003 4278798363
0.066405714 0.02365726 0.43400002 4279061535
0.06797161 0.023711771 0.43500003 4278995742
0.069384485 0.023711771 0.43500003 4285042299
0.0064046984 0.022294942 0.38600001 4279382807
0.007678268 0.022352701 0.38700002 4279450910
0.0089352448 0.022352701 0.38700002 4279124252
0.010218557 0.02241046 0.38800001 4279058972
0.011478783 0.02241046 0.38800001 4278862361
0.01277184 0.02246822 0.38900003 4278862875
0.014035312 0.02246822 0.38900003 4279192605
0.015298785 0.02246822 0.38900003 4278995996
0.016562259 0.02246822 0.38900003 4278931486
0.017871555 0.022525977 0.39000002 4278865953
0.01918735 0.022583738 0.39100003 4278931746
0.020509636 0.022641497 0.39200002 4278800160
0.021782853 0.022641497 0.39200002 4278800160
0.023114886 0.022699254 0.39300001 4278865439
0.024453416 0.022757014 0.39400002 4278601497
0.02579844 0.022814773 0.39500001 4279654187
0.027081402 0.022814773 0.39500001 4279321377
0.028436171 0.022872532 0.39600003 4280242733
0.029797435 0.022930291 0.39700001 4278197512
0.031165199 0.022988051 0.39800003 4279381789
0.032621007 0.023103567 0.40000001 4279315482
0.034089811 0.023219084 0.40200001 4278723343
0.035483554 0.023276845 0.40300003 4279117590
0.036975093 0.023392363 0.40500003 4278328072
0.038385078 0.023450121 0.40600002 4279183892
0.039899349 0.023565639 0.40800002 4278790418
0.041325577 0.023623398 0.40900001 4279321377
0.042758297 0.023681156 0.41000003 4278199563
0.044197515 0.023738915 0.41100001 4278198023
0.045754012 0.023854433 0.41300002 4278728470
0.047323503 0.023969952 0.41500002 4279255836
0.048905987 0.02408547 0.41700003 4278597906
0.050501458 0.024200987 0.41900003 4279190558
0.052109923 0.024316506 0.42100003 4278203150
0.053858403 0.024489783 0.42400002 4278201612
0.055496104 0.0246053 0.42600003 4278333712
0.057146799 0.024720818 0.42800003 4278531091
0.058673706 0.024778577 0.42900002 4278399507
0.060207114 0.024836333 0.43000001 4278203406
0.061747022 0.024894094 0.43100002 4278664214
0.063293427 0.024951853 0.43200001 4279323424
0.064846322 0.025009612 0.43300003 4278732570
0.066405714 0.02506737 0.43400002 4279061535
0.06797161 0.025125131 0.43500003 4279587113
0.069384485 0.025125131 0.43500003 4285831304
0.0064212908 0.023610104 0.38700002 4279383322
0.007678268 0.023610104 0.38700002 4279451164
0.0089583332 0.023671111 0.38800001 4279190045
0.010218557 0.023671111 0.38800001 4279058459
0.011478783 0.023671111 0.38800001 4278993949
0.01277184 0.02373212 0.38900003 4278928668
0.014035312 0.02373212 0.38900003 4278995742
0.015298785 0.02373212 0.38900003 4279061789
0.016562259 0.02373212 0.38900003 4278930716
0.017871555 0.023793127 0.39000002 4278931232
0.01918735 0.023854136 0.39100003 4279194404
0.020509636 0.023915144 0.39200002 4278865439
0.021782853 0.023915144 0.39200002 4278865439
0.023114886 0.023976151 0.39300001 4278733853
0.024453416 0.02403716 0.39400002 4278996255
0.02579844 0.024098167 0.39500001 4278600986
0.027081402 0.024098167 0.39500001 4279716135
0.028436171 0.024159176 0.39600003 4279584803
0.029797435 0.024220183 0.39700001 4278198281
0.031165199 0.024281193 0.39800003 4278395662
0.032621007 0.024403207 0.40000001 4279184408
0.034089811 0.024525223 0.40200001 4278194176
0.035483554 0.024586232 0.40300003 4278853646
0.036975093 0.024708249 0.40500003 4280631340
0.038385078 0.024769256 0.40600002 4280435243
0.039899349 0.024891272 0.40800002 4279318045
0.041325577 0.024952279 0.40900001 4279911463
0.042758297 0.025013288 0.41000003 4278459656
0.044197515 0.025074296 0.41100001 4278197769
0.045754012 0.025196312 0.41300002 4278727187
0.047323503 0.025318328 0.41500002 4278203150
0.048905987 0.025440345 0.41700003 4278202122
0.050501458 0.025562361 0.41900003 4278203663
0.052109923 0.025684377 0.42100003 4278532115
0.053731378 0.025806392 0.42300001 4278201355
0.055496104 0.025989417 0.42600003 4278991131
0.057146799 0.026111433 0.42800003 4278200843
0.058673706 0.02617244 0.42900002 4278201357
0.060207114 0.026233448 0.43000001 4278269202
0.061890285 0.026355464 0.43200001 4278795800
0.063439943 0.026416473 0.43300003 4279126047
0.064846322 0.026416473 0.43300003 4278864669
0.066405714 0.02647748 0.43400002 4279193636
0.06797161 0.026538489 0.43500003 4278863136
0.069384485 0.026538489 0.43500003 4286291855
0.0064212908 0.024867509 0.38700002 4279514908
0.007698108 0.024931764 0.38800001 4279648543
0.0089583332 0.024931764 0.38800001 4279058459
0.010218557 0.024931764 0.38800001 4279058972
0.011508367 0.024996022 0.38900003 4279059742
0.01277184 0.024996022 0.38900003 4279126047
0.014035312 0.024996022 0.38900003 4278929949
0.015298785 0.024996022 0.38900003 4278995742
0.016604833 0.025060279 0.39000002 4279127841
0.017871555 0.025060279 0.39000002 4279193634
0.01918735 0.025124537 0.39100003 4278865439
0.020509636 0.025188792 0.39200002 4278865439
0.021838421 0.02525305 0.39300001 4278865439
0.023114886 0.02525305 0.39300001 4278799646
0.024453416 0.025317308 0.39400002 4279127328
0.02579844 0.025381563 0.39500001 4278928156
0.027081402 0.025381563 0.39500001 4278729240
0.028436171 0.025445823 0.39600003 4279979307
0.029797435 0.025510078 0.39700001 4278656269
0.031165199 0.025574338 0.39800003 4278656015
0.032621007 0.025702849 0.40000001 4278655502
0.034005009 0.025767108 0.40100002 4278655502
0.035483554 0.025895622 0.40300003 4278852111
0.036975093 0.026024137 0.40500003 4278523916
0.038385078 0.026088392 0.40600002 4278328074
0.039899349 0.026216907 0.40800002 4280106791
0.041325577 0.026281163 0.40900001 4279781158
0.042758297 0.026345422 0.41000003 4278198280
0.044197515 0.026409678 0.41100001 4279516703
0.045754012 0.026538193 0.41300002 4279453215
0.047323503 0.026666706 0.41500002 4279124763
0.048905987 0.026795221 0.41700003 4278928156
0.050501458 0.026923737 0.41900003 4279388705
0.052109923 0.027052252 0.42100003 4279388703
0.053731378 0.027180763 0.42300001 4279454496
0.055496104 0.027373536 0.42600003 4278993945
0.057146799 0.027502051 0.42800003 4279257119
0.058810472 0.027630564 0.43000001 4279388707
0.060347132 0.027694821 0.43100002 4279454500
0.061890285 0.027759077 0.43200001 4278203406
0.063439943 0.027823336 0.43300003 4279455012
0.064996079 0.027887592 0.43400002 4278929951
0.066405714 0.027887592 0.43400002 4279127845
0.06797161 0.02795185 0.43500003 4279191590
0.0064378832 0.026192416 0.38800001 4279581469
0.007698108 0.026192416 0.38800001 4279451680
0.0089583332 0.026192416 0.38800001 4279058205
0.010218557 0.026192416 0.38800001 4278795546
0.011508367 0.026259923 0.38900003 4278665244
0.01277184 0.026259923 0.38900003 4278929183
0.014035312 0.026259923 0.38900003 4278929951
0.015338113 0.026327427 0.39000002 4279061537
0.016604833 0.026327427 0.39000002 4279127328
0.01791738 0.026394935 0.39100003 4279588392
0.01918735 0.026394935 0.39100003 4278865439
0.020509636 0.026462441 0.39200002 4278865439
0.021838421 0.026529947 0.39300001 4278602267
0.023173705 0.026597453 0.39400002 4278864669
0.024453416 0.026597453 0.39400002 4278732570
0.02579844 0.026664959 0.39500001 4278202634
0.027081402 0.026664959 0.39500001 4279452963
0.028436171 0.026732467 0.39600003 4278991644
0.029797435 0.026799971 0.39700001 4278919187
0.031165199 0.026867479 0.39800003 4278918676
0.032539453 0.026934985 0.39900002 4279115285
0.034005009 0.027069997 0.40100002 4278983185
0.035483554 0.027205011 0.40300003 4279114771
0.036883794 0.027272515 0.40400001 4278654732
0.038385078 0.027407529 0.40600002 4278655502
0.039801557 0.027475033 0.40700001 4280369965
0.041325577 0.027610047 0.40900001 4278198020
0.042758297 0.027677553 0.41000003 4278197250
0.044197515 0.027745059 0.41100001 4278195968
0.045754012 0.027880071 0.41300002 4278196480
0.047209471 0.027947579 0.41400003 4278196480
0.048905987 0.028150097 0.41700003 4278196224
0.050501458 0.02828511 0.41900003 4278196992
0.052109923 0.028420122 0.42100003 4278196736
0.053731378 0.028555132 0.42300001 4278197504
0.055496104 0.028757654 0.42600003 4278197248
0.057146799 0.028892666 0.42800003 4278199043
0.058810472 0.029027676 0.43000001 4278200073
0.060347132 0.029095184 0.43100002 4278200333
0.062033553 0.029230196 0.43300003 4279978026
0.063439943 0.029230196 0.43300003 4279257633
0.064996079 0.029297702 0.43400002 4279061537
0.066558726 0.02936521 0.43500003 4279193638
0.06797161 0.02936521 0.43500003 4281230921
0.0064378832 0.027453067 0.38800001 4279582236
0.007698108 0.027453067 0.38800001 4279451162
0.0089583332 0.027453067 0.38800001 4279386654
0.010218557 0.027453067 0.38800001 4279124252
0.011508367 0.027523823 0.38900003 4279058972
0.01277184 0.027523823 0.38900003 4279059742
0.014035312 0.027523823 0.38900003 4279193125
0.015338113 0.027594578 0.39000002 4278929951
0.016604833 0.027594578 0.39000002 4279062048
0.01791738 0.027665334 0.39100003 4279391013
0.019236421 0.027736088 0.39200002 4278931232
0.020509636 0.027736088 0.39200002 4278865439
0.021838421 0.027806843 0.39300001 4278799648
0.023173705 0.027877599 0.39400002 4278799648
0.024453416 0.027877599 0.39400002 4278995744
0.02579844 0.027948353 0.39500001 4278664982
0.027081402 0.027948353 0.39500001 4278664214
0.028436171 0.028019112 0.39600003 4279520039
0.029797435 0.028089866 0.39700001 4280044848
0.031165199 0.028160622 0.39800003 4280044080
0.032539453 0.028231377 0.39900002 4279846186
0.034005009 0.028372888 0.40100002 4279977772
0.035395507 0.028443642 0.40200001 4279912233
0.036883794 0.028585153 0.40400001 4279912744
0.038385078 0.028726663 0.40600002 4279715365
0.039801557 0.028797418 0.40700001 4279716135
0.041325577 0.028938929 0.40900001 4279520039
0.042758297 0.029009685 0.41000003 4279322660
0.044197515 0.029080439 0.41100001 4279520293
0.045754012 0.02922195 0.41300002 4279125535
0.047209471 0.029292706 0.41400003 4279387937
0.048905987 0.029504972 0.41700003 4279256351
0.050501458 0.029646484 0.41900003 4279388707
0.052109923 0.029787995 0.42100003 4279126049
0.053731378 0.029929504 0.42300001 4279126049
0.055496104 0.030141771 0.42600003 4279257633
0.057146799 0.030283282 0.42800003 4278862875
0.058947243 0.030495547 0.43100002 4279191840
0.060487147 0.030566301 0.43200001 4279323428
0.062033553 0.030637057 0.43300003 4279323428
0.063586451 0.030707812 0.43400002 4279257635
0.064996079 0.030707812 0.43400002 4279521320
0.066558726 0.030778568 0.43500003 4279125029
0.06797161 0.030778568 0.43500003 4286161294
0.0051910039 0.028787725 0.38900003 4279447832
0.0064378832 0.028713718 0.38800001 4279450910
0.007698108 0.028713718 0.38800001 4279386141
0.0089583332 0.028713718 0.38800001 4279189273
0.010218557 0.028713718 0.38800001 4279320859
0.011508367 0.028787725 0.38900003 4279256347
0.01277184 0.028787725 0.38900003 4279125531
0.014035312 0.028787725 0.38900003 4279193121
0.015338113 0.028861728 0.39000002 4278798363
0.016604833 0.028861728 0.39000002 4279522599
0.01791738 0.028935732 0.39100003 4279062818
0.019236421 0.029009737 0.39200002 4278997025
0.020561956 0.02908374 0.39300001 4278799646
0.021838421 0.02908374 0.39300001 4278536476
0.023173705 0.029157747 0.39400002 4278799648
0.024453416 0.029157747 0.39400002 4278337814
0.02579844 0.029231749 0.39500001 4278204431
0.027081402 0.029231749 0.39500001 4279520293
0.028436171 0.029305754 0.39600003 4279192355
0.029797435 0.029379759 0.39700001 4278863136
0.031086894 0.029379759 0.39700001 4279126308
0.032539453 0.029527768 0.39900002 4278930212
0.03392021 0.029601771 0.40000001 4278864419
0.035395507 0.029749781 0.40200001 4278864671
0.036792498 0.029823786 0.40300003 4278733085
0.038385078 0.030045798 0.40600002 4278733085
0.039801557 0.030119803 0.40700001 4278930464
0.041224536 0.030193808 0.40800002 4278996257
0.042758297 0.030341817 0.41000003 4278996257
0.044197515 0.03041582 0.41100001 4278930464
0.045643229 0.030489827 0.41200003 4278733085
0.047095437 0.030563829 0.41300002 4278996257
0.048905987 0.030859848 0.41700003 4278733085
0.050621986 0.031081861 0.42000002 4278929951
0.0522337 0.03122987 0.42200002 4278929951
0.053731378 0.031303871 0.42300001 4278995744
0.055496104 0.031525888 0.42600003 4279061537
0.057146799 0.031673897 0.42800003 4279127330
0.058947243 0.031895909 0.43100002 4279258916
0.060487147 0.031969912 0.43200001 4279521318
0.062176816 0.032117922 0.43400002 4279258148
0.063586451 0.032117922 0.43400002 4279454246
0.065145843 0.032191928 0.43500003 4279254562
0.066558726 0.032191928 0.43500003 4285961089
0.0051910039 0.030051624 0.38900003 4279843360
0.0064544762 0.030051624 0.38900003 4279647777
0.007698108 0.029974369 0.38800001 4279385889
0.0089583332 0.029974369 0.38800001 4279386654
0.010218557 0.029974369 0.38800001 4279190043
0.011478783 0.029974369 0.38800001 4279256347
0.01277184 0.030051624 0.38900003 4279125531
0.014035312 0.030051624 0.38900003 4279389730
0.015338113 0.030128878 0.39000002 4278798363
0.016604833 0.030128878 0.39000002 4279062818
0.01791738 0.030206133 0.39100003 4279062820
0.019236421 0.030283384 0.39200002 4278931234
0.020509636 0.030283384 0.39200002 4278931234
0.021838421 0.030360637 0.39300001 4278931234
0.023173705 0.030437892 0.39400002 4278931234
0.024453416 0.030437892 0.39400002 4278996257
0.02579844 0.030515144 0.39500001 4278930464
0.027081402 0.030515144 0.39500001 4279061539
0.028436171 0.030592399 0.39600003 4278929953
0.02972238 0.030592399 0.39600003 4278929953
0.031086894 0.030669652 0.39700001 4278930466
0.032539453 0.030824158 0.39900002 4278997027
0.03392021 0.030901412 0.40000001 4279193634
0.035307456 0.030978667 0.40100002 4278996255
0.036701199 0.03105592 0.40200001 4279062048
0.038385078 0.031364933 0.40600002 4278931232
0.039801557 0.031442188 0.40700001 4278931232
0.041224536 0.031519443 0.40800002 4279062048
0.042758297 0.031673949 0.41000003 4279062048
0.044197515 0.031751201 0.41100001 4278930466
0.045643229 0.031828456 0.41200003 4279062052
0.047095437 0.031905707 0.41300002 4278996259
0.048905987 0.032214724 0.41700003 4278996259
0.050621986 0.032446481 0.42000002 4279061539
0.0522337 0.032600991 0.42200002 4279060515
0.053731378 0.032678243 0.42300001 4279125797
0.055496104 0.032910004 0.42600003 4279322662
0.057146799 0.033064511 0.42800003 4278991644
0.058947243 0.033296272 0.43100002 4279977256
0.060487147 0.033373524 0.43200001 4282541902
0.062176816 0.033528034 0.43400002 4284910450
0.063732967 0.033605289 0.43500003 4286225029
0.0051910039 0.031315524 0.38900003 4279711524
0.0064544762 0.031315524 0.38900003 4279252254
0.007698108 0.031235021 0.38800001 4279516453
0.0089583332 0.031235021 0.38800001 4279189023
0.010218557 0.031235021 0.38800001 4279320609
0.011478783 0.031235021 0.38800001 4279716902
0.01277184 0.031315524 0.38900003 4279783465
0.014035312 0.031315524 0.38900003 4279323426
0.015298785 0.031315524 0.38900003 4279060767
0.016604833 0.031396028 0.39000002 4278929951
0.01791738 0.031476531 0.39100003 4279127845
0.01918735 0.031476531 0.39100003 4278996259
0.020509636 0.031557031 0.39200002 4279062052
0.021838421 0.031637534 0.39300001 4278733857
0.023173705 0.031718038 0.39400002 4278996259
0.024453416 0.031718038 0.39400002 4279127845
0.02579844 0.031798538 0.39500001 4279193384
0.027081402 0.031798538 0.39500001 4279127591
0.028436171 0.031879045 0.39600003 4279061285
0.02972238 0.031879045 0.39600003 4279126562
0.031086894 0.031959545 0.39700001 4279323941
0.032539453 0.032120552 0.39900002 4279258146
0.03392021 0.032201052 0.40000001 4279192353
0.035307456 0.032281555 0.40100002 4279323426
0.036701199 0.032362059 0.40200001 4278862875
0.038385078 0.032684069 0.40600002 4278731291
0.039801557 0.032764569 0.40700001 4278994463
0.041224536 0.032845076 0.40800002 4279257635
0.042758297 0.033006079 0.41000003 4278797084
0.044197515 0.033086583 0.41100001 4279191590
0.045643229 0.033167087 0.41200003 4279388455
0.047095437 0.033247586 0.41300002 4279650092
0.048905987 0.033569597 0.41700003 4279912494
0.050621986 0.033811107 0.42000002 4281556036
0.0522337 0.033972111 0.42200002 4284713075
0.053731378 0.034052614 0.42300001 4286226060
0.055496104 0.034294121 0.42600003 4286620818
0.007698108 0.032495674 0.38800001 4282080331
0.0089583332 0.032495674 0.38800001 4279976752
0.010218557 0.032495674 0.38800001 4279318822
0.011478783 0.032495674 0.38800001 4279515941
0.012739007 0.032495674 0.38800001 4280108592
0.014035312 0.032579426 0.38900003 4279650092
0.015298785 0.032579426 0.38900003 4279255847
0.016604833 0.032663178 0.39000002 4280045361
0.017871555 0.032663178 0.39000002 4280045361
0.01918735 0.03274693 0.39100003 4279453226
0.020509636 0.032830682 0.39200002 4279519789
0.021838421 0.03291443 0.39300001 4279255845
0.023173705 0.032998186 0.39400002 4279518504
0.024453416 0.032998186 0.39400002 4279780906
0.02579844 0.033081934 0.39500001 4279912492
0.027081402 0.033081934 0.39500001 4279715113
0.028436171 0.033165686 0.39600003 4280044078
0.032767754 0.024638202 0.40392989 4294967295
0.032767754 0.024638202 0.40392989 4294901760
0.032767754 0.024638202 0.40442988 4294901760
0.032767754 0.024638202 0.40492988 4294901760
0.032767754 0.024638202 0.4054299 4294901760
0.032767754 0.024638202 0.40592989 4294901760
0.032767754 0.024638202 0.40642989 4294901760
0.032767754 0.024638202 0.40692988 4294901760
0.032767754 0.024638202 0.4074299 4294901760
0.032767754 0.024638202 0.4079299 4294901760
0.032767754 0.024638202 0.40842989 4294901760
0.032767754 0.024638202 0.40892988 4294901760
0.032767754 0.024638202 0.40942988 4294901760
0.032767754 0.024638202 0.4099299 4294901760
0.032767754 0.024638202 0.41042989 4294901760
0.032767754 0.024638202 0.41092989 4294901760
0.032767754 0.024638202 0.41142988 4294901760
0.032767754 0.024638202 0.41192991 4294901760
0.032767754 0.024638202 0.4124299 4294901760
0.032767754 0.024638202 0.41292989 4294901760
0.032767754 0.024638202 0.41342989 4294901760
0.032767754 0.024638202 0.41392988 4294901760
0.032767754 0.024638202 0.4144299 4294901760
0.032767754 0.024638202 0.4149299 4294901760
0.032767754 0.024638202 0.41542989 4294901760
0.032767754 0.024638202 0.41592988 4294901760
0.032767754 0.024638202 0.41642988 4294901760
0.032767754 0.024638202 0.4169299 4294901760
0.032767754 0.024638202 0.41742989 4294901760
0.032767754 0.024638202 0.41792989 4294901760
0.032767754 0.024638202 0.41842988 4294901760
0.032767754 0.024638202 0.4189299 4294901760
0.032767754 0.024638202 0.4194299 4294901760
0.032767754 0.024638202 0.41992989 4294901760
0.032767754 0.024638202 0.42042989 4294901760
0.032767754 0.024638202 0.42092991 4294901760
0.032767754 0.024638202 0.4214299 4294901760
0.032767754 0.024638202 0.4219299 4294901760
0.032767754 0.024638202 0.42242989 4294901760
0.032767754 0.024638202 0.42292988 4294901760
0.032767754 0.024638202 0.42342991 4294901760
0.032767754 0.024638202 0.4239299 4294901760
0.032767754 0.024638202 0.42442989 4294901760
0.032767754 0.024638202 0.42492989 4294901760
0.032767754 0.024638202 0.42542988 4294901760
0.032767754 0.024638202 0.4259299 4294901760
0.032767754 0.024638202 0.4264299 4294901760
0.032767754 0.024638202 0.42692989 4294901760
0.032767754 0.024638202 0.42742988 4294901760
0.032767754 0.024638202 0.42792991 4294901760
0.032767754 0.024638202 0.4284299 4294901760
0.032767754 0.024638202 0.4289299 4294901760
0.032767754 0.024638202 0.42942989 4294901760
0.032767754 0.024638202 0.42992988 4294901760
0.032767754 0.024638202 0.43042991 4294901760
0.032767754 0.024638202 0.4309299 4294901760
0.032767754 0.024638202 0.43142989 4294901760
0.032767754 0.024638202 0.43192989 4294901760
0.032767754 0.024638202 0.43242991 4294901760
0.032767754 0.024638202 0.4329299 4294901760
0.032767754 0.024638202 0.4334299 4294901760
0.032767754 0.024638202 0.43392989 4294901760
0.032767754 0.024638202 0.43442988 4294901760
0.032767754 0.024638202 0.43492991 4294901760
0.032767754 0.024638202 0.4354299 4294901760
0.032767754 0.024638202 0.43592989 4294901760
0.032767754 0.024638202 0.43642989 4294901760
0.032767754 0.024638202 0.43692991 4294901760
0.032767754 0.024638202 0.4374299 4294901760
0.032767754 0.024638202 0.4379299 4294901760
0.032767754 0.024638202 0.43842989 4294901760
0.032767754 0.024638202 0.43892989 4294901760
0.032767754 0.024638202 0.43942991 4294901760
0.032767754 0.024638202 0.4399299 4294901760
0.032767754 0.024638202 0.4404299 4294901760
0.032767754 0.024638202 0.44092989 4294901760
0.032767754 0.024638202 0.44142991 4294901760
0.032767754 0.024638202 0.44192991 4294901760
0.032767754 0.024638202 0.4424299 4294901760
0.032767754 0.024638202 0.44292989 4294901760
0.032767754 0.024638202 0.44342989 4294901760
0.032767754 0.024638202 0.44392991 4294901760
0.032767754 0.024638202 0.4444299 4294901760
0.032767754 0.024638202 0.4449299 4294901760
0.032767754 0.024638202 0.44542989 4294901760
0.032767754 0.024638202 0.44592988 4294901760
0.032767754 0.024638202 0.44642991 4294901760
0.032767754 0.024638202 0.4469299 4294901760
0.032767754 0.024638202 0.4474299 4294901760
0.032767754 0.024638202 0.44792989 4294901760
0.032767754 0.024638202 0.44842988 4294901760
0.032767754 0.024638202 0.44892991 4294901760
0.032767754 0.024638202 0.4494299 4294901760
0.032767754 0.024638202 0.44992989 4294901760
0.032767754 0.024638202 0.45042992 4294901760
0.032767754 0.024638202 0.45092991 4294901760
0.032767754 0.024638202 0.4514299 4294901760
0.032767754 0.024638202 0.4519299 4294901760
0.032767754 0.024638202 0.45242989 4294901760
0.032767754 0.024638202 0.45292991 4294901760
0.032767754 0.024638202 0.45342991 4294901760
0.032767754 0.024638202 0.4539299 4294901760
0.032767754 0.024638202 0.40392989 4278255360
0.032557819 0.024651878 0.40438348 4278255360
0.03234788 0.024665555 0.40483707 4278255360
0.032137945 0.024679231 0.40529063 4278255360
0.03192801 0.024692906 0.40574422 4278255360
0.031718075 0.024706583 0.40619782 4278255360
0.031508137 0.024720259 0.40665141 4278255360
0.031298202 0.024733935 0.407105 4278255360
0.031088267 0.024747612 0.40755856 4278255360
0.03087833 0.024761287 0.40801215 4278255360
0.030668393 0.024774963 0.40846574 4278255360
0.030458458 0.02478864 0.40891933 4278255360
0.030248521 0.024802316 0.40937293 4278255360
0.030038586 0.024815992 0.40982649 4278255360
0.029828649 0.024829669 0.41028008 4278255360
0.029618714 0.024843344 0.41073367 4278255360
0.029408777 0.02485702 0.41118726 4278255360
0.029198842 0.024870697 0.41164085 4278255360
0.028988905 0.024884373 0.41209441 4278255360
0.02877897 0.024898048 0.41254801 4278255360
0.028569033 0.024911726 0.4130016 4278255360
0.028359096 0.024925401 0.41345519 4278255360
0.028149161 0.024939077 0.41390878 4278255360
0.027939225 0.024952754 0.41436234 4278255360
0.02772929 0.02496643 0.41481593 4278255360
0.027519353 0.024980105 0.41526952 4278255360
0.027309418 0.024993783 0.41572312 4278255360
0.027099481 0.025007458 0.41617671 4278255360
0.026889544 0.025021136 0.41663027 4278255360
0.026679609 0.025034811 0.41708386 4278255360
0.026469672 0.025048487 0.41753745 4278255360
0.026259737 0.025062164 0.41799104 4278255360
0.0260498 0.02507584 0.41844463 4278255360
0.025839865 0.025089515 0.4188982 4278255360
0.025629928 0.025103193 0.41935179 4278255360
0.025419993 0.025116868 0.41980538 4278255360
0.025210056 0.025130544 0.42025897 4278255360
0.025000121 0.025144221 0.42071256 4278255360
0.024790185 0.025157897 0.42116612 4278255360
0.024580248 0.025171572 0.42161971 4278255360
0.024370313 0.02518525 0.4220733 4278255360
0.024160378 0.025198925 0.4225269 4278255360
0.023950441 0.025212601 0.42298049 4278255360
0.023740504 0.025226278 0.42343405 4278255360
0.023530569 0.025239954 0.42388764 4278255360
0.023320634 0.025253629 0.42434123 4278255360
0.023110695 0.025267307 0.42479482 4278255360
0.02290076 0.025280982 0.42524841 4278255360
0.022690825 0.025294658 0.42570198 4278255360
0.022480888 0.025308335 0.42615557 4278255360
0.022270951 0.025322011 0.42660916 4278255360
0.022061016 0.025335686 0.42706275 4278255360
0.021851081 0.025349364 0.42751634 4278255360
0.021641145 0.025363039 0.4279699 4278255360
0.021431208 0.025376715 0.42842349 4278255360
0.021221273 0.025390392 0.42887709 4278255360
0.021011336 0.025404068 0.42933068 4278255360
0.020801399 0.025417743 0.42978427 4278255360
0.020591464 0.025431421 0.43023783 4278255360
0.020381529 0.025445096 0.43069142 4278255360
0.02017159 0.025458772 0.43114501 4278255360
0.019961655 0.025472449 0.4315986 4278255360
0.01975172 0.025486125 0.4320522 4278255360
0.019541785 0.0254998 0.43250576 4278255360
0.019331848 0.025513478 0.43295935 4278255360
0.019121911 0.025527153 0.43341294 4278255360
0.018911976 0.025540829 0.43386653 4278255360
0.018702039 0.025554506 0.43432012 4278255360
0.018492103 0.025568182 0.43477368 4278255360
0.018282168 0.025581857 0.43522727 4278255360
0.018072233 0.025595535 0.43568087 4278255360
0.017862296 0.02560921 0.43613446 4278255360
0.017652359 0.025622886 0.43658805 4278255360
0.017442424 0.025636563 0.43704161 4278255360
0.017232487 0.025650239 0.4374952 4278255360
0.017022552 0.025663916 0.43794879 4278255360
0.016812615 0.025677592 0.43840238 4278255360
0.01660268 0.025691267 0.43885598 4278255360
0.016392743 0.025704943 0.43930954 4278255360
0.016182806 0.02571862 0.43976313 4278255360
0.015972871 0.025732296 0.44021672 4278255360
0.015762934 0.025745973 0.44067031 4278255360
0.015552999 0.025759649 0.4411239 4278255360
0.015343064 0.025773324 0.44157746 4278255360
0.015133128 0.025787001 0.44203106 4278255360
0.014923191 0.025800677 0.44248465 4278255360
0.014713256 0.025814353 0.44293824 4278255360
0.014503319 0.02582803 0.44339183 4278255360
0.014293384 0.025841706 0.44384539 4278255360
0.014083447 0.025855381 0.44429898 4278255360
0.013873512 0.025869058 0.44475257 4278255360
0.013663575 0.025882734 0.44520617 4278255360
0.013453638 0.02589641 0.44565976 4278255360
0.013243703 0.025910087 0.44611332 4278255360
0.013033766 0.025923762 0.44656691 4278255360
0.012823831 0.025937438 0.4470205 4278255360
0.012613894 0.025951115 0.44747409 4278255360
0.012403958 0.025964791 0.44792768 4278255360
0.012194023 0.025978466 0.44838125 4278255360
0.011984086 0.025992144 0.44883484 4278255360
0.011774151 0.026005819 0.44928843 4278255360
