# .PCD v0.7 - Point Cloud Data file format
VERSION 0.7
FIELDS x y z rgb
SIZE 4 4 4 4
TYPE F F F U
COUNT 1 1 1 1
WIDTH 830
HEIGHT 1
VIEWPOINT 0 0 0 1 0 0 0
POINTS 830
DATA ascii
-0.0014130172 0.031357478 0.48800004 4280303393
0.00017271264 0.03148599 0.49000001 4280369186
-0.0029673243 0.032605506 0.48300001 4280042787
-0.0029488937 0.033962559 0.48000002 4279125535
-0.0013927486 0.034033313 0.48100004 4278798363
0.00016989285 0.034104068 0.48200002 4278535191
0.0017210278 0.033821046 0.47800002 4278864669
-0.0044797603 0.035300113 0.47700003 4280569393
-0.0029366068 0.035374116 0.47800002 4278993695
-0.0013840619 0.035374116 0.47800002 4278862875
0.00016883542 0.035448123 0.47900003 4278797593
0.0017174273 0.035300113 0.47700003 4278797593
0.0032735725 0.035374116 0.47800002 4278666779
-0.0044703684 0.03677268 0.47600001 4279977256
-0.0029243196 0.03677268 0.47600001 4279189791
-0.0013811664 0.036849935 0.47700003 4278796830
0.00016848295 0.036927186 0.47800002 4278731291
0.0017138268 0.03677268 0.47600001 4278731289
0.0032735725 0.036927186 0.47800002 4278533908
-0.0044797603 0.038399756 0.47700003 4279911209
-0.0029304633 0.038399756 0.47700003 4279058718
-0.0013811664 0.038399756 0.47700003 4278993695
0.00016848295 0.038480259 0.47800002 4279059488
0.0017210278 0.038480259 0.47800002 4278862877
0.0032735725 0.038480259 0.47800002 4278731289
-0.0044797603 0.039949577 0.47700003 4280306221
-0.0029304633 0.039949577 0.47700003 4279058718
-0.0013811664 0.039949577 0.47700003 4278862623
0.00016848295 0.040033329 0.47800002 4278796830
0.0017210278 0.040033329 0.47800002 4278862877
0.0032735725 0.040033329 0.47800002 4278731291
0.006031706 0.037855785 0.45200002 4278468117
0.0074998024 0.037855785 0.45200002 4278533396
0.0089678997 0.037855785 0.45200002 4278200073
0.010435997 0.037855785 0.45200002 4278398992
-0.0044797603 0.041499399 0.47700003 4279517473
-0.0029304633 0.041499399 0.47700003 4278993179
-0.0013811664 0.041499399 0.47700003 4278797084
0.00016848295 0.041586399 0.47800002 4278862877
0.0017210278 0.041586399 0.47800002 4278731291
0.0032735725 0.041586399 0.47800002 4278731291
0.0045737051 0.039411377 0.45300001 4278665496
0.006031706 0.039324377 0.45200002 4278468117
0.0074998024 0.039324377 0.45200002 4278597908
0.0089678997 0.039324377 0.45200002 4278196993
0.010412908 0.03923738 0.45100003 4279452193
0.011877757 0.03923738 0.45100003 4278795546
0.013313021 0.039150376 0.45000002 4278197511
0.01474179 0.039063375 0.44900003 4278196742
0.016164061 0.038976375 0.44800001 4278197253
0.017579837 0.038889375 0.44700003 4278198021
0.018989118 0.03880237 0.44600001 4278397195
0.020391902 0.038715374 0.44500002 4278990099
0.021788191 0.038628373 0.44400004 4279123480
0.023230303 0.038628373 0.44400004 4278729492
0.024616847 0.038541369 0.44300002 4278795796
0.035312239 0.037671361 0.43300003 4278600216
0.036718626 0.037671361 0.43300003 4278600216
0.047083426 0.036975354 0.42500001 4282479704
-0.0044234111 0.042507723 0.47100002 4279715106
-0.0029304633 0.043049224 0.47700003 4279124765
-0.0013811664 0.043049224 0.47700003 4278862877
0.00016848295 0.043139473 0.47800002 4278797084
0.0017210278 0.043139473 0.47800002 4278797084
0.0032735725 0.043139473 0.47800002 4278862877
0.0045737051 0.040883224 0.45300001 4278797084
0.0060450505 0.040883224 0.45300001 4278533910
0.0074998024 0.040792976 0.45200002 4279124250
0.0089678997 0.040792976 0.45200002 4278196738
0.010412908 0.040702727 0.45100003 4278990359
0.011877757 0.040702727 0.45100003 4278398992
0.013313021 0.040612474 0.45000002 4278589709
0.01474179 0.040522225 0.44900003 4278720525
0.016164061 0.040431976 0.44800001 4278720011
0.017579837 0.040341727 0.44700003 4278720525
0.018989118 0.040251475 0.44600001 4278786318
0.020391902 0.040161226 0.44500002 4278654732
0.021788191 0.040070977 0.44400004 4278524168
0.023230303 0.040070977 0.44400004 4278458886
0.024616847 0.039980724 0.44300002 4278262790
0.025996897 0.039890476 0.44200003 4278198534
0.027370447 0.039800227 0.44100001 4278200327
0.028737504 0.039709978 0.44000003 4278200842
0.030098066 0.039619725 0.43900001 4278793750
0.031452131 0.039529476 0.43800002 4278926103
0.032799695 0.039439224 0.43700001 4278992666
0.034140769 0.039348975 0.43600002 4278795800
0.035393793 0.039168477 0.43400002 4278533912
0.036718626 0.039078228 0.43300003 4278665498
0.038036961 0.038987976 0.43200001 4278468117
0.0393488 0.038897727 0.43100002 4278402324
0.040654145 0.038807474 0.43000001 4278533910
0.043144308 0.038536727 0.42700002 4278468630
0.044531204 0.038536727 0.42700002 4278402837
0.045918096 0.038536727 0.42700002 4278731804
0.047194213 0.038446479 0.42600003 4278731550
0.048691891 0.038536727 0.42700002 4279257894
0.060487147 0.038987976 0.43200001 4279518506
-0.0044140196 0.043944553 0.47000003 4279386400
-0.0028690279 0.043664053 0.46700001 4278928156
-0.00134642 0.043477058 0.46500003 4278797597
0.00016354831 0.043383557 0.46400002 4278731804
0.0017210278 0.044692542 0.47800002 4278468632
0.0031160575 0.042542066 0.45500001 4278666011
0.0045838016 0.042448569 0.45400003 4278731291
0.0060450505 0.042355068 0.45300001 4278533912
0.0074998024 0.042261571 0.45200002 4279124252
0.0089678997 0.042261571 0.45200002 4278196224
0.010412908 0.04216807 0.45100003 4278991383
0.01185142 0.042074572 0.45000002 4278464015
0.013313021 0.042074572 0.45000002 4278918674
0.01474179 0.041981071 0.44900003 4278458123
0.016164061 0.041887574 0.44800001 4279510811
0.017579837 0.041794073 0.44700003 4279050260
0.018989118 0.041700576 0.44600001 4278984467
0.020391902 0.041607074 0.44500002 4278458123
0.021788191 0.041513577 0.44400004 4278654732
0.023230303 0.041513577 0.44400004 4278654218
0.024616847 0.041420076 0.44300002 4278654732
0.025996897 0.041326579 0.44200003 4278459658
0.027370447 0.041233078 0.44100001 4279386402
0.028737504 0.04113958 0.44000003 4278794263
0.030166626 0.04113958 0.44000003 4279582496
0.031452131 0.040952582 0.43800002 4278661396
0.032799695 0.040859081 0.43700001 4278198275
0.034140769 0.040765584 0.43600002 4278197762
0.035393793 0.040578585 0.43400002 4278196224
0.036718626 0.040485088 0.43300003 4278195456
0.038036961 0.040391587 0.43200001 4278199817
0.0393488 0.040298089 0.43100002 4279121945
0.040654145 0.040204588 0.43000001 4279255068
0.041952994 0.040111091 0.42900002 4279124252
0.043245349 0.040017594 0.42800003 4278730005
0.044635493 0.040017594 0.42800003 4278664982
0.046025638 0.040017594 0.42800003 4278796568
0.047304995 0.039924093 0.42700002 4278665496
0.048691891 0.039924093 0.42700002 4278468117
0.050196074 0.040017594 0.42800003 4278468117
0.051586218 0.040017594 0.42800003 4278468632
0.052976359 0.040017594 0.42800003 4278468378
0.054366503 0.040017594 0.42800003 4279125795
0.055886921 0.040111091 0.42900002 4278796830
0.057280317 0.040111091 0.42900002 4278992160
0.058810472 0.040204588 0.43000001 4280440121
0.060487147 0.040391587 0.43200001 4284584819
0.061747022 0.040298089 0.43100002 4281296452
0.063293427 0.040391587 0.43200001 4279454760
-0.0044046277 0.045374881 0.46900001 4279189791
-0.0028690279 0.045181382 0.46700001 4278862623
-0.00134642 0.044987891 0.46500003 4278797343
0.00016319583 0.044794392 0.46300003 4278665757
0.0016526188 0.044407401 0.45900002 4278731804
0.003122906 0.044117156 0.45600003 4278600218
0.0045838016 0.043923661 0.45400003 4278731804
0.0060450505 0.043826912 0.45300001 4278666011
0.0075163944 0.043826912 0.45300001 4279978024
0.0089678997 0.043730162 0.45200002 4278198018
0.010412908 0.043633416 0.45100003 4278859545
0.01185142 0.043536667 0.45000002 4278199049
0.013313021 0.043536667 0.45000002 4278195464
0.01474179 0.043439921 0.44900003 4279577887
0.016164061 0.043343168 0.44800001 4278195460
0.017579837 0.043246422 0.44700003 4279249176
0.018989118 0.043149672 0.44600001 4278196488
0.020391902 0.043052927 0.44500002 4278789136
0.021788191 0.042956181 0.44400004 4278525451
0.023230303 0.042956181 0.44400004 4278393865
0.024616847 0.042859428 0.44300002 4279313686
0.025996897 0.042762682 0.44200003 4279117588
0.027370447 0.042665932 0.44100001 4278860056
0.028802816 0.042665932 0.44100001 4278728470
0.030166626 0.042569187 0.44000003 4278201099
0.031523935 0.042472437 0.43900001 4279319324
0.032874752 0.042375688 0.43800002 4278925849
0.034140769 0.042182192 0.43600002 4278991642
0.035475347 0.042085446 0.43500003 4278925849
0.036803428 0.041988697 0.43400002 4278991129
0.038125012 0.041891947 0.43300003 4279516703
0.039440095 0.041795198 0.43200001 4279516191
0.040748693 0.041698452 0.43100002 4278989847
0.042050786 0.041601703 0.43000001 4278331663
0.043346386 0.041504957 0.42900002 4278198792
0.044739779 0.041504957 0.42900002 4278196224
0.046025638 0.041408207 0.42800003 4278196480
0.047415782 0.041408207 0.42800003 4278198792
0.048805926 0.041408207 0.42800003 4278464785
0.050196074 0.041408207 0.42800003 4278991642
0.051586218 0.041408207 0.42800003 4279584549
0.053100135 0.041504957 0.42900002 4278927132
0.054493528 0.041504957 0.42900002 4278862363
0.055886921 0.041504957 0.42900002 4278796570
0.057413835 0.041601703 0.43000001 4278731291
0.058947243 0.041698452 0.43100002 4278862877
0.060347132 0.041698452 0.43100002 4278797084
0.061747022 0.041698452 0.43100002 4278665498
0.063146912 0.041698452 0.43100002 4278863390
0.064546801 0.041698452 0.43100002 4278666011
0.065946691 0.041698452 0.43100002 4278927134
-0.0044046277 0.046898708 0.46900001 4278993695
-0.0028628844 0.046598718 0.46600002 4278731037
-0.0013435245 0.046398722 0.46400002 4278796830
0.00016284335 0.046198729 0.46200001 4278731037
0.0016526188 0.045898739 0.45900002 4278731550
0.003122906 0.045598745 0.45600003 4278797343
0.0045938981 0.045498747 0.45500001 4278731804
0.0060583949 0.045398753 0.45400003 4278468632
0.0075163944 0.045298751 0.45300001 4278199817
0.0089678997 0.045198757 0.45200002 4278263304
0.010412908 0.045098759 0.45100003 4279319072
0.01185142 0.044998761 0.45000002 4278198535
0.013313021 0.044998761 0.45000002 4278590476
0.01474179 0.044898767 0.44900003 4278523916
0.016164061 0.044798765 0.44800001 4278788625
0.017579837 0.044698771 0.44700003 4278722830
0.018989118 0.044598773 0.44600001 4278196488
0.020391902 0.044498775 0.44500002 4278524683
0.021788191 0.044398781 0.44400004 4279249176
0.023230303 0.044398781 0.44400004 4278987027
0.024616847 0.044298783 0.44300002 4278392582
0.025996897 0.044198785 0.44200003 4279709723
0.027370447 0.044098787 0.44100001 4278859543
0.028802816 0.044098787 0.44100001 4278198530
0.030166626 0.043998789 0.44000003 4278459658
0.031523935 0.043898791 0.43900001 4278196486
0.032874752 0.043798797 0.43800002 4278726673
0.034219075 0.043698795 0.43700001 4278792466
0.035556898 0.043598801 0.43600002 4278266636
0.036888227 0.043498803 0.43500003 4278859543
0.038213059 0.043398805 0.43400002 4278201101
0.039531395 0.043298811 0.43300003 4278925338
0.040843233 0.043198809 0.43200001 4278992666
0.042148579 0.043098815 0.43100002 4278861080
0.043447427 0.042998817 0.43000001 4278861080
0.044844069 0.042998817 0.43000001 4279124252
0.046133172 0.042898819 0.42900002 4279189275
0.047526564 0.042898819 0.42900002 4279780645
0.048919957 0.042898819 0.42900002 4278990361
0.050313354 0.042898819 0.42900002 4280108328
0.051706742 0.042898819 0.42900002 4279186713
0.053100135 0.042898819 0.42900002 4278198536
0.054493528 0.042898819 0.42900002 4278196736
0.05601719 0.042998817 0.43000001 4279255838
0.057413835 0.042998817 0.43000001 4278993949
0.058947243 0.043098815 0.43100002 4278993949
0.060347132 0.043098815 0.43100002 4278862363
0.061747022 0.043098815 0.43100002 4278664984
0.063146912 0.043098815 0.43100002 4278533912
0.064546801 0.043098815 0.43100002 4278665498
0.065946691 0.043098815 0.43100002 4278862363
0.067190319 0.042998817 0.43000001 4279254303
-0.0044046277 0.048422538 0.46900001 4279124765
-0.0028628844 0.048112798 0.46600002 4278731291
-0.0013435245 0.047906306 0.46400002 4278928416
0.00016284335 0.047699813 0.46200001 4278862623
0.0016526188 0.047390074 0.45900002 4278665244
0.0031297544 0.047183581 0.45700002 4278796830
0.0045938981 0.046977088 0.45500001 4278468119
0.0060583949 0.046873845 0.45400003 4278533912
0.0075163944 0.046770595 0.45300001 4278925849
0.0089678997 0.046667352 0.45200002 4278791701
0.010412908 0.046564106 0.45100003 4279187738
0.01185142 0.046460856 0.45000002 4278397710
0.013283437 0.046357613 0.44900003 4278655756
0.01474179 0.046357613 0.44900003 4278852111
0.016164061 0.046254363 0.44800001 4278654732
0.017579837 0.04615112 0.44700003 4278851597
0.018989118 0.04604787 0.44600001 4278720011
0.020391902 0.045944627 0.44500002 4278785804
0.021788191 0.045841381 0.44400004 4278195205
0.023230303 0.045841381 0.44400004 4278327302
0.024616847 0.045738135 0.44300002 4278458888
0.025996897 0.045634888 0.44200003 4279841309
0.027370447 0.045531642 0.44100001 4279647775
0.028802816 0.045531642 0.44100001 4278329351
0.030166626 0.045428395 0.44000003 4279050512
0.031523935 0.045325149 0.43900001 4278327304
0.032874752 0.045221902 0.43800002 4278197763
0.034219075 0.045118652 0.43700001 4279253017
0.035556898 0.04501541 0.43600002 4278199817
0.036888227 0.044912163 0.43500003 4278529296
0.038213059 0.044808917 0.43400002 4278990361
0.039531395 0.04470567 0.43300003 4278199817
0.040843233 0.044602424 0.43200001 4278465552
0.042246372 0.044602424 0.43200001 4278728724
0.043548469 0.044499177 0.43100002 4278860826
0.044844069 0.044395931 0.43000001 4279189791
0.046240706 0.044395931 0.43000001 4279058459
0.047637347 0.044395931 0.43000001 4278992666
0.049033988 0.044395931 0.43000001 4279190045
0.050430629 0.044395931 0.43000001 4279190045
0.051827271 0.044395931 0.43000001 4279584803
0.053223912 0.044395931 0.43000001 4279452447
0.054620549 0.044395931 0.43000001 4279252506
0.05601719 0.044395931 0.43000001 4279910947
0.057547357 0.044499177 0.43100002 4279058970
0.058947243 0.044499177 0.43100002 4278993177
0.060347132 0.044499177 0.43100002 4278795798
0.061747022 0.044499177 0.43100002 4278927384
0.063146912 0.044499177 0.43100002 4278795800
0.064546801 0.044499177 0.43100002 4278466835
0.065793678 0.044395931 0.43000001 4278597908
0.067190319 0.044395931 0.43000001 4278201101
-0.0044046277 0.049946368 0.46900001 4279255838
-0.0028628844 0.049626879 0.46600002 4278664984
-0.0013435245 0.04941389 0.46400002 4278797084
0.00016284335 0.0492009 0.46200001 4278600218
0.0016562191 0.048987906 0.46000001 4279257635
0.0031297544 0.048668422 0.45700002 4278468119
0.004603995 0.048561927 0.45600003 4278533912
0.0060583949 0.048348937 0.45400003 4278402326
0.0075163944 0.048242439 0.45300001 4278200328
0.0089678997 0.048135944 0.45200002 4278464017
0.010412908 0.048029449 0.45100003 4278860826
0.01185142 0.047922954 0.45000002 4278860826
0.013313021 0.047922954 0.45000002 4279582498
0.01474179 0.047816459 0.44900003 4279909412
0.016164061 0.04770996 0.44800001 4279250969
0.017579837 0.047603469 0.44700003 4278394378
0.018989118 0.047496971 0.44600001 4278392584
0.020391902 0.047390476 0.44500002 4278654472
0.021788191 0.047283981 0.44400004 4278720779
0.023177981 0.047177486 0.44300002 4278588939
0.024616847 0.047177486 0.44300002 4278720525
0.025996897 0.047070991 0.44200003 4280104996
0.027370447 0.046964493 0.44100001 4279187224
0.028737504 0.046858002 0.44000003 4278725138
0.030166626 0.046858002 0.44000003 4278392582
0.031523935 0.046751503 0.43900001 4279249174
0.032874752 0.046645008 0.43800002 4279252506
0.034219075 0.046538509 0.43700001 4278199047
0.035556898 0.046432018 0.43600002 4278397197
0.036888227 0.046325523 0.43500003 4278397456
0.038301107 0.046325523 0.43500003 4279121945
0.039622691 0.046219025 0.43400002 4278200586
0.040937781 0.04611253 0.43300003 4279121945
0.042246372 0.046006035 0.43200001 4278331917
0.04364951 0.046006035 0.43200001 4278725138
0.044948358 0.04589954 0.43100002 4279317275
0.046348244 0.04589954 0.43100002 4278660880
0.047748134 0.04589954 0.43100002 4278199815
0.049033988 0.045793042 0.43000001 4278924566
0.050430629 0.045793042 0.43000001 4278200073
0.051827271 0.045793042 0.43000001 4279321631
0.053223912 0.045793042 0.43000001 4279124765
0.054747578 0.04589954 0.43100002 4278200329
0.056147467 0.04589954 0.43100002 4279516191
0.057547357 0.04589954 0.43100002 4279058457
0.058947243 0.04589954 0.43100002 4279124763
0.060347132 0.04589954 0.43100002 4278795798
0.061747022 0.04589954 0.43100002 4278993177
0.063146912 0.04589954 0.43100002 4278795798
0.064546801 0.04589954 0.43100002 4278598419
0.065793678 0.045793042 0.43000001 4278597906
0.067190319 0.045793042 0.43000001 4278201356
-0.0059532197 0.051689684 0.47100002 4279639303
-0.0043952363 0.051360451 0.46800002 4279515928
-0.0028628844 0.05114096 0.46600002 4279057174
-0.00134642 0.051031221 0.46500003 4279058970
0.00016319583 0.05081173 0.46300003 4278664982
0.0016562191 0.050482493 0.46000001 4278599191
0.0031366032 0.050263006 0.45800003 4278533398
0.004603995 0.050043516 0.45600003 4278599191
0.0060717394 0.049933773 0.45500001 4278533398
0.0075329873 0.049824029 0.45400003 4278730007
0.0089877397 0.049714282 0.45300001 4278861080
0.010435997 0.049604539 0.45200002 4278861080
0.011877757 0.049494796 0.45100003 4278795800
0.013313021 0.049385048 0.45000002 4278927386
0.01474179 0.049275305 0.44900003 4279058459
0.016164061 0.049165558 0.44800001 4278992666
0.017579837 0.049055815 0.44700003 4279058459
0.018989118 0.048946071 0.44600001 4278991896
0.020391902 0.048836328 0.44500002 4279254301
0.021788191 0.048726585 0.44400004 4279121179
0.023177981 0.048616838 0.44300002 4279318558
0.024616847 0.048616838 0.44300002 4279383068
0.025938079 0.048397347 0.44100001 4279778080
0.027370447 0.048397347 0.44100001 4278195200
0.028737504 0.048287604 0.44000003 4278196224
0.030098066 0.048177857 0.43900001 4278196740
0.031523935 0.048177857 0.43900001 4278789648
0.032874752 0.048068114 0.43800002 4279054357
0.034219075 0.04795837 0.43700001 4279647264
0.035556898 0.047848627 0.43600002 4279385119
0.036888227 0.047738884 0.43500003 4279450912
0.038301107 0.047738884 0.43500003 4279319326
0.039622691 0.047629137 0.43400002 4279450910
0.040937781 0.047519393 0.43300003 4279254301
0.042246372 0.047409646 0.43200001 4278991129
0.04364951 0.047409646 0.43200001 4278398224
0.045052644 0.047409646 0.43200001 4279450144
0.046348244 0.047299903 0.43100002 4278462990
0.047748134 0.047299903 0.43100002 4278199816
0.049148023 0.047299903 0.43100002 4278331402
0.050547913 0.047299903 0.43100002 4279252506
0.051947802 0.047299903 0.43100002 4278398994
0.053347688 0.047299903 0.43100002 4279058459
0.054747578 0.047299903 0.43100002 4278198273
0.056147467 0.047299903 0.43100002 4279977256
0.057547357 0.047299903 0.43100002 4279255836
0.058947243 0.047299903 0.43100002 4279190043
0.060347132 0.047299903 0.43100002 4278730005
0.061747022 0.047299903 0.43100002 4278927382
0.063146912 0.047299903 0.43100002 4278664210
0.064546801 0.047299903 0.43100002 4278598417
0.065793678 0.047190156 0.43000001 4279058459
0.067190319 0.047190156 0.43000001 4278464785
-0.0043952363 0.052881032 0.46800002 4279640586
-0.0028690279 0.052768037 0.46700001 4278655488
-0.00134642 0.052542049 0.46500003 4279119889
0.00016319583 0.052316062 0.46300003 4278792207
0.0016598196 0.052090075 0.46100003 4278728211
0.0031366032 0.051751096 0.45800003 4278794004
0.004614091 0.0516381 0.45700002 4278795287
0.0060717394 0.051412113 0.45500001 4279124252
0.0075329873 0.051299121 0.45400003 4278861080
0.0089877397 0.051186126 0.45300001 4278729494
0.010435997 0.051073134 0.45200002 4278795287
0.011877757 0.050960138 0.45100003 4278795800
0.013313021 0.050847143 0.45000002 4278993179
0.01474179 0.050734151 0.44900003 4278927386
0.016164061 0.050621156 0.44800001 4278730007
0.017579837 0.050508164 0.44700003 4278795800
0.018989118 0.050395168 0.44600001 4278927386
0.020391902 0.050282177 0.44500002 4278927386
0.021788191 0.050169185 0.44400004 4278993179
0.023177981 0.050056189 0.44300002 4278927386
0.024561279 0.049943198 0.44200003 4278992666
0.025938079 0.049830202 0.44100001 4278992666
0.027308384 0.04971721 0.44000003 4278861080
0.02867219 0.049604215 0.43900001 4278861080
0.030098066 0.049604215 0.43900001 4278991896
0.031452131 0.049491223 0.43800002 4279450910
0.032799695 0.049378227 0.43700001 4279516191
0.034219075 0.049378227 0.43700001 4279253019
0.035556898 0.049265232 0.43600002 4278198276
0.036888227 0.04915224 0.43500003 4278196224
0.038213059 0.049039245 0.43400002 4278194944
0.039622691 0.049039245 0.43400002 4278197767
0.040937781 0.048926253 0.43300003 4278331917
0.042246372 0.048813257 0.43200001 4279121433
0.04364951 0.048813257 0.43200001 4279517727
0.045052644 0.048813257 0.43200001 4279057176
0.046348244 0.048700266 0.43100002 4278991383
0.047748134 0.048700266 0.43100002 4279320348
0.049148023 0.048700266 0.43100002 4280175403
0.050547913 0.048700266 0.43100002 4279648289
0.051947802 0.048700266 0.43100002 4279584033
0.053347688 0.048700266 0.43100002 4279255068
0.054747578 0.048700266 0.43100002 4278196992
0.056147467 0.048700266 0.43100002 4279254303
0.057680875 0.048813257 0.43200001 4279190556
0.059084009 0.048813257 0.43200001 4279124763
0.060487147 0.048813257 0.43200001 4279058970
0.061747022 0.048700266 0.43100002 4278730005
0.063146912 0.048700266 0.43100002 4278927384
0.064546801 0.048700266 0.43100002 4278335247
0.065793678 0.04858727 0.43000001 4278795287
0.067190319 0.04858727 0.43000001 4278729240
0.00016354831 0.053936638 0.46400002 4278983172
0.0016598196 0.05358791 0.46100003 4278721027
0.0031434514 0.053355426 0.45900002 4278590213
0.004614091 0.053122938 0.45700002 4278723082
0.0060850838 0.053006697 0.45600003 4279052560
0.0075495797 0.052890453 0.45500001 4279054355
0.0089877397 0.052657969 0.45300001 4279186711
0.010435997 0.052541725 0.45200002 4278990359
0.011877757 0.052425485 0.45100003 4279320096
0.013313021 0.052309241 0.45000002 4279255332
0.01474179 0.052192997 0.44900003 4279058207
0.016164061 0.052076753 0.44800001 4279124513
0.017579837 0.051960513 0.44700003 4278927134
0.018989118 0.051844269 0.44600001 4279058972
0.020391902 0.051728029 0.44500002 4279058972
0.021788191 0.051611785 0.44400004 4278795800
0.023177981 0.051495541 0.44300002 4278795800
0.024561279 0.051379301 0.44200003 4278993179
0.025879264 0.051146813 0.44000003 4278730005
0.027308384 0.051146813 0.44000003 4278795798
0.02867219 0.051030569 0.43900001 4278795798
0.030029505 0.050914329 0.43800002 4278730005
0.031380318 0.050798085 0.43700001 4278730005
0.032799695 0.050798085 0.43700001 4278795798
0.034140769 0.050681841 0.43600002 4278795798
0.035475347 0.0505656 0.43500003 4278992666
0.036888227 0.0505656 0.43500003 4278795033
0.038213059 0.050449356 0.43400002 4279123228
0.039531395 0.050333116 0.43300003 4279320607
0.040937781 0.050333116 0.43300003 4279320094
0.042246372 0.050216869 0.43200001 4279516703
0.04364951 0.050216869 0.43200001 4278529296
0.045052644 0.050216869 0.43200001 4278200074
0.046455778 0.050216869 0.43200001 4278196737
0.047748134 0.050100628 0.43100002 4278196225
0.049148023 0.050100628 0.43100002 4278198025
0.050547913 0.050100628 0.43100002 4278199566
0.051947802 0.050100628 0.43100002 4279319064
0.053347688 0.050100628 0.43100002 4279516957
0.054874599 0.050216869 0.43200001 4278199303
0.056277737 0.050216869 0.43200001 4279320094
0.057680875 0.050216869 0.43200001 4279124763
0.059084009 0.050216869 0.43200001 4279058970
0.060487147 0.050216869 0.43200001 4278928154
0.061747022 0.050100628 0.43100002 4278664982
0.063146912 0.050100628 0.43100002 4278664982
0.064546801 0.050100628 0.43100002 4278533396
0.065946691 0.050100628 0.43100002 4278597908
0.067190319 0.049984384 0.43000001 4278200842
0.0060850838 0.05448829 0.45600003 4279508494
0.0075495797 0.054368794 0.45500001 4280101401
0.017540509 0.053293366 0.44600001 4279055650
0.018989118 0.053293366 0.44600001 4278990109
0.020391902 0.053173877 0.44500002 4279319842
0.021788191 0.053054389 0.44400004 4279386402
0.023230303 0.053054389 0.44400004 4279649574
0.024672417 0.053054389 0.44400004 4279386400
0.025820445 0.052456923 0.43900001 4279189791
0.027246319 0.052456923 0.43900001 4278860826
0.028606879 0.052337434 0.43800002 4279058205
0.029960943 0.052217942 0.43700001 4278729753
0.031380318 0.052217942 0.43700001 4278663960
0.032724638 0.052098449 0.43600002 4278598937
0.034062468 0.051978961 0.43500003 4278598937
0.035475347 0.051978961 0.43500003 4278533144
0.036803428 0.051859464 0.43400002 4278599191
0.038125012 0.051739976 0.43300003 4278795800
0.039531395 0.051739976 0.43300003 4278795800
0.040843233 0.051620483 0.43200001 4278992666
0.042246372 0.051620483 0.43200001 4278729494
0.04364951 0.051620483 0.43200001 4278729494
0.045052644 0.051620483 0.43200001 4278795287
0.046455778 0.051620483 0.43200001 4278861080
0.04785892 0.051620483 0.43200001 4279254814
0.049262054 0.051620483 0.43200001 4279188508
0.050665192 0.051620483 0.43200001 4279845668
0.052068327 0.051620483 0.43200001 4279779361
0.053471465 0.051620483 0.43200001 4279055125
0.054874599 0.051620483 0.43200001 4279187738
0.056277737 0.051620483 0.43200001 4279254814
0.057680875 0.051620483 0.43200001 4279255836
0.059084009 0.051620483 0.43200001 4279058970
0.060487147 0.051620483 0.43200001 4278862361
0.061890285 0.051620483 0.43200001 4278796568
0.063146912 0.051500991 0.43100002 4278467603
0.064546801 0.051500991 0.43100002 4278599189
0.065946691 0.051500991 0.43100002 4278465552
0.067190319 0.051381499 0.43000001 4279515426
0.024283435 0.053637799 0.43700001 4281356347
0.025820445 0.053883281 0.43900001 4279712035
0.027184255 0.05376054 0.43800002 4279318560
0.028541565 0.053637799 0.43700001 4279121695
0.029960943 0.053637799 0.43700001 4279319842
0.031308513 0.053515058 0.43600002 4279714600
0.032649584 0.053392321 0.43500003 4278728988
0.034062468 0.053392321 0.43500003 4279189539
0.035393793 0.053269576 0.43400002 4279124000
0.036718626 0.053146835 0.43300003 4278860828
0.038125012 0.053146835 0.43300003 4278795035
0.039531395 0.053146835 0.43300003 4278795033
0.040843233 0.053024095 0.43200001 4279123998
0.042246372 0.053024095 0.43200001 4279058205
0.04364951 0.053024095 0.43200001 4278992412
0.045052644 0.053024095 0.43200001 4278927132
0.046455778 0.053024095 0.43200001 4278795546
0.04785892 0.053024095 0.43200001 4279058718
0.049262054 0.053024095 0.43200001 4278795546
0.050665192 0.053024095 0.43200001 4279058718
0.052068327 0.053024095 0.43200001 4278992412
0.053471465 0.053024095 0.43200001 4279189021
0.054874599 0.053024095 0.43200001 4279123228
0.056277737 0.053024095 0.43200001 4278861080
0.057680875 0.053024095 0.43200001 4279124250
0.059084009 0.053024095 0.43200001 4279124250
0.060487147 0.053024095 0.43200001 4278927384
0.061890285 0.053024095 0.43200001 4278795798
0.063146912 0.052901354 0.43100002 4278598419
0.064546801 0.052901354 0.43100002 4278598419
0.065946691 0.052901354 0.43100002 4278792468
0.028476253 0.05493167 0.43600002 4284580206
0.029892383 0.05493167 0.43600002 4284843889
0.031308513 0.05493167 0.43600002 4284252522
0.032649584 0.054805681 0.43500003 4282805078
0.034062468 0.054805681 0.43500003 4281357632
0.035393793 0.054679688 0.43400002 4279975207
0.036718626 0.054553702 0.43300003 4279317275
0.038125012 0.054553702 0.43300003 4278989593
0.039440095 0.054427709 0.43200001 4279450144
0.040843233 0.054427709 0.43200001 4278990877
0.042246372 0.054427709 0.43200001 4279254303
0.04364951 0.054427709 0.43200001 4279451682
0.045052644 0.054427709 0.43200001 4279451682
0.046455778 0.054427709 0.43200001 4279649320
0.04785892 0.054427709 0.43200001 4279452711
0.049262054 0.054427709 0.43200001 4279452711
0.050665192 0.054427709 0.43200001 4279452711
0.052068327 0.054427709 0.43200001 4279255586
0.053471465 0.054427709 0.43200001 4279321377
0.054874599 0.054427709 0.43200001 4279189791
0.056277737 0.054427709 0.43200001 4279058205
0.057680875 0.054427709 0.43200001 4279124252
0.059084009 0.054427709 0.43200001 4279321631
0.060487147 0.054427709 0.43200001 4279124252
0.061890285 0.054427709 0.43200001 4279386654
0.063293427 0.054427709 0.43200001 4279123482
0.064546801 0.05430172 0.43100002 4278794004
0.065946691 0.05430172 0.43100002 4280961589
0.036718626 0.055960558 0.43300003 4284316264
0.038125012 0.055960558 0.43300003 4284842090
0.039440095 0.055831317 0.43200001 4284710504
0.040843233 0.055831317 0.43200001 4284842604
0.042246372 0.055831317 0.43200001 4284974192
0.04364951 0.055831317 0.43200001 4285303927
0.045052644 0.055831317 0.43200001 4285303927
0.046455778 0.055831317 0.43200001 4284580719
0.04785892 0.055831317 0.43200001 4284120168
0.049262054 0.055831317 0.43200001 4282607697
0.050665192 0.055831317 0.43200001 4281620802
0.052068327 0.055831317 0.43200001 4280699702
0.053471465 0.055831317 0.43200001 4279844393
0.054874599 0.055831317 0.43200001 4279318562
0.056277737 0.055831317 0.43200001 4279055390
0.057680875 0.055831317 0.43200001 4279055386
0.059084009 0.055831317 0.43200001 4279187226
0.060487147 0.055831317 0.43200001 4279515678
0.061890285 0.055831317 0.43200001 4279055127
0.063293427 0.055831317 0.43200001 4279054875
0.064696558 0.055831317 0.43200001 4282409037
0.031288099 0.046497069 0.4424122 4294967295
0.031288099 0.046497069 0.4424122 4294901760
0.031288099 0.046497069 0.44291219 4294901760
0.031288099 0.046497069 0.44341218 4294901760
0.031288099 0.046497069 0.44391221 4294901760
0.031288099 0.046497069 0.4444122 4294901760
0.031288099 0.046497069 0.4449122 4294901760
0.031288099 0.046497069 0.44541219 4294901760
0.031288099 0.046497069 0.44591221 4294901760
0.031288099 0.046497069 0.44641221 4294901760
0.031288099 0.046497069 0.4469122 4294901760
0.031288099 0.046497069 0.44741219 4294901760
0.031288099 0.046497069 0.44791219 4294901760
0.031288099 0.046497069 0.44841221 4294901760
0.031288099 0.046497069 0.4489122 4294901760
0.031288099 0.046497069 0.4494122 4294901760
0.031288099 0.046497069 0.44991219 4294901760
0.031288099 0.046497069 0.45041221 4294901760
0.031288099 0.046497069 0.45091221 4294901760
0.031288099 0.046497069 0.4514122 4294901760
0.031288099 0.046497069 0.45191219 4294901760
0.031288099 0.046497069 0.45241219 4294901760
0.031288099 0.046497069 0.45291221 4294901760
0.031288099 0.046497069 0.4534122 4294901760
0.031288099 0.046497069 0.4539122 4294901760
0.031288099 0.046497069 0.45441219 4294901760
0.031288099 0.046497069 0.45491219 4294901760
0.031288099 0.046497069 0.45541221 4294901760
0.031288099 0.046497069 0.4559122 4294901760
0.031288099 0.046497069 0.4564122 4294901760
0.031288099 0.046497069 0.45691219 4294901760
0.031288099 0.046497069 0.45741221 4294901760
0.031288099 0.046497069 0.45791221 4294901760
0.031288099 0.046497069 0.4584122 4294901760
0.031288099 0.046497069 0.45891219 4294901760
0.031288099 0.046497069 0.45941222 4294901760
0.031288099 0.046497069 0.45991221 4294901760
0.031288099 0.046497069 0.4604122 4294901760
0.031288099 0.046497069 0.4609122 4294901760
0.031288099 0.046497069 0.46141219 4294901760
0.031288099 0.046497069 0.46191221 4294901760
0.031288099 0.046497069 0.46241221 4294901760
0.031288099 0.046497069 0.4629122 4294901760
0.031288099 0.046497069 0.4634122 4294901760
0.031288099 0.046497069 0.46391219 4294901760
0.031288099 0.046497069 0.46441221 4294901760
0.031288099 0.046497069 0.46491221 4294901760
0.031288099 0.046497069 0.4654122 4294901760
0.031288099 0.046497069 0.46591219 4294901760
0.031288099 0.046497069 0.46641222 4294901760
0.031288099 0.046497069 0.46691221 4294901760
0.031288099 0.046497069 0.4674122 4294901760
0.031288099 0.046497069 0.4679122 4294901760
0.031288099 0.046497069 0.46841219 4294901760
0.031288099 0.046497069 0.46891221 4294901760
0.031288099 0.046497069 0.46941221 4294901760
0.031288099 0.046497069 0.4699122 4294901760
0.031288099 0.046497069 0.47041219 4294901760
0.031288099 0.046497069 0.47091222 4294901760
0.031288099 0.046497069 0.47141221 4294901760
0.031288099 0.046497069 0.47191221 4294901760
0.031288099 0.046497069 0.4724122 4294901760
0.031288099 0.046497069 0.47291219 4294901760
0.031288099 0.046497069 0.47341222 4294901760
0.031288099 0.046497069 0.47391221 4294901760
0.031288099 0.046497069 0.4744122 4294901760
0.031288099 0.046497069 0.4749122 4294901760
0.031288099 0.046497069 0.47541222 4294901760
0.031288099 0.046497069 0.47591221 4294901760
0.031288099 0.046497069 0.47641221 4294901760
0.031288099 0.046497069 0.4769122 4294901760
0.031288099 0.046497069 0.47741219 4294901760
0.031288099 0.046497069 0.47791222 4294901760
0.031288099 0.046497069 0.47841221 4294901760
0.031288099 0.046497069 0.4789122 4294901760
0.031288099 0.046497069 0.4794122 4294901760
0.031288099 0.046497069 0.47991222 4294901760
0.031288099 0.046497069 0.48041221 4294901760
0.031288099 0.046497069 0.48091221 4294901760
0.031288099 0.046497069 0.4814122 4294901760
0.031288099 0.046497069 0.4819122 4294901760
0.031288099 0.046497069 0.48241222 4294901760
0.031288099 0.046497069 0.48291221 4294901760
0.031288099 0.046497069 0.48341221 4294901760
0.031288099 0.046497069 0.4839122 4294901760
0.031288099 0.046497069 0.48441219 4294901760
0.031288099 0.046497069 0.48491222 4294901760
0.031288099 0.046497069 0.48541221 4294901760
0.031288099 0.046497069 0.4859122 4294901760
0.031288099 0.046497069 0.4864122 4294901760
0.031288099 0.046497069 0.48691219 4294901760
0.031288099 0.046497069 0.48741221 4294901760
0.031288099 0.046497069 0.48791221 4294901760
0.031288099 0.046497069 0.4884122 4294901760
0.031288099 0.046497069 0.48891222 4294901760
0.031288099 0.046497069 0.48941222 4294901760
0.031288099 0.046497069 0.48991221 4294901760
0.031288099 0.046497069 0.49041221 4294901760
0.031288099 0.046497069 0.4909122 4294901760
0.031288099 0.046497069 0.49141222 4294901760
0.031288099 0.046497069 0.49191222 4294901760
0.031288099 0.046497069 0.49241221 4294901760
0.031288099 0.046497069 0.4424122 4278255360
0.031545639 0.046471175 0.44283998 4278255360
0.03180318 0.046445277 0.44326776 4278255360
0.03206072 0.046419382 0.44369557 4278255360
0.032318257 0.046393488 0.44412336 4278255360
0.032575797 0.046367593 0.44455114 4278255360
0.032833338 0.046341695 0.44497892 4278255360
0.033090878 0.0463158 0.44540671 4278255360
0.033348419 0.046289906 0.44583449 4278255360
0.033605959 0.046264008 0.4462623 4278255360
0.0338635 0.046238113 0.44669008 4278255360
0.034121037 0.046212219 0.44711787 4278255360
0.034378577 0.04618632 0.44754565 4278255360
0.034636118 0.046160426 0.44797343 4278255360
0.034893658 0.046134531 0.44840124 4278255360
0.035151199 0.046108633 0.44882903 4278255360
0.035408739 0.046082739 0.44925681 4278255360
0.035666279 0.046056844 0.44968459 4278255360
0.035923816 0.04603095 0.45011237 4278255360
0.036181357 0.046005052 0.45054016 4278255360
0.036438897 0.045979157 0.45096797 4278255360
0.036696438 0.045953263 0.45139575 4278255360
0.036953978 0.045927364 0.45182353 4278255360
0.037211519 0.04590147 0.45225132 4278255360
0.037469056 0.045875575 0.4526791 4278255360
0.037726596 0.045849681 0.45310688 4278255360
0.037984136 0.045823783 0.45353469 4278255360
0.038241677 0.045797888 0.45396248 4278255360
0.038499217 0.045771994 0.45439026 4278255360
0.038756758 0.045746095 0.45481804 4278255360
0.039014298 0.045720201 0.45524582 4278255360
0.039271835 0.045694306 0.45567364 4278255360
0.039529376 0.045668408 0.45610142 4278255360
0.039786916 0.045642514 0.4565292 4278255360
0.040044457 0.045616619 0.45695698 4278255360
0.040301997 0.045590721 0.45738477 4278255360
0.040559538 0.045564827 0.45781255 4278255360
0.040817074 0.045538932 0.45824036 4278255360
0.041074615 0.045513038 0.45866814 4278255360
0.041332155 0.045487139 0.45909593 4278255360
0.041589696 0.045461245 0.45952371 4278255360
0.041847236 0.04543535 0.45995149 4278255360
0.042104773 0.045409452 0.4603793 4278255360
0.042362317 0.045383558 0.46080709 4278255360
0.042619854 0.045357663 0.46123487 4278255360
0.042877395 0.045331769 0.46166265 4278255360
0.043134935 0.04530587 0.46209043 4278255360
0.043392476 0.045279976 0.46251822 4278255360
0.043650016 0.045254081 0.46294603 4278255360
0.043907557 0.045228183 0.46337381 4278255360
0.044165097 0.045202289 0.46380159 4278255360
0.044422634 0.045176394 0.46422938 4278255360
0.044680174 0.045150496 0.46465716 4278255360
0.044937715 0.045124602 0.46508497 4278255360
0.045195255 0.045098707 0.46551275 4278255360
0.045452796 0.045072809 0.46594054 4278255360
0.045710333 0.045046914 0.46636832 4278255360
0.045967877 0.04502102 0.4667961 4278255360
0.046225414 0.044995125 0.46722388 4278255360
0.046482954 0.044969227 0.4676517 4278255360
0.046740495 0.044943333 0.46807948 4278255360
0.046998035 0.044917438 0.46850726 4278255360
0.047255576 0.04489154 0.46893504 4278255360
0.047513112 0.044865645 0.46936283 4278255360
0.047770657 0.044839751 0.46979064 4278255360
0.048028193 0.044813856 0.47021842 4278255360
0.048285738 0.044787958 0.4706462 4278255360
0.048543274 0.044762064 0.47107399 4278255360
0.048800815 0.044736169 0.47150177 4278255360
0.049058355 0.044710271 0.47192955 4278255360
0.049315892 0.044684377 0.47235736 4278255360
0.049573433 0.044658482 0.47278515 4278255360
0.049830973 0.044632584 0.47321293 4278255360
0.050088514 0.044606689 0.47364071 4278255360
0.050346054 0.044580795 0.47406849 4278255360
0.050603595 0.044554897 0.4744963 4278255360
0.050861135 0.044529002 0.47492409 4278255360
0.051118672 0.044503108 0.47535187 4278255360
0.051376212 0.044477213 0.47577965 4278255360
0.051633753 0.044451315 0.47620744 4278255360
0.051891293 0.04442542 0.47663522 4278255360
0.052148834 0.044399526 0.47706303 4278255360
0.052406371 0.044373628 0.47749081 4278255360
0.052663915 0.044347733 0.4779186 4278255360
0.052921452 0.044321839 0.47834638 4278255360
0.053178996 0.044295944 0.47877416 4278255360
0.053436533 0.044270046 0.47920197 4278255360
0.053694073 0.044244152 0.47962976 4278255360
0.053951614 0.044218257 0.48005754 4278255360
0.05420915 0.044192359 0.48048532 4278255360
0.054466695 0.044166464 0.4809131 4278255360
0.054724231 0.04414057 0.48134089 4278255360
0.054981776 0.044114672 0.4817687 4278255360
0.055239312 0.044088777 0.48219648 4278255360
0.055496853 0.044062883 0.48262426 4278255360
0.055754393 0.044036984 0.48305205 4278255360
0.05601193 0.04401109 0.48347983 4278255360
0.056269474 0.043985195 0.48390764 4278255360
0.056527011 0.043959301 0.48433542 4278255360
0.056784552 0.043933403 0.48476321 4278255360
0.057042092 0.043907508 0.48519099 4278255360
