# .PCD v0.7 - Point Cloud Data file format
VERSION 0.7
FIELDS x y z rgb
SIZE 4 4 4 4
TYPE F F F U
COUNT 1 1 1 1
WIDTH 1044
HEIGHT 1
VIEWPOINT 0 0 0 1 0 0 0
POINTS 1044
DATA ascii
0.025851065 0.039508041 0.36000001 4278327304
0.027095402 0.039617784 0.36100003 4278195203
0.028267931 0.039617784 0.36100003 4278854927
0.029522011 0.039727528 0.36200002 4278524166
0.030697789 0.039727528 0.36200002 4278655754
0.031873565 0.039727528 0.36200002 4279182098
0.033049341 0.039727528 0.36200002 4278721549
0.034319662 0.039837271 0.36300001 4279118099
0.035498686 0.039837271 0.36300001 4278857746
0.036677711 0.039837271 0.36300001 4278530578
0.037856735 0.039837271 0.36300001 4278199044
0.03903576 0.039837271 0.36300001 4278196482
0.040214784 0.039837271 0.36300001 4278593552
0.041393809 0.039837271 0.36300001 4278727187
0.042690117 0.039947018 0.36400002 4278200586
0.04387239 0.039947018 0.36400002 4278727187
0.045054659 0.039947018 0.36400002 4278727187
0.046236932 0.039947018 0.36400002 4278727187
0.047419205 0.039947018 0.36400002 4278858773
0.048601482 0.039947018 0.36400002 4278858773
0.049920518 0.040056761 0.36500001 4278924566
0.051106039 0.040056761 0.36500001 4278924566
0.052291561 0.040056761 0.36500001 4278727187
0.053623598 0.040166508 0.36600003 4278727187
0.054812364 0.040166508 0.36600003 4278924566
0.056001134 0.040166508 0.36600003 4279253017
0.057814926 0.040605485 0.37 4279186711
0.058697678 0.040385999 0.36800003 4279318297
0.060218446 0.040605485 0.37 4279055125
0.061752211 0.040824972 0.37200001 4279055127
0.062960461 0.040824972 0.37200001 4279185943
0.064341217 0.040934719 0.37300003 4278394376
0.065728471 0.041044462 0.37400001 4278726675
0.066943221 0.041044462 0.37400001 4278597908
0.068340212 0.04115421 0.37500003 4278400529
0.069743708 0.041263953 0.37600002 4278663701
0.070964955 0.041263953 0.37600002 4278531345
0.072186202 0.041263953 0.37600002 4278729494
0.073602676 0.041373696 0.377 4278663701
0.074827179 0.041373696 0.377 4278858521
-0.015492473 0.041807652 0.37 4282865484
-0.014290712 0.041807652 0.37 4281944384
-0.011855063 0.04169466 0.36900002 4280101666
-0.010627672 0.041581668 0.36800003 4280231967
-0.0093811434 0.041355681 0.36600003 4280561186
-0.008169991 0.041242685 0.36500001 4280100635
-0.006965335 0.04112969 0.36400002 4279772440
-0.0057671745 0.041016694 0.36300001 4279510293
-0.004575511 0.040903702 0.36200002 4279445781
-0.0033903427 0.040790711 0.36100003 4279317529
-0.0022116704 0.040677715 0.36000001 4279121431
-0.0010423897 0.040677715 0.36000001 4278859797
0.00012689093 0.040677715 0.36000001 4278860310
0.0012925711 0.040564723 0.35900003 4278729494
0.0024586036 0.040564723 0.35900003 4278730007
0.0036246362 0.040564723 0.35900003 4278598419
0.0047906693 0.040564723 0.35900003 4278532626
0.0059567015 0.040564723 0.35900003 4278466833
0.0071227346 0.040564723 0.35900003 4278664212
0.0082887672 0.040564723 0.35900003 4278466833
0.0094547998 0.040564723 0.35900003 4278466833
0.010620832 0.040564723 0.35900003 4278532626
0.011786866 0.040564723 0.35900003 4278466833
0.012952897 0.040564723 0.35900003 4278664212
0.01411893 0.040564723 0.35900003 4278861078
0.015284963 0.040564723 0.35900003 4278461966
0.016450996 0.040564723 0.35900003 4278262794
0.017617028 0.040564723 0.35900003 4278596371
0.018783061 0.040564723 0.35900003 4278859543
0.019949093 0.040564723 0.35900003 4278458377
0.021115126 0.040564723 0.35900003 4279379479
0.022343224 0.040677715 0.36000001 4278328074
0.023512503 0.040677715 0.36000001 4279709725
0.024681784 0.040677715 0.36000001 4279314197
0.025851065 0.040677715 0.36000001 4278195205
0.027095402 0.040790711 0.36100003 4278787853
0.028267931 0.040790711 0.36100003 4278328070
0.029522011 0.040903702 0.36200002 4278654986
0.030697789 0.040903702 0.36200002 4279445783
0.031873565 0.040903702 0.36200002 4278195972
0.033140637 0.041016694 0.36300001 4278392584
0.034319662 0.041016694 0.36300001 4278789648
0.035498686 0.041016694 0.36300001 4278989845
0.036778755 0.04112969 0.36400002 4278330380
0.037961025 0.04112969 0.36400002 4278328072
0.039143298 0.04112969 0.36400002 4278458377
0.040325571 0.04112969 0.36400002 4278524681
0.041507844 0.04112969 0.36400002 4278198533
0.042690117 0.04112969 0.36400002 4278989847
0.043992914 0.041242685 0.36500001 4278593806
0.045178436 0.041242685 0.36500001 4278857746
0.046363954 0.041242685 0.36500001 4278198788
0.047549479 0.041242685 0.36500001 4278726160
0.048735 0.041242685 0.36500001 4278266124
0.050057288 0.041355681 0.36600003 4278530580
0.051246058 0.041355681 0.36600003 4278465298
0.052434828 0.041355681 0.36600003 4278465298
0.05377011 0.041468672 0.36700001 4278531091
0.054962121 0.041468672 0.36700001 4278531091
0.056307152 0.041581668 0.36800003 4278399759
0.057814926 0.041807652 0.37 4278662931
0.059016682 0.041807652 0.37 4278728209
0.0603812 0.041920647 0.37100002 4278596623
0.061752211 0.042033639 0.37200001 4278859797
0.063129716 0.042146634 0.37300003 4278794004
0.064513713 0.042259626 0.37400001 4278592269
0.065728471 0.042259626 0.37400001 4279317529
0.067122221 0.042372622 0.37500003 4278728724
0.068522453 0.042485613 0.37600002 4278794517
0.069743708 0.042485613 0.37600002 4278926103
0.071153685 0.042598605 0.377 4278728724
0.072378181 0.042598605 0.377 4278465552
0.073602676 0.042598605 0.377 4278399759
0.075025663 0.042711601 0.37800002 4278398224
-0.017895993 0.043009818 0.37 4280036125
-0.015492473 0.043009818 0.37 4285433466
-0.014290712 0.043009818 0.37 4285433466
-0.013053576 0.042893577 0.36900002 4284774253
-0.011822936 0.042777337 0.36800003 4282339142
-0.010598792 0.042661093 0.36700001 4279443223
-0.0093811434 0.042544849 0.36600003 4279837211
-0.0081476076 0.042312365 0.36400002 4280034842
-0.0069461991 0.042196121 0.36300001 4279838233
-0.0057512871 0.042079877 0.36200002 4279445268
-0.0045628715 0.041963637 0.36100003 4279446805
-0.0033903427 0.041963637 0.36100003 4279120918
-0.0022116704 0.041847393 0.36000001 4278924566
-0.0010423897 0.041847393 0.36000001 4278794004
0.00012689093 0.041847393 0.36000001 4278794517
0.0012925711 0.041731153 0.35900003 4278861080
0.0024586036 0.041731153 0.35900003 4278795287
0.0036246362 0.041731153 0.35900003 4278598419
0.0047906693 0.041731153 0.35900003 4278532626
0.0059567015 0.041731153 0.35900003 4278598419
0.0071227346 0.041731153 0.35900003 4278466833
0.0083118556 0.041847393 0.36000001 4278532626
0.0094547998 0.041731153 0.35900003 4278466833
0.010620832 0.041731153 0.35900003 4278466833
0.011786866 0.041731153 0.35900003 4278730005
0.012952897 0.041731153 0.35900003 4278532628
0.01411893 0.041731153 0.35900003 4278597908
0.015284963 0.041731153 0.35900003 4278196742
0.016450996 0.041731153 0.35900003 4278195717
0.017617028 0.041731153 0.35900003 4278727189
0.018783061 0.041731153 0.35900003 4278990361
0.019949093 0.041731153 0.35900003 4278524170
0.021115126 0.041731153 0.35900003 4278588939
0.022343224 0.041847393 0.36000001 4278720011
0.023512503 0.041847393 0.36000001 4278391300
0.024681784 0.041847393 0.36000001 4278654472
0.025922874 0.041963637 0.36100003 4278654472
0.027095402 0.041963637 0.36100003 4278654472
0.028267931 0.041963637 0.36100003 4278523146
0.029522011 0.042079877 0.36200002 4278392584
0.030697789 0.042079877 0.36200002 4278986002
0.031961612 0.042196121 0.36300001 4279249687
0.033140637 0.042196121 0.36300001 4278195205
0.034319662 0.042196121 0.36300001 4279053590
0.035596479 0.042312365 0.36400002 4278989847
0.036778755 0.042312365 0.36400002 4278196484
0.037961025 0.042312365 0.36400002 4278523398
0.039143298 0.042312365 0.36400002 4278786318
0.040436354 0.042428605 0.36500001 4278656269
0.041621875 0.042428605 0.36500001 4278195968
0.042807397 0.042428605 0.36500001 4279055640
0.043992914 0.042428605 0.36500001 4278857748
0.045302216 0.042544849 0.36600003 4278462220
0.046490982 0.042544849 0.36600003 4278726162
0.047679752 0.042544849 0.36600003 4278923539
0.048868522 0.042544849 0.36600003 4278331404
0.050194055 0.042661093 0.36700001 4278396173
0.051386073 0.042661093 0.36700001 4278330634
0.052578092 0.042661093 0.36700001 4278396427
0.053916626 0.042777337 0.36800003 4278198537
0.055111885 0.042777337 0.36800003 4278198280
0.056460157 0.042893577 0.36900002 4278198793
0.057971187 0.043126062 0.37100002 4278529296
0.059176192 0.043126062 0.37100002 4278199817
0.060543951 0.043242306 0.37200001 4278198533
0.061918214 0.043358549 0.37300003 4278661648
0.063129716 0.043358549 0.37300003 4278530832
0.064513713 0.04347479 0.37400001 4278197510
0.065904215 0.043591034 0.37500003 4278923541
0.067122221 0.043591034 0.37500003 4278794263
0.068522453 0.043707278 0.37600002 4278728724
0.06992919 0.043823518 0.377 4278531345
0.071153685 0.043823518 0.377 4278728724
0.072378181 0.043823518 0.377 4278728724
0.073797919 0.043939762 0.37800002 4278728724
0.075025663 0.043939762 0.37800002 4278595089
-0.013053576 0.044092495 0.36900002 4284972913
-0.011822936 0.043973006 0.36800003 4284709741
-0.010598792 0.04385351 0.36700001 4284710254
-0.0093555115 0.043614529 0.36500001 4283393881
-0.0081476076 0.043495037 0.36400002 4279443221
-0.0069461991 0.043375544 0.36300001 4279772699
-0.0057512871 0.043256052 0.36200002 4279314967
-0.0045628715 0.043136563 0.36100003 4279184660
-0.003380951 0.043017067 0.36000001 4279121431
-0.0022116704 0.043017067 0.36000001 4279056406
-0.0010423897 0.043017067 0.36000001 4278662931
0.00012689093 0.043017067 0.36000001 4278663701
0.0012925711 0.042897578 0.35900003 4278927386
0.0024586036 0.042897578 0.35900003 4278664214
0.0036246362 0.042897578 0.35900003 4278532628
0.0048040138 0.043017067 0.36000001 4278466835
0.0059732939 0.043017067 0.36000001 4278664212
0.0071425745 0.043017067 0.36000001 4278335247
0.0083118556 0.043017067 0.36000001 4278598419
0.0094811358 0.043017067 0.36000001 4278532626
0.010650417 0.043017067 0.36000001 4278532628
0.011819698 0.043017067 0.36000001 4278664214
0.012952897 0.042897578 0.35900003 4278597908
0.01411893 0.042897578 0.35900003 4278597908
0.015284963 0.042897578 0.35900003 4279054103
0.016450996 0.042897578 0.35900003 4279250199
0.017617028 0.042897578 0.35900003 4278990359
0.018783061 0.042897578 0.35900003 4279319324
0.019949093 0.042897578 0.35900003 4278391560
0.021173943 0.043017067 0.36000001 4278785804
0.022343224 0.043017067 0.36000001 4278785291
0.023512503 0.043017067 0.36000001 4278785291
0.024681784 0.043017067 0.36000001 4278719498
0.025922874 0.043136563 0.36100003 4278785291
0.027095402 0.043136563 0.36100003 4278719498
0.028346235 0.043256052 0.36200002 4278654218
0.029522011 0.043256052 0.36200002 4278522634
0.030697789 0.043256052 0.36200002 4278522634
0.031961612 0.043375544 0.36300001 4278523146
0.033140637 0.043375544 0.36300001 4278588939
0.034414209 0.043495037 0.36400002 4278791701
0.035596479 0.043495037 0.36400002 4278596373
0.036778755 0.043495037 0.36400002 4278789134
0.037961025 0.043495037 0.36400002 4278654470
0.039250832 0.043614529 0.36500001 4278588939
0.040436354 0.043614529 0.36500001 4279249174
0.041621875 0.043614529 0.36500001 4278725138
0.04292468 0.043734021 0.36600003 4278196992
0.044113446 0.043734021 0.36600003 4278264841
0.045302216 0.043734021 0.36600003 4279054357
0.046490982 0.043734021 0.36600003 4278462220
0.047810022 0.04385351 0.36700001 4278725392
0.04900204 0.04385351 0.36700001 4278660369
0.050194055 0.04385351 0.36700001 4278660369
0.051526092 0.043973006 0.36800003 4278658316
0.052721359 0.043973006 0.36800003 4278197765
0.053916626 0.043973006 0.36800003 4279250199
0.055261642 0.044092495 0.36900002 4278790418
0.056613166 0.044211987 0.37 4278857494
0.057971187 0.04433148 0.37100002 4278396945
0.059335694 0.044450969 0.37200001 4278790418
0.060543951 0.044450969 0.37200001 4278198024
0.061918214 0.044570465 0.37300003 4278595601
0.063298963 0.044689953 0.37400001 4278595601
0.064513713 0.044689953 0.37400001 4278194176
0.065904215 0.044809449 0.37500003 4279055640
0.067301206 0.044928938 0.37600002 4278794263
0.068522453 0.044928938 0.37600002 4278729240
0.06992919 0.045048431 0.377 4278400275
0.071153685 0.045048431 0.377 4278532115
0.072570167 0.045167923 0.37800002 4278795285
0.073797919 0.045167923 0.37800002 4278794515
0.075025663 0.045167923 0.37800002 4279384092
-0.0093298806 0.044677708 0.36400002 4284052324
-0.0081252242 0.044554967 0.36300001 4284445799
-0.0069270642 0.044432227 0.36200002 4280497706
-0.0057353997 0.044309489 0.36100003 4279446555
-0.0045628715 0.044309489 0.36100003 4279053592
-0.003380951 0.044186745 0.36000001 4279121431
-0.0022116704 0.044186745 0.36000001 4279056406
-0.0010423897 0.044186745 0.36000001 4278728724
0.00012653845 0.044064008 0.35900003 4278926103
0.0012925711 0.044064008 0.35900003 4278795800
0.0024654521 0.044186745 0.36000001 4278598421
0.0036347327 0.044186745 0.36000001 4278664212
0.0048040138 0.044186745 0.36000001 4278532626
0.0059732939 0.044186745 0.36000001 4278664212
0.0071425745 0.044186745 0.36000001 4278598419
0.0083118556 0.044186745 0.36000001 4278466833
0.0094811358 0.044186745 0.36000001 4278664212
0.010650417 0.044186745 0.36000001 4278598419
0.011819698 0.044186745 0.36000001 4278664212
0.012988977 0.044186745 0.36000001 4278597906
0.01411893 0.044064008 0.35900003 4278201095
0.015284963 0.044064008 0.35900003 4278528013
0.016450996 0.044064008 0.35900003 4278264587
0.017617028 0.044064008 0.35900003 4278924820
0.018783061 0.044064008 0.35900003 4278924820
0.019949093 0.044064008 0.35900003 4279384092
0.021173943 0.044186745 0.36000001 4279119383
0.022343224 0.044186745 0.36000001 4279314967
0.023512503 0.044186745 0.36000001 4278920209
0.024681784 0.044186745 0.36000001 4278918928
0.025922874 0.044309489 0.36100003 4278656269
0.027095402 0.044309489 0.36100003 4278194951
0.028346235 0.044432227 0.36200002 4278325767
0.029522011 0.044432227 0.36200002 4278456839
0.030697789 0.044432227 0.36200002 4278720011
0.031961612 0.044554967 0.36300001 4278654220
0.033140637 0.044554967 0.36300001 4278391560
0.034414209 0.044677708 0.36400002 4278988310
0.035596479 0.044677708 0.36400002 4278462990
0.036778755 0.044677708 0.36400002 4278922771
0.038065314 0.044800449 0.36500001 4279382555
0.039250832 0.044800449 0.36500001 4278987799
0.040436354 0.044800449 0.36500001 4279317277
0.04173591 0.044923194 0.36600003 4279186713
0.04292468 0.044923194 0.36600003 4279055127
0.044113446 0.044923194 0.36600003 4278989847
0.045302216 0.044923194 0.36600003 4279055640
0.046618003 0.045045931 0.36700001 4278858261
0.047810022 0.045045931 0.36700001 4278858261
0.04900204 0.045045931 0.36700001 4278989847
0.050330825 0.045168675 0.36800003 4279055638
0.051526092 0.045168675 0.36800003 4279055638
0.052721359 0.045168675 0.36800003 4278792466
0.054063134 0.045291413 0.36900002 4279120918
0.055411402 0.045414153 0.37 4279120918
0.056613166 0.045414153 0.37 4278726421
0.057971187 0.045536898 0.37100002 4278989593
0.059335694 0.045659635 0.37200001 4278198537
0.060706709 0.04578238 0.37300003 4278197510
0.062084213 0.045905117 0.37400001 4278661396
0.063298963 0.045905117 0.37400001 4278858775
0.064686216 0.046027862 0.37500003 4278198281
0.065904215 0.046027862 0.37500003 4279056154
0.067301206 0.046150602 0.37600002 4278531861
0.068522453 0.046150602 0.37600002 4278663447
0.06992919 0.04627334 0.377 4278531861
0.071153685 0.04627334 0.377 4278597908
0.072570167 0.046396084 0.37800002 4278795287
0.073797919 0.046396084 0.37800002 4278860310
0.075025663 0.046396084 0.37800002 4279054873
-0.0093042487 0.045734394 0.36300001 4284314983
-0.0081252242 0.045734394 0.36300001 4283986018
-0.0069270642 0.045608405 0.36200002 4284512362
-0.0057353997 0.045482416 0.36100003 4280039465
-0.0045502316 0.045356423 0.36000001 4278987547
-0.003380951 0.045356423 0.36000001 4279186972
-0.0022116704 0.045356423 0.36000001 4279121947
-0.0010423897 0.045356423 0.36000001 4278860056
0.00012689093 0.045356423 0.36000001 4278925849
0.0012961716 0.045356423 0.36000001 4278992412
0.0024654521 0.045356423 0.36000001 4278663960
0.0036347327 0.045356423 0.36000001 4278466835
0.0048040138 0.045356423 0.36000001 4278598421
0.0059732939 0.045356423 0.36000001 4278598421
0.0071425745 0.045356423 0.36000001 4278532628
0.0083118556 0.045356423 0.36000001 4278532628
0.0094811358 0.045356423 0.36000001 4278532628
0.010650417 0.045356423 0.36000001 4278663701
0.011819698 0.045356423 0.36000001 4278663699
0.012988977 0.045356423 0.36000001 4278663699
0.014158258 0.045356423 0.36000001 4278728724
0.015284963 0.045230437 0.35900003 4279253019
0.016450996 0.045230437 0.35900003 4278858261
0.017617028 0.045230437 0.35900003 4278859543
0.018783061 0.045230437 0.35900003 4278925590
0.020004662 0.045356423 0.36000001 4278926103
0.021173943 0.045356423 0.36000001 4278926103
0.022343224 0.045356423 0.36000001 4278925336
0.023512503 0.045356423 0.36000001 4278991129
0.024750346 0.045482416 0.36100003 4279319324
0.025922874 0.045482416 0.36100003 4279187738
0.027095402 0.045482416 0.36100003 4278990359
0.028346235 0.045608405 0.36200002 4278990359
0.029522011 0.045608405 0.36200002 4279187226
0.030697789 0.045608405 0.36200002 4279187226
0.031961612 0.045734394 0.36300001 4279120920
0.033140637 0.045734394 0.36300001 4279252506
0.034414209 0.045860387 0.36400002 4279252506
0.035596479 0.045860387 0.36400002 4278923287
0.036879793 0.045986373 0.36500001 4278988310
0.038065314 0.045986373 0.36500001 4278725140
0.039250832 0.045986373 0.36500001 4278395662
0.040436354 0.045986373 0.36500001 4278527246
0.04173591 0.046112366 0.36600003 4278197256
0.04292468 0.046112366 0.36600003 4278195971
0.044113446 0.046112366 0.36600003 4278195457
0.045425989 0.046238355 0.36700001 4278194944
0.046618003 0.046238355 0.36700001 4278194432
0.047810022 0.046238355 0.36700001 4278194176
0.049135566 0.046364348 0.36800003 4278194176
0.050330825 0.046364348 0.36800003 4278197510
0.051526092 0.046364348 0.36800003 4278395914
0.052864619 0.046490334 0.36900002 4278462220
0.054063134 0.046490334 0.36900002 4279185943
0.055411402 0.046616323 0.37 4278988564
0.056766175 0.046742316 0.37100002 4278858261
0.058127441 0.046868306 0.37200001 4279055640
0.059335694 0.046868306 0.37200001 4278858261
0.060706709 0.046994295 0.37300003 4279187224
0.062084213 0.047120284 0.37400001 4278858259
0.063298963 0.047120284 0.37400001 4278858259
0.064686216 0.047246277 0.37500003 4278197512
0.065904215 0.047246277 0.37500003 4278924568
0.067301206 0.047372267 0.37600002 4278597908
0.068522453 0.047372267 0.37600002 4278729494
0.06992919 0.047498256 0.377 4278729494
0.071153685 0.047498256 0.377 4278597908
0.072570167 0.047624245 0.37800002 4278334736
0.073797919 0.047624245 0.37800002 4278992666
0.075025663 0.047624245 0.37800002 4281817159
-0.0069079287 0.046655338 0.36100003 4283789152
-0.0057195118 0.046526097 0.36000001 4283394394
-0.0045502316 0.046526097 0.36000001 4284249703
-0.003380951 0.046526097 0.36000001 4280828981
-0.0022116704 0.046526097 0.36000001 4278987547
-0.0010394942 0.046396859 0.35900003 4279121695
0.00012689093 0.046526097 0.36000001 4279254562
0.0012961716 0.046526097 0.36000001 4279320609
0.0024654521 0.046526097 0.36000001 4279124000
0.0036347327 0.046526097 0.36000001 4279058207
0.0048040138 0.046526097 0.36000001 4278992412
0.0059898864 0.046655338 0.36100003 4278663447
0.0071624154 0.046655338 0.36100003 4278795287
0.008334944 0.046655338 0.36100003 4278663701
0.0095074726 0.046655338 0.36100003 4278729494
0.010650417 0.046526097 0.36000001 4278729494
0.011819698 0.046526097 0.36000001 4278334736
0.012988977 0.046526097 0.36000001 4278399759
0.014158258 0.046526097 0.36000001 4278728724
0.015327539 0.046526097 0.36000001 4278793750
0.016450996 0.046396859 0.35900003 4278925336
0.017617028 0.046396859 0.35900003 4278793750
0.018835381 0.046526097 0.36000001 4278728470
0.020004662 0.046526097 0.36000001 4278597654
0.021173943 0.046526097 0.36000001 4278795287
0.022343224 0.046526097 0.36000001 4278728724
0.023512503 0.046526097 0.36000001 4278794517
0.024750346 0.046655338 0.36100003 4278926103
0.025922874 0.046655338 0.36100003 4278794517
0.027095402 0.046655338 0.36100003 4278728724
0.028346235 0.046784576 0.36200002 4278860310
0.029522011 0.046784576 0.36200002 4278794517
0.030697789 0.046784576 0.36200002 4278794517
0.031961612 0.046913814 0.36300001 4278794004
0.033140637 0.046913814 0.36300001 4278794004
0.034414209 0.047043055 0.36400002 4278859797
0.035596479 0.047043055 0.36400002 4278859797
0.036879793 0.047172293 0.36500001 4278991129
0.038065314 0.047172293 0.36500001 4278859543
0.039250832 0.047172293 0.36500001 4278793750
0.04054714 0.047301535 0.36600003 4278793750
0.04173591 0.047301535 0.36600003 4278990359
0.04292468 0.047301535 0.36600003 4278990359
0.044113446 0.047301535 0.36600003 4278858773
0.045425989 0.047430772 0.36700001 4279187226
0.046618003 0.047430772 0.36700001 4279121433
0.047810022 0.047430772 0.36700001 4279055127
0.049135566 0.047560014 0.36800003 4279252506
0.050330825 0.047560014 0.36800003 4279317529
0.051526092 0.047560014 0.36800003 4279646494
0.052864619 0.047689252 0.36900002 4278922771
0.054063134 0.047689252 0.36900002 4279119383
0.055411402 0.047818489 0.37 4278658834
0.056766175 0.047947731 0.37100002 4278723855
0.058127441 0.048076969 0.37200001 4278196997
0.059335694 0.048076969 0.37200001 4278195200
0.060706709 0.04820621 0.37300003 4278195714
0.062084213 0.048335448 0.37400001 4278195201
0.063298963 0.048335448 0.37400001 4278195971
0.064686216 0.048464689 0.37500003 4279055386
0.065904215 0.048464689 0.37500003 4278859543
0.067301206 0.048593923 0.37600002 4278861080
0.068522453 0.048593923 0.37600002 4278597908
0.06992919 0.048723161 0.377 4278729494
0.071153685 0.048723161 0.377 4278663701
0.072570167 0.048852403 0.37800002 4278795287
0.073797919 0.048852403 0.37800002 4278991642
-0.0057195118 0.047695778 0.36000001 4283789154
-0.0045502316 0.047695778 0.36000001 4284052326
-0.0033715598 0.047563292 0.35900003 4284315496
-0.0022055269 0.047563292 0.35900003 4284710768
-0.0010394942 0.047563292 0.35900003 4284448620
0.00012689093 0.047695778 0.36000001 4281027897
0.0012961716 0.047695778 0.36000001 4279185693
0.0024654521 0.047695778 0.36000001 4278857498
0.0036347327 0.047695778 0.36000001 4279121183
0.0048173582 0.047828268 0.36100003 4279581730
0.0059898864 0.047828268 0.36100003 4279188769
0.0071624154 0.047828268 0.36100003 4279189023
0.008334944 0.047828268 0.36100003 4279189021
0.0095074726 0.047828268 0.36100003 4278991642
0.010680002 0.047828268 0.36100003 4278991642
0.011819698 0.047695778 0.36000001 4278728470
0.012988977 0.047695778 0.36000001 4279254814
0.014158258 0.047695778 0.36000001 4279123228
0.015327539 0.047695778 0.36000001 4278925849
0.01649682 0.047695778 0.36000001 4278925849
0.017666101 0.047695778 0.36000001 4279123228
0.018835381 0.047695778 0.36000001 4278991642
0.020004662 0.047695778 0.36000001 4278991642
0.021173943 0.047695778 0.36000001 4278991642
0.022343224 0.047695778 0.36000001 4278794263
0.023512503 0.047695778 0.36000001 4278860056
0.024750346 0.047828268 0.36100003 4278925849
0.025922874 0.047828268 0.36100003 4278860056
0.027095402 0.047828268 0.36100003 4278662931
0.028267931 0.047828268 0.36100003 4278728724
0.029522011 0.047960754 0.36200002 4278794517
0.030697789 0.047960754 0.36200002 4278860310
0.031961612 0.048093241 0.36300001 4278662931
0.033140637 0.048093241 0.36300001 4278794517
0.034414209 0.048225731 0.36400002 4278728724
0.035596479 0.048225731 0.36400002 4278794517
0.036879793 0.048358217 0.36500001 4278728724
0.038065314 0.048358217 0.36500001 4278728724
0.039250832 0.048358217 0.36500001 4278663701
0.04054714 0.048490711 0.36600003 4278795287
0.04173591 0.048490711 0.36600003 4278532115
0.04292468 0.048490711 0.36600003 4278795287
0.044233974 0.048623197 0.36700001 4278663701
0.045425989 0.048623197 0.36700001 4278729494
0.046618003 0.048623197 0.36700001 4278794517
0.047810022 0.048623197 0.36700001 4278728724
0.049135566 0.048755687 0.36800003 4278925590
0.050330825 0.048755687 0.36800003 4278925590
0.051666107 0.048888173 0.36900002 4278925590
0.052864619 0.048888173 0.36900002 4278794004
0.054209646 0.049020659 0.37 4278925336
0.055411402 0.049020659 0.37 4278793750
0.056766175 0.049153149 0.37100002 4278859543
0.058127441 0.049285635 0.37200001 4278990359
0.059335694 0.049285635 0.37200001 4279121947
0.060706709 0.049418125 0.37300003 4278990361
0.062084213 0.049550612 0.37400001 4279187226
0.063298963 0.049550612 0.37400001 4279253019
0.064686216 0.049683105 0.37500003 4278991129
0.065904215 0.049683105 0.37500003 4278859543
0.067301206 0.049815591 0.37600002 4278795287
0.068522453 0.049815591 0.37600002 4278663701
0.06992919 0.049948078 0.377 4278597908
0.071153685 0.049948078 0.377 4278729494
0.072570167 0.050080568 0.37800002 4279254301
0.073797919 0.050080568 0.37800002 4280568112
-0.0033715598 0.048729714 0.35900003 4284644463
-0.0022055269 0.048729714 0.35900003 4284841842
-0.0010394942 0.048729714 0.35900003 4284579182
0.00012689093 0.048865452 0.36000001 4284776561
0.0012961716 0.048865452 0.36000001 4284710768
0.0024654521 0.048865452 0.36000001 4284973940
0.0036347327 0.048865452 0.36000001 4285040505
0.0048173582 0.049001191 0.36100003 4285303675
0.0059898864 0.049001191 0.36100003 4284711538
0.0071624154 0.049001191 0.36100003 4283922022
0.008334944 0.049001191 0.36100003 4282673238
0.0095074726 0.049001191 0.36100003 4281620550
0.010680002 0.049001191 0.36100003 4280304690
0.011819698 0.048865452 0.36000001 4279581221
0.012988977 0.048865452 0.36000001 4279120668
0.014158258 0.048865452 0.36000001 4278857496
0.015327539 0.048865452 0.36000001 4278725910
0.01649682 0.048865452 0.36000001 4278858011
0.017666101 0.048865452 0.36000001 4278858011
0.018835381 0.048865452 0.36000001 4278989595
0.020004662 0.048865452 0.36000001 4279318558
0.021173943 0.048865452 0.36000001 4279319072
0.022343224 0.048865452 0.36000001 4279450660
0.023512503 0.048865452 0.36000001 4279319072
0.024750346 0.049001191 0.36100003 4279187740
0.025922874 0.049001191 0.36100003 4279254303
0.027095402 0.049001191 0.36100003 4279254303
0.028267931 0.049001191 0.36100003 4279056922
0.029522011 0.049136925 0.36200002 4279254301
0.030697789 0.049136925 0.36200002 4279188508
0.031873565 0.049136925 0.36200002 4278925590
0.033140637 0.049272664 0.36300001 4279254555
0.034414209 0.049408402 0.36400002 4279386654
0.035596479 0.049408402 0.36400002 4278926103
0.036879793 0.049544137 0.36500001 4278860310
0.038065314 0.049544137 0.36500001 4278794517
0.03935837 0.049679875 0.36600003 4278795287
0.04054714 0.049679875 0.36600003 4278531861
0.04173591 0.049679875 0.36600003 4278597654
0.04292468 0.049679875 0.36600003 4278795287
0.044233974 0.049815614 0.36700001 4278795287
0.045425989 0.049815614 0.36700001 4278729494
0.046618003 0.049815614 0.36700001 4278795287
0.047940299 0.049951352 0.36800003 4278795287
0.049135566 0.049951352 0.36800003 4278991896
0.050330825 0.049951352 0.36800003 4278991896
0.051666107 0.050087087 0.36900002 4278991896
0.052864619 0.050087087 0.36900002 4278926103
0.054209646 0.050222825 0.37 4278728724
0.055411402 0.050222825 0.37 4278991896
0.056766175 0.050358564 0.37100002 4278991896
0.058127441 0.050494298 0.37200001 4278926103
0.059335694 0.050494298 0.37200001 4278925590
0.060706709 0.050630037 0.37300003 4278991383
0.062084213 0.050765775 0.37400001 4279057176
0.063298963 0.050765775 0.37400001 4278991383
0.064686216 0.050901514 0.37500003 4279188762
0.065904215 0.050901514 0.37500003 4278925590
0.067301206 0.051037248 0.37600002 4278860310
0.068522453 0.051037248 0.37600002 4278926103
0.06992919 0.051172987 0.377 4278991896
0.071153685 0.051172987 0.377 4278991642
0.072378181 0.051172987 0.377 4279448348
0.023512503 0.05003513 0.36000001 4283066715
0.024750346 0.050174121 0.36100003 4281357378
0.025922874 0.050174121 0.36100003 4280238897
0.027095402 0.050174121 0.36100003 4279712553
0.028267931 0.050174121 0.36100003 4278923037
0.029522011 0.050313104 0.36200002 4278857498
0.030697789 0.050313104 0.36200002 4278989597
0.031873565 0.050313104 0.36200002 4278594835
0.033140637 0.050452087 0.36300001 4279187226
0.034414209 0.050591078 0.36400002 4279120920
0.035694271 0.050730061 0.36500001 4279581471
0.036879793 0.050730061 0.36500001 4279385117
0.038065314 0.050730061 0.36500001 4279121945
0.03935837 0.050869051 0.36600003 4279187738
0.04054714 0.050869051 0.36600003 4279319324
0.04173591 0.050869051 0.36600003 4279319326
0.043041959 0.051008034 0.36700001 4279385119
0.044233974 0.051008034 0.36700001 4278991131
0.045425989 0.051008034 0.36700001 4279056924
0.046618003 0.051008034 0.36700001 4279320096
0.047940299 0.051147025 0.36800003 4279188510
0.049135566 0.051147025 0.36800003 4279385119
0.050330825 0.051147025 0.36800003 4279648037
0.051666107 0.051286008 0.36900002 4279187486
0.052864619 0.051286008 0.36900002 4279187486
0.054209646 0.051424995 0.37 4279187740
0.055411402 0.051424995 0.37 4279319072
0.056766175 0.051563982 0.37100002 4279319072
0.058127441 0.051702969 0.37200001 4279516451
0.059335694 0.051702969 0.37200001 4279516451
0.060706709 0.051841956 0.37300003 4279384865
0.062084213 0.051980942 0.37400001 4279450912
0.063298963 0.051980942 0.37400001 4279582496
0.064686216 0.052119929 0.37500003 4279319324
0.065904215 0.052119929 0.37500003 4279187738
0.067301206 0.052258916 0.37600002 4279253017
0.068522453 0.052258916 0.37600002 4279253017
0.06992919 0.052397899 0.377 4279581217
0.071153685 0.052397899 0.377 4281816900
0.072378181 0.052397899 0.377 4285105012
0.023512503 0.051204808 0.36000001 4284842354
0.024750346 0.051347047 0.36100003 4284645745
0.025922874 0.051347047 0.36100003 4284711538
0.027095402 0.051347047 0.36100003 4284909430
0.028267931 0.051347047 0.36100003 4284843637
0.029440459 0.051347047 0.36100003 4284579952
0.030697789 0.051489282 0.36200002 4285106550
0.031873565 0.051489282 0.36200002 4284974964
0.033140637 0.051631514 0.36300001 4284974964
0.034414209 0.051773753 0.36400002 4285369722
0.035694271 0.051915988 0.36500001 4285172343
0.036879793 0.051915988 0.36500001 4285040757
0.038065314 0.051915988 0.36500001 4284843378
0.03935837 0.052058224 0.36600003 4284053858
0.04054714 0.052058224 0.36600003 4284053858
0.04173591 0.052058224 0.36600003 4283724893
0.043041959 0.052200459 0.36700001 4283790686
0.044233974 0.052200459 0.36700001 4283593309
0.045425989 0.052200459 0.36700001 4283724895
0.046618003 0.052200459 0.36700001 4283528031
0.047940299 0.052342698 0.36800003 4283593824
0.049135566 0.052342698 0.36800003 4283462238
0.050467592 0.05248493 0.36900002 4283659617
0.051666107 0.05248493 0.36900002 4283724897
0.052864619 0.05248493 0.36900002 4283922274
0.054209646 0.052627165 0.37 4283922274
0.055411402 0.052627165 0.37 4283659102
0.056766175 0.052769404 0.37100002 4284316262
0.058127441 0.052911635 0.37200001 4284184676
0.059335694 0.052911635 0.37200001 4284316260
0.060706709 0.053053875 0.37300003 4284513639
0.062084213 0.053196106 0.37400001 4284776811
0.063298963 0.053196106 0.37400001 4284974192
0.064686216 0.053338345 0.37500003 4284909169
0.065904215 0.053338345 0.37500003 4284909169
0.067301206 0.05348058 0.37600002 4285040757
0.068522453 0.05348058 0.37600002 4285369722
0.06992919 0.053622812 0.377 4285434231
0.071153685 0.053622812 0.377 4284973680
0.024643058 0.040099718 0.36386189 4294967295
0.024643058 0.040099718 0.36386189 4294901760
0.024718527 0.039621003 0.36373886 4294901760
0.024793994 0.039142288 0.36361581 4294901760
0.024869462 0.038663577 0.36349279 4294901760
0.024944931 0.038184863 0.36336976 4294901760
0.025020398 0.037706148 0.36324671 4294901760
0.025095867 0.037227433 0.36312369 4294901760
0.025171334 0.036748718 0.36300066 4294901760
0.025246803 0.036270004 0.36287761 4294901760
0.025322272 0.035791293 0.36275458 4294901760
0.025397738 0.035312578 0.36263156 4294901760
0.025473207 0.034833863 0.36250851 4294901760
0.025548676 0.034355149 0.36238548 4294901760
0.025624143 0.033876434 0.36226243 4294901760
0.025699612 0.033397719 0.3621394 4294901760
0.025775079 0.032919005 0.36201638 4294901760
0.025850547 0.032440294 0.36189333 4294901760
0.025926016 0.031961579 0.3617703 4294901760
0.026001483 0.031482864 0.36164728 4294901760
0.026076952 0.031004149 0.36152422 4294901760
0.026152421 0.030525435 0.3614012 4294901760
0.026227888 0.030046724 0.36127818 4294901760
0.026303357 0.029568009 0.36115512 4294901760
0.026378825 0.029089294 0.3610321 4294901760
0.026454292 0.02861058 0.36090907 4294901760
0.026529761 0.028131865 0.36078602 4294901760
0.026605228 0.027653152 0.360663 4294901760
0.026680697 0.027174437 0.36053997 4294901760
0.026756166 0.026695725 0.36041692 4294901760
0.026831632 0.02621701 0.3602939 4294901760
0.026907101 0.025738295 0.36017084 4294901760
0.026982568 0.02525958 0.36004782 4294901760
0.027058037 0.024780868 0.35992479 4294901760
0.027133506 0.024302153 0.35980174 4294901760
0.027208973 0.023823438 0.35967872 4294901760
0.027284442 0.023344725 0.35955569 4294901760
0.02735991 0.022866011 0.35943264 4294901760
0.027435377 0.022387296 0.35930961 4294901760
0.027510846 0.021908583 0.35918659 4294901760
0.027586315 0.02142987 0.35906354 4294901760
0.027661782 0.020951154 0.35894051 4294901760
0.027737251 0.020472441 0.35881749 4294901760
0.027812717 0.019993728 0.35869443 4294901760
0.027888186 0.019515011 0.35857141 4294901760
0.027963655 0.019036299 0.35844839 4294901760
0.028039122 0.018557586 0.35832533 4294901760
0.028114591 0.018078869 0.35820231 4294901760
0.02819006 0.017600156 0.35807928 4294901760
0.028265527 0.017121444 0.35795623 4294901760
0.028340995 0.016642727 0.35783321 4294901760
0.028416462 0.016164014 0.35771018 4294901760
0.028491931 0.015685301 0.35758713 4294901760
0.0285674 0.015206587 0.3574641 4294901760
0.028642867 0.014727874 0.35734105 4294901760
0.028718336 0.014249157 0.35721803 4294901760
0.028793804 0.013770442 0.357095 4294901760
0.028869271 0.01329173 0.35697195 4294901760
0.02894474 0.012813017 0.35684893 4294901760
0.029020209 0.012334302 0.3567259 4294901760
0.029095676 0.011855589 0.35660285 4294901760
0.029171145 0.011376873 0.35647982 4294901760
0.029246613 0.010898158 0.3563568 4294901760
0.02932208 0.010419445 0.35623375 4294901760
0.029397549 0.0099407323 0.35611072 4294901760
0.029473016 0.0094620176 0.3559877 4294901760
0.029548485 0.0089833047 0.35586464 4294901760
0.029623954 0.0085045882 0.35574162 4294901760
0.029699421 0.0080258735 0.3556186 4294901760
0.029774889 0.0075471587 0.35549554 4294901760
0.029850356 0.0070684478 0.35537252 4294901760
0.029925825 0.0065897331 0.35524946 4294901760
0.030001294 0.0061110184 0.35512644 4294901760
0.030076761 0.0056323037 0.35500342 4294901760
0.03015223 0.005153589 0.35488036 4294901760
0.030227698 0.0046748742 0.35475734 4294901760
0.030303165 0.0041961633 0.35463431 4294901760
0.030378634 0.0037174486 0.35451126 4294901760
0.030454103 0.0032387339 0.35438824 4294901760
0.03052957 0.0027600229 0.35426521 4294901760
0.030605039 0.0022813044 0.35414216 4294901760
0.030680507 0.0018025897 0.35401914 4294901760
0.030755974 0.0013238788 0.35389611 4294901760
0.030831443 0.00084516406 0.35377306 4294901760
0.03090691 0.00036644936 0.35365003 4294901760
0.030982379 -0.00011226162 0.35352701 4294901760
0.031057848 -0.00059098005 0.35340396 4294901760
0.031133315 -0.0010696948 0.35328093 4294901760
0.031208783 -0.0015484057 0.35315791 4294901760
0.03128425 -0.0020271204 0.35303485 4294901760
0.031359717 -0.0025058351 0.35291183 4294901760
0.031435188 -0.0029845461 0.35278881 4294901760
0.031510655 -0.0034632646 0.35266575 4294901760
0.031586125 -0.0039419793 0.35254273 4294901760
0.031661592 -0.0044206902 0.35241967 4294901760
0.031737059 -0.0048994049 0.35229665 4294901760
0.031812526 -0.0053781196 0.35217363 4294901760
0.031887997 -0.0058568306 0.35205057 4294901760
0.031963464 -0.0063355491 0.35192755 4294901760
0.032038931 -0.0068142638 0.35180452 4294901760
0.032114401 -0.0072929747 0.35168147 4294901760
0.032189868 -0.0077716894 0.35155845 4294901760
0.024643058 0.040099718 0.36386189 4278255360
0.02513637 0.040164918 0.36391079 4278255360
0.025629682 0.040230118 0.3639597 4278255360
0.026122995 0.040295318 0.36400861 4278255360
0.026616307 0.040360518 0.36405751 4278255360
0.027109619 0.040425718 0.36410642 4278255360
0.027602931 0.040490914 0.36415532 4278255360
0.028096244 0.040556114 0.36420426 4278255360
0.028589556 0.040621314 0.36425316 4278255360
0.029082868 0.040686514 0.36430207 4278255360
0.029576181 0.040751714 0.36435097 4278255360
0.030069493 0.040816914 0.36439988 4278255360
0.030562805 0.040882114 0.36444879 4278255360
0.031056117 0.040947314 0.36449769 4278255360
0.031549431 0.041012514 0.3645466 4278255360
0.032042742 0.041077711 0.3645955 4278255360
0.032536052 0.041142911 0.36464441 4278255360
0.033029366 0.041208111 0.36469331 4278255360
0.03352268 0.041273311 0.36474222 4278255360
0.034015991 0.041338511 0.36479115 4278255360
0.034509301 0.041403711 0.36484006 4278255360
0.035002615 0.041468911 0.36488897 4278255360
0.035495929 0.041534111 0.36493787 4278255360
0.03598924 0.041599311 0.36498678 4278255360
0.03648255 0.041664511 0.36503568 4278255360
0.036975864 0.041729711 0.36508459 4278255360
0.037469175 0.041794907 0.36513349 4278255360
0.037962489 0.041860107 0.3651824 4278255360
0.038455799 0.041925307 0.36523131 4278255360
0.038949113 0.041990507 0.36528021 4278255360
0.039442427 0.042055707 0.36532912 4278255360
0.039935738 0.042120907 0.36537802 4278255360
0.040429048 0.042186107 0.36542696 4278255360
0.040922362 0.042251308 0.36547586 4278255360
0.041415676 0.042316508 0.36552477 4278255360
0.041908987 0.042381704 0.36557367 4278255360
0.042402297 0.042446904 0.36562258 4278255360
0.042895611 0.042512104 0.36567149 4278255360
0.043388925 0.042577304 0.36572039 4278255360
0.043882236 0.042642504 0.3657693 4278255360
0.044375546 0.042707704 0.3658182 4278255360
0.04486886 0.042772904 0.36586711 4278255360
0.045362175 0.042838104 0.36591601 4278255360
0.045855485 0.042903304 0.36596492 4278255360
0.046348795 0.042968504 0.36601385 4278255360
0.046842109 0.043033704 0.36606276 4278255360
0.047335424 0.0430989 0.36611167 4278255360
0.047828734 0.0431641 0.36616057 4278255360
0.048322044 0.043229301 0.36620948 4278255360
0.048815358 0.043294501 0.36625838 4278255360
0.049308673 0.043359701 0.36630729 4278255360
0.049801983 0.043424901 0.36635619 4278255360
0.050295293 0.043490101 0.3664051 4278255360
0.050788604 0.043555301 0.36645401 4278255360
0.051281922 0.043620501 0.36650291 4278255360
0.051775232 0.043685697 0.36655182 4278255360
0.052268542 0.043750897 0.36660072 4278255360
0.052761856 0.043816097 0.36664966 4278255360
0.053255171 0.043881297 0.36669856 4278255360
0.053748481 0.043946497 0.36674747 4278255360
0.054241795 0.044011697 0.36679637 4278255360
0.054735105 0.044076897 0.36684528 4278255360
0.05522842 0.044142097 0.36689419 4278255360
0.05572173 0.044207297 0.36694309 4278255360
0.05621504 0.044272497 0.366992 4278255360
0.056708351 0.044337697 0.3670409 4278255360
0.057201669 0.044402897 0.36708981 4278255360
0.057694979 0.044468094 0.36713871 4278255360
0.058188289 0.044533294 0.36718762 4278255360
0.0586816 0.044598494 0.36723655 4278255360
0.059174918 0.044663694 0.36728546 4278255360
0.059668228 0.044728894 0.36733437 4278255360
0.060161538 0.044794094 0.36738327 4278255360
0.060654856 0.044859294 0.36743218 4278255360
0.061148167 0.044924494 0.36748108 4278255360
0.061641477 0.04498969 0.36752999 4278255360
0.062134787 0.04505489 0.36757889 4278255360
0.062628098 0.04512009 0.3676278 4278255360
0.063121416 0.04518529 0.36767671 4278255360
0.063614726 0.04525049 0.36772561 4278255360
0.064108036 0.04531569 0.36777452 4278255360
0.064601354 0.04538089 0.36782342 4278255360
0.065094665 0.04544609 0.36787236 4278255360
0.065587975 0.04551129 0.36792126 4278255360
0.066081285 0.04557649 0.36797017 4278255360
0.066574603 0.04564169 0.36801907 4278255360
0.067067914 0.045706887 0.36806798 4278255360
0.067561224 0.045772087 0.36811689 4278255360
0.068054534 0.045837287 0.36816579 4278255360
0.068547845 0.045902487 0.3682147 4278255360
0.069041163 0.045967687 0.3682636 4278255360
0.069534473 0.046032887 0.36831251 4278255360
0.070027784 0.046098087 0.36836141 4278255360
0.070521101 0.046163287 0.36841032 4278255360
0.071014412 0.046228487 0.36845925 4278255360
0.071507722 0.046293683 0.36850816 4278255360
0.072001033 0.046358883 0.36855707 4278255360
0.07249435 0.046424083 0.36860597 4278255360
0.072987661 0.046489283 0.36865488 4278255360
0.073480971 0.046554483 0.36870378 4278255360
0.073974282 0.046619684 0.36875269 4278255360
0.024643058 0.040099718 0.36386189 4278190335
0.024587814 0.039967868 0.36434102 4278190335
0.024532571 0.039836019 0.36482015 4278190335
0.024477327 0.03970417 0.36529928 4278190335
0.024422085 0.039572317 0.36577839 4278190335
0.024366841 0.039440468 0.36625752 4278190335
0.024311598 0.039308619 0.36673665 4278190335
0.024256354 0.03917677 0.36721578 4278190335
0.02420111 0.03904492 0.36769491 4278190335
0.024145868 0.038913071 0.36817405 4278190335
0.024090623 0.038781218 0.36865318 4278190335
0.024035381 0.038649369 0.36913231 4278190335
0.023980137 0.03851752 0.36961141 4278190335
0.023924895 0.038385671 0.37009054 4278190335
0.02386965 0.038253821 0.37056968 4278190335
0.023814406 0.038121972 0.37104881 4278190335
0.023759164 0.037990123 0.37152794 4278190335
0.02370392 0.03785827 0.37200707 4278190335
0.023648677 0.037726421 0.3724862 4278190335
0.023593433 0.037594572 0.37296534 4278190335
0.023538191 0.037462723 0.37344444 4278190335
0.023482947 0.037330873 0.37392357 4278190335
0.023427702 0.037199024 0.3744027 4278190335
0.02337246 0.037067175 0.37488183 4278190335
0.023317216 0.036935322 0.37536097 4278190335
0.023261974 0.036803473 0.3758401 4278190335
0.023206729 0.036671624 0.37631923 4278190335
0.023151487 0.036539774 0.37679833 4278190335
0.023096243 0.036407925 0.37727746 4278190335
0.023040999 0.036276076 0.3777566 4278190335
0.022985756 0.036144227 0.37823573 4278190335
0.022930512 0.036012374 0.37871486 4278190335
0.02287527 0.035880525 0.37919399 4278190335
0.022820026 0.035748675 0.37967312 4278190335
0.022764783 0.035616826 0.38015226 4278190335
0.022709539 0.035484977 0.38063136 4278190335
0.022654295 0.035353124 0.38111049 4278190335
0.022599053 0.035221275 0.38158962 4278190335
0.022543808 0.035089426 0.38206875 4278190335
0.022488566 0.034957577 0.38254789 4278190335
0.022433322 0.034825727 0.38302702 4278190335
0.02237808 0.034693878 0.38350615 4278190335
0.022322835 0.034562029 0.38398528 4278190335
0.022267591 0.034430176 0.38446438 4278190335
0.022212349 0.034298327 0.38494352 4278190335
0.022157105 0.034166478 0.38542265 4278190335
0.022101862 0.034034628 0.38590178 4278190335
0.022046618 0.033902779 0.38638091 4278190335
0.021991376 0.03377093 0.38686004 4278190335
0.021936132 0.033639081 0.38733917 4278190335
0.021880887 0.033507228 0.38781828 4278190335
0.021825645 0.033375379 0.38829741 4278190335
0.021770401 0.033243529 0.38877654 4278190335
0.021715159 0.03311168 0.38925567 4278190335
0.021659914 0.032979831 0.3897348 4278190335
0.021604672 0.032847982 0.39021394 4278190335
0.021549428 0.032716133 0.39069307 4278190335
0.021494184 0.03258428 0.3911722 4278190335
0.021438941 0.032452431 0.3916513 4278190335
0.021383699 0.032320581 0.39213043 4278190335
0.021328455 0.032188732 0.39260957 4278190335
0.021273211 0.032056883 0.3930887 4278190335
0.021217968 0.031925034 0.39356783 4278190335
0.021162724 0.031793185 0.39404696 4278190335
0.02110748 0.031661332 0.39452609 4278190335
0.021052238 0.031529482 0.39500523 4278190335
0.020996993 0.031397633 0.39548433 4278190335
0.020941751 0.031265784 0.39596346 4278190335
0.020886507 0.031133935 0.39644259 4278190335
0.020831265 0.031002086 0.39692172 4278190335
0.02077602 0.030870235 0.39740086 4278190335
0.020720776 0.030738385 0.39787999 4278190335
0.020665534 0.030606534 0.39835912 4278190335
0.02061029 0.030474685 0.39883822 4278190335
0.020555047 0.030342836 0.39931735 4278190335
0.020499803 0.030210987 0.39979649 4278190335
0.020444561 0.030079138 0.40027562 4278190335
0.020389317 0.029947286 0.40075475 4278190335
0.020334072 0.029815437 0.40123388 4278190335
0.02027883 0.029683586 0.40171301 4278190335
0.020223586 0.029551737 0.40219215 4278190335
0.020168344 0.029419888 0.40267128 4278190335
0.020113099 0.029288039 0.40315038 4278190335
0.020057857 0.029156188 0.40362951 4278190335
0.020002613 0.029024338 0.40410864 4278190335
0.019947369 0.028892487 0.40458778 4278190335
0.019892126 0.028760638 0.40506691 4278190335
0.019836884 0.028628789 0.40554604 4278190335
0.01978164 0.02849694 0.40602517 4278190335
0.019726396 0.02836509 0.40650427 4278190335
0.019671153 0.028233239 0.40698341 4278190335
0.019615909 0.028101388 0.40746254 4278190335
0.019560665 0.027969539 0.40794167 4278190335
0.019505423 0.02783769 0.4084208 4278190335
0.01945018 0.027705841 0.40889993 4278190335
0.019394936 0.027573992 0.40937907 4278190335
0.019339692 0.027442142 0.40985817 4278190335
0.01928445 0.027310289 0.4103373 4278190335
0.019229205 0.02717844 0.41081643 4278190335
0.019173961 0.027046591 0.41129556 4278190335
0.019118719 0.026914742 0.41177469 4278190335
0.024643058 0.040099718 0.36386189 4294967295
0.024974518 0.040890817 0.36098713 4294967295
0.025305979 0.041681916 0.35811234 4294967295
0.025637439 0.042473014 0.35523757 4294967295
0.0259689 0.043264113 0.35236281 4294967295
0.02630036 0.044055212 0.34948805 4294967295
0.026631821 0.044846311 0.34661329 4294967295
0.026963281 0.045637406 0.3437385 4294967295
0.02729474 0.046428505 0.34086373 4294967295
0.027626202 0.047219604 0.33798897 4294967295
0.027957661 0.048010703 0.33511418 4294967295
0.028289123 0.048801802 0.33223942 4294967295
0.028620582 0.049592901 0.32936466 4294967295
0.028952044 0.050384 0.3264899 4294967295
0.029283503 0.051175099 0.32361513 4294967295
0.029614965 0.051966198 0.32074034 4294967295
0.029946424 0.052757297 0.31786558 4294967295
0.030277885 0.053548396 0.31499082 4294967295
0.030609345 0.054339495 0.31211603 4294967295
0.030940805 0.055130593 0.30924127 4294967295
0.031272266 0.055921689 0.3063665 4294967295
0.031603724 0.056712788 0.30349174 4294967295
0.031935185 0.057503887 0.30061698 4294967295
0.032266647 0.058294985 0.29774219 4294967295
0.032598108 0.059086084 0.29486743 4294967295
0.032929569 0.059877183 0.29199266 4294967295
0.033261027 0.060668282 0.28911787 4294967295
0.033592489 0.061459381 0.28624311 4294967295
0.03392395 0.06225048 0.28336835 4294967295
0.034255408 0.063041575 0.28049359 4294967295
0.034586869 0.063832678 0.27761883 4294967295
0.034918331 0.064623773 0.27474403 4294967295
0.035249792 0.065414876 0.27186927 4294967295
0.035581253 0.066205971 0.26899451 4294967295
0.035912711 0.066997074 0.26611972 4294967295
0.036244173 0.067788169 0.26324496 4294967295
0.03657563 0.068579271 0.26037019 4294967295
0.036907092 0.069370367 0.25749543 4294967295
0.037238553 0.070161462 0.25462067 4294967295
0.037570015 0.070952564 0.25174588 4294967295
0.037901472 0.071743667 0.24887112 4294967295
0.038232934 0.072534762 0.24599636 4294967295
0.038564391 0.073325858 0.24312159 4294967295
0.038895853 0.07411696 0.2402468 4294967295
0.039227314 0.074908055 0.23737204 4294967295
0.039558776 0.075699151 0.23449728 4294967295
0.039890237 0.076490253 0.2316225 4294967295
0.040221695 0.077281356 0.22874774 4294967295
0.040553156 0.078072451 0.22587296 4294967295
0.040884618 0.078863546 0.22299819 4294967295
0.041216075 0.079654649 0.22012343 4294967295
0.041547537 0.080445752 0.21724866 4294967295
0.041878998 0.081236839 0.21437389 4294967295
0.04221046 0.082027942 0.21149912 4294967295
0.042541921 0.082819045 0.20862435 4294967295
0.042873379 0.083610147 0.20574957 4294967295
0.04320484 0.084401242 0.20287481 4294967295
0.043536298 0.085192338 0.20000005 4294967295
0.043867759 0.08598344 0.19712527 4294967295
0.044199221 0.086774535 0.19425051 4294967295
0.044530682 0.087565638 0.19137573 4294967295
0.044862144 0.088356733 0.18850096 4294967295
