# .PCD v0.7 - Point Cloud Data file format
VERSION 0.7
FIELDS x y z rgb
SIZE 4 4 4 4
TYPE F F F U
COUNT 1 1 1 1
WIDTH 1058
HEIGHT 1
VIEWPOINT 0 0 0 1 0 0 0
POINTS 1058
DATA ascii
0.056621876 0.005223962 0.57900006 4284887593
0.036369801 0.0071910922 0.58600003 4283185448
0.03827313 0.0071910922 0.58600003 4284434485
0.04390806 0.0071788211 0.58500004 4289630595
0.045729842 0.0071665496 0.58400005 4286141256
0.047545116 0.0071542775 0.583 4284096019
0.049269103 0.0071297348 0.58100003 4285609256
0.051068146 0.0071174637 0.58000004 4285147420
0.052860688 0.0071051922 0.57900006 4285278236
0.054741282 0.0071051922 0.57900006 4285475615
0.056524079 0.0070929201 0.57800001 4285540640
0.058401424 0.0070929201 0.57800001 4283839018
0.032396436 0.0090485038 0.583 4285679158
0.034348842 0.0090640252 0.58400005 4286008121
0.036307737 0.0090795457 0.58500004 4284951839
0.03827313 0.0090950662 0.58600003 4284359191
0.040176462 0.0090950662 0.58600003 4283310356
0.042079788 0.0090950662 0.58600003 4283312157
0.04390806 0.0090795457 0.58500004 4284563505
0.045729842 0.0090640252 0.58400005 4285156412
0.047545116 0.0090485038 0.583 4284892208
0.049269103 0.0090174638 0.58100003 4284492572
0.051068146 0.0090019433 0.58000004 4285277466
0.052860688 0.0089864228 0.57900006 4285014291
0.054646734 0.0089709014 0.57800001 4287777600
0.056524079 0.0089709014 0.57800001 4285014294
0.058401424 0.0089709014 0.57800001 4283836188
0.06017448 0.0089553809 0.57700002 4283052069
0.024736945 0.010905192 0.58100003 4286090363
0.026624035 0.010905192 0.58100003 4283912516
0.028511124 0.010905192 0.58100003 4284952101
0.030450532 0.010923961 0.58200002 4285607975
0.032396436 0.010942731 0.583 4285080089
0.034290023 0.010942731 0.583 4285474845
0.036245674 0.010961502 0.58400005 4285082140
0.038207818 0.010980271 0.58500004 4286007607
0.040107902 0.010980271 0.58500004 4284305718
0.042007979 0.010980271 0.58500004 4284305718
0.04390806 0.010980271 0.58500004 4284239925
0.045729842 0.010961502 0.58400005 4284174130
0.047463562 0.010923961 0.58200002 4284238124
0.049269103 0.010905192 0.58100003 4283178508
0.051068146 0.010886422 0.58000004 4284422931
0.052860688 0.010867653 0.57900006 4285014298
0.054646734 0.010848883 0.57800001 4284488722
0.056524079 0.010848883 0.57800001 4284357906
0.058300387 0.010830113 0.57700002 4283375383
0.06017448 0.010830113 0.57700002 4283245596
0.02469437 0.012770901 0.58000004 4285889902
0.02657821 0.012770901 0.58000004 4284368442
0.028511124 0.01279292 0.58100003 4285279008
0.030398212 0.01279292 0.58100003 4284751894
0.032340869 0.012814938 0.58200002 4287582276
0.034290023 0.012836957 0.583 4285211418
0.036245674 0.012858977 0.58400005 4284292624
0.038142506 0.012858977 0.58400005 4286140475
0.040107902 0.012880995 0.58500004 4284831029
0.042007979 0.012880995 0.58500004 4285881920
0.043833006 0.012858977 0.58400005 4288577128
0.045651533 0.012836957 0.583 4284167200
0.047463562 0.012814938 0.58200002 4284295704
0.049269103 0.01279292 0.58100003 4285676328
0.051068146 0.012770901 0.58000004 4283964431
0.052860688 0.012748883 0.57900006 4284096019
0.054646734 0.012726863 0.57800001 4283899413
0.056524079 0.012726863 0.57800001 4283439632
0.058300387 0.012704845 0.57700002 4282061070
0.06017448 0.012704845 0.57700002 4284564286
0.0227712 0.014630113 0.57900006 4285433977
0.02469437 0.014655381 0.58000004 4284375120
0.02657821 0.014655381 0.58000004 4283905323
0.028462052 0.014655381 0.58000004 4284688154
0.030398212 0.014680648 0.58100003 4285015836
0.032340869 0.014705916 0.58200002 4285145884
0.034231205 0.014705916 0.58200002 4284882712
0.036183607 0.014731183 0.583 4284292626
0.038142506 0.014756452 0.58400005 4285938732
0.040039342 0.014756452 0.58400005 4283834642
0.041936174 0.014756452 0.58400005 4283045641
0.043833006 0.014756452 0.58400005 4282454281
0.045651533 0.014731183 0.583 4282455049
0.047463562 0.014705916 0.58200002 4282651912
0.049269103 0.014680648 0.58100003 4282980364
0.051068146 0.014655381 0.58000004 4282782987
0.052860688 0.014630113 0.57900006 4282782987
0.054646734 0.014604844 0.57800001 4283243538
0.056524079 0.014604844 0.57800001 4283638296
0.058300387 0.014579576 0.57700002 4282589983
0.060070194 0.014554309 0.57600003 4287334270
0.0227712 0.016511343 0.57900006 4285302907
0.024651794 0.016511343 0.57900006 4283056178
0.026532387 0.016511343 0.57900006 4284233772
0.028462052 0.016539861 0.58000004 4283834390
0.030345893 0.016539861 0.58000004 4284359450
0.032285299 0.016568378 0.58100003 4284358937
0.034231205 0.016596893 0.58200002 4284029972
0.036183607 0.01662541 0.583 4283702034
0.038077191 0.01662541 0.583 4283571218
0.040039342 0.016653929 0.58400005 4282192645
0.041936174 0.016653929 0.58400005 4286144842
0.043833006 0.016653929 0.58400005 4286280017
0.045651533 0.01662541 0.583 4283648297
0.047463562 0.016596893 0.58200002 4284828982
0.049269103 0.016568378 0.58100003 4282391309
0.051068146 0.016539861 0.58000004 4282390287
0.052860688 0.016511343 0.57900006 4282324494
0.054741282 0.016511343 0.57900006 4282258701
0.056524079 0.016482826 0.57800001 4283046932
0.058401424 0.016482826 0.57800001 4283704862
0.060383063 0.016511343 0.57900006 4283906354
0.022731869 0.018360807 0.57800001 4285433464
0.024609216 0.018360807 0.57800001 4283315241
0.026532387 0.018392574 0.57900006 4283375897
0.028412981 0.018392574 0.57900006 4283375897
0.030345893 0.01842434 0.58000004 4283374870
0.032285299 0.018456105 0.58100003 4283505940
0.03417239 0.018456105 0.58100003 4283111952
0.036121543 0.018487873 0.58200002 4282258953
0.038077191 0.018519638 0.583 4284432941
0.039970778 0.018519638 0.583 4284437813
0.041936174 0.018551406 0.58400005 4283846960
0.043757945 0.018519638 0.583 4286216527
0.045651533 0.018519638 0.583 4284703034
0.047463562 0.018487873 0.58200002 4281801480
0.049269103 0.018456105 0.58100003 4282391055
0.051156193 0.018456105 0.58100003 4282389774
0.052951984 0.01842434 0.58000004 4282455567
0.054835826 0.01842434 0.58000004 4282193678
0.056621876 0.018392574 0.57900006 4281931019
0.058502469 0.018392574 0.57900006 4282586383
0.060383063 0.018392574 0.57900006 4284099108
0.022692541 0.020203773 0.57700002 4286156158
0.024566639 0.020203773 0.57700002 4283639839
0.026486561 0.020238787 0.57800001 4283967774
0.028412981 0.020273805 0.57900006 4284368179
0.030293573 0.020273805 0.57900006 4282983446
0.032229733 0.020308819 0.58000004 4283507223
0.03417239 0.020343835 0.58100003 4282586635
0.036121543 0.020378849 0.58200002 4284174130
0.038077191 0.020413864 0.583 4283057444
0.039970778 0.020413864 0.583 4284308276
0.041864362 0.020413864 0.583 4284572472
0.043757945 0.020413864 0.583 4283388196
0.045651533 0.020413864 0.583 4283651116
0.047463562 0.020378849 0.58200002 4282589199
0.049353905 0.020378849 0.58200002 4282850577
0.051156193 0.020343835 0.58100003 4283046159
0.05304328 0.020343835 0.58100003 4283242768
0.054835826 0.020308819 0.58000004 4282852885
0.056719668 0.020308819 0.58000004 4282989604
0.05860351 0.020308819 0.58000004 4281604621
0.060487349 0.020308819 0.58000004 4282259473
0.062371191 0.020308819 0.58000004 4283310624
0.022692541 0.022078505 0.57700002 4286023800
0.024566639 0.022078505 0.57700002 4283836186
0.026440736 0.022078505 0.57700002 4284168485
0.028363906 0.022116769 0.57800001 4283646503
0.030293573 0.022155035 0.57900006 4283510042
0.032229733 0.022193298 0.58000004 4282784014
0.03417239 0.022231562 0.58100003 4285486142
0.036121543 0.022269826 0.58200002 4282400027
0.038077191 0.022308089 0.583 4282663969
0.039970778 0.022308089 0.583 4282073117
0.041864362 0.022308089 0.583 4282665254
0.043757945 0.022308089 0.583 4279703297
0.045651533 0.022308089 0.583 4279176704
0.047545116 0.022308089 0.583 4281873449
0.049353905 0.022269826 0.58200002 4280357643
0.05124424 0.022269826 0.58200002 4280288512
0.053134575 0.022269826 0.58200002 4282129684
0.05493037 0.022231562 0.58100003 4283053600
0.056817457 0.022231562 0.58100003 4282860582
0.058704548 0.022231562 0.58100003 4282597156
0.060591638 0.022231562 0.58100003 4281277451
0.062478725 0.022231562 0.58100003 4283046936
0.068139993 0.022231562 0.58100003 4285085740
0.070027083 0.022231562 0.58100003 4285607975
0.071914166 0.022231562 0.58100003 4285872689
0.073928282 0.022269826 0.58200002 4283319100
0.024524063 0.023911724 0.57600003 4283508766
0.026440736 0.023953237 0.57700002 4283644967
0.028363906 0.023994749 0.57800001 4284169767
0.030293573 0.024036264 0.57900006 4283374606
0.032229733 0.024077777 0.58000004 4281472004
0.03417239 0.02411929 0.58100003 4281872406
0.036121543 0.024160802 0.58200002 4282071836
0.038011879 0.024160802 0.58200002 4281940763
0.039970778 0.024202315 0.583 4282204456
0.041864362 0.024202315 0.583 4279243266
0.043757945 0.024202315 0.583 4279243019
0.045651533 0.024202315 0.583 4279243019
0.047545116 0.024202315 0.583 4281612337
0.049438704 0.024202315 0.583 4279177996
0.051332287 0.024202315 0.583 4283256385
0.053225871 0.024202315 0.583 4279570178
0.055024914 0.024160802 0.58200002 4281148947
0.05691525 0.024160802 0.58200002 4282466340
0.058805589 0.024160802 0.58200002 4282203422
0.060695924 0.024160802 0.58200002 4282794789
0.062586263 0.024160802 0.58200002 4282193676
0.064476602 0.024160802 0.58200002 4283703065
0.066366933 0.024160802 0.58200002 4285937453
0.068139993 0.02411929 0.58100003 4286002983
0.070027083 0.02411929 0.58100003 4285869855
0.072037943 0.024160802 0.58200002 4285474592
0.073928282 0.024160802 0.58200002 4284495411
0.075818621 0.024160802 0.58200002 4286215019
0.024524063 0.025783205 0.57600003 4282787094
0.026486561 0.02587273 0.57800001 4283186213
0.028363906 0.02587273 0.57800001 4283904030
0.030293573 0.025917495 0.57900006 4282849293
0.032229733 0.025962256 0.58000004 4283976501
0.03417239 0.026007017 0.58100003 4281018896
0.036121543 0.02605178 0.58200002 4281743902
0.038011879 0.02605178 0.58200002 4281283351
0.039970778 0.026096541 0.583 4278980099
0.041864362 0.026096541 0.583 4279309066
0.043757945 0.026096541 0.583 4278323459
0.045651533 0.026096541 0.583 4283324238
0.047545116 0.026096541 0.583 4284311387
0.049438704 0.026096541 0.583 4283259469
0.051332287 0.026096541 0.583 4278651654
0.053225871 0.026096541 0.583 4280427293
0.055119459 0.026096541 0.583 4281480231
0.057013039 0.026096541 0.583 4281875238
0.058906626 0.026096541 0.583 4282203422
0.06080021 0.026096541 0.583 4282006043
0.062586263 0.02605178 0.58200002 4282129934
0.064476602 0.02605178 0.58200002 4283046418
0.066366933 0.02605178 0.58200002 4285015064
0.068257272 0.02605178 0.58200002 4285605656
0.070147611 0.02605178 0.58200002 4285868063
0.072037943 0.02605178 0.58200002 4285342236
0.073928282 0.02605178 0.58200002 4284032032
0.075818621 0.02605178 0.58200002 4284501060
0.019042848 0.027846737 0.58000004 4285368184
0.020926686 0.027846737 0.58000004 4286147679
0.022810528 0.027846737 0.58000004 4283638557
0.026486561 0.027750712 0.57800001 4283778604
0.028412981 0.027798725 0.57900006 4283836186
0.030293573 0.027798725 0.57900006 4282191363
0.032229733 0.027846737 0.58000004 4283122473
0.03417239 0.027894748 0.58100003 4280162816
0.036121543 0.02794276 0.58200002 4281413400
0.038011879 0.02794276 0.58200002 4279704069
0.039902218 0.02794276 0.58200002 4282138931
0.041864362 0.02799077 0.583 4278257152
0.043757945 0.02799077 0.583 4284444252
0.045651533 0.02799077 0.583 4284312407
0.047545116 0.02799077 0.583 4282927926
0.049438704 0.02799077 0.583 4282206007
0.051332287 0.02799077 0.583 4284576354
0.053317171 0.028038785 0.58400005 4278917131
0.055214006 0.028038785 0.58400005 4279441938
0.057110839 0.028038785 0.58400005 4278783488
0.059007674 0.028038785 0.58400005 4282269474
0.06080021 0.02799077 0.583 4282005789
0.062693797 0.02799077 0.583 4282724637
0.064587384 0.02799077 0.583 4282587664
0.066366933 0.02794276 0.58200002 4284357906
0.068257272 0.02794276 0.58200002 4284882708
0.070147611 0.02794276 0.58200002 4285079064
0.072037943 0.02794276 0.58200002 4285408802
0.073928282 0.02794276 0.58200002 4282849303
0.075818621 0.02794276 0.58200002 4283053875
0.017159006 0.029731216 0.58000004 4285565565
0.019042848 0.029731216 0.58000004 4286419843
0.020926686 0.029731216 0.58000004 4283770659
0.022810528 0.029731216 0.58000004 4286662721
0.02469437 0.029731216 0.58000004 4282984473
0.026532387 0.029679956 0.57900006 4284500017
0.028412981 0.029679956 0.57900006 4284098075
0.030293573 0.029679956 0.57900006 4281993984
0.032229733 0.029731216 0.58000004 4283843370
0.03417239 0.029782476 0.58100003 4282789912
0.03605948 0.029782476 0.58100003 4282591768
0.038011879 0.029833736 0.58200002 4279372032
0.039902218 0.029833736 0.58200002 4278652676
0.041792553 0.029833736 0.58200002 4279968282
0.043682888 0.029833736 0.58200002 4281482284
0.045651533 0.029884996 0.583 4283585854
0.047545116 0.029884996 0.583 4285493322
0.049438704 0.029884996 0.583 4280690962
0.051420338 0.02993626 0.58400005 4281219884
0.053317171 0.02993626 0.58400005 4282733123
0.055214006 0.02993626 0.58400005 4280428833
0.057110839 0.02993626 0.58400005 4279506961
0.059007674 0.02993626 0.58400005 4282467625
0.060904503 0.02993626 0.58400005 4281743130
0.062693797 0.029884996 0.583 4282396699
0.064587384 0.029884996 0.583 4282588434
0.066480964 0.029884996 0.583 4283701522
0.068257272 0.029833736 0.58200002 4283964179
0.070147611 0.029833736 0.58200002 4284491036
0.072037943 0.029833736 0.58200002 4283703319
0.073928282 0.029833736 0.58200002 4282130461
0.075818621 0.029833736 0.58200002 4285492581
0.017159006 0.031615693 0.58000004 4285697149
0.019042848 0.031615693 0.58000004 4283981137
0.020890607 0.031561185 0.57900006 4285611062
0.0227712 0.031561185 0.57900006 4285872430
0.024651794 0.031561185 0.57900006 4285476385
0.026532387 0.031561185 0.57900006 4285017117
0.028412981 0.031561185 0.57900006 4283965206
0.030293573 0.031561185 0.57900006 4283111180
0.032229733 0.031615693 0.58000004 4283571985
0.034113575 0.031615693 0.58000004 4284031253
0.03605948 0.031670205 0.58100003 4283836188
0.037946567 0.031670205 0.58100003 4280157184
0.039902218 0.031724714 0.58200002 4278783238
0.041792553 0.031724714 0.58200002 4281481775
0.043682888 0.031724714 0.58200002 4280954911
0.045573227 0.031724714 0.58200002 4280954136
0.047545116 0.031779222 0.583 4281479699
0.049438704 0.031779222 0.583 4281084435
0.051332287 0.031779222 0.583 4281087015
0.053317171 0.031833734 0.58400005 4282996295
0.055214006 0.031833734 0.58400005 4280626212
0.057110839 0.031833734 0.58400005 4280758052
0.059007674 0.031833734 0.58400005 4281546271
0.060904503 0.031833734 0.58400005 4281612314
0.062693797 0.031779222 0.583 4281607951
0.064587384 0.031779222 0.583 4282458129
0.066480964 0.031779222 0.583 4284031001
0.068257272 0.031724714 0.58200002 4283702036
0.070147611 0.031724714 0.58200002 4283178004
0.072037943 0.031724714 0.58200002 4283180575
0.073928282 0.031724714 0.58200002 4283977542
0.017129421 0.033442415 0.57900006 4286879111
0.019010015 0.033442415 0.57900006 4284173891
0.020890607 0.033442415 0.57900006 4285280039
0.0227712 0.033442415 0.57900006 4285277468
0.024609216 0.033384655 0.57800001 4288503380
0.026486561 0.033384655 0.57800001 4285278238
0.028363906 0.033384655 0.57800001 4284753177
0.030293573 0.033442415 0.57900006 4283373323
0.032174166 0.033442415 0.57900006 4284359704
0.034113575 0.033500172 0.58000004 4284490007
0.035997417 0.033500172 0.58000004 4283899413
0.037946567 0.033557933 0.58100003 4280549888
0.039833657 0.033557933 0.58100003 4281677360
0.041720748 0.033557933 0.58100003 4279440652
0.043682888 0.03361569 0.58200002 4281086243
0.045573227 0.03361569 0.58200002 4280822553
0.047463562 0.03361569 0.58200002 4282335269
0.049438704 0.033673447 0.583 4281084435
0.051332287 0.033673447 0.583 4281875759
0.053317171 0.033731211 0.58400005 4281679152
0.055214006 0.033731211 0.58400005 4278651654
0.057110839 0.033731211 0.58400005 4279045640
0.059007674 0.033731211 0.58400005 4281742882
0.060904503 0.033731211 0.58400005 4281413913
0.062693797 0.033673447 0.583 4281806615
0.064587384 0.033673447 0.583 4282851860
0.066480964 0.033673447 0.583 4284031517
0.068374552 0.033673447 0.583 4288247663
0.070268139 0.033673447 0.583 4284698439
0.072037943 0.03361569 0.58200002 4281867289
0.073928282 0.03361569 0.58200002 4285429868
0.015248828 0.035323646 0.57900006 4285697151
0.017129421 0.035323646 0.57900006 4286680453
0.019010015 0.035323646 0.57900006 4283513651
0.020854523 0.035262633 0.57800001 4285147424
0.022731869 0.035262633 0.57800001 4285540383
0.024566639 0.035201628 0.57700002 4288238153
0.026440736 0.035201628 0.57700002 4285080087
0.028314834 0.035201628 0.57700002 4284292113
0.030241249 0.035262633 0.57800001 4283569675
0.032118596 0.035262633 0.57800001 4284096019
0.03405476 0.035323646 0.57900006 4284226835
0.035935353 0.035323646 0.57900006 4283964179
0.037881255 0.035384651 0.58000004 4281863943
0.039833657 0.03544566 0.58100003 4279110658
0.041720748 0.03544566 0.58100003 4278979847
0.043607835 0.03544566 0.58100003 4281085727
0.045573227 0.035506666 0.58200002 4281085725
0.047463562 0.035506666 0.58200002 4280822805
0.049353905 0.035506666 0.58200002 4280822548
0.051332287 0.035567675 0.583 4281348899
0.053225871 0.035567675 0.583 4282336310
0.055119459 0.035567675 0.583 4282008119
0.057110839 0.035628684 0.58400005 4278782722
0.059007674 0.035628684 0.58400005 4281019159
0.06080021 0.035567675 0.583 4281216536
0.062693797 0.035567675 0.583 4281869590
0.064587384 0.035567675 0.583 4283572762
0.066480964 0.035567675 0.583 4282916118
0.068374552 0.035567675 0.583 4287530104
0.070268139 0.035567675 0.583 4283517504
0.072161719 0.035567675 0.583 4281410081
0.015248828 0.037204877 0.57900006 4285697151
0.017129421 0.037204877 0.57900006 4286680964
0.01897718 0.037140619 0.57800001 4283186742
0.020854523 0.037140619 0.57800001 4284425757
0.022692541 0.037076361 0.57700002 4284752666
0.024524063 0.037012104 0.57600003 4285080089
0.026394913 0.037012104 0.57600003 4284685331
0.028265761 0.037012104 0.57600003 4283897868
0.030136609 0.037012104 0.57600003 4283898640
0.032063026 0.037076361 0.57700002 4283898640
0.033995941 0.037140619 0.57800001 4284030226
0.035935353 0.037204877 0.57900006 4283440915
0.037815943 0.037204877 0.57900006 4282260496
0.039765101 0.037269134 0.58000004 4279504903
0.041720748 0.037333392 0.58100003 4278980101
0.043607835 0.037333392 0.58100003 4278979847
0.045494925 0.037333392 0.58100003 4278914308
0.047463562 0.037397645 0.58200002 4281152036
0.049353905 0.037397645 0.58200002 4279507213
0.05124424 0.037397645 0.58200002 4279112203
0.053225871 0.037461903 0.583 4281547568
0.055119459 0.037461903 0.583 4280294932
0.057013039 0.037461903 0.583 4281081107
0.058906626 0.037461903 0.583 4281674777
0.06080021 0.037461903 0.583 4281214740
0.062693797 0.037461903 0.583 4282654740
0.064587384 0.037461903 0.583 4284293919
0.066480964 0.037461903 0.583 4282918430
0.068374552 0.037461903 0.583 4286677878
0.070268139 0.037461903 0.583 4281871654
0.072161719 0.037461903 0.583 4286544756
0.017099835 0.039018597 0.57800001 4286024318
0.01897718 0.039018597 0.57800001 4283388230
0.020818444 0.038951091 0.57700002 4283574046
0.022653213 0.038883585 0.57600003 4284032030
0.024481487 0.038816083 0.57500005 4284294171
0.026303262 0.038748574 0.574 4283833106
0.028167615 0.038748574 0.574 4283964946
0.030031966 0.038748574 0.574 4284425497
0.031951889 0.038816083 0.57500005 4283438602
0.033878308 0.038883585 0.57600003 4283640345
0.035873286 0.039018597 0.57800001 4282134297
0.037815943 0.039086107 0.57900006 4281740052
0.039696541 0.039086107 0.57900006 4280558354
0.041648939 0.039153613 0.58000004 4278848515
0.043607835 0.039221119 0.58100003 4278979849
0.045494925 0.039221119 0.58100003 4278519298
0.047382012 0.039221119 0.58100003 4281020970
0.049353905 0.039288625 0.58200002 4280955179
0.05124424 0.039288625 0.58200002 4282928451
0.053134575 0.039288625 0.58200002 4278848004
0.055024914 0.039288625 0.58200002 4282194707
0.05691525 0.039288625 0.58200002 4285941562
0.058906626 0.039356127 0.583 4283837724
0.06080021 0.039356127 0.583 4282459410
0.062693797 0.039356127 0.583 4284163355
0.064587384 0.039356127 0.583 4284687902
0.066480964 0.039356127 0.583 4286081888
0.068491839 0.039423637 0.58400005 4286877310
0.070388667 0.039423637 0.58400005 4281675302
0.017099835 0.04089658 0.57800001 4285762429
0.01897718 0.04089658 0.57800001 4286615939
0.020782365 0.040755071 0.57600003 4283713088
0.022574555 0.040613558 0.574 4282721567
0.024396332 0.040542804 0.57300001 4283113497
0.026211614 0.040472049 0.57200003 4282916118
0.028069472 0.040472049 0.57200003 4283112465
0.029927326 0.040472049 0.57200003 4284097816
0.031840753 0.040542804 0.57300001 4283767052
0.033819493 0.040684316 0.57500005 4283573266
0.035749156 0.040755071 0.57600003 4281609234
0.037750628 0.04089658 0.57800001 4281280785
0.039696541 0.040967338 0.57900006 4280887058
0.041648939 0.041038092 0.58000004 4281019159
0.043532778 0.041038092 0.58000004 4280098582
0.045494925 0.041108847 0.58100003 4278782722
0.047382012 0.041108847 0.58100003 4279440398
0.049269103 0.041108847 0.58100003 4278848261
0.051156193 0.041108847 0.58100003 4279897866
0.053134575 0.041179601 0.58200002 4282787362
0.055024914 0.041179601 0.58200002 4284818972
0.05691525 0.041179601 0.58200002 4284948244
0.058805589 0.041179601 0.58200002 4287778624
0.060695924 0.041179601 0.58200002 4284688406
0.062693797 0.041250356 0.583 4284884250
0.064587384 0.041250356 0.583 4284095765
0.066480964 0.041250356 0.583 4286416759
0.068491839 0.041321114 0.58400005 4284705628
0.070388667 0.041321114 0.58400005 4282662715
0.020782365 0.042626552 0.57600003 4286484353
0.022535227 0.042404536 0.57300001 4282072370
0.024311181 0.04225653 0.57100004 4283115557
0.026074139 0.042108521 0.56900001 4282326039
0.027922252 0.042108521 0.56900001 4281671699
0.029822687 0.042182527 0.57000005 4283181598
0.031729616 0.04225653 0.57100004 4284687384
0.033701856 0.042404536 0.57300001 4284292113
0.035687093 0.042552549 0.57500005 4282395154
0.037685316 0.042700555 0.57700002 4281280269
0.039627977 0.042774558 0.57800001 4281149458
0.041577131 0.042848568 0.57900006 4280887056
0.043532778 0.042922571 0.58000004 4280756757
0.045416623 0.042922571 0.58000004 4280756757
0.047382012 0.042996574 0.58100003 4280888089
0.049269103 0.042996574 0.58100003 4280821526
0.051156193 0.042996574 0.58100003 4281606420
0.05304328 0.042996574 0.58100003 4283179288
0.055024914 0.043070577 0.58200002 4284554517
0.05691525 0.043070577 0.58200002 4285539611
0.058805589 0.043070577 0.58200002 4285933338
0.060695924 0.043070577 0.58200002 4285735959
0.062586263 0.043070577 0.58200002 4285474588
0.064587384 0.04314458 0.583 4287387727
0.066480964 0.04314458 0.583 4286942074
0.068491839 0.04321859 0.58400005 4281740320
0.070388667 0.04321859 0.58400005 4285955699
0.022495899 0.044189021 0.57200003 4285894269
0.024226027 0.04395726 0.56900001 4283582272
0.025982492 0.043802753 0.56700003 4281538578
0.027775038 0.043725502 0.56600004 4281606420
0.029665725 0.043802753 0.56700003 4281672726
0.031618476 0.04395726 0.56900001 4283638294
0.033584226 0.044111766 0.57100004 4284556570
0.035625026 0.044343524 0.574 4284423699
0.037620004 0.044498034 0.57600003 4283179022
0.039559416 0.044575289 0.57700002 4281476878
0.041505318 0.04465254 0.57800001 4281017613
0.043457724 0.044729795 0.57900006 4281149458
0.045416623 0.04480705 0.58000004 4281149460
0.047300462 0.04480705 0.58000004 4281083667
0.049184304 0.04480705 0.58000004 4280952081
0.051156193 0.044884302 0.58100003 4281083154
0.05304328 0.044884302 0.58100003 4282459160
0.05493037 0.044884302 0.58100003 4285014298
0.056817457 0.044884302 0.58100003 4285670938
0.058805589 0.044961553 0.58200002 4285801752
0.060695924 0.044961553 0.58200002 4285341201
0.062586263 0.044961553 0.58200002 4286265133
0.064587384 0.045038808 0.583 4284751896
0.066480964 0.045038808 0.583 4283967522
0.068374552 0.045038808 0.583 4283114528
0.024140874 0.045644995 0.56700003 4286156158
0.025845017 0.045403484 0.56400001 4284045901
0.027627818 0.045322981 0.56300002 4282327061
0.029508762 0.045403484 0.56400001 4281474318
0.031507343 0.045644995 0.56700003 4281540623
0.033525411 0.045886502 0.57000005 4283508505
0.035562962 0.046128009 0.57300001 4285014296
0.037554692 0.046289016 0.57500005 4285079832
0.039559416 0.046450019 0.57700002 4283768849
0.041505318 0.046530519 0.57800001 4282785547
0.043457724 0.046611026 0.57900006 4281606668
0.045338318 0.046611026 0.57900006 4281476367
0.047300462 0.046691529 0.58000004 4281410574
0.049184304 0.046691529 0.58000004 4281212941
0.051068146 0.046691529 0.58000004 4281408523
0.05304328 0.046772029 0.58100003 4282981139
0.05493037 0.046772029 0.58100003 4285473820
0.056817457 0.046772029 0.58100003 4285669914
0.058805589 0.046852533 0.58200002 4285932568
0.060695924 0.046852533 0.58200002 4285078029
0.062586263 0.046852533 0.58200002 4288174152
0.064587384 0.046933033 0.583 4285474588
0.066480964 0.046933033 0.583 4284820001
0.068374552 0.046933033 0.583 4284233261
0.031451773 0.047403485 0.56600004 4280554243
0.033466592 0.047654737 0.56900001 4280027392
0.035500899 0.047905993 0.57200003 4284227351
0.037554692 0.048157249 0.57500005 4285211418
0.039490856 0.048241001 0.57600003 4285276441
0.041433513 0.048324749 0.57700002 4285473818
0.043382663 0.048408501 0.57800001 4285080087
0.045338318 0.048492257 0.57900006 4285146650
0.047218911 0.048492257 0.57900006 4284818970
0.049184304 0.048576009 0.58000004 4285082144
0.051068146 0.048576009 0.58000004 4285016351
0.05304328 0.048659757 0.58100003 4285015838
0.05493037 0.048659757 0.58100003 4285474847
0.05691525 0.048743509 0.58200002 4285671199
0.058805589 0.048743509 0.58200002 4285275926
0.060695924 0.048743509 0.58200002 4285341719
0.062693797 0.048827261 0.583 4285671197
0.064587384 0.048827261 0.583 4285671967
0.066480964 0.048827261 0.583 4283900185
0.068374552 0.048827261 0.583 4284037175
0.031451773 0.049242474 0.56600004 4283047704
0.033466592 0.049503475 0.56900001 4282389774
0.035500899 0.049764477 0.57200003 4284555287
0.037554692 0.050025482 0.57500005 4285474590
0.039490856 0.050112482 0.57600003 4287053104
0.041433513 0.050199483 0.57700002 4285406996
0.043382663 0.050286483 0.57800001 4285932570
0.045338318 0.050373487 0.57900006 4286262305
0.047218911 0.050373487 0.57900006 4286724139
0.049184304 0.050460488 0.58000004 4286330408
0.051068146 0.050460488 0.58000004 4289426025
0.05304328 0.050547484 0.58100003 4285346345
0.055024914 0.050634485 0.58200002 4284101673
0.05691525 0.050634485 0.58200002 4284036393
0.058906626 0.050721485 0.583 4284292628
0.06080021 0.050721485 0.583 4284686873
0.062693797 0.050721485 0.583 4284555287
0.064587384 0.050721485 0.583 4284227605
0.066595003 0.050808489 0.58400005 4283179292
0.068374552 0.050721485 0.583 4284502093
0.031562909 0.051261969 0.56800002 4283179803
0.033584226 0.051532719 0.57100004 4284624937
0.035562962 0.051713217 0.57300001 4284949275
0.037554692 0.051893719 0.57500005 4285539100
0.039559416 0.052074216 0.57700002 4285604891
0.041505318 0.052164465 0.57800001 4285209363
0.043382663 0.052164465 0.57800001 4284946961
0.045338318 0.052254722 0.57900006 4284290316
0.047300462 0.05234497 0.58000004 4282586121
0.049184304 0.05234497 0.58000004 4282061322
0.051156193 0.052435219 0.58100003 4281603347
0.053134575 0.052525468 0.58200002 4281803295
0.055024914 0.052525468 0.58200002 4285756771
0.057013039 0.052615717 0.583 4284766280
0.058906626 0.052615717 0.583 4283376667
0.060904503 0.05270597 0.58400005 4283573016
0.062801339 0.05270597 0.58400005 4283638296
0.064698175 0.05270597 0.58400005 4283638555
0.066595003 0.05270597 0.58400005 4283317047
0.068491839 0.05270597 0.58400005 4286482302
0.031785183 0.053481456 0.57200003 4283250993
0.033760674 0.053668451 0.574 4283774507
0.035687093 0.053761955 0.57500005 4284293657
0.037685316 0.05394895 0.57700002 4284816665
0.039627977 0.054042447 0.57800001 4285014296
0.041505318 0.054042447 0.57800001 4284487695
0.043457724 0.054135952 0.57900006 4283897357
0.045338318 0.054135952 0.57900006 4283505940
0.047300462 0.054229449 0.58000004 4280618505
0.049269103 0.054322947 0.58100003 4280488718
0.051156193 0.054322947 0.58100003 4280488720
0.053134575 0.054416444 0.58200002 4280620304
0.055119459 0.054509941 0.583 4281473044
0.057013039 0.054509941 0.583 4281867289
0.059007674 0.054603446 0.58400005 4282458908
0.060904503 0.054603446 0.58400005 4282261016
0.062908873 0.054696944 0.58500004 4282788645
0.064808957 0.054696944 0.58500004 4283514426
0.066595003 0.054603446 0.58400005 4286088827
0.030241249 0.05592043 0.57800001 4279968031
0.031951889 0.055630188 0.57500005 4279504905
0.033819493 0.055630188 0.57500005 4283976512
0.035749156 0.055726934 0.57600003 4283178004
0.037685316 0.05582368 0.57700002 4283768599
0.039627977 0.05592043 0.57800001 4283833620
0.041505318 0.05592043 0.57800001 4283702034
0.043457724 0.056017179 0.57900006 4282981139
0.045338318 0.056017179 0.57900006 4281996812
0.047300462 0.056113929 0.58000004 4281866771
0.049269103 0.056210674 0.58100003 4281670675
0.05124424 0.05630742 0.58200002 4281408535
0.053134575 0.05630742 0.58200002 4282001185
0.055119459 0.05640417 0.583 4284043337
0.057110839 0.056500919 0.58400005 4285295970
0.059108712 0.056597669 0.58500004 4285232487
0.061008792 0.056597669 0.58500004 4285299050
0.062908873 0.056597669 0.58500004 4285365870
0.064808957 0.056597669 0.58500004 4285497458
0.030241249 0.057798408 0.57800001 4279904287
0.03200746 0.057598416 0.57600003 4279771418
0.033878308 0.057598416 0.57600003 4279900944
0.035811223 0.057698414 0.57700002 4284172345
0.037750628 0.057798408 0.57800001 4282392852
0.039627977 0.057798408 0.57800001 4282719252
0.041505318 0.057798408 0.57800001 4282982422
0.043457724 0.05789841 0.57900006 4284170548
0.045338318 0.05789841 0.57900006 4281343248
0.047300462 0.057998408 0.58000004 4280883728
0.049269103 0.058098402 0.58100003 4280358413
0.05124424 0.0581984 0.58200002 4280097553
0.053225871 0.058298394 0.583 4280361752
0.055119459 0.058298394 0.583 4281876531
0.057110839 0.058398396 0.58400005 4283522637
0.059108712 0.058498394 0.58500004 4284248159
0.061113078 0.058598388 0.58600003 4284446051
0.063016407 0.058598388 0.58600003 4284709225
0.030241249 0.05967639 0.57800001 4279970594
0.032063026 0.059573144 0.57700002 4279772188
0.033937123 0.059573144 0.57700002 4279639830
0.035811223 0.059573144 0.57700002 4280229907
0.037750628 0.05967639 0.57800001 4280295184
0.039627977 0.05967639 0.57800001 4281016597
0.041505318 0.05967639 0.57800001 4280950034
0.043457724 0.05977964 0.57900006 4280424720
0.045338318 0.05977964 0.57900006 4280097038
0.047300462 0.059882887 0.58000004 4279835153
0.049184304 0.059882887 0.58000004 4279835156
0.05124424 0.060089376 0.58200002 4279638547
0.053134575 0.060089376 0.58200002 4279835926
0.055119459 0.060192619 0.583 4279705112
0.032063026 0.061447874 0.57700002 4279969567
0.033937123 0.061447874 0.57700002 4279772188
0.035811223 0.061447874 0.57700002 4279771416
0.037750628 0.061554369 0.57800001 4279639830
0.039627977 0.061554369 0.57800001 4279705110
0.041505318 0.061554369 0.57800001 4279704340
0.043382663 0.061554369 0.57800001 4279638547
0.045260008 0.061554369 0.57800001 4279638547
0.047218911 0.061660871 0.57900006 4279573524
0.049184304 0.061767366 0.58000004 4279508244
0.041505318 0.063432351 0.57800001 4279377430
0.043382663 0.063432351 0.57800001 4279508246
0.045260008 0.063432351 0.57800001 4279508246
0.041013829 0.039962661 0.58035755 4294967295
0.041013829 0.039962661 0.58035755 4294901760
0.041013829 0.039466351 0.58041817 4294901760
0.041013829 0.038970042 0.58047885 4294901760
0.041013829 0.038473733 0.58053946 4294901760
0.041013829 0.037977424 0.58060014 4294901760
0.041013829 0.037481114 0.58066076 4294901760
0.041013829 0.036984805 0.58072138 4294901760
0.041013829 0.036488496 0.58078206 4294901760
0.041013829 0.03599219 0.58084267 4294901760
0.041013829 0.035495877 0.58090335 4294901760
0.041013829 0.034999572 0.58096397 4294901760
0.041013829 0.034503262 0.58102459 4294901760
0.041013829 0.034006953 0.58108526 4294901760
0.041013829 0.033510644 0.58114588 4294901760
0.041013829 0.033014335 0.5812065 4294901760
0.041013829 0.032518025 0.58126718 4294901760
0.041013829 0.032021716 0.5813278 4294901760
0.041013829 0.031525407 0.58138847 4294901760
0.041013829 0.031029098 0.58144909 4294901760
0.041013829 0.030532788 0.58150971 4294901760
0.041013829 0.030036479 0.58157039 4294901760
0.041013829 0.02954017 0.581631 4294901760
0.041013829 0.029043861 0.58169168 4294901760
0.041013829 0.028547551 0.5817523 4294901760
0.041013829 0.028051244 0.58181292 4294901760
0.041013829 0.027554935 0.5818736 4294901760
0.041013829 0.027058627 0.58193421 4294901760
0.041013829 0.026562316 0.58199489 4294901760
0.041013829 0.026066009 0.58205551 4294901760
0.041013829 0.0255697 0.58211613 4294901760
0.041013829 0.02507339 0.5821768 4294901760
0.041013829 0.024577081 0.58223742 4294901760
0.041013829 0.024080772 0.58229804 4294901760
0.041013829 0.023584463 0.58235872 4294901760
0.041013829 0.023088153 0.58241934 4294901760
0.041013829 0.022591844 0.58248001 4294901760
0.041013829 0.022095535 0.58254063 4294901760
0.041013829 0.021599226 0.58260125 4294901760
0.041013829 0.021102918 0.58266193 4294901760
0.041013829 0.020606609 0.58272254 4294901760
0.041013829 0.0201103 0.58278322 4294901760
0.041013829 0.019613991 0.58284384 4294901760
0.041013829 0.019117681 0.58290446 4294901760
0.041013829 0.018621372 0.58296514 4294901760
0.041013829 0.018125063 0.58302575 4294901760
0.041013829 0.017628755 0.58308643 4294901760
0.041013829 0.017132444 0.58314705 4294901760
0.041013829 0.016636137 0.58320767 4294901760
0.041013829 0.016139828 0.58326834 4294901760
0.041013829 0.015643518 0.58332896 4294901760
0.041013829 0.015147209 0.58338964 4294901760
0.041013829 0.0146509 0.58345026 4294901760
0.041013829 0.014154593 0.58351088 4294901760
0.041013829 0.013658283 0.58357155 4294901760
0.041013829 0.013161972 0.58363217 4294901760
0.041013829 0.012665663 0.58369279 4294901760
0.041013829 0.012169356 0.58375347 4294901760
0.041013829 0.011673046 0.58381408 4294901760
0.041013829 0.011176737 0.58387476 4294901760
0.041013829 0.01068043 0.58393538 4294901760
0.041013829 0.010184119 0.583996 4294901760
0.041013829 0.0096878093 0.58405668 4294901760
0.041013829 0.0091915 0.58411729 4294901760
0.041013829 0.0086951926 0.58417797 4294901760
0.041013829 0.0081988834 0.58423859 4294901760
0.041013829 0.0077025741 0.58429921 4294901760
0.041013829 0.0072062649 0.58435988 4294901760
0.041013829 0.0067099556 0.5844205 4294901760
0.041013829 0.0062136464 0.58448118 4294901760
0.041013829 0.0057173371 0.5845418 4294901760
0.041013829 0.0052210279 0.58460242 4294901760
0.041013829 0.0047247224 0.58466309 4294901760
0.041013829 0.0042284094 0.58472371 4294901760
0.041013829 0.0037321001 0.58478433 4294901760
0.041013829 0.0032357909 0.58484501 4294901760
0.041013829 0.0027394854 0.58490562 4294901760
0.041013829 0.0022431761 0.5849663 4294901760
0.041013829 0.0017468669 0.58502692 4294901760
0.041013829 0.0012505576 0.58508754 4294901760
0.041013829 0.00075424463 0.58514822 4294901760
0.041013829 0.0002579391 0.58520883 4294901760
0.041013829 -0.00023837015 0.58526951 4294901760
0.041013829 -0.0007346794 0.58533013 4294901760
0.041013829 -0.0012309887 0.58539075 4294901760
0.041013829 -0.0017272979 0.58545142 4294901760
0.041013829 -0.0022236072 0.58551204 4294901760
0.041013829 -0.0027199164 0.58557272 4294901760
0.041013829 -0.0032162257 0.58563334 4294901760
0.041013829 -0.0037125349 0.58569396 4294901760
0.041013829 -0.0042088404 0.58575463 4294901760
0.041013829 -0.0047051497 0.58581525 4294901760
0.041013829 -0.0052014627 0.58587587 4294901760
0.041013829 -0.0056977719 0.58593655 4294901760
0.041013829 -0.0061940812 0.58599716 4294901760
0.041013829 -0.0066903867 0.58605784 4294901760
0.041013829 -0.0071866959 0.58611846 4294901760
0.041013829 -0.0076830052 0.58617908 4294901760
0.041013829 -0.0081793182 0.58623976 4294901760
0.041013829 -0.0086756237 0.58630037 4294901760
0.041013829 -0.0091719329 0.58636105 4294901760
0.041013829 -0.0096682422 0.58642167 4294901760
0.041013829 0.039962661 0.58035755 4278255360
0.041510407 0.039969742 0.58041549 4278255360
0.042006984 0.039976824 0.58047348 4278255360
0.042503566 0.039983906 0.58053142 4278255360
0.043000143 0.039990988 0.58058941 4278255360
0.04349672 0.039998069 0.58064735 4278255360
0.043993302 0.040005155 0.58070534 4278255360
0.044489879 0.040012237 0.58076328 4278255360
0.044986457 0.040019318 0.58082128 4278255360
0.045483034 0.0400264 0.58087921 4278255360
0.045979615 0.040033482 0.58093715 4278255360
0.046476193 0.040040564 0.58099514 4278255360
0.04697277 0.040047646 0.58105308 4278255360
0.047469348 0.040054727 0.58111107 4278255360
0.047965929 0.040061809 0.58116901 4278255360
0.048462506 0.040068891 0.581227 4278255360
0.048959084 0.040075973 0.58128494 4278255360
0.049455665 0.040083058 0.58134294 4278255360
0.049952243 0.04009014 0.58140087 4278255360
0.05044882 0.040097222 0.58145887 4278255360
0.050945397 0.040104304 0.5815168 4278255360
0.051441975 0.040111385 0.58157474 4278255360
0.051938556 0.040118467 0.58163273 4278255360
0.052435134 0.040125549 0.58169067 4278255360
0.052931711 0.040132631 0.58174866 4278255360
0.053428292 0.040139712 0.5818066 4278255360
0.05392487 0.040146794 0.5818646 4278255360
0.054421447 0.040153876 0.58192253 4278255360
0.054918025 0.040160961 0.58198053 4278255360
0.055414602 0.040168043 0.58203846 4278255360
0.055911183 0.040175125 0.58209646 4278255360
0.056407761 0.040182207 0.58215439 4278255360
0.056904338 0.040189289 0.58221233 4278255360
0.057400919 0.04019637 0.58227032 4278255360
0.057897497 0.040203452 0.58232826 4278255360
0.058394074 0.040210534 0.58238626 4278255360
0.058890656 0.040217616 0.58244419 4278255360
0.059387229 0.040224697 0.58250219 4278255360
0.059883811 0.040231779 0.58256012 4278255360
0.060380388 0.040238865 0.58261812 4278255360
0.060876966 0.040245946 0.58267605 4278255360
0.061373547 0.040253028 0.58273399 4278255360
0.06187012 0.04026011 0.58279198 4278255360
0.062366702 0.040267192 0.58284992 4278255360
0.062863283 0.040274274 0.58290792 4278255360
0.063359857 0.040281355 0.58296585 4278255360
0.063856438 0.040288437 0.58302385 4278255360
0.064353019 0.040295519 0.58308178 4278255360
0.064849593 0.040302601 0.58313978 4278255360
0.065346174 0.040309682 0.58319771 4278255360
0.065842748 0.040316768 0.58325565 4278255360
0.066339329 0.04032385 0.58331364 4278255360
0.06683591 0.040330932 0.58337158 4278255360
0.067332484 0.040338013 0.58342957 4278255360
0.067829065 0.040345095 0.58348751 4278255360
0.068325646 0.040352177 0.58354551 4278255360
0.06882222 0.040359259 0.58360344 4278255360
0.069318801 0.04036634 0.58366144 4278255360
0.069815382 0.040373422 0.58371937 4278255360
0.070311956 0.040380504 0.58377737 4278255360
0.070808537 0.040387586 0.5838353 4278255360
0.071305111 0.040394668 0.58389324 4278255360
0.071801692 0.040401753 0.58395123 4278255360
0.072298273 0.040408835 0.58400917 4278255360
0.072794847 0.040415917 0.58406717 4278255360
0.073291428 0.040422998 0.5841251 4278255360
0.07378801 0.04043008 0.5841831 4278255360
0.074284583 0.040437162 0.58424103 4278255360
0.074781165 0.040444244 0.58429903 4278255360
0.075277746 0.040451325 0.58435696 4278255360
0.075774319 0.040458407 0.58441496 4278255360
0.076270893 0.040465489 0.58447289 4278255360
0.076767474 0.040472571 0.58453083 4278255360
0.077264056 0.040479656 0.58458883 4278255360
0.077760637 0.040486738 0.58464676 4278255360
0.078257211 0.04049382 0.58470476 4278255360
0.078753792 0.040500902 0.58476269 4278255360
0.079250365 0.040507983 0.58482069 4278255360
0.079746947 0.040515065 0.58487862 4278255360
0.080243528 0.040522147 0.58493662 4278255360
0.080740109 0.040529229 0.58499455 4278255360
0.081236683 0.040536311 0.58505249 4278255360
0.081733257 0.040543392 0.58511049 4278255360
0.082229838 0.040550474 0.58516842 4278255360
0.082726419 0.04055756 0.58522642 4278255360
0.083223 0.040564641 0.58528435 4278255360
0.083719581 0.040571723 0.58534235 4278255360
0.084216155 0.040578805 0.58540028 4278255360
0.084712729 0.040585887 0.58545828 4278255360
0.08520931 0.040592968 0.58551621 4278255360
0.085705891 0.04060005 0.58557415 4278255360
0.086202472 0.040607132 0.58563215 4278255360
0.086699046 0.040614214 0.58569008 4278255360
0.08719562 0.040621296 0.58574808 4278255360
0.087692201 0.040628377 0.58580601 4278255360
0.088188782 0.040635463 0.58586401 4278255360
0.088685364 0.040642545 0.58592194 4278255360
0.089181945 0.040649626 0.58597994 4278255360
0.089678518 0.040656708 0.58603787 4278255360
0.090175092 0.04066379 0.58609587 4278255360
0.090671673 0.040670872 0.58615381 4278255360
0.041013829 0.039962661 0.58035755 4278190335
0.040955435 0.040022887 0.58085048 4278190335
0.040897042 0.040083114 0.58134335 4278190335
0.040838648 0.040143341 0.58183628 4278190335
0.040780254 0.040203564 0.58232921 4278190335
0.040721864 0.040263791 0.58282208 4278190335
0.04066347 0.040324017 0.58331501 4278190335
0.040605076 0.040384244 0.58380795 4278190335
0.040546682 0.040444471 0.58430088 4278190335
0.040488288 0.040504698 0.58479375 4278190335
0.040429894 0.040564924 0.58528668 4278190335
0.0403715 0.040625148 0.58577961 4278190335
0.040313106 0.040685374 0.58627248 4278190335
0.040254712 0.040745601 0.58676541 4278190335
0.040196322 0.040805828 0.58725834 4278190335
0.040137928 0.040866055 0.58775127 4278190335
0.040079534 0.040926281 0.58824414 4278190335
0.04002114 0.040986508 0.58873707 4278190335
0.039962746 0.041046731 0.58923 4278190335
0.039904352 0.041106958 0.58972287 4278190335
0.039845958 0.041167185 0.5902158 4278190335
0.039787564 0.041227411 0.59070873 4278190335
0.039729171 0.041287638 0.5912016 4278190335
0.03967078 0.041347865 0.59169453 4278190335
0.039612386 0.041408092 0.59218746 4278190335
0.039553992 0.041468315 0.59268034 4278190335
0.039495599 0.041528542 0.59317327 4278190335
0.039437205 0.041588768 0.5936662 4278190335
0.039378811 0.041648995 0.59415913 4278190335
0.039320417 0.041709222 0.594652 4278190335
0.039262023 0.041769449 0.59514493 4278190335
0.039203629 0.041829675 0.59563786 4278190335
0.039145239 0.041889898 0.59613073 4278190335
0.039086845 0.041950125 0.59662366 4278190335
0.039028451 0.042010352 0.59711659 4278190335
0.038970057 0.042070579 0.59760952 4278190335
0.038911663 0.042130806 0.59810239 4278190335
0.038853269 0.042191032 0.59859532 4278190335
0.038794875 0.042251259 0.59908825 4278190335
0.038736481 0.042311482 0.59958112 4278190335
0.038678087 0.042371709 0.60007405 4278190335
0.038619697 0.042431936 0.60056698 4278190335
0.038561303 0.042492162 0.60105985 4278190335
0.038502909 0.042552389 0.60155278 4278190335
0.038444515 0.042612616 0.60204571 4278190335
0.038386121 0.042672843 0.60253859 4278190335
0.038327727 0.04273307 0.60303152 4278190335
0.038269334 0.042793293 0.60352445 4278190335
0.03821094 0.042853519 0.60401738 4278190335
0.038152546 0.042913746 0.60451025 4278190335
0.038094155 0.042973973 0.60500318 4278190335
0.038035762 0.0430342 0.60549611 4278190335
0.037977368 0.043094426 0.60598898 4278190335
0.037918974 0.043154653 0.60648191 4278190335
0.03786058 0.04321488 0.60697484 4278190335
0.037802186 0.043275103 0.60746777 4278190335
0.037743792 0.04333533 0.60796064 4278190335
0.037685398 0.043395557 0.60845357 4278190335
0.037627004 0.043455783 0.6089465 4278190335
0.037568614 0.04351601 0.60943937 4278190335
0.03751022 0.043576237 0.6099323 4278190335
0.037451826 0.043636464 0.61042523 4278190335
0.037393432 0.043696687 0.6109181 4278190335
0.037335038 0.043756913 0.61141104 4278190335
0.037276644 0.04381714 0.61190397 4278190335
0.03721825 0.043877367 0.61239684 4278190335
0.037159856 0.043937594 0.61288977 4278190335
0.037101462 0.04399782 0.6133827 4278190335
0.037043072 0.044058047 0.61387563 4278190335
0.036984678 0.04411827 0.6143685 4278190335
0.036926284 0.044178497 0.61486143 4278190335
0.036867891 0.044238724 0.61535436 4278190335
0.036809497 0.044298951 0.61584723 4278190335
0.036751103 0.044359177 0.61634016 4278190335
0.036692709 0.044419404 0.61683309 4278190335
0.036634315 0.044479631 0.61732602 4278190335
0.036575921 0.044539854 0.61781889 4278190335
0.036517531 0.044600081 0.61831182 4278190335
0.036459137 0.044660307 0.61880475 4278190335
0.036400743 0.044720534 0.61929762 4278190335
0.036342349 0.044780761 0.61979055 4278190335
0.036283955 0.044840988 0.62028348 4278190335
0.036225561 0.044901215 0.62077636 4278190335
0.036167167 0.044961438 0.62126929 4278190335
0.036108773 0.045021664 0.62176222 4278190335
0.036050379 0.045081891 0.62225509 4278190335
0.035991989 0.045142118 0.62274802 4278190335
0.035933595 0.045202345 0.62324095 4278190335
0.035875201 0.045262571 0.62373388 4278190335
0.035816807 0.045322798 0.62422675 4278190335
0.035758413 0.045383021 0.62471968 4278190335
0.035700019 0.045443248 0.62521261 4278190335
0.035641626 0.045503475 0.62570548 4278190335
0.035583232 0.045563702 0.62619841 4278190335
0.035524838 0.045623928 0.62669134 4278190335
0.035466447 0.045684155 0.62718427 4278190335
0.035408054 0.045744382 0.62767714 4278190335
0.03534966 0.045804605 0.62817007 4278190335
0.035291266 0.045864832 0.628663 4278190335
0.035232872 0.045925058 0.62915587 4278190335
0.035174478 0.045985285 0.6296488 4278190335
0.041013829 0.039962661 0.58035755 4294967295
0.041130617 0.039842207 0.57937175 4294967295
0.041247405 0.039721757 0.57838589 4294967295
0.041364189 0.039601304 0.57740009 4294967295
0.041480977 0.03948085 0.57641423 4294967295
0.041597765 0.039360397 0.57542843 4294967295
0.041714553 0.039239947 0.57444263 4294967295
0.041831337 0.039119493 0.57345676 4294967295
0.041948125 0.03899904 0.57247096 4294967295
0.042064913 0.03887859 0.5714851 4294967295
0.0421817 0.038758136 0.5704993 4294967295
0.042298488 0.038637683 0.56951344 4294967295
0.042415272 0.038517229 0.56852764 4294967295
0.04253206 0.038396779 0.56754184 4294967295
0.042648848 0.038276326 0.56655598 4294967295
0.042765636 0.038155872 0.56557018 4294967295
0.04288242 0.038035423 0.56458431 4294967295
0.042999208 0.037914969 0.56359851 4294967295
0.043115996 0.037794515 0.56261271 4294967295
0.043232784 0.037674062 0.56162685 4294967295
0.043349572 0.037553612 0.56064105 4294967295
0.043466356 0.037433159 0.55965519 4294967295
0.043583144 0.037312705 0.55866939 4294967295
0.043699931 0.037192252 0.55768359 4294967295
0.043816719 0.037071802 0.55669773 4294967295
0.043933503 0.036951348 0.55571193 4294967295
0.044050291 0.036830895 0.55472606 4294967295
0.044167079 0.036710441 0.55374026 4294967295
0.044283867 0.036589991 0.55275446 4294967295
0.044400655 0.036469538 0.5517686 4294967295
0.044517439 0.036349084 0.5507828 4294967295
0.044634227 0.036228634 0.54979694 4294967295
0.044751015 0.036108181 0.54881114 4294967295
0.044867802 0.035987727 0.54782528 4294967295
0.044984587 0.035867274 0.54683948 4294967295
0.045101374 0.035746824 0.54585367 4294967295
0.045218162 0.03562637 0.54486781 4294967295
0.04533495 0.035505917 0.54388201 4294967295
0.045451738 0.035385467 0.54289615 4294967295
0.045568522 0.035265014 0.54191035 4294967295
0.04568531 0.03514456 0.54092455 4294967295
0.045802098 0.035024107 0.53993869 4294967295
0.045918886 0.034903657 0.53895289 4294967295
0.04603567 0.034783203 0.53796703 4294967295
0.046152458 0.03466275 0.53698123 4294967295
0.046269245 0.0345423 0.53599542 4294967295
0.046386033 0.034421846 0.53500956 4294967295
0.046502821 0.034301393 0.53402376 4294967295
0.046619605 0.034180939 0.5330379 4294967295
0.046736393 0.034060489 0.5320521 4294967295
0.046853181 0.033940036 0.5310663 4294967295
0.046969969 0.033819582 0.53008044 4294967295
0.047086753 0.033699133 0.52909464 4294967295
0.047203541 0.033578679 0.52810878 4294967295
0.047320329 0.033458225 0.52712297 4294967295
0.047437117 0.033337772 0.52613711 4294967295
