# .PCD v0.7 - Point Cloud Data file format
VERSION 0.7
FIELDS x y z rgb
SIZE 4 4 4 4
TYPE F F F U
COUNT 1 1 1 1
WIDTH 1044
HEIGHT 1
VIEWPOINT 0 0 0 1 0 0 0
POINTS 1044
DATA ascii
0.027143618 0.024289194 0.37800002 4278196227
0.028371362 0.024289194 0.37800002 4278196228
0.029599108 0.024289194 0.37800002 4278197767
0.030826852 0.024289194 0.37800002 4278791701
0.032054599 0.024289194 0.37800002 4278923541
0.033194292 0.024224935 0.377 4278858259
0.034418788 0.024224935 0.377 4278858773
0.035643287 0.024224935 0.377 4278924566
0.036867782 0.024224935 0.377 4278595601
0.038092278 0.024224935 0.377 4278596371
0.039316773 0.024224935 0.377 4278465298
0.040541269 0.024224935 0.377 4278531091
0.041765768 0.024224935 0.377 4278400275
0.043104298 0.024289194 0.37800002 4278400275
0.044332046 0.024289194 0.37800002 4278400275
0.04555979 0.024289194 0.37800002 4278334995
0.04678753 0.024289194 0.37800002 4278664214
0.048015274 0.024289194 0.37800002 4278664212
0.049373291 0.02435345 0.37900001 4278467603
0.050604288 0.02435345 0.37900001 4278401810
0.051835276 0.02435345 0.37900001 4278533396
0.053066269 0.02435345 0.37900001 4278533396
0.054440532 0.024417708 0.38000003 4278731289
0.055674773 0.024417708 0.38000003 4278928668
0.05690901 0.024417708 0.38000003 4278797082
0.058296259 0.024481965 0.38100001 4278928668
0.059533749 0.024481965 0.38100001 4278928668
0.06093074 0.024546223 0.38200003 4279059740
0.062171482 0.024546223 0.38200003 4279059740
0.063744217 0.024674736 0.384 4279452711
-0.030496629 0.026529947 0.39300001 4279772953
-0.029294519 0.026597453 0.39400002 4279772188
-0.028014803 0.026597453 0.39400002 4279771416
-0.020284912 0.026529947 0.39300001 4279707422
-0.018960079 0.026462441 0.39200002 4279640602
-0.017641744 0.026394935 0.39100003 4279838494
-0.016413648 0.026462441 0.39200002 4279445785
-0.014792819 0.025854886 0.38300002 4279249687
-0.013548833 0.025854886 0.38300002 4278990359
-0.012272721 0.02578738 0.38200003 4278860310
-0.011031985 0.02578738 0.38200003 4278729494
-0.0097912485 0.02578738 0.38200003 4278993179
-0.0085281283 0.025719872 0.38100001 4278599191
-0.007290639 0.025719872 0.38100001 4278533396
-0.0060372627 0.025652368 0.38000003 4278401810
-0.0048030224 0.025652368 0.38000003 4278204431
-0.0035593901 0.02558486 0.37900001 4278532628
-0.0023283972 0.02558486 0.37900001 4278532628
-0.0010945091 0.025517354 0.37800002 4278335249
0.00013323547 0.025517354 0.37800002 4278335249
0.0013609801 0.025517354 0.37800002 4278335249
0.0025887247 0.025517354 0.37800002 4278400529
0.0038164693 0.025517354 0.37800002 4278921234
0.0050442144 0.025517354 0.37800002 4279379990
0.0062719584 0.025517354 0.37800002 4278858261
0.0074997037 0.025517354 0.37800002 4278595603
0.0087274481 0.025517354 0.37800002 4278392332
0.0099551929 0.025517354 0.37800002 4278852113
0.011182938 0.025517354 0.37800002 4278391562
0.012410683 0.025517354 0.37800002 4278522632
0.013638427 0.025517354 0.37800002 4278654218
0.014866171 0.025517354 0.37800002 4278654218
0.016093915 0.025517354 0.37800002 4278719498
0.017321661 0.025517354 0.37800002 4278719498
0.018549407 0.025517354 0.37800002 4278719500
0.019777149 0.025517354 0.37800002 4278719498
0.021004895 0.025517354 0.37800002 4278719498
0.022232641 0.025517354 0.37800002 4278719500
0.023460384 0.025517354 0.37800002 4278460685
0.024688128 0.025517354 0.37800002 4278792214
0.025915874 0.025517354 0.37800002 4278924314
0.027143618 0.025517354 0.37800002 4279121693
0.028371362 0.025517354 0.37800002 4278923287
0.029599108 0.025517354 0.37800002 4279252252
0.030826852 0.025517354 0.37800002 4278856211
0.032054599 0.025517354 0.37800002 4279250969
0.033282343 0.025517354 0.37800002 4278856211
0.034510083 0.025517354 0.37800002 4278198024
0.035737831 0.025517354 0.37800002 4278195200
0.036965575 0.025517354 0.37800002 4278195972
0.038193323 0.025517354 0.37800002 4278194688
0.039421067 0.025517354 0.37800002 4278194432
0.040648807 0.025517354 0.37800002 4278194176
0.041876554 0.025517354 0.37800002 4278195456
0.043104298 0.025517354 0.37800002 4278196994
0.044449326 0.02558486 0.37900001 4278331404
0.045680314 0.02558486 0.37900001 4278266638
0.046911307 0.02558486 0.37900001 4278924568
0.048142299 0.02558486 0.37900001 4278924566
0.049503569 0.025652368 0.38000003 4278925336
0.050737809 0.025652368 0.38000003 4278465298
0.051972046 0.025652368 0.38000003 4278465298
0.053206287 0.025652368 0.38000003 4278334482
0.054583795 0.025719872 0.38100001 4278598167
0.055821285 0.025719872 0.38100001 4278532628
0.05705877 0.025719872 0.38100001 4278795800
0.058449272 0.02578738 0.38200003 4278730005
0.05969001 0.02578738 0.38200003 4278599189
0.061090246 0.025854886 0.38300002 4278928154
0.062496983 0.02592239 0.384 4278928154
0.063910216 0.025989898 0.38500002 4278928156
0.065329939 0.026057404 0.38600001 4278663960
-0.030574229 0.027877599 0.39400002 4279443223
-0.029294519 0.027877599 0.39400002 4279574039
-0.028085906 0.027948353 0.39500001 4279639832
-0.026802946 0.027948353 0.39500001 4280034588
-0.020233298 0.027736088 0.39200002 4279838494
-0.018911714 0.027665334 0.39100003 4279640602
-0.017551504 0.027523823 0.38900003 4279838492
-0.016162418 0.027311556 0.38600001 4279511576
-0.014831441 0.027170045 0.384 4279315478
-0.013548833 0.027099291 0.38300002 4278991383
-0.012304849 0.027099291 0.38300002 4278729494
-0.011031985 0.027028536 0.38200003 4278664214
-0.0097912485 0.027028536 0.38200003 4278664982
-0.0085281283 0.02695778 0.38100001 4278467603
-0.007290639 0.02695778 0.38100001 4278467603
-0.0060372627 0.026887026 0.38000003 4278467603
-0.0048030224 0.026887026 0.38000003 4278336017
-0.0035593901 0.026816269 0.37900001 4278336019
-0.0023283972 0.026816269 0.37900001 4278598421
-0.0010974046 0.026816269 0.37900001 4278335249
0.00013323547 0.026745515 0.37800002 4278269456
0.0013609801 0.026745515 0.37800002 4278466581
0.0025887247 0.026745515 0.37800002 4278203409
0.0038164693 0.026745515 0.37800002 4278196742
0.0050442144 0.026745515 0.37800002 4279183381
0.0062719584 0.026745515 0.37800002 4278792468
0.0074997037 0.026745515 0.37800002 4278858261
0.0087274481 0.026745515 0.37800002 4278588939
0.0099551929 0.026745515 0.37800002 4279971362
0.011182938 0.026745515 0.37800002 4278918674
0.012410683 0.026745515 0.37800002 4278458123
0.013638427 0.026745515 0.37800002 4279445018
0.014866171 0.026745515 0.37800002 4278721295
0.016093915 0.026745515 0.37800002 4278985234
0.017321661 0.026745515 0.37800002 4279840543
0.018549407 0.026745515 0.37800002 4278918928
0.019777149 0.026745515 0.37800002 4279247123
0.021004895 0.026745515 0.37800002 4279444502
0.022232641 0.026745515 0.37800002 4278523146
0.023522448 0.026816269 0.37900001 4279118103
0.02475344 0.026816269 0.37900001 4278989593
0.025984434 0.026816269 0.37900001 4278596119
0.027215425 0.026816269 0.37900001 4278332947
0.028446417 0.026816269 0.37900001 4278725908
0.029677412 0.026816269 0.37900001 4278989847
0.030908404 0.026816269 0.37900001 4278924566
0.032054599 0.026745515 0.37800002 4278858773
0.033282343 0.026745515 0.37800002 4278727187
0.034510083 0.026745515 0.37800002 4278858773
0.035737831 0.026745515 0.37800002 4278924566
0.036965575 0.026745515 0.37800002 4278858773
0.038193323 0.026745515 0.37800002 4278989845
0.039525352 0.026816269 0.37900001 4279318810
0.040756345 0.026816269 0.37900001 4278989845
0.041987337 0.026816269 0.37900001 4279055125
0.04321833 0.026816269 0.37900001 4279120920
0.044449326 0.026816269 0.37900001 4279252506
0.045800846 0.026887026 0.38000003 4278791185
0.047035087 0.026887026 0.38000003 4278725138
0.048269324 0.026887026 0.38000003 4278658064
0.049633838 0.02695778 0.38100001 4278263306
0.050871328 0.02695778 0.38100001 4278196228
0.052108813 0.02695778 0.38100001 4278194432
0.053346302 0.02695778 0.38100001 4278193920
0.054727063 0.027028536 0.38200003 4278198023
0.0559678 0.027028536 0.38200003 4278531345
0.057208531 0.027028536 0.38200003 4278728724
0.058602277 0.027099291 0.38300002 4278663701
0.060002517 0.027170045 0.384 4278400529
0.061249748 0.027170045 0.384 4278532628
0.062659733 0.027240802 0.38500002 4278664214
0.064076215 0.027311556 0.38600001 4278729753
0.065329939 0.027311556 0.38600001 4278795546
0.066756174 0.027382312 0.38700002 4280568629
-0.033133656 0.029157747 0.39400002 4279773213
-0.03185394 0.029157747 0.39400002 4279443221
-0.030651828 0.029231749 0.39500001 4279443223
-0.029368868 0.029231749 0.39500001 4279509014
-0.028157011 0.029305754 0.39600003 4279837209
-0.020233298 0.029009737 0.39200002 4280231967
-0.018911714 0.028935732 0.39100003 4279903002
-0.017551504 0.028787725 0.38900003 4279969565
-0.016162418 0.028565709 0.38600001 4279511576
-0.014831441 0.028417701 0.384 4279381271
-0.013548833 0.028343696 0.38300002 4279056922
-0.012304849 0.028343696 0.38300002 4278729494
-0.011031985 0.028269693 0.38200003 4278730007
-0.0097912485 0.028269693 0.38200003 4278664982
-0.0085505117 0.028269693 0.38200003 4278599189
-0.007290639 0.028195687 0.38100001 4278533396
-0.0060531502 0.028195687 0.38100001 4278336019
-0.0048030224 0.028121684 0.38000003 4278336019
-0.0035687818 0.028121684 0.38000003 4278204433
-0.0023283972 0.028047679 0.37900001 4278335249
-0.0010974046 0.028047679 0.37900001 4278269456
0.00013323547 0.027973674 0.37800002 4278466835
0.0013609801 0.027973674 0.37800002 4278335249
0.0025887247 0.027973674 0.37800002 4278466835
0.0038164693 0.027973674 0.37800002 4278328585
0.0050442144 0.027973674 0.37800002 4279117588
0.0062719584 0.027973674 0.37800002 4278924568
0.0074997037 0.027973674 0.37800002 4278791701
0.0087274481 0.027973674 0.37800002 4278589963
0.0099551929 0.027973674 0.37800002 4279511065
0.011182938 0.027973674 0.37800002 4278459660
0.012410683 0.027973674 0.37800002 4278722832
0.013638427 0.027973674 0.37800002 4279906336
0.014866171 0.027973674 0.37800002 4278392330
0.016093915 0.027973674 0.37800002 4279511578
0.017367486 0.028047679 0.37900001 4278260998
0.018598478 0.028047679 0.37900001 4278260998
0.019829469 0.028047679 0.37900001 4279774748
0.021060463 0.028047679 0.37900001 4278657039
0.022291455 0.028047679 0.37900001 4278458123
0.023522448 0.028047679 0.37900001 4279579936
0.02475344 0.028047679 0.37900001 4278661142
0.025984434 0.028047679 0.37900001 4278200336
0.027215425 0.028047679 0.37900001 4278197514
0.028446417 0.028047679 0.37900001 4278393097
0.029677412 0.028047679 0.37900001 4278393865
0.030908404 0.028047679 0.37900001 4278660369
0.032139398 0.028047679 0.37900001 4278397197
0.033370391 0.028047679 0.37900001 4278199307
0.034601379 0.028047679 0.37900001 4278726162
0.035832375 0.028047679 0.37900001 4278200072
0.037063368 0.028047679 0.37900001 4278197504
0.03829436 0.028047679 0.37900001 4278397710
0.039525352 0.028047679 0.37900001 4278727189
0.040863883 0.028121684 0.38000003 4278727187
0.042098124 0.028121684 0.38000003 4278727957
0.043332364 0.028121684 0.38000003 4278793750
0.044566605 0.028121684 0.38000003 4278793750
0.045921374 0.028195687 0.38100001 4278596371
0.04715886 0.028195687 0.38100001 4278793750
0.048396349 0.028195687 0.38100001 4278727957
0.049633838 0.028195687 0.38100001 4279056922
0.051004853 0.028269693 0.38200003 4278727189
0.052245583 0.028269693 0.38200003 4278858775
0.053486321 0.028269693 0.38200003 4278792468
0.054870322 0.028343696 0.38300002 4278198023
0.056114309 0.028343696 0.38300002 4278464015
0.057358291 0.028343696 0.38300002 4278596625
0.058755282 0.028417701 0.384 4278794517
0.060158778 0.028491706 0.38500002 4278728724
0.061409254 0.028491706 0.38500002 4278400275
0.062822483 0.028565709 0.38600001 4278531861
0.064076215 0.028565709 0.38600001 4278597654
0.065499194 0.028639715 0.38700002 4278663449
0.066756174 0.028639715 0.38700002 4278595353
-0.032015637 0.030592399 0.39600003 4280100372
-0.025713811 0.030746907 0.39800003 4283852369
-0.020233298 0.030283384 0.39200002 4279772186
-0.018863345 0.030128878 0.39000002 4279903002
-0.017506385 0.029974369 0.38800001 4280232737
-0.016162418 0.029819863 0.38600001 4279971616
-0.014831441 0.029665355 0.384 4279381273
-0.013548833 0.029588103 0.38300002 4279254301
-0.012304849 0.029588103 0.38300002 4278597908
-0.011060865 0.029588103 0.38300002 4278598421
-0.0097912485 0.02951085 0.38200003 4278795800
-0.0085505117 0.02951085 0.38200003 4278664212
-0.007290639 0.029433595 0.38100001 4278664212
-0.0060531502 0.029433595 0.38100001 4278467605
-0.0048030224 0.029356342 0.38000003 4278401812
-0.0035687818 0.029356342 0.38000003 4278204433
-0.0023283972 0.029279089 0.37900001 4278336019
-0.0010974046 0.029279089 0.37900001 4278598421
0.00013323547 0.029201835 0.37800002 4278532628
0.0013609801 0.029201835 0.37800002 4278335249
0.0025887247 0.029201835 0.37800002 4278202896
0.0038164693 0.029201835 0.37800002 4278524681
0.0050442144 0.029201835 0.37800002 4278195201
0.0062719584 0.029201835 0.37800002 4278661396
0.0074997037 0.029201835 0.37800002 4278725908
0.0087274481 0.029201835 0.37800002 4278523146
0.0099551929 0.029201835 0.37800002 4278523146
0.011182938 0.029201835 0.37800002 4278522634
0.012410683 0.029201835 0.37800002 4278522634
0.013638427 0.029201835 0.37800002 4278391560
0.014905499 0.029279089 0.37900001 4278391560
0.016136492 0.029279089 0.37900001 4278786318
0.017367486 0.029279089 0.37900001 4278588939
0.018598478 0.029279089 0.37900001 4279182100
0.019829469 0.029279089 0.37900001 4279380760
0.021060463 0.029279089 0.37900001 4279644443
0.022291455 0.029279089 0.37900001 4278523916
0.023522448 0.029279089 0.37900001 4278658834
0.02475344 0.029279089 0.37900001 4278727189
0.025984434 0.029279089 0.37900001 4278195719
0.027287235 0.029356342 0.38000003 4278392330
0.028521474 0.029356342 0.38000003 4278588941
0.029755717 0.029356342 0.38000003 4278193923
0.030989956 0.029356342 0.38000003 4278197253
0.032224201 0.029356342 0.38000003 4278923287
0.033458438 0.029356342 0.38000003 4278923287
0.034692679 0.029356342 0.38000003 4278331150
0.035926919 0.029356342 0.38000003 4278660369
0.03716116 0.029356342 0.38000003 4279187226
0.038395401 0.029356342 0.38000003 4278397197
0.039629642 0.029356342 0.38000003 4278660115
0.040863883 0.029356342 0.38000003 4278660369
0.042098124 0.029356342 0.38000003 4278196992
0.043446396 0.029433595 0.38100001 4278726675
0.044683885 0.029433595 0.38100001 4278660882
0.045921374 0.029433595 0.38100001 4278199817
0.04728264 0.02951085 0.38200003 4278199563
0.048523374 0.02951085 0.38200003 4278727189
0.049764112 0.02951085 0.38200003 4278464015
0.051138371 0.029588103 0.38300002 4278793750
0.05238235 0.029588103 0.38300002 4278596373
0.053626336 0.029588103 0.38300002 4278596373
0.054870322 0.029588103 0.38300002 4278198023
0.05626082 0.029665355 0.384 4279121433
0.057508048 0.029665355 0.384 4278727957
0.058908295 0.02974261 0.38500002 4278728724
0.060158778 0.02974261 0.38500002 4278662931
0.061568756 0.029819863 0.38600001 4278597908
0.062822483 0.029819863 0.38600001 4278597654
0.064242221 0.029897118 0.38700002 4278531861
0.065499194 0.029897118 0.38700002 4278728472
0.066756174 0.029897118 0.38700002 4278397974
-0.027074369 0.032120552 0.39900002 4280165393
-0.024482463 0.032120552 0.39900002 4279836178
-0.022954063 0.031798538 0.39500001 4279639569
-0.021616241 0.031718038 0.39400002 4279772951
-0.020233298 0.031557031 0.39200002 4283523154
-0.018863345 0.031396028 0.39000002 4279443734
-0.017461266 0.031154519 0.38700002 4279706395
-0.016120547 0.030993514 0.38500002 4279774748
-0.014831441 0.03091301 0.384 4279644959
-0.013584209 0.03091301 0.384 4278991129
-0.012304849 0.030832509 0.38300002 4278926103
-0.011060865 0.030832509 0.38300002 4278795287
-0.0097912485 0.030752007 0.38200003 4278729494
-0.0085505117 0.030752007 0.38200003 4278730007
-0.0073097749 0.030752007 0.38200003 4278664212
-0.0060531502 0.030671503 0.38100001 4278532626
-0.0048030224 0.030591002 0.38000003 4278335249
-0.0035687818 0.030591002 0.38000003 4278598421
-0.0023283972 0.030510496 0.37900001 4278466835
-0.0010974046 0.030510496 0.37900001 4278335249
0.00013323547 0.030429995 0.37800002 4278466835
0.0013609801 0.030429995 0.37800002 4278532628
0.0025887247 0.030429995 0.37800002 4278400275
0.0038164693 0.030429995 0.37800002 4279052822
0.0050442144 0.030429995 0.37800002 4279315480
0.0062719584 0.030429995 0.37800002 4278727187
0.0074997037 0.030429995 0.37800002 4278726162
0.0087274481 0.030429995 0.37800002 4278720011
0.0099551929 0.030429995 0.37800002 4278720011
0.011182938 0.030429995 0.37800002 4278785293
0.012410683 0.030429995 0.37800002 4278719500
0.013638427 0.030429995 0.37800002 4278719500
0.014905499 0.030510496 0.37900001 4278587914
0.016136492 0.030510496 0.37900001 4278785293
0.017367486 0.030510496 0.37900001 4278719500
0.018598478 0.030510496 0.37900001 4278720013
0.019829469 0.030510496 0.37900001 4278522632
0.021060463 0.030510496 0.37900001 4278391560
0.022291455 0.030510496 0.37900001 4278523146
0.023584513 0.030591002 0.38000003 4279185689
0.024818754 0.030591002 0.38000003 4278726675
0.026052997 0.030591002 0.38000003 4278262794
0.027287235 0.030591002 0.38000003 4278522632
0.028521474 0.030591002 0.38000003 4278720013
0.029755717 0.030591002 0.38000003 4278918674
0.030989956 0.030591002 0.38000003 4278856211
0.032224201 0.030591002 0.38000003 4278725138
0.033458438 0.030591002 0.38000003 4278199564
0.034692679 0.030591002 0.38000003 4278857494
0.035926919 0.030591002 0.38000003 4278264587
0.03716116 0.030591002 0.38000003 4279252506
0.038395401 0.030591002 0.38000003 4278266124
0.039733931 0.030671503 0.38100001 4279187226
0.040971417 0.030671503 0.38100001 4278263306
0.042208906 0.030671503 0.38100001 4278921236
0.043446396 0.030671503 0.38100001 4278329099
0.044801168 0.030752007 0.38200003 4278593041
0.046041902 0.030752007 0.38200003 4279054873
0.04728264 0.030752007 0.38200003 4278660115
0.048523374 0.030752007 0.38200003 4278461968
0.049894385 0.030832509 0.38300002 4278790931
0.051138371 0.030832509 0.38300002 4278397456
0.05238235 0.030832509 0.38300002 4278793752
0.053766351 0.03091301 0.384 4278596373
0.055013586 0.03091301 0.384 4278196480
0.05626082 0.03091301 0.384 4278858261
0.057657812 0.030993514 0.38500002 4278727957
0.058908295 0.030993514 0.38500002 4278662677
0.060315032 0.031074015 0.38600001 4278531861
0.061568756 0.031074015 0.38600001 4278532374
0.062985241 0.031154519 0.38700002 4278466581
0.064242221 0.031154519 0.38700002 4278531093
0.065499194 0.031154519 0.38700002 4278728472
0.066756174 0.031154519 0.38700002 4278594837
-0.023593292 0.034003206 0.40600002 4279836948
-0.017416146 0.03232817 0.38600001 4283722078
-0.016120547 0.032244418 0.38500002 4279117849
-0.014831441 0.032160666 0.384 4279646242
-0.013584209 0.032160666 0.384 4279188510
-0.012304849 0.032076914 0.38300002 4278860058
-0.011060865 0.032076914 0.38300002 4278729242
-0.0098168794 0.032076914 0.38300002 4278860826
-0.0085505117 0.031993162 0.38200003 4278663960
-0.0073097749 0.031993162 0.38200003 4278664214
-0.0060531502 0.03190941 0.38100001 4278466835
-0.0048156618 0.03190941 0.38100001 4278466835
-0.0035687818 0.031825658 0.38000003 4278466835
-0.0023283972 0.031741906 0.37900001 4278532628
-0.0010974046 0.031741906 0.37900001 4278466835
0.00013323547 0.031658158 0.37800002 4278598421
0.0013609801 0.031658158 0.37800002 4278597908
0.0025887247 0.031658158 0.37800002 4278200585
0.0038164693 0.031658158 0.37800002 4278462220
0.0050442144 0.031658158 0.37800002 4278198537
0.0062719584 0.031658158 0.37800002 4278990359
0.0074997037 0.031658158 0.37800002 4278924566
0.0087274481 0.031658158 0.37800002 4279383322
0.0099551929 0.031658158 0.37800002 4279316762
0.011182938 0.031658158 0.37800002 4279183383
0.012410683 0.031658158 0.37800002 4278525453
0.013674506 0.031741906 0.37900001 4278655756
0.014905499 0.031741906 0.37900001 4278524170
0.016136492 0.031741906 0.37900001 4278522632
0.017367486 0.031741906 0.37900001 4278522632
0.018598478 0.031741906 0.37900001 4278522634
0.019829469 0.031741906 0.37900001 4278720013
0.021060463 0.031741906 0.37900001 4278720013
0.022350272 0.031825658 0.38000003 4278522634
0.023584513 0.031825658 0.38000003 4278856213
0.024818754 0.031825658 0.38000003 4278922517
0.026052997 0.031825658 0.38000003 4279053590
0.027287235 0.031825658 0.38000003 4279512859
0.028521474 0.031825658 0.38000003 4279906336
0.029755717 0.031825658 0.38000003 4279512859
0.030989956 0.031825658 0.38000003 4278922517
0.032224201 0.031825658 0.38000003 4278988310
0.033458438 0.031825658 0.38000003 4279252252
0.034692679 0.031825658 0.38000003 4278792214
0.036021464 0.03190941 0.38100001 4279055386
0.037258953 0.03190941 0.38100001 4278791701
0.038496442 0.03190941 0.38100001 4278924314
0.039733931 0.03190941 0.38100001 4278990361
0.040971417 0.03190941 0.38100001 4278858261
0.042208906 0.03190941 0.38100001 4278923541
0.04356043 0.031993162 0.38200003 4278725138
0.044801168 0.031993162 0.38200003 4278988312
0.046041902 0.031993162 0.38200003 4278197511
0.047406413 0.032076914 0.38300002 4278396175
0.048650399 0.032076914 0.38300002 4279185691
0.049894385 0.032076914 0.38300002 4278461968
0.051138371 0.032076914 0.38300002 4278198539
0.052519117 0.032160666 0.384 4278924568
0.053766351 0.032160666 0.384 4278464787
0.055013586 0.032160666 0.384 4278196225
0.056407336 0.032244418 0.38500002 4278596373
0.057657812 0.032244418 0.38500002 4278728472
0.0590613 0.03232817 0.38600001 4278531861
0.060315032 0.03232817 0.38600001 4278597654
0.061728265 0.032411922 0.38700002 4278531861
0.062985241 0.032411922 0.38700002 4278531861
0.064242221 0.032411922 0.38700002 4278794265
0.065499194 0.032411922 0.38700002 4278925851
0.066756174 0.032411922 0.38700002 4278989595
0.068013154 0.032411922 0.38700002 4284778614
-0.016120547 0.033495322 0.38500002 4280038953
-0.014831441 0.033408321 0.384 4279513123
-0.013584209 0.033408321 0.384 4279451428
-0.012336976 0.033408321 0.384 4278860058
-0.011060865 0.033321321 0.38300002 4278927134
-0.0098168794 0.033321321 0.38300002 4278992925
-0.0085728951 0.033321321 0.38300002 4278532374
-0.0073097749 0.033234321 0.38200003 4278663960
-0.0060690381 0.033234321 0.38200003 4278664214
-0.0048156618 0.033147316 0.38100001 4278598421
-0.0035687818 0.03306032 0.38000003 4278597908
-0.0023345409 0.03306032 0.38000003 4278663701
-0.0010974046 0.032973316 0.37900001 4278663701
0.00013323547 0.032886315 0.37800002 4278400529
0.0013609801 0.032886315 0.37800002 4278597908
0.0025887247 0.032886315 0.37800002 4278793750
0.0038164693 0.032886315 0.37800002 4278989845
0.0050442144 0.032886315 0.37800002 4278792466
0.0062719584 0.032886315 0.37800002 4278858773
0.0074997037 0.032886315 0.37800002 4278925336
0.0087274481 0.032886315 0.37800002 4278596371
0.0099551929 0.032886315 0.37800002 4278793750
0.011182938 0.032886315 0.37800002 4278858773
0.012443515 0.032973316 0.37900001 4278924566
0.013674506 0.032973316 0.37900001 4278727187
0.014905499 0.032973316 0.37900001 4278989845
0.016136492 0.032973316 0.37900001 4278858261
0.017367486 0.032973316 0.37900001 4279055640
0.018598478 0.032973316 0.37900001 4278923541
0.019881791 0.03306032 0.38000003 4279186713
0.021116031 0.03306032 0.38000003 4279317275
0.022350272 0.03306032 0.38000003 4278922004
0.023584513 0.03306032 0.38000003 4279383068
0.024818754 0.03306032 0.38000003 4278922517
0.026052997 0.03306032 0.38000003 4278527248
0.027287235 0.03306032 0.38000003 4278197513
0.028521474 0.03306032 0.38000003 4278196486
0.029755717 0.03306032 0.38000003 4278195715
0.030989956 0.03306032 0.38000003 4278195200
0.032308999 0.033147316 0.38100001 4278195200
0.033546485 0.033147316 0.38100001 4278194176
0.034783974 0.033147316 0.38100001 4278196228
0.036021464 0.033147316 0.38100001 4278198283
0.037258953 0.033147316 0.38100001 4278461455
0.038496442 0.033147316 0.38100001 4278923287
0.039733931 0.033147316 0.38100001 4279054873
0.041078955 0.033234321 0.38200003 4279120920
0.042319693 0.033234321 0.38200003 4279121433
0.04356043 0.033234321 0.38200003 4279121433
0.044801168 0.033234321 0.38200003 4278989847
0.04616243 0.033321321 0.38300002 4278792468
0.047406413 0.033321321 0.38300002 4278989847
0.048650399 0.033321321 0.38300002 4278661396
0.049894385 0.033321321 0.38300002 4278924568
0.051271889 0.033408321 0.384 4278858775
0.052519117 0.033408321 0.384 4278727957
0.053766351 0.033408321 0.384 4278858775
0.055156853 0.033495322 0.38500002 4278196996
0.056407336 0.033495322 0.38500002 4278727959
0.057807572 0.033582322 0.38600001 4278531863
0.0590613 0.033582322 0.38600001 4278531861
0.060471293 0.033669323 0.38700002 4278531861
0.061728265 0.033669323 0.38700002 4278400275
0.062985241 0.033669323 0.38700002 4278334482
0.06440822 0.033756323 0.38800001 4278662679
0.065668441 0.033756323 0.38800001 4278662679
0.06692867 0.033756323 0.38800001 4278988312
0.068013154 0.033669323 0.38700002 4284908917
-0.016120547 0.03474623 0.38500002 4284380778
-0.014831441 0.034655977 0.384 4283394910
-0.013584209 0.034655977 0.384 4278462486
-0.012336976 0.034655977 0.384 4279055390
-0.011089743 0.034655977 0.384 4279188258
-0.0098425103 0.034655977 0.384 4279122978
-0.0085728951 0.034565728 0.38300002 4278992160
-0.0073289103 0.034565728 0.38300002 4279057953
-0.0060690381 0.034475479 0.38200003 4278795035
-0.0048156618 0.034385227 0.38100001 4278663449
-0.0035781732 0.034385227 0.38100001 4278860056
-0.0023345409 0.034294982 0.38000003 4278794263
-0.0010974046 0.034204729 0.37900001 4278728724
0.00013323547 0.03411448 0.37800002 4278728724
0.0013609801 0.03411448 0.37800002 4278729494
0.0025887247 0.03411448 0.37800002 4278729494
0.0038164693 0.03411448 0.37800002 4278794517
0.0050442144 0.03411448 0.37800002 4278728724
0.0062719584 0.03411448 0.37800002 4278728211
0.0074997037 0.03411448 0.37800002 4278596625
0.0087274481 0.03411448 0.37800002 4278794004
0.0099551929 0.03411448 0.37800002 4278794004
0.011212522 0.034204729 0.37900001 4278793750
0.012443515 0.034204729 0.37900001 4278793750
0.013674506 0.034204729 0.37900001 4278859543
0.014905499 0.034204729 0.37900001 4278859543
0.016136492 0.034204729 0.37900001 4278727957
0.017413311 0.034294982 0.38000003 4278727957
0.018647552 0.034294982 0.38000003 4278727957
0.019881791 0.034294982 0.38000003 4278727957
0.021116031 0.034294982 0.38000003 4278596371
0.022350272 0.034294982 0.38000003 4279451680
0.023584513 0.034294982 0.38000003 4278727957
0.024818754 0.034294982 0.38000003 4278858773
0.026052997 0.034294982 0.38000003 4278858775
0.027287235 0.034294982 0.38000003 4278858775
0.02859653 0.034385227 0.38100001 4278858775
0.029834021 0.034385227 0.38100001 4278990107
0.031071508 0.034385227 0.38100001 4278858007
0.032308999 0.034385227 0.38100001 4278989593
0.033546485 0.034385227 0.38100001 4279054873
0.034783974 0.034385227 0.38100001 4279120666
0.036021464 0.034385227 0.38100001 4279448861
0.037258953 0.034385227 0.38100001 4279317275
0.038496442 0.034385227 0.38100001 4278856724
0.039838221 0.034475479 0.38200003 4279053592
0.041078955 0.034475479 0.38200003 4278658834
0.042319693 0.034475479 0.38200003 4278526478
0.04356043 0.034475479 0.38200003 4278196999
0.044918448 0.034565728 0.38300002 4278194944
0.04616243 0.034565728 0.38300002 4278193920
0.047406413 0.034565728 0.38300002 4278194944
0.048650399 0.034565728 0.38300002 4278194944
0.050024655 0.034655977 0.384 4278196228
0.051271889 0.034655977 0.384 4278198281
0.052519117 0.034655977 0.384 4278330380
0.053766351 0.034655977 0.384 4278330380
0.055156853 0.03474623 0.38500002 4278198537
0.056407336 0.03474623 0.38500002 4278727959
0.057807572 0.034836479 0.38600001 4278728472
0.0590613 0.034836479 0.38600001 4278597654
0.060471293 0.034926727 0.38700002 4278531861
0.061728265 0.034926727 0.38700002 4278531861
0.062985241 0.034926727 0.38700002 4278531861
0.06440822 0.035016976 0.38800001 4278663447
0.065668441 0.035016976 0.38800001 4278860056
0.06692867 0.035016976 0.38800001 4282671955
0.068188891 0.035016976 0.38800001 4284710770
-0.016120547 0.035997134 0.38500002 4284117604
-0.014870066 0.035997134 0.38500002 4284051813
-0.013584209 0.035903633 0.384 4284512877
-0.012336976 0.035903633 0.384 4284776561
-0.011089743 0.035903633 0.384 4283527264
-0.0098425103 0.035903633 0.384 4280435508
-0.0085952785 0.035903633 0.384 4279055136
-0.0073289103 0.035810135 0.38300002 4278726171
-0.006084925 0.035810135 0.38300002 4278990111
-0.0048283017 0.035716638 0.38200003 4279121697
-0.0035781732 0.035623137 0.38100001 4278924318
-0.0023345409 0.03552964 0.38000003 4279121695
-0.0010974046 0.035436139 0.37900001 4278990107
0.00013358794 0.035436139 0.37900001 4279188256
0.0013609801 0.035342641 0.37800002 4278991131
0.0025887247 0.035342641 0.37800002 4278991131
0.0038164693 0.035342641 0.37800002 4278859545
0.0050442144 0.035342641 0.37800002 4278925338
0.0062719584 0.035342641 0.37800002 4278991131
0.0074997037 0.035342641 0.37800002 4278991642
0.0087274481 0.035342641 0.37800002 4278925336
0.0099815289 0.035436139 0.37900001 4278859543
0.011212522 0.035436139 0.37900001 4278925338
0.012443515 0.035436139 0.37900001 4278793752
0.013674506 0.035436139 0.37900001 4278859545
0.014944828 0.03552964 0.38000003 4278859545
0.01617907 0.03552964 0.38000003 4278727959
0.017413311 0.03552964 0.38000003 4278728472
0.018647552 0.03552964 0.38000003 4278531091
0.019881791 0.03552964 0.38000003 4278925849
0.021116031 0.03552964 0.38000003 4278728470
0.022350272 0.03552964 0.38000003 4278728470
0.023584513 0.03552964 0.38000003 4278531091
0.024884066 0.035623137 0.38100001 4278728470
0.026121555 0.035623137 0.38100001 4278860056
0.027359042 0.035623137 0.38100001 4278662677
0.02859653 0.035623137 0.38100001 4278728470
0.029834021 0.035623137 0.38100001 4278465300
0.031071508 0.035623137 0.38100001 4278794265
0.032308999 0.035623137 0.38100001 4278662679
0.033546485 0.035623137 0.38100001 4278531093
0.034783974 0.035623137 0.38100001 4278728472
0.036021464 0.035623137 0.38100001 4278267921
0.037258953 0.035623137 0.38100001 4278531093
0.038597483 0.035716638 0.38200003 4278860058
0.039838221 0.035716638 0.38200003 4278728472
0.041078955 0.035716638 0.38200003 4278728472
0.042319693 0.035716638 0.38200003 4278596373
0.043674462 0.035810135 0.38300002 4278858775
0.044918448 0.035810135 0.38300002 4278858775
0.04616243 0.035810135 0.38300002 4278858775
0.047406413 0.035810135 0.38300002 4278989847
0.048650399 0.035810135 0.38300002 4279318812
0.050024655 0.035903633 0.384 4279120920
0.051271889 0.035903633 0.384 4279777826
0.052519117 0.035903633 0.384 4279317275
0.053766351 0.035903633 0.384 4279383068
0.055156853 0.035997134 0.38500002 4278989593
0.056407336 0.035997134 0.38500002 4278793750
0.057807572 0.036090631 0.38600001 4278728470
0.0590613 0.036090631 0.38600001 4278729240
0.060471293 0.036184132 0.38700002 4278202382
0.061728265 0.036184132 0.38700002 4278597654
0.062985241 0.036184132 0.38700002 4278597654
0.064242221 0.036184132 0.38700002 4278663447
0.065668441 0.036277629 0.38800001 4278529810
0.06692867 0.036277629 0.38800001 4285434493
0.068188891 0.036277629 0.38800001 4284776310
-0.016120547 0.037248038 0.38500002 4284116834
-0.014870066 0.037248038 0.38500002 4284248420
-0.013619585 0.037248038 0.38500002 4284249192
-0.012336976 0.037151288 0.384 4284446571
-0.011089743 0.037151288 0.384 4284512877
-0.0098425103 0.037151288 0.384 4284579184
-0.0085952785 0.037151288 0.384 4284710770
-0.0073480452 0.037151288 0.384 4284579184
-0.006084925 0.037054539 0.38300002 4284974712
-0.0048283017 0.036957793 0.38200003 4285040505
-0.0035875649 0.036957793 0.38200003 4285040505
-0.0023406844 0.036861043 0.38100001 4284580467
-0.0010974046 0.036667548 0.37900001 4283265124
0.00013358794 0.036667548 0.37900001 4282015057
0.0013609801 0.036570799 0.37800002 4281225794
0.0025887247 0.036570799 0.37800002 4279515176
0.0038164693 0.036570799 0.37800002 4278791705
0.0050442144 0.036570799 0.37800002 4279054107
0.0062719584 0.036570799 0.37800002 4278331152
0.0074997037 0.036570799 0.37800002 4278725910
0.0087505365 0.036667548 0.37900001 4279054875
0.0099815289 0.036667548 0.37900001 4278857496
0.011212522 0.036667548 0.37900001 4279318047
0.012443515 0.036667548 0.37900001 4279252765
0.013710587 0.036764298 0.38000003 4278990107
0.014944828 0.036764298 0.38000003 4278859291
0.01617907 0.036764298 0.38000003 4278859291
0.017413311 0.036764298 0.38000003 4278793498
0.018647552 0.036764298 0.38000003 4278925338
0.019881791 0.036764298 0.38000003 4278991131
0.021116031 0.036764298 0.38000003 4279123228
0.022409089 0.036861043 0.38100001 4278860310
0.023646578 0.036861043 0.38100001 4279189021
0.024884066 0.036861043 0.38100001 4278794263
0.026121555 0.036861043 0.38100001 4278662677
0.027359042 0.036861043 0.38100001 4278662677
0.02859653 0.036861043 0.38100001 4278728472
0.029834021 0.036861043 0.38100001 4278662679
0.031071508 0.036861043 0.38100001 4278662679
0.032308999 0.036861043 0.38100001 4278728472
0.033546485 0.036861043 0.38100001 4278728472
0.034783974 0.036861043 0.38100001 4278794265
0.036021464 0.036861043 0.38100001 4278662679
0.037356745 0.036957793 0.38200003 4278728472
0.038597483 0.036957793 0.38200003 4278728472
0.039838221 0.036957793 0.38200003 4278465300
0.041078955 0.036957793 0.38200003 4278794265
0.042319693 0.036957793 0.38200003 4278662679
0.043674462 0.037054539 0.38300002 4278727959
0.044918448 0.037054539 0.38300002 4278793752
0.04616243 0.037054539 0.38300002 4278727959
0.047406413 0.037054539 0.38300002 4278859545
0.048650399 0.037054539 0.38300002 4278727959
0.049894385 0.037054539 0.38300002 4278793752
0.051138371 0.037054539 0.38300002 4278859545
0.052519117 0.037151288 0.384 4278859545
0.053766351 0.037151288 0.384 4278924568
0.055013586 0.037151288 0.384 4278859545
0.05626082 0.037151288 0.384 4278465300
0.057657812 0.037248038 0.38500002 4278531093
0.0590613 0.037344784 0.38600001 4278531861
0.060315032 0.037344784 0.38600001 4278400275
0.061568756 0.037344784 0.38600001 4278663447
0.062985241 0.037441533 0.38700002 4278795033
0.064242221 0.037441533 0.38700002 4279121693
0.065668441 0.037538283 0.38800001 4282540882
0.06692867 0.037538283 0.38800001 4284710770
-0.016120547 0.038498942 0.38500002 4284116321
-0.014870066 0.038498942 0.38500002 4284182627
-0.013619585 0.038498942 0.38500002 4284117604
-0.012336976 0.038398944 0.384 4284380778
-0.011089743 0.038398944 0.384 4284710256
-0.0098425103 0.038398944 0.384 4284776049
-0.0085952785 0.038398944 0.384 4284907635
-0.0073480452 0.038398944 0.384 4285105014
-0.006084925 0.038298946 0.38300002 4284973942
-0.0048409407 0.038298946 0.38300002 4284710770
-0.0035875649 0.038198952 0.38200003 4284842103
-0.0023406844 0.03809895 0.38100001 4284776310
-0.0011031957 0.03809895 0.38100001 4284644724
0.00013429289 0.03809895 0.38100001 4284315759
0.0013717816 0.03809895 0.38100001 4284315759
0.0026092702 0.03809895 0.38100001 4283921001
0.0038467587 0.03809895 0.38100001 4283460450
0.0050842478 0.03809895 0.38100001 4283592036
0.0063217357 0.03809895 0.38100001 4283198048
0.007559225 0.03809895 0.38100001 4283198301
0.0087505365 0.037898958 0.37900001 4283197783
0.0099815289 0.037898958 0.37900001 4284118885
0.011212522 0.037898958 0.37900001 4284053608
0.012476347 0.037998956 0.38000003 4283264092
0.013710587 0.037998956 0.38000003 4282541652
0.014944828 0.037998956 0.38000003 4280896827
0.01617907 0.037998956 0.38000003 4279975725
0.017413311 0.037998956 0.38000003 4279252002
0.018647552 0.037998956 0.38000003 4278594585
0.01993411 0.03809895 0.38100001 4278594585
0.0211716 0.03809895 0.38100001 4278594839
0.022409089 0.03809895 0.38100001 4278726423
0.023646578 0.03809895 0.38100001 4279121181
0.024884066 0.03809895 0.38100001 4278792216
0.026121555 0.03809895 0.38100001 4279121695
0.027359042 0.03809895 0.38100001 4278990109
0.02859653 0.03809895 0.38100001 4279121695
0.029834021 0.03809895 0.38100001 4278990109
0.031071508 0.03809895 0.38100001 4279121693
0.032308999 0.03809895 0.38100001 4278990107
0.033546485 0.03809895 0.38100001 4279055900
0.034783974 0.03809895 0.38100001 4278990107
0.036021464 0.03809895 0.38100001 4278990877
0.037356745 0.038198952 0.38200003 4278990877
0.038597483 0.038198952 0.38200003 4278991644
0.039838221 0.038198952 0.38200003 4278991644
0.041078955 0.038198952 0.38200003 4278859543
0.042430475 0.038298946 0.38300002 4278991129
0.043674462 0.038298946 0.38300002 4278925336
0.044918448 0.038298946 0.38300002 4278925336
0.04616243 0.038298946 0.38300002 4278991642
0.047406413 0.038298946 0.38300002 4278794263
0.048650399 0.038298946 0.38300002 4278991131
0.049894385 0.038298946 0.38300002 4279056924
0.051138371 0.038298946 0.38300002 4278925338
0.05238235 0.038298946 0.38300002 4279056924
0.053626336 0.038298946 0.38300002 4279188510
0.054870322 0.038298946 0.38300002 4278925338
0.056114309 0.038298946 0.38300002 4279056924
0.057508048 0.038398944 0.384 4279254303
0.058755282 0.038398944 0.384 4278860058
0.060158778 0.038498942 0.38500002 4278860058
0.061409254 0.038498942 0.38500002 4278991131
0.062822483 0.038598936 0.38600001 4278727705
0.064076215 0.038598936 0.38600001 4282014538
0.065668441 0.038798932 0.38800001 4284644977
-0.014870066 0.039749846 0.38500002 4284116834
-0.013619585 0.039749846 0.38500002 4284380006
-0.012336976 0.039646596 0.384 4284314985
-0.011089743 0.039646596 0.384 4284512364
-0.0098425103 0.039646596 0.384 4284775536
0.027359042 0.03933686 0.38100001 4283461986
0.02859653 0.03933686 0.38100001 4283198814
0.029834021 0.03933686 0.38100001 4281685575
0.031071508 0.03933686 0.38100001 4281619782
0.032308999 0.03933686 0.38100001 4281027645
0.033546485 0.03933686 0.38100001 4280764473
0.034783974 0.03933686 0.38100001 4280041520
0.036116011 0.039440107 0.38200003 4279910447
0.037356745 0.039440107 0.38200003 4279778861
0.038597483 0.039440107 0.38200003 4279186724
0.039838221 0.039440107 0.38200003 4279318310
0.041186489 0.039543353 0.38300002 4279120929
0.042430475 0.039543353 0.38300002 4279055136
0.043674462 0.039543353 0.38300002 4278858011
0.044918448 0.039543353 0.38300002 4278858011
0.04616243 0.039543353 0.38300002 4279252256
0.047406413 0.039543353 0.38300002 4278857244
0.048650399 0.039543353 0.38300002 4278923291
0.049894385 0.039543353 0.38300002 4278923289
0.051004853 0.039440107 0.38200003 4279120668
0.052245583 0.039440107 0.38200003 4278923037
0.053486321 0.039440107 0.38200003 4278857246
0.054727063 0.039440107 0.38200003 4278923039
0.0559678 0.039440107 0.38200003 4279383842
0.057358291 0.039543353 0.38300002 4278923291
0.058602277 0.039543353 0.38300002 4279252256
0.060002517 0.039646596 0.384 4279778600
0.061249748 0.039646596 0.384 4282211919
0.062496983 0.039646596 0.384 4284383088
0.063744217 0.039646596 0.384 4284645745
0.065668441 0.040059585 0.38800001 4284644975
0.047406413 0.040787756 0.38300002 4284579952
0.048650399 0.040787756 0.38300002 4284710768
0.049894385 0.040787756 0.38300002 4284710768
0.051004853 0.040681265 0.38200003 4284579952
0.052108813 0.040574767 0.38100001 4284843124
0.053346302 0.040574767 0.38100001 4284514159
0.054583795 0.040574767 0.38100001 4284579952
0.055821285 0.040574767 0.38100001 4284645999
0.05705877 0.040574767 0.38100001 4284711022
0.058449272 0.040681265 0.38200003 4284711022
0.05969001 0.040681265 0.38200003 4284776815
0.06093074 0.040681265 0.38200003 4284645229
0.062334232 0.040787756 0.38300002 4284644975
0.063578218 0.040787756 0.38300002 4284842354
0.064483702 0.040574767 0.38100001 4284776561
0.050871328 0.041812673 0.38100001 4284776563
0.051972046 0.04170293 0.38000003 4284776563
0.053066269 0.041593187 0.37900001 4284842356
0.054297265 0.041593187 0.37900001 4284776563
0.055528257 0.041593187 0.37900001 4284710770
0.05690901 0.04170293 0.38000003 4284710770
0.058143254 0.04170293 0.38000003 4284842356
0.059533749 0.041812673 0.38100001 4284710770
0.060771234 0.041812673 0.38100001 4284776563
0.062008724 0.041812673 0.38100001 4284644977
0.063246213 0.041812673 0.38100001 4284841329
0.064483702 0.041812673 0.38100001 4284907122
0.053066269 0.042824596 0.37900001 4284842356
0.054297265 0.042824596 0.37900001 4284776563
0.055381749 0.042711601 0.37800002 4284842356
0.056759246 0.042824596 0.37900001 4284973942
0.057990242 0.042824596 0.37900001 4284973428
0.059377495 0.042937592 0.38000003 4284907635
0.060611732 0.042937592 0.38000003 4284907635
0.061845973 0.042937592 0.38000003 4284907635
0.063080214 0.042937592 0.38000003 4284972915
0.064314455 0.042937592 0.38000003 4285170294
0.055381749 0.043939762 0.37800002 4285105014
0.056609489 0.043939762 0.37800002 4284973428
0.057990242 0.044056002 0.37900001 4284973428
0.059221238 0.044056002 0.37900001 4284973428
0.060611732 0.04417225 0.38000003 4284907635
0.061845973 0.04417225 0.38000003 4285105014
0.063080214 0.04417225 0.38000003 4284973428
0.021247836 0.029410779 0.38146609 4294967295
0.021247836 0.029410779 0.38146609 4294901760
0.021247836 0.029410779 0.38196608 4294901760
0.021247836 0.029410779 0.38246608 4294901760
0.021247836 0.029410779 0.3829661 4294901760
0.021247836 0.029410779 0.38346609 4294901760
0.021247836 0.029410779 0.38396609 4294901760
0.021247836 0.029410779 0.38446608 4294901760
0.021247836 0.029410779 0.38496611 4294901760
0.021247836 0.029410779 0.3854661 4294901760
0.021247836 0.029410779 0.38596609 4294901760
0.021247836 0.029410779 0.38646609 4294901760
0.021247836 0.029410779 0.38696608 4294901760
0.021247836 0.029410779 0.3874661 4294901760
0.021247836 0.029410779 0.3879661 4294901760
0.021247836 0.029410779 0.38846609 4294901760
0.021247836 0.029410779 0.38896608 4294901760
0.021247836 0.029410779 0.38946611 4294901760
0.021247836 0.029410779 0.3899661 4294901760
0.021247836 0.029410779 0.39046609 4294901760
0.021247836 0.029410779 0.39096609 4294901760
0.021247836 0.029410779 0.39146608 4294901760
0.021247836 0.029410779 0.3919661 4294901760
0.021247836 0.029410779 0.3924661 4294901760
0.021247836 0.029410779 0.39296609 4294901760
0.021247836 0.029410779 0.39346609 4294901760
0.021247836 0.029410779 0.39396608 4294901760
0.021247836 0.029410779 0.3944661 4294901760
0.021247836 0.029410779 0.3949661 4294901760
0.021247836 0.029410779 0.39546609 4294901760
0.021247836 0.029410779 0.39596608 4294901760
0.021247836 0.029410779 0.39646611 4294901760
0.021247836 0.029410779 0.3969661 4294901760
0.021247836 0.029410779 0.39746609 4294901760
0.021247836 0.029410779 0.39796609 4294901760
0.021247836 0.029410779 0.39846611 4294901760
0.021247836 0.029410779 0.3989661 4294901760
0.021247836 0.029410779 0.3994661 4294901760
0.021247836 0.029410779 0.39996609 4294901760
0.021247836 0.029410779 0.40046608 4294901760
0.021247836 0.029410779 0.40096611 4294901760
0.021247836 0.029410779 0.4014661 4294901760
0.021247836 0.029410779 0.40196609 4294901760
0.021247836 0.029410779 0.40246609 4294901760
0.021247836 0.029410779 0.40296608 4294901760
0.021247836 0.029410779 0.40346611 4294901760
0.021247836 0.029410779 0.4039661 4294901760
0.021247836 0.029410779 0.40446609 4294901760
0.021247836 0.029410779 0.40496609 4294901760
0.021247836 0.029410779 0.40546611 4294901760
0.021247836 0.029410779 0.4059661 4294901760
0.021247836 0.029410779 0.4064661 4294901760
0.021247836 0.029410779 0.40696609 4294901760
0.021247836 0.029410779 0.40746608 4294901760
0.021247836 0.029410779 0.40796611 4294901760
0.021247836 0.029410779 0.4084661 4294901760
0.021247836 0.029410779 0.40896609 4294901760
0.021247836 0.029410779 0.40946609 4294901760
0.021247836 0.029410779 0.40996611 4294901760
0.021247836 0.029410779 0.4104661 4294901760
0.021247836 0.029410779 0.4109661 4294901760
0.021247836 0.029410779 0.41146609 4294901760
0.021247836 0.029410779 0.41196609 4294901760
0.021247836 0.029410779 0.41246611 4294901760
0.021247836 0.029410779 0.4129661 4294901760
0.021247836 0.029410779 0.4134661 4294901760
0.021247836 0.029410779 0.41396609 4294901760
0.021247836 0.029410779 0.41446611 4294901760
0.021247836 0.029410779 0.41496611 4294901760
0.021247836 0.029410779 0.4154661 4294901760
0.021247836 0.029410779 0.41596609 4294901760
0.021247836 0.029410779 0.41646609 4294901760
0.021247836 0.029410779 0.41696611 4294901760
0.021247836 0.029410779 0.4174661 4294901760
0.021247836 0.029410779 0.4179661 4294901760
0.021247836 0.029410779 0.41846609 4294901760
0.021247836 0.029410779 0.41896611 4294901760
0.021247836 0.029410779 0.41946611 4294901760
0.021247836 0.029410779 0.4199661 4294901760
0.021247836 0.029410779 0.4204661 4294901760
0.021247836 0.029410779 0.42096609 4294901760
0.021247836 0.029410779 0.42146611 4294901760
0.021247836 0.029410779 0.42196611 4294901760
0.021247836 0.029410779 0.4224661 4294901760
0.021247836 0.029410779 0.42296609 4294901760
0.021247836 0.029410779 0.42346609 4294901760
0.021247836 0.029410779 0.42396611 4294901760
0.021247836 0.029410779 0.4244661 4294901760
0.021247836 0.029410779 0.4249661 4294901760
0.021247836 0.029410779 0.42546609 4294901760
0.021247836 0.029410779 0.42596608 4294901760
0.021247836 0.029410779 0.42646611 4294901760
0.021247836 0.029410779 0.4269661 4294901760
0.021247836 0.029410779 0.42746609 4294901760
0.021247836 0.029410779 0.42796612 4294901760
0.021247836 0.029410779 0.42846611 4294901760
0.021247836 0.029410779 0.4289661 4294901760
0.021247836 0.029410779 0.4294661 4294901760
0.021247836 0.029410779 0.42996609 4294901760
0.021247836 0.029410779 0.43046612 4294901760
0.021247836 0.029410779 0.43096611 4294901760
0.021247836 0.029410779 0.4314661 4294901760
0.021247836 0.029410779 0.38146609 4278255360
0.021206101 0.029314205 0.38195491 4278255360
0.021164365 0.029217631 0.3824437 4278255360
0.021122631 0.029121056 0.38293251 4278255360
0.021080896 0.029024484 0.3834213 4278255360
0.021039162 0.028927909 0.38391012 4278255360
0.020997426 0.028831335 0.38439894 4278255360
0.020955691 0.02873476 0.38488773 4278255360
0.020913957 0.028638186 0.38537654 4278255360
0.02087222 0.028541612 0.38586536 4278255360
0.020830486 0.028445037 0.38635415 4278255360
0.020788752 0.028348465 0.38684297 4278255360
0.020747017 0.02825189 0.38733175 4278255360
0.020705281 0.028155316 0.38782057 4278255360
0.020663546 0.028058741 0.38830939 4278255360
0.020621812 0.027962167 0.38879818 4278255360
0.020580076 0.027865592 0.38928699 4278255360
0.020538341 0.027769018 0.38977581 4278255360
0.020496607 0.027672444 0.3902646 4278255360
0.020454872 0.027575871 0.39075342 4278255360
0.020413136 0.027479297 0.39124221 4278255360
0.020371402 0.027382722 0.39173102 4278255360
0.020329667 0.027286148 0.39221984 4278255360
0.020287931 0.027189573 0.39270863 4278255360
0.020246197 0.027092999 0.39319745 4278255360
0.020204462 0.026996426 0.39368623 4278255360
0.020162728 0.026899852 0.39417505 4278255360
0.020120991 0.026803277 0.39466387 4278255360
0.020079257 0.026706703 0.39515266 4278255360
0.020037523 0.026610129 0.39564148 4278255360
0.019995786 0.026513554 0.39613029 4278255360
0.019954052 0.02641698 0.39661908 4278255360
0.019912317 0.026320405 0.3971079 4278255360
0.019870581 0.026223831 0.39759672 4278255360
0.019828847 0.026127258 0.3980855 4278255360
0.019787112 0.026030684 0.39857432 4278255360
0.019745376 0.025934109 0.39906311 4278255360
0.019703642 0.025837535 0.39955193 4278255360
0.019661907 0.025740961 0.40004075 4278255360
0.019620173 0.025644388 0.40052953 4278255360
0.019578436 0.025547814 0.40101835 4278255360
0.019536702 0.025451239 0.40150714 4278255360
0.019494968 0.025354665 0.40199596 4278255360
0.019453231 0.02525809 0.40248477 4278255360
0.019411497 0.025161516 0.40297356 4278255360
0.019369762 0.025064941 0.40346238 4278255360
0.019328028 0.024968367 0.4039512 4278255360
0.019286292 0.024871793 0.40443999 4278255360
0.019244557 0.02477522 0.4049288 4278255360
0.019202823 0.024678646 0.40541759 4278255360
0.019161087 0.024582071 0.40590641 4278255360
0.019119352 0.024485497 0.40639523 4278255360
0.019077618 0.024388924 0.40688401 4278255360
0.019035883 0.02429235 0.40737283 4278255360
0.018994147 0.024195775 0.40786165 4278255360
0.018952413 0.024099201 0.40835044 4278255360
0.018910678 0.024002627 0.40883926 4278255360
0.018868942 0.023906052 0.40932804 4278255360
