# .PCD v0.7 - Point Cloud Data file format
VERSION 0.7
FIELDS x y z rgb
SIZE 4 4 4 4
TYPE F F F U
COUNT 1 1 1 1
WIDTH 1006
HEIGHT 1
VIEWPOINT 0 0 0 1 0 0 0
POINTS 1006
DATA ascii
-0.025394749 -0.013095508 0.43700001 4284693810
-0.055136073 -0.011969547 0.44800001 4286223230
-0.053561144 -0.011942829 0.44700003 4283315239
-0.05210929 -0.011942829 0.44700003 4284495913
-0.050657429 -0.011942829 0.44700003 4283836186
-0.049095493 -0.011916111 0.44600001 4283507223
-0.047646888 -0.011916111 0.44600001 4283441430
-0.046094693 -0.011889393 0.44500002 4285545521
-0.044549 -0.011862677 0.44400004 4285346597
-0.043106884 -0.011862677 0.44400004 4286006842
-0.041570932 -0.011835958 0.44300002 4286280799
-0.040041476 -0.011809241 0.44200003 4287271289
-0.038518514 -0.011782522 0.44100001 4286025587
-0.037002053 -0.011755805 0.44000003 4286025335
-0.035492081 -0.011729087 0.43900001 4285959288
-0.034066208 -0.011729087 0.43900001 4286878593
-0.032565989 -0.01170237 0.43800002 4284163868
-0.031072255 -0.011675651 0.43700001 4285346086
-0.029652881 -0.011675651 0.43700001 4285279008
-0.028233504 -0.011675651 0.43700001 4285146652
-0.026814125 -0.011675651 0.43700001 4284555798
-0.025336638 -0.011648934 0.43600002 4285082914
-0.02392051 -0.011648934 0.43600002 4284558626
-0.022504382 -0.011648934 0.43600002 4283116577
-0.056843817 -0.010560886 0.45000002 4286222462
-0.055259146 -0.010537418 0.44900003 4284044102
-0.053680968 -0.010513948 0.44800001 4283903524
-0.052225862 -0.010513948 0.44800001 4284101155
-0.050657429 -0.01049048 0.44700003 4283244563
-0.049205575 -0.01049048 0.44700003 4283245848
-0.047646888 -0.010467011 0.44600001 4283245335
-0.046094693 -0.010443543 0.44500002 4283441944
-0.044549 -0.010420075 0.44400004 4283834644
-0.043009795 -0.010396605 0.44300002 4284754976
-0.041477092 -0.010373137 0.44200003 4284953125
-0.039950885 -0.010349668 0.44100001 4285019177
-0.038518514 -0.010349668 0.44100001 4283843382
-0.037002053 -0.010326199 0.44000003 4287598205
-0.035492081 -0.010302731 0.43900001 4286286708
-0.03398861 -0.010279262 0.43800002 4283714360
-0.032565989 -0.010279262 0.43800002 4285542441
-0.031072255 -0.010255793 0.43700001 4289557611
-0.029652881 -0.010255793 0.43700001 4284949271
-0.028233504 -0.010255793 0.43700001 4285014294
-0.026814125 -0.010255793 0.43700001 4284555285
-0.025336638 -0.010232325 0.43600002 4284096019
-0.02392051 -0.010232325 0.43600002 4284031769
-0.022504382 -0.010232325 0.43600002 4283441428
-0.058434989 -0.0091190096 0.45100003 4286223232
-0.056843817 -0.0090987897 0.45000002 4284895818
-0.055382218 -0.0090987897 0.45000002 4284166187
-0.053800792 -0.0090785706 0.44900003 4284427812
-0.052342441 -0.0090785706 0.44900003 4284099872
-0.050770756 -0.0090583507 0.44800001 4282982676
-0.049205575 -0.0090381317 0.44700003 4282522641
-0.047753718 -0.0090381317 0.44700003 4282522641
-0.046198275 -0.0090179117 0.44600001 4282128398
-0.044649333 -0.0089976927 0.44500002 4283840561
-0.043009795 -0.0089572538 0.44300002 4283579442
-0.041477092 -0.0089370338 0.44200003 4284237626
-0.039950885 -0.0089168139 0.44100001 4283313958
-0.038431171 -0.0088965949 0.44000003 4284297771
-0.036917955 -0.0088763749 0.43900001 4284759603
-0.035492081 -0.0088763749 0.43900001 4285548601
-0.03398861 -0.0088561559 0.43800002 4284952353
-0.032491636 -0.008835936 0.43700001 4284818457
-0.031072255 -0.008835936 0.43700001 4286595383
-0.029652881 -0.008835936 0.43700001 4285015066
-0.028233504 -0.008835936 0.43700001 4284554515
-0.026814125 -0.008835936 0.43700001 4283833360
-0.025336638 -0.008815717 0.43600002 4283504655
-0.02392051 -0.008815717 0.43600002 4283046670
-0.022504382 -0.008815717 0.43600002 4282587405
-0.058564555 -0.0076706344 0.45200002 4284109641
-0.056970138 -0.0076536643 0.45100003 4284493868
-0.055505291 -0.0076536643 0.45100003 4284624939
-0.053920615 -0.0076366938 0.45000002 4283572762
-0.052459016 -0.0076366938 0.45000002 4282652944
-0.050884087 -0.0076197232 0.44900003 4282587666
-0.049315654 -0.0076027527 0.44800001 4282456850
-0.047753718 -0.0075857826 0.44700003 4282661422
-0.046198275 -0.0075688115 0.44600001 4287205246
-0.044649333 -0.0075518414 0.44500002 4286220917
-0.043106884 -0.0075348713 0.44400004 4286747259
-0.041477092 -0.0075009302 0.44200003 4287010431
-0.039950885 -0.0074839597 0.44100001 4286549880
-0.038431171 -0.0074669896 0.44000003 4285226577
-0.036917955 -0.0074500185 0.43900001 4283312934
-0.035411235 -0.0074330484 0.43800002 4284951841
-0.03398861 -0.0074330484 0.43800002 4285082140
-0.032491636 -0.0074160779 0.43700001 4285344029
-0.031072255 -0.0074160779 0.43700001 4284883478
-0.029652881 -0.0074160779 0.43700001 4284424982
-0.028233504 -0.0074160779 0.43700001 4283439116
-0.026814125 -0.0074160779 0.43700001 4283045387
-0.025394749 -0.0074160779 0.43700001 4282586121
-0.023975372 -0.0074160779 0.43700001 4282258699
-0.022555996 -0.0074160779 0.43700001 4282193676
-0.061772875 -0.0062294835 0.45400003 4286747523
-0.060298279 -0.0062294835 0.45400003 4284432439
-0.05869412 -0.0062157619 0.45300001 4285480761
-0.057096455 -0.0062020407 0.45200002 4284624167
-0.055628359 -0.0062020407 0.45200002 4283506458
-0.054040439 -0.0061883195 0.45100003 4282587666
-0.052575592 -0.0061883195 0.45100003 4282391059
-0.050997414 -0.0061745979 0.45000002 4281208841
-0.049425736 -0.0061608767 0.44900003 4287333752
-0.047860548 -0.0061471551 0.44800001 4286089591
-0.04630186 -0.0061334339 0.44700003 4286090361
-0.044649333 -0.0061059915 0.44500002 4286025081
-0.043106884 -0.0060922704 0.44400004 4285959290
-0.041477092 -0.0060648276 0.44200003 4286090876
-0.039950885 -0.0060511059 0.44100001 4286090876
-0.038431171 -0.0060373847 0.44000003 4286222460
-0.036917955 -0.0060236631 0.43900001 4286615421
-0.035411235 -0.0060099419 0.43800002 4283903526
-0.03398861 -0.0060099419 0.43800002 4284294171
-0.032491636 -0.0059962207 0.43700001 4284227605
-0.031072255 -0.0059962207 0.43700001 4284095249
-0.029652881 -0.0059962207 0.43700001 4283307276
-0.028233504 -0.0059962207 0.43700001 4282914571
-0.026814125 -0.0059962207 0.43700001 4282258186
-0.025394749 -0.0059962207 0.43700001 4282192906
-0.023975372 -0.0059962207 0.43700001 4282062605
-0.022555996 -0.0059962207 0.43700001 4281734156
-0.066488266 -0.0047753355 0.45600003 4286157439
-0.06500718 -0.0047753355 0.45600003 4286880394
-0.063526094 -0.0047753355 0.45600003 4284498493
-0.061908934 -0.0047648628 0.45500001 4284822320
-0.060298279 -0.004754391 0.45400003 4285413422
-0.05869412 -0.0047439183 0.45300001 4284952871
-0.057222772 -0.0047439183 0.45300001 4284164640
-0.055628359 -0.0047334465 0.45200002 4282652944
-0.054160263 -0.0047334465 0.45200002 4282194193
-0.052575592 -0.0047229743 0.45100003 4281208328
-0.051110741 -0.0047229743 0.45100003 4287009150
-0.049535811 -0.004712502 0.45000002 4285958775
-0.047860548 -0.0046915575 0.44800001 4286024570
-0.04630186 -0.0046810852 0.44700003 4286025083
-0.044749666 -0.004670613 0.44600001 4286090876
-0.043106884 -0.0046496685 0.44400004 4286090876
-0.041570932 -0.0046391962 0.44300002 4286157439
-0.039950885 -0.0046182517 0.44100001 4285960060
-0.038431171 -0.0046077799 0.44000003 4285960060
-0.036917955 -0.0045973072 0.43900001 4285894267
-0.035411235 -0.0045868354 0.43800002 4287069805
-0.03398861 -0.0045868354 0.43800002 4282457361
-0.032491636 -0.0045763627 0.43700001 4283835675
-0.031072255 -0.0045763627 0.43700001 4283571733
-0.029652881 -0.0045763627 0.43700001 4282981393
-0.028233504 -0.0045763627 0.43700001 4282455819
-0.026814125 -0.0045763627 0.43700001 4281996812
-0.025394749 -0.0045763627 0.43700001 4281799947
-0.023975372 -0.0045763627 0.43700001 4281734924
-0.022555996 -0.0045763627 0.43700001 4281734926
-0.067969359 -0.0032937448 0.45600003 4286289027
-0.066488266 -0.0032937448 0.45600003 4287402371
-0.06500718 -0.0032937448 0.45600003 4284170296
-0.063386776 -0.0032865216 0.45500001 4286992717
-0.061908934 -0.0032865216 0.45500001 4285017128
-0.060298279 -0.0032792985 0.45400003 4285148453
-0.05882369 -0.0032792985 0.45400003 4284228378
-0.057222772 -0.0032720752 0.45300001 4283244565
-0.055751432 -0.0032720752 0.45300001 4282521873
-0.054160263 -0.0032648523 0.45200002 4281669392
-0.052692167 -0.0032648523 0.45200002 4287400315
-0.051110741 -0.0032576292 0.45100003 4285958775
-0.049535811 -0.0032504059 0.45000002 4285959288
-0.047967382 -0.003243183 0.44900003 4285894267
-0.04630186 -0.0032287366 0.44700003 4285828474
-0.044749666 -0.0032215135 0.44600001 4285894267
-0.043106884 -0.0032070675 0.44400004 4285894267
-0.041570932 -0.0031998442 0.44300002 4285894267
-0.040041476 -0.0031926211 0.44200003 4285828474
-0.038431171 -0.0031781748 0.44000003 4285894267
-0.036917955 -0.0031709515 0.43900001 4286814084
-0.035411235 -0.0031637286 0.43800002 4282261270
-0.03398861 -0.0031637286 0.43800002 4283179801
-0.032491636 -0.0031565053 0.43700001 4283507737
-0.031072255 -0.0031565053 0.43700001 4283047186
-0.029652881 -0.0031565053 0.43700001 4282719504
-0.028233504 -0.0031565053 0.43700001 4282127883
-0.026814125 -0.0031565053 0.43700001 4281865740
-0.025394749 -0.0031565053 0.43700001 4281931533
-0.023975372 -0.0031565053 0.43700001 4281865740
-0.022607613 -0.0031637286 0.43800002 4282063119
-0.067969359 -0.0018121543 0.45600003 4286223232
-0.066488266 -0.0018121543 0.45600003 4283973171
-0.06500718 -0.0018121543 0.45600003 4285019179
-0.063386776 -0.0018081802 0.45500001 4288176989
-0.061908934 -0.0018081802 0.45500001 4285741619
-0.060298279 -0.0018042063 0.45400003 4285280806
-0.05882369 -0.0018042063 0.45400003 4283702804
-0.057222772 -0.0018002321 0.45300001 4282521871
-0.055751432 -0.0018002321 0.45300001 4282128398
-0.054160263 -0.0017962581 0.45200002 4284437063
-0.052692167 -0.0017962581 0.45200002 4286285943
-0.051110741 -0.0017922842 0.45100003 4285958775
-0.049535811 -0.0017883101 0.45000002 4286024568
-0.047967382 -0.0017843362 0.44900003 4285828474
-0.046405442 -0.0017803621 0.44800001 4286552197
-0.044749666 -0.001772414 0.44600001 4283984735
-0.043203972 -0.00176844 0.44500002 4280759594
-0.041570932 -0.001760492 0.44300002 4282207554
-0.040041476 -0.001756518 0.44200003 4286354050
-0.038518514 -0.001752544 0.44100001 4287010433
-0.037002053 -0.0017485699 0.44000003 4282133793
-0.035492081 -0.0017445958 0.43900001 4283703835
-0.03398861 -0.0017406219 0.43800002 4283638042
-0.032565989 -0.0017406219 0.43800002 4283637526
-0.031072255 -0.0017366478 0.43700001 4283112465
-0.029652881 -0.0017366478 0.43700001 4282128137
-0.028233504 -0.0017366478 0.43700001 4282787610
-0.026814125 -0.0017366478 0.43700001 4282199066
-0.025394749 -0.0017366478 0.43700001 4281606931
-0.024030238 -0.0017406219 0.43800002 4281800717
-0.022607613 -0.0017406219 0.43800002 4282325777
-0.069450445 -0.00033056363 0.45600003 4286223747
-0.067969359 -0.00033056363 0.45600003 4287011976
-0.066488266 -0.00033056363 0.45600003 4284824626
-0.064864613 -0.00032983869 0.45500001 4285281066
-0.063386776 -0.00032983869 0.45500001 4285147683
-0.061908934 -0.00032983869 0.45500001 4285081890
-0.060298279 -0.0003291138 0.45400003 4283965206
-0.05882369 -0.0003291138 0.45400003 4282980366
-0.057222772 -0.00032838885 0.45300001 4282193678
-0.055751432 -0.00032838885 0.45300001 4282062605
-0.054160263 -0.00032766393 0.45200002 4281471500
-0.052692167 -0.00032766393 0.45200002 4282525732
-0.051110741 -0.00032693904 0.45100003 4284570962
-0.049535811 -0.0003262141 0.45000002 4286943103
-0.047967382 -0.00032548918 0.44900003 4284247137
-0.046405442 -0.00032476426 0.44800001 4279246618
-0.044749666 -0.00032331442 0.44600001 4279639581
-0.043203972 -0.00032258951 0.44500002 4279902240
-0.041570932 -0.00032113967 0.44300002 4279573788
-0.040041476 -0.00032041475 0.44200003 4279376409
-0.038518514 -0.0003196898 0.44100001 4280162063
-0.037002053 -0.00031896491 0.44000003 4282788897
-0.035492081 -0.00031823997 0.43900001 4283834651
-0.03398861 -0.00031751505 0.43800002 4283768599
-0.032565989 -0.00031751505 0.43800002 4283834390
-0.031072255 -0.00031679013 0.43700001 4283439632
-0.029652881 -0.00031679013 0.43700001 4281405187
-0.028233504 -0.00031679013 0.43700001 4281804310
-0.026814125 -0.00031679013 0.43700001 4281019157
-0.025452862 -0.00031751505 0.43800002 4281084950
-0.024030238 -0.00031751505 0.43800002 4282130447
-0.022607613 -0.00031751505 0.43800002 4282785297
-0.021184988 -0.00031751505 0.43800002 4281932301
-0.069450445 0.001151027 0.45600003 4286092161
-0.067969359 0.001151027 0.45600003 4287011465
-0.066488266 0.001151027 0.45600003 4283970087
-0.064864613 0.0011485028 0.45500001 4284887591
-0.063386776 0.0011485028 0.45500001 4284425757
-0.061908934 0.0011485028 0.45500001 4284228378
-0.060298279 0.0011459787 0.45400003 4283112465
-0.05882369 0.0011459787 0.45400003 4282718737
-0.057222772 0.0011434545 0.45300001 4282062603
-0.055751432 0.0011434545 0.45300001 4282062603
-0.054160263 0.0011409303 0.45200002 4282456850
-0.052692167 0.0011409303 0.45200002 4283245083
-0.051110741 0.0011384061 0.45100003 4283376671
-0.049535811 0.0011358819 0.45000002 4283117608
-0.047967382 0.0011333578 0.44900003 4279835675
-0.046405442 0.0011308335 0.44800001 4282732620
-0.044749666 0.0011257852 0.44600001 4278652684
-0.043203972 0.0011232611 0.44500002 4279507480
-0.041664772 0.0011207369 0.44400004 4279376409
-0.040041476 0.0011156885 0.44200003 4279376407
-0.038518514 0.0011131642 0.44100001 4280033305
-0.037002053 0.0011106401 0.44000003 4280885273
-0.035492081 0.0011081159 0.43900001 4283375897
-0.03398861 0.0011055918 0.43800002 4283637526
-0.032565989 0.0011055918 0.43800002 4283767827
-0.03114336 0.0011055918 0.43800002 4284162585
-0.029652881 0.0011030675 0.43700001 4282194189
-0.028233504 0.0011030675 0.43700001 4283053864
-0.026875487 0.0011055918 0.43800002 4280954134
-0.025452862 0.0011055918 0.43800002 4280756755
-0.024030238 0.0011055918 0.43800002 4282262033
-0.022607613 0.0011055918 0.43800002 4282916370
-0.021184988 0.0011055918 0.43800002 4281800199
-0.069450445 0.0026326177 0.45600003 4286091907
-0.067969359 0.0026326177 0.45600003 4286354820
-0.066488266 0.0026326177 0.45600003 4282658856
-0.064864613 0.0026268442 0.45500001 4284233259
-0.063386776 0.0026268442 0.45500001 4283968288
-0.061772875 0.0026210712 0.45400003 4283310104
-0.060298279 0.0026210712 0.45400003 4283114010
-0.05882369 0.0026210712 0.45400003 4282259471
-0.057222772 0.0026152977 0.45300001 4281996812
-0.055751432 0.0026152977 0.45300001 4281996812
-0.054160263 0.0026095244 0.45200002 4283836188
-0.052692167 0.0026095244 0.45200002 4283769112
-0.051110741 0.0026037514 0.45100003 4283573016
-0.049535811 0.0025979779 0.45000002 4280814853
-0.047860548 0.0025864313 0.44800001 4283915862
-0.04630186 0.0025806581 0.44700003 4281218864
-0.044749666 0.0025748848 0.44600001 4279310867
-0.043203972 0.0025691115 0.44500002 4280890416
-0.041664772 0.0025633383 0.44400004 4281152818
-0.040041476 0.0025517917 0.44200003 4279442453
-0.038518514 0.0025460182 0.44100001 4279507985
-0.037002053 0.0025402452 0.44000003 4280494108
-0.035492081 0.0025344717 0.43900001 4282063891
-0.034066208 0.0025344717 0.43900001 4283507223
-0.032565989 0.0025286984 0.43800002 4283637524
-0.03114336 0.0025286984 0.43800002 4283769110
-0.029720737 0.0025286984 0.43800002 4282455817
-0.028298113 0.0025286984 0.43800002 4282065937
-0.026875487 0.0025286984 0.43800002 4281084437
-0.025452862 0.0025286984 0.43800002 4281216536
-0.024030238 0.0025286984 0.43800002 4282592281
-0.022607613 0.0025286984 0.43800002 4282851860
-0.021184988 0.0025286984 0.43800002 4281997578
-0.067969359 0.0041142083 0.45600003 4286223234
-0.066342458 0.0041051856 0.45500001 4286942590
-0.064864613 0.0041051856 0.45500001 4283119407
-0.063386776 0.0041051856 0.45500001 4283444258
-0.061772875 0.0040961634 0.45400003 4283312159
-0.060298279 0.0040961634 0.45400003 4282391055
-0.05882369 0.0040961634 0.45400003 4282193676
-0.057222772 0.0040871408 0.45300001 4281931019
-0.055751432 0.0040871408 0.45300001 4282391568
-0.054160263 0.0040781186 0.45200002 4283704089
-0.052575592 0.0040690964 0.45100003 4283374354
-0.050997414 0.0040600738 0.45000002 4282457363
-0.049425736 0.0040510516 0.44900003 4281081366
-0.047860548 0.0040420289 0.44800001 4280758565
-0.04630186 0.0040330067 0.44700003 4283719250
-0.044749666 0.0040239841 0.44600001 4283982168
-0.043203972 0.0040149619 0.44500002 4287864727
-0.041664772 0.0040059397 0.44400004 4282534722
-0.040041476 0.0039878949 0.44200003 4281350448
-0.038518514 0.0039788722 0.44100001 4278850568
-0.037002053 0.00396985 0.44000003 4280890151
-0.035572927 0.00396985 0.44000003 4280095243
-0.034066208 0.0039608274 0.43900001 4282130197
-0.032565989 0.0039518052 0.43800002 4282587664
-0.03114336 0.0039518052 0.43800002 4283244563
-0.029720737 0.0039518052 0.43800002 4282717705
-0.028298113 0.0039518052 0.43800002 4282063371
-0.026814125 0.0039427825 0.43700001 4280754189
-0.025394749 0.0039427825 0.43700001 4281084437
-0.023975372 0.0039427825 0.43700001 4281804049
-0.022555996 0.0039427825 0.43700001 4282983444
-0.021136619 0.0039427825 0.43700001 4282194443
-0.067969359 0.0055957991 0.45600003 4286157441
-0.066342458 0.005583527 0.45500001 4286485634
-0.064864613 0.005583527 0.45500001 4286089077
-0.063386776 0.005583527 0.45500001 4283380780
-0.061772875 0.0055712559 0.45400003 4284233261
-0.060298279 0.0055712559 0.45400003 4282654229
-0.05882369 0.0055712559 0.45400003 4282128398
-0.057222772 0.0055589844 0.45300001 4282128398
-0.055751432 0.0055589844 0.45300001 4282522643
-0.054160263 0.0055467128 0.45200002 4283441176
-0.052575592 0.0055344417 0.45100003 4283638555
-0.050997414 0.0055221696 0.45000002 4280618757
-0.049425736 0.0055098985 0.44900003 4281743148
-0.047860548 0.005497627 0.44800001 4283521867
-0.04630186 0.0054853554 0.44700003 4281350437
-0.044749666 0.0054730838 0.44600001 4291416227
-0.043203972 0.0054608122 0.44500002 4286942558
-0.041664772 0.0054485411 0.44400004 4285100638
-0.040132068 0.0054362696 0.44300002 4279640082
-0.038605858 0.005423998 0.44200003 4281417776
-0.037086148 0.0054117264 0.44100001 4282469953
-0.035572927 0.0053994553 0.44000003 4279769358
-0.034066208 0.0053871833 0.43900001 4281016343
-0.032565989 0.0053749122 0.43800002 4281472783
-0.03114336 0.0053749122 0.43800002 4282325777
-0.029720737 0.0053749122 0.43800002 4283047186
-0.028233504 0.0053626406 0.43700001 4282062603
-0.026814125 0.0053626406 0.43700001 4280753677
-0.025394749 0.0053626406 0.43700001 4280558095
-0.023975372 0.0053626406 0.43700001 4281147663
-0.022555996 0.0053626406 0.43700001 4282983959
-0.021136619 0.0053626406 0.43700001 4282457100
-0.019717243 0.0053626406 0.43700001 4281999377
-0.066342458 0.0070618689 0.45500001 4286354818
-0.064864613 0.0070618689 0.45500001 4286223232
-0.063247472 0.0070463484 0.45400003 4285293917
-0.061772875 0.0070463484 0.45400003 4283905071
-0.060298279 0.0070463484 0.45400003 4283114010
-0.05869412 0.0070308275 0.45300001 4282259473
-0.057222772 0.0070308275 0.45300001 4281010949
-0.055628359 0.007015307 0.45200002 4287529332
-0.054160263 0.007015307 0.45200002 4283449653
-0.052575592 0.0069997869 0.45100003 4282589981
-0.050997414 0.006984266 0.45000002 4280754202
-0.049315654 0.0069532245 0.44800001 4282600769
-0.047753718 0.0069377045 0.44700003 4281218851
-0.046198275 0.0069221836 0.44600001 4282467371
-0.044649333 0.0069066631 0.44500002 4282596633
-0.043106884 0.0068911426 0.44400004 4282399766
-0.041570932 0.0068756216 0.44300002 4282140205
-0.040132068 0.0068756216 0.44300002 4279970069
-0.038605858 0.0068601016 0.44200003 4281878327
-0.037086148 0.0068445806 0.44100001 4278982924
-0.035572927 0.0068290601 0.44000003 4281810740
-0.034066208 0.0068135392 0.43900001 4281347620
-0.032565989 0.0067980192 0.43800002 4281079824
-0.03114336 0.0067980192 0.43800002 4281407244
-0.029652881 0.0067824982 0.43700001 4282718991
-0.028233504 0.0067824982 0.43700001 4281865224
-0.026814125 0.0067824982 0.43700001 4280490505
-0.025394749 0.0067824982 0.43700001 4280228876
-0.023975372 0.0067824982 0.43700001 4281081870
-0.022555996 0.0067824982 0.43700001 4283312924
-0.021136619 0.0067824982 0.43700001 4282784014
-0.019717243 0.0067824982 0.43700001 4282261266
-0.064864613 0.0085402103 0.45500001 4286289027
-0.063247472 0.0085214414 0.45400003 4288059274
-0.061772875 0.0085214414 0.45400003 4284301112
-0.060165461 0.0085026706 0.45300001 4283114012
-0.05869412 0.0085026706 0.45300001 4282654231
-0.057222772 0.0085026706 0.45300001 4280750857
-0.055628359 0.0084839016 0.45200002 4286613107
-0.054040439 0.0084651317 0.45100003 4286287222
-0.052459016 0.0084463619 0.45000002 4287273351
-0.050884087 0.0084275929 0.44900003 4279509268
-0.049315654 0.0084088221 0.44800001 4281943607
-0.047753718 0.0083900532 0.44700003 4281152542
-0.046198275 0.0083712833 0.44600001 4281744159
-0.044649333 0.0083525134 0.44500002 4281940509
-0.043106884 0.0083337445 0.44400004 4280097794
-0.041570932 0.0083149746 0.44300002 4281284646
-0.040132068 0.0083149746 0.44300002 4280825126
-0.038605858 0.0082962047 0.44200003 4279969049
-0.037086148 0.0082774349 0.44100001 4278718469
-0.035572927 0.008258665 0.44000003 4279376397
-0.034066208 0.0082398951 0.43900001 4282006320
-0.032565989 0.0082211262 0.43800002 4281277716
-0.03114336 0.0082211262 0.43800002 4280816136
-0.029652881 0.0082023554 0.43700001 4283311128
-0.028233504 0.0082023554 0.43700001 4281930504
-0.026814125 0.0082023554 0.43700001 4279699968
-0.025336638 0.0081835864 0.43600002 4280293388
-0.02392051 0.0081835864 0.43600002 4281473548
-0.022504382 0.0081835864 0.43600002 4282784784
-0.021088252 0.0081835864 0.43600002 4283440917
-0.064722054 0.0099965334 0.45400003 4286354820
-0.063108154 0.0099745141 0.45300001 4287468936
-0.061636809 0.0099745141 0.45300001 4283579444
-0.060165461 0.0099745141 0.45300001 4283639589
-0.05869412 0.0099745141 0.45300001 4282784793
-0.057096455 0.0099524958 0.45200002 4280750857
-0.055628359 0.0099524958 0.45200002 4287008635
-0.054040439 0.0099304765 0.45100003 4286156154
-0.052459016 0.0099084573 0.45000002 4286945672
-0.050884087 0.009886439 0.44900003 4279970594
-0.049315654 0.0098644197 0.44800001 4281943870
-0.047753718 0.0098424014 0.44700003 4283390020
-0.046198275 0.0098203821 0.44600001 4281678882
-0.044649333 0.0097983638 0.44500002 4281875486
-0.043106884 0.0097763455 0.44400004 4284638792
-0.041664772 0.0097763455 0.44400004 4283982670
-0.040132068 0.0097543262 0.44300002 4280034840
-0.038605858 0.0097323079 0.44200003 4280955942
-0.037086148 0.0097102886 0.44100001 4279179020
-0.035572927 0.0096882703 0.44000003 4279375629
-0.034066208 0.009666251 0.43900001 4282268720
-0.032565989 0.0096442327 0.43800002 4281146900
-0.031072255 0.0096222134 0.43700001 4280816136
-0.029652881 0.0096222134 0.43700001 4283178770
-0.028168898 0.0096001942 0.43600002 4283111180
-0.026752766 0.0096001942 0.43600002 4283310358
-0.025336638 0.0096001942 0.43600002 4284232230
-0.02392051 0.0096001942 0.43600002 4284954406
-0.022504382 0.0096001942 0.43600002 4285478183
-0.021039885 0.0095781758 0.43500003 4284228632
-0.063108154 0.011446357 0.45300001 4286616707
-0.061636809 0.011446357 0.45300001 4282398250
-0.060165461 0.011446357 0.45300001 4283574048
-0.058564555 0.011421089 0.45200002 4283245083
-0.057096455 0.011421089 0.45200002 4281800980
-0.055505291 0.011395821 0.45100003 4288059276
-0.054040439 0.011395821 0.45100003 4286288255
-0.052459016 0.011370554 0.45000002 4286419843
-0.050884087 0.011345286 0.44900003 4279839778
-0.049315654 0.011320017 0.44800001 4283523416
-0.047753718 0.01129475 0.44700003 4281482286
-0.046198275 0.011269482 0.44600001 4283390535
-0.044649333 0.011244214 0.44500002 4280495382
-0.043106884 0.011218946 0.44400004 4283456065
-0.041664772 0.011218946 0.44400004 4280693020
-0.040132068 0.011193678 0.44300002 4281482538
-0.038605858 0.01116841 0.44200003 4281877044
-0.037086148 0.011143142 0.44100001 4279244559
-0.035572927 0.011117875 0.44000003 4279440652
-0.034066208 0.011092606 0.43900001 4281347618
-0.032565989 0.011067338 0.43800002 4280686349
-0.031072255 0.011042071 0.43700001 4281407503
-0.029585024 0.011016803 0.43600002 4285215011
-0.028168898 0.011016803 0.43600002 4285081627
-0.026752766 0.011016803 0.43600002 4286003246
-0.025278527 0.010991535 0.43500003 4284818457
-0.023865648 0.010991535 0.43500003 4284751894
-0.022452766 0.010991535 0.43500003 4284751894
-0.021039885 0.010991535 0.43500003 4284161810
-0.019581884 0.010966267 0.43400002 4283571472
-0.062968843 0.012889684 0.45200002 4286354048
-0.061500747 0.012889684 0.45200002 4283453248
-0.060032647 0.012889684 0.45200002 4283310876
-0.058564555 0.012889684 0.45200002 4283837220
-0.057096455 0.012889684 0.45200002 4282983196
-0.055505291 0.012861167 0.45100003 4288121989
-0.053920615 0.01283265 0.45000002 4286223232
-0.052342441 0.012804133 0.44900003 4286157439
-0.050884087 0.012804133 0.44900003 4285761661
-0.049315654 0.012775616 0.44800001 4283063384
-0.047753718 0.012747099 0.44700003 4280759081
-0.046198275 0.012718582 0.44600001 4281811253
-0.044649333 0.012690065 0.44500002 4282075445
-0.043203972 0.012690065 0.44500002 4284378965
-0.041664772 0.012661548 0.44400004 4279772688
-0.040132068 0.012633031 0.44300002 4281943857
-0.038605858 0.012604514 0.44200003 4279244813
-0.037170243 0.012604514 0.44200003 4279112973
-0.035572927 0.01254748 0.44000003 4278848515
-0.034066208 0.012518963 0.43900001 4280032528
-0.032565989 0.012490446 0.43800002 4280489229
-0.031072255 0.012461929 0.43700001 4282656028
-0.029585024 0.012433412 0.43600002 4285015064
-0.028168898 0.012433412 0.43600002 4286264361
-0.026691409 0.012404895 0.43500003 4285278238
-0.025278527 0.012404895 0.43500003 4285014039
-0.023865648 0.012404895 0.43500003 4284422929
-0.022452766 0.012404895 0.43500003 4284226320
-0.021039885 0.012404895 0.43500003 4283899151
-0.019581884 0.012376377 0.43400002 4283505938
-0.062968843 0.014358278 0.45200002 4286223745
-0.061500747 0.014358278 0.45200002 4284441688
-0.060032647 0.014358278 0.45200002 4284362280
-0.058564555 0.014358278 0.45200002 4284032802
-0.056970138 0.014326513 0.45100003 4283770143
-0.055505291 0.014326513 0.45100003 4285156421
-0.053920615 0.014294746 0.45000002 4286353533
-0.052342441 0.014262981 0.44900003 4286223232
-0.050770756 0.014231214 0.44800001 4287210129
-0.049315654 0.014231214 0.44800001 4279971111
-0.047753718 0.014199449 0.44700003 4280496685
-0.046198275 0.014167681 0.44600001 4278785553
-0.044749666 0.014167681 0.44600001 4280758311
-0.043203972 0.014135916 0.44500002 4283522641
-0.041664772 0.01410415 0.44400004 4282206007
-0.04022266 0.01410415 0.44400004 4278718980
-0.038693201 0.014072384 0.44300002 4279376399
-0.037170243 0.014040618 0.44200003 4279375375
-0.035653777 0.014008852 0.44100001 4281018655
-0.034066208 0.013945319 0.43900001 4280491026
-0.032565989 0.013913553 0.43800002 4280620556
-0.031072255 0.013881787 0.43700001 4283312157
-0.029585024 0.013850021 0.43600002 4284949271
-0.028168898 0.013850021 0.43600002 4288632909
-0.026691409 0.013818256 0.43500003 4284555285
-0.025278527 0.013818256 0.43500003 4284686101
-0.023865648 0.013818256 0.43500003 4284029456
-0.022452766 0.013818256 0.43500003 4283570188
-0.021039885 0.013818256 0.43500003 4282980364
-0.019581884 0.013786488 0.43400002 4282718221
-0.062829532 0.015791858 0.45100003 4286420611
-0.061364684 0.015791858 0.45100003 4285561450
-0.059899833 0.015791858 0.45100003 4285348662
-0.058434989 0.015791858 0.45100003 4284293919
-0.056970138 0.015791858 0.45100003 4284163103
-0.055382218 0.015756842 0.45000002 4282849555
-0.053920615 0.015756842 0.45000002 4286878847
-0.052342441 0.015721828 0.44900003 4286288255
-0.050770756 0.015686812 0.44800001 4286223234
-0.049315654 0.015686812 0.44800001 4285499257
-0.047753718 0.015651796 0.44700003 4281484354
-0.046198275 0.015616781 0.44600001 4281286201
-0.044749666 0.015616781 0.44600001 4281878077
-0.043203972 0.015581766 0.44500002 4278851348
-0.041758612 0.015581766 0.44500002 4278850316
-0.04022266 0.015546751 0.44400004 4279376658
-0.038693201 0.015511735 0.44300002 4279508498
-0.037170243 0.01547672 0.44200003 4279375629
-0.035653777 0.015441705 0.44100001 4280754198
-0.034066208 0.015371675 0.43900001 4280622099
-0.032565989 0.01533666 0.43800002 4281145615
-0.031072255 0.015301644 0.43700001 4283705886
-0.029585024 0.015266629 0.43600002 4284884502
-0.028168898 0.015266629 0.43600002 4284752916
-0.026691409 0.015231614 0.43500003 4284687382
-0.025278527 0.015231614 0.43500003 4284095247
-0.023865648 0.015231614 0.43500003 4283307276
-0.022452766 0.015231614 0.43500003 4282848008
-0.021039885 0.015231614 0.43500003 4282324233
-0.019581884 0.015196599 0.43400002 4282127883
-0.064151816 0.017218938 0.45000002 4286552199
-0.062829532 0.017257202 0.45100003 4286354818
-0.061364684 0.017257202 0.45100003 4287272068
-0.059899833 0.017257202 0.45100003 4284953132
-0.058434989 0.017257202 0.45100003 4284425759
-0.056970138 0.017257202 0.45100003 4284556831
-0.055382218 0.017218938 0.45000002 4283900185
-0.053920615 0.017218938 0.45000002 4286741102
-0.052342441 0.017180674 0.44900003 4286550142
-0.050770756 0.017142409 0.44800001 4286288257
-0.049315654 0.017142409 0.44800001 4286157441
-0.047753718 0.017104145 0.44700003 4284314985
-0.04630186 0.017104145 0.44700003 4280234796
-0.044749666 0.017065881 0.44600001 4280563248
-0.043203972 0.017027617 0.44500002 4283654749
-0.041758612 0.017027617 0.44500002 4283456594
-0.04022266 0.016989352 0.44400004 4281482804
-0.038693201 0.016951088 0.44300002 4279506186
-0.037170243 0.016912824 0.44200003 4280227341
-0.035653777 0.016874559 0.44100001 4280620815
-0.034143809 0.016836295 0.44000003 4287401344
-0.032565989 0.016759766 0.43800002 4285422412
-0.031072255 0.016721502 0.43700001 4283507735
-0.029585024 0.016683238 0.43600002 4284359704
-0.028168898 0.016683238 0.43600002 4283964946
-0.026691409 0.016644973 0.43500003 4283570702
-0.025278527 0.016644973 0.43500003 4283242507
-0.023865648 0.016644973 0.43500003 4282520074
-0.022452766 0.016644973 0.43500003 4282192395
-0.021039885 0.016644973 0.43500003 4281865740
-0.019627005 0.016644973 0.43500003 4281734924
-0.064151816 0.018681033 0.45000002 4286420613
-0.062690221 0.018681033 0.45000002 4287076486
-0.061228618 0.018681033 0.45000002 4283448370
-0.059767015 0.018681033 0.45000002 4285084205
-0.05830542 0.018681033 0.45000002 4285873205
-0.056843817 0.018681033 0.45000002 4284622363
-0.055382218 0.018681033 0.45000002 4284885533
-0.053800792 0.01863952 0.44900003 4283046934
-0.052342441 0.01863952 0.44900003 4288056962
-0.050770756 0.018598007 0.44800001 4286419328
-0.049315654 0.018598007 0.44800001 4286419328
-0.047753718 0.018556494 0.44700003 4286551427
-0.04630186 0.018556494 0.44700003 4287012750
-0.044749666 0.01851498 0.44600001 4282735951
-0.043301057 0.01851498 0.44600001 4279246357
-0.041758612 0.018473467 0.44500002 4280162835
-0.04022266 0.018431954 0.44400004 4281147159
-0.038693201 0.018390439 0.44300002 4282983707
-0.037170243 0.018348927 0.44200003 4283180571
-0.035653777 0.018307412 0.44100001 4280882956
-0.034143809 0.018265899 0.44000003 4287993992
-0.032565989 0.018182872 0.43800002 4283311641
-0.031072255 0.018141359 0.43700001 4283704087
-0.029652881 0.018141359 0.43700001 4283572503
-0.028168898 0.018099846 0.43600002 4283572503
-0.026752766 0.018099846 0.43600002 4282916370
-0.025278527 0.018058334 0.43500003 4282785297
-0.023865648 0.018058334 0.43500003 4282193678
-0.022452766 0.018058334 0.43500003 4281931019
-0.021039885 0.018058334 0.43500003 4281866510
-0.019627005 0.018058334 0.43500003 4281932303
-0.064151816 0.020143129 0.45000002 4286420613
-0.062690221 0.020143129 0.45000002 4285951586
-0.061228618 0.020143129 0.45000002 4285547068
-0.059767015 0.020143129 0.45000002 4287715407
-0.05830542 0.020143129 0.45000002 4284819742
-0.056843817 0.020143129 0.45000002 4285213728
-0.055382218 0.020143129 0.45000002 4285081629
-0.053800792 0.020098368 0.44900003 4285147937
-0.052342441 0.020098368 0.44900003 4285150513
-0.050770756 0.020053605 0.44800001 4287207299
-0.049315654 0.020053605 0.44800001 4286485632
-0.047753718 0.020008842 0.44700003 4286354818
-0.04630186 0.020008842 0.44700003 4286354818
-0.044749666 0.019964078 0.44600001 4286223232
-0.043203972 0.019919317 0.44500002 4282667330
-0.041758612 0.019919317 0.44500002 4284034601
-0.04022266 0.019874554 0.44400004 4283836188
-0.038693201 0.019829791 0.44300002 4284360218
-0.037170243 0.01978503 0.44200003 4284164122
-0.035653777 0.019740267 0.44100001 4281407755
-0.034143809 0.019695504 0.44000003 4284172856
-0.032640338 0.019650741 0.43900001 4283244311
-0.03114336 0.019605979 0.43800002 4282389774
-0.029652881 0.019561216 0.43700001 4282918430
-0.028233504 0.019561216 0.43700001 4283246881
-0.026752766 0.019516453 0.43600002 4282852123
-0.025336638 0.019516453 0.43600002 4282523158
-0.023865648 0.019471692 0.43500003 4282063121
-0.022452766 0.019471692 0.43500003 4282129682
-0.021039885 0.019471692 0.43500003 4282195475
-0.064151816 0.021605227 0.45000002 4286289025
-0.062690221 0.021605227 0.45000002 4284041020
-0.061228618 0.021605227 0.45000002 4285151794
-0.059767015 0.021605227 0.45000002 4285082914
-0.05830542 0.021605227 0.45000002 4285082914
-0.0567175 0.021557216 0.44900003 4285542180
-0.055259146 0.021557216 0.44900003 4284686871
-0.053800792 0.021557216 0.44900003 4285344031
-0.052342441 0.021557216 0.44900003 4285279008
-0.050770756 0.021509202 0.44800001 4283969837
-0.049205575 0.021461193 0.44700003 4287992965
-0.047753718 0.021461193 0.44700003 4286354300
-0.046198275 0.021413179 0.44600001 4286289023
-0.044749666 0.021413179 0.44600001 4286354816
-0.043203972 0.021365168 0.44500002 4284179284
-0.041664772 0.021317158 0.44400004 4284427558
-0.04022266 0.021317158 0.44400004 4284558113
-0.038693201 0.021269144 0.44300002 4284951326
-0.037170243 0.021221135 0.44200003 4286201904
-0.035653777 0.021173121 0.44100001 4283375635
-0.034143809 0.02112511 0.44000003 4283309842
-0.032640338 0.021077098 0.43900001 4282259473
-0.031214463 0.021077098 0.43900001 4286872436
-0.029720737 0.021029087 0.43800002 4286680701
-0.028233504 0.020981075 0.43700001 4284639835
-0.026752766 0.020933064 0.43600002 4282656541
-0.025336638 0.020933064 0.43600002 4282787614
-0.02392051 0.020933064 0.43600002 4282261270
-0.022452766 0.020885052 0.43500003 4282195477
-0.021039885 0.020885052 0.43500003 4282195990
-0.065613419 0.023067322 0.45000002 4286354818
-0.064151816 0.023067322 0.45000002 4286683783
-0.062690221 0.023067322 0.45000002 4283250991
-0.061228618 0.023067322 0.45000002 4284889906
-0.059634201 0.023016062 0.44900003 4284163355
-0.058175854 0.023016062 0.44900003 4284163357
-0.0567175 0.023016062 0.44900003 4284293657
-0.055259146 0.023016062 0.44900003 4287188801
-0.053800792 0.023016062 0.44900003 4285741355
-0.052225862 0.0229648 0.44800001 4285608486
-0.050770756 0.0229648 0.44800001 4286266418
-0.049205575 0.02291354 0.44700003 4284490786
-0.047753718 0.02291354 0.44700003 4287397748
-0.046198275 0.022862278 0.44600001 4287337602
-0.044749666 0.022862278 0.44600001 4286484603
-0.043203972 0.022811018 0.44500002 4285427038
-0.041664772 0.022759758 0.44400004 4284952101
-0.040132068 0.022708498 0.44300002 4284951328
-0.038693201 0.022708498 0.44300002 4285278236
-0.037170243 0.022657236 0.44200003 4285344799
-0.035653777 0.022605976 0.44100001 4284427294
-0.034143809 0.022554716 0.44000003 4282849807
-0.032714691 0.022554716 0.44000003 4286217070
-0.031214463 0.022503454 0.43900001 4286550144
-0.029788591 0.022503454 0.43900001 4286222980
-0.028298113 0.022452194 0.43800002 4287011726
-0.026814125 0.022400932 0.43700001 4281342996
-0.025336638 0.022349672 0.43600002 4282328346
-0.065759227 0.024583928 0.45100003 4286420613
-0.064151816 0.024529418 0.45000002 4286223234
-0.062690221 0.024529418 0.45000002 4283516477
-0.061228618 0.024529418 0.45000002 4284233776
-0.059634201 0.024474908 0.44900003 4283837472
-0.058175854 0.024474908 0.44900003 4283705886
-0.0567175 0.024474908 0.44900003 4283705116
-0.055259146 0.024474908 0.44900003 4283638807
-0.053800792 0.024474908 0.44900003 4284820769
-0.052225862 0.024420397 0.44800001 4288110417
-0.050770756 0.024420397 0.44800001 4285870373
-0.049205575 0.024365889 0.44700003 4285935398
-0.047753718 0.024365889 0.44700003 4285937199
-0.046198275 0.024311379 0.44600001 4285610803
-0.044649333 0.024256868 0.44500002 4284957749
-0.043203972 0.024256868 0.44500002 4285284918
-0.041664772 0.02420236 0.44400004 4284754460
-0.040132068 0.02414785 0.44300002 4285411105
-0.038605858 0.024093339 0.44200003 4285409822
-0.037170243 0.024093339 0.44200003 4284621589
-0.035653777 0.024038829 0.44100001 4282587664
-0.034221407 0.024038829 0.44100001 4286806127
-0.032714691 0.02398432 0.44000003 4286288255
-0.031285569 0.02398432 0.44000003 4286223234
-0.029856447 0.02398432 0.44000003 4286354820
-0.028362719 0.02392981 0.43900001 4283060037
-0.027059564 0.024038829 0.44100001 4282589981
-0.025627196 0.024038829 0.44100001 4282524701
-0.065759227 0.026049273 0.45100003 4286552199
-0.064151816 0.025991512 0.45000002 4286354820
-0.062690221 0.025991512 0.45000002 4287339148
-0.061228618 0.025991512 0.45000002 4282399025
-0.059767015 0.025991512 0.45000002 4283643434
-0.058175854 0.025933756 0.44900003 4283248163
-0.0567175 0.025933756 0.44900003 4282852123
-0.055259146 0.025933756 0.44900003 4282852123
-0.053800792 0.025933756 0.44900003 4284299306
-0.052342441 0.025933756 0.44900003 4283706399
-0.050770756 0.025875995 0.44800001 4285937453
-0.049205575 0.025818236 0.44700003 4285805352
-0.047646888 0.025760477 0.44600001 4285870375
-0.046198275 0.025760477 0.44600001 4285803812
-0.044649333 0.025702719 0.44500002 4285540638
-0.043106884 0.025644962 0.44400004 4285804834
-0.041664772 0.025644962 0.44400004 4285937190
-0.040132068 0.025587201 0.44300002 4285542432
-0.038605858 0.025529442 0.44200003 4284425495
-0.037170243 0.025529442 0.44200003 4282586381
-0.035734624 0.025529442 0.44200003 4287074176
-0.034221407 0.025471684 0.44100001 4286485121
-0.03278904 0.025471684 0.44100001 4286485636
-0.03135667 0.025471684 0.44100001 4286354820
-0.029924303 0.025471684 0.44100001 4284241999
-0.028491935 0.025471684 0.44100001 4282919461
-0.027059564 0.025471684 0.44100001 4282786844
-0.025685309 0.025529442 0.44200003 4281868056
-0.064151816 0.027453609 0.45000002 4286420613
-0.062690221 0.027453609 0.45000002 4286683015
-0.061228618 0.027453609 0.45000002 4287339660
-0.059767015 0.027453609 0.45000002 4282990647
-0.05830542 0.027453609 0.45000002 4282921514
-0.056843817 0.027453609 0.45000002 4283117610
-0.055259146 0.027392602 0.44900003 4282459678
-0.053800792 0.027392602 0.44900003 4282327322
-0.052342441 0.027392602 0.44900003 4283117608
-0.050770756 0.027331593 0.44800001 4287396715
-0.049205575 0.027270585 0.44700003 4283513899
-0.047646888 0.027209576 0.44600001 4284558374
-0.046094693 0.027148569 0.44500002 4285411879
-0.044649333 0.027148569 0.44500002 4285935396
-0.043106884 0.027087562 0.44400004 4285606174
-0.041570932 0.027026553 0.44300002 4289556584
-0.040132068 0.027026553 0.44300002 4284752664
-0.038605858 0.026965545 0.44200003 4283373841
-0.037170243 0.026965545 0.44200003 4288905339
-0.035734624 0.026965545 0.44200003 4286353787
-0.034299009 0.026965545 0.44200003 4286288507
-0.032863393 0.026965545 0.44200003 4286814597
-0.031427775 0.026965545 0.44200003 4283126598
-0.029924303 0.026904536 0.44100001 4282722334
-0.028491935 0.026904536 0.44100001 4282853407
-0.027120925 0.026965545 0.44200003 4281475093
-0.061364684 0.028979965 0.45100003 4286617992
-0.059767015 0.028915707 0.45000002 4286552199
-0.05830542 0.028915707 0.45000002 4286814088
-0.056843817 0.028915707 0.45000002 4285296229
-0.055382218 0.028915707 0.45000002 4283255104
-0.053800792 0.028851449 0.44900003 4282527270
-0.052342441 0.028851449 0.44900003 4282986537
-0.050770756 0.028787192 0.44800001 4282197537
-0.049205575 0.028722936 0.44700003 4286213220
-0.047646888 0.028658677 0.44600001 4287600002
-0.046094693 0.028594421 0.44500002 4285884248
-0.044549 0.028530166 0.44400004 4285739307
-0.043106884 0.028530166 0.44400004 4286134065
-0.041570932 0.028465906 0.44300002 4285213476
-0.040132068 0.028465906 0.44300002 4285147424
-0.038693201 0.028465906 0.44300002 4284426011
-0.037170243 0.02840165 0.44200003 4282717453
-0.035734624 0.02840165 0.44200003 4282989365
-0.034299009 0.02840165 0.44200003 4284835419
-0.032863393 0.02840165 0.44200003 4282396197
-0.031427775 0.02840165 0.44200003 4282524188
-0.029992159 0.02840165 0.44200003 4282852637
-0.028556544 0.02840165 0.44200003 4281801232
-0.027120925 0.02840165 0.44200003 4287010693
-0.061364684 0.030445309 0.45100003 4286420613
-0.059899833 0.030445309 0.45100003 4286552199
-0.058434989 0.030445309 0.45100003 4286617992
-0.056843817 0.030377802 0.45000002 4286552199
-0.055382218 0.030377802 0.45000002 4286552199
-0.053920615 0.030377802 0.45000002 4286879877
-0.052342441 0.030310297 0.44900003 4286878593
-0.050770756 0.03024279 0.44800001 4284307022
-0.049205575 0.030175284 0.44700003 4282133543
-0.047646888 0.030107776 0.44600001 4282198053
-0.046094693 0.030040272 0.44500002 4284695870
-0.044549 0.029972766 0.44400004 4285346345
-0.043106884 0.029972766 0.44400004 4285411109
-0.041570932 0.029905258 0.44300002 4285081629
-0.040132068 0.029905258 0.44300002 4284884250
-0.038693201 0.029905258 0.44300002 4283703056
-0.037254337 0.029905258 0.44300002 4283111950
-0.03581547 0.029905258 0.44300002 4282194193
-0.034376606 0.029905258 0.44300002 4282129432
-0.032937743 0.029905258 0.44300002 4282392602
-0.031498879 0.029905258 0.44300002 4282655258
-0.030060014 0.029905258 0.44300002 4281933849
-0.028556544 0.029837754 0.44200003 4287533189
-0.027120925 0.029837754 0.44200003 4286157187
-0.063526094 0.03226443 0.45600003 4286552199
-0.061636809 0.032052163 0.45300001 4286617992
-0.060032647 0.031981409 0.45200002 4286420613
-0.058434989 0.031910654 0.45100003 4286552199
-0.056970138 0.031910654 0.45100003 4286552199
-0.055382218 0.031839896 0.45000002 4286617992
-0.053920615 0.031839896 0.45000002 4286420613
-0.052342441 0.031769142 0.44900003 4286552199
-0.050770756 0.031698387 0.44800001 4286552199
-0.049205575 0.031627633 0.44700003 4287011465
-0.047646888 0.031556875 0.44600001 4285954159
-0.046094693 0.03148612 0.44500002 4283779653
-0.044549 0.031415366 0.44400004 4284888622
-0.043106884 0.031415366 0.44400004 4284098077
-0.041570932 0.031344611 0.44300002 4284228378
-0.040132068 0.031344611 0.44300002 4283834390
-0.038693201 0.031344611 0.44300002 4283178256
-0.037254337 0.031344611 0.44300002 4282455819
-0.03581547 0.031344611 0.44300002 4282194191
-0.034376606 0.031344611 0.44300002 4282260500
-0.032937743 0.031344611 0.44300002 4282457879
-0.031498879 0.031344611 0.44300002 4282787614
-0.030060014 0.031344611 0.44300002 4286020718
-0.02862115 0.031344611 0.44300002 4286354050
-0.027182283 0.031344611 0.44300002 4286354566
-0.063386776 0.033672016 0.45500001 4286354820
-0.061636809 0.033524007 0.45300001 4286552199
-0.060032647 0.033450004 0.45200002 4286420613
-0.058564555 0.033450004 0.45200002 4286617992
-0.056970138 0.033376001 0.45100003 4286552199
-0.055505291 0.033376001 0.45100003 4286355333
-0.053920615 0.033301994 0.45000002 4287144849
-0.052342441 0.033227991 0.44900003 4286750091
-0.050770756 0.033153985 0.44800001 4286552199
-0.049205575 0.033079982 0.44700003 4286617992
-0.047646888 0.033005975 0.44600001 4286354820
-0.046094693 0.032931972 0.44500002 4287340432
-0.044549 0.032857969 0.44400004 4282985254
-0.043106884 0.032857969 0.44400004 4283970602
-0.041664772 0.032857969 0.44400004 4283639069
-0.040132068 0.032783963 0.44300002 4283375897
-0.038693201 0.032783963 0.44300002 4282720020
-0.037338436 0.032857969 0.44400004 4282523154
-0.03589632 0.032857969 0.44400004 4282261268
-0.034454208 0.032857969 0.44400004 4282327063
-0.033012096 0.032857969 0.44400004 4282261016
-0.031569984 0.032857969 0.44400004 4282854951
-0.03012787 0.032857969 0.44400004 4286683015
-0.02868576 0.032857969 0.44400004 4286420613
-0.027243644 0.032857969 0.44400004 4286289027
-0.063247472 0.035073105 0.45400003 4286552199
-0.061636809 0.03499585 0.45300001 4286617992
-0.060032647 0.034918595 0.45200002 4286420613
-0.058564555 0.034918595 0.45200002 4286289027
-0.056970138 0.034841344 0.45100003 4286354820
-0.055505291 0.034841344 0.45100003 4286289540
-0.053920615 0.034764089 0.45000002 4286289286
-0.052342441 0.034686837 0.44900003 4286552712
-0.050770756 0.034609582 0.44800001 4286683785
-0.049205575 0.034532327 0.44700003 4286617992
-0.047646888 0.034455076 0.44600001 4286683785
-0.046094693 0.034377821 0.44500002 4286552199
-0.044549 0.034300569 0.44400004 4287074180
-0.043106884 0.034300569 0.44400004 4282989363
-0.041664772 0.034300569 0.44400004 4283641899
-0.04022266 0.034300569 0.44400004 4282918176
-0.038780548 0.034300569 0.44400004 4282589981
-0.037338436 0.034300569 0.44400004 4282524188
-0.03589632 0.034300569 0.44400004 4282459678
-0.034454208 0.034300569 0.44400004 4282591264
-0.033012096 0.034300569 0.44400004 4281737754
-0.031569984 0.034300569 0.44400004 4287664775
-0.03012787 0.034300569 0.44400004 4286222980
-0.02868576 0.034300569 0.44400004 4286288773
-0.027243644 0.034300569 0.44400004 4286354566
-0.063247472 0.036548197 0.45400003 4286683785
-0.061500747 0.03638719 0.45200002 4286815371
-0.060032647 0.03638719 0.45200002 4286552199
-0.058564555 0.03638719 0.45200002 4286420613
-0.056970138 0.03630669 0.45100003 4286354820
-0.055505291 0.03630669 0.45100003 4286420613
-0.053920615 0.036226183 0.45000002 4286617992
-0.052342441 0.036145683 0.44900003 4286486919
-0.050770756 0.03606518 0.44800001 4286618505
-0.049205575 0.035984676 0.44700003 4286552712
-0.047646888 0.035904173 0.44600001 4286552199
-0.046094693 0.035823673 0.44500002 4286683785
-0.044549 0.035743169 0.44400004 4286354818
-0.043106884 0.035743169 0.44400004 4287077258
-0.041664772 0.035743169 0.44400004 4283913034
-0.04022266 0.035743169 0.44400004 4282396715
-0.038780548 0.035743169 0.44400004 4283250225
-0.037338436 0.035743169 0.44400004 4282394146
-0.03589632 0.035743169 0.44400004 4282788904
-0.034531806 0.035823673 0.44500002 4282263844
-0.033086449 0.035823673 0.44500002 4287075722
-0.031641085 0.035823673 0.44500002 4286353796
-0.030195726 0.035823673 0.44500002 4286354566
-0.028750366 0.035823673 0.44500002 4286420359
-0.027305003 0.035823673 0.44500002 4286222980
-0.061500747 0.037855785 0.45200002 4286420613
-0.060032647 0.037855785 0.45200002 4286617992
-0.058564555 0.037855785 0.45200002 4286552199
-0.056970138 0.037772033 0.45100003 4286552199
-0.055505291 0.037772033 0.45100003 4286617992
-0.053920615 0.037688281 0.45000002 4286552199
-0.052342441 0.037604529 0.44900003 4286552199
-0.050770756 0.037520777 0.44800001 4286355333
-0.049205575 0.037437025 0.44700003 4286355333
-0.047646888 0.037353273 0.44600001 4286486919
-0.046094693 0.037269522 0.44500002 4286486919
-0.044649333 0.037269522 0.44500002 4286355079
-0.043106884 0.03718577 0.44400004 4286420359
-0.041664772 0.03718577 0.44400004 4286683015
-0.04022266 0.03718577 0.44400004 4286946185
-0.038780548 0.03718577 0.44400004 4287142281
-0.037338436 0.03718577 0.44400004 4286221179
-0.035977166 0.037269522 0.44500002 4287076490
-0.034531806 0.037269522 0.44500002 4286748808
-0.058564555 0.039324377 0.45200002 4286552199
-0.056970138 0.03923738 0.45100003 4286420613
-0.055505291 0.03923738 0.45100003 4286552199
-0.053920615 0.039150376 0.45000002 4286420613
-0.052459016 0.039150376 0.45000002 4286354820
-0.050884087 0.039063375 0.44900003 4286355333
-0.049315654 0.038976375 0.44800001 4286552712
-0.047753718 0.038889375 0.44700003 4286617992
-0.046198275 0.03880237 0.44600001 4286355333
-0.044749666 0.03880237 0.44600001 4286552712
-0.041664772 0.038628373 0.44400004 4286486919
-0.04022266 0.038628373 0.44400004 4286289540
-0.041300207 0.0085907597 0.44349825 4294967295
-0.041300207 0.0085907597 0.44349825 4294901760
