# .PCD v0.7 - Point Cloud Data file format
VERSION 0.7
FIELDS x y z rgb
SIZE 4 4 4 4
TYPE F F F U
COUNT 1 1 1 1
WIDTH 1061
HEIGHT 1
VIEWPOINT 0 0 0 1 0 0 0
POINTS 1061
DATA ascii
0.071421035 0.030955732 0.34300002 4281223989
0.056475136 0.032444168 0.347 4284380260
0.058390755 0.032257173 0.34500003 4280632876
0.061573446 0.032163672 0.34400001 4279781158
0.062690757 0.032163672 0.34400001 4279584549
0.063808069 0.032163672 0.34400001 4279322914
0.064736649 0.032070175 0.34300002 4278798367
0.065850712 0.032070175 0.34300002 4283599207
0.066964775 0.032070175 0.34300002 4279452963
0.068078846 0.032070175 0.34300002 4279190045
0.069192901 0.032070175 0.34300002 4279190045
0.070306972 0.032070175 0.34300002 4279189791
0.071421035 0.032070175 0.34300002 4279452193
0.072535105 0.032070175 0.34300002 4279582496
0.073649161 0.032070175 0.34300002 4279516703
0.074763231 0.032070175 0.34300002 4279647775
0.075877294 0.032070175 0.34300002 4279581469
0.07810542 0.032070175 0.34300002 4279448602
0.056475136 0.033571605 0.347 4284445540
0.057436198 0.033474859 0.34600002 4282209859
0.058560003 0.033474859 0.34600002 4280172071
0.059511319 0.033378113 0.34500003 4280042533
0.060631879 0.033378113 0.34500003 4280108840
0.061573446 0.033281364 0.34400001 4280242479
0.062690757 0.033281364 0.34400001 4280045613
0.063808069 0.033281364 0.34400001 4279652393
0.06492538 0.033281364 0.34400001 4279192355
0.065850712 0.033184614 0.34300002 4279849779
0.066964775 0.033184614 0.34300002 4283138916
0.068078846 0.033184614 0.34300002 4279520039
0.069192901 0.033184614 0.34300002 4278993949
0.070306972 0.033184614 0.34300002 4278928156
0.071421035 0.033184614 0.34300002 4278796570
0.072535105 0.033184614 0.34300002 4278862363
0.073649161 0.033184614 0.34300002 4278928156
0.074763231 0.033184614 0.34300002 4278993177
0.075877294 0.033184614 0.34300002 4279058457
0.076991357 0.033184614 0.34300002 4279255066
0.07810542 0.033184614 0.34300002 4279386141
0.07921949 0.033184614 0.34300002 4279516703
0.080567755 0.033281364 0.34400001 4279516703
0.081685066 0.033281364 0.34400001 4279581982
0.083043091 0.033378113 0.34500003 4279713568
0.084407598 0.033474859 0.34600002 4279778078
0.085531406 0.033474859 0.34600002 4279712285
0.088286422 0.033668354 0.34800002 4280105510
0.059511319 0.034499053 0.34500003 4280240680
0.060631879 0.034499053 0.34500003 4280438829
0.061752442 0.034499053 0.34500003 4280505905
0.062690757 0.034399055 0.34400001 4280374065
0.063808069 0.034399055 0.34400001 4280309039
0.06492538 0.034399055 0.34400001 4279915051
0.066042691 0.034399055 0.34400001 4279257381
0.067160003 0.034399055 0.34400001 4279125797
0.068078846 0.034299057 0.34300002 4278666527
0.069192901 0.034299057 0.34300002 4278929699
0.070306972 0.034299057 0.34300002 4278731804
0.071421035 0.034299057 0.34300002 4278863390
0.072535105 0.034299057 0.34300002 4278731804
0.073649161 0.034299057 0.34300002 4278797597
0.074763231 0.034299057 0.34300002 4278862877
0.075877294 0.034299057 0.34300002 4278665498
0.076991357 0.034299057 0.34300002 4278862875
0.07810542 0.034299057 0.34300002 4278862361
0.07921949 0.034299057 0.34300002 4278862361
0.080333553 0.034299057 0.34300002 4278796568
0.081685066 0.034399055 0.34400001 4278993177
0.083043091 0.034499053 0.34500003 4279058457
0.084163651 0.034499053 0.34500003 4279123480
0.085531406 0.034599047 0.34600002 4279057176
0.086905658 0.034699045 0.347 4279188508
0.088032715 0.034699045 0.347 4279187738
0.089159779 0.034699045 0.347 4279318810
0.090026647 0.034599047 0.34600002 4279581984
0.091150455 0.034599047 0.34600002 4279318558
0.092007577 0.034499053 0.34500003 4279515424
0.092858203 0.034399055 0.34400001 4279185693
0.093702324 0.034299057 0.34300002 4279383072
0.094816387 0.034299057 0.34300002 4279909416
0.09565077 0.034199059 0.34200001 4280632885
0.057436198 0.035723239 0.34600002 4284511842
0.058560003 0.035723239 0.34600002 4280500006
0.059683811 0.035723239 0.34600002 4280963635
0.060631879 0.035619993 0.34500003 4280701747
0.061752442 0.035619993 0.34500003 4280571444
0.062872998 0.035619993 0.34500003 4280637237
0.063993558 0.035619993 0.34500003 4280637237
0.06492538 0.035516743 0.34400001 4280571698
0.066042691 0.035516743 0.34400001 4280309555
0.067160003 0.035516743 0.34400001 4280375348
0.068277322 0.035516743 0.34400001 4279520039
0.069394633 0.035516743 0.34400001 4279520039
0.070511945 0.035516743 0.34400001 4278797084
0.071421035 0.0354135 0.34300002 4279126049
0.072535105 0.0354135 0.34300002 4278862875
0.073649161 0.0354135 0.34300002 4278928668
0.074763231 0.0354135 0.34300002 4278994461
0.075877294 0.0354135 0.34300002 4278797082
0.076991357 0.0354135 0.34300002 4278994461
0.07810542 0.0354135 0.34300002 4278862875
0.07921949 0.0354135 0.34300002 4278797084
0.080333553 0.0354135 0.34300002 4278731289
0.081685066 0.035516743 0.34400001 4278862361
0.082802385 0.035516743 0.34400001 4278664982
0.084163651 0.035619993 0.34500003 4278927384
0.085531406 0.035723239 0.34600002 4278993177
0.086655214 0.035723239 0.34600002 4278861078
0.087779023 0.035723239 0.34600002 4278861078
0.088902831 0.035723239 0.34600002 4278729492
0.090026647 0.035723239 0.34600002 4278663699
0.090887018 0.035619993 0.34500003 4278663701
0.091740884 0.035516743 0.34400001 4278728724
0.092858203 0.035516743 0.34400001 4278859543
0.093702324 0.0354135 0.34300002 4278990359
0.094539955 0.03531025 0.34200001 4279318812
0.095371097 0.035207007 0.34100002 4279318812
0.095912807 0.035000514 0.33900002 4279515678
0.098837487 0.034484282 0.33400002 4280237868
0.102559 0.034277789 0.33200002 4284576354
0.10363734 0.034277789 0.33200002 4285036905
0.057436198 0.036847427 0.34600002 4284577124
0.058560003 0.036847427 0.34600002 4282144064
0.059683811 0.036847427 0.34600002 4281029430
0.060807623 0.036847427 0.34600002 4280767542
0.061931431 0.036847427 0.34600002 4280702260
0.06305524 0.036847427 0.34600002 4280833846
0.063993558 0.036740933 0.34500003 4280571444
0.065114126 0.036740933 0.34500003 4280505651
0.066234678 0.036740933 0.34500003 4280571698
0.067160003 0.036634434 0.34400001 4280374319
0.068277322 0.036634434 0.34400001 4280045867
0.069394633 0.036634434 0.34400001 4280111660
0.070511945 0.036634434 0.34400001 4279783465
0.071629256 0.036634434 0.34400001 4279717672
0.072746575 0.036634434 0.34400001 4279849258
0.073863879 0.036634434 0.34400001 4279520293
0.074763231 0.036527943 0.34300002 4280046637
0.075877294 0.036527943 0.34300002 4279454500
0.076991357 0.036527943 0.34300002 4279125535
0.07810542 0.036527943 0.34300002 4278928670
0.07921949 0.036527943 0.34300002 4278797082
0.080333553 0.036527943 0.34300002 4278862875
0.081685066 0.036634434 0.34400001 4278928154
0.082802385 0.036634434 0.34400001 4278993947
0.084163651 0.036740933 0.34500003 4278928154
0.085284211 0.036740933 0.34500003 4278993947
0.086404771 0.036740933 0.34500003 4278664982
0.087779023 0.036847427 0.34600002 4278664982
0.088902831 0.036847427 0.34600002 4278796568
0.089766458 0.036740933 0.34500003 4278533396
0.090623572 0.036634434 0.34400001 4278664212
0.091740884 0.036634434 0.34400001 4278730005
0.092588268 0.036527943 0.34300002 4278795798
0.093429133 0.036421444 0.34200001 4278795285
0.093987085 0.036208451 0.34 4278991896
0.09481173 0.03610196 0.33900002 4278794004
0.095629878 0.035995465 0.33800003 4278859795
0.095869169 0.035675976 0.33500001 4278794002
0.096957251 0.035675976 0.33500001 4278925590
0.097752653 0.035569482 0.33400002 4278925336
0.098837487 0.035569482 0.33400002 4279121947
0.099922322 0.035569482 0.33400002 4279121947
0.10070474 0.035462983 0.333 4279515678
0.10178632 0.035462983 0.333 4279712287
0.10286791 0.035462983 0.333 4279646494
0.10363734 0.035356492 0.33200002 4279514395
0.10471567 0.035356492 0.33200002 4279644697
0.10579401 0.035356492 0.33200002 4280827686
0.10655044 0.035249997 0.33100003 4282273597
0.10762553 0.035249997 0.33100003 4284576606
0.10870063 0.035249997 0.33100003 4285497454
0.10977571 0.035249997 0.33100003 4285036903
0.1108508 0.035249997 0.33100003 4284904803
0.11192589 0.035249997 0.33100003 4284970596
0.059856307 0.038081359 0.347 4281685564
0.060983364 0.038081359 0.347 4280964151
0.06211042 0.038081359 0.347 4280833846
0.063237473 0.038081359 0.347 4280768053
0.064179048 0.037971616 0.34600002 4280703030
0.065302856 0.037971616 0.34600002 4280505651
0.066234678 0.037861872 0.34500003 4280440112
0.067355245 0.037861872 0.34500003 4280374319
0.068277322 0.037752125 0.34400001 4280176940
0.069394633 0.037752125 0.34400001 4279979561
0.070511945 0.037752125 0.34400001 4280045354
0.071629256 0.037752125 0.34400001 4279913768
0.072746575 0.037752125 0.34400001 4279979561
0.073863879 0.037752125 0.34400001 4279913768
0.074981198 0.037752125 0.34400001 4279782182
0.076098509 0.037752125 0.34400001 4279782182
0.077215821 0.037752125 0.34400001 4279913768
0.07810542 0.037642382 0.34300002 4279913768
0.07921949 0.037642382 0.34300002 4279717672
0.080333553 0.037642382 0.34300002 4279586086
0.081685066 0.037752125 0.34400001 4279520291
0.082802385 0.037752125 0.34400001 4279387935
0.083919697 0.037752125 0.34400001 4279454498
0.085284211 0.037861872 0.34500003 4278993947
0.086404771 0.037861872 0.34500003 4278664982
0.08752533 0.037861872 0.34500003 4278796568
0.08864589 0.037861872 0.34500003 4278862361
0.089506261 0.037752125 0.34400001 4278928154
0.090623572 0.037752125 0.34400001 4278862361
0.091474198 0.037642382 0.34300002 4278928154
0.092318326 0.037532635 0.34200001 4278993177
0.09315595 0.037422892 0.34100002 4279058970
0.093710653 0.037203405 0.33900002 4278993177
0.094532058 0.037093662 0.33800003 4278861078
0.09534695 0.036983915 0.33700001 4278729492
0.095869169 0.036764424 0.33500001 4278597906
0.096667834 0.036654681 0.33400002 4278663701
0.097752653 0.036654681 0.33400002 4278795287
0.098837487 0.036654681 0.33400002 4278597908
0.099922322 0.036654681 0.33400002 4278728724
0.10100716 0.036654681 0.33400002 4278728211
0.10178632 0.036544934 0.333 4278924820
0.10286791 0.036544934 0.333 4279056152
0.10363734 0.036435191 0.33200002 4279319324
0.10471567 0.036435191 0.33200002 4279318810
0.10579401 0.036435191 0.33200002 4279384090
0.10687234 0.036435191 0.33200002 4279711772
0.10762553 0.036325447 0.33100003 4279711002
0.10870063 0.036325447 0.33100003 4280171553
0.10977571 0.036325447 0.33100003 4279644695
0.1108508 0.036325447 0.33100003 4279972377
0.11226402 0.036435191 0.33200002 4280367135
0.11334236 0.036435191 0.33200002 4282405183
0.11476534 0.036544934 0.333 4284247387
0.060983364 0.039208796 0.347 4281618487
0.062289417 0.039321791 0.34800002 4281029942
0.063237473 0.039208796 0.347 4281096505
0.06436453 0.039208796 0.347 4280637237
0.065491594 0.039208796 0.347 4280505651
0.066426665 0.039095804 0.34600002 4280374319
0.067550473 0.039095804 0.34600002 4280242733
0.068475805 0.038982812 0.34500003 4279979561
0.069596365 0.038982812 0.34500003 4280176940
0.070511945 0.038869817 0.34400001 4279913768
0.071629256 0.038869817 0.34400001 4279913768
0.072746575 0.038869817 0.34400001 4279650342
0.073863879 0.038869817 0.34400001 4279781928
0.074981198 0.038869817 0.34400001 4279979561
0.076098509 0.038869817 0.34400001 4279716389
0.077215821 0.038869817 0.34400001 4279780129
0.078333132 0.038869817 0.34400001 4279253017
0.079450443 0.038869817 0.34400001 4278727957
0.080567755 0.038869817 0.34400001 4280175918
0.081685066 0.038869817 0.34400001 4280044330
0.082802385 0.038869817 0.34400001 4279781928
0.083919697 0.038869817 0.34400001 4279913768
0.085284211 0.038982812 0.34500003 4279979559
0.086404771 0.038982812 0.34500003 4279913766
0.08752533 0.038982812 0.34500003 4279716387
0.08864589 0.038982812 0.34500003 4279519521
0.089506261 0.038869817 0.34400001 4279651107
0.090360135 0.038756825 0.34300002 4279387935
0.091474198 0.038756825 0.34300002 4279190558
0.092318326 0.03864383 0.34200001 4279256351
0.09315595 0.038530838 0.34100002 4279058972
0.093434229 0.038191859 0.33800003 4278993179
0.09425237 0.038078863 0.33700001 4279387935
0.095064022 0.037965868 0.33600003 4279256347
0.095582999 0.03773988 0.33400002 4279058970
0.096667834 0.03773988 0.33400002 4279124763
0.097752653 0.03773988 0.33400002 4278795798
0.098837487 0.03773988 0.33400002 4278795798
0.10022149 0.037852872 0.33500001 4278730005
0.10130957 0.037852872 0.33500001 4278795285
0.10209199 0.03773988 0.33400002 4278795285
0.10317682 0.03773988 0.33400002 4278531345
0.10394949 0.037626885 0.333 4278728724
0.10471567 0.037513893 0.33200002 4278794004
0.10579401 0.037513893 0.33200002 4278925336
0.10687234 0.037513893 0.33200002 4278924566
0.10795068 0.037513893 0.33200002 4279056152
0.10870063 0.037400901 0.33100003 4278858773
0.10977571 0.037400901 0.33100003 4279516189
0.11118568 0.037513893 0.33200002 4279516443
0.11226402 0.037513893 0.33200002 4278858513
0.11334236 0.037513893 0.33200002 4279449367
0.11510998 0.03773988 0.33400002 4279711772
0.062289417 0.04045248 0.34800002 4283592791
0.063419722 0.04045248 0.34800002 4281291319
0.064550027 0.04045248 0.34800002 4281029944
0.065491594 0.040336236 0.347 4280766518
0.066618644 0.040336236 0.347 4280635956
0.067550473 0.040219992 0.34600002 4280635954
0.068475805 0.040103752 0.34500003 4280504881
0.069596365 0.040103752 0.34500003 4280307502
0.070716925 0.040103752 0.34500003 4279781928
0.071837485 0.040103752 0.34500003 4279781928
0.072958045 0.040103752 0.34500003 4279781928
0.074078605 0.040103752 0.34500003 4279781928
0.075199164 0.040103752 0.34500003 4279650342
0.076319732 0.040103752 0.34500003 4279912744
0.077440284 0.040103752 0.34500003 4279053844
0.078560852 0.040103752 0.34500003 4280435756
0.079450443 0.039987508 0.34400001 4280306221
0.080567755 0.039987508 0.34400001 4280043049
0.081685066 0.039987508 0.34400001 4278660115
0.083043091 0.040103752 0.34500003 4278593554
0.084163651 0.040103752 0.34500003 4279250969
0.085284211 0.040103752 0.34500003 4280172325
0.086404771 0.040103752 0.34500003 4280765743
0.08752533 0.040103752 0.34500003 4280897842
0.08864589 0.040103752 0.34500003 4280306989
0.090026647 0.040219992 0.34600002 4279978024
0.091150455 0.040219992 0.34600002 4280044330
0.091474198 0.039871268 0.34300002 4279913514
0.092318326 0.03975502 0.34200001 4279979561
0.09315595 0.03963878 0.34100002 4279650596
0.093434229 0.039290052 0.33800003 4279519010
0.09425237 0.039173808 0.33700001 4279649824
0.094781086 0.038941324 0.33500001 4279519008
0.095582999 0.03882508 0.33400002 4279255836
0.096667834 0.03882508 0.33400002 4279255836
0.097752653 0.03882508 0.33400002 4278663699
0.098837487 0.03882508 0.33400002 4279124250
0.10052066 0.039057568 0.33600003 4279519521
0.10161199 0.039057568 0.33600003 4279256349
0.10239765 0.038941324 0.33500001 4279124763
0.10348573 0.038941324 0.33500001 4278795798
0.10394949 0.038708836 0.333 4279058457
0.10503107 0.038708836 0.333 4278991894
0.10579401 0.038592596 0.33200002 4279189275
0.10687234 0.038592596 0.33200002 4278926103
0.10795068 0.038592596 0.33200002 4278794517
0.10902902 0.038592596 0.33200002 4278926103
0.11010735 0.038592596 0.33200002 4278794517
0.11118568 0.038592596 0.33200002 4278728724
0.11226402 0.038592596 0.33200002 4278794004
0.11368375 0.038708836 0.333 4278925590
0.11545462 0.038941324 0.33500001 4278990613
0.11758637 0.039290052 0.33800003 4279647516
0.11903533 0.039406296 0.33900002 4279384344
0.12049079 0.039522536 0.34 4279384344
0.12195273 0.03963878 0.34100002 4279449367
0.12342118 0.03975502 0.34200001 4279842842
0.12489614 0.039871268 0.34300002 4280171293
0.12601019 0.039871268 0.34300002 4279907102
0.12712426 0.039871268 0.34300002 4279643932
0.12823834 0.039871268 0.34300002 4280103452
0.12935241 0.039871268 0.34300002 4282141751
0.065680332 0.041583166 0.34800002 4283197781
0.066618644 0.041463673 0.347 4281619517
0.067550473 0.041344184 0.34600002 4281357628
0.068674281 0.041344184 0.34600002 4280898358
0.069596365 0.041224692 0.34500003 4279516705
0.070716925 0.041224692 0.34500003 4279780647
0.071837485 0.041224692 0.34500003 4279715367
0.072958045 0.041224692 0.34500003 4279518758
0.074078605 0.041224692 0.34500003 4279518758
0.075199164 0.041224692 0.34500003 4279516705
0.076319732 0.041224692 0.34500003 4278987029
0.077440284 0.041224692 0.34500003 4279777313
0.078560852 0.041224692 0.34500003 4280305194
0.079681411 0.041224692 0.34500003 4280305967
0.080801971 0.041224692 0.34500003 4278987799
0.081922531 0.041224692 0.34500003 4279248406
0.083043091 0.041224692 0.34500003 4280893231
0.084163651 0.041224692 0.34500003 4279248406
0.085284211 0.041224692 0.34500003 4279577371
0.086655214 0.041344184 0.34600002 4279576858
0.087779023 0.041344184 0.34600002 4279116305
0.088902831 0.041344184 0.34600002 4279379990
0.089766458 0.041224692 0.34500003 4278985232
0.090887018 0.041224692 0.34500003 4279512857
0.091740884 0.0411052 0.34400001 4279908383
0.092588268 0.040985707 0.34300002 4279844895
0.093702324 0.040985707 0.34300002 4280765997
0.095092818 0.0411052 0.34400001 4280371752
0.09621013 0.0411052 0.34400001 4280109094
0.09704452 0.040985707 0.34300002 4280175657
0.09815859 0.040985707 0.34300002 4280241450
0.099272653 0.040985707 0.34300002 4280044584
0.10009404 0.040866215 0.34200001 4280110377
0.10090894 0.040746726 0.34100002 4280176940
0.10141817 0.040507741 0.33900002 4279519010
0.10221682 0.040388249 0.33800003 4279913768
0.10270333 0.040149264 0.33600003 4279453215
0.10379466 0.040149264 0.33600003 4279321627
0.10426166 0.039910283 0.33400002 4279320857
0.10503107 0.039790787 0.333 4279452445
0.10579401 0.039671298 0.33200002 4279452447
0.10687234 0.039671298 0.33200002 4279386654
0.10795068 0.039671298 0.33200002 4279452447
0.10902902 0.039671298 0.33200002 4279190045
0.11010735 0.039671298 0.33200002 4278992666
0.11118568 0.039671298 0.33200002 4278991896
0.11260217 0.039790787 0.333 4278991896
0.11402515 0.039910283 0.33400002 4278662931
0.1161439 0.040268756 0.33700001 4279320861
0.11793426 0.040507741 0.33900002 4278794004
0.11938646 0.04062723 0.34 4278596625
0.12084518 0.040746726 0.34100002 4278925590
0.12231036 0.040866215 0.34200001 4278990613
0.12342118 0.040866215 0.34200001 4279252758
0.12489614 0.040985707 0.34300002 4279318551
0.12601019 0.040985707 0.34300002 4279582236
0.12712426 0.040985707 0.34300002 4279253017
0.12823834 0.040985707 0.34300002 4279646492
0.12935241 0.040985707 0.34300002 4279843358
0.13046646 0.040985707 0.34300002 4280172577
0.13158052 0.040985707 0.34300002 4279974428
0.13269459 0.040985707 0.34300002 4280367905
0.13380866 0.040985707 0.34300002 4280235549
0.13492273 0.040985707 0.34300002 4281155370
0.13603678 0.040985707 0.34300002 4283654736
0.071837485 0.042345632 0.34500003 4283329367
0.072958045 0.042345632 0.34500003 4281487163
0.074078605 0.042345632 0.34500003 4280369452
0.075199164 0.042345632 0.34500003 4280631854
0.076319732 0.042345632 0.34500003 4280433961
0.077440284 0.042345632 0.34500003 4280040485
0.078560852 0.042345632 0.34500003 4279647264
0.079681411 0.042345632 0.34500003 4279778850
0.081036173 0.042468373 0.34600002 4279250969
0.082159981 0.042468373 0.34600002 4279578139
0.083283797 0.042468373 0.34600002 4279314197
0.084407598 0.042468373 0.34600002 4279182098
0.085531406 0.042468373 0.34600002 4279642651
0.086655214 0.042468373 0.34600002 4280365602
0.087779023 0.042468373 0.34600002 4279641879
0.088902831 0.042468373 0.34600002 4279642649
0.090026647 0.042468373 0.34600002 4280761130
0.091150455 0.042468373 0.34600002 4280234786
0.092007577 0.042345632 0.34500003 4280037407
0.092858203 0.042222891 0.34400001 4279576854
0.093975507 0.042222891 0.34400001 4279774233
0.095369257 0.042345632 0.34500003 4279313682
0.09621013 0.042222891 0.34400001 4279248402
0.097327448 0.042222891 0.34400001 4279647777
0.09844476 0.042222891 0.34400001 4280108842
0.099562079 0.042222891 0.34400001 4279516705
0.10038671 0.04210015 0.34300002 4280108842
0.10150078 0.04210015 0.34300002 4280372782
0.1020165 0.041854668 0.34100002 4280307243
0.10312407 0.041854668 0.34100002 4280175657
0.10300899 0.041363701 0.33700001 4280307243
0.10410357 0.041363701 0.33700001 4280175655
0.10613462 0.041731924 0.34 4280241448
0.10723893 0.041731924 0.34 4279978278
0.10866191 0.041854668 0.34100002 4279912485
0.10976949 0.041854668 0.34100002 4280241450
0.11282796 0.04259111 0.347 4279715619
0.11395502 0.04259111 0.347 4279583779
0.11508209 0.04259111 0.347 4279583779
0.11486955 0.04210015 0.34300002 4279452447
0.11598361 0.04210015 0.34300002 4279649826
0.11675628 0.041977406 0.34200001 4279452447
0.11717782 0.041731924 0.34 4279452447
0.11863004 0.041854668 0.34100002 4279255066
0.1197376 0.041854668 0.34100002 4279123480
0.12119956 0.041977406 0.34200001 4278925588
0.12266801 0.04210015 0.34300002 4279188760
0.12378207 0.04210015 0.34300002 4279122197
0.12489614 0.04210015 0.34300002 4279056404
0.12601019 0.04210015 0.34300002 4279056404
0.12712426 0.04210015 0.34300002 4278990611
0.12823834 0.04210015 0.34300002 4279056406
0.12935241 0.04210015 0.34300002 4279056406
0.13046646 0.04210015 0.34300002 4279056406
0.13158052 0.04210015 0.34300002 4279187992
0.13308145 0.042222891 0.34400001 4279252758
0.13419876 0.042222891 0.34400001 4279712539
0.13531607 0.042222891 0.34400001 4279712026
0.13643339 0.042222891 0.34400001 4279842588
0.1375507 0.042222891 0.34400001 4280037911
0.13866802 0.042222891 0.34400001 4280694819
0.075417131 0.043592565 0.34600002 4284380258
0.076540947 0.043592565 0.34600002 4284709223
0.077664748 0.043592565 0.34600002 4284973165
0.078788556 0.043592565 0.34600002 4284381539
0.079912372 0.043592565 0.34600002 4283065420
0.081036173 0.043592565 0.34600002 4280828458
0.082159981 0.043592565 0.34600002 4279842336
0.083283797 0.043592565 0.34600002 4279710750
0.084407598 0.043592565 0.34600002 4280434727
0.085531406 0.043592565 0.34600002 4280500006
0.086905658 0.04371855 0.347 4280498723
0.088032715 0.04371855 0.347 4279774746
0.089159779 0.04371855 0.347 4278984717
0.090026647 0.043592565 0.34600002 4279379475
0.091150455 0.043592565 0.34600002 4279510295
0.092274264 0.043592565 0.34600002 4279576856
0.093128145 0.043466575 0.34500003 4279971614
0.094248697 0.043466575 0.34500003 4280432165
0.095369257 0.043466575 0.34500003 4279445272
0.096489817 0.043466575 0.34500003 4280301092
0.097610384 0.043466575 0.34500003 4280371246
0.098730944 0.043466575 0.34500003 4280240428
0.099851504 0.043466575 0.34500003 4280502571
0.10067938 0.043340582 0.34400001 4281028145
0.10179669 0.043340582 0.34400001 4280764973
0.10261484 0.043214593 0.34300002 4280304422
0.10372891 0.043214593 0.34300002 4279778078
0.10575996 0.043592565 0.34600002 4279251221
0.10688378 0.043592565 0.34600002 4280107043
0.10831974 0.04371855 0.347 4280568364
0.10944679 0.04371855 0.347 4280437291
0.11057385 0.04371855 0.347 4280568877
0.11170091 0.04371855 0.347 4280503598
0.11250281 0.043592565 0.34600002 4280372012
0.11362663 0.043592565 0.34600002 4280110123
0.11475044 0.043592565 0.34600002 4280110377
0.11520445 0.043340582 0.34400001 4279978278
0.11632176 0.043340582 0.34400001 4279978278
0.11709768 0.043214593 0.34300002 4279715106
0.1178671 0.043088604 0.34200001 4279649313
0.11897792 0.043088604 0.34200001 4279386652
0.12008874 0.043088604 0.34200001 4279584031
0.12155395 0.043214593 0.34300002 4279386652
0.12266801 0.043214593 0.34300002 4279452445
0.12378207 0.043214593 0.34300002 4279386652
0.12526026 0.043340582 0.34400001 4279320859
0.12637757 0.043340582 0.34400001 4279649313
0.12749489 0.043340582 0.34400001 4279057176
0.12861221 0.043340582 0.34400001 4278860056
0.12972951 0.043340582 0.34400001 4278794263
0.13084681 0.043340582 0.34400001 4278794263
0.13196413 0.043340582 0.34400001 4278925590
0.13308145 0.043340582 0.34400001 4279319062
0.13419876 0.043340582 0.34400001 4278990097
0.13531607 0.043340582 0.34400001 4279121683
0.13643339 0.043340582 0.34400001 4279253271
0.1375507 0.043340582 0.34400001 4279450650
0.13866802 0.043340582 0.34400001 4279713309
0.078788556 0.044716749 0.34600002 4284642917
0.079912372 0.044716749 0.34600002 4284313952
0.081036173 0.044716749 0.34600002 4284313952
0.082159981 0.044716749 0.34600002 4284116571
0.083283797 0.044716749 0.34600002 4284050778
0.084651552 0.044845987 0.347 4283722326
0.085778609 0.044845987 0.347 4283327568
0.086905658 0.044845987 0.347 4282406720
0.088032715 0.044845987 0.347 4280170528
0.089159779 0.044845987 0.347 4280104994
0.090286836 0.044845987 0.347 4279908129
0.091413893 0.044845987 0.347 4279710752
0.092274264 0.044716749 0.34600002 4280105510
0.093398072 0.044716749 0.34600002 4280236582
0.094521873 0.044716749 0.34600002 4280104996
0.095645688 0.044716749 0.34600002 4280565547
0.096769497 0.044716749 0.34600002 4279777315
0.097893305 0.044716749 0.34600002 4279910695
0.098730944 0.044587512 0.34500003 4279318558
0.099851504 0.044587512 0.34500003 4279708953
0.10097206 0.044587512 0.34500003 4279840026
0.10209262 0.044587512 0.34500003 4279576854
0.10291401 0.04445827 0.34400001 4279973408
0.10433374 0.044587512 0.34500003 4279974176
0.10575996 0.044716749 0.34600002 4280566313
0.10719269 0.044845987 0.347 4280632106
0.10831974 0.044845987 0.347 4280961841
0.10944679 0.044845987 0.347 4281553978
0.11057385 0.044845987 0.347 4280961841
0.11170091 0.044845987 0.347 4280369704
0.11282796 0.044845987 0.347 4280304424
0.11362663 0.044716749 0.34600002 4279318812
0.11475044 0.044716749 0.34600002 4279910947
0.11553934 0.044587512 0.34500003 4280700463
0.11665991 0.044587512 0.34500003 4280898356
0.11743907 0.04445827 0.34400001 4280306473
0.11821175 0.044329032 0.34300002 4280503852
0.11932582 0.044329032 0.34300002 4280372266
0.12043988 0.044329032 0.34300002 4280372266
0.12155395 0.044329032 0.34300002 4280175657
0.12302563 0.04445827 0.34400001 4279846692
0.12414294 0.04445827 0.34400001 4279517727
0.12526026 0.04445827 0.34400001 4278991383
0.12637757 0.04445827 0.34400001 4279320348
0.12749489 0.04445827 0.34400001 4279451934
0.12861221 0.04445827 0.34400001 4279649313
0.12972951 0.04445827 0.34400001 4279649826
0.13084681 0.04445827 0.34400001 4279452447
0.13196413 0.04445827 0.34400001 4279649826
0.13308145 0.04445827 0.34400001 4279254555
0.13419876 0.04445827 0.34400001 4278925590
0.13531607 0.04445827 0.34400001 4278991383
0.13643339 0.04445827 0.34400001 4279188762
0.13795055 0.044587512 0.34500003 4278924818
0.13907112 0.044587512 0.34500003 4279122197
0.14019169 0.044587512 0.34500003 4279515930
0.088286422 0.046105918 0.34800002 4281023280
0.089416727 0.046105918 0.34800002 4280235819
0.090547033 0.046105918 0.34800002 4279775781
0.091413893 0.045973428 0.347 4279578402
0.09254095 0.045973428 0.347 4279249437
0.093398072 0.045840941 0.34600002 4279381535
0.094521873 0.045840941 0.34600002 4279711524
0.095645688 0.045840941 0.34600002 4279843110
0.096769497 0.045840941 0.34600002 4279843621
0.097893305 0.045840941 0.34600002 4279647012
0.099017113 0.045840941 0.34600002 4279844391
0.10014093 0.045840941 0.34600002 4279909412
0.10126472 0.045840941 0.34600002 4280039715
0.10209262 0.045708455 0.34500003 4280105508
0.10321318 0.045708455 0.34500003 4280368680
0.10433374 0.045708455 0.34500003 4281026610
0.10575996 0.045840941 0.34600002 4280763438
0.10719269 0.045973428 0.347 4280764462
0.10831974 0.045973428 0.347 4280896048
0.10944679 0.045973428 0.347 4280172325
0.11057385 0.045973428 0.347 4280829485
0.11170091 0.045973428 0.347 4281026864
0.11282796 0.045973428 0.347 4279710490
0.11362663 0.045840941 0.34600002 4280896046
0.11475044 0.045840941 0.34600002 4280699180
0.11587424 0.045840941 0.34600002 4280961841
0.11699805 0.045840941 0.34600002 4280764208
0.11778047 0.045708455 0.34500003 4280633389
0.11855639 0.045575965 0.34400001 4280436780
0.1196737 0.045575965 0.34400001 4280042020
0.12079101 0.045575965 0.34400001 4279647262
0.12190833 0.045575965 0.34400001 4280502571
0.12302563 0.045575965 0.34400001 4280568364
0.12414294 0.045575965 0.34400001 4281226548
0.12526026 0.045575965 0.34400001 4280503338
0.12637757 0.045575965 0.34400001 4280832303
0.12749489 0.045575965 0.34400001 4280240680
0.12861221 0.045575965 0.34400001 4279978278
0.12972951 0.045575965 0.34400001 4280438829
0.13084681 0.045575965 0.34400001 4279649313
0.13196413 0.045575965 0.34400001 4279649313
0.13308145 0.045575965 0.34400001 4279451934
0.13419876 0.045575965 0.34400001 4279517727
0.13570945 0.045708455 0.34500003 4279649572
0.13683 0.045708455 0.34500003 4279386400
0.13795055 0.045708455 0.34500003 4279188760
0.13907112 0.045708455 0.34500003 4278991381
0.14019169 0.045708455 0.34500003 4279188762
0.11587424 0.04696513 0.34600002 4280105762
0.11699805 0.04696513 0.34600002 4280632106
0.11812185 0.04696513 0.34600002 4280698669
0.11924567 0.04696513 0.34600002 4280369704
0.12036948 0.04696513 0.34600002 4280698669
0.12149329 0.04696513 0.34600002 4280829485
0.1226171 0.04696513 0.34600002 4281290034
0.1237409 0.04696513 0.34600002 4281290034
0.1248647 0.04696513 0.34600002 4281290034
0.12562439 0.046829391 0.34500003 4281159472
0.12637757 0.046693653 0.34400001 4280698921
0.12786552 0.046829391 0.34500003 4279909405
0.12898608 0.046829391 0.34500003 4280370469
0.13010664 0.046829391 0.34500003 4280502825
0.1312272 0.046829391 0.34500003 4280700717
0.13234776 0.046829391 0.34500003 4280569131
0.13346832 0.046829391 0.34500003 4280634411
0.13458888 0.046829391 0.34500003 4280634924
0.13570945 0.046829391 0.34500003 4280240680
0.13683 0.046829391 0.34500003 4280043301
0.13795055 0.046829391 0.34500003 4279780129
0.13907112 0.046829391 0.34500003 4279582750
0.14019169 0.046829391 0.34500003 4279450650
0.1248647 0.048089322 0.34600002 4280631844
0.12562439 0.047950335 0.34500003 4281356081
0.12674496 0.047950335 0.34500003 4281225265
0.12786552 0.047950335 0.34500003 4280896300
0.12898608 0.047950335 0.34500003 4280302625
0.13010664 0.047950335 0.34500003 4280895278
0.1312272 0.047950335 0.34500003 4280898096
0.13234776 0.047950335 0.34500003 4281029169
0.13346832 0.047950335 0.34500003 4281291571
0.13458888 0.047950335 0.34500003 4281094192
0.13570945 0.047950335 0.34500003 4281159985
0.13683 0.047950335 0.34500003 4281094962
0.13795055 0.047950335 0.34500003 4280765997
0.13907112 0.047950335 0.34500003 4281357364
0.1312272 0.049071278 0.34500003 4281159731
0.13234776 0.049071278 0.34500003 4281159731
0.13346832 0.049071278 0.34500003 4281422644
0.13458888 0.049071278 0.34500003 4281422644
0.13570945 0.049071278 0.34500003 4281620023
0.13683 0.049071278 0.34500003 4281948218
0.13795055 0.049071278 0.34500003 4282473535
0.12786552 0.050192215 0.34500003 4282735685
0.12898608 0.050192215 0.34500003 4282801476
0.12972951 0.050046727 0.34400001 4281419823
0.13084681 0.050046727 0.34400001 4281552433
0.13196413 0.050046727 0.34400001 4281947191
0.13308145 0.050046727 0.34400001 4282012982
0.13458888 0.050192215 0.34500003 4281618224
0.12898608 0.051313158 0.34500003 4285299302
0.12972951 0.051164422 0.34400001 4285365095
0.13084681 0.051164422 0.34400001 4285430886
0.13196413 0.051164422 0.34400001 4285430116
0.13308145 0.051164422 0.34400001 4285365093
0.095005147 0.039391436 0.34293041 4294967295
0.095005147 0.039391436 0.34293041 4294901760
0.095080271 0.038915507 0.3427968 4294901760
0.095155403 0.038439579 0.3426632 4294901760
0.095230527 0.037963655 0.34252959 4294901760
0.095305659 0.037487727 0.34239602 4294901760
0.095380783 0.037011798 0.34226242 4294901760
0.095455915 0.03653587 0.34212881 4294901760
0.095531039 0.036059942 0.34199521 4294901760
0.095606171 0.035584018 0.34186161 4294901760
0.095681295 0.035108089 0.341728 4294901760
0.095756426 0.034632161 0.3415944 4294901760
0.095831551 0.034156233 0.34146079 4294901760
0.095906682 0.033680305 0.34132722 4294901760
0.095981807 0.03320438 0.34119362 4294901760
0.096056938 0.032728452 0.34106001 4294901760
0.096132062 0.032252524 0.34092641 4294901760
0.096207194 0.031776596 0.3407928 4294901760
0.096282318 0.031300671 0.3406592 4294901760
0.096357442 0.030824743 0.3405256 4294901760
0.096432574 0.030348815 0.34039199 4294901760
0.096507698 0.029872887 0.34025842 4294901760
0.09658283 0.029396961 0.34012482 4294901760
0.096657954 0.028921034 0.33999121 4294901760
0.096733086 0.028445106 0.33985761 4294901760
0.09680821 0.027969178 0.339724 4294901760
0.096883342 0.02749325 0.3395904 4294901760
0.096958466 0.027017323 0.3394568 4294901760
0.097033598 0.026541395 0.33932322 4294901760
0.097108722 0.026065469 0.33918962 4294901760
0.097183853 0.025589541 0.33905602 4294901760
0.097258978 0.025113612 0.33892241 4294901760
0.097334109 0.024637686 0.33878881 4294901760
0.097409233 0.02416176 0.3386552 4294901760
0.097484365 0.023685832 0.3385216 4294901760
0.097559489 0.023209903 0.338388 4294901760
0.097634614 0.022733977 0.33825442 4294901760
0.097709745 0.022258049 0.33812082 4294901760
0.097784869 0.021782121 0.33798721 4294901760
0.097860001 0.021306194 0.33785361 4294901760
0.097935125 0.020830268 0.33772001 4294901760
0.098010257 0.02035434 0.3375864 4294901760
0.098085381 0.019878412 0.3374528 4294901760
0.098160513 0.019402485 0.3373192 4294901760
0.098235637 0.018926557 0.33718562 4294901760
0.098310769 0.018450631 0.33705202 4294901760
0.098385893 0.017974703 0.33691841 4294901760
0.098461024 0.017498774 0.33678481 4294901760
0.098536149 0.017022848 0.33665121 4294901760
0.09861128 0.01654692 0.3365176 4294901760
0.098686405 0.016070992 0.336384 4294901760
0.098761529 0.015595065 0.33625042 4294901760
0.09883666 0.015119139 0.33611682 4294901760
0.098911785 0.014643211 0.33598322 4294901760
0.098986916 0.014167285 0.33584961 4294901760
0.09906204 0.013691355 0.33571601 4294901760
0.099137172 0.013215428 0.33558241 4294901760
0.099212296 0.0127395 0.3354488 4294901760
0.099287428 0.012263574 0.3353152 4294901760
0.099362552 0.011787647 0.33518162 4294901760
0.099437684 0.011311719 0.33504802 4294901760
0.099512808 0.010835791 0.33491442 4294901760
0.09958794 0.010359863 0.33478081 4294901760
0.099663064 0.0098839365 0.33464721 4294901760
0.099738196 0.0094080102 0.3345136 4294901760
0.09981332 0.008932082 0.33438 4294901760
0.099888444 0.0084561557 0.3342464 4294901760
0.099963576 0.0079802275 0.33411282 4294901760
0.10003871 0.0075042993 0.33397922 4294901760
0.10011383 0.0070283711 0.33384562 4294901760
0.10018896 0.0065524466 0.33371201 4294901760
0.10026409 0.0060765184 0.33357841 4294901760
0.10033921 0.0056005903 0.3334448 4294901760
0.10041434 0.0051246621 0.3333112 4294901760
0.10048947 0.0046487339 0.3331776 4294901760
0.1005646 0.0041728057 0.33304402 4294901760
0.10063972 0.0036968812 0.33291042 4294901760
0.10071485 0.003220953 0.33277681 4294901760
0.10078998 0.0027450249 0.33264321 4294901760
0.10086511 0.0022691004 0.33250961 4294901760
0.10094023 0.0017931685 0.332376 4294901760
0.10101537 0.001317244 0.3322424 4294901760
0.10109049 0.00084131584 0.33210883 4294901760
0.10116562 0.00036538765 0.33197522 4294901760
0.10124075 -0.00011053681 0.33184162 4294901760
0.10131587 -0.000586465 0.33170801 4294901760
0.101391 -0.0010623932 0.33157441 4294901760
0.10146613 -0.0015383214 0.33144081 4294901760
0.10154126 -0.0020142496 0.3313072 4294901760
0.10161638 -0.002490174 0.3311736 4294901760
0.10169151 -0.0029661022 0.33104002 4294901760
0.10176664 -0.0034420304 0.33090642 4294901760
0.10184177 -0.0039179586 0.33077282 4294901760
0.10191689 -0.0043938868 0.33063921 4294901760
0.10199203 -0.004869815 0.33050561 4294901760
0.10206715 -0.0053457394 0.33037201 4294901760
0.10214228 -0.0058216676 0.3302384 4294901760
0.10221741 -0.0062975958 0.33010483 4294901760
0.10229254 -0.006773524 0.32997122 4294901760
0.10236766 -0.0072494522 0.32983762 4294901760
0.10244279 -0.0077253766 0.32970402 4294901760
0.10251792 -0.0082013048 0.32957041 4294901760
0.095005147 0.039391436 0.34293041 4278255360
0.095498025 0.039473895 0.34291384 4278255360
0.095990896 0.039556351 0.34289724 4278255360
0.096483774 0.03963881 0.34288067 4278255360
0.096976645 0.039721265 0.3428641 4278255360
0.097469524 0.039803725 0.3428475 4278255360
0.097962394 0.03988618 0.34283093 4278255360
0.098455273 0.03996864 0.34281433 4278255360
0.098948151 0.040051095 0.34279776 4278255360
0.099441022 0.040133554 0.34278119 4278255360
0.0999339 0.04021601 0.34276459 4278255360
0.10042677 0.040298469 0.34274802 4278255360
0.10091965 0.040380925 0.34273145 4278255360
0.10141252 0.040463384 0.34271485 4278255360
0.1019054 0.04054584 0.34269828 4278255360
0.10239828 0.040628299 0.34268171 4278255360
0.10289115 0.040710755 0.34266511 4278255360
0.10338403 0.040793214 0.34264854 4278255360
0.1038769 0.04087567 0.34263197 4278255360
0.10436977 0.040958129 0.34261537 4278255360
0.10486265 0.041040584 0.3425988 4278255360
0.10535552 0.041123044 0.3425822 4278255360
0.1058484 0.041205499 0.34256563 4278255360
0.10634127 0.041287959 0.34254906 4278255360
0.10683415 0.041370414 0.34253246 4278255360
0.10732702 0.041452873 0.34251589 4278255360
0.1078199 0.041535329 0.34249932 4278255360
0.10831277 0.041617788 0.34248272 4278255360
0.10880565 0.041700244 0.34246615 4278255360
0.10929853 0.041782703 0.34244958 4278255360
0.1097914 0.041865159 0.34243298 4278255360
0.11028428 0.041947618 0.34241641 4278255360
0.11077715 0.042030074 0.34239981 4278255360
0.11127003 0.042112533 0.34238324 4278255360
0.1117629 0.042194989 0.34236667 4278255360
0.11225577 0.042277448 0.34235007 4278255360
0.11274865 0.042359903 0.3423335 4278255360
0.11324152 0.042442363 0.34231693 4278255360
0.1137344 0.042524818 0.34230033 4278255360
0.11422727 0.042607278 0.34228376 4278255360
0.11472015 0.042689733 0.34226719 4278255360
0.11521302 0.042772193 0.34225059 4278255360
0.1157059 0.042854648 0.34223402 4278255360
0.11619878 0.042937107 0.34221745 4278255360
0.11669165 0.043019563 0.34220085 4278255360
0.11718452 0.043102022 0.34218428 4278255360
0.1176774 0.043184482 0.34216768 4278255360
0.11817028 0.043266937 0.34215111 4278255360
0.11866315 0.043349393 0.34213454 4278255360
0.11915603 0.043431852 0.34211794 4278255360
0.1196489 0.043514311 0.34210137 4278255360
0.12014177 0.043596767 0.3420848 4278255360
0.12063465 0.043679222 0.3420682 4278255360
0.12112752 0.043761682 0.34205163 4278255360
0.1216204 0.043844141 0.34203506 4278255360
0.12211327 0.043926597 0.34201846 4278255360
0.12260615 0.044009056 0.34200189 4278255360
0.12309903 0.044091512 0.34198529 4278255360
0.1235919 0.044173971 0.34196872 4278255360
0.12408477 0.044256426 0.34195215 4278255360
0.12457765 0.044338886 0.34193555 4278255360
0.12507053 0.044421341 0.34191898 4278255360
0.1255634 0.044503801 0.34190241 4278255360
0.12605628 0.044586256 0.34188581 4278255360
0.12654915 0.044668715 0.34186924 4278255360
0.12704203 0.044751171 0.34185266 4278255360
0.1275349 0.04483363 0.34183607 4278255360
0.12802778 0.044916086 0.34181949 4278255360
0.12852065 0.044998545 0.34180292 4278255360
0.12901352 0.045081001 0.34178632 4278255360
0.12950641 0.04516346 0.34176975 4278255360
0.12999928 0.045245916 0.34175315 4278255360
0.13049215 0.045328375 0.34173658 4278255360
0.13098502 0.045410831 0.34172001 4278255360
0.13147789 0.04549329 0.34170341 4278255360
0.13197078 0.045575745 0.34168684 4278255360
0.13246365 0.045658205 0.34167027 4278255360
0.13295653 0.04574066 0.34165367 4278255360
0.13344941 0.04582312 0.3416371 4278255360
0.13394228 0.045905575 0.34162053 4278255360
0.13443515 0.045988034 0.34160393 4278255360
0.13492802 0.04607049 0.34158736 4278255360
0.1354209 0.046152949 0.34157076 4278255360
0.13591377 0.046235405 0.34155419 4278255360
0.13640665 0.046317864 0.34153762 4278255360
0.13689953 0.04640032 0.34152102 4278255360
0.1373924 0.046482779 0.34150445 4278255360
0.13788527 0.046565235 0.34148788 4278255360
0.13837814 0.046647694 0.34147128 4278255360
0.13887103 0.04673015 0.34145471 4278255360
0.1393639 0.046812609 0.34143814 4278255360
0.13985679 0.046895064 0.34142154 4278255360
0.14034966 0.046977524 0.34140497 4278255360
0.14084253 0.047059983 0.3413884 4278255360
0.1413354 0.047142439 0.3413718 4278255360
0.14182827 0.047224894 0.34135523 4278255360
0.14232115 0.047307353 0.34133863 4278255360
0.14281403 0.047389813 0.34132206 4278255360
0.14330691 0.047472268 0.34130549 4278255360
0.14379978 0.047554724 0.34128889 4278255360
0.14429265 0.047637183 0.34127232 4278255360
0.095005147 0.039391436 0.34293041 4278190335
0.095022991 0.039259002 0.34341222 4278190335
0.095040835 0.039126564 0.34389403 4278190335
0.095058672 0.03899413 0.34437585 4278190335
0.095076516 0.038861696 0.34485766 4278190335
0.09509436 0.038729258 0.34533948 4278190335
0.095112205 0.038596824 0.34582129 4278190335
0.095130049 0.03846439 0.34630308 4278190335
0.095147893 0.038331956 0.34678489 4278190335
0.09516573 0.038199518 0.3472667 4278190335
0.095183574 0.038067084 0.34774852 4278190335
0.095201418 0.03793465 0.34823033 4278190335
0.095219262 0.037802212 0.34871215 4278190335
0.095237106 0.037669778 0.34919396 4278190335
0.095254943 0.037537344 0.34967577 4278190335
0.095272787 0.03740491 0.35015759 4278190335
0.095290631 0.037272472 0.3506394 4278190335
0.095308475 0.037140038 0.35112122 4278190335
0.095326319 0.037007604 0.35160303 4278190335
0.095344163 0.036875166 0.35208482 4278190335
0.095362 0.036742732 0.35256663 4278190335
0.095379844 0.036610298 0.35304844 4278190335
0.095397688 0.03647786 0.35353026 4278190335
0.095415533 0.036345426 0.35401207 4278190335
0.095433377 0.036212992 0.35449389 4278190335
0.095451221 0.036080554 0.3549757 4278190335
0.095469058 0.03594812 0.35545751 4278190335
0.095486902 0.035815686 0.35593933 4278190335
0.095504746 0.035683252 0.35642114 4278190335
0.09552259 0.035550814 0.35690296 4278190335
0.095540434 0.03541838 0.35738477 4278190335
0.095558271 0.035285946 0.35786659 4278190335
0.095576115 0.035153508 0.35834837 4278190335
0.095593959 0.035021074 0.35883018 4278190335
0.095611803 0.03488864 0.359312 4278190335
0.095629647 0.034756206 0.35979381 4278190335
0.095647492 0.034623768 0.36027563 4278190335
0.095665328 0.034491334 0.36075744 4278190335
0.095683172 0.0343589 0.36123925 4278190335
0.095701016 0.034226462 0.36172107 4278190335
0.095718861 0.034094028 0.36220288 4278190335
0.095736705 0.033961594 0.3626847 4278190335
0.095754541 0.03382916 0.36316651 4278190335
0.095772386 0.033696722 0.36364833 4278190335
0.09579023 0.033564288 0.36413014 4278190335
0.095808074 0.03343185 0.36461192 4278190335
0.095825918 0.033299416 0.36509374 4278190335
0.095843762 0.033166982 0.36557555 4278190335
0.095861599 0.033034548 0.36605737 4278190335
0.095879443 0.03290211 0.36653918 4278190335
0.095897287 0.032769676 0.36702099 4278190335
0.095915131 0.032637242 0.36750281 4278190335
0.095932975 0.032504804 0.36798462 4278190335
0.095950812 0.03237237 0.36846644 4278190335
0.095968656 0.032239936 0.36894825 4278190335
0.0959865 0.032107502 0.36943007 4278190335
0.096004345 0.031975064 0.36991185 4278190335
0.096022189 0.03184263 0.37039366 4278190335
0.096040033 0.031710196 0.37087548 4278190335
0.096057869 0.031577758 0.37135729 4278190335
0.096075714 0.031445324 0.37183911 4278190335
0.096093558 0.03131289 0.37232092 4278190335
0.096111402 0.031180454 0.37280273 4278190335
0.096129246 0.031048018 0.37328455 4278190335
0.096147083 0.030915584 0.37376636 4278190335
0.096164927 0.030783148 0.37424818 4278190335
0.096182771 0.030650713 0.37472999 4278190335
0.096200615 0.030518278 0.37521181 4278190335
0.096218459 0.030385843 0.37569362 4278190335
0.096236303 0.030253407 0.3761754 4278190335
0.09625414 0.030120973 0.37665722 4278190335
0.096271984 0.029988538 0.37713903 4278190335
0.096289828 0.029856101 0.37762085 4278190335
0.096307673 0.029723667 0.37810266 4278190335
0.096325517 0.029591233 0.37858447 4278190335
0.096343353 0.029458797 0.37906629 4278190335
0.096361198 0.029326361 0.3795481 4278190335
0.096379042 0.029193927 0.38002992 4278190335
0.096396886 0.029061493 0.38051173 4278190335
0.09641473 0.028929055 0.38099355 4278190335
0.096432574 0.028796621 0.38147536 4278190335
0.096450411 0.028664187 0.38195717 4278190335
0.096468255 0.028531751 0.38243896 4278190335
0.096486099 0.028399315 0.38292077 4278190335
0.096503943 0.028266881 0.38340259 4278190335
0.096521787 0.028134445 0.3838844 4278190335
0.096539631 0.028002009 0.38436621 4278190335
0.096557468 0.027869575 0.38484803 4278190335
0.096575312 0.027737139 0.38532984 4278190335
0.096593156 0.027604703 0.38581166 4278190335
0.096611001 0.027472269 0.38629347 4278190335
0.096628845 0.027339833 0.38677529 4278190335
0.096646681 0.027207397 0.3872571 4278190335
0.096664526 0.027074963 0.38773891 4278190335
0.09668237 0.026942529 0.38822073 4278190335
0.096700214 0.026810093 0.38870251 4278190335
0.096718058 0.026677657 0.38918433 4278190335
0.096735902 0.026545223 0.38966614 4278190335
0.096753739 0.026412787 0.39014795 4278190335
0.096771583 0.026280351 0.39062977 4278190335
0.096789427 0.026147917 0.39111158 4278190335
0.095005147 0.039391436 0.34293041 4294967295
0.09489809 0.040186048 0.34003952 4294967295
0.094791032 0.040980659 0.33714867 4294967295
0.094683975 0.041775268 0.33425778 4294967295
0.094576918 0.042569879 0.33136693 4294967295
0.09446986 0.043364491 0.32847604 4294967295
0.09436281 0.044159103 0.32558519 4294967295
0.094255753 0.044953711 0.3226943 4294967295
0.094148695 0.045748323 0.31980345 4294967295
0.094041638 0.046542935 0.31691256 4294967295
0.093934581 0.047337547 0.31402171 4294967295
0.093827523 0.048132159 0.31113082 4294967295
0.093720466 0.048926767 0.30823997 4294967295
0.093613409 0.049721379 0.30534908 4294967295
0.093506351 0.050515991 0.30245823 4294967295
0.093399294 0.051310603 0.29956734 4294967295
0.093292236 0.052105211 0.29667646 4294967295
0.093185186 0.052899823 0.2937856 4294967295
0.093078129 0.053694434 0.29089472 4294967295
0.092971072 0.054489046 0.28800386 4294967295
0.092864014 0.055283658 0.28511298 4294967295
0.092756957 0.056078266 0.28222212 4294967295
0.092649899 0.056872878 0.27933124 4294967295
0.092542842 0.05766749 0.27644038 4294967295
0.092435785 0.058462098 0.2735495 4294967295
0.092328727 0.05925671 0.27065864 4294967295
0.09222167 0.060051322 0.26776776 4294967295
0.092114612 0.060845934 0.2648769 4294967295
0.092007563 0.061640546 0.26198602 4294967295
0.091900505 0.062435158 0.25909516 4294967295
0.091793448 0.063229769 0.25620428 4294967295
0.09168639 0.064024374 0.25331342 4294967295
0.091579333 0.064818993 0.25042254 4294967295
0.091472276 0.065613598 0.24753167 4294967295
0.091365218 0.06640821 0.2446408 4294967295
0.091258161 0.067202821 0.24174993 4294967295
0.091151103 0.067997433 0.23885906 4294967295
0.091044046 0.068792045 0.23596817 4294967295
0.090936989 0.069586657 0.23307732 4294967295
0.090829939 0.070381269 0.23018645 4294967295
0.090722881 0.071175873 0.22729558 4294967295
0.090615824 0.071970493 0.22440469 4294967295
0.090508766 0.072765097 0.22151384 4294967295
0.090401709 0.073559716 0.21862295 4294967295
0.090294652 0.074354321 0.21573208 4294967295
0.090187594 0.075148933 0.21284123 4294967295
0.090080537 0.075943545 0.20995034 4294967295
0.08997348 0.076738156 0.20705947 4294967295
0.089866422 0.077532768 0.2041686 4294967295
0.089759365 0.078327373 0.20127773 4294967295
0.089652315 0.079121992 0.19838686 4294967295
0.089545257 0.079916596 0.19549599 4294967295
0.0894382 0.080711208 0.19260512 4294967295
0.089331143 0.08150582 0.18971425 4294967295
0.089224085 0.082300439 0.18682337 4294967295
0.089117028 0.083095044 0.1839325 4294967295
0.08900997 0.083889656 0.18104164 4294967295
0.088902913 0.084684268 0.17815077 4294967295
0.088795856 0.085478872 0.1752599 4294967295
0.088688798 0.086273484 0.17236903 4294967295
0.088581741 0.087068096 0.16947815 4294967295
0.088474691 0.087862715 0.16658728 4294967295
0.088367634 0.08865732 0.16369641 4294967295
0.088260576 0.089451931 0.16080554 4294967295
0.088153519 0.090246543 0.15791467 4294967295
0.088046461 0.091041148 0.15502381 4294967295
0.087939404 0.091835767 0.15213293 4294967295
0.087832347 0.092630379 0.14924206 4294967295
0.087725289 0.093424991 0.14635119 4294967295
0.087618232 0.094219595 0.14346032 4294967295
