# .PCD v0.7 - Point Cloud Data file format
VERSION 0.7
FIELDS x y z rgb
SIZE 4 4 4 4
TYPE F F F U
COUNT 1 1 1 1
WIDTH 1070
HEIGHT 1
VIEWPOINT 0 0 0 1 0 0 0
POINTS 1070
DATA ascii
0.090049759 0.05259271 0.30100003 4280886554
0.091027409 0.05259271 0.30100003 4281929738
0.092005059 0.05259271 0.30100003 4281995016
0.093291618 0.052767433 0.30200002 4282388742
0.094272517 0.052767433 0.30200002 4283308048
0.095568813 0.052942157 0.303 4283242768
0.096552961 0.052942157 0.303 4282652944
0.09785901 0.053116888 0.30400002 4283112213
0.047213346 0.052680809 0.296 4281669646
0.048012007 0.052502833 0.29500002 4281931533
0.048970167 0.052502833 0.29500002 4282193678
0.049759075 0.052324854 0.294 4282456850
0.050713986 0.052324854 0.294 4282062092
0.051668901 0.052324854 0.294 4282192906
0.052444827 0.052146882 0.29300001 4282258186
0.053396486 0.052146882 0.29300001 4282126600
0.054348152 0.052146882 0.29300001 4282454281
0.055299819 0.052146882 0.29300001 4282717194
0.05644346 0.052324854 0.294 4282717194
0.05759361 0.052502833 0.29500002 4282585608
0.058551773 0.052502833 0.29500002 4282849293
0.059711657 0.052680809 0.296 4282586121
0.060878046 0.052858785 0.29700002 4282586121
0.091027409 0.053570691 0.30100003 4281798922
0.092005059 0.053570691 0.30100003 4281929736
0.093291618 0.053748664 0.30200002 4282322436
0.094272517 0.053748664 0.30200002 4283110669
0.095568813 0.053926639 0.303 4283439632
0.096552961 0.053926639 0.303 4282717707
0.0975371 0.053926639 0.303 4283111698
0.047213346 0.053642541 0.296 4282459930
0.048012007 0.053461317 0.29500002 4281734156
0.048970167 0.053461317 0.29500002 4281667847
0.049759075 0.053280089 0.294 4281602568
0.050713986 0.053280089 0.294 4281669131
0.05149316 0.053098865 0.29300001 4281734924
0.052444827 0.053098865 0.29300001 4282721821
0.053396486 0.053098865 0.29300001 4282194707
0.054348152 0.053098865 0.29300001 4282324494
0.055299819 0.053098865 0.29300001 4282783760
0.05644346 0.053280089 0.294 4282914573
0.057398375 0.053280089 0.294 4282454535
0.090049759 0.05454867 0.30100003 4283322180
0.091027409 0.05454867 0.30100003 4282061324
0.092005059 0.05454867 0.30100003 4282125832
0.093291618 0.05472989 0.30200002 4282716424
0.094272517 0.05472989 0.30200002 4283373069
0.095253408 0.05472989 0.30200002 4283438862
0.096552961 0.054911114 0.303 4283242768
0.0975371 0.054911114 0.303 4283307794
0.098521248 0.054911114 0.303 4283439380
0.048012007 0.054419804 0.29500002 4281799949
0.048970167 0.054419804 0.29500002 4281273603
0.049759075 0.054235328 0.294 4281340679
0.055299819 0.054050855 0.29300001 4282783760
0.056251481 0.054050855 0.29300001 4282913803
0.057398375 0.054235328 0.294 4282390539
0.091027409 0.055526651 0.30100003 4282323211
0.092005059 0.055526651 0.30100003 4282454283
0.092982709 0.055526651 0.30100003 4282716424
0.094272517 0.05571112 0.30200002 4283504143
0.095253408 0.05571112 0.30200002 4283701007
0.096552961 0.055895593 0.303 4283109897
0.0975371 0.055895593 0.303 4283964440
0.098521248 0.055895593 0.303 4284489755
0.049759075 0.055190559 0.294 4281142789
0.054162666 0.054815121 0.29200003 4282129682
0.055111084 0.054815121 0.29200003 4282980625
0.056251481 0.055002838 0.29300001 4283045389
0.057398375 0.055190559 0.294 4282194703
0.091027409 0.056504626 0.30100003 4282388490
0.092005059 0.056504626 0.30100003 4282585354
0.092982709 0.056504626 0.30100003 4282978313
0.094272517 0.056692347 0.30200002 4283569421
0.095253408 0.056692347 0.30200002 4283635214
0.096234307 0.056692347 0.30200002 4283438862
0.0975371 0.056880068 0.303 4284031771
0.098521248 0.056880068 0.303 4284951587
0.054162666 0.055763859 0.29200003 4282128398
0.055111084 0.055763859 0.29200003 4283111952
0.056251481 0.055954829 0.29300001 4282980366
0.057203144 0.055954829 0.29300001 4282129934
0.089072116 0.057482608 0.30100003 4286153589
0.090049759 0.057482608 0.30100003 4281015827
0.091027409 0.057482608 0.30100003 4282848010
0.092005059 0.057482608 0.30100003 4282781704
0.092982709 0.057482608 0.30100003 4283044106
0.09396036 0.057482608 0.30100003 4283438348
0.095253408 0.057673577 0.30200002 4283766284
0.096234307 0.057673577 0.30200002 4284029456
0.097215205 0.057673577 0.30200002 4284621080
0.098196104 0.057673577 0.30200002 4285476902
0.099176995 0.057673577 0.30200002 4285221435
0.055111084 0.056712594 0.29200003 4283111952
0.056059498 0.056712594 0.29200003 4283176975
0.057203144 0.056906812 0.29300001 4282260750
0.091027409 0.058460586 0.30100003 4282979083
0.092005059 0.058460586 0.30100003 4283241485
0.092982709 0.058460586 0.30100003 4283372557
0.09396036 0.058460586 0.30100003 4283635214
0.094938003 0.058460586 0.30100003 4283962380
0.096234307 0.058654804 0.30200002 4284816919
0.097215205 0.058654804 0.30200002 4285079062
0.098196104 0.058654804 0.30200002 4285079062
0.099176995 0.058654804 0.30200002 4284162587
0.055111084 0.057661336 0.29200003 4283243538
0.056059498 0.057661336 0.29200003 4283176975
0.057203144 0.057858802 0.29300001 4283116829
0.089072116 0.059438568 0.30100003 4286280812
0.090049759 0.059438568 0.30100003 4282323729
0.091027409 0.059438568 0.30100003 4283175178
0.092005059 0.059438568 0.30100003 4283437837
0.092982709 0.059438568 0.30100003 4283568651
0.09396036 0.059438568 0.30100003 4283897103
0.094938003 0.059438568 0.30100003 4284487952
0.095915653 0.059438568 0.30100003 4284948503
0.096893303 0.059438568 0.30100003 4285275158
0.098196104 0.059636038 0.30200002 4285209365
0.099176995 0.059636038 0.30200002 4284948246
0.054922346 0.058409348 0.29100001 4282915600
0.056059498 0.05861007 0.29200003 4283242253
0.057203144 0.058810785 0.29300001 4284365612
0.089072116 0.060416546 0.30100003 4282196508
0.090049759 0.060416546 0.30100003 4283176210
0.091027409 0.060416546 0.30100003 4283503630
0.092005059 0.060416546 0.30100003 4283503630
0.092982709 0.060416546 0.30100003 4283766030
0.09396036 0.060416546 0.30100003 4283962896
0.094938003 0.060416546 0.30100003 4286264881
0.095915653 0.060416546 0.30100003 4290083705
0.096893303 0.060416546 0.30100003 4284421134
0.097870953 0.060416546 0.30100003 4285078549
0.098848604 0.060416546 0.30100003 4285013269
0.099826254 0.060416546 0.30100003 4284751642
0.054922346 0.059354838 0.29100001 4282653711
0.056059498 0.059558809 0.29200003 4283504655
0.057203144 0.059762776 0.29300001 4284428837
0.062050927 0.060782619 0.29800001 4281810738
0.063018829 0.060782619 0.29800001 4285497204
0.089072116 0.061394528 0.30100003 4282191113
0.090049759 0.061394528 0.30100003 4283503630
0.091027409 0.061394528 0.30100003 4283634444
0.092005059 0.061394528 0.30100003 4283700237
0.092982709 0.061394528 0.30100003 4283765517
0.09396036 0.061394528 0.30100003 4284225552
0.094938003 0.061394528 0.30100003 4285013271
0.095915653 0.061394528 0.30100003 4287317569
0.096893303 0.061394528 0.30100003 4285014044
0.097870953 0.061394528 0.30100003 4285078549
0.098848604 0.061394528 0.30100003 4284881170
0.099826254 0.061394528 0.30100003 4284619283
0.062050927 0.061750848 0.29800001 4284708460
0.063018829 0.061750848 0.29800001 4285037423
0.064201459 0.061958067 0.29900002 4285037936
0.089072116 0.062372506 0.30100003 4283634962
0.090049759 0.062372506 0.30100003 4283766030
0.091027409 0.062372506 0.30100003 4283897103
0.092005059 0.062372506 0.30100003 4283896333
0.092982709 0.062372506 0.30100003 4283962380
0.09396036 0.062372506 0.30100003 4284356368
0.094938003 0.062372506 0.30100003 4284553488
0.095915653 0.062372506 0.30100003 4284881170
0.096893303 0.062372506 0.30100003 4285275160
0.097870953 0.062372506 0.30100003 4285406744
0.098848604 0.062372506 0.30100003 4284750097
0.099826254 0.062372506 0.30100003 4284487443
0.05835329 0.061877213 0.294 4284435519
0.060878046 0.06250862 0.29700002 4284511081
0.062050927 0.062719084 0.29800001 4284971632
0.063018829 0.062719084 0.29800001 4285037425
0.064201459 0.062929556 0.29900002 4285037425
0.065390579 0.06314002 0.30000001 4285563516
0.089072116 0.063350484 0.30100003 4283831310
0.090049759 0.063350484 0.30100003 4284027919
0.091027409 0.063350484 0.30100003 4283962380
0.092005059 0.063350484 0.30100003 4284093196
0.092982709 0.063350484 0.30100003 4284093196
0.09396036 0.063350484 0.30100003 4284158989
0.094938003 0.063350484 0.30100003 4284356366
0.095915653 0.063350484 0.30100003 4284553488
0.096893303 0.063350484 0.30100003 4284881170
0.097870953 0.063350484 0.30100003 4285275926
0.098848604 0.063350484 0.30100003 4284816915
0.099826254 0.063350484 0.30100003 4284028173
0.049302168 0.063473605 0.29700002 4282785043
0.050266825 0.063473605 0.29700002 4283045389
0.051058982 0.063259885 0.296 4282848008
0.05202039 0.063259885 0.296 4281273351
0.052981801 0.063259885 0.296 4279242246
0.053943206 0.063259885 0.296 4279439625
0.05835329 0.062832452 0.294 4283509538
0.059711657 0.063259885 0.296 4284766798
0.060878046 0.063473605 0.29700002 4284707688
0.062050927 0.063687317 0.29800001 4284905837
0.063018829 0.063687317 0.29800001 4285103216
0.064201459 0.063901037 0.29900002 4285169009
0.065390579 0.064114749 0.30000001 4285103216
0.066364981 0.064114749 0.30000001 4285366901
0.067339376 0.064114749 0.30000001 4283260242
0.088094465 0.064328469 0.30100003 4283964181
0.089072116 0.064328469 0.30100003 4284027919
0.090049759 0.064328469 0.30100003 4284225552
0.091027409 0.064328469 0.30100003 4284093196
0.092005059 0.064328469 0.30100003 4284224782
0.092982709 0.064328469 0.30100003 4284356368
0.09396036 0.064328469 0.30100003 4283962380
0.094938003 0.064328469 0.30100003 4284093966
0.095915653 0.064328469 0.30100003 4284093966
0.096893303 0.064328469 0.30100003 4284422159
0.097870953 0.064328469 0.30100003 4284356366
0.098848604 0.064328469 0.30100003 4284094734
0.099826254 0.064328469 0.30100003 4283897870
0.048337512 0.064438581 0.29700002 4281146646
0.049302168 0.064438581 0.29700002 4283046932
0.050266825 0.064438581 0.29700002 4283308046
0.051058982 0.064221613 0.296 4283701520
0.05202039 0.064221613 0.296 4283373841
0.052981801 0.064221613 0.296 4280157954
0.053943206 0.064221613 0.296 4279897864
0.054719131 0.064004652 0.29500002 4279964171
0.055677291 0.064004652 0.29500002 4280553993
0.05835329 0.063787684 0.294 4283439634
0.059711657 0.064221613 0.296 4284300081
0.060878046 0.064438581 0.29700002 4285364845
0.062050927 0.06465555 0.29800001 4284971884
0.063018829 0.06465555 0.29800001 4285103216
0.064201459 0.064872518 0.29900002 4285169009
0.065390579 0.065089479 0.30000001 4285169009
0.066364981 0.065089479 0.30000001 4285234802
0.067339376 0.065089479 0.30000001 4285103729
0.068541497 0.065306447 0.30100003 4285563767
0.069519147 0.065306447 0.30100003 4283522641
0.077597275 0.065523408 0.30200002 4282522391
0.078578167 0.065523408 0.30200002 4283046936
0.086139172 0.065306447 0.30100003 4283450686
0.087116823 0.065306447 0.30100003 4284094743
0.088094465 0.065306447 0.30100003 4284225298
0.089072116 0.065306447 0.30100003 4284093196
0.090049759 0.065306447 0.30100003 4284356366
0.091027409 0.065306447 0.30100003 4284224780
0.092005059 0.065306447 0.30100003 4284356366
0.092982709 0.065306447 0.30100003 4283963150
0.09396036 0.065306447 0.30100003 4283766030
0.094938003 0.065306447 0.30100003 4283635727
0.095915653 0.065306447 0.30100003 4283701520
0.096893303 0.065306447 0.30100003 4283964179
0.097870953 0.065306447 0.30100003 4283766800
0.098848604 0.065306447 0.30100003 4283898899
0.048337512 0.065403573 0.29700002 4281606429
0.049302168 0.065403573 0.29700002 4283112211
0.050266825 0.065403573 0.29700002 4283373839
0.051058982 0.065183349 0.296 4283766284
0.05202039 0.065183349 0.296 4283897357
0.052981801 0.065183349 0.296 4284029202
0.053943206 0.065183349 0.296 4283899415
0.054904617 0.065183349 0.296 4283178004
0.055866025 0.065183349 0.296 4283505686
0.056827433 0.065183349 0.296 4283307278
0.057788841 0.065183349 0.296 4283701522
0.058750253 0.065183349 0.296 4283766800
0.059711657 0.065183349 0.296 4283899413
0.060878046 0.065403573 0.29700002 4284041020
0.062050927 0.065623783 0.29800001 4285625962
0.063018829 0.065623783 0.29800001 4285168239
0.064201459 0.065843999 0.29900002 4285169009
0.065390579 0.066064209 0.30000001 4285169011
0.066364981 0.066064209 0.30000001 4285366390
0.067339376 0.066064209 0.30000001 4285432181
0.068541497 0.066284426 0.30100003 4285234802
0.069519147 0.066284426 0.30100003 4285169263
0.073917635 0.066724852 0.303 4281734420
0.074901782 0.066724852 0.303 4281930769
0.075885922 0.066724852 0.303 4282455569
0.076870069 0.066724852 0.303 4283374872
0.077854216 0.066724852 0.303 4283702806
0.078838356 0.066724852 0.303 4283702036
0.085161522 0.066284426 0.30100003 4284629825
0.086139172 0.066284426 0.30100003 4283767577
0.087116823 0.066284426 0.30100003 4284158735
0.088094465 0.066284426 0.30100003 4284421904
0.089072116 0.066284426 0.30100003 4284421902
0.090348929 0.066504642 0.30200002 4284421902
0.091329828 0.066504642 0.30200002 4284421902
0.092310719 0.066504642 0.30200002 4284158987
0.093291618 0.066504642 0.30200002 4283438862
0.09396036 0.066284426 0.30100003 4283111182
0.094938003 0.066284426 0.30100003 4282782987
0.095915653 0.066284426 0.30100003 4282980112
0.096893303 0.066284426 0.30100003 4283243284
0.097870953 0.066284426 0.30100003 4283571479
0.098848604 0.066284426 0.30100003 4282916118
0.047372855 0.06636855 0.29700002 4279438858
0.048337512 0.06636855 0.29700002 4281672222
0.049302168 0.06636855 0.29700002 4283309592
0.050266825 0.06636855 0.29700002 4283373841
0.051231481 0.06636855 0.29700002 4284227605
0.05202039 0.066145085 0.296 4284358421
0.052981801 0.066145085 0.296 4284422161
0.053943206 0.066145085 0.296 4284553747
0.054904617 0.066145085 0.296 4284948246
0.055866025 0.066145085 0.296 4284816917
0.056827433 0.066145085 0.296 4286793530
0.057788841 0.066145085 0.296 4283897870
0.058750253 0.066145085 0.296 4284356368
0.059711657 0.066145085 0.296 4283962896
0.060878046 0.06636855 0.29700002 4283638042
0.062050927 0.066592008 0.29800001 4284432952
0.063018829 0.066592008 0.29800001 4285694069
0.064201459 0.066815481 0.29900002 4285299827
0.065390579 0.067038938 0.30000001 4285365620
0.066364981 0.067038938 0.30000001 4285169011
0.067339376 0.067038938 0.30000001 4285497976
0.068541497 0.067262404 0.30100003 4285432181
0.069519147 0.067262404 0.30100003 4285366388
0.070730999 0.067485869 0.30200002 4286351486
0.072933495 0.067709327 0.303 4282717969
0.073917635 0.067709327 0.303 4283176208
0.074901782 0.067709327 0.303 4283109645
0.075885922 0.067709327 0.303 4283240971
0.076870069 0.067709327 0.303 4283767827
0.077854216 0.067709327 0.303 4283833620
0.078838356 0.067709327 0.303 4283898899
0.079822503 0.067709327 0.303 4282195988
0.084183872 0.067262404 0.30100003 4283316018
0.085161522 0.067262404 0.30100003 4284225816
0.086139172 0.067262404 0.30100003 4284356886
0.087116823 0.067262404 0.30100003 4284684306
0.088387132 0.067485869 0.30200002 4284552718
0.08936803 0.067485869 0.30200002 4284553486
0.090348929 0.067485869 0.30200002 4284487693
0.091329828 0.067485869 0.30200002 4284158989
0.092310719 0.067485869 0.30200002 4283831823
0.093291618 0.067485869 0.30200002 4282455565
0.094272517 0.067485869 0.30200002 4282455565
0.095253408 0.067485869 0.30200002 4282652946
0.096234307 0.067485869 0.30200002 4282587155
0.096893303 0.067262404 0.30100003 4282916120
0.097870953 0.067262404 0.30100003 4283245598
0.047372855 0.067333534 0.29700002 4279438342
0.048337512 0.067333534 0.29700002 4281935392
0.049302168 0.067333534 0.29700002 4283244565
0.050266825 0.067333534 0.29700002 4283637526
0.051231481 0.067333534 0.29700002 4284227351
0.05202039 0.067106821 0.296 4284227605
0.052981801 0.067106821 0.296 4284357136
0.053943206 0.067106821 0.296 4284619538
0.054904617 0.067106821 0.296 4285144340
0.055866025 0.067106821 0.296 4289093462
0.056635451 0.066880114 0.29500002 4285478185
0.05759361 0.066880114 0.29500002 4284948498
0.058750253 0.067106821 0.296 4284882451
0.059711657 0.067106821 0.296 4284685331
0.060878046 0.067333534 0.29700002 4284291345
0.062050927 0.067560248 0.29800001 4284227351
0.063018829 0.067560248 0.29800001 4283380010
0.064201459 0.067786962 0.29900002 4286741363
0.065390579 0.068013668 0.30000001 4285234032
0.066364981 0.068013668 0.30000001 4285562997
0.067339376 0.068013668 0.30000001 4285234802
0.068541497 0.068240389 0.30100003 4285432181
0.069519147 0.068240389 0.30100003 4285366388
0.070730999 0.068467095 0.30200002 4285562997
0.072933495 0.068693802 0.303 4283046159
0.074161589 0.068920523 0.30400002 4283504141
0.075148985 0.068920523 0.30400002 4283503628
0.076136373 0.068920523 0.30400002 4283700237
0.077123769 0.068920523 0.30400002 4283701007
0.077854216 0.068693802 0.303 4283898386
0.078838356 0.068693802 0.303 4284161558
0.079822503 0.068693802 0.303 4283310358
0.08080665 0.068693802 0.303 4286938479
0.083482653 0.068467095 0.30200002 4283245085
0.084463552 0.068467095 0.30200002 4284358169
0.085444443 0.068467095 0.30200002 4284487445
0.086425342 0.068467095 0.30200002 4284421650
0.08740624 0.068467095 0.30200002 4284487695
0.088387132 0.068467095 0.30200002 4284684304
0.08936803 0.068467095 0.30200002 4284421130
0.090648092 0.068693802 0.303 4284421900
0.09163224 0.068693802 0.303 4283635727
0.092616387 0.068693802 0.303 4282651147
0.093600526 0.068693802 0.303 4282786328
0.094272517 0.068467095 0.30200002 4283445544
0.095568813 0.068693802 0.303 4283052328
0.096234307 0.068467095 0.30200002 4283645751
0.047372855 0.068298519 0.29700002 4279965454
0.048337512 0.068298519 0.29700002 4282133025
0.049302168 0.068298519 0.29700002 4283245081
0.050266825 0.068298519 0.29700002 4283506710
0.051231481 0.068298519 0.29700002 4283965206
0.052196138 0.068298519 0.29700002 4284030739
0.052981801 0.068068549 0.296 4284160527
0.053943206 0.068068549 0.296 4284487952
0.054904617 0.068068549 0.296 4284946961
0.055677291 0.067838594 0.29500002 4284815377
0.056635451 0.067838594 0.29500002 4286658612
0.05759361 0.067838594 0.29500002 4285341723
0.05835329 0.067608625 0.294 4284946961
0.059308197 0.067608625 0.294 4284750095
0.060878046 0.068298519 0.29700002 4284421902
0.062050927 0.068528473 0.29800001 4284224780
0.063018829 0.068528473 0.29800001 4284226835
0.064201459 0.068758443 0.29900002 4284294941
0.065390579 0.068988398 0.30000001 4285093710
0.066364981 0.068988398 0.30000001 4286152306
0.067339376 0.068988398 0.30000001 4285365872
0.068541497 0.069218367 0.30100003 4285365618
0.069519147 0.069218367 0.30100003 4285299825
0.070730999 0.069448322 0.30200002 4285365618
0.072186805 0.069908246 0.30400002 4284239171
0.073174201 0.069908246 0.30400002 4282980625
0.074161589 0.069908246 0.30400002 4283766030
0.075148985 0.069908246 0.30400002 4283568651
0.076136373 0.069908246 0.30400002 4283699724
0.077123769 0.069908246 0.30400002 4284029202
0.078111164 0.069908246 0.30400002 4284358421
0.078838356 0.069678284 0.303 4284555800
0.079822503 0.069678284 0.303 4284818459
0.08080665 0.069678284 0.303 4287322450
0.081790797 0.069678284 0.303 4285155910
0.082501754 0.069448322 0.30200002 4283440665
0.083482653 0.069448322 0.30200002 4284554263
0.084463552 0.069448322 0.30200002 4284422161
0.085444443 0.069448322 0.30200002 4284553488
0.086425342 0.069448322 0.30200002 4284487695
0.08740624 0.069448322 0.30200002 4284487695
0.088679798 0.069678284 0.303 4284685072
0.089663945 0.069678284 0.303 4284356364
0.090947263 0.069908246 0.30400002 4283896585
0.091934659 0.069908246 0.30400002 4282257418
0.092922054 0.069908246 0.30400002 4282192908
0.09390945 0.069908246 0.30400002 4281341962
0.095568813 0.069678284 0.303 4286086765
0.096552961 0.069678284 0.303 4285955695
0.047372855 0.069263503 0.29700002 4280031762
0.048337512 0.069263503 0.29700002 4281936416
0.049302168 0.069263503 0.29700002 4283179290
0.050266825 0.069263503 0.29700002 4283375383
0.051231481 0.069263503 0.29700002 4283637272
0.052196138 0.069263503 0.29700002 4283702806
0.052981801 0.069030285 0.296 4284029456
0.053943206 0.069030285 0.296 4284356366
0.054904617 0.069030285 0.296 4284684302
0.055677291 0.068797082 0.29500002 4284815888
0.056635451 0.068797082 0.29500002 4284552718
0.05759361 0.068797082 0.29500002 4289818723
0.05835329 0.068563864 0.294 4284290314
0.059308197 0.068563864 0.294 4284750095
0.060263112 0.068563864 0.294 4284685074
0.061218027 0.068563864 0.294 4284619538
0.063018829 0.069496706 0.29800001 4284422159
0.064201459 0.069729924 0.29900002 4284422159
0.065390579 0.069963135 0.30000001 4284488724
0.066364981 0.069963135 0.30000001 4283701007
0.067339376 0.069963135 0.30000001 4285553746
0.068541497 0.070196345 0.30100003 4286348658
0.069519147 0.070196345 0.30100003 4285430897
0.070730999 0.070429556 0.30200002 4285365620
0.072186805 0.070895977 0.30400002 4286939512
0.073174201 0.070895977 0.30400002 4285088570
0.074161589 0.070895977 0.30400002 4283962896
0.075148985 0.070895977 0.30400002 4284225552
0.076136373 0.070895977 0.30400002 4284225552
0.077123769 0.070895977 0.30400002 4284357138
0.078111164 0.070895977 0.30400002 4284619540
0.078838356 0.070662759 0.303 4284882455
0.079822503 0.070662759 0.303 4284685074
0.08080665 0.070662759 0.303 4284882453
0.081790797 0.070662759 0.303 4284882455
0.082774937 0.070662759 0.303 4284882455
0.083759077 0.070662759 0.303 4284619283
0.084743224 0.070662759 0.303 4284750869
0.085727371 0.070662759 0.303 4284750867
0.086711518 0.070662759 0.303 4284685074
0.087695666 0.070662759 0.303 4284750867
0.088679798 0.070662759 0.303 4284553488
0.089959875 0.070895977 0.30400002 4284029202
0.090947263 0.070895977 0.30400002 4282913036
0.091934659 0.070895977 0.30400002 4282259473
0.092922054 0.070895977 0.30400002 4283776051
0.09390945 0.070895977 0.30400002 4285757798
0.095208995 0.07112918 0.30500001 4285824876
0.095884226 0.070895977 0.30400002 4285825394
0.048337512 0.07022848 0.29700002 4281411101
0.049302168 0.07022848 0.29700002 4282786330
0.050266825 0.07022848 0.29700002 4283114012
0.051231481 0.07022848 0.29700002 4283375383
0.052196138 0.07022848 0.29700002 4283308561
0.052981801 0.069992021 0.296 4283831310
0.053943206 0.069992021 0.296 4284093196
0.054904617 0.069992021 0.296 4284487952
0.055677291 0.069755562 0.29500002 4284553488
0.056635451 0.069755562 0.29500002 4284882453
0.05759361 0.069755562 0.29500002 4284357138
0.05835329 0.069519103 0.294 4284027144
0.059308197 0.069519103 0.294 4284685074
0.060263112 0.069519103 0.294 4284421902
0.061218027 0.069519103 0.294 4284158732
0.062172942 0.069519103 0.294 4284487697
0.064201459 0.070701405 0.29900002 4284619281
0.065390579 0.070937857 0.30000001 4284553488
0.066364981 0.070937857 0.30000001 4284487695
0.067339376 0.070937857 0.30000001 4284685333
0.068541497 0.071174324 0.30100003 4283831310
0.069519147 0.071174324 0.30100003 4283440665
0.070730999 0.071410783 0.30200002 4285154626
0.072186805 0.071883701 0.30400002 4287063135
0.073174201 0.071883701 0.30400002 4283571220
0.074161589 0.071883701 0.30400002 4284553488
0.07539618 0.07212016 0.30500001 4284685074
0.076136373 0.071883701 0.30400002 4284487695
0.077123769 0.071883701 0.30400002 4284684304
0.077854216 0.071647234 0.303 4284815377
0.078838356 0.071647234 0.303 4284881170
0.079822503 0.071647234 0.303 4284749584
0.08080665 0.071647234 0.303 4284881170
0.081790797 0.071647234 0.303 4284946963
0.082774937 0.071647234 0.303 4285078549
0.083759077 0.071647234 0.303 4285144342
0.084743224 0.071647234 0.303 4285013269
0.085727371 0.071647234 0.303 4284882453
0.086711518 0.071647234 0.303 4284948246
0.087985091 0.071883701 0.30400002 4284553747
0.088972479 0.071883701 0.30400002 4284160529
0.089959875 0.071883701 0.30400002 4282716940
0.091246434 0.07212016 0.30500001 4282980625
0.09223707 0.07212016 0.30500001 4285820511
0.093227714 0.07212016 0.30500001 4285758318
0.094218358 0.07212016 0.30500001 4285693808
0.095208995 0.07212016 0.30500001 4285759601
0.047532357 0.071433172 0.29800001 4279507731
0.048500262 0.071433172 0.29800001 4280360725
0.049302168 0.071193472 0.29700002 4282130713
0.050266825 0.071193472 0.29700002 4282656028
0.051231481 0.071193472 0.29700002 4282982422
0.052196138 0.071193472 0.29700002 4283046932
0.052981801 0.070953757 0.296 4283438348
0.053943206 0.070953757 0.296 4283700491
0.054904617 0.070953757 0.296 4284028173
0.055677291 0.070714049 0.29500002 4284225550
0.056635451 0.070714049 0.29500002 4284357908
0.05759361 0.070714049 0.29500002 4284161042
0.05835329 0.070474342 0.294 4283897357
0.059308197 0.070474342 0.294 4284028173
0.060263112 0.070474342 0.294 4284093196
0.061218027 0.070474342 0.294 4283830794
0.062172942 0.070474342 0.294 4284291345
0.064201459 0.071672887 0.29900002 4284554517
0.065390579 0.071912594 0.30000001 4284553747
0.066364981 0.071912594 0.30000001 4284619283
0.067339376 0.071912594 0.30000001 4284619283
0.068541497 0.072152302 0.30100003 4284685076
0.069519147 0.072152302 0.30100003 4284685076
0.070730999 0.072392009 0.30200002 4284882455
0.072186805 0.072871432 0.30400002 4284881685
0.073174201 0.072871432 0.30400002 4284750099
0.074161589 0.072871432 0.30400002 4284815890
0.07539618 0.073111132 0.30500001 4284750097
0.076136373 0.072871432 0.30400002 4284881170
0.076870069 0.072631717 0.303 4284946963
0.077854216 0.072631717 0.303 4285144340
0.078838356 0.072631717 0.303 4284815375
0.079822503 0.072631717 0.303 4284881168
0.08080665 0.072631717 0.303 4284881168
0.081790797 0.072631717 0.303 4285078547
0.082774937 0.072631717 0.303 4285210133
0.083759077 0.072631717 0.303 4284685331
0.085022911 0.072871432 0.30400002 4285079832
0.086010307 0.072871432 0.30400002 4284948246
0.086997695 0.072871432 0.30400002 4284422159
0.087985091 0.072871432 0.30400002 4283701007
0.088972479 0.072871432 0.30400002 4282716170
0.090255789 0.073111132 0.30500001 4281997074
0.091246434 0.073111132 0.30500001 4286872172
0.09223707 0.073111132 0.30500001 4285824622
0.093227714 0.073111132 0.30500001 4285759601
0.094218358 0.073111132 0.30500001 4285694323
0.048500262 0.072401412 0.29800001 4279638801
0.049468167 0.072401412 0.29800001 4282197789
0.050266825 0.072158456 0.29700002 4282525984
0.051231481 0.072158456 0.29700002 4282524440
0.052196138 0.072158456 0.29700002 4282457361
0.052981801 0.071915492 0.296 4282651912
0.053943206 0.071915492 0.296 4282979081
0.054904617 0.071915492 0.296 4283635468
0.055677291 0.071672536 0.29500002 4283635468
0.056635451 0.071672536 0.29500002 4283964433
0.05759361 0.071672536 0.29500002 4283964433
0.05835329 0.071429573 0.294 4284029456
0.059308197 0.071429573 0.294 4284093966
0.060263112 0.071429573 0.294 4283897870
0.061218027 0.071429573 0.294 4283503882
0.062172942 0.071429573 0.294 4282850836
0.064201459 0.072644368 0.29900002 4282914832
0.065390579 0.072887324 0.30000001 4284490007
0.066364981 0.072887324 0.30000001 4284555287
0.067339376 0.072887324 0.30000001 4284553745
0.068541497 0.073130287 0.30100003 4284619281
0.069519147 0.073130287 0.30100003 4284684304
0.070730999 0.073373243 0.30200002 4284946963
0.072186805 0.073859155 0.30400002 4285011984
0.073174201 0.073859155 0.30400002 4285011984
0.074161589 0.073859155 0.30400002 4284946191
0.07539618 0.074102111 0.30500001 4285011984
0.076386817 0.074102111 0.30500001 4285077777
0.076616377 0.073373243 0.30200002 4285077777
0.077597275 0.073373243 0.30200002 4285011984
0.078578167 0.073373243 0.30200002 4285209363
0.079559065 0.073373243 0.30200002 4285209363
0.080539964 0.073373243 0.30200002 4284946961
0.081790797 0.073616199 0.303 4285145882
0.082774937 0.073616199 0.303 4289625457
0.084035516 0.073859155 0.30400002 4290743688
0.085022911 0.073859155 0.30400002 4284029202
0.086010307 0.073859155 0.30400002 4283766800
0.086997695 0.073859155 0.30400002 4283045387
0.088274516 0.074102111 0.30500001 4282323981
0.089265145 0.074102111 0.30500001 4282654744
0.090255789 0.074102111 0.30500001 4286480499
0.091246434 0.074102111 0.30500001 4285824624
0.09223707 0.074102111 0.30500001 4285759603
0.093227714 0.074102111 0.30500001 4285825396
0.047532357 0.073369637 0.29800001 4279508244
0.048500262 0.073369637 0.29800001 4279507731
0.049468167 0.073369637 0.29800001 4280358413
0.050266825 0.073123433 0.29700002 4282593576
0.051231481 0.073123433 0.29700002 4282526238
0.052196138 0.073123433 0.29700002 4282327572
0.053160798 0.073123433 0.29700002 4282522125
0.053943206 0.072877221 0.296 4282653198
0.054904617 0.072877221 0.296 4283046159
0.055677291 0.072631024 0.29500002 4283176975
0.056635451 0.072631024 0.29500002 4283702034
0.05759361 0.072631024 0.29500002 4283898899
0.05835329 0.072384812 0.294 4283898386
0.059308197 0.072384812 0.294 4283964179
0.060263112 0.072384812 0.294 4283637524
0.061218027 0.072384812 0.294 4285484353
0.062172942 0.072384812 0.294 4285693038
0.064201459 0.073615849 0.29900002 4286153591
0.065390579 0.073862053 0.30000001 4283907637
0.066364981 0.073862053 0.30000001 4283440917
0.067339376 0.073862053 0.30000001 4284621593
0.068541497 0.074108265 0.30100003 4284883482
0.069519147 0.074108265 0.30100003 4284948248
0.070730999 0.07435447 0.30200002 4285013269
0.072186805 0.074846886 0.30400002 4284881170
0.073174201 0.074846886 0.30400002 4285078549
0.074161589 0.074846886 0.30400002 4285011986
0.07539618 0.075093083 0.30500001 4285011986
0.075134575 0.073862053 0.30000001 4285077777
0.076362684 0.074108265 0.30100003 4285077777
0.077340335 0.074108265 0.30100003 4285077777
0.078317977 0.074108265 0.30100003 4285275156
0.079559065 0.07435447 0.30200002 4285275926
0.080539964 0.07435447 0.30200002 4285341719
0.081520863 0.07435447 0.30200002 4284750095
0.082774937 0.074600674 0.303 4284487695
0.084035516 0.074846886 0.30400002 4284094745
0.085022911 0.074846886 0.30400002 4283701270
0.086010307 0.074846886 0.30400002 4282060039
0.087283872 0.075093083 0.30500001 4281995016
0.088274516 0.075093083 0.30500001 4281934101
0.089265145 0.075093083 0.30500001 4286479724
0.090255789 0.075093083 0.30500001 4285890415
0.091246434 0.075093083 0.30500001 4285825396
0.09223707 0.075093083 0.30500001 4285891189
0.047532357 0.07433787 0.29800001 4279705110
0.048500262 0.07433787 0.29800001 4279705110
0.049468167 0.07433787 0.29800001 4280098582
0.050266825 0.074088417 0.29700002 4279966737
0.051231481 0.074088417 0.29700002 4281737240
0.052196138 0.074088417 0.29700002 4282394139
0.053160798 0.074088417 0.29700002 4282260498
0.053943206 0.073838957 0.296 4282127885
0.054904617 0.073838957 0.296 4282718737
0.055866025 0.073838957 0.296 4282587151
0.056635451 0.073589511 0.29500002 4282980625
0.05759361 0.073589511 0.29500002 4283178258
0.058551773 0.073589511 0.29500002 4283506710
0.059308197 0.073340051 0.294 4283705116
0.060263112 0.073340051 0.294 4283444770
0.061218027 0.073340051 0.294 4286870373
0.062172942 0.073340051 0.294 4285234032
0.064201459 0.07458733 0.29900002 4285234032
0.065390579 0.074836783 0.30000001 4285496944
0.066364981 0.074836783 0.30000001 4286350970
0.067339376 0.074836783 0.30000001 4283777850
0.068541497 0.075086243 0.30100003 4283444260
0.069519147 0.075086243 0.30100003 4284227351
0.070730999 0.075335696 0.30200002 4284751896
0.072186805 0.07583461 0.30400002 4285014296
0.073174201 0.07583461 0.30400002 4284948503
0.074161589 0.07583461 0.30400002 4284881681
0.073912986 0.07458733 0.29900002 4285013267
0.075134575 0.074836783 0.30000001 4284946961
0.076108977 0.074836783 0.30000001 4285210133
0.077083379 0.074836783 0.30000001 4284946961
0.078317977 0.075086243 0.30100003 4284554513
0.079295628 0.075086243 0.30100003 4285144853
0.080273278 0.075086243 0.30100003 4285144594
0.081520863 0.075335696 0.30200002 4285144594
0.082774937 0.075585149 0.303 4284552716
0.084035516 0.07583461 0.30400002 4284029204
0.085022911 0.07583461 0.30400002 4282125320
0.086293228 0.076084062 0.30500001 4282061840
0.087283872 0.076084062 0.30500001 4282721567
0.088274516 0.076084062 0.30500001 4286283372
0.089265145 0.076084062 0.30500001 4285890669
0.090551712 0.076333523 0.30600002 4285825396
0.091545604 0.076333523 0.30600002 4285891189
0.047532357 0.075306103 0.29800001 4279178768
0.048500262 0.075306103 0.29800001 4279244561
0.049468167 0.075306103 0.29800001 4279375375
0.050266825 0.075053401 0.29700002 4279375629
0.051231481 0.075053401 0.29700002 4280097040
0.052196138 0.075053401 0.29700002 4280622099
0.053160798 0.075053401 0.29700002 4281408789
0.053943206 0.074800692 0.296 4281735955
0.054904617 0.074800692 0.296 4282194191
0.055866025 0.074800692 0.296 4282127885
0.056827433 0.074800692 0.296 4282193678
0.05759361 0.074547991 0.29500002 4282391057
0.058551773 0.074547991 0.29500002 4282588949
0.059308197 0.074295282 0.294 4283839532
0.060263112 0.074295282 0.294 4282194191
0.061218027 0.074295282 0.294 4281404423
0.062172942 0.074295282 0.294 4281803808
0.064201459 0.075558811 0.29900002 4284768604
0.065390579 0.075811513 0.30000001 4285759862
0.066364981 0.075811513 0.30000001 4285431151
0.067339376 0.075811513 0.30000001 4285431151
0.068541497 0.076064222 0.30100003 4285760116
0.069519147 0.076064222 0.30100003 4286019948
0.070730999 0.076316923 0.30200002 4284044102
0.072186805 0.076822333 0.30400002 4283248163
0.073174201 0.076822333 0.30400002 4282720020
0.074161589 0.076822333 0.30400002 4283635727
0.073912986 0.075558811 0.29900002 4284095249
0.074884132 0.075558811 0.29900002 4284291345
0.076108977 0.075811513 0.30000001 4284553488
0.077083379 0.075811513 0.30000001 4284750867
0.078057781 0.075811513 0.30000001 4287713351
0.079295628 0.076064222 0.30100003 4288176210
0.080273278 0.076064222 0.30100003 4284948244
0.081520863 0.076316923 0.30200002 4284946191
0.082501754 0.076316923 0.30200002 4284750097
0.083759077 0.076569624 0.303 4283897616
0.085022911 0.076822333 0.30400002 4284033315
0.086010307 0.076822333 0.30400002 4281934617
0.087283872 0.077075042 0.30500001 4286546287
0.088274516 0.077075042 0.30500001 4285890415
0.089265145 0.077075042 0.30500001 4285891187
0.090551712 0.077327751 0.30600002 4286154874
0.047532357 0.076274335 0.29800001 4279310865
0.048500262 0.076274335 0.29800001 4279244559
0.049468167 0.076274335 0.29800001 4279376145
0.050266825 0.076018386 0.29700002 4279309582
0.051231481 0.076018386 0.29700002 4279507215
0.052196138 0.076018386 0.29700002 4279901203
0.053160798 0.076018386 0.29700002 4279966737
0.053943206 0.075762428 0.296 4280162833
0.054904617 0.075762428 0.296 4280686608
0.055866025 0.075762428 0.296 4282593576
0.056827433 0.075762428 0.296 4284240454
0.057788841 0.075762428 0.296 4285622880
0.058750253 0.075762428 0.296 4284109380
0.059711657 0.075762428 0.296 4282462758
0.060673065 0.075762428 0.296 4281999640
0.061634477 0.075762428 0.296 4282326809
0.062595889 0.075762428 0.296 4282326293
0.064201459 0.076530293 0.29900002 4281998359
0.065390579 0.07678625 0.30000001 4281078286
0.066364981 0.07678625 0.30000001 4282067232
0.067339376 0.07678625 0.30000001 4284703065
0.068541497 0.077042207 0.30100003 4286348917
0.069519147 0.077042207 0.30100003 4285824624
0.070730999 0.077298157 0.30200002 4285759601
0.072186805 0.077810064 0.30400002 4285562222
0.073174201 0.077810064 0.30400002 4286021742
0.073185779 0.07678625 0.30000001 4286670684
0.073912986 0.076530293 0.29900002 4282847758
0.075134575 0.07678625 0.30000001 4283504141
0.076108977 0.07678625 0.30000001 4284226835
0.077083379 0.07678625 0.30000001 4284553488
0.078057781 0.07678625 0.30000001 4285275928
0.079032183 0.07678625 0.30000001 4288896851
0.080273278 0.077042207 0.30100003 4284881168
0.081250928 0.077042207 0.30100003 4285078547
0.082501754 0.077298157 0.30200002 4284815375
0.083759077 0.077554107 0.303 4284160275
0.085022911 0.077810064 0.30400002 4284823345
0.086010307 0.077810064 0.30400002 4286678902
0.087283872 0.078066014 0.30500001 4285825646
0.088274516 0.078066014 0.30500001 4285825394
0.089265145 0.078066014 0.30500001 4285891702
0.047532357 0.077242576 0.29800001 4279376145
0.048500262 0.077242576 0.29800001 4279244559
0.049302168 0.07698337 0.29700002 4279376145
0.050266825 0.07698337 0.29700002 4279244559
0.051231481 0.07698337 0.29700002 4279376145
0.052196138 0.07698337 0.29700002 4279770133
0.053160798 0.07698337 0.29700002 4279572754
0.054125451 0.07698337 0.29700002 4279572754
0.054904617 0.076724164 0.296 4279769363
0.055866025 0.076724164 0.296 4280821024
0.056827433 0.076724164 0.296 4282336830
0.057788841 0.076724164 0.296 4284640098
0.058750253 0.076724164 0.296 4284838501
0.059711657 0.076724164 0.296 4285035880
0.060673065 0.076724164 0.296 4285759349
0.061634477 0.076724164 0.296 4286350970
0.062595889 0.076724164 0.296 4286150761
0.064201459 0.077501781 0.29900002 4283517758
0.065390579 0.07776098 0.30000001 4281737240
0.066364981 0.07776098 0.30000001 4281999129
0.067339376 0.07776098 0.30000001 4281866773
0.068541497 0.078020185 0.30100003 4281668627
0.069519147 0.078020185 0.30100003 4280945417
0.070730999 0.078279383 0.30200002 4280683528
0.072186805 0.078797795 0.30400002 4281540121
0.072211385 0.07776098 0.30000001 4281738013
0.073185779 0.07776098 0.30000001 4281864974
0.074160181 0.07776098 0.30000001 4282717457
0.075134575 0.07776098 0.30000001 4283766800
0.076108977 0.07776098 0.30000001 4284160529
0.077083379 0.07776098 0.30000001 4284553747
0.078057781 0.07776098 0.30000001 4284619281
0.079032183 0.07776098 0.30000001 4285011986
0.080006585 0.07776098 0.30000001 4285210133
0.081250928 0.078020185 0.30100003 4285079062
0.082501754 0.078279383 0.30200002 4284487697
0.083759077 0.078538589 0.303 4284226068
0.084743224 0.078538589 0.303 4285877318
0.086010307 0.078797795 0.30400002 4285956210
0.087283872 0.079056993 0.30500001 4286154359
0.047532357 0.078210801 0.29800001 4279442451
0.048337512 0.077948347 0.29700002 4279179279
0.049302168 0.077948347 0.29700002 4279310865
0.050266825 0.077948347 0.29700002 4279179279
0.051231481 0.077948347 0.29700002 4279441938
0.052196138 0.077948347 0.29700002 4279376145
0.053160798 0.077948347 0.29700002 4279573524
0.054125451 0.077948347 0.29700002 4279376147
0.054904617 0.077685893 0.296 4279441940
0.055866025 0.077685893 0.296 4280691235
0.056827433 0.077685893 0.296 4282930250
0.057788841 0.077685893 0.296 4285233518
0.058750253 0.077685893 0.296 4284970346
0.059711657 0.077685893 0.296 4285299311
0.060673065 0.077685893 0.296 4285430897
0.061634477 0.077685893 0.296 4285628276
0.062595889 0.077685893 0.296 4285694323
0.064201459 0.078473255 0.29900002 4285496944
0.065390579 0.078735702 0.30000001 4285760116
0.066364981 0.078735702 0.30000001 4285429355
0.067339376 0.078735702 0.30000001 4282659369
0.068541497 0.078998163 0.30100003 4281735957
0.069519147 0.078998163 0.30100003 4281603088
0.070730999 0.07926061 0.30200002 4281733904
0.072186805 0.079785518 0.30400002 4281799695
0.072211385 0.078735702 0.30000001 4282391832
0.073185779 0.078735702 0.30000001 4282588438
0.074160181 0.078735702 0.30000001 4282914836
0.075134575 0.078735702 0.30000001 4283569936
0.076108977 0.078735702 0.30000001 4283767054
0.077083379 0.078735702 0.30000001 4284095249
0.078057781 0.078735702 0.30000001 4284094736
0.079032183 0.078735702 0.30000001 4284290318
0.080006585 0.078735702 0.30000001 4284684304
0.081250928 0.078998163 0.30100003 4284685333
0.082228571 0.078998163 0.30100003 4284224782
0.083482653 0.07926061 0.30200002 4283307794
0.084743224 0.079523057 0.303 4286275674
0.085727371 0.079523057 0.303 4286022775
0.048337512 0.078913331 0.29700002 4279442451
0.049302168 0.078913331 0.29700002 4279441938
0.050266825 0.078913331 0.29700002 4279112973
0.051231481 0.078913331 0.29700002 4279376145
0.052196138 0.078913331 0.29700002 4279507733
0.053160798 0.078913331 0.29700002 4279507731
0.053943206 0.078647628 0.296 4279441938
0.054904617 0.078647628 0.296 4279376145
0.055866025 0.078647628 0.296 4280889386
0.056827433 0.078647628 0.296 4283391314
0.057788841 0.078647628 0.296 4284247137
0.058750253 0.078647628 0.296 4285036655
0.059711657 0.078647628 0.296 4285234034
0.060673065 0.078647628 0.296 4285365620
0.061634477 0.078647628 0.296 4285562999
0.062595889 0.078647628 0.296 4285562997
0.064201459 0.079444736 0.29900002 4285629560
0.065390579 0.079710439 0.30000001 4285432181
0.066364981 0.079710439 0.30000001 4285628790
0.067339376 0.079710439 0.30000001 4285759862
0.068541497 0.079976141 0.30100003 4286021751
0.069519147 0.079976141 0.30100003 4283581500
0.070730999 0.080241837 0.30200002 4282064920
0.072186805 0.080773242 0.30400002 4282588951
0.072211385 0.079710439 0.30000001 4282721051
0.073185779 0.079710439 0.30000001 4282588949
0.074160181 0.079710439 0.30000001 4282652946
0.075134575 0.079710439 0.30000001 4283111182
0.076108977 0.079710439 0.30000001 4283439632
0.077083379 0.079710439 0.30000001 4283833106
0.078057781 0.079710439 0.30000001 4283701520
0.079032183 0.079710439 0.30000001 4283964179
0.080006585 0.079710439 0.30000001 4283897616
0.081250928 0.079976141 0.30100003 4284160275
0.082228571 0.079976141 0.30100003 4283831823
0.083482653 0.080241837 0.30200002 4282587414
0.084743224 0.080507539 0.303 4287267192
0.085727371 0.080507539 0.303 4286022521
0.049302168 0.079878323 0.29700002 4279376145
0.050266825 0.079878323 0.29700002 4279244559
0.051231481 0.079878323 0.29700002 4279376145
0.052196138 0.079878323 0.29700002 4279507731
0.052981801 0.079609364 0.296 4279507731
0.053943206 0.079609364 0.296 4279376145
0.072452091 0.080954127 0.30100003 4282064404
0.073185779 0.080685169 0.30000001 4282852123
0.074160181 0.080685169 0.30000001 4282456850
0.075134575 0.080685169 0.30000001 4282783760
0.076108977 0.080685169 0.30000001 4283178258
0.077083379 0.080685169 0.30000001 4283243538
0.078057781 0.080685169 0.30000001 4283177745
0.079032183 0.080685169 0.30000001 4283374354
0.080006585 0.080685169 0.30000001 4283637011
0.080980986 0.080685169 0.30000001 4283505940
0.082228571 0.080954127 0.30100003 4283638296
0.083482653 0.081223071 0.30200002 4284635210
0.084743224 0.081492022 0.303 4286349685
0.051231481 0.080843307 0.29700002 4279441938
0.05202039 0.0805711 0.296 4279441938
0.052981801 0.0805711 0.296 4279441938
0.072452091 0.081932105 0.30100003 4285496431
0.073429734 0.081932105 0.30100003 4282792238
0.074160181 0.081659898 0.30000001 4282130197
0.075134575 0.081659898 0.30000001 4282785045
0.076108977 0.081659898 0.30000001 4282719252
0.077083379 0.081659898 0.30000001 4282785045
0.078057781 0.081659898 0.30000001 4282784532
0.079032183 0.081659898 0.30000001 4283046932
0.080006585 0.081659898 0.30000001 4283047186
0.080980986 0.081659898 0.30000001 4283376667
0.081955381 0.081659898 0.30000001 4283775792
0.083482653 0.082204305 0.30200002 4286087281
0.084743224 0.082476497 0.303 4286154359
0.074160181 0.082634635 0.30000001 4286220150
0.075134575 0.082634635 0.30000001 4283910465
0.076108977 0.082634635 0.30000001 4281999642
0.077083379 0.082634635 0.30000001 4282063889
0.078057781 0.082634635 0.30000001 4282523670
0.079032183 0.082634635 0.30000001 4282655258
0.080006585 0.082634635 0.30000001 4283050786
0.080980986 0.082634635 0.30000001 4285689695
0.081955381 0.082634635 0.30000001 4286218869
0.083482653 0.083185531 0.30200002 4286154359
0.084743224 0.083460979 0.303 4286154359
0.078057781 0.083609357 0.30000001 4286416500
0.079032183 0.083609357 0.30000001 4286350453
0.080006585 0.083609357 0.30000001 4286416248
0.080980986 0.083609357 0.30000001 4286350966
0.081955381 0.083609357 0.30000001 4286285943
0.083482653 0.084166758 0.30200002 4286220152
0.084743224 0.084445447 0.303 4286285945
0.073535413 0.056522459 0.29766899 4294967295
0.073535413 0.056522459 0.29766899 4294901760
0.073535413 0.056522459 0.29816899 4294901760
0.073535413 0.056522459 0.29866898 4294901760
0.073535413 0.056522459 0.299169 4294901760
0.073535413 0.056522459 0.299669 4294901760
0.073535413 0.056522459 0.30016899 4294901760
0.073535413 0.056522459 0.30066898 4294901760
0.073535413 0.056522459 0.30116901 4294901760
0.073535413 0.056522459 0.301669 4294901760
0.073535413 0.056522459 0.302169 4294901760
0.073535413 0.056522459 0.30266899 4294901760
0.073535413 0.056522459 0.30316898 4294901760
0.073535413 0.056522459 0.30366901 4294901760
0.073535413 0.056522459 0.304169 4294901760
0.073535413 0.056522459 0.30466899 4294901760
0.073535413 0.056522459 0.30516899 4294901760
0.073535413 0.056522459 0.30566901 4294901760
0.073535413 0.056522459 0.306169 4294901760
0.073535413 0.056522459 0.306669 4294901760
0.073535413 0.056522459 0.30716899 4294901760
0.073535413 0.056522459 0.30766898 4294901760
0.073535413 0.056522459 0.30816901 4294901760
0.073535413 0.056522459 0.308669 4294901760
0.073535413 0.056522459 0.30916899 4294901760
0.073535413 0.056522459 0.30966899 4294901760
0.073535413 0.056522459 0.31016898 4294901760
0.073535413 0.056522459 0.310669 4294901760
0.073535413 0.056522459 0.311169 4294901760
0.073535413 0.056522459 0.31166899 4294901760
0.073535413 0.056522459 0.31216899 4294901760
0.073535413 0.056522459 0.31266901 4294901760
0.073535413 0.056522459 0.313169 4294901760
0.073535413 0.056522459 0.313669 4294901760
0.073535413 0.056522459 0.31416899 4294901760
0.073535413 0.056522459 0.31466901 4294901760
0.073535413 0.056522459 0.31516901 4294901760
0.073535413 0.056522459 0.315669 4294901760
0.073535413 0.056522459 0.31616899 4294901760
0.073535413 0.056522459 0.31666899 4294901760
0.073535413 0.056522459 0.31716901 4294901760
0.073535413 0.056522459 0.317669 4294901760
0.073535413 0.056522459 0.318169 4294901760
0.073535413 0.056522459 0.31866899 4294901760
0.073535413 0.056522459 0.31916898 4294901760
0.073535413 0.056522459 0.31966901 4294901760
0.073535413 0.056522459 0.320169 4294901760
0.073535413 0.056522459 0.320669 4294901760
0.073535413 0.056522459 0.32116899 4294901760
0.073535413 0.056522459 0.32166901 4294901760
0.073535413 0.056522459 0.32216901 4294901760
0.073535413 0.056522459 0.322669 4294901760
0.073535413 0.056522459 0.32316899 4294901760
0.073535413 0.056522459 0.32366899 4294901760
0.073535413 0.056522459 0.32416901 4294901760
0.073535413 0.056522459 0.324669 4294901760
0.073535413 0.056522459 0.325169 4294901760
0.073535413 0.056522459 0.32566899 4294901760
0.073535413 0.056522459 0.32616901 4294901760
0.073535413 0.056522459 0.32666901 4294901760
0.073535413 0.056522459 0.327169 4294901760
0.073535413 0.056522459 0.32766899 4294901760
0.073535413 0.056522459 0.32816899 4294901760
0.073535413 0.056522459 0.32866901 4294901760
0.073535413 0.056522459 0.32916901 4294901760
0.073535413 0.056522459 0.329669 4294901760
0.073535413 0.056522459 0.33016899 4294901760
0.073535413 0.056522459 0.33066902 4294901760
0.073535413 0.056522459 0.33116901 4294901760
0.073535413 0.056522459 0.331669 4294901760
0.073535413 0.056522459 0.332169 4294901760
0.073535413 0.056522459 0.33266899 4294901760
0.073535413 0.056522459 0.33316901 4294901760
0.073535413 0.056522459 0.33366901 4294901760
0.073535413 0.056522459 0.334169 4294901760
0.073535413 0.056522459 0.33466899 4294901760
0.073535413 0.056522459 0.33516902 4294901760
0.073535413 0.056522459 0.33566901 4294901760
0.073535413 0.056522459 0.336169 4294901760
0.073535413 0.056522459 0.336669 4294901760
0.073535413 0.056522459 0.33716899 4294901760
0.073535413 0.056522459 0.33766901 4294901760
0.073535413 0.056522459 0.33816901 4294901760
0.073535413 0.056522459 0.338669 4294901760
0.073535413 0.056522459 0.339169 4294901760
0.073535413 0.056522459 0.33966899 4294901760
0.073535413 0.056522459 0.34016901 4294901760
0.073535413 0.056522459 0.34066901 4294901760
0.073535413 0.056522459 0.341169 4294901760
0.073535413 0.056522459 0.34166899 4294901760
0.073535413 0.056522459 0.34216899 4294901760
0.073535413 0.056522459 0.34266901 4294901760
0.073535413 0.056522459 0.343169 4294901760
0.073535413 0.056522459 0.343669 4294901760
0.073535413 0.056522459 0.34416902 4294901760
0.073535413 0.056522459 0.34466901 4294901760
0.073535413 0.056522459 0.34516901 4294901760
0.073535413 0.056522459 0.345669 4294901760
0.073535413 0.056522459 0.34616899 4294901760
0.073535413 0.056522459 0.34666902 4294901760
0.073535413 0.056522459 0.34716901 4294901760
0.073535413 0.056522459 0.34766901 4294901760
0.073535413 0.056522459 0.29766899 4278255360
0.073477805 0.056462783 0.29816207 4278255360
