# .PCD v0.7 - Point Cloud Data file format
VERSION 0.7
FIELDS x y z rgb
SIZE 4 4 4 4
TYPE F F F U
COUNT 1 1 1 1
WIDTH 1039
HEIGHT 1
VIEWPOINT 0 0 0 1 0 0 0
POINTS 1039
DATA ascii
0.0064212908 0.014808287 0.38700002 4279777315
0.007678268 0.014808287 0.38700002 4279385119
0.0089583332 0.01484655 0.38800001 4278862363
0.010218557 0.01484655 0.38800001 4278797084
0.011508367 0.014884816 0.38900003 4278600984
0.01277184 0.014884816 0.38900003 4278864669
0.014071392 0.014923079 0.39000002 4278931232
0.015338113 0.014923079 0.39000002 4278800160
0.016647412 0.014961344 0.39100003 4278800673
0.01791738 0.014961344 0.39100003 4278998822
0.019236421 0.014999609 0.39200002 4279130408
0.020509636 0.014999609 0.39200002 4279064615
0.021838421 0.015037872 0.39300001 4278472991
0.023114886 0.015037872 0.39300001 4278604577
0.024453416 0.015076137 0.39400002 4278538784
0.025733128 0.015076137 0.39400002 4278472991
0.027012844 0.015076137 0.39400002 4278604318
0.028292555 0.015076137 0.39400002 4278604318
-0.0036439139 0.016107202 0.38800001 4280363553
-0.0023836892 0.016107202 0.38800001 4280627495
-0.0011176734 0.016024174 0.38600001 4280825387
0.00013605527 0.016024174 0.38600001 4280167457
0.0013897839 0.016024174 0.38600001 4280300581
0.0026435126 0.016024174 0.38600001 4280563753
0.0038972411 0.016024174 0.38600001 4280630057
0.0064212908 0.016065689 0.38700002 4280631590
0.007678268 0.016065689 0.38700002 4279385117
0.0089583332 0.016107202 0.38800001 4279058972
0.010218557 0.016107202 0.38800001 4278993949
0.011508367 0.016148716 0.38900003 4278731802
0.01277184 0.016148716 0.38900003 4278666777
0.014071392 0.016190229 0.39000002 4278930462
0.015338113 0.016190229 0.39000002 4278865439
0.016647412 0.016231744 0.39100003 4278800160
0.01791738 0.016231744 0.39100003 4278603294
0.019236421 0.016273256 0.39200002 4279129638
0.020509636 0.016273256 0.39200002 4278866468
0.021838421 0.016314769 0.39300001 4278340124
0.023114886 0.016314769 0.39300001 4278800675
0.024453416 0.016356282 0.39400002 4278603296
0.025733128 0.016356282 0.39400002 4278998054
0.027012844 0.016356282 0.39400002 4278535706
0.028292555 0.016356282 0.39400002 4279194406
0.029647322 0.016397797 0.39500001 4278537503
0.066711731 0.018099846 0.43600002 4279457326
-0.0036345224 0.017323092 0.38700002 4280430370
-0.0023836892 0.017367853 0.38800001 4280561702
-0.0011147779 0.017233565 0.38500002 4280759848
0.00013570279 0.017233565 0.38500002 4280299297
0.0013861834 0.017233565 0.38500002 4280430370
0.0026366641 0.017233565 0.38500002 4280365090
0.0038871446 0.017233565 0.38500002 4280300581
0.0051509701 0.017278329 0.38600001 4280366372
0.0064046984 0.017278329 0.38600001 4279842588
0.007678268 0.017323092 0.38700002 4279384344
0.0089583332 0.017367853 0.38800001 4279058459
0.010218557 0.017367853 0.38800001 4278993179
0.011508367 0.017412616 0.38900003 4278731289
0.01277184 0.017412616 0.38900003 4278863388
0.014071392 0.017457379 0.39000002 4278667290
0.015338113 0.017457379 0.39000002 4278930462
0.016647412 0.017502142 0.39100003 4278799648
0.01791738 0.017502142 0.39100003 4278734369
0.019236421 0.017546903 0.39200002 4278931748
0.020509636 0.017546903 0.39200002 4278800162
0.021838421 0.017591666 0.39300001 4278405404
0.023114886 0.017591666 0.39300001 4278800162
0.024453416 0.01763643 0.39400002 4278800162
0.025733128 0.01763643 0.39400002 4278404890
0.027081402 0.017681191 0.39500001 4279519269
0.028364362 0.017681191 0.39500001 4279323428
0.029647322 0.017681191 0.39500001 4278471195
0.03100859 0.017725954 0.39600003 4278865953
0.060487147 0.019337403 0.43200001 4278469913
0.061890285 0.019337403 0.43200001 4278865439
0.063439943 0.019382168 0.43300003 4278668574
0.064996079 0.019426929 0.43400002 4278602781
0.066558726 0.019471692 0.43500003 4278997027
0.06797161 0.019471692 0.43500003 4279325740
-0.0048914989 0.018580494 0.38700002 4280695335
-0.0036345224 0.018580494 0.38700002 4280232737
-0.0023652585 0.018484471 0.38500002 4280101666
-0.0011147779 0.018484471 0.38500002 4280167457
0.00013570279 0.018484471 0.38500002 4280101664
0.0013861834 0.018484471 0.38500002 4281023018
0.0026366641 0.018484471 0.38500002 4280233502
0.0038871446 0.018484471 0.38500002 4279970846
0.0051509701 0.018532483 0.38600001 4280168225
0.0064046984 0.018532483 0.38600001 4279447832
0.007678268 0.018580494 0.38700002 4279515930
0.0089583332 0.018628506 0.38800001 4279189275
0.010218557 0.018628506 0.38800001 4278992666
0.011508367 0.018676519 0.38900003 4278993947
0.01277184 0.018676519 0.38900003 4278862873
0.014071392 0.018724529 0.39000002 4278732824
0.015338113 0.018724529 0.39000002 4279061789
0.016604833 0.018724529 0.39000002 4278931232
0.01791738 0.018772542 0.39100003 4278997025
0.019236421 0.018820552 0.39200002 4279063332
0.020509636 0.018820552 0.39200002 4278734369
0.021838421 0.018868564 0.39300001 4278865953
0.023114886 0.018868564 0.39300001 4278733853
0.024453416 0.018916577 0.39400002 4278734367
0.025733128 0.018916577 0.39400002 4278931232
0.027081402 0.018964587 0.39500001 4279124252
0.028364362 0.018964587 0.39500001 4279257121
0.02972238 0.0190126 0.39600003 4278402072
0.031086894 0.01906061 0.39700001 4278199555
0.032539453 0.019156635 0.39900002 4278200073
0.034005009 0.019252658 0.40100002 4278199046
0.035483554 0.019348681 0.40300003 4278199044
0.036975093 0.019444704 0.40500003 4278198016
0.038385078 0.019492716 0.40600002 4278197248
0.039899349 0.019588739 0.40800002 4278198016
0.041325577 0.01963675 0.40900001 4278201351
0.042758297 0.019684762 0.41000003 4278197760
0.044197515 0.019732773 0.41100001 4278195712
0.047779635 0.020116867 0.41900003 4278196224
0.049375109 0.020212891 0.42100003 4278196736
0.050863042 0.020260902 0.42200002 4278196480
0.052481253 0.020356925 0.42400002 4278196224
0.054112453 0.020452948 0.42600003 4278196480
0.055756651 0.020548971 0.42800003 4278197248
0.057280317 0.020596983 0.42900002 4278196992
0.058810472 0.020644994 0.43000001 4278196992
0.060347132 0.020693006 0.43100002 4278197762
0.061890285 0.020741018 0.43200001 4278197762
0.063439943 0.020789029 0.43300003 4278929179
0.064996079 0.020837041 0.43400002 4278733083
0.066558726 0.020885052 0.43500003 4278864669
0.06797161 0.020885052 0.43500003 4278733087
0.069543988 0.020933064 0.43600002 4286029960
-0.0036345224 0.019837897 0.38700002 4280298530
-0.0023652585 0.019735375 0.38500002 4280101666
-0.0011147779 0.019735375 0.38500002 4279838494
0.00013570279 0.019735375 0.38500002 4280035871
0.0013861834 0.019735375 0.38500002 4280364577
0.0026366641 0.019735375 0.38500002 4280167198
0.0038871446 0.019735375 0.38500002 4280562469
0.0051509701 0.019786635 0.38600001 4280628260
0.0064046984 0.019786635 0.38600001 4279447832
0.007678268 0.019837897 0.38700002 4279384090
0.0089583332 0.019889157 0.38800001 4279189021
0.010218557 0.019889157 0.38800001 4278992412
0.011508367 0.019940419 0.38900003 4278862875
0.01277184 0.019940419 0.38900003 4278862873
0.014071392 0.019991679 0.39000002 4278863386
0.015338113 0.019991679 0.39000002 4278666777
0.016604833 0.019991679 0.39000002 4278996255
0.01791738 0.020042941 0.39100003 4278931232
0.01918735 0.020042941 0.39100003 4278865955
0.020509636 0.020094201 0.39200002 4278865955
0.021838421 0.020145461 0.39300001 4278931234
0.023114886 0.020145461 0.39300001 4278997027
0.024453416 0.020196723 0.39400002 4278865441
0.025733128 0.020196723 0.39400002 4278996257
0.027081402 0.020247983 0.39500001 4278198784
0.028436171 0.020299245 0.39600003 4280045354
0.02972238 0.020299245 0.39600003 4278198031
0.031086894 0.020350505 0.39700001 4278524429
0.032539453 0.020453027 0.39900002 4278655504
0.034005009 0.020555547 0.40100002 4278786320
0.035483554 0.020658068 0.40300003 4278852113
0.036975093 0.02076059 0.40500003 4278852113
0.038385078 0.02081185 0.40600002 4278589709
0.039899349 0.020914372 0.40800002 4278195202
0.041325577 0.020965632 0.40900001 4279387683
0.042758297 0.021016894 0.41000003 4279322660
0.044197515 0.021068154 0.41100001 4279059488
0.045864798 0.021221938 0.41400003 4279124511
0.0476656 0.021426979 0.41800001 4279453476
0.049257826 0.021529501 0.42000002 4279387937
0.050863042 0.021632021 0.42200002 4279124765
0.052481253 0.021734543 0.42400002 4279322914
0.054112453 0.021837065 0.42600003 4278994463
0.055626374 0.021888325 0.42700002 4278994463
0.057280317 0.021990847 0.42900002 4279191842
0.058810472 0.022042107 0.43000001 4278994463
0.060347132 0.022093369 0.43100002 4279125795
0.061890285 0.022144629 0.43200001 4279322662
0.063439943 0.022195891 0.43300003 4278928670
0.064996079 0.022247151 0.43400002 4278864669
0.066558726 0.022298412 0.43500003 4279062050
0.06797161 0.022298412 0.43500003 4279193125
0.069543988 0.022349672 0.43600002 4286160780
-0.0036251307 0.02104079 0.38600001 4280298532
-0.0023652585 0.020986279 0.38500002 4280167459
-0.0011147779 0.020986279 0.38500002 4280496424
0.00013535032 0.020931769 0.384 4280035873
0.0013861834 0.020986279 0.38500002 4279838494
0.0026435126 0.02104079 0.38600001 4280233252
0.0038972411 0.02104079 0.38600001 4280628262
0.0051509701 0.02104079 0.38600001 4281023532
0.0064212908 0.0210953 0.38700002 4279448348
0.007678268 0.0210953 0.38700002 4279056154
0.0089583332 0.021149809 0.38800001 4279058972
0.010244895 0.021204319 0.38900003 4278862363
0.011508367 0.021204319 0.38900003 4278993947
0.01277184 0.021204319 0.38900003 4278994459
0.014071392 0.021258829 0.39000002 4278929179
0.015338113 0.021258829 0.39000002 4279127328
0.016604833 0.021258829 0.39000002 4278799648
0.01791738 0.021313339 0.39100003 4278931748
0.01918735 0.021313339 0.39100003 4278865955
0.020509636 0.021367848 0.39200002 4278800162
0.021838421 0.021422358 0.39300001 4278865955
0.023114886 0.021422358 0.39300001 4279194406
0.024453416 0.021476869 0.39400002 4278864671
0.025733128 0.021476869 0.39400002 4279653676
0.027081402 0.021531377 0.39500001 4279649574
0.028436171 0.021585887 0.39600003 4279913514
0.029797435 0.021640398 0.39700001 4278525453
0.031165199 0.021694908 0.39800003 4278852365
0.032539453 0.021749416 0.39900002 4278589709
0.034005009 0.021858437 0.40100002 4279116055
0.035483554 0.021967458 0.40300003 4278985750
0.036975093 0.022076476 0.40500003 4279248152
0.038479622 0.022185495 0.40700001 4278985750
0.039899349 0.022240005 0.40800002 4278461455
0.041325577 0.022294514 0.40900001 4278796830
0.042862587 0.022403535 0.41100001 4278202894
0.044305053 0.022458045 0.41200003 4278199041
0.045864798 0.022567065 0.41400003 4278269456
0.047551569 0.022730595 0.41700003 4278201607
0.049140546 0.022839613 0.41900003 4278598419
0.050742518 0.022948634 0.42100003 4278202118
0.052357472 0.023057653 0.42300001 4278665496
0.053985428 0.023166671 0.42500001 4278666007
0.055626374 0.023275692 0.42700002 4279060765
0.057280317 0.023384711 0.42900002 4278533908
0.058810472 0.023439221 0.43000001 4278533908
0.060347132 0.023493731 0.43100002 4279192353
0.061890285 0.02354824 0.43200001 4278600216
0.063439943 0.023602752 0.43300003 4278797084
0.064996079 0.02365726 0.43400002 4278666779
0.066405714 0.02365726 0.43400002 4279193636
0.06797161 0.023711771 0.43500003 4279127843
0.069543988 0.023766281 0.43600002 4284450676
-0.0037002631 0.022757014 0.39400002 4280364838
-0.0024266939 0.022814773 0.39500001 4280561704
-0.0011118823 0.022179425 0.384 4280825387
0.00013535032 0.022179425 0.384 4280101664
0.0013897839 0.022294942 0.38600001 4280759081
0.0026435126 0.022294942 0.38600001 4281022507
0.0038972411 0.022294942 0.38600001 4281023020
0.0051643145 0.022352701 0.38700002 4281089325
0.0064212908 0.022352701 0.38700002 4279317529
0.007698108 0.02241046 0.38800001 4279254301
0.0089583332 0.02241046 0.38800001 4278993179
0.010244895 0.02246822 0.38900003 4278862363
0.011508367 0.02246822 0.38900003 4278928154
0.01277184 0.02246822 0.38900003 4278862875
0.014071392 0.022525977 0.39000002 4279127330
0.015338113 0.022525977 0.39000002 4278930464
0.016604833 0.022525977 0.39000002 4278799648
0.017871555 0.022525977 0.39000002 4279194406
0.01918735 0.022583738 0.39100003 4278865441
0.020509636 0.022641497 0.39200002 4278865441
0.021782853 0.022641497 0.39200002 4278799648
0.023114886 0.022699254 0.39300001 4278865441
0.024453416 0.022757014 0.39400002 4278930464
0.025733128 0.022757014 0.39400002 4279719467
0.027081402 0.022814773 0.39500001 4279585064
0.028436171 0.022872532 0.39600003 4278992927
0.029797435 0.022930291 0.39700001 4278263304
0.031165199 0.022988051 0.39800003 4279380760
0.032539453 0.023045808 0.39900002 4278789136
0.034005009 0.023161327 0.40100002 4278197513
0.035483554 0.023276845 0.40300003 4278921236
0.036975093 0.023392363 0.40500003 4278460171
0.038479622 0.02350788 0.40700001 4279381787
0.039899349 0.023565639 0.40800002 4278461968
0.041325577 0.023623398 0.40900001 4279453476
0.042862587 0.023738915 0.41100001 4278199820
0.044305053 0.023796676 0.41200003 4278197766
0.045864798 0.023912193 0.41400003 4278925338
0.047437534 0.024027709 0.41600001 4278992412
0.049023267 0.024143228 0.41800001 4278597908
0.050742518 0.024316506 0.42100003 4279387683
0.052357472 0.024432022 0.42300001 4278202638
0.053985428 0.02454754 0.42500001 4278202126
0.055626374 0.024663059 0.42700002 4278465298
0.057146799 0.024720818 0.42800003 4279254814
0.058810472 0.024836333 0.43000001 4278531091
0.060347132 0.024894094 0.43100002 4278796316
0.061890285 0.024951853 0.43200001 4278993695
0.063439943 0.025009612 0.43300003 4279126049
0.064996079 0.02506737 0.43400002 4278733085
0.066405714 0.02506737 0.43400002 4278930464
0.06797161 0.025125131 0.43500003 4279193636
0.069384485 0.025125131 0.43500003 4284975995
-0.0049546966 0.023915144 0.39200002 4280958257
-0.0037096546 0.024098167 0.39500001 4280628008
-0.0024328374 0.024159176 0.39600003 4280693288
-0.0011495242 0.024220183 0.39700001 4281023020
0.0001399325 0.024220183 0.39700001 4280036125
0.0013933844 0.023610104 0.38700002 4280627749
0.002650361 0.023610104 0.38700002 4280759846
0.0039073378 0.023610104 0.38700002 4280432165
0.005177659 0.023671111 0.38800001 4280826923
0.0064378832 0.023671111 0.38800001 4279514908
0.007698108 0.023671111 0.38800001 4279188762
0.0089814216 0.02373212 0.38900003 4279058972
0.010244895 0.02373212 0.38900003 4278795800
0.011508367 0.02373212 0.38900003 4278862877
0.01277184 0.02373212 0.38900003 4278929181
0.014071392 0.023793127 0.39000002 4278930464
0.015338113 0.023793127 0.39000002 4278864671
0.016604833 0.023793127 0.39000002 4278997027
0.017871555 0.023793127 0.39000002 4278997025
0.01918735 0.023854136 0.39100003 4278931232
0.020509636 0.023915144 0.39200002 4278931232
0.021782853 0.023915144 0.39200002 4278799646
0.023114886 0.023976151 0.39300001 4278799646
0.024453416 0.02403716 0.39400002 4278995744
0.025733128 0.02403716 0.39400002 4279191842
0.027081402 0.024098167 0.39500001 4279979820
0.028436171 0.024159176 0.39600003 4279716648
0.029797435 0.024220183 0.39700001 4278527246
0.031165199 0.024281193 0.39800003 4279052820
0.032621007 0.024403207 0.40000001 4279447832
0.034005009 0.024464216 0.40100002 4278195200
0.035483554 0.024586232 0.40300003 4278854929
0.036975093 0.024708249 0.40500003 4280763438
0.038479622 0.024830263 0.40700001 4280172584
0.039899349 0.024891272 0.40800002 4279448861
0.041426618 0.025013288 0.41000003 4279912233
0.042862587 0.025074296 0.41100001 4278460171
0.044305053 0.025135305 0.41200003 4278198026
0.045864798 0.025257321 0.41400003 4278989847
0.047437534 0.025379336 0.41600001 4278202895
0.049023267 0.025501352 0.41800001 4278202124
0.050621986 0.025623368 0.42000002 4278203152
0.052357472 0.025806392 0.42300001 4278400275
0.053985428 0.025928408 0.42500001 4278663447
0.055626374 0.026050424 0.42700002 4278925851
0.057146799 0.026111433 0.42800003 4278201612
0.058810472 0.026233448 0.43000001 4278200584
0.060347132 0.026294457 0.43100002 4278334482
0.061890285 0.026355464 0.43200001 4278663960
0.063439943 0.026416473 0.43300003 4279323428
0.064996079 0.02647748 0.43400002 4279061537
0.066405714 0.02647748 0.43400002 4278864673
0.06797161 0.026538489 0.43500003 4278337562
0.069384485 0.026538489 0.43500003 4286357646
-0.0049673361 0.02525305 0.39300001 4280957741
-0.0037096546 0.025381563 0.39500001 4281022507
-0.0024328374 0.025445823 0.39600003 4280693288
-0.0011466288 0.025445823 0.39600003 4280957227
0.00013958002 0.025445823 0.39600003 4280496674
0.0014005854 0.024996022 0.38900003 4280759848
0.002664058 0.024996022 0.38900003 4280825641
0.0039174343 0.024931764 0.38800001 4280432167
0.005177659 0.024931764 0.38800001 4281090608
0.0064544762 0.024996022 0.38900003 4279515678
0.0077179489 0.024996022 0.38900003 4279254303
0.0089814216 0.024996022 0.38900003 4279058970
0.010244895 0.024996022 0.38900003 4278795798
0.011537951 0.025060279 0.39000002 4278862875
0.012804672 0.025060279 0.39000002 4278929181
0.014071392 0.025060279 0.39000002 4278733085
0.015338113 0.025060279 0.39000002 4278996257
0.016604833 0.025060279 0.39000002 4278865439
0.017871555 0.025060279 0.39000002 4279062818
0.01918735 0.025124537 0.39100003 4278997025
0.020509636 0.025188792 0.39200002 4278799646
0.021782853 0.025188792 0.39200002 4278865693
0.023114886 0.02525305 0.39300001 4278734107
0.024453416 0.025317308 0.39400002 4279061535
0.025733128 0.025317308 0.39400002 4278204433
0.027081402 0.025381563 0.39500001 4279123998
0.028436171 0.025445823 0.39600003 4279452965
0.029797435 0.025510078 0.39700001 4278853644
0.031165199 0.025574338 0.39800003 4278853133
0.032539453 0.025638593 0.39900002 4278983949
0.034005009 0.025767108 0.40100002 4278786572
0.035483554 0.025895622 0.40300003 4278523916
0.036975093 0.026024137 0.40500003 4278458636
0.038479622 0.02615265 0.40700001 4278328074
0.039899349 0.026216907 0.40800002 4279908901
0.041426618 0.026345422 0.41000003 4279715367
0.042862587 0.026409678 0.41100001 4278198793
0.044412587 0.026538193 0.41300002 4279319326
0.045864798 0.026602451 0.41400003 4279255586
0.047437534 0.026730964 0.41600001 4278862623
0.049023267 0.026859477 0.41800001 4279126049
0.050621986 0.026987992 0.42000002 4279388707
0.052357472 0.027180763 0.42300001 4279388707
0.053985428 0.027309278 0.42500001 4279257121
0.055626374 0.027437793 0.42700002 4279257121
0.057280317 0.027566306 0.42900002 4279322914
0.058810472 0.027630564 0.43000001 4279585316
0.060347132 0.027694821 0.43100002 4279387937
0.061890285 0.027759077 0.43200001 4278203406
0.063439943 0.027823336 0.43300003 4279192355
0.064996079 0.027887592 0.43400002 4278995744
0.066405714 0.027887592 0.43400002 4279061539
0.06797161 0.02795185 0.43500003 4278731037
-0.0049673361 0.026529947 0.39300001 4280628776
-0.0037002631 0.026597453 0.39400002 4281219884
-0.0024266939 0.026664959 0.39500001 4281219886
-0.0011437332 0.026664959 0.39500001 4280826155
0.00013922754 0.026664959 0.39500001 4281089073
0.0014041858 0.026327427 0.39000002 4281089073
0.0026709065 0.026327427 0.39000002 4281089073
0.0039275307 0.026259923 0.38900003 4280892718
0.0051910039 0.026259923 0.38900003 4281090610
0.0064544762 0.026259923 0.38900003 4279383838
0.0077179489 0.026259923 0.38900003 4279320096
0.0089814216 0.026259923 0.38900003 4279124252
0.010271231 0.026327427 0.39000002 4279058459
0.011537951 0.026327427 0.39000002 4279454498
0.012804672 0.026327427 0.39000002 4278862873
0.014071392 0.026327427 0.39000002 4278929949
0.015338113 0.026327427 0.39000002 4279061535
0.016604833 0.026327427 0.39000002 4279062820
0.017871555 0.026327427 0.39000002 4278931232
0.01918735 0.026394935 0.39100003 4278931232
0.020509636 0.026462441 0.39200002 4278799646
0.021782853 0.026462441 0.39200002 4278536474
0.023114886 0.026529947 0.39300001 4278602521
0.024453416 0.026597453 0.39400002 4278733085
0.025733128 0.026597453 0.39400002 4278202894
0.027081402 0.026664959 0.39500001 4279518758
0.028436171 0.026732467 0.39600003 4279912746
0.029797435 0.026799971 0.39700001 4278853135
0.031165199 0.026867479 0.39800003 4279049744
0.032539453 0.026934985 0.39900002 4279049744
0.034005009 0.027069997 0.40100002 4278983951
0.035483554 0.027205011 0.40300003 4278852111
0.036975093 0.027340023 0.40500003 4278786318
0.038479622 0.027475033 0.40700001 4278459408
0.039997142 0.027610047 0.40900001 4279317279
0.041426618 0.027677553 0.41000003 4278196224
0.042862587 0.027745059 0.41100001 4278198535
0.044412587 0.027880071 0.41300002 4278197508
0.045864798 0.027947579 0.41400003 4278195968
0.047437534 0.028082591 0.41600001 4278197248
0.049140546 0.02828511 0.41900003 4278196224
0.050742518 0.028420122 0.42100003 4278196736
0.052357472 0.028555132 0.42300001 4278196480
0.053985428 0.028690146 0.42500001 4278196480
0.055626374 0.028825158 0.42700002 4278197504
0.057280317 0.028960172 0.42900002 4278199046
0.058810472 0.029027676 0.43000001 4278198788
0.060347132 0.029095184 0.43100002 4278464533
0.061890285 0.02916269 0.43200001 4278925597
0.063439943 0.029230196 0.43300003 4279060769
0.064996079 0.029297702 0.43400002 4279127332
0.066405714 0.029297702 0.43400002 4279389480
0.06797161 0.02936521 0.43500003 4281624395
0.0052043479 0.027594578 0.39000002 4280104996
0.0064544762 0.027523823 0.38900003 4279451428
0.0077179489 0.027523823 0.38900003 4279320609
0.0089814216 0.027523823 0.38900003 4279255584
0.010244895 0.027523823 0.38900003 4279124765
0.011508367 0.027523823 0.38900003 4278993947
0.01277184 0.027523823 0.38900003 4279191840
0.014035312 0.027523823 0.38900003 4279193123
0.015338113 0.027594578 0.39000002 4278996257
0.016604833 0.027594578 0.39000002 4278931234
0.017871555 0.027594578 0.39000002 4279260199
0.01918735 0.027665334 0.39100003 4278799646
0.020509636 0.027736088 0.39200002 4278799646
0.021782853 0.027736088 0.39200002 4278865439
0.023114886 0.027806843 0.39300001 4278602267
0.024453416 0.027877599 0.39400002 4278799648
0.025733128 0.027877599 0.39400002 4278469402
0.027081402 0.027948353 0.39500001 4278994209
0.028436171 0.028019112 0.39600003 4279125797
0.029797435 0.028089866 0.39700001 4279912746
0.031165199 0.028160622 0.39800003 4280372014
0.032539453 0.028231377 0.39900002 4280306221
0.034005009 0.028372888 0.40100002 4279978026
0.035483554 0.028514398 0.40300003 4280175151
0.037066389 0.028726663 0.40600002 4279649320
0.038479622 0.028797418 0.40700001 4279650603
0.039997142 0.028938929 0.40900001 4279125029
0.041426618 0.029009685 0.41000003 4279323174
0.042966876 0.029151196 0.41200003 4279718186
0.044412587 0.02922195 0.41300002 4279126049
0.045864798 0.029292706 0.41400003 4279125281
0.047437534 0.029434215 0.41600001 4278928156
0.049140546 0.029646484 0.41900003 4279125533
0.050863042 0.029858749 0.42200002 4279256349
0.052481253 0.03000026 0.42400002 4279256349
0.054112453 0.030141771 0.42600003 4279387935
0.055756651 0.030283282 0.42800003 4279387935
0.057280317 0.030354036 0.42900002 4279257119
0.058947243 0.030495547 0.43100002 4279388707
0.060347132 0.030495547 0.43100002 4279257635
0.061890285 0.030566301 0.43200001 4279191588
0.063439943 0.030637057 0.43300003 4279389219
0.064996079 0.030707812 0.43400002 4279521318
0.066405714 0.030707812 0.43400002 4279321125
0.06797161 0.030778568 0.43500003 4285963655
0.0064544762 0.028787725 0.38900003 4279320096
0.0077179489 0.028787725 0.38900003 4279320607
0.0089814216 0.028787725 0.38900003 4279189791
0.010244895 0.028787725 0.38900003 4279058459
0.011508367 0.028787725 0.38900003 4279059740
0.01277184 0.028787725 0.38900003 4278994459
0.014035312 0.028787725 0.38900003 4279193634
0.015298785 0.028787725 0.38900003 4278996255
0.016604833 0.028861728 0.39000002 4278931746
0.017871555 0.028861728 0.39000002 4278865953
0.01918735 0.028935732 0.39100003 4278800160
0.020457316 0.028935732 0.39100003 4278800160
0.021782853 0.029009737 0.39200002 4278471195
0.023114886 0.02908374 0.39300001 4278799646
0.024453416 0.029157747 0.39400002 4279127330
0.025733128 0.029157747 0.39400002 4278203148
0.027081402 0.029231749 0.39500001 4278862625
0.028364362 0.029231749 0.39500001 4278995492
0.02972238 0.029305754 0.39600003 4279062052
0.031086894 0.029379759 0.39700001 4278996259
0.032539453 0.029527768 0.39900002 4278995746
0.03392021 0.029601771 0.40000001 4278995746
0.035483554 0.029823786 0.40300003 4278732833
0.037066389 0.030045798 0.40600002 4278732833
0.038574167 0.030193808 0.40800002 4278732833
0.039997142 0.03026781 0.40900001 4279193638
0.041426618 0.030341817 0.41000003 4278602271
0.042966876 0.030489827 0.41200003 4278602269
0.044412587 0.030563829 0.41300002 4278470683
0.045864798 0.030637836 0.41400003 4278864671
0.047437534 0.030785842 0.41600001 4278996257
0.049257826 0.031081861 0.42000002 4278864671
0.050863042 0.03122987 0.42200002 4279061537
0.052605029 0.031451881 0.42500001 4278995744
0.054239478 0.03159989 0.42700002 4278535193
0.055756651 0.031673897 0.42800003 4278995744
0.057413835 0.031821903 0.43000001 4279193123
0.058947243 0.031895909 0.43100002 4279193123
0.060487147 0.031969912 0.43200001 4279258148
0.061890285 0.031969912 0.43200001 4279258148
0.063439943 0.032043919 0.43300003 4279453476
0.064996079 0.032117922 0.43400002 4279517221
0.066405714 0.032117922 0.43400002 4286421386
0.0051910039 0.030051624 0.38900003 4280106791
0.0064544762 0.030051624 0.38900003 4279451682
0.0077179489 0.030051624 0.38900003 4279517475
0.0089814216 0.030051624 0.38900003 4279123998
0.010244895 0.030051624 0.38900003 4278993179
0.011508367 0.030051624 0.38900003 4279125533
0.01277184 0.030051624 0.38900003 4279191840
0.014035312 0.030051624 0.38900003 4278995742
0.015298785 0.030051624 0.38900003 4278996255
0.016604833 0.030128878 0.39000002 4278931232
0.017871555 0.030128878 0.39000002 4279129125
0.01918735 0.030206133 0.39100003 4278800160
0.020457316 0.030206133 0.39100003 4278800160
0.021782853 0.030283384 0.39200002 4278668574
0.023114886 0.030360637 0.39300001 4278800162
0.024391351 0.030360637 0.39300001 4278931234
0.025733128 0.030437892 0.39400002 4279127843
0.027012844 0.030437892 0.39400002 4279061539
0.028364362 0.030515144 0.39500001 4279127332
0.02972238 0.030592399 0.39600003 4278931236
0.031086894 0.030669652 0.39700001 4278931236
0.032457903 0.030746907 0.39800003 4278931236
0.033835407 0.030824158 0.39900002 4278865443
0.035483554 0.031133173 0.40300003 4278733857
0.037157681 0.031442188 0.40700001 4278602271
0.038574167 0.031519443 0.40800002 4278865443
0.039997142 0.031596694 0.40900001 4278865443
0.041527659 0.031751201 0.41100001 4278865443
0.042966876 0.031828456 0.41200003 4279062052
0.044412587 0.031905707 0.41300002 4278930212
0.045864798 0.031982962 0.41400003 4279062052
0.047323503 0.032060217 0.41500002 4279061539
0.049375109 0.032523736 0.42100003 4279127078
0.050983571 0.032678243 0.42300001 4279192101
0.052605029 0.032832749 0.42500001 4278863136
0.054239478 0.032987259 0.42700002 4279191588
0.055886921 0.033141766 0.42900002 4278862623
0.057413835 0.033219017 0.43000001 4279124261
0.058947243 0.033296272 0.43100002 4280044082
0.060487147 0.033373524 0.43200001 4282148175
0.062033553 0.033450779 0.43300003 4284778614
0.063439943 0.033450779 0.43300003 4286290570
0.064996079 0.033528034 0.43400002 4285830019
0.0014041858 0.031396028 0.39000002 4283789415
0.0026709065 0.031396028 0.39000002 4280302123
0.0039376272 0.031396028 0.39000002 4279843110
0.0051910039 0.031315524 0.38900003 4279448865
0.0064544762 0.031315524 0.38900003 4279713316
0.0077179489 0.031315524 0.38900003 4279516451
0.0089814216 0.031315524 0.38900003 4279254816
0.010244895 0.031315524 0.38900003 4279452193
0.011508367 0.031315524 0.38900003 4279519521
0.01277184 0.031315524 0.38900003 4279454498
0.014035312 0.031315524 0.38900003 4279126560
0.015298785 0.031315524 0.38900003 4279258146
0.016604833 0.031396028 0.39000002 4279325222
0.017871555 0.031396028 0.39000002 4278997029
0.01918735 0.031476531 0.39100003 4278733857
0.020457316 0.031476531 0.39100003 4278799650
0.021782853 0.031557031 0.39200002 4279062822
0.023114886 0.031637534 0.39300001 4278602271
0.024391351 0.031637534 0.39300001 4278930466
0.025733128 0.031718038 0.39400002 4278929953
0.027012844 0.031718038 0.39400002 4278929699
0.028364362 0.031798538 0.39500001 4279061285
0.02972238 0.031879045 0.39600003 4279193125
0.031086894 0.031959545 0.39700001 4279127332
0.032457903 0.032040048 0.39800003 4279323941
0.033835407 0.032120552 0.39900002 4279192355
0.035483554 0.032442562 0.40300003 4279060515
0.037157681 0.032764569 0.40700001 4278797343
0.038574167 0.032845076 0.40800002 4278863136
0.039997142 0.032925576 0.40900001 4279126308
0.041527659 0.033086583 0.41100001 4279257383
0.042966876 0.033167087 0.41200003 4279322922
0.044412587 0.033247586 0.41300002 4279519787
0.045864798 0.03332809 0.41400003 4279848752
0.047323503 0.033408593 0.41500002 4279648807
0.049375109 0.033891611 0.42100003 4279846186
0.050983571 0.034052614 0.42300001 4281359942
0.052605029 0.034213617 0.42500001 4284779381
0.054239478 0.034374624 0.42700002 4286028681
0.055886921 0.034535628 0.42900002 4286555027
0.057413835 0.034616131 0.43000001 4286291083
0.058947243 0.034696635 0.43100002 4285896325
0.060487147 0.034777138 0.43200001 4285764739
0.062033553 0.034857642 0.43300003 4285896325
0.010244895 0.032579426 0.38900003 4279450408
0.011508367 0.032579426 0.38900003 4279319844
0.01277184 0.032579426 0.38900003 4279386150
0.014035312 0.032579426 0.38900003 4279518506
0.015298785 0.032579426 0.38900003 4279190054
0.016604833 0.032663178 0.39000002 4279782959
0.017871555 0.032663178 0.39000002 4279453994
0.01918735 0.03274693 0.39100003 4279782959
0.020457316 0.03274693 0.39100003 4279782959
0.021782853 0.032830682 0.39200002 4279980338
0.023114886 0.03291443 0.39300001 4279716396
0.024391351 0.03291443 0.39300001 4279519019
0.025667815 0.03291443 0.39300001 4279715883
0.027012844 0.032998186 0.39400002 4279912492
0.028364362 0.033081934 0.39500001 4280044080
0.02972238 0.033165686 0.39600003 4279977774
0.031086894 0.033249438 0.39700001 4280437555
0.032457903 0.03333319 0.39800003 4280569911
0.033835407 0.033416942 0.39900002 4281359429
0.035483554 0.03375195 0.40300003 4281885773
0.037157681 0.034086954 0.40700001 4282938461
0.038574167 0.03417071 0.40800002 4283398242
0.039997142 0.034254458 0.40900001 4284187504
0.041527659 0.034421962 0.41100001 4284450676
0.042966876 0.034505714 0.41200003 4285963915
0.044412587 0.034589466 0.41300002 4286424720
0.045864798 0.034673218 0.41400003 4286950550
0.047323503 0.03475697 0.41500002 4286423952
0.049375109 0.035259482 0.42100003 4286094987
0.050983571 0.035426982 0.42300001 4286160267
0.052605029 0.035594486 0.42500001 4286356876
0.054239478 0.03576199 0.42700002 4286422669
0.055886921 0.035929494 0.42900002 4286290570
0.057413835 0.036013246 0.43000001 4286027398
0.058947243 0.036096998 0.43100002 4286027398
0.028770005 0.024201641 0.40225706 4294967295
0.028770005 0.024201641 0.40225706 4294901760
0.028823448 0.023704568 0.40226498 4294901760
0.028876889 0.023207495 0.40227288 4294901760
0.028930333 0.022710422 0.40228081 4294901760
0.028983776 0.022213351 0.40228873 4294901760
0.029037217 0.021716278 0.40229663 4294901760
0.02909066 0.021219205 0.40230456 4294901760
0.029144103 0.020722132 0.40231249 4294901760
0.029197544 0.020225059 0.40232038 4294901760
0.029250987 0.019727986 0.40232831 4294901760
0.02930443 0.019230913 0.40233624 4294901760
0.029357871 0.01873384 0.40234414 4294901760
0.029411314 0.018236769 0.40235206 4294901760
0.029464757 0.017739696 0.40235996 4294901760
0.029518198 0.017242623 0.40236789 4294901760
0.029571641 0.016745551 0.40237582 4294901760
0.029625084 0.016248479 0.40238371 4294901760
0.029678525 0.015751407 0.40239164 4294901760
0.029731968 0.015254333 0.40239957 4294901760
0.029785411 0.01475726 0.40240747 4294901760
0.029838853 0.014260187 0.40241539 4294901760
0.029892296 0.013763115 0.40242332 4294901760
0.029945739 0.013266042 0.40243122 4294901760
0.02999918 0.012768969 0.40243915 4294901760
0.030052623 0.012271897 0.40244707 4294901760
0.030106066 0.011774824 0.40245497 4294901760
0.030159507 0.011277752 0.4024629 4294901760
0.03021295 0.010780678 0.40247083 4294901760
0.030266393 0.010283606 0.40247872 4294901760
0.030319834 0.0097865341 0.40248665 4294901760
0.030373277 0.0092894603 0.40249458 4294901760
0.03042672 0.0087923883 0.40250248 4294901760
0.030480161 0.0082953162 0.4025104 4294901760
0.030533604 0.0077982415 0.4025183 4294901760
0.030587047 0.0073011704 0.40252623 4294901760
0.030640488 0.0068040974 0.40253416 4294901760
0.030693932 0.0063070245 0.40254205 4294901760
0.030747375 0.0058099516 0.40254998 4294901760
0.030800816 0.0053128786 0.40255791 4294901760
0.030854259 0.0048158076 0.40256581 4294901760
0.030907702 0.0043187328 0.40257373 4294901760
0.030961145 0.0038216617 0.40258166 4294901760
0.031014586 0.0033245888 0.40258956 4294901760
0.031068029 0.0028275158 0.40259749 4294901760
0.03112147 0.0023304429 0.40260541 4294901760
0.031174913 0.0018333718 0.40261331 4294901760
0.031228356 0.001336297 0.40262124 4294901760
0.031281799 0.00083922595 0.40262917 4294901760
0.031335242 0.00034215301 0.40263706 4294901760
0.031388681 -0.00015491992 0.40264499 4294901760
0.031442124 -0.00065199286 0.40265292 4294901760
0.031495567 -0.0011490658 0.40266082 4294901760
0.03154901 -0.0016461369 0.40266874 4294901760
0.031602453 -0.0021432098 0.40267664 4294901760
0.031655896 -0.0026402846 0.40268457 4294901760
0.031709336 -0.0031373575 0.4026925 4294901760
0.031762779 -0.0036344286 0.40270039 4294901760
0.031816222 -0.0041315015 0.40270832 4294901760
0.031869665 -0.0046285726 0.40271625 4294901760
0.031923108 -0.0051256455 0.40272415 4294901760
0.031976551 -0.0056227203 0.40273207 4294901760
0.03202999 -0.0061197933 0.40274 4294901760
0.032083433 -0.0066168644 0.4027479 4294901760
0.032136876 -0.0071139392 0.40275583 4294901760
0.032190319 -0.0076110084 0.40276375 4294901760
0.032243762 -0.0081080813 0.40277165 4294901760
0.032297205 -0.008605158 0.40277958 4294901760
0.032350644 -0.0091022309 0.40278751 4294901760
0.032404087 -0.0095993001 0.4027954 4294901760
0.03245753 -0.010096373 0.40280333 4294901760
0.032510974 -0.010593446 0.40281123 4294901760
0.032564417 -0.011090519 0.40281916 4294901760
0.03261786 -0.011587592 0.40282708 4294901760
0.032671303 -0.012084665 0.40283498 4294901760
0.032724742 -0.012581738 0.40284291 4294901760
0.032778185 -0.013078811 0.40285084 4294901760
0.032831628 -0.013575884 0.40285873 4294901760
0.032885071 -0.014072953 0.40286666 4294901760
0.032938514 -0.014570026 0.40287459 4294901760
0.032991953 -0.015067102 0.40288249 4294901760
0.033045396 -0.015564175 0.40289041 4294901760
0.033098839 -0.016061245 0.40289834 4294901760
0.033152282 -0.016558317 0.40290624 4294901760
0.033205725 -0.01705539 0.40291417 4294901760
0.033259168 -0.017552463 0.40292209 4294901760
0.033312611 -0.018049536 0.40292999 4294901760
0.033366051 -0.018546609 0.40293792 4294901760
0.033419494 -0.019043682 0.40294585 4294901760
0.033472937 -0.019540755 0.40295374 4294901760
0.03352638 -0.020037828 0.40296167 4294901760
0.033579823 -0.020534897 0.4029696 4294901760
0.033633262 -0.021031974 0.4029775 4294901760
0.033686705 -0.021529047 0.40298542 4294901760
0.033740148 -0.02202612 0.40299332 4294901760
0.033793591 -0.022523189 0.40300125 4294901760
0.033847034 -0.023020262 0.40300918 4294901760
0.033900477 -0.023517335 0.40301707 4294901760
0.03395392 -0.024014411 0.403025 4294901760
0.034007359 -0.024511481 0.40303293 4294901760
0.034060802 -0.025008554 0.40304083 4294901760
0.034114245 -0.025505627 0.40304875 4294901760
0.028770005 0.024201641 0.40225706 4278255360
0.029161835 0.024248658 0.40256408 4278255360
0.029553665 0.024295675 0.40287107 4278255360
0.029945495 0.024342693 0.4031781 4278255360
0.030337324 0.02438971 0.40348512 4278255360
0.030729154 0.024436727 0.40379214 4278255360
0.031120984 0.024483744 0.40409917 4278255360
0.031512812 0.024530761 0.40440616 4278255360
0.031904642 0.024577778 0.40471318 4278255360
0.032296471 0.024624797 0.40502021 4278255360
0.032688301 0.024671813 0.4053272 4278255360
0.033080131 0.02471883 0.40563422 4278255360
0.033471961 0.024765847 0.40594125 4278255360
0.03386379 0.024812864 0.40624827 4278255360
0.03425562 0.024859881 0.40655529 4278255360
0.03464745 0.0249069 0.40686229 4278255360
0.03503928 0.024953917 0.40716931 4278255360
0.035431109 0.025000934 0.40747634 4278255360
0.035822939 0.02504795 0.40778333 4278255360
0.036214769 0.025094967 0.40809035 4278255360
0.036606599 0.025141984 0.40839738 4278255360
0.036998428 0.025189003 0.4087044 4278255360
0.037390258 0.02523602 0.40901142 4278255360
0.037782088 0.025283037 0.40931842 4278255360
0.038173918 0.025330054 0.40962544 4278255360
0.038565747 0.025377071 0.40993246 4278255360
0.038957577 0.025424087 0.41023946 4278255360
0.039349407 0.025471106 0.41054648 4278255360
0.039741237 0.025518123 0.41085351 4278255360
0.040133066 0.02556514 0.41116053 4278255360
0.040524896 0.025612157 0.41146755 4278255360
0.040916726 0.025659174 0.41177455 4278255360
0.041308556 0.025706191 0.41208157 4278255360
0.041700386 0.025753209 0.41238859 4278255360
0.042092215 0.025800226 0.41269559 4278255360
0.042484045 0.025847243 0.41300261 4278255360
0.042875875 0.02589426 0.41330963 4278255360
0.043267705 0.025941277 0.41361666 4278255360
0.043659534 0.025988294 0.41392368 4278255360
0.044051364 0.026035313 0.41423067 4278255360
0.044443194 0.026082329 0.4145377 4278255360
0.044835024 0.026129346 0.41484472 4278255360
0.04522685 0.026176363 0.41515172 4278255360
0.045618683 0.02622338 0.41545874 4278255360
0.046010509 0.026270397 0.41576576 4278255360
0.046402343 0.026317416 0.41607279 4278255360
0.046794169 0.026364433 0.41637981 4278255360
0.047186002 0.02641145 0.4166868 4278255360
0.047577828 0.026458466 0.41699383 4278255360
0.047969662 0.026505483 0.41730085 4278255360
0.048361488 0.026552502 0.41760784 4278255360
0.048753321 0.026599519 0.41791487 4278255360
0.049145147 0.026646536 0.41822189 4278255360
0.049536977 0.026693553 0.41852891 4278255360
0.049928807 0.02674057 0.41883594 4278255360
0.05032064 0.026787587 0.41914293 4278255360
0.050712466 0.026834603 0.41944996 4278255360
0.0511043 0.026881622 0.41975698 4278255360
0.051496126 0.026928639 0.42006397 4278255360
0.051887956 0.026975656 0.420371 4278255360
0.052279785 0.027022673 0.42067802 4278255360
0.052671619 0.02706969 0.42098504 4278255360
0.053063445 0.027116708 0.42129207 4278255360
0.053455275 0.027163725 0.42159906 4278255360
0.053847104 0.027210742 0.42190608 4278255360
0.054238934 0.027257759 0.42221311 4278255360
0.054630764 0.027304776 0.4225201 4278255360
0.055022597 0.027351793 0.42282712 4278255360
0.055414423 0.027398812 0.42313415 4278255360
0.055806253 0.027445829 0.42344117 4278255360
0.056198083 0.027492845 0.4237482 4278255360
0.056589913 0.027539862 0.42405519 4278255360
0.056981742 0.027586879 0.42436221 4278255360
0.057373572 0.027633898 0.42466924 4278255360
0.057765402 0.027680915 0.42497623 4278255360
0.058157232 0.027727932 0.42528325 4278255360
0.058549061 0.027774949 0.42559028 4278255360
0.058940891 0.027821966 0.4258973 4278255360
0.059332721 0.027868982 0.42620432 4278255360
0.059724551 0.027915999 0.42651132 4278255360
0.06011638 0.027963018 0.42681834 4278255360
0.060508206 0.028010035 0.42712536 4278255360
0.06090004 0.028057052 0.42743236 4278255360
0.061291866 0.028104069 0.42773938 4278255360
0.061683699 0.028151086 0.42804641 4278255360
0.062075533 0.028198104 0.42835343 4278255360
0.062467359 0.028245121 0.42866045 4278255360
0.062859185 0.028292138 0.42896745 4278255360
0.063251019 0.028339155 0.42927447 4278255360
0.063642845 0.028386172 0.42958149 4278255360
0.064034678 0.028433189 0.42988849 4278255360
0.064426504 0.028480206 0.43019551 4278255360
0.064818338 0.028527224 0.43050253 4278255360
0.065210164 0.028574241 0.43080956 4278255360
0.065601997 0.028621258 0.43111658 4278255360
0.065993823 0.028668275 0.43142357 4278255360
0.066385657 0.028715292 0.4317306 4278255360
0.066777483 0.028762311 0.43203762 4278255360
0.067169316 0.028809328 0.43234462 4278255360
0.067561142 0.028856345 0.43265164 4278255360
0.067952976 0.028903361 0.43295866 4278255360
0.028770005 0.024201641 0.40225706 4278190335
0.028615063 0.024192553 0.40273234 4278190335
0.028460119 0.024183463 0.40320766 4278190335
0.028305177 0.024174375 0.40368295 4278190335
0.028150233 0.024165288 0.40415826 4278190335
0.02799529 0.0241562 0.40463355 4278190335
0.027840346 0.02414711 0.40510887 4278190335
0.027685404 0.024138022 0.40558416 4278190335
0.02753046 0.024128934 0.40605944 4278190335
0.027375517 0.024119845 0.40653476 4278190335
0.027220573 0.024110757 0.40701005 4278190335
0.027065631 0.024101669 0.40748537 4278190335
0.026910687 0.024092581 0.40796065 4278190335
0.026755745 0.024083491 0.40843594 4278190335
0.0266008 0.024074404 0.40891126 4278190335
0.026445858 0.024065316 0.40938655 4278190335
0.026290914 0.024056228 0.40986186 4278190335
0.026135972 0.024047138 0.41033715 4278190335
0.025981028 0.02403805 0.41081247 4278190335
0.025826085 0.024028962 0.41128775 4278190335
0.025671143 0.024019873 0.41176304 4278190335
0.025516199 0.024010785 0.41223836 4278190335
0.025361255 0.024001697 0.41271365 4278190335
0.025206313 0.023992609 0.41318896 4278190335
0.02505137 0.02398352 0.41366425 4278190335
0.024896426 0.023974432 0.41413957 4278190335
0.024741484 0.023965344 0.41461486 4278190335
0.02458654 0.023956254 0.41509014 4278190335
0.024431597 0.023947166 0.41556546 4278190335
0.024276653 0.023938078 0.41604075 4278190335
0.024121711 0.023928991 0.41651607 4278190335
0.023966767 0.023919901 0.41699135 4278190335
0.023811825 0.023910813 0.41746664 4278190335
0.02365688 0.023901725 0.41794196 4278190335
0.023501938 0.023892635 0.41841725 4278190335
0.023346994 0.023883548 0.41889256 4278190335
0.023192052 0.02387446 0.41936785 4278190335
0.02303711 0.023865372 0.41984317 4278190335
0.022882165 0.023856282 0.42031845 4278190335
0.022727221 0.023847194 0.42079374 4278190335
0.022572279 0.023838107 0.42126906 4278190335
0.022417337 0.023829019 0.42174435 4278190335
0.022262393 0.023819929 0.42221966 4278190335
0.022107448 0.023810841 0.42269495 4278190335
0.021952506 0.023801753 0.42317027 4278190335
0.021797564 0.023792664 0.42364556 4278190335
0.02164262 0.023783576 0.42412084 4278190335
0.021487677 0.023774488 0.42459616 4278190335
0.021332733 0.0237654 0.42507145 4278190335
0.021177791 0.02375631 0.42554677 4278190335
0.021022847 0.023747222 0.42602205 4278190335
0.020867905 0.023738135 0.42649734 4278190335
0.020712961 0.023729045 0.42697266 4278190335
0.020558018 0.023719957 0.42744794 4278190335
0.020403074 0.023710869 0.42792326 4278190335
0.020248132 0.023701781 0.42839855 4278190335
0.020093188 0.023692692 0.42887384 4278190335
0.019938245 0.023683604 0.42934915 4278190335
0.019783303 0.023674516 0.42982444 4278190335
0.019628359 0.023665428 0.43029976 4278190335
0.019473415 0.023656338 0.43077505 4278190335
0.019318473 0.023647251 0.43125036 4278190335
0.01916353 0.023638163 0.43172565 4278190335
0.019008586 0.023629073 0.43220094 4278190335
0.018853642 0.023619985 0.43267626 4278190335
0.0186987 0.023610897 0.43315154 4278190335
0.018543757 0.023601808 0.43362686 4278190335
0.018388813 0.02359272 0.43410215 4278190335
0.018233869 0.023583632 0.43457747 4278190335
0.018078927 0.023574544 0.43505275 4278190335
0.017923985 0.023565454 0.43552804 4278190335
0.017769042 0.023556367 0.43600336 4278190335
0.017614096 0.023547279 0.43647864 4278190335
0.017459154 0.023538191 0.43695396 4278190335
0.017304212 0.023529101 0.43742925 4278190335
0.01714927 0.023520013 0.43790454 4278190335
0.016994325 0.023510925 0.43837985 4278190335
0.016839381 0.023501836 0.43885514 4278190335
0.016684439 0.023492748 0.43933046 4278190335
0.016529497 0.02348366 0.43980575 4278190335
0.016374553 0.023474572 0.44028106 4278190335
0.016219608 0.023465483 0.44075635 4278190335
0.016064666 0.023456395 0.44123164 4278190335
0.015909724 0.023447307 0.44170696 4278190335
0.015754782 0.023438219 0.44218224 4278190335
0.015599837 0.023429129 0.44265756 4278190335
0.015444893 0.023420041 0.44313285 4278190335
0.01528995 0.023410954 0.44360816 4278190335
0.015135007 0.023401864 0.44408345 4278190335
0.014980065 0.023392776 0.44455874 4278190335
0.014825121 0.023383688 0.44503406 4278190335
0.014670177 0.023374598 0.44550934 4278190335
0.014515234 0.023365511 0.44598466 4278190335
0.014360292 0.023356423 0.44645995 4278190335
0.014205349 0.023347335 0.44693524 4278190335
0.014050405 0.023338245 0.44741055 4278190335
0.013895462 0.023329157 0.44788584 4278190335
0.013740518 0.02332007 0.44836116 4278190335
0.013585576 0.023310982 0.44883645 4278190335
0.013430633 0.023301892 0.44931176 4278190335
0.013275689 0.023292804 0.44978705 4278190335
0.028770005 0.024201641 0.40225706 4294967295
0.029699665 0.024256172 0.39940524 4294967295
0.030629324 0.024310701 0.39655346 4294967295
0.031558983 0.024365231 0.39370164 4294967295
0.03248864 0.024419762 0.39084986 4294967295
0.033418301 0.024474293 0.38799804 4294967295
0.034347959 0.024528822 0.38514626 4294967295
0.03527762 0.024583353 0.38229445 4294967295
0.036207277 0.024637884 0.37944266 4294967295
0.037136935 0.024692412 0.37659085 4294967295
0.038066596 0.024746943 0.37373906 4294967295
0.038996253 0.024801474 0.37088725 4294967295
0.039925911 0.024856003 0.36803547 4294967295
0.040855572 0.024910534 0.36518365 4294967295
0.041785233 0.024965065 0.36233187 4294967295
0.04271489 0.025019595 0.35948005 4294967295
0.043644547 0.025074124 0.35662827 4294967295
0.044574209 0.025128655 0.35377645 4294967295
0.045503866 0.025183186 0.35092467 4294967295
0.046433523 0.025237715 0.34807286 4294967295
0.047363184 0.025292246 0.34522107 4294967295
0.048292842 0.025346776 0.34236926 4294967295
0.049222499 0.025401305 0.33951747 4294967295
0.05015216 0.025455836 0.33666566 4294967295
0.051081821 0.025510367 0.33381385 4294967295
0.052011479 0.025564898 0.33096206 4294967295
0.052941136 0.025619427 0.32811028 4294967295
0.053870797 0.025673958 0.32525846 4294967295
0.054800458 0.025728488 0.32240665 4294967295
0.055730112 0.025783017 0.31955487 4294967295
0.056659773 0.025837548 0.31670305 4294967295
0.057589434 0.025892079 0.31385127 4294967295
0.058519091 0.025946608 0.31099945 4294967295
0.059448749 0.026001139 0.30814767 4294967295
0.06037841 0.026055669 0.30529585 4294967295
0.061308071 0.026110198 0.30244407 4294967295
0.062237725 0.026164729 0.29959226 4294967295
0.063167386 0.02621926 0.29674047 4294967295
0.064097047 0.026273791 0.29388866 4294967295
0.0650267 0.02632832 0.29103687 4294967295
0.065956362 0.02638285 0.28818506 4294967295
0.066886023 0.026437381 0.28533328 4294967295
0.067815676 0.02649191 0.28248146 4294967295
0.068745337 0.026546441 0.27962965 4294967295
0.069674999 0.026600972 0.27677786 4294967295
0.07060466 0.026655503 0.27392608 4294967295
0.071534321 0.026710032 0.27107427 4294967295
0.072463974 0.026764562 0.26822245 4294967295
0.073393635 0.026819093 0.26537067 4294967295
0.074323297 0.026873622 0.26251888 4294967295
0.07525295 0.026928153 0.25966707 4294967295
0.076182611 0.026982684 0.25681525 4294967295
0.077112265 0.027037213 0.25396347 4294967295
0.078041926 0.027091743 0.25111169 4294967295
0.078971587 0.027146274 0.24825986 4294967295
0.079901248 0.027200803 0.24540807 4294967295
0.080830909 0.027255334 0.24255627 4294967295
0.081760563 0.027309865 0.23970447 4294967295
0.082690224 0.027364396 0.23685268 4294967295
0.083619878 0.027418924 0.23400088 4294967295
0.084549546 0.027473455 0.23114906 4294967295
0.0854792 0.027527986 0.22829726 4294967295
0.086408861 0.027582515 0.22544546 4294967295
0.087338515 0.027637046 0.22259368 4294967295
0.088268176 0.027691577 0.21974188 4294967295
0.089197837 0.027746106 0.21689008 4294967295
0.090127498 0.027800636 0.21403827 4294967295
0.091057159 0.027855167 0.21118647 4294967295
0.091986813 0.027909698 0.20833467 4294967295
0.092916474 0.027964227 0.20548287 4294967295
0.093846135 0.028018758 0.20263107 4294967295
0.094775788 0.028073289 0.19977929 4294967295
0.09570545 0.028127819 0.19692747 4294967295
0.096635111 0.028182348 0.19407567 4294967295
