# .PCD v0.7 - Point Cloud Data file format
VERSION 0.7
FIELDS x y z rgb
SIZE 4 4 4 4
TYPE F F F U
COUNT 1 1 1 1
WIDTH 1026
HEIGHT 1
VIEWPOINT 0 0 0 1 0 0 0
POINTS 1026
DATA ascii
-0.042448826 0.028662933 0.597 4284970337
-0.040509768 0.028662933 0.597 4285169259
-0.038635325 0.028710946 0.59800005 4288458911
-0.036693018 0.028710946 0.59800005 4287207562
-0.042235516 0.030448865 0.59400004 4280628010
-0.040306207 0.030448865 0.59400004 4280628271
-0.034518264 0.030448865 0.59400004 4280825136
-0.032369498 0.030243823 0.59000003 4279970594
-0.053539623 0.032215301 0.59100002 4283193674
-0.034343928 0.032215301 0.59100002 4280101413
-0.032314636 0.032106284 0.58900005 4280036385
-0.030246714 0.031942751 0.58600003 4280565036
-0.028295018 0.031888243 0.58500004 4279781928
-0.026394937 0.031888243 0.58500004 4279323174
-0.024452986 0.031833734 0.58400005 4279455791
-0.022517527 0.031779222 0.583 4284125811
-0.020623941 0.031779222 0.583 4279388717
-0.018698229 0.031724714 0.58200002 4279257131
-0.059298329 0.03413552 0.59100002 4283325771
-0.043867424 0.034077764 0.59000003 4280562215
-0.034227706 0.034020003 0.58900005 4279575836
-0.03225977 0.033962242 0.588 4279773467
-0.030246714 0.033846725 0.58600003 4279446551
-0.028295018 0.033788968 0.58500004 4279190556
-0.026349816 0.033731211 0.58400005 4278994461
-0.024452986 0.033731211 0.58400005 4278667292
-0.022517527 0.033673447 0.583 4278864671
-0.020588567 0.03361569 0.58200002 4278667292
-0.018698229 0.03361569 0.58200002 4278535708
-0.016779013 0.033557933 0.58100003 4278732833
-0.034169592 0.035872713 0.588 4279773467
-0.032204907 0.035811707 0.58700001 4279774237
-0.030246714 0.035750698 0.58600003 4279841309
-0.028295018 0.035689693 0.58500004 4279320859
-0.026349816 0.035628684 0.58400005 4278862361
-0.024452986 0.035628684 0.58400005 4278732572
-0.022517527 0.035567675 0.583 4278535193
-0.020588567 0.035506666 0.58200002 4278404120
-0.018666102 0.03544566 0.58100003 4278404120
-0.016750135 0.035384651 0.58000004 4278469400
-0.014815029 0.035262633 0.57800001 4278535193
-0.012915301 0.035201628 0.57700002 4278600986
-0.011022069 0.035140619 0.57600003 4278666779
-0.0091512194 0.035140619 0.57600003 4278600988
-0.043718718 0.037783187 0.588 4279840030
-0.036079418 0.037783187 0.588 4280826155
-0.034169592 0.037783187 0.588 4279510041
-0.032204907 0.037718933 0.58700001 4279642649
-0.030246714 0.037654676 0.58600003 4279710750
-0.028295018 0.037590418 0.58500004 4278861078
-0.026349816 0.037526164 0.58400005 4278862361
-0.024411112 0.037461903 0.583 4278863388
-0.022478905 0.037397645 0.58200002 4278666009
-0.020553192 0.037333392 0.58100003 4278731802
-0.018633975 0.037269134 0.58000004 4278600216
-0.016721256 0.037204877 0.57900006 4278600216
-0.014815029 0.037140619 0.57800001 4278666009
-0.012915301 0.037076361 0.57700002 4278731289
-0.011022069 0.037012104 0.57600003 4278203411
-0.0091512194 0.037012104 0.57600003 4278467351
-0.0072677312 0.03694785 0.57500005 4278665496
-0.0054001305 0.03694785 0.57500005 4278665496
-0.043793075 0.039761171 0.58900005 4280432167
-0.036079418 0.039693661 0.588 4280826155
-0.034169592 0.039693661 0.588 4279904285
-0.032204907 0.039626155 0.58700001 4279905821
-0.030246714 0.039558649 0.58600003 4279973922
-0.028295018 0.039491143 0.58500004 4279123482
-0.026349816 0.039423637 0.58400005 4278927384
-0.024411112 0.039356127 0.583 4278797082
-0.022478905 0.039288625 0.58200002 4278731289
-0.020553192 0.039221119 0.58100003 4278731289
-0.018633975 0.039153613 0.58000004 4278797082
-0.016721256 0.039086107 0.57900006 4278666009
-0.014815029 0.039018597 0.57800001 4278666009
-0.012915301 0.038951091 0.57700002 4278665496
-0.011022069 0.038883585 0.57600003 4278333712
-0.0091512194 0.038883585 0.57600003 4278795033
-0.0072677312 0.038816083 0.57500005 4279058972
-0.0054001305 0.038816083 0.57500005 4278334736
-0.0035325291 0.038816083 0.57500005 4279584033
-0.001664928 0.038816083 0.57500005 4279058459
0.00020267301 0.038816083 0.57500005 4279519523
0.002070274 0.038816083 0.57500005 4278533396
0.0039447234 0.038883585 0.57600003 4278796568
0.0058155726 0.038883585 0.57600003 4278665496
0.0076864217 0.038883585 0.57600003 4278665496
0.0095572704 0.038883585 0.57600003 4278533910
0.01142812 0.038883585 0.57600003 4278533910
0.013298969 0.038883585 0.57600003 4278600216
0.015169818 0.038883585 0.57600003 4278402837
0.017011084 0.038816083 0.57500005 4278666009
0.018878685 0.038816083 0.57500005 4278468630
0.020710202 0.038748574 0.574 4278731804
0.022574555 0.038748574 0.574 4278731804
0.024438908 0.038748574 0.574 4278797595
0.026257439 0.038681068 0.57300001 4278797595
0.028118543 0.038681068 0.57300001 4279192353
0.029979646 0.038681068 0.57300001 4279126560
0.031840753 0.038681068 0.57300001 4279323426
0.033701856 0.038681068 0.57300001 4279783977
0.035562962 0.038681068 0.57300001 4279586600
-0.043793075 0.04167489 0.58900005 4280103202
-0.034169592 0.041604131 0.588 4280101151
-0.032204907 0.041533377 0.58700001 4279905821
-0.030246714 0.041462623 0.58600003 4279711004
-0.028295018 0.041391868 0.58500004 4279058459
-0.026349816 0.041321114 0.58400005 4279124763
-0.024411112 0.041250356 0.583 4278862875
-0.022478905 0.041179601 0.58200002 4278665496
-0.020553192 0.041108847 0.58100003 4278731289
-0.018633975 0.041038092 0.58000004 4278731289
-0.016692374 0.04089658 0.57800001 4278666009
-0.014789398 0.040825825 0.57700002 4278666009
-0.012915301 0.040825825 0.57700002 4279059738
-0.011022069 0.040755071 0.57600003 4278199044
-0.0091512194 0.040755071 0.57600003 4279254816
-0.0072677312 0.040684316 0.57500005 4278197504
-0.0054001305 0.040684316 0.57500005 4278590476
-0.0035325291 0.040684316 0.57500005 4278656269
-0.001664928 0.040684316 0.57500005 4278589963
0.00020267301 0.040684316 0.57500005 4278590476
0.002070274 0.040684316 0.57500005 4278328072
0.0039447234 0.040755071 0.57600003 4278262792
0.0058155726 0.040755071 0.57600003 4278196736
0.0076864217 0.040755071 0.57600003 4278198533
0.0095572704 0.040755071 0.57600003 4278201098
0.01142812 0.040755071 0.57600003 4278202382
0.013298969 0.040755071 0.57600003 4278663449
0.015169818 0.040755071 0.57600003 4278992927
0.017011084 0.040684316 0.57500005 4278862109
0.018878685 0.040684316 0.57500005 4278862363
0.020746283 0.040684316 0.57500005 4278796568
0.022574555 0.040613558 0.574 4278928154
0.024438908 0.040613558 0.574 4278468117
0.026303262 0.040613558 0.574 4278665496
0.028118543 0.040542804 0.57300001 4278600216
0.029979646 0.040542804 0.57300001 4278666009
0.031840753 0.040542804 0.57300001 4278731802
0.033701856 0.040542804 0.57300001 4278929181
0.035562962 0.040542804 0.57300001 4278731802
0.037489377 0.040613558 0.574 4279126560
0.039422296 0.040684316 0.57500005 4279258146
0.041289896 0.040684316 0.57500005 4279521320
0.043232553 0.040755071 0.57600003 4279454762
0.045103405 0.040755071 0.57600003 4278994211
-0.057378754 0.043736618 0.59100002 4283523916
-0.045783743 0.043662615 0.59000003 4279971362
-0.043867424 0.043662615 0.59000003 4279904799
-0.041951101 0.043662615 0.59000003 4280628522
-0.036140781 0.043588612 0.58900005 4280562215
-0.034169592 0.043514602 0.588 4279904287
-0.032204907 0.043440599 0.58700001 4279709727
-0.030246714 0.043366596 0.58600003 4279777567
-0.028295018 0.043292593 0.58500004 4279124765
-0.026349816 0.04321859 0.58400005 4279059742
-0.024369242 0.043070577 0.58200002 4278731291
-0.022440281 0.042996574 0.58100003 4278731289
-0.020517817 0.042922571 0.58000004 4278731289
-0.018601848 0.042848568 0.57900006 4278665496
-0.016692374 0.042774558 0.57800001 4278862875
-0.014789398 0.042700555 0.57700002 4278665496
-0.012892918 0.042626552 0.57600003 4279058970
-0.011022069 0.042626552 0.57600003 4278198018
-0.0091512194 0.042626552 0.57600003 4278991644
-0.0072677312 0.042552549 0.57500005 4278198280
-0.0054001305 0.042552549 0.57500005 4279841061
-0.0035325291 0.042552549 0.57500005 4279379738
-0.001664928 0.042552549 0.57500005 4279971616
0.00020267301 0.042552549 0.57500005 4279313686
0.0020738745 0.042626552 0.57600003 4278918928
0.0039447234 0.042626552 0.57600003 4278260744
0.0058155726 0.042626552 0.57600003 4278523916
0.0076864217 0.042626552 0.57600003 4278524170
0.0095572704 0.042626552 0.57600003 4279188510
0.01142812 0.042626552 0.57600003 4279320609
0.013298969 0.042626552 0.57600003 4279846440
0.015169818 0.042626552 0.57600003 4279320094
0.017040668 0.042626552 0.57600003 4278925336
0.018878685 0.042552549 0.57500005 4278596371
0.020746283 0.042552549 0.57500005 4278200071
0.022613885 0.042552549 0.57500005 4278197248
0.024438908 0.042478543 0.574 4278196480
0.026303262 0.042478543 0.574 4278197504
0.028167615 0.042478543 0.574 4278199557
0.030031966 0.042478543 0.574 4278530578
0.031896319 0.042478543 0.574 4279255836
0.033760674 0.042478543 0.574 4279190043
0.035625026 0.042478543 0.574 4279190556
0.037554692 0.042552549 0.57500005 4278664982
0.039422296 0.042552549 0.57500005 4278731289
0.041361704 0.042626552 0.57600003 4278797595
0.043232553 0.042626552 0.57600003 4278797595
0.045181707 0.042700555 0.57700002 4278929181
0.047137354 0.042774558 0.57800001 4279389734
0.049099505 0.042848568 0.57900006 4278731039
-0.051620048 0.045656838 0.59100002 4283457611
-0.049700484 0.045656838 0.59100002 4280759844
-0.047780909 0.045656838 0.59100002 4279970846
-0.045861345 0.045656838 0.59100002 4279707674
-0.044016127 0.045734089 0.59200001 4279510041
-0.042022206 0.045656838 0.59100002 4280496424
-0.040102638 0.045656838 0.59100002 4280496938
-0.036140781 0.045502331 0.58900005 4279706906
-0.034169592 0.045425076 0.588 4280167459
-0.032204907 0.045347821 0.58700001 4279907106
-0.030246714 0.04527057 0.58600003 4279843619
-0.02824665 0.045116063 0.58400005 4278993179
-0.026304696 0.045038808 0.583 4279059742
-0.024369242 0.044961553 0.58200002 4278862877
-0.022440281 0.044884302 0.58100003 4278731291
-0.020517817 0.04480705 0.58000004 4278533912
-0.018601848 0.044729795 0.57900006 4278731291
-0.016692374 0.04465254 0.57800001 4278862361
-0.014789398 0.044575289 0.57700002 4278862361
-0.012892918 0.044498034 0.57600003 4279058457
-0.011022069 0.044498034 0.57600003 4278265609
-0.0091512194 0.044498034 0.57600003 4279254301
-0.0072677312 0.044420782 0.57500005 4278199309
-0.0054001305 0.044420782 0.57500005 4279249435
-0.0035325291 0.044420782 0.57500005 4279644447
-0.001664928 0.044420782 0.57500005 4279907106
0.00020267301 0.044420782 0.57500005 4278787855
0.0020738745 0.044498034 0.57600003 4278656785
0.0039447234 0.044498034 0.57600003 4278656785
0.0058155726 0.044498034 0.57600003 4278985750
0.0076864217 0.044498034 0.57600003 4278920211
0.0095572704 0.044498034 0.57600003 4279320094
0.01142812 0.044498034 0.57600003 4278198791
0.013298969 0.044498034 0.57600003 4278197766
0.015169818 0.044498034 0.57600003 4279253019
0.017040668 0.044498034 0.57600003 4278199815
0.018911516 0.044498034 0.57600003 4279056922
0.020746283 0.044420782 0.57500005 4278728470
0.022613885 0.044420782 0.57500005 4279189275
0.024481487 0.044420782 0.57500005 4279123480
0.026349088 0.044420782 0.57500005 4279123480
0.028167615 0.044343524 0.574 4279452447
0.030031966 0.044343524 0.574 4279189275
0.031896319 0.044343524 0.574 4279516957
0.033760674 0.044343524 0.574 4279187738
0.035687093 0.044420782 0.57500005 4279056154
0.037554692 0.044420782 0.57500005 4278858775
0.039490856 0.044498034 0.57600003 4278199554
0.041361704 0.044498034 0.57600003 4278664982
0.043307606 0.044575289 0.57700002 4278664982
0.045260008 0.04465254 0.57800001 4278731289
0.047218911 0.044729795 0.57900006 4278731804
0.049099505 0.044729795 0.57900006 4278863136
-0.040170491 0.047657557 0.59200001 4283523918
-0.038183071 0.047577057 0.59100002 4283194953
-0.03620214 0.047496554 0.59000003 4279838233
-0.034227706 0.047416054 0.58900005 4280364323
-0.032204907 0.047255043 0.58700001 4280236071
-0.030246714 0.047174543 0.58600003 4279975975
-0.02824665 0.04701354 0.58400005 4278993695
-0.026304696 0.046933033 0.583 4279126049
-0.024369242 0.046852533 0.58200002 4278928670
-0.022440281 0.046772029 0.58100003 4278468119
-0.020517817 0.046691529 0.58000004 4278533912
-0.018601848 0.046611026 0.57900006 4278797084
-0.016692374 0.046530519 0.57800001 4278862363
-0.014789398 0.046450019 0.57700002 4278928156
-0.012892918 0.046369519 0.57600003 4279648289
-0.011022069 0.046369519 0.57600003 4278396427
-0.0091512194 0.046369519 0.57600003 4279385635
-0.0072803707 0.046369519 0.57600003 4278198537
-0.005409522 0.046369519 0.57600003 4278721549
-0.0035386726 0.046369519 0.57600003 4278721295
-0.0016678235 0.046369519 0.57600003 4278589709
0.00020302548 0.046369519 0.57600003 4278721295
0.0020738745 0.046369519 0.57600003 4278524429
0.0039447234 0.046369519 0.57600003 4278262027
0.0058155726 0.046369519 0.57600003 4279183896
0.0076864217 0.046369519 0.57600003 4279381273
0.0095572704 0.046369519 0.57600003 4279253017
0.01142812 0.046369519 0.57600003 4278460683
0.013298969 0.046369519 0.57600003 4278525453
0.015169818 0.046369519 0.57600003 4278658834
0.017040668 0.046369519 0.57600003 4279647775
0.018911516 0.046369519 0.57600003 4278200329
0.020782365 0.046369519 0.57600003 4279056922
0.022653213 0.046369519 0.57600003 4278530578
0.024481487 0.046289016 0.57500005 4278199808
0.026349088 0.046289016 0.57500005 4278268171
0.02821669 0.046289016 0.57500005 4278531343
0.03008429 0.046289016 0.57500005 4278465552
0.031951889 0.046289016 0.57500005 4279385887
0.033819493 0.046289016 0.57500005 4279188508
0.035687093 0.046289016 0.57500005 4279189791
0.037620004 0.046369519 0.57600003 4279058205
0.039490856 0.046369519 0.57600003 4278197248
0.041433513 0.046450019 0.57700002 4278860826
0.043307606 0.046450019 0.57700002 4278796570
0.045260008 0.046530519 0.57800001 4278796570
0.047218911 0.046611026 0.57900006 4278862363
0.049099505 0.046611026 0.57900006 4278862109
0.051068146 0.046691529 0.58000004 4279385387
-0.042306621 0.049832281 0.59500003 4279770637
-0.040306207 0.049748532 0.59400004 4279705360
-0.038312286 0.04966478 0.59300005 4280298012
-0.036263499 0.049497273 0.59100002 4285760628
-0.034227706 0.049329773 0.58900005 4285432433
-0.03225977 0.049246017 0.588 4279184156
-0.030246714 0.049078517 0.58600003 4279779111
-0.028295018 0.048994765 0.58500004 4278862625
-0.026304696 0.048827261 0.583 4278863136
-0.024369242 0.048743509 0.58200002 4278797343
-0.022440281 0.048659757 0.58100003 4278666011
-0.020517817 0.048576009 0.58000004 4278731804
-0.018601848 0.048492257 0.57900006 4278600218
-0.016692374 0.048408501 0.57800001 4278731804
-0.014789398 0.048324749 0.57700002 4278468632
-0.012915301 0.048324749 0.57700002 4278333201
-0.011022069 0.048241001 0.57600003 4278529296
-0.0091512194 0.048241001 0.57600003 4279254816
-0.0072803707 0.048241001 0.57600003 4279254303
-0.005409522 0.048241001 0.57600003 4279513625
-0.0035386726 0.048241001 0.57600003 4278854927
-0.0016678235 0.048241001 0.57600003 4278722832
0.00020302548 0.048241001 0.57600003 4278262281
0.0020738745 0.048241001 0.57600003 4278590222
0.0039447234 0.048241001 0.57600003 4278458636
0.0058155726 0.048241001 0.57600003 4278590476
0.0076864217 0.048241001 0.57600003 4279908129
0.0095572704 0.048241001 0.57600003 4279779361
0.01142812 0.048241001 0.57600003 4278988564
0.013298969 0.048241001 0.57600003 4279184406
0.015169818 0.048241001 0.57600003 4280238377
0.017040668 0.048241001 0.57600003 4278595601
0.018911516 0.048241001 0.57600003 4279319324
0.020782365 0.048241001 0.57600003 4278198789
0.022653213 0.048241001 0.57600003 4278333199
0.024524063 0.048241001 0.57600003 4279121945
0.026394913 0.048241001 0.57600003 4279713570
0.028265761 0.048241001 0.57600003 4279253019
0.03008429 0.048157249 0.57500005 4279187226
0.031951889 0.048157249 0.57500005 4278199817
0.033819493 0.048157249 0.57500005 4278858521
0.035749156 0.048241001 0.57600003 4278201101
0.037620004 0.048241001 0.57600003 4279320607
0.039490856 0.048241001 0.57600003 4278200588
0.041433513 0.048324749 0.57700002 4278992925
0.043307606 0.048324749 0.57700002 4278862109
0.045260008 0.048408501 0.57800001 4278664730
0.047218911 0.048492257 0.57900006 4278928156
0.049099505 0.048492257 0.57900006 4278336019
0.051068146 0.048576009 0.58000004 4278727717
-0.042377722 0.051852498 0.59600002 4279704844
-0.040441915 0.051852498 0.59600002 4279573776
-0.038376894 0.051678497 0.59400004 4279902743
-0.036386218 0.051591497 0.59300005 4285761913
-0.034343928 0.051417492 0.59100002 4285038958
-0.032314636 0.051243495 0.58900005 4285171059
-0.03029833 0.051069491 0.58700001 4279316512
-0.028295018 0.05089549 0.58500004 4279386152
-0.026349816 0.050808489 0.58400005 4279650605
-0.024369242 0.050634485 0.58200002 4279256615
-0.022440281 0.050547484 0.58100003 4279059236
-0.020517817 0.050460488 0.58000004 4278927904
-0.018601848 0.050373487 0.57900006 4278993697
-0.016692374 0.050286483 0.57800001 4278928416
-0.014789398 0.050199483 0.57700002 4278796830
-0.012915301 0.050199483 0.57700002 4279059488
-0.011041204 0.050199483 0.57700002 4279124511
-0.0091512194 0.050112482 0.57600003 4279058718
-0.0072803707 0.050112482 0.57600003 4278992925
-0.005409522 0.050112482 0.57600003 4278993179
-0.0035386726 0.050112482 0.57600003 4278993179
-0.0016678235 0.050112482 0.57600003 4279190045
0.00020302548 0.050112482 0.57600003 4278992412
0.0020738745 0.050112482 0.57600003 4279254816
0.0039447234 0.050112482 0.57600003 4279189023
0.0058155726 0.050112482 0.57600003 4279978026
0.0076864217 0.050112482 0.57600003 4279320096
0.0095572704 0.050112482 0.57600003 4279649059
0.01142812 0.050112482 0.57600003 4278924566
0.013298969 0.050112482 0.57600003 4278265609
0.015196154 0.050199483 0.57700002 4278196736
0.017070251 0.050199483 0.57700002 4278196224
0.018944349 0.050199483 0.57700002 4278195968
0.020818444 0.050199483 0.57700002 4278196736
0.022653213 0.050112482 0.57600003 4278331404
0.024524063 0.050112482 0.57600003 4279121433
0.026394913 0.050112482 0.57600003 4279779361
0.028265761 0.050112482 0.57600003 4279648289
0.030136609 0.050112482 0.57600003 4280437291
0.03200746 0.050112482 0.57600003 4279845668
0.033878308 0.050112482 0.57600003 4279385117
0.035749156 0.050112482 0.57600003 4279385887
0.037620004 0.050112482 0.57600003 4279583779
0.039559416 0.050199483 0.57700002 4279254303
0.041433513 0.050199483 0.57700002 4278992925
0.043307606 0.050199483 0.57700002 4278665244
0.045260008 0.050286483 0.57800001 4278533658
0.047218911 0.050373487 0.57900006 4278797084
0.049099505 0.050373487 0.57900006 4278796570
0.051068146 0.050460488 0.58000004 4279515687
-0.048346847 0.053969469 0.59800005 4280757007
-0.044536591 0.054059718 0.59900004 4280427795
-0.042519931 0.053969469 0.59800005 4279704844
-0.040577628 0.053969469 0.59800005 4279639569
-0.038506106 0.053788967 0.59600002 4279902743
-0.036447577 0.05360847 0.59400004 4285367925
-0.034402039 0.053427964 0.59200001 4284710508
-0.032369498 0.053247467 0.59000003 4285038958
-0.030349944 0.053066965 0.588 4285236337
-0.028343385 0.052886467 0.58600003 4285697917
-0.026349816 0.05270597 0.58400005 4284382057
-0.024369242 0.052525468 0.58200002 4281816900
-0.022440281 0.052435219 0.58100003 4279713320
-0.020517817 0.05234497 0.58000004 4278990627
-0.018601848 0.052254722 0.57900006 4278990627
-0.016692374 0.052164465 0.57800001 4279648811
-0.014815029 0.052164465 0.57800001 4279386152
-0.012915301 0.052074216 0.57700002 4279452713
-0.011041204 0.052074216 0.57700002 4279321127
-0.0091671068 0.052074216 0.57700002 4279452711
-0.0072930101 0.052074216 0.57700002 4279189793
-0.0054189134 0.052074216 0.57700002 4279124513
-0.003544816 0.052074216 0.57700002 4278862109
-0.001670719 0.052074216 0.57700002 4278927902
0.00020302548 0.051983967 0.57600003 4278862109
0.0020738745 0.051983967 0.57600003 4278993697
0.0039447234 0.051983967 0.57600003 4278862111
0.0058155726 0.051983967 0.57600003 4278927904
0.0076997662 0.052074216 0.57700002 4279058718
0.0095738629 0.052074216 0.57700002 4279058718
0.01144796 0.052074216 0.57700002 4279058718
0.013322057 0.052074216 0.57700002 4279058205
0.015196154 0.052074216 0.57700002 4279058205
0.017070251 0.052074216 0.57700002 4279189021
0.018944349 0.052074216 0.57700002 4279254814
0.020818444 0.052074216 0.57700002 4279254814
0.022692541 0.052074216 0.57700002 4279320607
0.024566639 0.052074216 0.57700002 4279385887
0.026394913 0.051983967 0.57600003 4280241196
0.028265761 0.051983967 0.57600003 4279516703
0.030136609 0.051983967 0.57600003 4278858773
0.03200746 0.051983967 0.57600003 4278398224
0.033878308 0.051983967 0.57600003 4278198792
0.035749156 0.051983967 0.57600003 4278197250
0.037620004 0.051983967 0.57600003 4278196224
0.039559416 0.052074216 0.57700002 4279584551
0.041433513 0.052074216 0.57700002 4278796318
0.043307606 0.052074216 0.57700002 4278731037
0.045260008 0.052164465 0.57800001 4278731037
0.047137354 0.052164465 0.57800001 4278731037
0.049099505 0.052254722 0.57900006 4278927902
0.050980095 0.052254722 0.57900006 4284910200
-0.04655974 0.056099426 0.60000002 4280690960
-0.04461094 0.056099426 0.60000002 4280165393
-0.042662136 0.056099426 0.60000002 4279836430
-0.040713336 0.056099426 0.60000002 4279967762
-0.038635325 0.055912431 0.59800005 4279705364
-0.036570296 0.055725429 0.59600002 4285169522
-0.034518264 0.055538435 0.59400004 4284512362
-0.032424361 0.055257935 0.59100002 4284841581
-0.030401561 0.05507094 0.58900005 4284973167
-0.028391752 0.054883938 0.58700001 4285236339
-0.026394937 0.054696944 0.58500004 4285499511
-0.024369242 0.054416444 0.58200002 4285828987
-0.022440281 0.054322947 0.58100003 4285697401
-0.020517817 0.054229449 0.58000004 4285632124
-0.018601848 0.054135952 0.57900006 4285830273
-0.016692374 0.054042447 0.57800001 4285764480
-0.014815029 0.054042447 0.57800001 4285632640
-0.012915301 0.05394895 0.57700002 4285304188
-0.011041204 0.05394895 0.57700002 4283857514
-0.0091671068 0.05394895 0.57700002 4281883722
-0.0072930101 0.05394895 0.57700002 4279712553
-0.0054189134 0.05394895 0.57700002 4278793248
-0.003544816 0.05394895 0.57700002 4278793500
-0.001670719 0.05394895 0.57700002 4278990361
0.00020337795 0.05394895 0.57700002 4278793752
0.002077475 0.05394895 0.57700002 4279123750
0.0039515719 0.05394895 0.57700002 4278926884
0.0058256686 0.05394895 0.57700002 4279321127
0.0076997662 0.05394895 0.57700002 4279321125
0.0095738629 0.05394895 0.57700002 4279321379
0.01144796 0.05394895 0.57700002 4279124000
0.013322057 0.05394895 0.57700002 4279190306
0.015196154 0.05394895 0.57700002 4278992927
0.017070251 0.05394895 0.57700002 4279058720
0.018944349 0.05394895 0.57700002 4278992925
0.020818444 0.05394895 0.57700002 4278993695
0.022692541 0.05394895 0.57700002 4278862109
0.024566639 0.05394895 0.57700002 4279058718
0.026440736 0.05394895 0.57700002 4279058718
0.028314834 0.05394895 0.57700002 4279124765
0.030136609 0.053855453 0.57600003 4279124765
0.03200746 0.053855453 0.57600003 4279124765
0.033878308 0.053855453 0.57600003 4279190045
0.035749156 0.053855453 0.57600003 4279124252
0.037620004 0.053855453 0.57600003 4279255838
0.039490856 0.053855453 0.57600003 4279190304
0.041433513 0.05394895 0.57700002 4279125281
0.043307606 0.05394895 0.57700002 4278862109
0.045181707 0.05394895 0.57700002 4278927902
0.047137354 0.054042447 0.57800001 4278927902
0.049099505 0.054135952 0.57900006 4278992162
0.050980095 0.054135952 0.57900006 4285304190
-0.046714943 0.058242388 0.60200006 4280625167
-0.044759646 0.058242388 0.60200006 4280231186
-0.042804345 0.058242388 0.60200006 4280033809
-0.040781192 0.058145635 0.60100001 4280165141
-0.038764536 0.058048889 0.60000002 4280165141
-0.036693018 0.057855394 0.59800005 4279575574
-0.034576375 0.057565149 0.59500003 4284906602
-0.032479223 0.0572749 0.59200001 4284578409
-0.030453177 0.057081409 0.59000003 4284973167
-0.028440118 0.05688791 0.588 4285170546
-0.0091671068 0.05582368 0.57700002 4284250219
-0.0072930101 0.05582368 0.57700002 4284119401
-0.0054189134 0.05582368 0.57700002 4284053608
-0.003544816 0.05582368 0.57700002 4283329115
-0.001670719 0.05582368 0.57700002 4284644463
0.00020337795 0.05582368 0.57700002 4285105526
0.002077475 0.05582368 0.57700002 4285172343
0.0039515719 0.05582368 0.57700002 4285435515
0.0058256686 0.05582368 0.57700002 4284186477
0.0076997662 0.05582368 0.57700002 4283002203
0.0095738629 0.05582368 0.57700002 4281883206
0.01144796 0.05582368 0.57700002 4280304944
0.013322057 0.05582368 0.57700002 4279712807
0.015196154 0.05582368 0.57700002 4279515426
0.017070251 0.05582368 0.57700002 4279055902
0.018944349 0.05582368 0.57700002 4279055902
0.020818444 0.05582368 0.57700002 4278794013
0.022692541 0.05582368 0.57700002 4278925599
0.024566639 0.05582368 0.57700002 4278794013
0.026440736 0.05582368 0.57700002 4278794015
0.028314834 0.05582368 0.57700002 4278992164
0.030188929 0.05582368 0.57700002 4278992164
0.03200746 0.055726934 0.57600003 4279123748
0.033878308 0.055726934 0.57600003 4279189541
0.035749156 0.055726934 0.57600003 4279451943
0.037620004 0.055726934 0.57600003 4279254564
0.039490856 0.055726934 0.57600003 4279386150
0.041361704 0.055726934 0.57600003 4279319844
0.043307606 0.05582368 0.57700002 4279320357
0.045181707 0.05582368 0.57700002 4279188771
0.047137354 0.05592043 0.57800001 4279910445
0.049014702 0.05592043 0.57800001 4285041016
-0.044833995 0.060298342 0.60300004 4280099602
-0.04287545 0.060298342 0.60300004 4280165395
-0.040916905 0.060298342 0.60300004 4280165141
-0.038893756 0.060198348 0.60200006 4280428313
-0.036815733 0.059998348 0.60000002 4279838746
0.030188929 0.057698414 0.57700002 4285962372
0.032063026 0.057698414 0.57700002 4285699970
0.033878308 0.057598416 0.57600003 4285831556
0.035749156 0.057598416 0.57600003 4285897347
0.037620004 0.057598416 0.57600003 4285699968
0.039490856 0.057598416 0.57600003 4285699968
0.041361704 0.057598416 0.57600003 4285567614
0.043307606 0.057698414 0.57700002 4285436028
0.045181707 0.057698414 0.57700002 4285830786
0.047055803 0.057698414 0.57700002 4285171321
-0.046870138 0.062360797 0.60400003 4280493585
-0.044908348 0.062360797 0.60400003 4280164625
-0.043017656 0.06246404 0.60500002 4280230934
-0.040984761 0.062360797 0.60400003 4280165141
-0.039022967 0.062360797 0.60400003 4280033555
-0.046947736 0.064429745 0.60500002 4280690962
-0.044982698 0.064429745 0.60500002 4280099348
-0.043088757 0.064536244 0.60600001 4280165141
-0.04112047 0.064536244 0.60600001 4280034325
-0.039152183 0.064536244 0.60600001 4280034325
-0.047025334 0.066505194 0.60600001 4280690962
-0.045131404 0.066614948 0.60700005 4280033809
-0.043230966 0.066724688 0.60800004 4280099602
-0.041256182 0.066724688 0.60800004 4280165141
-0.039281398 0.066724688 0.60800004 4280230936
-0.047102939 0.068587154 0.60700005 4280427790
-0.045205753 0.068700142 0.60800004 4280033809
-0.04330207 0.068813138 0.60900003 4279968532
-0.04139189 0.068926126 0.61000001 4279968534
-0.039410613 0.068926126 0.61000001 4280297499
-0.047180537 0.070675597 0.60800004 4280625169
-0.045354456 0.070908077 0.61000001 4280033807
-0.043444276 0.071024321 0.611 4280099348
-0.041527607 0.071140572 0.61200005 4280165913
-0.039539829 0.071140572 0.61200005 4280363294
-0.07237345 0.072173081 0.60400003 4280101151
-0.070295081 0.072053589 0.60300004 4279640084
-0.068223208 0.071934104 0.60200006 4279244813
-0.066267915 0.071934104 0.60200006 4279967764
-0.049155321 0.072651051 0.60800004 4280559633
-0.047258135 0.072770543 0.60900003 4280296461
-0.045428805 0.073009521 0.611 4280033807
-0.04351538 0.073129021 0.61200005 4280165141
-0.041595459 0.073248513 0.61300004 4280034840
-0.039604437 0.073248513 0.61300004 4283523666
-0.070295081 0.074012801 0.60300004 4279904034
-0.068223208 0.07389006 0.60200006 4279968544
-0.066267915 0.07389006 0.60200006 4279639832
-0.064205781 0.073767312 0.60100001 4279968282
-0.062253729 0.073767312 0.60100001 4279836696
-0.058446724 0.07389006 0.60200006 4280099868
-0.056585267 0.074012801 0.60300004 4279639317
-0.054717313 0.074135542 0.60400003 4279639317
-0.052842859 0.074258283 0.60500002 4279442192
-0.051046014 0.074503765 0.60700005 4279442192
-0.049155321 0.074626505 0.60800004 4279375629
-0.047335733 0.074871987 0.61000001 4279244043
-0.045428805 0.074994721 0.611 4279442192
-0.04351538 0.075117469 0.61200005 4282468670
-0.041595459 0.07524021 0.61300004 4284247387
-0.039669044 0.075362951 0.61400002 4284116571
-0.052842859 0.076223992 0.60500002 4279903772
-0.051046014 0.076475978 0.60700005 4279377430
-0.049155321 0.07660196 0.60800004 4279310865
-0.047335733 0.076853938 0.61000001 4279376658
-0.045428805 0.076979928 0.611 4279639830
-0.04351538 0.077105924 0.61200005 4280364838
-0.041595459 0.077231914 0.61300004 4283261266
-0.039604437 0.077231914 0.61300004 4284247387
-0.049155321 0.078577414 0.60800004 4279772448
-0.047258135 0.078706652 0.60900003 4279706655
-0.041527607 0.079094373 0.61200005 4282471750
-0.039604437 0.07922361 0.61300004 4283984989
-0.041459747 0.080950327 0.611 4279773213
-0.039539829 0.081082828 0.61200005 4284248161
-0.039475221 0.082935527 0.611 4285036653
-0.039475221 0.084920734 0.611 4283853151
-0.039475221 0.086905941 0.611 4284707690
-0.0050904965 0.049327824 0.58313936 4294967295
-0.0050904965 0.049327824 0.58313936 4294901760
-0.0051589445 0.048834167 0.58309919 4294901760
-0.0052273925 0.048340507 0.58305895 4294901760
-0.0052958406 0.047846846 0.58301878 4294901760
-0.0053642886 0.047353189 0.58297855 4294901760
-0.0054327366 0.046859529 0.58293837 4294901760
-0.0055011846 0.046365872 0.58289814 4294901760
-0.0055696326 0.045872211 0.58285797 4294901760
-0.0056380806 0.045378555 0.58281779 4294901760
-0.0057065287 0.044884894 0.58277756 4294901760
-0.0057749767 0.044391237 0.58273739 4294901760
-0.0058434247 0.043897577 0.58269715 4294901760
-0.0059118727 0.04340392 0.58265698 4294901760
-0.0059803207 0.042910259 0.58261681 4294901760
-0.0060487688 0.042416602 0.58257657 4294901760
-0.0061172168 0.041922942 0.5825364 4294901760
-0.0061856648 0.041429285 0.58249617 4294901760
-0.0062541128 0.040935624 0.58245599 4294901760
-0.0063225608 0.040441968 0.58241576 4294901760
-0.0063910084 0.039948307 0.58237559 4294901760
-0.0064594569 0.03945465 0.58233541 4294901760
-0.0065279044 0.038960993 0.58229518 4294901760
-0.0065963529 0.038467333 0.58225501 4294901760
-0.0066648005 0.037973672 0.58221477 4294901760
-0.0067332489 0.037480015 0.5821746 4294901760
-0.0068016965 0.036986355 0.58213437 4294901760
-0.0068701445 0.036492698 0.58209419 4294901760
-0.0069385925 0.035999037 0.58205402 4294901760
-0.007007041 0.03550538 0.58201379 4294901760
-0.0070754886 0.03501172 0.58197361 4294901760
-0.0071439371 0.034518063 0.58193338 4294901760
-0.0072123846 0.034024402 0.58189321 4294901760
-0.0072808331 0.033530746 0.58185303 4294901760
-0.0073492806 0.033037085 0.5818128 4294901760
-0.0074177291 0.032543428 0.58177263 4294901760
-0.0074861767 0.032049768 0.58173239 4294901760
-0.0075546252 0.031556107 0.58169222 4294901760
-0.0076230727 0.03106245 0.58165199 4294901760
-0.0076915207 0.030568792 0.58161181 4294901760
-0.0077599688 0.030075135 0.58157164 4294901760
-0.0078284172 0.029581474 0.58153141 4294901760
-0.0078968648 0.029087815 0.58149123 4294901760
-0.0079653133 0.028594159 0.581451 4294901760
-0.0080337608 0.028100498 0.58141083 4294901760
-0.0081022084 0.027606839 0.58137065 4294901760
-0.0081706569 0.027113181 0.58133042 4294901760
-0.0082391053 0.026619522 0.58129025 4294901760
-0.0083075529 0.026125863 0.58125001 4294901760
-0.0083760004 0.025632204 0.58120984 4294901760
-0.0084444489 0.025138546 0.58116961 4294901760
-0.0085128974 0.024644887 0.58112943 4294901760
-0.008581345 0.024151228 0.58108926 4294901760
-0.0086497925 0.02365757 0.58104903 4294901760
-0.008718241 0.023163913 0.58100885 4294901760
-0.0087866895 0.02267025 0.58096862 4294901760
-0.008855137 0.022176594 0.58092844 4294901760
-0.0089235846 0.021682935 0.58088821 4294901760
-0.0089920331 0.021189276 0.58084804 4294901760
-0.0090604816 0.020695617 0.58080786 4294901760
-0.0091289282 0.020201961 0.58076763 4294901760
-0.0091973767 0.019708298 0.58072746 4294901760
-0.0092658252 0.019214639 0.58068722 4294901760
-0.0093342736 0.018720983 0.58064705 4294901760
-0.0094027212 0.018227324 0.58060688 4294901760
-0.0094711687 0.017733667 0.58056664 4294901760
-0.0095396172 0.017240006 0.58052647 4294901760
-0.0096080657 0.016746346 0.58048624 4294901760
-0.0096765133 0.016252689 0.58044606 4294901760
-0.0097449608 0.015759028 0.58040583 4294901760
-0.0098134093 0.015265372 0.58036566 4294901760
-0.0098818569 0.014771711 0.58032548 4294901760
-0.0099503044 0.014278054 0.58028525 4294901760
-0.010018753 0.013784394 0.58024508 4294901760
-0.010087201 0.013290737 0.58020484 4294901760
-0.01015565 0.012797076 0.58016467 4294901760
-0.010224097 0.012303419 0.5801245 4294901760
-0.010292545 0.011809759 0.58008426 4294901760
-0.010360993 0.011316102 0.58004409 4294901760
-0.010429441 0.010822445 0.58000386 4294901760
-0.010497889 0.010328781 0.57996368 4294901760
-0.010566337 0.009835124 0.57992345 4294901760
-0.010634786 0.0093414672 0.57988328 4294901760
-0.010703233 0.0088478066 0.5798431 4294901760
-0.010771681 0.0083541498 0.57980287 4294901760
-0.010840129 0.0078604929 0.5797627 4294901760
-0.010908578 0.0073668286 0.57972246 4294901760
-0.010977025 0.0068731718 0.57968229 4294901760
-0.011045473 0.0063795149 0.57964206 4294901760
-0.011113921 0.0058858544 0.57960188 4294901760
-0.01118237 0.0053921975 0.57956171 4294901760
-0.011250817 0.004898537 0.57952148 4294901760
-0.011319266 0.0044048764 0.5794813 4294901760
-0.011387713 0.0039112195 0.57944107 4294901760
-0.011456162 0.003417559 0.5794009 4294901760
-0.011524609 0.0029239021 0.57936072 4294901760
-0.011593057 0.0024302453 0.57932049 4294901760
-0.011661505 0.0019365847 0.57928032 4294901760
-0.011729954 0.0014429241 0.57924008 4294901760
-0.011798401 0.0009492673 0.57919991 4294901760
-0.011866849 0.00045560673 0.57915968 4294901760
-0.011935297 -3.8050115e-05 0.5791195 4294901760
-0.0050904965 0.049327824 0.58313936 4278255360
-0.0046127746 0.049272735 0.58300245 4278255360
-0.0041350522 0.049217645 0.58286554 4278255360
-0.0036573303 0.049162555 0.58272862 4278255360
-0.0031796081 0.04910747 0.58259171 4278255360
-0.002701886 0.04905238 0.58245474 4278255360
-0.0022241639 0.04899729 0.58231783 4278255360
-0.0017464417 0.048942201 0.58218092 4278255360
-0.0012687198 0.048887111 0.58204401 4278255360
-0.00079099741 0.048832022 0.58190709 4278255360
-0.00031327549 0.048776932 0.58177018 4278255360
0.00016444642 0.048721846 0.58163327 4278255360
0.0006421688 0.048666757 0.58149636 4278255360
0.0011198907 0.048611667 0.58135939 4278255360
0.0015976131 0.048556577 0.58122247 4278255360
0.0020753355 0.048501488 0.58108556 4278255360
0.0025530569 0.048446398 0.58094865 4278255360
0.0030307788 0.048391312 0.58081174 4278255360
0.0035085017 0.048336223 0.58067483 4278255360
0.0039862236 0.048281133 0.58053792 4278255360
0.0044639455 0.048226044 0.580401 4278255360
0.0049416674 0.048170954 0.58026403 4278255360
0.0054193893 0.048115864 0.58012712 4278255360
0.0058971122 0.048060775 0.57999021 4278255360
0.0063748341 0.048005689 0.5798533 4278255360
0.006852556 0.047950599 0.57971638 4278255360
0.0073302779 0.04789551 0.57957947 4278255360
0.0078080008 0.04784042 0.57944256 4278255360
0.0082857227 0.047785331 0.57930565 4278255360
0.0087634437 0.047730241 0.57916874 4278255360
0.0092411675 0.047675151 0.57903177 4278255360
0.0097188884 0.047620066 0.57889485 4278255360
0.01019661 0.047564976 0.57875794 4278255360
0.010674334 0.047509886 0.57862103 4278255360
0.011152054 0.047454797 0.57848412 4278255360
0.011629776 0.047399707 0.57834721 4278255360
0.0121075 0.047344618 0.57821029 4278255360
0.012585222 0.047289532 0.57807338 4278255360
0.013062944 0.047234442 0.57793641 4278255360
0.013540666 0.047179352 0.5777995 4278255360
0.014018388 0.047124263 0.57766259 4278255360
0.014496109 0.047069173 0.57752568 4278255360
0.014973831 0.047014084 0.57738876 4278255360
0.015451553 0.046958994 0.57725185 4278255360
0.015929274 0.046903908 0.57711494 4278255360
0.016406998 0.046848819 0.57697803 4278255360
0.016884722 0.046793729 0.57684106 4278255360
0.017362442 0.046738639 0.57670414 4278255360
0.017840166 0.04668355 0.57656723 4278255360
0.018317886 0.04662846 0.57643032 4278255360
0.018795609 0.046573371 0.57629341 4278255360
0.01927333 0.046518285 0.5761565 4278255360
0.019751053 0.046463195 0.57601959 4278255360
0.020228773 0.046408106 0.57588267 4278255360
0.020706497 0.046353016 0.57574576 4278255360
0.021184221 0.046297926 0.57560879 4278255360
0.021661941 0.046242837 0.57547188 4278255360
0.022139665 0.046187751 0.57533497 4278255360
0.022617385 0.046132661 0.57519805 4278255360
0.023095105 0.046077572 0.57506114 4278255360
0.023572832 0.046022482 0.57492423 4278255360
0.024050552 0.045967393 0.57478732 4278255360
0.024528272 0.045912303 0.57465041 4278255360
0.025005996 0.045857213 0.57451344 4278255360
0.025483716 0.045802128 0.57437652 4278255360
0.02596144 0.045747038 0.57423961 4278255360
0.026439164 0.045691948 0.5741027 4278255360
0.026916884 0.045636859 0.57396579 4278255360
0.027394604 0.045581769 0.57382888 4278255360
0.027872328 0.04552668 0.57369196 4278255360
0.028350048 0.045471594 0.57355505 4278255360
0.028827772 0.045416504 0.57341808 4278255360
0.029305495 0.045361415 0.57328117 4278255360
0.029783215 0.045306325 0.57314426 4278255360
0.030260939 0.045251235 0.57300735 4278255360
0.030738659 0.045196146 0.57287043 4278255360
0.031216383 0.045141056 0.57273352 4278255360
0.031694103 0.04508597 0.57259661 4278255360
0.032171827 0.045030881 0.5724597 4278255360
0.032649551 0.044975791 0.57232279 4278255360
0.033127271 0.044920702 0.57218581 4278255360
0.033604994 0.044865612 0.5720489 4278255360
0.034082714 0.044810522 0.57191199 4278255360
0.034560435 0.044755436 0.57177508 4278255360
0.035038158 0.044700347 0.57163817 4278255360
0.035515882 0.044645257 0.57150126 4278255360
0.035993602 0.044590168 0.57136434 4278255360
0.036471326 0.044535078 0.57122743 4278255360
0.036949046 0.044479989 0.57109046 4278255360
0.03742677 0.044424899 0.57095355 4278255360
0.03790449 0.044369809 0.57081664 4278255360
0.038382214 0.044314723 0.57067972 4278255360
0.038859937 0.044259634 0.57054281 4278255360
0.039337657 0.044204544 0.5704059 4278255360
0.039815381 0.044149455 0.57026899 4278255360
0.040293101 0.044094365 0.57013208 4278255360
0.040770825 0.044039275 0.56999511 4278255360
0.041248549 0.04398419 0.56985819 4278255360
0.041726269 0.0439291 0.56972128 4278255360
0.042203993 0.04387401 0.56958437 4278255360
0.042681713 0.043818921 0.56944746 4278255360
-0.0050904965 0.049327824 0.58313936 4278190335
-0.0050863051 0.049286667 0.58363765 4278190335
-0.0050821137 0.04924551 0.58413595 4278190335
-0.0050779218 0.049204353 0.58463424 4278190335
-0.0050737304 0.0491632 0.58513248 4278190335
-0.005069539 0.049122043 0.58563077 4278190335
-0.0050653471 0.049080886 0.58612907 4278190335
-0.0050611557 0.049039729 0.58662736 4278190335
-0.0050569642 0.048998572 0.58712566 4278190335
-0.0050527728 0.048957415 0.58762395 4278190335
-0.0050485814 0.048916262 0.58812225 4278190335
-0.0050443895 0.048875105 0.58862048 4278190335
-0.0050401981 0.048833948 0.58911878 4278190335
-0.0050360067 0.048792791 0.58961707 4278190335
-0.0050318148 0.048751634 0.59011537 4278190335
-0.0050276234 0.048710477 0.59061366 4278190335
-0.005023432 0.048669323 0.59111196 4278190335
-0.0050192405 0.048628166 0.59161019 4278190335
-0.0050150491 0.048587009 0.59210849 4278190335
-0.0050108572 0.048545852 0.59260678 4278190335
-0.0050066658 0.048504695 0.59310508 4278190335
-0.0050024744 0.048463538 0.59360337 4278190335
-0.0049982825 0.048422385 0.59410167 4278190335
-0.0049940911 0.048381228 0.59459996 4278190335
-0.0049898997 0.048340071 0.5950982 4278190335
-0.0049857083 0.048298914 0.59559649 4278190335
-0.0049815169 0.048257757 0.59609479 4278190335
-0.004977325 0.0482166 0.59659308 4278190335
-0.0049731336 0.048175443 0.59709138 4278190335
-0.0049689421 0.04813429 0.59758967 4278190335
-0.0049647503 0.048093133 0.59808797 4278190335
-0.0049605588 0.048051976 0.5985862 4278190335
-0.0049563674 0.048010819 0.5990845 4278190335
-0.004952176 0.047969662 0.59958279 4278190335
-0.0049479846 0.047928505 0.60008109 4278190335
-0.0049437927 0.047887351 0.60057938 4278190335
-0.0049396013 0.047846194 0.60107768 4278190335
-0.0049354099 0.047805037 0.60157591 4278190335
-0.004931218 0.04776388 0.60207421 4278190335
-0.0049270266 0.047722723 0.6025725 4278190335
-0.0049228352 0.047681566 0.6030708 4278190335
-0.0049186437 0.047640413 0.60356909 4278190335
-0.0049144523 0.047599256 0.60406739 4278190335
-0.0049102604 0.047558099 0.60456568 4278190335
-0.004906069 0.047516942 0.60506392 4278190335
-0.0049018776 0.047475785 0.60556221 4278190335
-0.0048976857 0.047434628 0.6060605 4278190335
-0.0048934943 0.047393475 0.6065588 4278190335
-0.0048893029 0.047352318 0.60705709 4278190335
-0.0048851115 0.047311161 0.60755539 4278190335
-0.0048809201 0.047270004 0.60805368 4278190335
-0.0048767282 0.047228847 0.60855192 4278190335
-0.0048725368 0.04718769 0.60905021 4278190335
-0.0048683453 0.047146536 0.60954851 4278190335
-0.0048641535 0.047105379 0.6100468 4278190335
-0.004859962 0.047064222 0.6105451 4278190335
-0.0048557706 0.047023065 0.61104339 4278190335
-0.0048515792 0.046981908 0.61154163 4278190335
-0.0048473878 0.046940751 0.61203992 4278190335
-0.0048431959 0.046899594 0.61253822 4278190335
-0.0048390045 0.046858441 0.61303651 4278190335
-0.0048348131 0.046817284 0.61353481 4278190335
-0.0048306212 0.046776127 0.6140331 4278190335
-0.0048264298 0.04673497 0.6145314 4278190335
-0.0048222383 0.046693813 0.61502963 4278190335
-0.0048180469 0.046652656 0.61552793 4278190335
-0.0048138555 0.046611503 0.61602622 4278190335
-0.0048096636 0.046570346 0.61652452 4278190335
-0.0048054722 0.046529189 0.61702281 4278190335
-0.0048012808 0.046488032 0.61752111 4278190335
-0.0047970889 0.046446875 0.61801934 4278190335
-0.0047928975 0.046405718 0.61851764 4278190335
-0.0047887061 0.046364561 0.61901593 4278190335
-0.0047845147 0.046323407 0.61951423 4278190335
-0.0047803232 0.04628225 0.62001252 4278190335
-0.0047761314 0.046241093 0.62051082 4278190335
-0.0047719399 0.046199936 0.62100911 4278190335
-0.0047677485 0.046158779 0.62150735 4278190335
-0.0047635566 0.046117626 0.62200564 4278190335
-0.0047593652 0.046076469 0.62250394 4278190335
-0.0047551738 0.046035312 0.62300223 4278190335
-0.0047509824 0.045994155 0.62350053 4278190335
-0.004746791 0.045952998 0.62399882 4278190335
-0.0047425991 0.045911841 0.62449712 4278190335
-0.0047384077 0.045870684 0.62499535 4278190335
-0.0047342163 0.045829531 0.62549365 4278190335
-0.0047300244 0.045788374 0.62599194 4278190335
-0.004725833 0.045747217 0.62649024 4278190335
-0.0047216415 0.04570606 0.62698853 4278190335
-0.0047174501 0.045664903 0.62748682 4278190335
-0.0047132587 0.045623746 0.62798512 4278190335
-0.0047090668 0.045582592 0.62848336 4278190335
-0.0047048754 0.045541435 0.62898165 4278190335
-0.004700684 0.045500278 0.62947994 4278190335
-0.0046964921 0.045459121 0.62997824 4278190335
-0.0046923007 0.045417964 0.63047653 4278190335
-0.0046881093 0.045376807 0.63097483 4278190335
-0.0046839179 0.04533565 0.63147306 4278190335
-0.0046797264 0.045294497 0.63197136 4278190335
-0.0046755346 0.04525334 0.63246965 4278190335
-0.0046713431 0.045212183 0.63296795 4278190335
-0.0050904965 0.049327824 0.58313936 4294967295
-0.0051156459 0.049574763 0.58014965 4294967295
-0.0051407949 0.049821701 0.57715994 4294967295
-0.0051659439 0.050068639 0.57417023 4294967295
-0.0051910933 0.050315578 0.57118052 4294967295
-0.0052162427 0.050562516 0.56819081 4294967295
-0.0052413917 0.050809454 0.5652011 4294967295
-0.0052665407 0.051056392 0.56221133 4294967295
-0.0052916901 0.051303335 0.55922163 4294967295
-0.0053168396 0.051550273 0.55623192 4294967295
-0.0053419885 0.051797211 0.55324221 4294967295
-0.0053671375 0.052044149 0.5502525 4294967295
-0.0053922869 0.052291088 0.54726279 4294967295
-0.0054174364 0.052538026 0.54427308 4294967295
-0.0054425853 0.052784964 0.54128337 4294967295
-0.0054677348 0.053031903 0.53829366 4294967295
-0.0054928837 0.053278841 0.53530395 4294967295
-0.0055180332 0.053525779 0.53231424 4294967295
-0.0055431821 0.053772718 0.52932453 4294967295
-0.0055683311 0.054019656 0.52633476 4294967295
-0.0055934805 0.054266594 0.52334505 4294967295
-0.00561863 0.054513533 0.52035534 4294967295
-0.0056437789 0.054760471 0.51736563 4294967295
-0.0056689279 0.055007413 0.51437593 4294967295
-0.0056940774 0.055254351 0.51138622 4294967295
-0.0057192268 0.05550129 0.50839651 4294967295
-0.0057443758 0.055748228 0.5054068 4294967295
-0.0057695247 0.055995166 0.50241709 4294967295
-0.0057946742 0.056242105 0.49942738 4294967295
-0.0058198236 0.056489043 0.49643767 4294967295
-0.0058449726 0.056735981 0.49344793 4294967295
-0.0058701215 0.05698292 0.49045822 4294967295
-0.005895271 0.057229858 0.48746851 4294967295
-0.0059204204 0.057476796 0.48447877 4294967295
-0.0059455694 0.057723738 0.48148906 4294967295
-0.0059707183 0.057970673 0.47849935 4294967295
-0.0059958678 0.058217615 0.47550964 4294967295
-0.0060210172 0.058464549 0.47251993 4294967295
-0.0060461662 0.058711492 0.46953022 4294967295
-0.0060713151 0.05895843 0.46654052 4294967295
-0.0060964646 0.059205368 0.46355081 4294967295
-0.006121614 0.059452306 0.4605611 4294967295
-0.006146763 0.059699245 0.45757139 4294967295
-0.006171912 0.059946183 0.45458165 4294967295
-0.0061970614 0.060193121 0.45159194 4294967295
-0.0062222108 0.06044006 0.44860223 4294967295
-0.0062473598 0.060686998 0.44561249 4294967295
-0.0062725088 0.060933936 0.44262278 4294967295
-0.0062976582 0.061180875 0.43963307 4294967295
-0.0063228076 0.061427817 0.43664336 4294967295
-0.0063479566 0.061674751 0.43365365 4294967295
-0.0063731056 0.061921693 0.43066394 4294967295
-0.006398255 0.062168628 0.42767423 4294967295
-0.006423404 0.06241557 0.42468452 4294967295
-0.0064485534 0.062662512 0.42169479 4294967295
-0.0064737024 0.062909447 0.41870508 4294967295
-0.0064988518 0.063156381 0.41571537 4294967295
-0.0065240012 0.063403323 0.41272566 4294967295
-0.0065491502 0.063650265 0.40973595 4294967295
-0.0065742992 0.0638972 0.40674624 4294967295
-0.0065994486 0.064144142 0.4037565 4294967295
-0.0066245981 0.064391077 0.40076679 4294967295
-0.006649747 0.064638019 0.39777708 4294967295
-0.006674896 0.064884953 0.39478737 4294967295
-0.0067000454 0.065131895 0.39179766 4294967295
-0.0067251944 0.06537883 0.38880795 4294967295
-0.0067503438 0.065625772 0.38581821 4294967295
-0.0067754928 0.065872714 0.3828285 4294967295
-0.0068006422 0.066119649 0.37983879 4294967295
-0.0068257917 0.066366583 0.37684909 4294967295
-0.0068509406 0.066613525 0.37385938 4294967295
-0.0068760896 0.066860467 0.37086967 4294967295
-0.006901239 0.067107402 0.36787993 4294967295
-0.0069263885 0.067354336 0.36489022 4294967295
-0.0069515374 0.067601278 0.36190051 4294967295
-0.0069766864 0.06784822 0.3589108 4294967295
-0.0070018359 0.068095155 0.35592109 4294967295
-0.0070269853 0.068342097 0.35293138 4294967295
-0.0070521343 0.068589032 0.34994167 4294967295
-0.0070772832 0.068835974 0.34695193 4294967295
-0.0071024327 0.069082908 0.34396222 4294967295
-0.0071275821 0.06932985 0.34097251 4294967295
-0.0071527311 0.069576785 0.3379828 4294967295
-0.00717788 0.069823727 0.33499309 4294967295
-0.0072030295 0.070070662 0.33200338 4294967295
-0.0072281789 0.070317604 0.32901365 4294967295
-0.0072533279 0.070564538 0.32602394 4294967295
-0.0072784768 0.07081148 0.32303423 4294967295
-0.0073036263 0.071058422 0.32004452 4294967295
-0.0073287757 0.071305357 0.31705481 4294967295
-0.0073539247 0.071552292 0.3140651 4294967295
-0.0073790736 0.071799234 0.31107536 4294967295
-0.0074042231 0.072046176 0.30808565 4294967295
-0.0074293725 0.07229311 0.30509594 4294967295
-0.0074545215 0.072540052 0.30210623 4294967295
