# .PCD v0.7 - Point Cloud Data file format
VERSION 0.7
FIELDS x y z rgb
SIZE 4 4 4 4
TYPE F F F U
COUNT 1 1 1 1
WIDTH 679
HEIGHT 1
VIEWPOINT 0 0 0 1 0 0 0
POINTS 679
DATA ascii
-0.13401334 0.021711512 0.523 4279452443
-0.13231464 0.021711512 0.523 4279321881
-0.13061593 0.021711512 0.523 4279257371
-0.090041667 0.02059065 0.49600002 4280767542
-0.088074081 0.020507623 0.49400002 4283002453
-0.086294532 0.02046611 0.49300003 4285501304
-0.084521472 0.020424597 0.49200001 4286224511
-0.082754917 0.020383084 0.49100003 4285829239
-0.13741076 0.023410792 0.523 4281154606
-0.13571204 0.023410792 0.523 4281617722
-0.13401334 0.023410792 0.523 4279780895
-0.13206165 0.023366028 0.52200001 4279584029
-0.13036619 0.023366028 0.52200001 4279321629
-0.12842424 0.023321267 0.52100003 4279190556
-0.12673202 0.023321267 0.52100003 4279387935
-0.12503982 0.023321267 0.52100003 4279124765
-0.12358436 0.023366028 0.52200001 4278925849
-0.095831096 0.022426018 0.50100005 4279192351
-0.094015807 0.022381254 0.5 4279323937
-0.092207029 0.022336492 0.49900001 4279389732
-0.090041667 0.022202205 0.49600002 4279389732
-0.088252373 0.022157442 0.49500003 4279652906
-0.086294532 0.022067918 0.49300003 4280112944
-0.084521472 0.022023154 0.49200001 4280045354
-0.082923457 0.022023154 0.49200001 4279913768
-0.081325442 0.022023154 0.49200001 4280766770
-0.1376735 0.025158087 0.52400005 4280957741
-0.13571204 0.025110073 0.523 4282078271
-0.13401334 0.025110073 0.523 4279517723
-0.13206165 0.025062062 0.52200001 4279781662
-0.13011645 0.025014052 0.52100003 4279519006
-0.12817775 0.024966041 0.52000004 4279387933
-0.12624554 0.024918029 0.51900005 4279387933
-0.12455983 0.024918029 0.51900005 4279848486
-0.12287412 0.024918029 0.51900005 4279189023
-0.12025438 0.024725983 0.51500005 4279321377
-0.11835139 0.024677968 0.514 4279124250
-0.099283367 0.024101831 0.50200003 4278862873
-0.097652875 0.024101831 0.50200003 4278928666
-0.095831096 0.024053819 0.50100005 4278994459
-0.094015807 0.024005806 0.5 4278863388
-0.092207029 0.023957795 0.49900001 4278863388
-0.090223201 0.023861771 0.49700001 4278929181
-0.088252373 0.02376575 0.49500003 4278929181
-0.086469568 0.023717737 0.49400002 4279126560
-0.084693268 0.023669727 0.49300003 4279192353
-0.083092004 0.023669727 0.49300003 4279521318
-0.081490733 0.023669727 0.49300003 4279258916
-0.079889476 0.023669727 0.49300003 4280047664
-0.078288212 0.023669727 0.49300003 4280178996
-0.076686941 0.023669727 0.49300003 4280112690
-0.14017338 0.027014397 0.52700001 4281483571
-0.13793623 0.026911877 0.52500004 4280891946
-0.13597155 0.026860617 0.52400005 4282144316
-0.13401334 0.026809353 0.523 4279517723
-0.13206165 0.026758093 0.52200001 4279519006
-0.1298667 0.026655573 0.52000004 4279388187
-0.12793125 0.026604313 0.51900005 4279190808
-0.12600228 0.02655305 0.51800001 4279387933
-0.12431981 0.02655305 0.51800001 4278334734
-0.1224006 0.02650179 0.51700002 4278197504
-0.12002087 0.026348006 0.514 4279912231
-0.11812114 0.026296746 0.51300001 4278592269
-0.11600091 0.026194226 0.51100004 4278787855
-0.11389366 0.026091704 0.509 4278787853
-0.11201991 0.026040444 0.50800002 4278722830
-0.11015267 0.025989184 0.50700003 4278393865
-0.10829192 0.025937922 0.50600004 4278329099
-0.10643765 0.02588666 0.505 4278264587
-0.10479741 0.02588666 0.505 4279122199
-0.1029529 0.0258354 0.50400001 4278860308
-0.10111488 0.02578414 0.50300002 4279452445
-0.099283367 0.02573288 0.50200003 4279321631
-0.097652875 0.02573288 0.50200003 4279255836
-0.095831096 0.02568162 0.50100005 4279058970
-0.094015807 0.025630357 0.5 4279124763
-0.092207029 0.025579097 0.49900001 4278862361
-0.090223201 0.025476575 0.49700001 4279059740
-0.088430658 0.025425315 0.49600002 4279059740
-0.086469568 0.025322793 0.49400002 4278994461
-0.084693268 0.025271533 0.49300003 4278994461
-0.083092004 0.025271533 0.49300003 4278929179
-0.081490733 0.025271533 0.49300003 4278797593
-0.079889476 0.025271533 0.49300003 4278797593
-0.078288212 0.025271533 0.49300003 4279126560
-0.076686941 0.025271533 0.49300003 4279389732
-0.075085685 0.025271533 0.49300003 4279718699
-0.073484413 0.025271533 0.49300003 4279850031
-0.071883149 0.025271533 0.49300003 4280046899
-0.15176277 0.029653341 0.54400003 4282008115
-0.14070536 0.028835695 0.52900004 4279904537
-0.13819897 0.028672164 0.52600002 4280694565
-0.13623103 0.028617654 0.52500004 4281552946
-0.13401334 0.028508633 0.523 4279386650
-0.13206165 0.028454125 0.52200001 4279650592
-0.1298667 0.028345106 0.52000004 4279453726
-0.12793125 0.028290598 0.51900005 4279257117
-0.12600228 0.028236084 0.51800001 4279125531
-0.12383982 0.028127067 0.51600003 4280242731
-0.12216385 0.028127067 0.51600003 4280108840
-0.12002087 0.028018044 0.514 4279911461
-0.11789089 0.027909027 0.51200002 4278657037
-0.11577391 0.027800009 0.51000005 4278984721
-0.11389366 0.027745496 0.509 4278983697
-0.11201991 0.027690986 0.50800002 4278983697
-0.11015267 0.027636478 0.50700003 4279115023
-0.10829192 0.027581969 0.50600004 4278786572
-0.10643765 0.027527457 0.505 4278852365
-0.10458989 0.027472947 0.50400001 4278919437
-0.1029529 0.027472947 0.50400001 4279385371
-0.10111488 0.027418438 0.50300002 4279780129
-0.099283367 0.027363928 0.50200003 4279385117
-0.097458348 0.02730942 0.50100005 4278595603
-0.095831096 0.02730942 0.50100005 4278198532
-0.094015807 0.027254907 0.5 4278198789
-0.092022248 0.027145889 0.49800003 4278200329
-0.090223201 0.027091378 0.49700001 4278726927
-0.088430658 0.02703687 0.49600002 4279649313
-0.086644612 0.02698236 0.49500003 4279781412
-0.084865063 0.026927849 0.49400002 4279387935
-0.083092004 0.026873341 0.49300003 4279190556
-0.081490733 0.026873341 0.49300003 4279059738
-0.079889476 0.026873341 0.49300003 4279454496
-0.078288212 0.026873341 0.49300003 4279388703
-0.076686941 0.026873341 0.49300003 4279257117
-0.075085685 0.026873341 0.49300003 4279191838
-0.073484413 0.026873341 0.49300003 4279192353
-0.071737342 0.026818831 0.49200001 4279258148
-0.070139319 0.026818831 0.49200001 4278798113
-0.068541311 0.026818831 0.49200001 4284518002
-0.066943288 0.026818831 0.49200001 4279979057
-0.14097133 0.030612227 0.53000003 4280364575
-0.13846169 0.03043895 0.52700001 4282538822
-0.13623103 0.030323433 0.52500004 4280831020
-0.1342696 0.030265674 0.52400005 4279453213
-0.13206165 0.030150155 0.52200001 4279256347
-0.1298667 0.030034639 0.52000004 4279519519
-0.12768474 0.02991912 0.51800001 4279453726
-0.12575904 0.029861361 0.51700002 4279387933
-0.12383982 0.029803602 0.51600003 4279913768
-0.1219271 0.029745845 0.51500005 4279845668
-0.11978737 0.029630324 0.51300001 4279450910
-0.11789089 0.029572567 0.51200002 4278854416
-0.11577391 0.029457049 0.51000005 4280038690
-0.11389366 0.029399289 0.509 4279577371
-0.11201991 0.02934153 0.50800002 4278392584
-0.11015267 0.029283771 0.50700003 4279840028
-0.10829192 0.029226014 0.50600004 4279116305
-0.10643765 0.029168252 0.505 4280695339
-0.10458989 0.029110495 0.50400001 4278853644
-0.1029529 0.029110495 0.50400001 4279516955
-0.10111488 0.029052736 0.50300002 4278201351
-0.099283367 0.028994977 0.50200003 4278661648
-0.097458348 0.028937221 0.50100005 4279649313
-0.09563981 0.028879458 0.5 4279254555
-0.093827777 0.028821699 0.49900001 4279517727
-0.092022248 0.028763942 0.49800003 4279451934
-0.090223201 0.028706182 0.49700001 4279648543
-0.088430658 0.028648423 0.49600002 4279977254
-0.086644612 0.028590666 0.49500003 4279977254
-0.084865063 0.028532906 0.49400002 4279187740
-0.083092004 0.028475147 0.49300003 4278529810
-0.081490733 0.028475147 0.49300003 4278198532
-0.079889476 0.028475147 0.49300003 4278198530
-0.078288212 0.028475147 0.49300003 4278199301
-0.076686941 0.028475147 0.49300003 4278727187
-0.075085685 0.028475147 0.49300003 4279190558
-0.073335357 0.028417388 0.49200001 4278994463
-0.071737342 0.028417388 0.49200001 4279126049
-0.070139319 0.028417388 0.49200001 4279126049
-0.068541311 0.028417388 0.49200001 4278731291
-0.066943288 0.028417388 0.49200001 4279257121
-0.065345272 0.028417388 0.49200001 4279385889
-0.14097133 0.032334249 0.53000003 4282075191
-0.13872443 0.032212231 0.528 4280564003
-0.13649051 0.032090217 0.52600002 4280567848
-0.1342696 0.031968202 0.52400005 4279190041
-0.13206165 0.031846184 0.52200001 4279256347
-0.1298667 0.03172417 0.52000004 4279387933
-0.12768474 0.031602152 0.51800001 4279256347
-0.12575904 0.031541146 0.51700002 4279387933
-0.12359983 0.031419132 0.51500005 4278201608
-0.12169035 0.031358119 0.514 4278595087
-0.11978737 0.031297114 0.51300001 4279713568
-0.11766063 0.031175099 0.51100004 4279051025
-0.11577391 0.031114092 0.51000005 4278590476
-0.11389366 0.031053081 0.509 4279379992
-0.11201991 0.030992074 0.50800002 4278590476
-0.11015267 0.030931067 0.50700003 4278919441
-0.10829192 0.03087006 0.50600004 4280236071
-0.10643765 0.030809049 0.505 4278985234
-0.10458989 0.030748041 0.50400001 4279907104
-0.1029529 0.030748041 0.50400001 4279713822
-0.10111488 0.030687034 0.50300002 4278592269
-0.099283367 0.030626027 0.50200003 4278328583
-0.097458348 0.03056502 0.50100005 4278396425
-0.09563981 0.030504009 0.5 4279517727
-0.093827777 0.030443002 0.49900001 4279385887
-0.092022248 0.030381994 0.49800003 4279714852
-0.090223201 0.030320985 0.49700001 4279911463
-0.088430658 0.030259978 0.49600002 4279780899
-0.086644612 0.030198971 0.49500003 4279386652
-0.084865063 0.030137962 0.49400002 4279190043
-0.083092004 0.030076955 0.49300003 4279255836
-0.081490733 0.030076955 0.49300003 4279255836
-0.079889476 0.030076955 0.49300003 4279452445
-0.078288212 0.030076955 0.49300003 4279781410
-0.076686941 0.030076955 0.49300003 4280110377
-0.07493338 0.030015945 0.49200001 4280044584
-0.073335357 0.030015945 0.49200001 4279125535
-0.071737342 0.030015945 0.49200001 4278994463
-0.070139319 0.030015945 0.49200001 4278928670
-0.068541311 0.030015945 0.49200001 4278862877
-0.066943288 0.030015945 0.49200001 4278928156
-0.065345272 0.030015945 0.49200001 4278662677
-0.14097133 0.034056276 0.53000003 4282271023
-0.13872443 0.033927761 0.528 4281878577
-0.13675 0.033863503 0.52700001 4280304163
-0.13452582 0.033734992 0.52500004 4279452443
-0.13231464 0.033606477 0.523 4279519006
-0.13011645 0.033477962 0.52100003 4279256347
-0.12793125 0.033349451 0.51900005 4279190554
-0.12575904 0.033220932 0.51700002 4279190554
-0.12359983 0.033092421 0.51500005 4278925588
-0.12169035 0.033028159 0.514 4279976994
-0.11955387 0.032899648 0.51200002 4279779615
-0.11766063 0.03283539 0.51100004 4278919439
-0.11577391 0.032771137 0.51000005 4278983183
-0.1136699 0.032642618 0.50800002 4278917390
-0.11201991 0.032642618 0.50800002 4278983183
-0.11015267 0.032578364 0.50700003 4279115023
-0.10829192 0.032514106 0.50600004 4278786058
-0.10643765 0.032449845 0.505 4278918674
-0.10458989 0.032385591 0.50400001 4279775518
-0.1029529 0.032385591 0.50400001 4279910947
-0.10111488 0.032321334 0.50300002 4278723341
-0.099283367 0.032257076 0.50200003 4278525449
-0.097458348 0.032192823 0.50100005 4278922771
-0.09563981 0.032128561 0.5 4279845670
-0.093827777 0.032064304 0.49900001 4278661396
-0.092022248 0.03200005 0.49800003 4279582498
-0.090223201 0.031935789 0.49700001 4278200588
-0.088430658 0.031871535 0.49600002 4278858259
-0.086644612 0.031807277 0.49500003 4278791953
-0.084865063 0.03174302 0.49400002 4278924566
-0.083092004 0.031678762 0.49300003 4278200072
-0.081490733 0.031678762 0.49300003 4279648289
-0.079889476 0.031678762 0.49300003 4278333199
-0.078288212 0.031678762 0.49300003 4279255068
-0.076531388 0.031614505 0.49200001 4279386654
-0.07493338 0.031614505 0.49200001 4279715106
-0.073335357 0.031614505 0.49200001 4279256351
-0.071737342 0.031614505 0.49200001 4279059740
-0.070139319 0.031614505 0.49200001 4278928154
-0.068541311 0.031614505 0.49200001 4278928154
-0.066943288 0.031614505 0.49200001 4278993177
-0.065345272 0.031614505 0.49200001 4279058459
-0.063617691 0.031550247 0.49100003 4282344523
-0.13872443 0.035643287 0.528 4280101137
-0.13726899 0.035710797 0.52900004 4280369186
-0.1350383 0.035575781 0.52700001 4279649822
-0.13282062 0.035440769 0.52500004 4279519006
-0.13036619 0.035238251 0.52200001 4279453213
-0.12793125 0.035035733 0.51900005 4279387933
-0.12575904 0.034900717 0.51700002 4279256347
-0.12383982 0.034833215 0.51600003 4278465552
-0.12169035 0.034698199 0.514 4279122197
-0.11955387 0.034563188 0.51200002 4279649311
-0.11766063 0.034495682 0.51100004 4279912485
-0.11577391 0.034428179 0.51000005 4280042533
-0.11389366 0.03436067 0.509 4280238631
-0.11201991 0.034293164 0.50800002 4279053844
-0.11015267 0.034225658 0.50700003 4278722830
-0.10829192 0.034158152 0.50600004 4278985232
-0.10643765 0.034090642 0.505 4278656267
-0.10479741 0.034090642 0.505 4280434213
-0.1029529 0.034023136 0.50400001 4279581723
-0.10111488 0.033955634 0.50300002 4280238116
-0.099283367 0.033888128 0.50200003 4279448602
-0.097458348 0.033820622 0.50100005 4279713057
-0.09563981 0.033753112 0.5 4279450912
-0.093827777 0.033685606 0.49900001 4279451680
-0.092022248 0.0336181 0.49800003 4278266638
-0.090223201 0.033550594 0.49700001 4279779877
-0.088430658 0.033483088 0.49600002 4278464015
-0.086644612 0.033415582 0.49500003 4278198530
-0.084865063 0.033348076 0.49400002 4279055127
-0.083092004 0.03328057 0.49300003 4279186713
-0.081490733 0.03328057 0.49300003 4279252506
-0.079889476 0.03328057 0.49300003 4279120920
-0.078288212 0.03328057 0.49300003 4279320861
-0.076531388 0.033213064 0.49200001 4278662931
-0.07493338 0.033213064 0.49200001 4279452193
-0.073335357 0.033213064 0.49200001 4279256351
-0.071737342 0.033213064 0.49200001 4279256349
-0.070139319 0.033213064 0.49200001 4279124763
-0.068541311 0.033213064 0.49200001 4279058970
-0.066943288 0.033213064 0.49200001 4279058970
-0.065345272 0.033213064 0.49200001 4279321631
-0.13872443 0.037358813 0.528 4280822807
-0.13580702 0.037500326 0.53000003 4279517723
-0.1333266 0.037288059 0.52700001 4279320857
-0.13061593 0.037005037 0.523 4279321627
-0.12842424 0.036863528 0.52100003 4279190041
-0.12600228 0.036651257 0.51800001 4279255834
-0.12383982 0.036509749 0.51600003 4279453213
-0.12169035 0.036368236 0.514 4279386650
-0.11978737 0.036297482 0.51300001 4279452443
-0.11766063 0.036155973 0.51100004 4279255834
-0.11577391 0.036085218 0.51000005 4279255834
-0.11389366 0.03601446 0.509 4279255836
-0.11201991 0.035943706 0.50800002 4279255836
-0.11015267 0.035872951 0.50700003 4279386652
-0.10829192 0.035802197 0.50600004 4279517725
-0.10664843 0.035802197 0.50600004 4279451164
-0.10479741 0.035731439 0.505 4279648543
-0.1029529 0.035660684 0.50400001 4279911715
-0.10111488 0.03558993 0.50300002 4280174373
-0.099283367 0.035519175 0.50200003 4279515676
-0.097458348 0.035448421 0.50100005 4278528013
-0.09563981 0.035377663 0.5 4278197509
-0.093827777 0.035306908 0.49900001 4278195968
-0.092022248 0.035236154 0.49800003 4278198790
-0.090223201 0.035165396 0.49700001 4278791955
-0.088430658 0.035094641 0.49600002 4278924568
-0.086644612 0.035023887 0.49500003 4279779877
-0.084865063 0.034953132 0.49400002 4279780645
-0.083092004 0.034882378 0.49300003 4279912231
-0.081490733 0.034882378 0.49300003 4279715106
-0.079889476 0.034882378 0.49300003 4279057176
-0.078288212 0.034882378 0.49300003 4279517725
-0.076531388 0.03481162 0.49200001 4278596625
-0.07493338 0.03481162 0.49200001 4279254814
-0.073335357 0.03481162 0.49200001 4279255584
-0.071737342 0.03481162 0.49200001 4279256349
-0.070139319 0.03481162 0.49200001 4278993177
-0.068541311 0.03481162 0.49200001 4279190556
-0.066943288 0.03481162 0.49200001 4279124763
-0.065345272 0.03481162 0.49200001 4278860826
-0.12867074 0.03863031 0.52200001 4279648025
-0.12624554 0.038408302 0.51900005 4279648539
-0.12407982 0.038260289 0.51700002 4279451160
-0.1219271 0.038112283 0.51500005 4279320344
-0.11978737 0.037964273 0.51300001 4279255064
-0.11766063 0.037816264 0.51100004 4279058455
-0.11577391 0.037742261 0.51000005 4279190041
-0.11389366 0.037668254 0.509 4279190041
-0.11201991 0.037594251 0.50800002 4279124248
-0.11015267 0.037520245 0.50700003 4279255834
-0.10850593 0.037520245 0.50700003 4279058455
-0.10664843 0.037446242 0.50600004 4279058457
-0.10479741 0.037372235 0.505 4279124250
-0.1029529 0.037298232 0.50400001 4279124250
-0.10111488 0.037224229 0.50300002 4279255836
-0.099283367 0.037150223 0.50200003 4279255836
-0.097458348 0.03707622 0.50100005 4279453217
-0.09563981 0.037002213 0.5 4279452447
-0.093827777 0.03692821 0.49900001 4279584033
-0.092022248 0.036854208 0.49800003 4279649313
-0.090223201 0.036780201 0.49700001 4280109094
-0.088430658 0.036706198 0.49600002 4279977508
-0.086644612 0.036632195 0.49500003 4279648289
-0.084865063 0.036558188 0.49400002 4278990361
-0.083092004 0.036484186 0.49300003 4278198275
-0.081490733 0.036484186 0.49300003 4278196992
-0.079889476 0.036484186 0.49300003 4278197248
-0.078288212 0.036484186 0.49300003 4278198790
-0.076686941 0.036484186 0.49300003 4278198790
-0.075085685 0.036484186 0.49300003 4279649572
-0.073484413 0.036484186 0.49300003 4279321377
-0.071737342 0.036410179 0.49200001 4279321629
-0.070139319 0.036410179 0.49200001 4279255836
-0.068541311 0.036410179 0.49200001 4279124763
-0.066943288 0.036410179 0.49200001 4278927384
-0.065345272 0.036410179 0.49200001 4278858775
-0.12407982 0.039940074 0.51700002 4279116039
-0.1219271 0.039785571 0.51500005 4278985736
-0.12002087 0.039708313 0.514 4279776022
-0.11789089 0.03955381 0.51200002 4279908633
-0.11577391 0.039399303 0.51000005 4280107295
-0.11389366 0.039322045 0.509 4279450648
-0.11224042 0.039322045 0.509 4279188760
-0.11036994 0.039244793 0.50800002 4279254553
-0.10850593 0.039167542 0.50700003 4279189273
-0.10664843 0.039090287 0.50600004 4279189273
-0.10500494 0.039090287 0.50600004 4279124250
-0.10315717 0.039013032 0.505 4279058457
-0.10131591 0.038935781 0.50400001 4279321629
-0.099283367 0.038781274 0.50200003 4279321629
-0.097458348 0.038704023 0.50100005 4279190043
-0.09563981 0.038626764 0.5 4279255836
-0.093827777 0.038549513 0.49900001 4279453215
-0.092022248 0.038472258 0.49800003 4279321629
-0.090223201 0.038395002 0.49700001 4279519008
-0.088430658 0.038317751 0.49600002 4279452445
-0.086644612 0.0382405 0.49500003 4279452445
-0.084865063 0.038163245 0.49400002 4279649824
-0.083260544 0.038163245 0.49400002 4279649824
-0.081490733 0.038085993 0.49300003 4279649313
-0.079889476 0.038085993 0.49300003 4279845922
-0.078288212 0.038085993 0.49300003 4279977254
-0.076686941 0.038085993 0.49300003 4279649059
-0.075085685 0.038085993 0.49300003 4279583779
-0.073484413 0.038085993 0.49300003 4279452963
-0.071883149 0.038085993 0.49300003 4279519010
-0.070281878 0.038085993 0.49300003 4279058972
-0.068680622 0.038085993 0.49300003 4279124765
-0.066943288 0.038008738 0.49200001 4278992666
-0.065345272 0.038008738 0.49200001 4278330380
-0.1219271 0.041458856 0.51500005 4279704842
-0.12002087 0.041378353 0.514 4279442440
-0.11789089 0.041217349 0.51200002 4279377160
-0.11600091 0.041136846 0.51100004 4279312137
-0.11411743 0.041056346 0.51000005 4279115785
-0.11224042 0.040975839 0.509 4279181578
-0.11036994 0.040895335 0.50800002 4278788357
-0.10850593 0.040814836 0.50700003 4279249678
-0.10685919 0.040814836 0.50700003 4279448084
-0.10500494 0.040734332 0.50600004 4279974944
-0.10315717 0.040653829 0.505 4279514393
-0.10131591 0.040573325 0.50400001 4279713055
-0.099481143 0.040492825 0.50300002 4279978024
-0.097458348 0.040331822 0.50100005 4279649059
-0.09563981 0.040251315 0.5 4279846438
-0.093827777 0.040170815 0.49900001 4279780645
-0.092022248 0.040090311 0.49800003 4279780899
-0.090223201 0.040009808 0.49700001 4279780899
-0.088430658 0.039929304 0.49600002 4279715106
-0.086644612 0.039848804 0.49500003 4279780899
-0.084865063 0.039768301 0.49400002 4279846690
-0.083260544 0.039768301 0.49400002 4279715104
-0.081656031 0.039768301 0.49400002 4279715104
-0.079889476 0.039687797 0.49300003 4279780897
-0.078288212 0.039687797 0.49300003 4279649826
-0.076686941 0.039687797 0.49300003 4279715365
-0.075085685 0.039687797 0.49300003 4279518756
-0.073484413 0.039687797 0.49300003 4279452963
-0.071883149 0.039687797 0.49300003 4279452963
-0.070281878 0.039687797 0.49300003 4279255584
-0.068680622 0.039687797 0.49300003 4279321377
-0.067079358 0.039687797 0.49300003 4279189023
-0.065345272 0.039607294 0.49200001 4281421370
-0.11600091 0.042797137 0.51100004 4279704074
-0.11411743 0.042713385 0.51000005 4279507465
-0.11224042 0.042629629 0.509 4279836430
-0.093639746 0.041708365 0.49800003 4284644713
-0.092022248 0.041708365 0.49800003 4283264344
-0.090223201 0.041624609 0.49700001 4282672720
-0.088430658 0.041540861 0.49600002 4281685312
-0.086644612 0.041457109 0.49500003 4280830003
-0.085036851 0.041457109 0.49500003 4280501036
-0.083260544 0.041373357 0.49400002 4280040739
-0.081656031 0.041373357 0.49400002 4279777567
-0.080051519 0.041373357 0.49400002 4279843360
-0.078447007 0.041373357 0.49400002 4279777567
-0.076686941 0.041289605 0.49300003 4279318299
-0.075085685 0.041289605 0.49300003 4279647523
-0.073484413 0.041289605 0.49300003 4279648037
-0.071883149 0.041289605 0.49300003 4279648041
-0.070281878 0.041289605 0.49300003 4279319076
-0.068680622 0.041289605 0.49300003 4279252254
-0.067079358 0.041289605 0.49300003 4282276677
-0.090223201 0.043239415 0.49700001 4286222462
-0.088430658 0.043152414 0.49600002 4286025083
-0.086644612 0.043065414 0.49500003 4285959290
-0.085036851 0.043065414 0.49500003 4286025083
-0.083260544 0.042978413 0.49400002 4286090876
-0.081656031 0.042978413 0.49400002 4285893497
-0.080051519 0.042978413 0.49400002 4285893497
-0.078447007 0.042978413 0.49400002 4285828472
-0.076842494 0.042978413 0.49400002 4286091644
-0.075237982 0.042978413 0.49400002 4285762679
-0.073484413 0.042891413 0.49300003 4285828472
-0.071883149 0.042891413 0.49300003 4285631093
-0.070281878 0.042891413 0.49300003 4285960058
-0.068680622 0.042891413 0.49300003 4285236850
-0.098934337 0.032505434 0.5034157 4294967295
-0.098934337 0.032505434 0.5034157 4294901760
-0.098934337 0.032505434 0.50391573 4294901760
-0.098934337 0.032505434 0.50441569 4294901760
-0.098934337 0.032505434 0.50491571 4294901760
-0.098934337 0.032505434 0.50541568 4294901760
-0.098934337 0.032505434 0.5059157 4294901760
-0.098934337 0.032505434 0.50641572 4294901760
-0.098934337 0.032505434 0.50691569 4294901760
-0.098934337 0.032505434 0.50741571 4294901760
-0.098934337 0.032505434 0.50791568 4294901760
-0.098934337 0.032505434 0.5084157 4294901760
-0.098934337 0.032505434 0.50891572 4294901760
-0.098934337 0.032505434 0.50941569 4294901760
-0.098934337 0.032505434 0.50991571 4294901760
-0.098934337 0.032505434 0.51041573 4294901760
-0.098934337 0.032505434 0.5109157 4294901760
-0.098934337 0.032505434 0.51141572 4294901760
-0.098934337 0.032505434 0.51191568 4294901760
-0.098934337 0.032505434 0.51241571 4294901760
-0.098934337 0.032505434 0.51291573 4294901760
-0.098934337 0.032505434 0.51341569 4294901760
-0.098934337 0.032505434 0.51391572 4294901760
-0.098934337 0.032505434 0.51441568 4294901760
-0.098934337 0.032505434 0.5149157 4294901760
-0.098934337 0.032505434 0.51541573 4294901760
-0.098934337 0.032505434 0.51591569 4294901760
-0.098934337 0.032505434 0.51641572 4294901760
-0.098934337 0.032505434 0.51691568 4294901760
-0.098934337 0.032505434 0.5174157 4294901760
-0.098934337 0.032505434 0.51791573 4294901760
-0.098934337 0.032505434 0.51841569 4294901760
-0.098934337 0.032505434 0.51891571 4294901760
-0.098934337 0.032505434 0.51941574 4294901760
-0.098934337 0.032505434 0.5199157 4294901760
-0.098934337 0.032505434 0.52041572 4294901760
-0.098934337 0.032505434 0.52091569 4294901760
-0.098934337 0.032505434 0.52141571 4294901760
-0.098934337 0.032505434 0.52191573 4294901760
-0.098934337 0.032505434 0.5224157 4294901760
-0.098934337 0.032505434 0.52291572 4294901760
-0.098934337 0.032505434 0.52341568 4294901760
-0.098934337 0.032505434 0.52391571 4294901760
-0.098934337 0.032505434 0.52441573 4294901760
-0.098934337 0.032505434 0.5249157 4294901760
-0.098934337 0.032505434 0.52541572 4294901760
-0.098934337 0.032505434 0.52591568 4294901760
-0.098934337 0.032505434 0.52641571 4294901760
-0.098934337 0.032505434 0.52691573 4294901760
-0.098934337 0.032505434 0.52741569 4294901760
-0.098934337 0.032505434 0.52791572 4294901760
-0.098934337 0.032505434 0.52841568 4294901760
-0.098934337 0.032505434 0.5289157 4294901760
-0.098934337 0.032505434 0.52941573 4294901760
-0.098934337 0.032505434 0.52991569 4294901760
-0.098934337 0.032505434 0.53041571 4294901760
-0.098934337 0.032505434 0.53091574 4294901760
-0.098934337 0.032505434 0.5314157 4294901760
-0.098934337 0.032505434 0.53191572 4294901760
-0.098934337 0.032505434 0.53241569 4294901760
-0.098934337 0.032505434 0.53291571 4294901760
-0.098934337 0.032505434 0.53341573 4294901760
-0.098934337 0.032505434 0.5339157 4294901760
-0.098934337 0.032505434 0.53441572 4294901760
-0.098934337 0.032505434 0.53491569 4294901760
-0.098934337 0.032505434 0.53541571 4294901760
-0.098934337 0.032505434 0.53591573 4294901760
-0.098934337 0.032505434 0.5364157 4294901760
-0.098934337 0.032505434 0.53691572 4294901760
-0.098934337 0.032505434 0.53741574 4294901760
-0.098934337 0.032505434 0.53791571 4294901760
-0.098934337 0.032505434 0.53841573 4294901760
-0.098934337 0.032505434 0.53891569 4294901760
-0.098934337 0.032505434 0.53941572 4294901760
-0.098934337 0.032505434 0.53991574 4294901760
-0.098934337 0.032505434 0.5404157 4294901760
-0.098934337 0.032505434 0.54091573 4294901760
-0.098934337 0.032505434 0.54141569 4294901760
-0.098934337 0.032505434 0.54191571 4294901760
-0.098934337 0.032505434 0.54241574 4294901760
-0.098934337 0.032505434 0.5429157 4294901760
-0.098934337 0.032505434 0.54341573 4294901760
-0.098934337 0.032505434 0.54391569 4294901760
-0.098934337 0.032505434 0.54441571 4294901760
-0.098934337 0.032505434 0.54491574 4294901760
-0.098934337 0.032505434 0.5454157 4294901760
-0.098934337 0.032505434 0.54591572 4294901760
-0.098934337 0.032505434 0.54641569 4294901760
-0.098934337 0.032505434 0.54691571 4294901760
-0.098934337 0.032505434 0.54741573 4294901760
-0.098934337 0.032505434 0.5479157 4294901760
-0.098934337 0.032505434 0.54841572 4294901760
-0.098934337 0.032505434 0.54891574 4294901760
-0.098934337 0.032505434 0.54941571 4294901760
-0.098934337 0.032505434 0.54991573 4294901760
-0.098934337 0.032505434 0.55041569 4294901760
-0.098934337 0.032505434 0.55091572 4294901760
-0.098934337 0.032505434 0.55141574 4294901760
-0.098934337 0.032505434 0.55191571 4294901760
-0.098934337 0.032505434 0.55241573 4294901760
-0.098934337 0.032505434 0.55291569 4294901760
-0.098934337 0.032505434 0.55341572 4294901760
-0.098934337 0.032505434 0.5034157 4278255360
-0.098696731 0.032501761 0.50385565 4278255360
-0.098459117 0.032498088 0.50429553 4278255360
-0.098221511 0.032494415 0.50473547 4278255360
-0.097983904 0.032490738 0.50517535 4278255360
-0.09774629 0.032487065 0.50561529 4278255360
-0.097508684 0.032483391 0.50605524 4278255360
-0.09727107 0.032479718 0.50649512 4278255360
-0.097033463 0.032476045 0.50693506 4278255360
-0.096795857 0.032472372 0.50737494 4278255360
-0.096558243 0.032468699 0.50781488 4278255360
-0.096320637 0.032465022 0.50825483 4278255360
-0.09608303 0.032461349 0.50869471 4278255360
-0.095845416 0.032457676 0.50913465 4278255360
-0.09560781 0.032454003 0.50957459 4278255360
-0.095370203 0.03245033 0.51001447 4278255360
-0.095132589 0.032446656 0.51045442 4278255360
-0.094894983 0.03244298 0.5108943 4278255360
-0.094657376 0.032439306 0.51133424 4278255360
-0.094419762 0.032435633 0.51177418 4278255360
-0.094182156 0.03243196 0.51221406 4278255360
-0.093944542 0.032428287 0.51265401 4278255360
-0.093706936 0.032424614 0.51309389 4278255360
-0.093469329 0.032420941 0.51353383 4278255360
-0.093231715 0.032417264 0.51397377 4278255360
-0.092994109 0.032413591 0.51441365 4278255360
-0.092756502 0.032409918 0.5148536 4278255360
-0.092518888 0.032406244 0.51529348 4278255360
-0.092281282 0.032402571 0.51573342 4278255360
-0.092043675 0.032398898 0.51617336 4278255360
-0.091806062 0.032395221 0.51661325 4278255360
-0.091568455 0.032391548 0.51705319 4278255360
-0.091330841 0.032387875 0.51749313 4278255360
-0.091093235 0.032384202 0.51793301 4278255360
-0.090855628 0.032380529 0.51837295 4278255360
-0.090618014 0.032376856 0.51881284 4278255360
-0.090380408 0.032373182 0.51925278 4278255360
-0.090142801 0.032369506 0.51969272 4278255360
-0.089905187 0.032365832 0.5201326 4278255360
-0.089667581 0.032362159 0.52057254 4278255360
-0.089429975 0.032358486 0.52101243 4278255360
-0.089192361 0.032354813 0.52145237 4278255360
-0.088954754 0.03235114 0.52189231 4278255360
-0.088717148 0.032347467 0.52233219 4278255360
-0.088479534 0.03234379 0.52277213 4278255360
-0.088241927 0.032340117 0.52321202 4278255360
-0.088004313 0.032336444 0.52365196 4278255360
-0.087766707 0.032332771 0.5240919 4278255360
-0.0875291 0.032329097 0.52453178 4278255360
-0.087291487 0.032325424 0.52497172 4278255360
-0.08705388 0.032321751 0.52541161 4278255360
-0.086816274 0.032318074 0.52585155 4278255360
-0.08657866 0.032314401 0.52629149 4278255360
-0.086341053 0.032310728 0.52673137 4278255360
-0.086103439 0.032307055 0.52717131 4278255360
-0.085865833 0.032303382 0.52761126 4278255360
-0.085628226 0.032299709 0.52805114 4278255360
-0.085390612 0.032296032 0.52849108 4278255360
-0.085153006 0.032292359 0.52893096 4278255360
-0.0849154 0.032288685 0.5293709 4278255360
-0.084677786 0.032285012 0.52981085 4278255360
-0.084440179 0.032281339 0.53025073 4278255360
-0.084202573 0.032277666 0.53069067 4278255360
-0.083964959 0.032273993 0.53113055 4278255360
-0.083727352 0.032270316 0.53157049 4278255360
-0.083489746 0.032266643 0.53201044 4278255360
-0.083252132 0.03226297 0.53245032 4278255360
-0.083014525 0.032259297 0.53289026 4278255360
-0.082776919 0.032255623 0.5333302 4278255360
-0.082539305 0.03225195 0.53377008 4278255360
-0.082301699 0.032248273 0.53421003 4278255360
-0.082064092 0.0322446 0.53464991 4278255360
-0.081826478 0.032240927 0.53508985 4278255360
-0.081588872 0.032237254 0.53552979 4278255360
-0.081351258 0.032233581 0.53596967 4278255360
-0.081113651 0.032229908 0.53640962 4278255360
-0.080876045 0.032226235 0.5368495 4278255360
-0.080638431 0.032222558 0.53728944 4278255360
-0.080400825 0.032218885 0.53772938 4278255360
-0.080163211 0.032215212 0.53816926 4278255360
-0.079925604 0.032211538 0.53860921 4278255360
-0.079687998 0.032207865 0.53904909 4278255360
-0.079450384 0.032204192 0.53948903 4278255360
-0.079212777 0.032200519 0.53992897 4278255360
-0.078975171 0.032196842 0.54036885 4278255360
-0.078737557 0.032193169 0.5408088 4278255360
-0.07849995 0.032189496 0.54124868 4278255360
-0.078262344 0.032185823 0.54168862 4278255360
-0.07802473 0.03218215 0.54212856 4278255360
-0.077787124 0.032178476 0.54256845 4278255360
-0.077549517 0.032174803 0.54300839 4278255360
-0.077311903 0.032171126 0.54344833 4278255360
-0.077074297 0.032167453 0.54388821 4278255360
-0.07683669 0.03216378 0.54432815 4278255360
-0.076599076 0.032160107 0.54476804 4278255360
-0.07636147 0.032156434 0.54520798 4278255360
-0.076123863 0.032152761 0.54564792 4278255360
-0.07588625 0.032149084 0.5460878 4278255360
-0.075648643 0.032145411 0.54652774 4278255360
-0.075411029 0.032141738 0.54696763 4278255360
-0.075173423 0.032138065 0.54740757 4278255360
