# .PCD v0.7 - Point Cloud Data file format
VERSION 0.7
FIELDS x y z rgb
SIZE 4 4 4 4
TYPE F F F U
COUNT 1 1 1 1
WIDTH 1024
HEIGHT 1
VIEWPOINT 0 0 0 1 0 0 0
POINTS 1024
DATA ascii
-0.094536752 0.030714905 0.47800002 4278731287
-0.093373261 0.03084342 0.48000002 4278731287
-0.092005506 0.030907677 0.48100004 4278863386
-0.090631239 0.030971935 0.48200002 4278863386
-0.089065708 0.030971935 0.48200002 4278863386
-0.11081035 0.029567728 0.43800002 4280628262
-0.10938773 0.029567728 0.43800002 4280432165
-0.10821159 0.029635234 0.43900001 4281815866
-0.10678571 0.029635234 0.43900001 4279452443
-0.10439985 0.02936521 0.43500003 4279584029
-0.10251347 0.029230196 0.43300003 4279387933
-0.10087357 0.02916269 0.43200001 4279256347
-0.099009924 0.029027676 0.43000001 4278993945
-0.097386286 0.028960172 0.42900002 4279257119
-0.09576913 0.028892666 0.42800003 4278993949
-0.094158471 0.028825158 0.42700002 4278925849
-0.09233705 0.028690146 0.42500001 4279254555
-0.090956643 0.028690146 0.42500001 4279190043
-0.089365482 0.02862264 0.42400002 4278794513
-0.087988324 0.02862264 0.42400002 4279057174
-0.09702903 0.032065459 0.47500002 4279452443
-0.095888272 0.032200471 0.47700003 4279255064
-0.094536752 0.032267977 0.47800002 4279058968
-0.093373261 0.032402989 0.48000002 4278796566
-0.092005506 0.032470495 0.48100004 4278862359
-0.090631239 0.032538 0.48200002 4278796566
-0.089065708 0.032538 0.48200002 4278993945
-0.11081035 0.030990833 0.43800002 4281483054
-0.10913798 0.030920077 0.43700001 4280497958
-0.1079651 0.030990833 0.43800002 4281290036
-0.10629922 0.030920077 0.43700001 4279519008
-0.10439985 0.030778568 0.43500003 4279453215
-0.10251347 0.030637057 0.43300003 4279125531
-0.10064007 0.030495547 0.43100002 4279257117
-0.099009924 0.03042479 0.43000001 4279125531
-0.097159281 0.030283282 0.42800003 4278862359
-0.095545366 0.030212525 0.42700002 4279321631
-0.093937963 0.030141771 0.42600003 4278199817
-0.09233705 0.030071015 0.42500001 4279385371
-0.090742633 0.03000026 0.42400002 4278990611
-0.089365482 0.03000026 0.42400002 4278657035
-0.087780803 0.029929504 0.42300001 4278655754
-0.086202629 0.029858749 0.42200002 4278655756
-0.084630951 0.029787995 0.42100003 4278655754
-0.083065763 0.029717239 0.42000002 4278524679
-0.081507079 0.029646484 0.41900003 4278195970
-0.080146164 0.029646484 0.41900003 4278197253
-0.090631239 0.034104068 0.48200002 4278462220
-0.067605905 0.028938929 0.40900001 4278993945
-0.066277474 0.028938929 0.40900001 4279059738
-0.064790241 0.028868174 0.40800002 4279059738
-0.063309498 0.028797418 0.40700001 4279125531
-0.061987568 0.028797418 0.40700001 4279059738
-0.060516577 0.028726663 0.40600002 4279322912
-0.059197884 0.028726663 0.40600002 4279125533
-0.057736639 0.028655909 0.40500003 4278994461
-0.056281887 0.028585153 0.40400001 4279126047
-0.054833632 0.028514398 0.40300003 4278797082
-0.053524684 0.028514398 0.40300003 4279126047
-0.052215744 0.028514398 0.40300003 4279126047
-0.11081035 0.032413941 0.43800002 4281022505
-0.10913798 0.032339934 0.43700001 4280432417
-0.1077186 0.032339934 0.43700001 4280830253
-0.10605597 0.032265931 0.43600002 4279256349
-0.10415985 0.032117922 0.43400002 4279519519
-0.10227671 0.031969912 0.43200001 4279453726
-0.10064007 0.031895909 0.43100002 4279059738
-0.098779671 0.0317479 0.42900002 4278928152
-0.097159281 0.031673897 0.42800003 4279059738
-0.095545366 0.03159989 0.42700002 4278730005
-0.093937963 0.031525888 0.42600003 4278199817
-0.09233705 0.031451881 0.42500001 4279648543
-0.090742633 0.031377878 0.42400002 4279647775
-0.089154705 0.031303871 0.42300001 4278983951
-0.087780803 0.031303871 0.42300001 4278852365
-0.086202629 0.03122987 0.42200002 4279048463
-0.084630951 0.031155866 0.42100003 4278851597
-0.083065763 0.031081861 0.42000002 4279048463
-0.081507079 0.031007856 0.41900003 4278982670
-0.079954885 0.030933851 0.41800001 4278917390
-0.078409187 0.030859848 0.41700003 4278720779
-0.076869987 0.030785842 0.41600001 4278655754
-0.075337283 0.030711839 0.41500002 4280238629
-0.073811077 0.030637836 0.41400003 4278858513
-0.072466403 0.030637836 0.41400003 4278198274
-0.070778146 0.030489827 0.41200003 4278196480
-0.069271423 0.03041582 0.41100001 4278196992
-0.067771204 0.030341817 0.41000003 4278197506
-0.066277474 0.03026781 0.40900001 4278726162
-0.064790241 0.030193808 0.40800002 4279121945
-0.063465059 0.030193808 0.40800002 4279189021
-0.061987568 0.030119803 0.40700001 4279386654
-0.060516577 0.030045798 0.40600002 4279584031
-0.059197884 0.030045798 0.40600002 4279256349
-0.057736639 0.029971795 0.40500003 4279124763
-0.056281887 0.029897789 0.40400001 4279257119
-0.054833632 0.029823786 0.40300003 4278994461
-0.053524684 0.029823786 0.40300003 4279126047
-0.052215744 0.029823786 0.40300003 4279126047
-0.050780475 0.029749781 0.40200001 4278928670
-0.04947478 0.029749781 0.40200001 4279126049
-0.04816908 0.029749781 0.40200001 4278863390
-0.046863385 0.029749781 0.40200001 4279060769
-0.045557689 0.029749781 0.40200001 4278863390
-0.044251993 0.029749781 0.40200001 4279060769
-0.043053132 0.029823786 0.40300003 4279258918
-0.041744184 0.029823786 0.40300003 4278929699
-0.04043524 0.029823786 0.40300003 4286163849
-0.039126292 0.029823786 0.40300003 4279781930
-0.037817348 0.029823786 0.40300003 4279912494
-0.11055735 0.033759791 0.43700001 4280890147
-0.10913798 0.033759791 0.43700001 4282076470
-0.10747211 0.03368254 0.43600002 4280763944
-0.10581274 0.033605289 0.43500003 4279387933
-0.10415985 0.033528034 0.43400002 4279256347
-0.10227671 0.033373524 0.43200001 4279125531
-0.10040656 0.033219017 0.43000001 4279322910
-0.098779671 0.033141766 0.42900002 4278993945
-0.097159281 0.033064511 0.42800003 4279059740
-0.095321611 0.032910004 0.42600003 4279190556
-0.093937963 0.032910004 0.42600003 4278196480
-0.09233705 0.032832749 0.42500001 4279320094
-0.090742633 0.032755498 0.42400002 4279121433
-0.089154705 0.032678243 0.42300001 4278853648
-0.087573282 0.032600991 0.42200002 4279050773
-0.085998364 0.032523736 0.42100003 4279379479
-0.084429927 0.032446481 0.42000002 4279773467
-0.082867987 0.03236923 0.41900003 4280102432
-0.081507079 0.03236923 0.41900003 4280102432
-0.079954885 0.032291975 0.41800001 4279707674
-0.078409187 0.032214724 0.41700003 4279049744
-0.076869987 0.032137468 0.41600001 4278852365
-0.075337283 0.032060217 0.41500002 4280303141
-0.073811077 0.031982962 0.41400003 4279451932
-0.072466403 0.031982962 0.41400003 4279451932
-0.070949942 0.031905707 0.41300002 4279386141
-0.06943997 0.031828456 0.41200003 4279451934
-0.067771204 0.031673949 0.41000003 4280109094
-0.066277474 0.031596694 0.40900001 4279779615
-0.064949036 0.031596694 0.40900001 4280042274
-0.063465059 0.031519443 0.40800002 4279055379
-0.061987568 0.031442188 0.40700001 4278791953
-0.060516577 0.031364933 0.40600002 4278198532
-0.059197884 0.031364933 0.40600002 4278197506
-0.057736639 0.031287681 0.40500003 4278196992
-0.056281887 0.031210426 0.40400001 4278198276
-0.054833632 0.031133173 0.40300003 4278397710
-0.053524684 0.031133173 0.40300003 4278990359
-0.052215744 0.031133173 0.40300003 4279451934
-0.050780475 0.03105592 0.40200001 4279255838
-0.04947478 0.03105592 0.40200001 4279190045
-0.04816908 0.03105592 0.40200001 4279059742
-0.046863385 0.03105592 0.40200001 4278862877
-0.045557689 0.03105592 0.40200001 4278994463
-0.044251993 0.03105592 0.40200001 4278994463
-0.043053132 0.031133173 0.40300003 4279126562
-0.041744184 0.031133173 0.40300003 4279323941
-0.04043524 0.031133173 0.40300003 4278797597
-0.039126292 0.031133173 0.40300003 4279454760
-0.037817348 0.031133173 0.40300003 4279322660
-0.036508407 0.031133173 0.40300003 4278663962
-0.11055735 0.035179649 0.43700001 4280957475
-0.10888824 0.035099149 0.43600002 4280432415
-0.10747211 0.035099149 0.43600002 4280699434
-0.10581274 0.035018645 0.43500003 4279124763
-0.10391985 0.034857642 0.43300003 4279256349
-0.10227671 0.034777138 0.43200001 4279256347
-0.10040656 0.034616131 0.43000001 4279190554
-0.098779671 0.034535628 0.42900002 4279059738
-0.09693227 0.034374624 0.42700002 4278993945
-0.095321611 0.034294121 0.42600003 4279452445
-0.093717448 0.034213617 0.42500001 4278196992
-0.092119791 0.034133118 0.42400002 4279320094
-0.090742633 0.034133118 0.42400002 4278200331
-0.089154705 0.034052614 0.42300001 4278656785
-0.087573282 0.033972111 0.42200002 4279379738
-0.085998364 0.033891611 0.42100003 4278195715
-0.084429927 0.033811107 0.42000002 4279116818
-0.082867987 0.033730604 0.41900003 4279511063
-0.081312552 0.0336501 0.41800001 4278524168
-0.079954885 0.0336501 0.41800001 4278524170
-0.078409187 0.033569597 0.41700003 4280301094
-0.076869987 0.033489093 0.41600001 4278656269
-0.075337283 0.033408593 0.41500002 4279710750
-0.073811077 0.03332809 0.41400003 4279386654
-0.072466403 0.03332809 0.41400003 4278266122
-0.070949942 0.033247586 0.41300002 4278330121
-0.06943997 0.033167087 0.41200003 4279648029
-0.067936495 0.033086583 0.41100001 4278266890
-0.066439524 0.033006079 0.41000003 4279780129
-0.064949036 0.032925576 0.40900001 4279320346
-0.063465059 0.032845076 0.40800002 4279189273
-0.061987568 0.032764569 0.40700001 4279255068
-0.06066563 0.032764569 0.40700001 4279386654
-0.059197884 0.032684069 0.40600002 4279584033
-0.057736639 0.032603566 0.40500003 4279451934
-0.056281887 0.032523062 0.40400001 4279451934
-0.054969691 0.032523062 0.40400001 4279386141
-0.053524684 0.032442562 0.40300003 4279582750
-0.052215744 0.032442562 0.40300003 4279319064
-0.050906796 0.032442562 0.40300003 4278792468
-0.049597852 0.032442562 0.40300003 4278199820
-0.04816908 0.032362059 0.40200001 4278196994
-0.046863385 0.032362059 0.40200001 4279319072
-0.045557689 0.032362059 0.40200001 4279058718
-0.044251993 0.032362059 0.40200001 4279058718
-0.042946298 0.032362059 0.40200001 4278994209
-0.041744184 0.032442562 0.40300003 4278731037
-0.04043524 0.032442562 0.40300003 4278862623
-0.039126292 0.032442562 0.40300003 4278862877
-0.037817348 0.032442562 0.40300003 4278993949
-0.036508407 0.032442562 0.40300003 4278928156
-0.11055735 0.036599506 0.43700001 4282403125
-0.10888824 0.036515757 0.43600002 4281550126
-0.10747211 0.036515757 0.43600002 4280304422
-0.10581274 0.036432005 0.43500003 4279256349
-0.10391985 0.036264502 0.43300003 4279256349
-0.10227671 0.03618075 0.43200001 4279453728
-0.10040656 0.036013246 0.43000001 4279256349
-0.098779671 0.035929494 0.42900002 4279190554
-0.09693227 0.03576199 0.42700002 4279058968
-0.095321611 0.035678241 0.42600003 4279188762
-0.093717448 0.035594486 0.42500001 4278395660
-0.092119791 0.035510737 0.42400002 4279582496
-0.090528615 0.035426982 0.42300001 4278792468
-0.089154705 0.035426982 0.42300001 4278852881
-0.087573282 0.035343233 0.42200002 4278983697
-0.085998364 0.035259482 0.42100003 4278983951
-0.084429927 0.03517573 0.42000002 4278983951
-0.082867987 0.035091978 0.41900003 4279247123
-0.081312552 0.035008226 0.41800001 4278983437
-0.079763606 0.034924474 0.41700003 4280104483
-0.078409187 0.034924474 0.41700003 4280039201
-0.076869987 0.034840722 0.41600001 4278853133
-0.075337283 0.03475697 0.41500002 4280435497
-0.073811077 0.034673218 0.41400003 4278198533
-0.072291359 0.034589466 0.41300002 4278722830
-0.070949942 0.034589466 0.41300002 4278984721
-0.06943997 0.034505714 0.41200003 4279579164
-0.067936495 0.034421962 0.41100001 4280042020
-0.066439524 0.034338214 0.41000003 4278989845
-0.064949036 0.034254458 0.40900001 4279121431
-0.063465059 0.03417071 0.40800002 4279450398
-0.061987568 0.034086954 0.40700001 4278199301
-0.06066563 0.034086954 0.40700001 4279254301
-0.059197884 0.034003206 0.40600002 4279649824
-0.057736639 0.033919454 0.40500003 4279320859
-0.056281887 0.033835702 0.40400001 4279124250
-0.054969691 0.033835702 0.40400001 4279058457
-0.053524684 0.03375195 0.40300003 4279124763
-0.052215744 0.03375195 0.40300003 4279190558
-0.050906796 0.03375195 0.40300003 4279255584
-0.049597852 0.03375195 0.40300003 4279321377
-0.048288908 0.03375195 0.40300003 4279451682
-0.046863385 0.033668198 0.40200001 4278198535
-0.045557689 0.033668198 0.40200001 4279189791
-0.044251993 0.033668198 0.40200001 4279123998
-0.042946298 0.033668198 0.40200001 4279124511
-0.041640598 0.033668198 0.40200001 4278927902
-0.04043524 0.03375195 0.40300003 4278862109
-0.039126292 0.03375195 0.40300003 4278927902
-0.037817348 0.03375195 0.40300003 4278862363
-0.036508407 0.03375195 0.40300003 4278795800
-0.11055735 0.038019363 0.43700001 4280427020
-0.10888824 0.037932366 0.43600002 4279115525
-0.10747211 0.037932366 0.43600002 4279909916
-0.10581274 0.037845366 0.43500003 4279320857
-0.10391985 0.037671361 0.43300003 4279519006
-0.10227671 0.037584361 0.43200001 4279256347
-0.10040656 0.03741036 0.43000001 4279256347
-0.098549418 0.037236359 0.42800003 4279058968
-0.09693227 0.037149355 0.42700002 4279124761
-0.095321611 0.037062358 0.42600003 4279320861
-0.093717448 0.036975354 0.42500001 4279385119
-0.092119791 0.036888354 0.42400002 4279451934
-0.090528615 0.036801353 0.42300001 4279450398
-0.088943943 0.036714353 0.42200002 4278983183
-0.087365769 0.036627352 0.42100003 4279180562
-0.085794091 0.036540352 0.42000002 4279245842
-0.084228903 0.036453351 0.41900003 4279048463
-0.082867987 0.036453351 0.41900003 4278982670
-0.081312552 0.036366347 0.41800001 4279048463
-0.079763606 0.036279351 0.41700003 4278851851
-0.07822115 0.036192346 0.41600001 4278852365
-0.076869987 0.036192346 0.41600001 4278393095
-0.075337283 0.036105346 0.41500002 4279778078
-0.073811077 0.036018349 0.41400003 4278461705
-0.072291359 0.035931345 0.41300002 4278919439
-0.070949942 0.035931345 0.41300002 4279050514
-0.06943997 0.035844345 0.41200003 4279776031
-0.067936495 0.035757344 0.41100001 4279910949
-0.066439524 0.035670344 0.41000003 4279187224
-0.064949036 0.03558334 0.40900001 4278266122
-0.063465059 0.035496343 0.40800002 4279516703
-0.061987568 0.035409339 0.40700001 4279779361
-0.06066563 0.035409339 0.40700001 4279055638
-0.059197884 0.035322338 0.40600002 4279120918
-0.057736639 0.035235338 0.40500003 4280567594
-0.056421202 0.035235338 0.40500003 4279187740
-0.054969691 0.035148337 0.40400001 4278200331
-0.053657498 0.035148337 0.40400001 4278794004
-0.052215744 0.035061337 0.40300003 4278596625
-0.050906796 0.035061337 0.40300003 4278728470
-0.049597852 0.035061337 0.40300003 4279190558
-0.048288908 0.035061337 0.40300003 4279452193
-0.046979964 0.035061337 0.40300003 4278199046
-0.045671016 0.035061337 0.40300003 4279189791
-0.044251993 0.034974337 0.40200001 4279124765
-0.042946298 0.034974337 0.40200001 4279059742
-0.041640598 0.034974337 0.40200001 4278928156
-0.04043524 0.035061337 0.40300003 4278993949
-0.039126292 0.035061337 0.40300003 4278862363
-0.037817348 0.035061337 0.40300003 4278927386
-0.036508407 0.035061337 0.40300003 4278861080
-0.11055735 0.039439224 0.43700001 4281478423
-0.10888824 0.039348975 0.43600002 4280562454
-0.10722561 0.039258726 0.43500003 4279975707
-0.10556948 0.039168477 0.43400002 4279255834
-0.10391985 0.039078228 0.43300003 4279256088
-0.10203996 0.038897727 0.43100002 4279519260
-0.10040656 0.038807474 0.43000001 4279321881
-0.098549418 0.038626976 0.42800003 4279125015
-0.09693227 0.038536727 0.42700002 4279058968
-0.095321611 0.038446479 0.42600003 4278202126
-0.093717448 0.038356226 0.42500001 4278923539
-0.092119791 0.038265977 0.42400002 4279254814
-0.090528615 0.038175724 0.42300001 4279255068
-0.088943943 0.038085476 0.42200002 4280042535
-0.087365769 0.037995227 0.42100003 4279909412
-0.085794091 0.037904978 0.42000002 4279448861
-0.084228903 0.037814729 0.41900003 4278592271
-0.082670212 0.037724476 0.41800001 4278524681
-0.081312552 0.037724476 0.41800001 4278655754
-0.079763606 0.037634227 0.41700003 4278852365
-0.07822115 0.037543975 0.41600001 4278983437
-0.076685205 0.037453726 0.41500002 4278458377
-0.075337283 0.037453726 0.41500002 4279843871
-0.073811077 0.037363477 0.41400003 4280174119
-0.072291359 0.037273228 0.41300002 4279119383
-0.070778146 0.037182979 0.41200003 4279644957
-0.06943997 0.037182979 0.41200003 4279909666
-0.067936495 0.037092727 0.41100001 4279581469
-0.066439524 0.037002478 0.41000003 4279976742
-0.064949036 0.036912225 0.40900001 4279516189
-0.063465059 0.036821976 0.40800002 4278199044
-0.061987568 0.036731727 0.40700001 4279055638
-0.06066563 0.036731727 0.40700001 4279713568
-0.059197884 0.036641479 0.40600002 4278726162
-0.057736639 0.03655123 0.40500003 4278196996
-0.056421202 0.03655123 0.40500003 4280173608
-0.054969691 0.036460977 0.40400001 4279779363
-0.053657498 0.036460977 0.40400001 4278198532
-0.052345309 0.036460977 0.40400001 4278198790
-0.050906796 0.036370728 0.40300003 4279054355
-0.049597852 0.036370728 0.40300003 4279385887
-0.048288908 0.036370728 0.40300003 4279649572
-0.046979964 0.036370728 0.40300003 4278201099
-0.045671016 0.036370728 0.40300003 4279058972
-0.044362072 0.036370728 0.40300003 4278928156
-0.043053132 0.036370728 0.40300003 4278928156
-0.041744184 0.036370728 0.40300003 4278928156
-0.04043524 0.036370728 0.40300003 4278927902
-0.039126292 0.036370728 0.40300003 4278664730
-0.037817348 0.036370728 0.40300003 4278992925
-0.036508407 0.036370728 0.40300003 4279255584
-0.11055735 0.040859081 0.43700001 4281281046
-0.10888824 0.040765584 0.43600002 4280494608
-0.10722561 0.040672086 0.43500003 4279973910
-0.10556948 0.040578585 0.43400002 4278991892
-0.10391985 0.040485088 0.43300003 4279321627
-0.10203996 0.040298089 0.43100002 4279190554
-0.10040656 0.040204588 0.43000001 4279124761
-0.098549418 0.040017594 0.42800003 4279256347
-0.09693227 0.039924093 0.42700002 4278993175
-0.095321611 0.039830595 0.42600003 4279190043
-0.093717448 0.039737094 0.42500001 4279255836
-0.092119791 0.039643597 0.42400002 4279386652
-0.090528615 0.039550096 0.42300001 4279255836
-0.088943943 0.039456598 0.42200002 4279124250
-0.087365769 0.039363101 0.42100003 4279190043
-0.085794091 0.0392696 0.42000002 4279124250
-0.084228903 0.039176103 0.41900003 4279255836
-0.082670212 0.039082602 0.41800001 4279320861
-0.081118025 0.038989104 0.41700003 4279912485
-0.079763606 0.038989104 0.41700003 4279911461
-0.07822115 0.038895603 0.41600001 4280306219
-0.076685205 0.038802106 0.41500002 4279779361
-0.07515575 0.038708605 0.41400003 4279253017
-0.073811077 0.038708605 0.41400003 4278397195
-0.072291359 0.038615108 0.41300002 4278198791
-0.070778146 0.038521606 0.41200003 4278196997
-0.069271423 0.038428109 0.41100001 4278328583
-0.067936495 0.038428109 0.41100001 4278329867
-0.066439524 0.038334608 0.41000003 4278988310
-0.064949036 0.038241111 0.40900001 4279318812
-0.063465059 0.03814761 0.40800002 4279516189
-0.061987568 0.038054112 0.40700001 4279320094
-0.06066563 0.038054112 0.40700001 4279451680
-0.059197884 0.037960611 0.40600002 4279386654
-0.057736639 0.037867114 0.40500003 4279386654
-0.056421202 0.037867114 0.40500003 4279451934
-0.055105757 0.037867114 0.40500003 4279385887
-0.053657498 0.037773613 0.40400001 4279319326
-0.052345309 0.037773613 0.40400001 4278924314
-0.051033117 0.037773613 0.40400001 4278331404
-0.049597852 0.037680116 0.40300003 4279582498
-0.048288908 0.037680116 0.40300003 4279715367
-0.046979964 0.037680116 0.40300003 4278398994
-0.045671016 0.037680116 0.40300003 4279124765
-0.044362072 0.037680116 0.40300003 4278928156
-0.043053132 0.037680116 0.40300003 4278928156
-0.041744184 0.037680116 0.40300003 4278862363
-0.04043524 0.037680116 0.40300003 4279125535
-0.039126292 0.037680116 0.40300003 4278993179
-0.037817348 0.037680116 0.40300003 4278992666
-0.036508407 0.037680116 0.40300003 4279321631
-0.03519946 0.037680116 0.40300003 4279447582
-0.10888824 0.042182192 0.43600002 4280887571
-0.10722561 0.042085446 0.43500003 4281020954
-0.10556948 0.041988697 0.43400002 4280039703
-0.10391985 0.041891947 0.43300003 4279646742
-0.10203996 0.041698452 0.43100002 4279386137
-0.10017306 0.041504957 0.42900002 4279320857
-0.098549418 0.041408207 0.42800003 4279320859
-0.09693227 0.041311458 0.42700002 4279189273
-0.095097847 0.041117962 0.42500001 4279190045
-0.093496934 0.041021217 0.42400002 4279058457
-0.091902524 0.040924467 0.42300001 4279058457
-0.090528615 0.040924467 0.42300001 4279190043
-0.088943943 0.040827718 0.42200002 4279124250
-0.087365769 0.040730972 0.42100003 4279190043
-0.085794091 0.040634222 0.42000002 4278992664
-0.084228903 0.040537477 0.41900003 4278729492
-0.082670212 0.040440727 0.41800001 4279124250
-0.081118025 0.040343978 0.41700003 4279255836
-0.07957232 0.040247228 0.41600001 4279190043
-0.07822115 0.040247228 0.41600001 4279058457
-0.076685205 0.040150482 0.41500002 4279190043
-0.07515575 0.040053736 0.41400003 4279584031
-0.073632784 0.039956983 0.41300002 4279320859
-0.072291359 0.039956983 0.41300002 4279452445
-0.070778146 0.039860237 0.41200003 4279451680
-0.069271423 0.039763488 0.41100001 4279846438
-0.067771204 0.039666742 0.41000003 4279647775
-0.066277474 0.039569993 0.40900001 4279778848
-0.064949036 0.039569993 0.40900001 4279581471
-0.063465059 0.039473243 0.40800002 4278791955
-0.061987568 0.039376494 0.40700001 4278199307
-0.060516577 0.039279748 0.40600002 4278196737
-0.059197884 0.039279748 0.40600002 4278197765
-0.057736639 0.039183002 0.40500003 4278199307
-0.056421202 0.039183002 0.40500003 4278791955
-0.055105757 0.039183002 0.40500003 4279253019
-0.053657498 0.039086252 0.40400001 4279648291
-0.052345309 0.039086252 0.40400001 4279977256
-0.051033117 0.039086252 0.40400001 4279649059
-0.049720924 0.039086252 0.40400001 4279451680
-0.048408728 0.039086252 0.40400001 4279517475
-0.046979964 0.038989503 0.40300003 4279319326
-0.045671016 0.038989503 0.40300003 4279058720
-0.044362072 0.038989503 0.40300003 4279190304
-0.043053132 0.038989503 0.40300003 4279059742
-0.041744184 0.038989503 0.40300003 4278928156
-0.04043524 0.038989503 0.40300003 4279059742
-0.039126292 0.038989503 0.40300003 4278862363
-0.037817348 0.038989503 0.40300003 4278927386
-0.036508407 0.038989503 0.40300003 4278598421
-0.10180321 0.042998817 0.43000001 4279576326
-0.10017306 0.042898819 0.42900002 4279972627
-0.098319158 0.042698827 0.42700002 4280040219
-0.096705265 0.042598829 0.42600003 4279712024
-0.095097847 0.042498831 0.42500001 4279318549
-0.093496934 0.042398833 0.42400002 4279319062
-0.091902524 0.042298835 0.42300001 4279057174
-0.090314604 0.042198841 0.42200002 4279123480
-0.088943943 0.042198841 0.42200002 4279123480
-0.087158248 0.041998845 0.42000002 4278795285
-0.085589819 0.04189885 0.41900003 4279124250
-0.084027879 0.041798849 0.41800001 4279058457
-0.082670212 0.041798849 0.41800001 4278795798
-0.081118025 0.041698854 0.41700003 4278993177
-0.07957232 0.041598856 0.41600001 4278927384
-0.078033127 0.041498858 0.41500002 4278993177
-0.076685205 0.041498858 0.41500002 4278993177
-0.07515575 0.041398864 0.41400003 4279190556
-0.073632784 0.041298863 0.41300002 4279190556
-0.072116323 0.041198868 0.41200003 4279124763
-0.070778146 0.041198868 0.41200003 4279058972
-0.069271423 0.04109887 0.41100001 4279190558
-0.067771204 0.040998872 0.41000003 4279256351
-0.066277474 0.040898874 0.40900001 4279190558
-0.064790241 0.040798876 0.40800002 4279190045
-0.063465059 0.040798876 0.40800002 4279321631
-0.061987568 0.040698878 0.40700001 4279320607
-0.060516577 0.040598884 0.40600002 4279320607
-0.059197884 0.040598884 0.40600002 4279583779
-0.057736639 0.040498886 0.40500003 4279649059
-0.056421202 0.040498886 0.40500003 4279648291
-0.055105757 0.040498886 0.40500003 4279450398
-0.053657498 0.040398888 0.40400001 4279384092
-0.052345309 0.040398888 0.40400001 4278265611
-0.051033117 0.040398888 0.40400001 4278198536
-0.049720924 0.040398888 0.40400001 4278198025
-0.048408728 0.040398888 0.40400001 4278197253
-0.047096539 0.040398888 0.40400001 4279581984
-0.045784343 0.040398888 0.40400001 4279124513
-0.044362072 0.040298894 0.40300003 4279256099
-0.043053132 0.040298894 0.40300003 4279124511
-0.041744184 0.040298894 0.40300003 4279058718
-0.04043524 0.040298894 0.40300003 4279256351
-0.039126292 0.040298894 0.40300003 4279124763
-0.037817348 0.040298894 0.40300003 4278991896
-0.036508407 0.040298894 0.40300003 4278859543
-0.098319158 0.044086192 0.42700002 4280231440
-0.096705265 0.043982945 0.42600003 4279837452
-0.095097847 0.043879699 0.42500001 4279443977
-0.093496934 0.043776453 0.42400002 4278983685
-0.091902524 0.043673206 0.42300001 4279115271
-0.090314604 0.04356996 0.42200002 4278984969
-0.088943943 0.04356996 0.42200002 4279183885
-0.087158248 0.043363467 0.42000002 4279776535
-0.085589819 0.04326022 0.41900003 4279515160
-0.084027879 0.043156974 0.41800001 4279515160
-0.082472436 0.043053728 0.41700003 4279319064
-0.081118025 0.043053728 0.41700003 4279319576
-0.07957232 0.042950481 0.41600001 4279123478
-0.078033127 0.042847235 0.41500002 4279189271
-0.076500423 0.042743992 0.41400003 4279255066
-0.07515575 0.042743992 0.41400003 4279452445
-0.073632784 0.042640742 0.41300002 4279453215
-0.072116323 0.042537499 0.41200003 4279255836
-0.070606358 0.042434249 0.41100001 4279058972
-0.069271423 0.042434249 0.41100001 4279256351
-0.067771204 0.042331006 0.41000003 4279256097
-0.066277474 0.042227756 0.40900001 4279256097
-0.064790241 0.04212451 0.40800002 4279256097
-0.063465059 0.04212451 0.40800002 4279124765
-0.061987568 0.042021263 0.40700001 4279124765
-0.060516577 0.041918017 0.40600002 4279190558
-0.059197884 0.041918017 0.40600002 4279190558
-0.057879195 0.041918017 0.40600002 4279387937
-0.056421202 0.041814774 0.40500003 4279256351
-0.055105757 0.041814774 0.40500003 4279321631
-0.053657498 0.041711524 0.40400001 4279584033
-0.052345309 0.041711524 0.40400001 4279452447
-0.051033117 0.041711524 0.40400001 4279584033
-0.049720924 0.041711524 0.40400001 4279517727
-0.048408728 0.041711524 0.40400001 4279911461
-0.047096539 0.041711524 0.40400001 4279517473
-0.045784343 0.041711524 0.40400001 4279255584
-0.044472151 0.041711524 0.40400001 4279255584
-0.043159962 0.041711524 0.40400001 4279256097
-0.041847765 0.041711524 0.40400001 4279058718
-0.04043524 0.041608281 0.40300003 4279190558
-0.039126292 0.041608281 0.40300003 4278795800
-0.037817348 0.041608281 0.40300003 4278991129
-0.036508407 0.041608281 0.40300003 4278199303
-0.091902524 0.045047574 0.42300001 4279573256
-0.090314604 0.044941083 0.42200002 4279442442
-0.088943943 0.044941083 0.42200002 4279376649
-0.087573282 0.044941083 0.42200002 4279245063
-0.085589819 0.044621594 0.41900003 4279180553
-0.084027879 0.044515099 0.41800001 4279180553
-0.082472436 0.044408605 0.41700003 4279247371
-0.081118025 0.044408605 0.41700003 4279773715
-0.07957232 0.044302106 0.41600001 4279972629
-0.078033127 0.044195615 0.41500002 4279710227
-0.076500423 0.04408912 0.41400003 4279382807
-0.07515575 0.04408912 0.41400003 4279778078
-0.073632784 0.043982621 0.41300002 4279384092
-0.072116323 0.043876126 0.41200003 4279648291
-0.070606358 0.043769632 0.41100001 4279780647
-0.069271423 0.043769632 0.41100001 4279780647
-0.067771204 0.043663137 0.41000003 4279781160
-0.066277474 0.043556638 0.40900001 4279583781
-0.064790241 0.043450143 0.40800002 4279518758
-0.063309498 0.043343648 0.40700001 4279518758
-0.061987568 0.043343648 0.40700001 4279649572
-0.060516577 0.043237153 0.40600002 4279781412
-0.059197884 0.043237153 0.40600002 4279715619
-0.057879195 0.043237153 0.40600002 4279453217
-0.056421202 0.043130659 0.40500003 4279190558
-0.055105757 0.043130659 0.40500003 4279387683
-0.053790316 0.043130659 0.40500003 4279518756
-0.052345309 0.043024164 0.40400001 4279255584
-0.051033117 0.043024164 0.40400001 4279321631
-0.049720924 0.043024164 0.40400001 4279519008
-0.048408728 0.043024164 0.40400001 4279321629
-0.047096539 0.043024164 0.40400001 4279321629
-0.045784343 0.043024164 0.40400001 4279255838
-0.044472151 0.043024164 0.40400001 4279321631
-0.043159962 0.043024164 0.40400001 4279190045
-0.041847765 0.043024164 0.40400001 4279123998
-0.040535573 0.043024164 0.40400001 4278992412
-0.03922338 0.043024164 0.40400001 4279123228
-0.037817348 0.042917669 0.40300003 4279187740
-0.036508407 0.042917669 0.40300003 4280631852
-0.067605905 0.04488552 0.40900001 4282540369
-0.066277474 0.04488552 0.40900001 4281620032
-0.064790241 0.044775777 0.40800002 4280501038
-0.063309498 0.044666033 0.40700001 4279974694
-0.061987568 0.044666033 0.40700001 4279974692
-0.060516577 0.04455629 0.40600002 4279777313
-0.059197884 0.04455629 0.40600002 4279515937
-0.057879195 0.04455629 0.40600002 4279647525
-0.056421202 0.044446547 0.40500003 4279779111
-0.055105757 0.044446547 0.40500003 4280108076
-0.053790316 0.044446547 0.40500003 4280042281
-0.052345309 0.0443368 0.40400001 4280108074
-0.051033117 0.0443368 0.40400001 4279911463
-0.049720924 0.0443368 0.40400001 4279911463
-0.048408728 0.0443368 0.40400001 4279780647
-0.047096539 0.0443368 0.40400001 4279781160
-0.045784343 0.0443368 0.40400001 4279583781
-0.044472151 0.0443368 0.40400001 4279452965
-0.043159962 0.0443368 0.40400001 4279189793
-0.041847765 0.0443368 0.40400001 4279386402
-0.040535573 0.0443368 0.40400001 4279780647
-0.03922338 0.0443368 0.40400001 4279319326
-0.037911188 0.0443368 0.40400001 4280039717
-0.060516577 0.045875423 0.40600002 4285828474
-0.059197884 0.045875423 0.40600002 4286091646
-0.057879195 0.045875423 0.40600002 4286091646
-0.056421202 0.045762431 0.40500003 4286289025
-0.055105757 0.045762431 0.40500003 4286223743
-0.053790316 0.045762431 0.40500003 4285763708
-0.052345309 0.045649435 0.40400001 4285632892
-0.051033117 0.045649435 0.40400001 4285172341
-0.049720924 0.045649435 0.40400001 4285040757
-0.048408728 0.045649435 0.40400001 4284119655
-0.047096539 0.045649435 0.40400001 4283396443
-0.045784343 0.045649435 0.40400001 4282672207
-0.044472151 0.045649435 0.40400001 4282343240
-0.043159962 0.045649435 0.40400001 4281158966
-0.041847765 0.045649435 0.40400001 4281224759
-0.040535573 0.045649435 0.40400001 4281816126
-0.03922338 0.045649435 0.40400001 4284315237
-0.055105757 0.047078319 0.40500003 4285959290
-0.053790316 0.047078319 0.40500003 4285893497
-0.052345309 0.046962075 0.40400001 4285761911
-0.051033117 0.046962075 0.40400001 4285631095
-0.049720924 0.046962075 0.40400001 4285433716
-0.048408728 0.046962075 0.40400001 4285302643
-0.047096539 0.046962075 0.40400001 4285105264
-0.045784343 0.046962075 0.40400001 4284842094
-0.044472151 0.046962075 0.40400001 4284842092
-0.043159962 0.046962075 0.40400001 4284710506
-0.041847765 0.046962075 0.40400001 4284710506
-0.040535573 0.046962075 0.40400001 4285170544
-0.073636144 0.036001343 0.42032614 4294967295
-0.073636144 0.036001343 0.42032614 4294901760
-0.07356406 0.035506692 0.42033735 4294901760
-0.073491983 0.035012044 0.42034853 4294901760
-0.073419899 0.034517393 0.42035973 4294901760
-0.073347822 0.034022741 0.42037094 4294901760
-0.073275737 0.03352809 0.42038211 4294901760
-0.073203661 0.033033442 0.42039332 4294901760
-0.073131576 0.03253879 0.42040452 4294901760
-0.073059499 0.032044139 0.4204157 4294901760
-0.072987415 0.031549491 0.42042691 4294901760
-0.072915338 0.031054839 0.42043811 4294901760
-0.072843254 0.030560188 0.42044929 4294901760
-0.072771177 0.030065538 0.42046049 4294901760
-0.072699092 0.029570889 0.42047167 4294901760
-0.072627015 0.029076237 0.42048287 4294901760
-0.072554931 0.028581586 0.42049408 4294901760
-0.072482854 0.028086938 0.42050526 4294901760
-0.07241077 0.027592286 0.42051646 4294901760
-0.072338693 0.027097635 0.42052767 4294901760
-0.072266608 0.026602985 0.42053884 4294901760
-0.072194532 0.026108336 0.42055005 4294901760
-0.072122447 0.025613684 0.42056125 4294901760
-0.07205037 0.025119035 0.42057243 4294901760
-0.071978286 0.024624383 0.42058364 4294901760
-0.071906209 0.024129733 0.42059484 4294901760
-0.071834125 0.023635082 0.42060602 4294901760
-0.07176204 0.023140434 0.42061722 4294901760
-0.071689963 0.022645783 0.42062843 4294901760
-0.071617879 0.022151131 0.4206396 4294901760
-0.071545802 0.021656482 0.42065081 4294901760
-0.071473718 0.02116183 0.42066199 4294901760
-0.071401641 0.02066718 0.42067319 4294901760
-0.071329556 0.020172531 0.4206844 4294901760
-0.071257479 0.019677879 0.42069557 4294901760
-0.071185395 0.01918323 0.42070678 4294901760
-0.071113318 0.018688578 0.42071798 4294901760
-0.071041234 0.018193929 0.42072916 4294901760
-0.070969157 0.017699277 0.42074037 4294901760
-0.070897073 0.017204627 0.42075157 4294901760
-0.070824996 0.016709978 0.42076275 4294901760
-0.070752911 0.016215326 0.42077395 4294901760
-0.070680834 0.015720677 0.42078516 4294901760
-0.07060875 0.015226027 0.42079633 4294901760
-0.070536673 0.014731376 0.42080754 4294901760
-0.070464589 0.014236726 0.42081875 4294901760
-0.070392512 0.013742074 0.42082992 4294901760
-0.070320427 0.013247423 0.42084113 4294901760
-0.070248351 0.012752773 0.42085233 4294901760
-0.070176266 0.012258124 0.42086351 4294901760
-0.070104182 0.011763472 0.42087471 4294901760
-0.070032105 0.011268822 0.42088592 4294901760
-0.069960028 0.010774173 0.4208971 4294901760
-0.069887944 0.010279523 0.4209083 4294901760
-0.069815859 0.0097848717 0.42091948 4294901760
-0.069743782 0.0092902202 0.42093068 4294901760
-0.069671698 0.0087955706 0.42094189 4294901760
-0.069599621 0.0083009191 0.42095307 4294901760
-0.069527537 0.0078062695 0.42096427 4294901760
-0.06945546 0.0073116198 0.42097548 4294901760
-0.069383375 0.0068169702 0.42098665 4294901760
-0.069311298 0.0063223168 0.42099786 4294901760
-0.069239214 0.0058276672 0.42100906 4294901760
-0.069167137 0.0053330176 0.42102024 4294901760
-0.069095053 0.0048383679 0.42103145 4294901760
-0.069022976 0.0043437183 0.42104265 4294901760
-0.068950891 0.0038490668 0.42105383 4294901760
-0.068878815 0.0033544153 0.42106503 4294901760
-0.06880673 0.0028597638 0.42107624 4294901760
-0.068734653 0.002365116 0.42108741 4294901760
-0.068662569 0.0018704645 0.42109862 4294901760
-0.068590492 0.001375813 0.4211098 4294901760
-0.068518408 0.00088116527 0.421121 4294901760
-0.068446331 0.00038651377 0.42113221 4294901760
-0.068374246 -0.00010813773 0.42114338 4294901760
-0.068302169 -0.00060278922 0.42115459 4294901760
-0.068230085 -0.001097437 0.42116579 4294901760
-0.068158001 -0.0015920885 0.42117697 4294901760
-0.068085924 -0.0020867363 0.42118818 4294901760
-0.068013839 -0.0025813878 0.42119938 4294901760
-0.067941763 -0.0030760393 0.42121056 4294901760
-0.067869678 -0.0035706908 0.42122176 4294901760
-0.067797601 -0.0040653422 0.42123297 4294901760
-0.067725517 -0.00455999 0.42124414 4294901760
-0.06765344 -0.0050546415 0.42125535 4294901760
-0.067581356 -0.0055492893 0.42126656 4294901760
-0.067509279 -0.0060439445 0.42127773 4294901760
-0.067437194 -0.0065385923 0.42128894 4294901760
-0.067365117 -0.0070332438 0.42130014 4294901760
-0.067293033 -0.0075278915 0.42131132 4294901760
-0.067220956 -0.008022543 0.42132252 4294901760
-0.067148872 -0.0085171945 0.42133373 4294901760
-0.067076795 -0.009011846 0.42134491 4294901760
-0.06700471 -0.0095064975 0.42135611 4294901760
-0.066932634 -0.010001145 0.42136729 4294901760
-0.066860549 -0.010495797 0.42137849 4294901760
-0.066788472 -0.010990445 0.4213897 4294901760
-0.066716388 -0.011485096 0.42140087 4294901760
-0.066644311 -0.011979748 0.42141208 4294901760
-0.066572227 -0.012474399 0.42142329 4294901760
-0.066500142 -0.012969047 0.42143446 4294901760
-0.066428065 -0.013463698 0.42144567 4294901760
-0.073636144 0.036001343 0.42032614 4278255360
-0.073269986 0.036047064 0.41998875 4278255360
-0.072903834 0.036092784 0.41965133 4278255360
-0.072537675 0.036138505 0.41931394 4278255360
-0.072171524 0.036184225 0.41897655 4278255360
-0.071805365 0.036229946 0.41863912 4278255360
-0.071439207 0.036275666 0.41830173 4278255360
-0.071073055 0.036321383 0.41796434 4278255360
-0.070706896 0.036367103 0.41762695 4278255360
-0.070340738 0.036412824 0.41728953 4278255360
-0.069974586 0.036458544 0.41695213 4278255360
-0.069608428 0.036504265 0.41661474 4278255360
-0.069242276 0.036549985 0.41627732 4278255360
-0.068876117 0.036595706 0.41593993 4278255360
-0.068509959 0.036641426 0.41560254 4278255360
-0.068143807 0.036687147 0.41526514 4278255360
-0.067777649 0.036732867 0.41492772 4278255360
-0.06741149 0.036778588 0.41459033 4278255360
-0.067045338 0.036824308 0.41425294 4278255360
-0.06667918 0.036870025 0.41391551 4278255360
-0.066313028 0.036915746 0.41357812 4278255360
-0.06594687 0.036961466 0.41324073 4278255360
-0.065580711 0.037007187 0.41290331 4278255360
-0.065214559 0.037052907 0.41256592 4278255360
-0.064848401 0.037098628 0.41222852 4278255360
-0.064482242 0.037144348 0.4118911 4278255360
-0.064116091 0.037190069 0.41155371 4278255360
-0.063749932 0.037235789 0.41121632 4278255360
-0.06338378 0.037281509 0.41087893 4278255360
-0.063017622 0.03732723 0.4105415 4278255360
-0.062651463 0.03737295 0.41020411 4278255360
-0.062285312 0.037418671 0.40986672 4278255360
-0.061919153 0.037464388 0.4095293 4278255360
-0.061552998 0.037510108 0.40919191 4278255360
-0.061186843 0.037555829 0.40885451 4278255360
-0.060820688 0.037601549 0.40851712 4278255360
-0.060454529 0.03764727 0.4081797 4278255360
-0.060088374 0.03769299 0.40784231 4278255360
-0.059722219 0.037738711 0.40750492 4278255360
-0.059356064 0.037784431 0.40716749 4278255360
-0.058989905 0.037830152 0.4068301 4278255360
-0.05862375 0.037875872 0.40649271 4278255360
-0.058257595 0.037921593 0.40615529 4278255360
-0.057891436 0.037967313 0.4058179 4278255360
-0.057525285 0.038013034 0.4054805 4278255360
-0.057159126 0.03805875 0.40514308 4278255360
-0.056792971 0.038104471 0.40480569 4278255360
-0.056426816 0.038150191 0.4044683 4278255360
-0.056060657 0.038195912 0.40413091 4278255360
-0.055694502 0.038241632 0.40379348 4278255360
-0.055328347 0.038287353 0.40345609 4278255360
-0.054962192 0.038333073 0.4031187 4278255360
-0.054596037 0.038378794 0.40278128 4278255360
-0.054229878 0.038424514 0.40244389 4278255360
-0.053863723 0.038470235 0.40210649 4278255360
-0.053497568 0.038515955 0.4017691 4278255360
-0.053131409 0.038561672 0.40143168 4278255360
-0.052765258 0.038607392 0.40109429 4278255360
-0.052399099 0.038653113 0.4007569 4278255360
-0.052032944 0.038698833 0.40041947 4278255360
-0.051666789 0.038744554 0.40008208 4278255360
-0.05130063 0.038790274 0.39974469 4278255360
-0.050934475 0.038835995 0.39940727 4278255360
-0.05056832 0.038881715 0.39906988 4278255360
-0.050202165 0.038927436 0.39873248 4278255360
-0.04983601 0.038973156 0.39839506 4278255360
-0.049469851 0.039018877 0.39805767 4278255360
-0.049103696 0.039064597 0.39772028 4278255360
-0.048737541 0.039110318 0.39738289 4278255360
-0.048371382 0.039156035 0.39704546 4278255360
-0.048005231 0.039201755 0.39670807 4278255360
-0.047639072 0.039247476 0.39637068 4278255360
-0.047272913 0.039293196 0.39603326 4278255360
-0.046906762 0.039338917 0.39569587 4278255360
-0.046540603 0.039384637 0.39535847 4278255360
-0.046174448 0.039430358 0.39502108 4278255360
-0.045808293 0.039476078 0.39468366 4278255360
-0.045442134 0.039521798 0.39434627 4278255360
-0.045075983 0.039567519 0.39400887 4278255360
-0.044709824 0.039613239 0.39367145 4278255360
-0.044343665 0.03965896 0.39333406 4278255360
-0.043977514 0.03970468 0.39299667 4278255360
-0.043611355 0.039750397 0.39265925 4278255360
-0.0432452 0.039796118 0.39232185 4278255360
-0.042879045 0.039841838 0.39198446 4278255360
-0.042512886 0.039887559 0.39164704 4278255360
-0.042146731 0.039933279 0.39130965 4278255360
-0.041780576 0.039979 0.39097226 4278255360
-0.041414421 0.04002472 0.39063486 4278255360
-0.041048266 0.040070441 0.39029744 4278255360
-0.040682111 0.040116161 0.38996005 4278255360
-0.040315952 0.040161882 0.38962266 4278255360
-0.039949797 0.040207602 0.38928524 4278255360
-0.039583642 0.040253323 0.38894784 4278255360
-0.039217483 0.040299043 0.38861045 4278255360
-0.038851328 0.04034476 0.38827306 4278255360
-0.038485173 0.04039048 0.38793564 4278255360
-0.038119014 0.040436201 0.38759825 4278255360
-0.037752859 0.040481921 0.38726085 4278255360
-0.037386704 0.040527642 0.38692343 4278255360
-0.037020549 0.040573362 0.38658604 4278255360
-0.073636144 0.036001343 0.42032614 4278190335
-0.073400207 0.036045652 0.42076474 4278190335
-0.073164269 0.03608996 0.42120335 4278190335
-0.072928332 0.036134265 0.42164195 4278190335
-0.072692394 0.036178574 0.42208055 4278190335
-0.072456457 0.036222883 0.42251915 4278190335
-0.072220519 0.036267191 0.42295775 4278190335
-0.071984582 0.0363115 0.42339635 4278190335
-0.071748637 0.036355805 0.42383495 4278190335
-0.071512699 0.036400113 0.42427355 4278190335
-0.071276762 0.036444422 0.42471215 4278190335
-0.071040824 0.03648873 0.42515075 4278190335
-0.070804887 0.036533035 0.42558935 4278190335
-0.070568949 0.036577344 0.42602795 4278190335
-0.070333011 0.036621653 0.42646655 4278190335
-0.070097074 0.036665961 0.42690516 4278190335
-0.069861136 0.03671027 0.42734376 4278190335
-0.069625199 0.036754575 0.42778236 4278190335
-0.069389261 0.036798883 0.42822096 4278190335
-0.069153324 0.036843192 0.42865956 4278190335
-0.068917386 0.0368875 0.42909816 4278190335
-0.068681449 0.036931809 0.42953676 4278190335
-0.068445504 0.036976114 0.42997536 4278190335
-0.068209566 0.037020423 0.43041396 4278190335
-0.067973629 0.037064731 0.43085253 4278190335
-0.067737691 0.03710904 0.43129116 4278190335
-0.067501754 0.037153348 0.43172973 4278190335
-0.067265816 0.037197653 0.43216833 4278190335
-0.067029878 0.037241962 0.43260694 4278190335
-0.066793941 0.03728627 0.43304554 4278190335
-0.066558003 0.037330579 0.43348414 4278190335
-0.066322066 0.037374884 0.43392274 4278190335
-0.066086128 0.037419192 0.43436134 4278190335
-0.065850191 0.037463501 0.43479994 4278190335
-0.065614253 0.03750781 0.43523854 4278190335
-0.065378316 0.037552118 0.43567714 4278190335
-0.065142371 0.037596423 0.43611574 4278190335
-0.064906433 0.037640732 0.43655434 4278190335
-0.064670496 0.03768504 0.43699294 4278190335
-0.064434558 0.037729349 0.43743154 4278190335
-0.064198621 0.037773658 0.43787014 4278190335
-0.063962683 0.037817962 0.43830875 4278190335
-0.063726746 0.037862271 0.43874735 4278190335
-0.063490808 0.03790658 0.43918595 4278190335
-0.06325487 0.037950888 0.43962455 4278190335
-0.063018933 0.037995197 0.44006315 4278190335
-0.062782995 0.038039502 0.44050175 4278190335
-0.062547058 0.03808381 0.44094035 4278190335
-0.062311117 0.038128119 0.44137895 4278190335
-0.062075179 0.038172428 0.44181755 4278190335
-0.061839242 0.038216732 0.44225615 4278190335
-0.061603304 0.038261041 0.44269475 4278190335
-0.061367366 0.03830535 0.44313335 4278190335
-0.061131429 0.038349658 0.44357195 4278190335
-0.060895488 0.038393967 0.44401056 4278190335
-0.06065955 0.038438272 0.44444916 4278190335
-0.060423613 0.03848258 0.44488776 4278190335
-0.060187675 0.038526889 0.44532636 4278190335
-0.059951738 0.038571198 0.44576496 4278190335
-0.0597158 0.038615506 0.44620356 4278190335
-0.059479862 0.038659811 0.44664216 4278190335
-0.059243921 0.03870412 0.44708076 4278190335
-0.059007984 0.038748428 0.44751936 4278190335
-0.058772046 0.038792737 0.44795796 4278190335
-0.058536109 0.038837045 0.44839656 4278190335
-0.058300171 0.03888135 0.44883516 4278190335
-0.05806423 0.038925659 0.44927377 4278190335
-0.057828292 0.038969968 0.44971237 4278190335
-0.057592355 0.039014276 0.45015097 4278190335
-0.057356417 0.039058581 0.45058957 4278190335
-0.05712048 0.03910289 0.45102817 4278190335
-0.056884542 0.039147198 0.45146677 4278190335
-0.056648605 0.039191507 0.45190537 4278190335
-0.056412667 0.039235815 0.45234397 4278190335
-0.05617673 0.039280124 0.45278257 4278190335
-0.055940792 0.039324429 0.45322114 4278190335
-0.055704854 0.039368737 0.45365977 4278190335
-0.055468917 0.039413046 0.45409834 4278190335
-0.055232979 0.039457355 0.45453694 4278190335
-0.054997038 0.03950166 0.45497555 4278190335
-0.054761097 0.039545968 0.45541415 4278190335
-0.054525159 0.039590277 0.45585275 4278190335
-0.054289222 0.039634585 0.45629135 4278190335
-0.054053284 0.039678894 0.45672995 4278190335
-0.053817347 0.039723199 0.45716855 4278190335
-0.053581409 0.039767507 0.45760715 4278190335
-0.053345472 0.039811816 0.45804575 4278190335
-0.053109534 0.039856125 0.45848435 4278190335
-0.052873597 0.03990043 0.45892295 4278190335
-0.052637659 0.039944738 0.45936155 4278190335
-0.052401721 0.039989047 0.45980015 4278190335
-0.05216578 0.040033355 0.46023875 4278190335
-0.051929843 0.040077664 0.46067736 4278190335
-0.051693905 0.040121973 0.46111596 4278190335
-0.051457968 0.040166277 0.46155456 4278190335
-0.05122203 0.040210586 0.46199316 4278190335
-0.050986089 0.040254895 0.46243176 4278190335
-0.050750151 0.040299203 0.46287036 4278190335
-0.050514214 0.040343508 0.46330896 4278190335
-0.050278276 0.040387817 0.46374756 4278190335
-0.050042339 0.040432125 0.46418616 4278190335
-0.073636144 0.036001343 0.42032614 4294967295
-0.07505177 0.035735495 0.41769454 4294967295
-0.076467402 0.035469651 0.41506293 4294967295
-0.077883027 0.035203803 0.41243133 4294967295
-0.07929866 0.034937955 0.40979975 4294967295
-0.080714285 0.034672108 0.40716815 4294967295
-0.082129911 0.03440626 0.40453655 4294967295
-0.083545543 0.034140415 0.40190494 4294967295
-0.084961168 0.033874568 0.39927334 4294967295
-0.086376801 0.03360872 0.39664173 4294967295
-0.087792426 0.033342872 0.39401013 4294967295
-0.089208052 0.033077028 0.39137852 4294967295
-0.090623684 0.03281118 0.38874695 4294967295
-0.092039309 0.032545332 0.38611534 4294967295
-0.093454942 0.032279484 0.38348374 4294967295
-0.094870567 0.03201364 0.38085213 4294967295
-0.096286193 0.031747792 0.37822053 4294967295
-0.097701825 0.031481944 0.37558892 4294967295
-0.09911745 0.031216098 0.37295732 4294967295
-0.10053308 0.03095025 0.37032574 4294967295
-0.10194871 0.030684404 0.36769414 4294967295
-0.10336433 0.030418556 0.36506253 4294967295
-0.10477997 0.03015271 0.36243093 4294967295
-0.1061956 0.029886862 0.35979933 4294967295
-0.10761122 0.029621016 0.35716772 4294967295
-0.10902685 0.029355168 0.35453612 4294967295
-0.11044247 0.029089322 0.35190451 4294967295
-0.11185811 0.028823474 0.34927291 4294967295
-0.11327373 0.028557628 0.34664133 4294967295
-0.11468937 0.028291781 0.34400973 4294967295
-0.11610499 0.028025933 0.34137812 4294967295
-0.11752062 0.027760087 0.33874652 4294967295
-0.11893624 0.027494241 0.33611491 4294967295
-0.12035188 0.027228393 0.33348331 4294967295
-0.12176751 0.026962545 0.33085173 4294967295
-0.12318313 0.026696699 0.32822013 4294967295
-0.12459876 0.026430853 0.32558852 4294967295
-0.12601438 0.026165005 0.32295692 4294967295
-0.12743002 0.025899157 0.32032531 4294967295
-0.12884565 0.025633313 0.31769371 4294967295
-0.13026127 0.025367465 0.31506211 4294967295
-0.1316769 0.025101617 0.3124305 4294967295
-0.13309252 0.024835771 0.3097989 4294967295
-0.13450816 0.024569923 0.30716729 4294967295
-0.13592379 0.024304077 0.30453572 4294967295
-0.13733941 0.024038229 0.30190411 4294967295
-0.13875505 0.023772381 0.29927251 4294967295
-0.14017066 0.023506535 0.2966409 4294967295
-0.1415863 0.023240689 0.29400933 4294967295
-0.14300193 0.022974841 0.29137772 4294967295
-0.14441755 0.022708993 0.28874612 4294967295
-0.14583318 0.022443147 0.28611451 4294967295
-0.1472488 0.022177301 0.28348291 4294967295
-0.14866444 0.021911453 0.2808513 4294967295
-0.15008007 0.021645606 0.2782197 4294967295
-0.1514957 0.02137976 0.2755881 4294967295
-0.15291132 0.021113914 0.27295649 4294967295
-0.15432695 0.020848066 0.27032489 4294967295
-0.15574259 0.020582218 0.26769328 4294967295
-0.1571582 0.020316372 0.26506171 4294967295
-0.15857384 0.020050524 0.26243007 4294967295
-0.15998948 0.019784678 0.2597985 4294967295
-0.16140509 0.01951883 0.25716689 4294967295
-0.16282073 0.019252984 0.25453529 4294967295
-0.16423634 0.018987138 0.25190371 4294967295
-0.16565198 0.01872129 0.24927209 4294967295
-0.16706762 0.018455442 0.24664049 4294967295
-0.16848323 0.018189596 0.24400888 4294967295
-0.16989887 0.017923748 0.24137729 4294967295
-0.17131449 0.017657902 0.23874569 4294967295
-0.17273012 0.017392054 0.23611408 4294967295
