# .PCD v0.7 - Point Cloud Data file format
VERSION 0.7
FIELDS x y z rgb
SIZE 4 4 4 4
TYPE F F F U
COUNT 1 1 1 1
WIDTH 654
HEIGHT 1
VIEWPOINT 0 0 0 1 0 0 0
POINTS 654
DATA ascii
-0.02824665 0.031833734 0.58400005 4280045613
-0.026304696 0.031779222 0.583 4279257894
-0.024369242 0.031724714 0.58200002 4279586094
-0.022440281 0.031670205 0.58100003 4284322160
-0.028198281 0.033673447 0.583 4279059742
-0.026259577 0.03361569 0.58200002 4278797597
-0.024327371 0.033557933 0.58100003 4278996259
-0.022440281 0.033557933 0.58100003 4278930466
-0.020482441 0.033442415 0.57900006 4278469148
-0.018569719 0.033384655 0.57800001 4278929699
-0.016663495 0.033326894 0.57700002 4279192871
-0.014789398 0.033326894 0.57700002 4279193125
-0.028198281 0.035567675 0.583 4279058972
-0.026259577 0.035506666 0.58200002 4278731291
-0.024327371 0.03544566 0.58100003 4278731802
-0.022401659 0.035384651 0.58000004 4278731802
-0.020482441 0.035323646 0.57900006 4278600216
-0.018569719 0.035262633 0.57800001 4278600216
-0.016663495 0.035201628 0.57700002 4278600216
-0.014763767 0.035140619 0.57600003 4278600216
-0.012870535 0.035079613 0.57500005 4278337814
-0.010983797 0.035018601 0.574 4278600986
-0.0091194436 0.035018601 0.574 4278600986
-0.0072424519 0.034957595 0.57300001 4278732572
-0.0053813471 0.034957595 0.57300001 4278666779
-0.028198281 0.037461903 0.583 4279190556
-0.026259577 0.037397645 0.58200002 4278862361
-0.024327371 0.037333392 0.58100003 4278862875
-0.022401659 0.037269134 0.58000004 4278862875
-0.020482441 0.037204877 0.57900006 4278797082
-0.018569719 0.037140619 0.57800001 4278731289
-0.016663495 0.037076361 0.57700002 4278731289
-0.014763767 0.037012104 0.57600003 4278731289
-0.012870535 0.03694785 0.57500005 4278468117
-0.010983797 0.036883589 0.574 4278269456
-0.0091194436 0.036883589 0.574 4278532115
-0.0072424519 0.036819331 0.57300001 4278796568
-0.0053813471 0.036819331 0.57300001 4278533910
-0.028198281 0.039356127 0.583 4279189275
-0.026259577 0.039288625 0.58200002 4279190556
-0.024327371 0.039221119 0.58100003 4278993947
-0.022401659 0.039153613 0.58000004 4278928154
-0.020482441 0.039086107 0.57900006 4278862361
-0.018569719 0.039018597 0.57800001 4278796568
-0.016663495 0.038951091 0.57700002 4278731289
-0.014763767 0.038883585 0.57600003 4278731289
-0.012870535 0.038816083 0.57500005 4278797082
-0.010983797 0.038748574 0.574 4278532115
-0.0091194436 0.038748574 0.574 4279124252
-0.0072550913 0.038748574 0.574 4279058457
-0.0053907386 0.038748574 0.574 4278597906
-0.0035263854 0.038748574 0.574 4279124252
-0.0016620324 0.038748574 0.574 4278729494
0.00020232052 0.038748574 0.574 4278664214
0.0020666735 0.038748574 0.574 4278599189
0.0039310264 0.038748574 0.574 4278796568
0.0057953792 0.038748574 0.574 4278796568
0.0076597324 0.038748574 0.574 4278665496
0.0095240846 0.038748574 0.574 4278600216
0.011388438 0.038748574 0.574 4278600216
0.013229704 0.038681068 0.57300001 4278600216
0.015090807 0.038681068 0.57300001 4278666009
0.016951913 0.038681068 0.57300001 4278731802
0.018780187 0.038613562 0.57200003 4278600216
0.020638041 0.038613562 0.57200003 4278797595
0.022456571 0.038546056 0.57100004 4278732572
0.024311181 0.038546056 0.57100004 4278733087
0.026119966 0.03847855 0.57000005 4278930466
0.027922252 0.038411044 0.56900001 4278996259
0.029718045 0.038343538 0.56800002 4278929953
0.031507343 0.038276032 0.56700003 4279389480
0.033348959 0.038276032 0.56700003 4279586859
-0.028198281 0.041250356 0.583 4279255068
-0.026259577 0.041179601 0.58200002 4278928156
-0.024327371 0.041108847 0.58100003 4279059740
-0.022401659 0.041038092 0.58000004 4278928154
-0.020482441 0.040967338 0.57900006 4278796568
-0.018569719 0.04089658 0.57800001 4278796568
-0.016663495 0.040825825 0.57700002 4278928154
-0.014763767 0.040755071 0.57600003 4278796568
-0.012870535 0.040684316 0.57500005 4278862361
-0.011002934 0.040684316 0.57500005 4278197248
-0.0091194436 0.040613558 0.574 4279649572
-0.0072550913 0.040613558 0.574 4278197760
-0.0053907386 0.040613558 0.574 4278328585
-0.0035263854 0.040613558 0.574 4278328074
-0.0016620324 0.040613558 0.574 4278524429
0.00020232052 0.040613558 0.574 4278525199
0.0020666735 0.040613558 0.574 4278262281
0.0039310264 0.040613558 0.574 4278196744
0.0057953792 0.040613558 0.574 4278197253
0.0076597324 0.040613558 0.574 4278199303
0.0095240846 0.040613558 0.574 4278201613
0.011388438 0.040613558 0.574 4278334484
0.013229704 0.040542804 0.57300001 4278663447
0.015090807 0.040542804 0.57300001 4278861080
0.016951913 0.040542804 0.57300001 4278730007
0.018780187 0.040472049 0.57200003 4279058972
0.020638041 0.040472049 0.57200003 4278664982
0.022495899 0.040472049 0.57200003 4278796568
0.024311181 0.040401295 0.57100004 4278468117
0.026119966 0.04033054 0.57000005 4278665496
0.027922252 0.040259782 0.56900001 4278797082
0.029718045 0.040189028 0.56800002 4278862875
0.031562909 0.040189028 0.56800002 4278666009
0.033407774 0.040189028 0.56800002 4278797595
0.035190579 0.040118273 0.56700003 4279126560
0.037097502 0.040189028 0.56800002 4279126560
0.038942371 0.040189028 0.56800002 4279126562
0.040930856 0.04033054 0.57000005 4279389480
0.042782214 0.04033054 0.57000005 4279586859
-0.028198281 0.04314458 0.583 4279189791
-0.026259577 0.043070577 0.58200002 4279059742
-0.024327371 0.042996574 0.58100003 4278797084
-0.022401659 0.042922571 0.58000004 4278797082
-0.020482441 0.042848568 0.57900006 4278731289
-0.018569719 0.042774558 0.57800001 4278665496
-0.016663495 0.042700555 0.57700002 4278665496
-0.014763767 0.042626552 0.57600003 4278665496
-0.012870535 0.042552549 0.57500005 4278927384
-0.011002934 0.042552549 0.57500005 4278198532
-0.009135332 0.042552549 0.57500005 4279188508
-0.0072550913 0.042478543 0.574 4278198276
-0.0053907386 0.042478543 0.574 4279445785
-0.0035263854 0.042478543 0.574 4279182100
-0.0016620324 0.042478543 0.574 4279642651
0.00020232052 0.042478543 0.574 4278918928
0.0020666735 0.042478543 0.574 4278786572
0.0039310264 0.042478543 0.574 4278852365
0.0057953792 0.042478543 0.574 4278655502
0.0076597324 0.042478543 0.574 4278393867
0.0095240846 0.042478543 0.574 4279451680
0.011388438 0.042478543 0.574 4279517473
0.013252791 0.042478543 0.574 4279582496
0.015090807 0.042404536 0.57300001 4279121945
0.016951913 0.042404536 0.57300001 4278727187
0.018813018 0.042404536 0.57300001 4278200072
0.020638041 0.042330533 0.57200003 4278197248
0.022495899 0.042330533 0.57200003 4278196480
0.024311181 0.04225653 0.57100004 4278196224
0.026165791 0.04225653 0.57100004 4278198530
0.027971327 0.042182527 0.57000005 4278267660
0.029770365 0.042108521 0.56900001 4279189275
0.031618476 0.042108521 0.56900001 4279386654
0.033466592 0.042108521 0.56900001 4279453217
0.035314705 0.042108521 0.56900001 4278533396
0.03722813 0.042182527 0.57000005 4278664982
0.039079495 0.042182527 0.57000005 4278797082
0.041002661 0.04225653 0.57100004 4278863388
0.042857271 0.04225653 0.57100004 4278797595
0.044868488 0.042404536 0.57300001 4279389732
0.046811141 0.042478543 0.574 4279323941
-0.028198281 0.045038808 0.583 4279124511
-0.026259577 0.044961553 0.58200002 4278928416
-0.024327371 0.044884302 0.58100003 4278797084
-0.022401659 0.04480705 0.58000004 4278731291
-0.020482441 0.044729795 0.57900006 4278533910
-0.018569719 0.04465254 0.57800001 4278665496
-0.016663495 0.044575289 0.57700002 4278665496
-0.014763767 0.044498034 0.57600003 4278797082
-0.012892918 0.044498034 0.57600003 4279255838
-0.011002934 0.044420782 0.57500005 4278199301
-0.009135332 0.044420782 0.57500005 4279056922
-0.0072677312 0.044420782 0.57500005 4278197506
-0.0053907386 0.044343524 0.574 4279314969
-0.0035263854 0.044343524 0.574 4279380762
-0.0016620324 0.044343524 0.574 4280301094
0.00020267301 0.044420782 0.57500005 4278787855
0.002070274 0.044420782 0.57500005 4278459660
0.0039378749 0.044420782 0.57500005 4278195716
0.0058054761 0.044420782 0.57500005 4279577369
0.0076730778 0.044420782 0.57500005 4278920209
0.0095240846 0.044343524 0.574 4279123482
0.011388438 0.044343524 0.574 4278198784
0.013252791 0.044343524 0.574 4278196994
0.015117144 0.044343524 0.574 4279319326
0.016951913 0.044266272 0.57300001 4278200069
0.018813018 0.044266272 0.57300001 4278991383
0.020674122 0.044266272 0.57300001 4278991896
0.022495899 0.044189021 0.57200003 4279320607
0.024353758 0.044189021 0.57200003 4279123482
0.026165791 0.044111766 0.57100004 4279123482
0.028020401 0.044111766 0.57100004 4279188762
0.029875007 0.044111766 0.57100004 4279188762
0.031729616 0.044111766 0.57100004 4279320348
0.033584226 0.044111766 0.57100004 4279056922
0.035438836 0.044111766 0.57100004 4278595603
0.037293442 0.044111766 0.57100004 4278200331
0.039148055 0.044111766 0.57100004 4278198785
0.04107447 0.044189021 0.57200003 4278598937
0.043007381 0.044266272 0.57300001 4278533912
0.04494679 0.044343524 0.574 4278731289
0.046892699 0.044420782 0.57500005 4278862875
0.048760302 0.044420782 0.57500005 4278994209
-0.02824665 0.04701354 0.58400005 4279124511
-0.026259577 0.046852533 0.58200002 4279059488
-0.024327371 0.046772029 0.58100003 4278731291
-0.022401659 0.046691529 0.58000004 4278797084
-0.020482441 0.046611026 0.57900006 4278665496
-0.018569719 0.046530519 0.57800001 4278665496
-0.016663495 0.046450019 0.57700002 4278731289
-0.014763767 0.046369519 0.57600003 4278533910
-0.012892918 0.046369519 0.57600003 4279188762
-0.011002934 0.046289016 0.57500005 4278397197
-0.009135332 0.046289016 0.57500005 4279450910
-0.0072677312 0.046289016 0.57500005 4278198024
-0.0054001305 0.046289016 0.57500005 4278655756
-0.0035325291 0.046289016 0.57500005 4278655502
-0.001664928 0.046289016 0.57500005 4278655502
0.00020267301 0.046289016 0.57500005 4278721295
0.002070274 0.046289016 0.57500005 4278458636
0.0039378749 0.046289016 0.57500005 4279380760
0.0058054761 0.046289016 0.57500005 4279445783
0.0076730778 0.046289016 0.57500005 4279314967
0.009540678 0.046289016 0.57500005 4279846438
0.011388438 0.046208508 0.574 4278197254
0.013252791 0.046208508 0.574 4278591759
0.015117144 0.046208508 0.574 4278461968
0.016981497 0.046208508 0.574 4279516443
0.018813018 0.046128009 0.57300001 4278726927
0.020674122 0.046128009 0.57300001 4278925336
0.022535227 0.046128009 0.57300001 4278925336
0.024353758 0.046047505 0.57200003 4278200585
0.026211614 0.046047505 0.57200003 4278464785
0.028069472 0.046047505 0.57200003 4279057176
0.029927326 0.046047505 0.57200003 4278925590
0.031785183 0.046047505 0.57200003 4278794517
0.033643041 0.046047505 0.57200003 4279255068
0.035500899 0.046047505 0.57200003 4279058459
0.037424065 0.046128009 0.57300001 4278992666
0.039285176 0.046128009 0.57300001 4278197504
0.041146278 0.046128009 0.57300001 4278992412
0.043082435 0.046208508 0.574 4278796316
0.045025099 0.046289016 0.57500005 4278664984
0.046892699 0.046289016 0.57500005 4278796570
0.048760302 0.046289016 0.57500005 4278731037
0.050715949 0.046369519 0.57600003 4279187236
-0.02824665 0.048911016 0.58400005 4279190304
-0.026304696 0.048827261 0.583 4279125795
-0.024327371 0.048659757 0.58100003 4278797343
-0.022401659 0.048576009 0.58000004 4278731550
-0.020482441 0.048492257 0.57900006 4278665757
-0.018569719 0.048408501 0.57800001 4278600218
-0.016663495 0.048324749 0.57700002 4278600218
-0.014763767 0.048241001 0.57600003 4278731804
-0.012892918 0.048241001 0.57600003 4278201356
-0.011002934 0.048157249 0.57500005 4278199817
-0.009135332 0.048157249 0.57500005 4279320094
-0.0072677312 0.048157249 0.57500005 4279320094
-0.0054001305 0.048157249 0.57500005 4279250199
-0.0035325291 0.048157249 0.57500005 4278657550
-0.001664928 0.048157249 0.57500005 4278590476
0.00020267301 0.048157249 0.57500005 4278458890
0.002070274 0.048157249 0.57500005 4278853394
0.0039378749 0.048157249 0.57500005 4278458123
0.0058054761 0.048157249 0.57500005 4278721295
0.0076730778 0.048157249 0.57500005 4280302375
0.009540678 0.048157249 0.57500005 4280042535
0.01140828 0.048157249 0.57500005 4278329867
0.013252791 0.048073493 0.574 4278921236
0.015117144 0.048073493 0.574 4280041768
0.016981497 0.048073493 0.574 4278529294
0.018813018 0.047989741 0.57300001 4279581982
0.020674122 0.047989741 0.57300001 4278198787
0.022535227 0.047989741 0.57300001 4278200072
0.024396332 0.047989741 0.57300001 4278793750
0.026257439 0.047989741 0.57300001 4278990361
0.028118543 0.047989741 0.57300001 4278857746
0.029979646 0.047989741 0.57300001 4279186711
0.031840753 0.047989741 0.57300001 4278462988
0.033701856 0.047989741 0.57300001 4278791955
0.035625026 0.048073493 0.574 4278200842
0.037489377 0.048073493 0.574 4279124252
0.039353732 0.048073493 0.574 4278198786
0.041289896 0.048157249 0.57500005 4279123998
0.043157496 0.048157249 0.57500005 4278796316
0.045025099 0.048157249 0.57500005 4278927902
0.046974249 0.048241001 0.57600003 4278862109
0.048845101 0.048241001 0.57600003 4278664730
0.050715949 0.048241001 0.57600003 4279055902
-0.02824665 0.050808489 0.58400005 4279451945
-0.026304696 0.050721485 0.583 4279255847
-0.024327371 0.050547484 0.58100003 4278796578
-0.022401659 0.050460488 0.58000004 4278797091
-0.020482441 0.050373487 0.57900006 4278928418
-0.018569719 0.050286483 0.57800001 4278862623
-0.016663495 0.050199483 0.57700002 4278533658
-0.014763767 0.050112482 0.57600003 4278862623
-0.012892918 0.050112482 0.57600003 4279124511
-0.011002934 0.050025482 0.57500005 4279452963
-0.009135332 0.050025482 0.57500005 4278927132
-0.0072677312 0.050025482 0.57500005 4278992925
-0.0054001305 0.050025482 0.57500005 4278992925
-0.0035325291 0.050025482 0.57500005 4279189791
-0.001664928 0.050025482 0.57500005 4278991642
0.00020267301 0.050025482 0.57500005 4279189021
0.002070274 0.050025482 0.57500005 4279189021
0.0039378749 0.050025482 0.57500005 4279056924
0.0058054761 0.050025482 0.57500005 4280437807
0.0076730778 0.050025482 0.57500005 4279319326
0.009540678 0.050025482 0.57500005 4278924568
0.01140828 0.050025482 0.57500005 4278200331
0.013275881 0.050025482 0.57500005 4278196992
0.015117144 0.049938478 0.574 4278198276
0.016981497 0.049938478 0.574 4278196736
0.018845851 0.049938478 0.574 4278196480
0.020674122 0.049851477 0.57300001 4278199047
0.022535227 0.049851477 0.57300001 4278857746
0.024396332 0.049851477 0.57300001 4279516703
0.026257439 0.049851477 0.57300001 4279648289
0.028118543 0.049851477 0.57300001 4279450910
0.029979646 0.049851477 0.57300001 4279450910
0.031896319 0.049938478 0.574 4279648289
0.033760674 0.049938478 0.574 4279450912
0.035687093 0.050025482 0.57500005 4278859543
0.037554692 0.050025482 0.57500005 4279320607
0.039422296 0.050025482 0.57500005 4278530578
0.041361704 0.050112482 0.57600003 4278927132
0.043232553 0.050112482 0.57600003 4278796316
0.045103405 0.050112482 0.57600003 4278993695
0.046974249 0.050112482 0.57600003 4278927904
0.0489299 0.050199483 0.57700002 4278862109
0.050803997 0.050199483 0.57700002 4279121443
-0.036386218 0.053518221 0.59300005 4285826939
-0.028295018 0.052796219 0.58500004 4285631356
-0.026304696 0.052615717 0.583 4283394908
-0.024327371 0.052435219 0.58100003 4280896827
-0.022401659 0.05234497 0.58000004 4279187490
-0.020482441 0.052254722 0.57900006 4279122980
-0.018569719 0.052164465 0.57800001 4279122978
-0.016663495 0.052074216 0.57700002 4279386148
-0.014763767 0.051983967 0.57600003 4279584299
-0.012892918 0.051983967 0.57600003 4279387433
-0.011002934 0.051893719 0.57500005 4279387431
-0.009135332 0.051893719 0.57500005 4279124513
-0.0072677312 0.051893719 0.57500005 4279058720
-0.0054001305 0.051893719 0.57500005 4278992927
-0.0035325291 0.051893719 0.57500005 4278664732
-0.001664928 0.051893719 0.57500005 4278862111
0.00020267301 0.051893719 0.57500005 4278862109
0.002070274 0.051893719 0.57500005 4279124511
0.0039378749 0.051893719 0.57500005 4279058972
0.0058054761 0.051893719 0.57500005 4278993179
0.0076730778 0.051893719 0.57500005 4278927132
0.009540678 0.051893719 0.57500005 4279058718
0.01140828 0.051893719 0.57500005 4278992925
0.013275881 0.051893719 0.57500005 4278927132
0.015117144 0.051803466 0.574 4279189791
0.016981497 0.051803466 0.574 4279058205
0.018845851 0.051803466 0.574 4279189791
0.020674122 0.051713217 0.57300001 4279583779
0.022535227 0.051713217 0.57300001 4279649059
0.024396332 0.051713217 0.57300001 4279845668
0.026257439 0.051713217 0.57300001 4279845668
0.028118543 0.051713217 0.57300001 4279582498
0.030031966 0.051803466 0.574 4278464017
0.031896319 0.051803466 0.574 4278266124
0.033819493 0.051893719 0.57500005 4278196480
0.035749156 0.051983967 0.57600003 4278196993
0.037620004 0.051983967 0.57600003 4278196993
0.039490856 0.051983967 0.57600003 4279189021
0.041433513 0.052074216 0.57700002 4278992925
0.043307606 0.052074216 0.57700002 4278862109
0.045181707 0.052074216 0.57700002 4278993695
0.047055803 0.052074216 0.57700002 4278993697
0.0489299 0.052074216 0.57700002 4279059490
0.050803997 0.052074216 0.57700002 4284646258
-0.024369242 0.054416444 0.58200002 4285565817
-0.022401659 0.054229449 0.58000004 4285631610
-0.020482441 0.054135952 0.57900006 4285567101
-0.018569719 0.054042447 0.57800001 4285435515
-0.016663495 0.05394895 0.57700002 4286027652
-0.014763767 0.053855453 0.57600003 4285567101
-0.012892918 0.053855453 0.57600003 4285106811
-0.011002934 0.053761955 0.57500005 4283527526
-0.009135332 0.053761955 0.57500005 4281028413
-0.0072677312 0.053761955 0.57500005 4279449894
-0.0054001305 0.053761955 0.57500005 4278726937
-0.0035325291 0.053761955 0.57500005 4278990879
-0.001664928 0.053761955 0.57500005 4278794783
0.00020267301 0.053761955 0.57500005 4279123746
0.002070274 0.053761955 0.57500005 4279124261
0.0039378749 0.053761955 0.57500005 4279124261
0.0058054761 0.053761955 0.57500005 4279189793
0.0076730778 0.053761955 0.57500005 4279189793
0.009540678 0.053761955 0.57500005 4279124259
0.01140828 0.053761955 0.57500005 4279058466
0.013275881 0.053761955 0.57500005 4278926880
0.015117144 0.053668451 0.574 4279058466
0.016981497 0.053668451 0.574 4278992927
0.018845851 0.053668451 0.574 4279058720
0.020674122 0.053574953 0.57300001 4279058718
0.022535227 0.053574953 0.57300001 4279190304
0.024396332 0.053574953 0.57300001 4278992925
0.026257439 0.053574953 0.57300001 4279058718
0.028118543 0.053574953 0.57300001 4279123998
0.030031966 0.053668451 0.574 4279255584
0.031951889 0.053761955 0.57500005 4279189791
0.033878308 0.053855453 0.57600003 4279189793
0.035749156 0.053855453 0.57600003 4279124000
0.037685316 0.05394895 0.57700002 4279124000
0.039559416 0.05394895 0.57700002 4279189791
0.041433513 0.05394895 0.57700002 4279058718
0.043307606 0.05394895 0.57700002 4278862109
0.045181707 0.05394895 0.57700002 4278927902
0.047055803 0.05394895 0.57700002 4278927902
0.0489299 0.05394895 0.57700002 4278859804
0.050803997 0.05394895 0.57700002 4285632124
0.0076730778 0.055630188 0.57500005 4282344273
0.009540678 0.055630188 0.57500005 4281028926
0.01140828 0.055630188 0.57500005 4279647273
0.013275881 0.055630188 0.57500005 4279252515
0.015117144 0.055533435 0.574 4279120929
0.016981497 0.055533435 0.574 4278990111
0.018845851 0.055533435 0.574 4278727709
0.020674122 0.055436686 0.57300001 4278859806
0.022535227 0.055436686 0.57300001 4278794785
0.024396332 0.055436686 0.57300001 4278795044
0.026257439 0.055436686 0.57300001 4278795044
0.028167615 0.055533435 0.574 4279057957
0.030031966 0.055533435 0.574 4279189543
0.031951889 0.055630188 0.57500005 4278992162
0.033878308 0.055726934 0.57600003 4279452713
0.035749156 0.055726934 0.57600003 4279320355
0.037685316 0.05582368 0.57700002 4279320355
0.039559416 0.05582368 0.57700002 4279517475
0.041505318 0.05592043 0.57800001 4279649061
0.043382663 0.05592043 0.57800001 4279517475
0.045260008 0.05592043 0.57800001 4279451428
0.047137354 0.05592043 0.57800001 4279581482
0.049014702 0.05592043 0.57800001 4285435263
0.050892044 0.05592043 0.57800001 4285368184
0.022535227 0.057298422 0.57300001 4285962372
0.024396332 0.057298422 0.57300001 4286028165
0.033878308 0.057598416 0.57600003 4285699200
0.035811223 0.057698414 0.57700002 4285436026
0.037685316 0.057698414 0.57700002 4285436028
0.039627977 0.057798408 0.57800001 4285632894
0.041505318 0.057798408 0.57800001 4285435515
0.043382663 0.057798408 0.57800001 4285435515
0.045260008 0.057798408 0.57800001 4285763710
0.047137354 0.057798408 0.57800001 4285828737
0.049014702 0.057798408 0.57800001 4285433979
0.050892044 0.057798408 0.57800001 4285433977
0.037685316 0.059573144 0.57700002 4285500284
0.039627977 0.05967639 0.57800001 4285565563
0.041505318 0.05967639 0.57800001 4285565563
0.043382663 0.05967639 0.57800001 4285631356
0.045260008 0.05967639 0.57800001 4285631356
0.047137354 0.05967639 0.57800001 4285433977
0.049014702 0.05967639 0.57800001 4285433977
0.009850177 0.046559673 0.57535207 4294967295
0.009850177 0.046559673 0.57535207 4294901760
0.009850177 0.046559673 0.5758521 4294901760
0.009850177 0.046559673 0.57635206 4294901760
0.009850177 0.046559673 0.57685208 4294901760
0.009850177 0.046559673 0.57735205 4294901760
0.009850177 0.046559673 0.57785207 4294901760
0.009850177 0.046559673 0.57835209 4294901760
0.009850177 0.046559673 0.57885206 4294901760
0.009850177 0.046559673 0.57935208 4294901760
0.009850177 0.046559673 0.57985204 4294901760
0.009850177 0.046559673 0.58035207 4294901760
0.009850177 0.046559673 0.58085209 4294901760
0.009850177 0.046559673 0.58135206 4294901760
0.009850177 0.046559673 0.58185208 4294901760
0.009850177 0.046559673 0.5823521 4294901760
0.009850177 0.046559673 0.58285207 4294901760
0.009850177 0.046559673 0.58335209 4294901760
0.009850177 0.046559673 0.58385205 4294901760
0.009850177 0.046559673 0.58435208 4294901760
0.009850177 0.046559673 0.5848521 4294901760
0.009850177 0.046559673 0.58535206 4294901760
0.009850177 0.046559673 0.58585209 4294901760
0.009850177 0.046559673 0.58635205 4294901760
0.009850177 0.046559673 0.58685207 4294901760
0.009850177 0.046559673 0.5873521 4294901760
0.009850177 0.046559673 0.58785206 4294901760
0.009850177 0.046559673 0.58835208 4294901760
0.009850177 0.046559673 0.58885205 4294901760
0.009850177 0.046559673 0.58935207 4294901760
0.009850177 0.046559673 0.58985209 4294901760
0.009850177 0.046559673 0.59035206 4294901760
0.009850177 0.046559673 0.59085208 4294901760
0.009850177 0.046559673 0.59135211 4294901760
0.009850177 0.046559673 0.59185207 4294901760
0.009850177 0.046559673 0.59235209 4294901760
0.009850177 0.046559673 0.59285206 4294901760
0.009850177 0.046559673 0.59335208 4294901760
0.009850177 0.046559673 0.5938521 4294901760
0.009850177 0.046559673 0.59435207 4294901760
0.009850177 0.046559673 0.59485209 4294901760
0.009850177 0.046559673 0.59535205 4294901760
0.009850177 0.046559673 0.59585208 4294901760
0.009850177 0.046559673 0.5963521 4294901760
0.009850177 0.046559673 0.59685206 4294901760
0.009850177 0.046559673 0.59735209 4294901760
0.009850177 0.046559673 0.59785205 4294901760
0.009850177 0.046559673 0.59835207 4294901760
0.009850177 0.046559673 0.5988521 4294901760
0.009850177 0.046559673 0.59935206 4294901760
0.009850177 0.046559673 0.59985209 4294901760
0.009850177 0.046559673 0.60035205 4294901760
0.009850177 0.046559673 0.60085207 4294901760
0.009850177 0.046559673 0.6013521 4294901760
0.009850177 0.046559673 0.60185206 4294901760
0.009850177 0.046559673 0.60235208 4294901760
0.009850177 0.046559673 0.60285211 4294901760
0.009850177 0.046559673 0.60335207 4294901760
0.009850177 0.046559673 0.60385209 4294901760
0.009850177 0.046559673 0.60435206 4294901760
0.009850177 0.046559673 0.60485208 4294901760
0.009850177 0.046559673 0.6053521 4294901760
0.009850177 0.046559673 0.60585207 4294901760
0.009850177 0.046559673 0.60635209 4294901760
0.009850177 0.046559673 0.60685205 4294901760
0.009850177 0.046559673 0.60735208 4294901760
0.009850177 0.046559673 0.6078521 4294901760
0.009850177 0.046559673 0.60835207 4294901760
0.009850177 0.046559673 0.60885209 4294901760
0.009850177 0.046559673 0.60935211 4294901760
0.009850177 0.046559673 0.60985208 4294901760
0.009850177 0.046559673 0.6103521 4294901760
0.009850177 0.046559673 0.61085206 4294901760
0.009850177 0.046559673 0.61135209 4294901760
0.009850177 0.046559673 0.61185211 4294901760
0.009850177 0.046559673 0.61235207 4294901760
0.009850177 0.046559673 0.6128521 4294901760
0.009850177 0.046559673 0.61335206 4294901760
0.009850177 0.046559673 0.61385208 4294901760
0.009850177 0.046559673 0.61435211 4294901760
0.009850177 0.046559673 0.61485207 4294901760
0.009850177 0.046559673 0.61535209 4294901760
0.009850177 0.046559673 0.61585206 4294901760
0.009850177 0.046559673 0.61635208 4294901760
0.009850177 0.046559673 0.6168521 4294901760
0.009850177 0.046559673 0.61735207 4294901760
0.009850177 0.046559673 0.61785209 4294901760
0.009850177 0.046559673 0.61835206 4294901760
0.009850177 0.046559673 0.61885208 4294901760
0.009850177 0.046559673 0.6193521 4294901760
0.009850177 0.046559673 0.61985207 4294901760
0.009850177 0.046559673 0.62035209 4294901760
0.009850177 0.046559673 0.62085211 4294901760
0.009850177 0.046559673 0.62135208 4294901760
0.009850177 0.046559673 0.6218521 4294901760
0.009850177 0.046559673 0.62235206 4294901760
0.009850177 0.046559673 0.62285209 4294901760
0.009850177 0.046559673 0.62335211 4294901760
0.009850177 0.046559673 0.62385207 4294901760
0.009850177 0.046559673 0.6243521 4294901760
0.009850177 0.046559673 0.62485206 4294901760
0.009850177 0.046559673 0.62535208 4294901760
0.009850177 0.046559673 0.57535207 4278255360
0.0098848864 0.046513397 0.5758487 4278255360
0.0099195968 0.046467118 0.57634538 4278255360
0.0099543063 0.046420842 0.57684201 4278255360
0.0099890158 0.046374563 0.57733864 4278255360
0.010023726 0.046328288 0.57783526 4278255360
0.010058436 0.046282008 0.57833195 4278255360
0.010093145 0.046235733 0.57882857 4278255360
0.010127855 0.046189453 0.5793252 4278255360
0.010162565 0.046143178 0.57982188 4278255360
0.010197274 0.046096899 0.58031851 4278255360
0.010231985 0.046050623 0.58081514 4278255360
0.010266694 0.046004344 0.58131176 4278255360
0.010301404 0.045958068 0.58180845 4278255360
0.010336114 0.045911789 0.58230507 4278255360
0.010370824 0.045865513 0.5828017 4278255360
0.010405533 0.045819234 0.58329833 4278255360
0.010440243 0.045772959 0.58379501 4278255360
0.010474953 0.045726679 0.58429164 4278255360
0.010509662 0.045680404 0.58478826 4278255360
0.010544373 0.045634124 0.58528495 4278255360
0.010579082 0.045587849 0.58578157 4278255360
0.010613792 0.04554157 0.5862782 4278255360
0.010648502 0.045495294 0.58677483 4278255360
0.010683211 0.045449015 0.58727151 4278255360
0.010717921 0.045402739 0.58776814 4278255360
0.010752631 0.04535646 0.58826476 4278255360
0.010787341 0.045310184 0.58876145 4278255360
0.01082205 0.045263905 0.58925807 4278255360
0.010856761 0.04521763 0.5897547 4278255360
0.01089147 0.04517135 0.59025133 4278255360
0.01092618 0.045125075 0.59074801 4278255360
0.01096089 0.045078795 0.59124464 4278255360
0.010995599 0.04503252 0.59174126 4278255360
0.011030309 0.044986241 0.59223795 4278255360
0.011065019 0.044939965 0.59273458 4278255360
0.011099729 0.044893686 0.5932312 4278255360
0.011134438 0.04484741 0.59372783 4278255360
0.011169149 0.044801131 0.59422451 4278255360
0.011203858 0.044754855 0.59472114 4278255360
0.011238568 0.044708576 0.59521776 4278255360
0.011273278 0.0446623 0.59571439 4278255360
0.011307987 0.044616021 0.59621108 4278255360
0.011342697 0.044569746 0.5967077 4278255360
0.011377407 0.044523466 0.59720433 4278255360
0.011412117 0.044477191 0.59770101 4278255360
0.011446826 0.044430912 0.59819764 4278255360
0.011481537 0.044384636 0.59869426 4278255360
0.011516246 0.04433836 0.59919089 4278255360
0.011550955 0.044292081 0.59968758 4278255360
0.011585666 0.044245802 0.6001842 4278255360
0.011620375 0.044199526 0.60068083 4278255360
0.011655085 0.044153251 0.60117751 4278255360
0.011689794 0.044106971 0.60167414 4278255360
0.011724505 0.044060692 0.60217077 4278255360
0.011759214 0.044014417 0.60266739 4278255360
0.011793924 0.043968141 0.60316408 4278255360
0.011828634 0.043921862 0.6036607 4278255360
0.011863343 0.043875586 0.60415733 4278255360
0.011898053 0.043829307 0.60465395 4278255360
0.011932763 0.043783031 0.60515064 4278255360
0.011967473 0.043736752 0.60564727 4278255360
0.012002183 0.043690477 0.60614389 4278255360
0.012036893 0.043644197 0.60664058 4278255360
0.012071602 0.043597922 0.6071372 4278255360
0.012106312 0.043551642 0.60763383 4278255360
0.012141022 0.043505367 0.60813046 4278255360
0.012175731 0.043459088 0.60862714 4278255360
0.012210442 0.043412812 0.60912377 4278255360
0.012245151 0.043366533 0.60962039 4278255360
0.012279861 0.043320257 0.61011708 4278255360
0.01231457 0.043273978 0.6106137 4278255360
0.012349281 0.043227702 0.61111033 4278255360
0.01238399 0.043181423 0.61160696 4278255360
0.0124187 0.043135148 0.61210364 4278255360
0.01245341 0.043088868 0.61260027 4278255360
0.012488119 0.043042593 0.61309689 4278255360
0.012522829 0.042996313 0.61359358 4278255360
0.012557539 0.042950038 0.6140902 4278255360
0.012592249 0.042903759 0.61458683 4278255360
0.012626959 0.042857483 0.61508346 4278255360
0.012661668 0.042811204 0.61558014 4278255360
0.012696378 0.042764928 0.61607677 4278255360
0.012731087 0.042718649 0.61657339 4278255360
0.012765797 0.042672373 0.61707008 4278255360
0.012800507 0.042626094 0.6175667 4278255360
0.012835218 0.042579819 0.61806333 4278255360
0.012869927 0.042533539 0.61855996 4278255360
0.012904637 0.042487264 0.61905664 4278255360
0.012939346 0.042440984 0.61955327 4278255360
0.012974055 0.042394709 0.62004989 4278255360
0.013008766 0.04234843 0.62054658 4278255360
0.013043476 0.042302154 0.62104321 4278255360
0.013078186 0.042255875 0.62153983 4278255360
0.013112895 0.042209599 0.62203646 4278255360
0.013147605 0.04216332 0.62253314 4278255360
0.013182314 0.042117044 0.62302977 4278255360
0.013217025 0.042070765 0.62352639 4278255360
0.013251735 0.042024489 0.62402302 4278255360
0.013286444 0.04197821 0.62451971 4278255360
0.013321154 0.041931935 0.62501633 4278255360
