# .PCD v0.7 - Point Cloud Data file format
VERSION 0.7
FIELDS x y z rgb
SIZE 4 4 4 4
TYPE F F F U
COUNT 1 1 1 1
WIDTH 891
HEIGHT 1
VIEWPOINT 0 0 0 1 0 0 0
POINTS 891
DATA ascii
0.062660545 0.056930527 0.33200002 4281219886
0.063738875 0.056930527 0.33200002 4281944632
0.060321633 0.057834506 0.33100003 4280625694
0.061396722 0.057834506 0.33100003 4280494880
0.062660545 0.05800923 0.33200002 4281942839
0.063738875 0.05800923 0.33200002 4281813816
0.06481722 0.05800923 0.33200002 4280303141
0.059246548 0.05890996 0.33100003 4281088046
0.060321633 0.05890996 0.33100003 4280890667
0.061396722 0.05890996 0.33100003 4280759333
0.062471811 0.05890996 0.33100003 4281614642
0.063738875 0.059087936 0.33200002 4280961069
0.06481722 0.059087936 0.33200002 4280174373
0.065895557 0.059087936 0.33200002 4280172836
0.059246548 0.05998541 0.33100003 4280693288
0.060321633 0.05998541 0.33100003 4281022766
0.061396722 0.05998541 0.33100003 4280957225
0.062471811 0.05998541 0.33100003 4281155886
0.063546896 0.05998541 0.33100003 4280042787
0.06481722 0.060166635 0.33200002 4279781412
0.059246548 0.061060868 0.33100003 4281154606
0.060321633 0.061060868 0.33100003 4281023020
0.061396722 0.061060868 0.33100003 4280826153
0.062471811 0.061060868 0.33100003 4280565286
0.063546896 0.061060868 0.33100003 4279320346
0.064621985 0.061060868 0.33100003 4279584801
0.059246548 0.062136319 0.33100003 4281154352
0.060321633 0.062136319 0.33100003 4281023534
0.061396722 0.062136319 0.33100003 4280433959
0.062471811 0.062136319 0.33100003 4279778078
0.063546896 0.062136319 0.33100003 4279256347
0.064621985 0.062136319 0.33100003 4279256347
0.059246548 0.063211769 0.33100003 4281285938
0.060321633 0.063211769 0.33100003 4281023280
0.061396722 0.063211769 0.33100003 4280238116
0.062471811 0.063211769 0.33100003 4279451932
0.063546896 0.063211769 0.33100003 4279058968
0.064621985 0.063211769 0.33100003 4279453726
0.059246548 0.064287223 0.33100003 4281089327
0.060321633 0.064287223 0.33100003 4280498471
0.061396722 0.064287223 0.33100003 4280108067
0.062471811 0.064287223 0.33100003 4279255068
0.063546896 0.064287223 0.33100003 4279058972
0.059246548 0.065362677 0.33100003 4280893227
0.060321633 0.065362677 0.33100003 4280631338
0.061396722 0.065362677 0.33100003 4279649313
0.062471811 0.065362677 0.33100003 4279256349
0.063546896 0.065362677 0.33100003 4279257119
0.059067551 0.066237405 0.33000001 4280762665
0.060139388 0.066237405 0.33000001 4280896046
0.061211228 0.066237405 0.33000001 4279517723
0.062283073 0.066237405 0.33000001 4279453213
0.063354909 0.066237405 0.33000001 4279125531
0.059067551 0.067309611 0.33000001 4281355827
0.060139388 0.067309611 0.33000001 4280896813
0.061211228 0.067309611 0.33000001 4279452445
0.062283073 0.067309611 0.33000001 4279257371
0.063354909 0.067309611 0.33000001 4278994199
0.059067551 0.068381809 0.33000001 4281620282
0.060139388 0.068381809 0.33000001 4280437032
0.061211228 0.068381809 0.33000001 4279584803
0.062283073 0.068381809 0.33000001 4279256347
0.063354909 0.068381809 0.33000001 4279849254
0.064231522 0.068174601 0.32900003 4279257119
0.059067551 0.069454014 0.33000001 4280699434
0.060139388 0.069454014 0.33000001 4280700204
0.061211228 0.069454014 0.33000001 4279913766
0.062283073 0.069454014 0.33000001 4279387933
0.063162923 0.06924355 0.32900003 4279718184
0.064231522 0.06924355 0.32900003 4279191840
0.065300114 0.06924355 0.32900003 4279321629
0.058171455 0.07073994 0.33100003 4281617972
0.059067551 0.070526227 0.33000001 4280567594
0.060139388 0.070526227 0.33000001 4281292602
0.061211228 0.070526227 0.33000001 4280636721
0.062283073 0.070526227 0.33000001 4279913766
0.063162923 0.070312507 0.32900003 4279322914
0.064231522 0.070312507 0.32900003 4284125033
0.065300114 0.070312507 0.32900003 4278992664
0.066166975 0.070098795 0.32800001 4279453215
0.067232318 0.070098795 0.32800001 4279713307
0.059246548 0.071815394 0.33100003 4281226296
0.060139388 0.071598426 0.33000001 4281489468
0.061211228 0.071598426 0.33000001 4281162552
0.062283073 0.071598426 0.33000001 4280702512
0.063162923 0.071381465 0.32900003 4279979811
0.064231522 0.071381465 0.32900003 4281163831
0.065300114 0.071381465 0.32900003 4280900663
0.066166975 0.071164496 0.32800001 4279321629
0.067232318 0.071164496 0.32800001 4279320859
0.068505891 0.071381465 0.32900003 4279649824
0.069574483 0.071381465 0.32900003 4280238881
0.059246548 0.072890848 0.33100003 4282146880
0.060321633 0.072890848 0.33100003 4282015294
0.061211228 0.072670631 0.33000001 4281556540
0.062283073 0.072670631 0.33000001 4281359161
0.063162923 0.072450422 0.32900003 4280111145
0.064231522 0.072450422 0.32900003 4279848486
0.065300114 0.072450422 0.32900003 4283205215
0.066368707 0.072450422 0.32900003 4279717672
0.067437299 0.072450422 0.32900003 4279453726
0.068505891 0.072450422 0.32900003 4279124761
0.069574483 0.072450422 0.32900003 4279649822
0.070643075 0.072450422 0.32900003 4279780895
0.071711667 0.072450422 0.32900003 4279976992
0.058347199 0.07418976 0.33200002 4282275904
0.059246548 0.073966302 0.33100003 4281817915
0.060321633 0.073966302 0.33100003 4282081087
0.061211228 0.073742829 0.33000001 4281884478
0.062283073 0.073742829 0.33000001 4281950784
0.063162923 0.073519371 0.32900003 4281163065
0.064231522 0.073519371 0.32900003 4281361214
0.065300114 0.073519371 0.32900003 4279716902
0.066368707 0.073519371 0.32900003 4279257635
0.067437299 0.073519371 0.32900003 4279455012
0.068505891 0.073519371 0.32900003 4279257631
0.069574483 0.073519371 0.32900003 4279125531
0.070643075 0.073519371 0.32900003 4279125531
0.071711667 0.073519371 0.32900003 4279321627
0.072780266 0.073519371 0.32900003 4279453213
0.073848851 0.073519371 0.32900003 4279649824
0.074917451 0.073519371 0.32900003 4280042785
0.059246548 0.075041756 0.33100003 4281883195
0.060321633 0.075041756 0.33100003 4282212160
0.061211228 0.074815035 0.33000001 4281884478
0.062283073 0.074815035 0.33000001 4282016064
0.063162923 0.074588329 0.32900003 4281424954
0.064231522 0.074588329 0.32900003 4281162552
0.065300114 0.074588329 0.32900003 4281557823
0.066368707 0.074588329 0.32900003 4280966456
0.067437299 0.074588329 0.32900003 4279126047
0.068505891 0.074588329 0.32900003 4279455012
0.069574483 0.074588329 0.32900003 4279257633
0.070643075 0.074588329 0.32900003 4279323424
0.071711667 0.074588329 0.32900003 4278928666
0.072780266 0.074588329 0.32900003 4279191838
0.073848851 0.074588329 0.32900003 4278862873
0.074917451 0.074588329 0.32900003 4279257117
0.075755075 0.074361615 0.32800001 4279716389
0.076820418 0.074361615 0.32800001 4279715619
0.078469701 0.073908187 0.32600001 4280434211
0.062283073 0.07588724 0.33000001 4281752638
0.063162923 0.075657278 0.32900003 4281424700
0.064231522 0.075657278 0.32900003 4281490493
0.065300114 0.075657278 0.32900003 4281490747
0.066368707 0.075657278 0.32900003 4281030964
0.067437299 0.075657278 0.32900003 4280506416
0.068505891 0.075657278 0.32900003 4279190556
0.069574483 0.075657278 0.32900003 4279322912
0.070643075 0.075657278 0.32900003 4279454496
0.071711667 0.075657278 0.32900003 4279192092
0.072780266 0.075657278 0.32900003 4279192092
0.073848851 0.075657278 0.32900003 4279257885
0.074689731 0.075427316 0.32800001 4278994713
0.075755075 0.075427316 0.32800001 4278994461
0.076820418 0.075427316 0.32800001 4279125533
0.077648312 0.075197354 0.32700002 4279453215
0.078710407 0.075197354 0.32700002 4279452445
0.079772502 0.075197354 0.32700002 4279911199
0.080834597 0.075197354 0.32700002 4279975198
0.063162923 0.076726235 0.32900003 4281687612
0.064231522 0.076726235 0.32900003 4281556026
0.065300114 0.076726235 0.32900003 4281424954
0.066368707 0.076726235 0.32900003 4281293368
0.067437299 0.076726235 0.32900003 4281030194
0.068505891 0.076726235 0.32900003 4280964401
0.069574483 0.076726235 0.32900003 4280570924
0.070643075 0.076726235 0.32900003 4280045350
0.071711667 0.076726235 0.32900003 4279586336
0.072780266 0.076726235 0.32900003 4279388957
0.073848851 0.076726235 0.32900003 4279192605
0.074689731 0.076493025 0.32800001 4279060765
0.075755075 0.076493025 0.32800001 4279192351
0.076820418 0.076493025 0.32800001 4279126045
0.077648312 0.076259814 0.32700002 4279257117
0.078710407 0.076259814 0.32700002 4279059738
0.079772502 0.076259814 0.32700002 4279584799
0.080834597 0.076259814 0.32700002 4279453213
0.081896693 0.076259814 0.32700002 4279780897
0.083212487 0.076493025 0.32800001 4279647516
0.084277831 0.076493025 0.32800001 4280827940
0.063162923 0.077795193 0.32900003 4281621304
0.064231522 0.077795193 0.32900003 4281423925
0.065300114 0.077795193 0.32900003 4281424436
0.066368707 0.077795193 0.32900003 4281490229
0.067437299 0.077795193 0.32900003 4281555509
0.068505891 0.077795193 0.32900003 4281423925
0.069574483 0.077795193 0.32900003 4281555511
0.070643075 0.077795193 0.32900003 4281095473
0.071711667 0.077795193 0.32900003 4280636206
0.072780266 0.077795193 0.32900003 4280505133
0.073848851 0.077795193 0.32900003 4279980072
0.074689731 0.077558726 0.32800001 4279191840
0.075755075 0.077558726 0.32800001 4279192353
0.076820418 0.077558726 0.32800001 4279192353
0.077648312 0.077322267 0.32700002 4279322910
0.078710407 0.077322267 0.32700002 4279388703
0.079772502 0.077322267 0.32700002 4279257119
0.080834597 0.077322267 0.32700002 4279257119
0.081896693 0.077322267 0.32700002 4279256347
0.083212487 0.077558726 0.32800001 4279453215
0.084277831 0.077558726 0.32800001 4279649311
0.085343175 0.077558726 0.32800001 4280042785
0.063354909 0.07910385 0.33000001 4281883454
0.06442675 0.07910385 0.33000001 4281817661
0.06549859 0.07910385 0.33000001 4281752890
0.066368707 0.07886415 0.32900003 4281555511
0.067642272 0.07910385 0.33000001 4281555511
0.068714112 0.07910385 0.33000001 4281423925
0.069785953 0.07910385 0.33000001 4281226546
0.070643075 0.07886415 0.32900003 4281094960
0.071711667 0.07886415 0.32900003 4281490233
0.072780266 0.07886415 0.32900003 4280898610
0.073848851 0.07886415 0.32900003 4280767794
0.074689731 0.078624435 0.32800001 4280307756
0.075755075 0.078624435 0.32800001 4280242731
0.076820418 0.078624435 0.32800001 4279584801
0.077648312 0.078384727 0.32700002 4279256347
0.078710407 0.078384727 0.32700002 4279190554
0.079772502 0.078384727 0.32700002 4279388703
0.080834597 0.078384727 0.32700002 4279520289
0.081896693 0.078384727 0.32700002 4279125531
0.082958788 0.078384727 0.32700002 4279125533
0.084277831 0.078624435 0.32800001 4278993947
0.085343175 0.078624435 0.32800001 4279387935
0.086408526 0.078624435 0.32800001 4279453215
0.087473869 0.078624435 0.32800001 4279912483
0.088539213 0.078624435 0.32800001 4280108065
0.06442675 0.080176055 0.33000001 4283197006
0.06549859 0.080176055 0.33000001 4281817661
0.066570431 0.080176055 0.33000001 4281686329
0.067642272 0.080176055 0.33000001 4281687099
0.068714112 0.080176055 0.33000001 4281555513
0.069785953 0.080176055 0.33000001 4281423925
0.070857793 0.080176055 0.33000001 4281358645
0.071929634 0.080176055 0.33000001 4281095473
0.072780266 0.079933099 0.32900003 4281029680
0.073848851 0.079933099 0.32900003 4281161266
0.074917451 0.079933099 0.32900003 4279516443
0.075755075 0.079690143 0.32800001 4279845668
0.076820418 0.079690143 0.32800001 4280702001
0.077885762 0.079690143 0.32800001 4280373547
0.078710407 0.079447187 0.32700002 4279847203
0.079772502 0.079447187 0.32700002 4279453726
0.080834597 0.079447187 0.32700002 4279322910
0.081896693 0.079447187 0.32700002 4279257117
0.082958788 0.079447187 0.32700002 4279125533
0.08402089 0.079447187 0.32700002 4279322912
0.085082985 0.079447187 0.32700002 4279059738
0.086145088 0.079447187 0.32700002 4279257117
0.087473869 0.079690143 0.32800001 4279387933
0.088269278 0.079447187 0.32700002 4279649824
0.089331366 0.079447187 0.32700002 4279584031
0.090393469 0.079447187 0.32700002 4280042785
0.067642272 0.081248261 0.33000001 4282080320
0.068714112 0.081248261 0.33000001 4282015294
0.069785953 0.081248261 0.33000001 4281620534
0.070857793 0.081248261 0.33000001 4281554741
0.071929634 0.081248261 0.33000001 4281358132
0.073001474 0.081248261 0.33000001 4281160753
0.073848851 0.081002057 0.32900003 4281356597
0.074917451 0.081002057 0.32900003 4279776283
0.075986043 0.081002057 0.32900003 4280698415
0.076820418 0.080755845 0.32800001 4280699182
0.077885762 0.080755845 0.32800001 4281029680
0.078710407 0.08050964 0.32700002 4280832815
0.079772502 0.08050964 0.32700002 4280570926
0.080834597 0.08050964 0.32700002 4280176938
0.081896693 0.08050964 0.32700002 4279651107
0.082958788 0.08050964 0.32700002 4279322912
0.08402089 0.08050964 0.32700002 4279454496
0.085082985 0.08050964 0.32700002 4279192092
0.085881643 0.080263428 0.32600001 4278994713
0.08694049 0.080263428 0.32600001 4279257631
0.087999336 0.080263428 0.32600001 4279059738
0.089058183 0.080263428 0.32600001 4278993175
0.09011703 0.080263428 0.32600001 4279321627
0.090896204 0.080017224 0.32500002 4279780895
0.068714112 0.082320467 0.33000001 4284117336
0.069785953 0.082320467 0.33000001 4282538304
0.070857793 0.082320467 0.33000001 4282210363
0.071929634 0.082320467 0.33000001 4281882425
0.073001474 0.082320467 0.33000001 4279974428
0.073848851 0.082071014 0.32900003 4280498210
0.074917451 0.082071014 0.32900003 4281551411
0.075986043 0.082071014 0.32900003 4281685562
0.076820418 0.081821553 0.32800001 4281357110
0.077885762 0.081821553 0.32800001 4280963376
0.078710407 0.081572101 0.32700002 4281094190
0.079772502 0.081572101 0.32700002 4281159983
0.080834597 0.081572101 0.32700002 4280898606
0.081646241 0.08132264 0.32600001 4280505131
0.082705088 0.08132264 0.32600001 4280241959
0.083763942 0.08132264 0.32600001 4279914018
0.0845626 0.081073187 0.32500002 4279585053
0.085618205 0.081073187 0.32500002 4279323164
0.086673804 0.081073187 0.32500002 4279388957
0.087729409 0.081073187 0.32500002 4279388957
0.088785 0.081073187 0.32500002 4279059992
0.089840598 0.081073187 0.32500002 4279059992
0.090616517 0.080823727 0.324 4279190808
0.091385946 0.080574274 0.32300001 4279190554
0.092435054 0.080574274 0.32300001 4279519006
0.093484156 0.080574274 0.32300001 4279715617
0.070857793 0.083392665 0.33000001 4285497708
0.071929634 0.083392665 0.33000001 4283524434
0.073001474 0.083392665 0.33000001 4281617720
0.074073315 0.083392665 0.33000001 4281091376
0.074917451 0.083139963 0.32900003 4281946937
0.075986043 0.083139963 0.32900003 4281882425
0.076820418 0.082887255 0.32800001 4281882425
0.077885762 0.082887255 0.32800001 4279840026
0.078710407 0.082634553 0.32700002 4280234016
0.079772502 0.082634553 0.32700002 4280365600
0.080587395 0.082381845 0.32600001 4279906073
0.081646241 0.082381845 0.32600001 4280437543
0.082451396 0.082129143 0.32500002 4280898608
0.083507001 0.082129143 0.32500002 4280767020
0.084302403 0.081876434 0.324 4280636204
0.08535476 0.081876434 0.324 4280045604
0.08640711 0.081876434 0.324 4279388187
0.087459467 0.081876434 0.324 4279519773
0.08851181 0.081876434 0.324 4279388957
0.089287736 0.081623733 0.32300001 4279454750
0.090336844 0.081623733 0.32300001 4279323164
0.091103025 0.081371032 0.32200003 4279257371
0.092148878 0.081371032 0.32200003 4278994199
0.093194738 0.081371032 0.32200003 4279124761
0.094240583 0.081371032 0.32200003 4279255836
0.095286444 0.081371032 0.32200003 4279715102
0.096332304 0.081371032 0.32200003 4279780125
0.097378157 0.081371032 0.32200003 4280370467
0.09811835 0.081118323 0.32100001 4280500772
0.074917451 0.084208921 0.32900003 4282604099
0.075986043 0.084208921 0.32900003 4282145083
0.076820418 0.083952963 0.32800001 4281552433
0.077885762 0.083952963 0.32800001 4280365602
0.078710407 0.083697014 0.32700002 4281089327
0.079528548 0.083441056 0.32600001 4280957739
0.080587395 0.083441056 0.32600001 4280431395
0.081395797 0.083185099 0.32500002 4280299547
0.082451396 0.083185099 0.32500002 4280103452
0.083250053 0.082929142 0.324 4280368932
0.084042214 0.082673192 0.32300001 4280898096
0.085091323 0.082673192 0.32300001 4280964399
0.086140424 0.082673192 0.32300001 4280636458
0.087189533 0.082673192 0.32300001 4280768557
0.087965451 0.082417242 0.32200003 4279717150
0.089011304 0.082417242 0.32200003 4279257369
0.090057164 0.082417242 0.32200003 4279256601
0.091103025 0.082417242 0.32200003 4279650846
0.092148878 0.082417242 0.32200003 4279585053
0.093194738 0.082417242 0.32200003 4279453213
0.094240583 0.082417242 0.32200003 4279190041
0.094990522 0.082161285 0.32100001 4279320857
0.096033126 0.082161285 0.32100001 4279189271
0.097075738 0.082161285 0.32100001 4279584029
0.09811835 0.082161285 0.32100001 4279517723
0.099160962 0.082161285 0.32100001 4279976481
0.10020357 0.082161285 0.32100001 4280501288
0.076820418 0.085018672 0.32800001 4283457863
0.077885762 0.085018672 0.32800001 4282603586
0.078710407 0.084759474 0.32700002 4281024302
0.079528548 0.084500261 0.32600001 4280102432
0.080587395 0.084500261 0.32600001 4280431397
0.081395797 0.084241062 0.32500002 4280694055
0.082197696 0.083981857 0.324 4281286192
0.083250053 0.083981857 0.324 4280364577
0.084042214 0.083722658 0.32300001 4279838746
0.084827885 0.083463453 0.32200003 4279513109
0.085873738 0.083463453 0.32200003 4281750835
0.086919598 0.083463453 0.32200003 4280702251
0.087692261 0.083204247 0.32100001 4280505385
0.088734865 0.083204247 0.32100001 4280242213
0.089777477 0.083204247 0.32100001 4280110627
0.090820089 0.083204247 0.32100001 4279847455
0.091862701 0.083204247 0.32100001 4279650076
0.092905305 0.083204247 0.32100001 4279650844
0.09394791 0.083204247 0.32100001 4279585051
0.094990522 0.083204247 0.32100001 4279519258
0.096033126 0.083204247 0.32100001 4279124502
0.097075738 0.083204247 0.32100001 4279190295
0.09811835 0.083204247 0.32100001 4279321881
0.099160962 0.083204247 0.32100001 4279452443
0.099891409 0.082945049 0.32000002 4279715102
0.10093077 0.082945049 0.32000002 4279911199
0.10197013 0.082945049 0.32000002 4280239653
0.10300949 0.082945049 0.32000002 4280501038
0.079528548 0.085559465 0.32600001 4282340414
0.080340199 0.085297011 0.32500002 4281024300
0.081395797 0.085297011 0.32500002 4280497958
0.082197696 0.085034557 0.324 4280103200
0.082993105 0.08477211 0.32300001 4280168223
0.084042214 0.08477211 0.32300001 4280365602
0.084827885 0.084509656 0.32200003 4281155118
0.085607044 0.084247202 0.32100001 4280102428
0.086649656 0.084247202 0.32100001 4279446033
0.087692261 0.084247202 0.32100001 4280500772
0.088734865 0.084247202 0.32100001 4280438309
0.089777477 0.084247202 0.32100001 4280833065
0.090820089 0.084247202 0.32100001 4280767272
0.091862701 0.084247202 0.32100001 4280504102
0.092905305 0.084247202 0.32100001 4279781660
0.09394791 0.084247202 0.32100001 4279650844
0.094990522 0.084247202 0.32100001 4279453467
0.096033126 0.084247202 0.32100001 4279519260
0.097075738 0.084247202 0.32100001 4279321881
0.09811835 0.084247202 0.32100001 4279453467
0.098852053 0.083984755 0.32000002 4279190295
0.099891409 0.083984755 0.32000002 4279058709
0.10093077 0.083984755 0.32000002 4279321881
0.10197013 0.083984755 0.32000002 4279451930
0.10300949 0.083984755 0.32000002 4279582750
0.10372369 0.083722293 0.31900001 4279911201
0.1047598 0.083722293 0.31900001 4280106791
0.10579592 0.083722293 0.31900001 4281224761
0.10683203 0.083722293 0.31900001 4281682493
0.080340199 0.086352974 0.32500002 4285563501
0.081395797 0.086352974 0.32500002 4282735683
0.082197696 0.086087264 0.324 4280960042
0.082993105 0.085821569 0.32300001 4280630825
0.084042214 0.085821569 0.32300001 4279840539
0.084827885 0.085555874 0.32200003 4280036637
0.085607044 0.085290164 0.32100001 4280168223
0.086379722 0.085024469 0.32000002 4280234014
0.087419078 0.085024469 0.32000002 4280102428
0.088458441 0.085024469 0.32000002 4280168475
0.089497805 0.085024469 0.32000002 4280432417
0.090820089 0.085290164 0.32100001 4280700204
0.091862701 0.085290164 0.32100001 4280963887
0.092905305 0.085290164 0.32100001 4280569895
0.09394791 0.085290164 0.32100001 4280570665
0.094990522 0.085290164 0.32100001 4279912994
0.096033126 0.085290164 0.32100001 4279650592
0.097075738 0.085290164 0.32100001 4279519006
0.09781269 0.085024469 0.32000002 4279453213
0.098852053 0.085024469 0.32000002 4279585312
0.099891409 0.085024469 0.32000002 4279256347
0.10093077 0.085024469 0.32000002 4279388187
0.10165147 0.084758759 0.31900001 4279650076
0.10268757 0.084758759 0.31900001 4279386904
0.10372369 0.084758759 0.31900001 4279255318
0.1047598 0.084758759 0.31900001 4279386137
0.10579592 0.084758759 0.31900001 4279649311
0.10683203 0.084758759 0.31900001 4279909666
0.10786814 0.084758759 0.31900001 4280631852
0.10890425 0.084758759 0.31900001 4281682495
0.10994036 0.084758759 0.31900001 4281747522
0.082197696 0.087139979 0.324 4286154609
0.082993105 0.086871035 0.32300001 4283459154
0.084042214 0.086871035 0.32300001 4280565032
0.085091323 0.086871035 0.32300001 4280827434
0.086140424 0.086871035 0.32300001 4279905819
0.086379722 0.086064182 0.32000002 4280038172
0.087419078 0.086064182 0.32000002 4280169504
0.088458441 0.086064182 0.32000002 4280168221
0.089497805 0.086064182 0.32000002 4280233500
0.090820089 0.086333133 0.32100001 4279970842
0.091862701 0.086333133 0.32100001 4280104994
0.092905305 0.086333133 0.32100001 4280503338
0.09394791 0.086333133 0.32100001 4280767024
0.094990522 0.086333133 0.32100001 4280570413
0.096033126 0.086333133 0.32100001 4280373547
0.096773326 0.086064182 0.32000002 4280044582
0.09781269 0.086064182 0.32000002 4279649824
0.098852053 0.086064182 0.32000002 4279453215
0.099891409 0.086064182 0.32000002 4279453213
0.10061535 0.085795231 0.31900001 4279519773
0.10165147 0.085795231 0.31900001 4279453980
0.10268757 0.085795231 0.31900001 4279125015
0.10372369 0.085795231 0.31900001 4279190808
0.1047598 0.085795231 0.31900001 4278927384
0.10579592 0.085795231 0.31900001 4279058970
0.10683203 0.085795231 0.31900001 4279451162
0.10786814 0.085795231 0.31900001 4279779100
0.10890425 0.085795231 0.31900001 4279975711
0.10994036 0.085795231 0.31900001 4280238116
0.11097648 0.085795231 0.31900001 4281025587
0.09781269 0.087103896 0.32000002 4280569645
0.098852053 0.087103896 0.32000002 4280307243
0.099891409 0.087103896 0.32000002 4279846692
0.10061535 0.086831696 0.31900001 4279584799
0.10165147 0.086831696 0.31900001 4279716898
0.10268757 0.086831696 0.31900001 4279651105
0.10372369 0.086831696 0.31900001 4279453726
0.1047598 0.086831696 0.31900001 4279519008
0.10579592 0.086831696 0.31900001 4279255838
0.10683203 0.086831696 0.31900001 4279255066
0.10786814 0.086831696 0.31900001 4279451930
0.10890425 0.086831696 0.31900001 4279320344
0.10994036 0.086831696 0.31900001 4279780125
0.11097648 0.086831696 0.31900001 4279909916
0.11201259 0.086831696 0.31900001 4280106014
0.11304871 0.086831696 0.31900001 4280959020
0.099579245 0.087868161 0.31900001 4280832817
0.10061535 0.087868161 0.31900001 4280570413
0.10165147 0.087868161 0.31900001 4280438827
0.10268757 0.087868161 0.31900001 4279847201
0.10372369 0.087868161 0.31900001 4280044580
0.1047598 0.087868161 0.31900001 4279912994
0.10579592 0.087868161 0.31900001 4279650594
0.10683203 0.087868161 0.31900001 4279321629
0.10786814 0.087868161 0.31900001 4279190041
0.10890425 0.087868161 0.31900001 4279255064
0.10994036 0.087868161 0.31900001 4279123478
0.11097648 0.087868161 0.31900001 4279254551
0.11201259 0.087868161 0.31900001 4279516953
0.11304871 0.087868161 0.31900001 4280172573
0.11372718 0.087592714 0.31800002 4280434979
0.11476005 0.087592714 0.31800002 4280959790
0.10268757 0.088904612 0.31900001 4280569643
0.10372369 0.088904612 0.31900001 4280438055
0.1047598 0.088904612 0.31900001 4279847201
0.10579592 0.088904612 0.31900001 4279716385
0.10683203 0.088904612 0.31900001 4279519006
0.10786814 0.088904612 0.31900001 4279716385
0.10890425 0.088904612 0.31900001 4279190295
0.10994036 0.088904612 0.31900001 4279124502
0.11097648 0.088904612 0.31900001 4278992916
0.11201259 0.088904612 0.31900001 4279123732
0.11269433 0.088625923 0.31800002 4279385621
0.11372718 0.088625923 0.31800002 4279648025
0.11476005 0.088625923 0.31800002 4279779100
0.11579292 0.088625923 0.31800002 4279975709
0.1164584 0.088347219 0.317 4280827173
0.10579592 0.089941084 0.31900001 4280636206
0.10683203 0.089941084 0.31900001 4280045352
0.10786814 0.089941084 0.31900001 4279519008
0.10890425 0.089941084 0.31900001 4279716387
0.10994036 0.089941084 0.31900001 4279716385
0.11097648 0.089941084 0.31900001 4279321627
0.11201259 0.089941084 0.31900001 4279190041
0.11269433 0.08965914 0.31800002 4279255064
0.11372718 0.08965914 0.31800002 4279189271
0.11476005 0.08965914 0.31800002 4279386652
0.11579292 0.08965914 0.31800002 4279386139
0.1164584 0.089377187 0.317 4279844893
0.11748802 0.089377187 0.317 4279975196
0.11851764 0.089377187 0.317 4280169758
0.10786814 0.09097755 0.31900001 4280503850
0.10890425 0.09097755 0.31900001 4280175657
0.10994036 0.09097755 0.31900001 4279781412
0.11097648 0.09097755 0.31900001 4279716387
0.11201259 0.09097755 0.31900001 4279584801
0.11269433 0.090692356 0.31800002 4279584031
0.11372718 0.090692356 0.31800002 4279189273
0.11476005 0.090692356 0.31800002 4279189273
0.11579292 0.090692356 0.31800002 4279386650
0.1164584 0.090407155 0.317 4279320344
0.11748802 0.090407155 0.317 4279451160
0.11851764 0.090407155 0.317 4279911199
0.11954726 0.090407155 0.317 4279976227
0.1201965 0.090121962 0.31600001 4280368680
0.10994036 0.092014015 0.31900001 4280898094
0.11097648 0.092014015 0.31900001 4280373034
0.11201259 0.092014015 0.31900001 4279912483
0.11304871 0.092014015 0.31900001 4279780897
0.11372718 0.091725573 0.31800002 4279847203
0.11476005 0.091725573 0.31800002 4279584801
0.11579292 0.091725573 0.31800002 4279321629
0.11682578 0.091725573 0.31800002 4279453213
0.11748802 0.091437124 0.317 4279255064
0.11851764 0.091437124 0.317 4279451930
0.11954726 0.091437124 0.317 4279320346
0.12057687 0.091437124 0.317 4279779613
0.12122287 0.091148682 0.31600001 4279779102
0.10579592 0.093050465 0.31900001 4280632104
0.10683203 0.093050465 0.31900001 4280303393
0.10786814 0.093050465 0.31900001 4280566565
0.10890425 0.093050465 0.31900001 4280566565
0.10994036 0.093050465 0.31900001 4280829737
0.11097648 0.093050465 0.31900001 4281159985
0.11201259 0.093050465 0.31900001 4281160753
0.11304871 0.093050465 0.31900001 4280898094
0.11408481 0.093050465 0.31900001 4280372264
0.11476005 0.092758775 0.31800002 4279780899
0.11579292 0.092758775 0.31800002 4279780899
0.11682578 0.092758775 0.31800002 4279584033
0.11748802 0.092467077 0.317 4279452447
0.11851764 0.092467077 0.317 4279386652
0.11954726 0.092467077 0.317 4279320346
0.12057687 0.092467077 0.317 4279451162
0.12160648 0.092467077 0.317 4279451162
0.10443141 0.093791991 0.31800002 4280368680
0.10546428 0.093791991 0.31800002 4280172323
0.10649713 0.093791991 0.31800002 4279909151
0.10786814 0.094086938 0.31900001 4280368932
0.10890425 0.094086938 0.31900001 4280500258
0.10994036 0.094086938 0.31900001 4281158188
0.11097648 0.094086938 0.31900001 4280895276
0.11201259 0.094086938 0.31900001 4280632104
0.11304871 0.094086938 0.31900001 4280896813
0.11408481 0.094086938 0.31900001 4281094192
0.11512093 0.094086938 0.31900001 4280700204
0.11579292 0.093791991 0.31800002 4280765995
0.11682578 0.093791991 0.31800002 4279911713
0.11785865 0.093791991 0.31800002 4279978276
0.11889151 0.093791991 0.31800002 4279649824
0.11954726 0.093497045 0.317 4279584031
0.12057687 0.093497045 0.317 4279255066
0.12160648 0.093497045 0.317 4279189273
0.10410301 0.094527014 0.317 4281222714
0.10546428 0.094825208 0.31800002 4280631856
0.10649713 0.094825208 0.31800002 4280434473
0.10786814 0.095123403 0.31900001 4280170787
0.10890425 0.095123403 0.31900001 4280500006
0.10994036 0.095123403 0.31900001 4280566313
0.11097648 0.095123403 0.31900001 4280368934
0.11201259 0.095123403 0.31900001 4280961069
0.11304871 0.095123403 0.31900001 4281355313
0.11408481 0.095123403 0.31900001 4281092141
0.11512093 0.095123403 0.31900001 4280632104
0.11615704 0.095123403 0.31900001 4281094192
0.11682578 0.094825208 0.31800002 4280963887
0.11785865 0.094825208 0.31800002 4280569643
0.11889151 0.094825208 0.31800002 4280241448
0.11992438 0.094825208 0.31800002 4279781410
0.12057687 0.094527014 0.317 4279847203
0.12160648 0.094527014 0.317 4279452445
0.10410301 0.095556982 0.317 4281681733
0.10513262 0.095556982 0.317 4281353281
0.10649713 0.095858425 0.31800002 4281025082
0.10753 0.095858425 0.31800002 4280959542
0.10890425 0.096159868 0.31900001 4280696881
0.10994036 0.096159868 0.31900001 4280236582
0.11097648 0.096159868 0.31900001 4280500006
0.11201259 0.096159868 0.31900001 4280500004
0.11304871 0.096159868 0.31900001 4281288491
0.11408481 0.096159868 0.31900001 4280697124
0.11512093 0.096159868 0.31900001 4281486899
0.11615704 0.096159868 0.31900001 4281552692
0.11682578 0.095858425 0.31800002 4280829737
0.11785865 0.095858425 0.31800002 4281092909
0.11889151 0.095858425 0.31800002 4281225011
0.11992438 0.095858425 0.31800002 4281094962
0.12057687 0.095556982 0.317 4280438827
0.12160648 0.095556982 0.317 4279912994
0.10410301 0.096586943 0.317 4281878342
0.10513262 0.096586943 0.317 4281615170
0.10616223 0.096586943 0.317 4281417791
0.10753 0.096891634 0.31800002 4281483584
0.10856286 0.096891634 0.31800002 4281351996
0.10994036 0.097196326 0.31900001 4281286971
0.11097648 0.097196326 0.31900001 4281090606
0.11201259 0.097196326 0.31900001 4280827434
0.11304871 0.097196326 0.31900001 4280827686
0.11408481 0.097196326 0.31900001 4281353771
0.11512093 0.097196326 0.31900001 4281419564
0.11615704 0.097196326 0.31900001 4281354284
0.11719315 0.097196326 0.31900001 4281222444
0.11822927 0.097196326 0.31900001 4281880376
0.11889151 0.096891634 0.31800002 4281617202
0.11992438 0.096891634 0.31800002 4281419823
0.12095724 0.096891634 0.31800002 4281356081
0.12199011 0.096891634 0.31800002 4281028397
0.10513262 0.097616903 0.317 4282009412
0.10616223 0.097616903 0.317 4282008899
0.10753 0.097924851 0.31800002 4281745727
0.10856286 0.097924851 0.31800002 4281745727
0.10994036 0.098232791 0.31900001 4281483068
0.11097648 0.098232791 0.31900001 4281352247
0.11201259 0.098232791 0.31900001 4281615417
0.11304871 0.098232791 0.31900001 4283128392
0.11408481 0.098232791 0.31900001 4282010677
0.11512093 0.098232791 0.31900001 4282010677
0.11615704 0.098232791 0.31900001 4281747505
0.11719315 0.098232791 0.31900001 4281879861
0.11822927 0.098232791 0.31900001 4282012214
0.11926538 0.098232791 0.31900001 4281814833
0.1203015 0.098232791 0.31900001 4282012212
0.1213376 0.098232791 0.31900001 4280827940
0.12237372 0.098232791 0.31900001 4281026087
0.10616223 0.098646872 0.317 4281943106
0.10753 0.098958068 0.31800002 4281745727
0.10856286 0.098958068 0.31800002 4281614141
0.10994036 0.099269256 0.31900001 4281417275
0.11097648 0.099269256 0.31900001 4281417273
0.11201259 0.099269256 0.31900001 4282665797
0.11304871 0.099269256 0.31900001 4283455561
0.11408481 0.099269256 0.31900001 4284376917
0.11512093 0.099269256 0.31900001 4285429864
0.11615704 0.099269256 0.31900001 4284772704
0.11719315 0.099269256 0.31900001 4283063367
0.11822927 0.099269256 0.31900001 4281485105
0.11926538 0.099269256 0.31900001 4280695587
0.1203015 0.099269256 0.31900001 4281221931
0.1213376 0.099269256 0.31900001 4282406457
0.12237372 0.099269256 0.31900001 4282078005
0.088529944 0.08232376 0.32404202 4294967295
0.088529944 0.08232376 0.32404202 4294901760
0.088529944 0.08232376 0.32454202 4294901760
0.088529944 0.08232376 0.32504201 4294901760
0.088529944 0.08232376 0.32554203 4294901760
0.088529944 0.08232376 0.32604203 4294901760
0.088529944 0.08232376 0.32654202 4294901760
0.088529944 0.08232376 0.32704201 4294901760
0.088529944 0.08232376 0.32754204 4294901760
0.088529944 0.08232376 0.32804203 4294901760
0.088529944 0.08232376 0.32854202 4294901760
0.088529944 0.08232376 0.32904202 4294901760
0.088529944 0.08232376 0.32954201 4294901760
0.088529944 0.08232376 0.33004203 4294901760
0.088529944 0.08232376 0.33054203 4294901760
0.088529944 0.08232376 0.33104202 4294901760
0.088529944 0.08232376 0.33154202 4294901760
0.088529944 0.08232376 0.33204204 4294901760
0.088529944 0.08232376 0.33254203 4294901760
0.088529944 0.08232376 0.33304203 4294901760
0.088529944 0.08232376 0.33354202 4294901760
0.088529944 0.08232376 0.33404201 4294901760
0.088529944 0.08232376 0.33454204 4294901760
0.088529944 0.08232376 0.33504203 4294901760
0.088529944 0.08232376 0.33554202 4294901760
0.088529944 0.08232376 0.33604202 4294901760
0.088529944 0.08232376 0.33654201 4294901760
0.088529944 0.08232376 0.33704203 4294901760
0.088529944 0.08232376 0.33754203 4294901760
0.088529944 0.08232376 0.33804202 4294901760
0.088529944 0.08232376 0.33854201 4294901760
0.088529944 0.08232376 0.33904204 4294901760
0.088529944 0.08232376 0.33954203 4294901760
0.088529944 0.08232376 0.34004202 4294901760
0.088529944 0.08232376 0.34054202 4294901760
0.088529944 0.08232376 0.34104204 4294901760
0.088529944 0.08232376 0.34154204 4294901760
0.088529944 0.08232376 0.34204203 4294901760
0.088529944 0.08232376 0.34254202 4294901760
0.088529944 0.08232376 0.34304202 4294901760
0.088529944 0.08232376 0.34354204 4294901760
0.088529944 0.08232376 0.34404203 4294901760
0.088529944 0.08232376 0.34454203 4294901760
0.088529944 0.08232376 0.34504202 4294901760
0.088529944 0.08232376 0.34554201 4294901760
0.088529944 0.08232376 0.34604204 4294901760
0.088529944 0.08232376 0.34654203 4294901760
0.088529944 0.08232376 0.34704202 4294901760
0.088529944 0.08232376 0.34754202 4294901760
0.088529944 0.08232376 0.34804204 4294901760
0.088529944 0.08232376 0.34854203 4294901760
0.088529944 0.08232376 0.34904203 4294901760
0.088529944 0.08232376 0.34954202 4294901760
0.088529944 0.08232376 0.35004202 4294901760
0.088529944 0.08232376 0.35054204 4294901760
0.088529944 0.08232376 0.35104203 4294901760
0.088529944 0.08232376 0.35154203 4294901760
0.088529944 0.08232376 0.35204202 4294901760
0.088529944 0.08232376 0.35254204 4294901760
0.088529944 0.08232376 0.35304204 4294901760
0.088529944 0.08232376 0.35354203 4294901760
0.088529944 0.08232376 0.35404202 4294901760
0.088529944 0.08232376 0.35454202 4294901760
0.088529944 0.08232376 0.35504204 4294901760
0.088529944 0.08232376 0.35554203 4294901760
0.088529944 0.08232376 0.35604203 4294901760
0.088529944 0.08232376 0.35654202 4294901760
0.088529944 0.08232376 0.35704204 4294901760
0.088529944 0.08232376 0.35754204 4294901760
0.088529944 0.08232376 0.35804203 4294901760
0.088529944 0.08232376 0.35854203 4294901760
0.088529944 0.08232376 0.35904202 4294901760
0.088529944 0.08232376 0.35954204 4294901760
0.088529944 0.08232376 0.36004204 4294901760
0.088529944 0.08232376 0.36054203 4294901760
0.088529944 0.08232376 0.36104202 4294901760
0.088529944 0.08232376 0.36154205 4294901760
0.088529944 0.08232376 0.36204204 4294901760
0.088529944 0.08232376 0.36254203 4294901760
0.088529944 0.08232376 0.36304203 4294901760
0.088529944 0.08232376 0.36354202 4294901760
0.088529944 0.08232376 0.36404204 4294901760
0.088529944 0.08232376 0.36454204 4294901760
0.088529944 0.08232376 0.36504203 4294901760
0.088529944 0.08232376 0.36554202 4294901760
0.088529944 0.08232376 0.36604202 4294901760
0.088529944 0.08232376 0.36654204 4294901760
0.088529944 0.08232376 0.36704203 4294901760
0.088529944 0.08232376 0.36754203 4294901760
0.088529944 0.08232376 0.36804202 4294901760
0.088529944 0.08232376 0.36854202 4294901760
0.088529944 0.08232376 0.36904204 4294901760
0.088529944 0.08232376 0.36954203 4294901760
0.088529944 0.08232376 0.37004203 4294901760
0.088529944 0.08232376 0.37054205 4294901760
0.088529944 0.08232376 0.37104204 4294901760
0.088529944 0.08232376 0.37154204 4294901760
0.088529944 0.08232376 0.37204203 4294901760
0.088529944 0.08232376 0.37254202 4294901760
0.088529944 0.08232376 0.37304205 4294901760
0.088529944 0.08232376 0.37354204 4294901760
0.088529944 0.08232376 0.37404203 4294901760
0.088529944 0.08232376 0.32404202 4278255360
0.088663712 0.082285739 0.32452229 4278255360
0.088797472 0.082247719 0.32500258 4278255360
0.08893124 0.082209706 0.32548285 4278255360
0.089065008 0.082171686 0.32596311 4278255360
0.089198776 0.082133666 0.32644337 4278255360
0.089332536 0.082095653 0.32692367 4278255360
0.089466304 0.082057633 0.32740393 4278255360
0.089600071 0.082019612 0.3278842 4278255360
0.089733839 0.081981592 0.32836446 4278255360
0.089867599 0.081943572 0.32884476 4278255360
0.090001367 0.081905559 0.32932502 4278255360
0.090135135 0.081867538 0.32980528 4278255360
0.090268895 0.081829518 0.33028555 4278255360
0.090402663 0.081791505 0.33076584 4278255360
0.09053643 0.081753485 0.33124611 4278255360
0.090670198 0.081715465 0.33172637 4278255360
0.090803958 0.081677444 0.33220664 4278255360
0.090937726 0.081639424 0.33268693 4278255360
0.091071494 0.081601411 0.3331672 4278255360
0.091205262 0.081563391 0.33364746 4278255360
0.091339022 0.08152537 0.33412772 4278255360
0.09147279 0.081487358 0.33460802 4278255360
0.091606557 0.081449337 0.33508828 4278255360
0.091740325 0.081411317 0.33556855 4278255360
0.091874085 0.081373297 0.33604884 4278255360
0.092007853 0.081335276 0.33652911 4278255360
0.092141621 0.081297264 0.33700937 4278255360
0.092275381 0.081259243 0.33748963 4278255360
0.092409149 0.081221223 0.33796993 4278255360
0.092542917 0.08118321 0.33845019 4278255360
0.092676684 0.08114519 0.33893046 4278255360
0.092810445 0.081107169 0.33941072 4278255360
0.092944212 0.081069149 0.33989102 4278255360
0.09307798 0.081031129 0.34037128 4278255360
0.093211748 0.080993116 0.34085155 4278255360
0.093345508 0.080955096 0.34133181 4278255360
0.093479276 0.080917075 0.3418121 4278255360
0.093613043 0.080879062 0.34229237 4278255360
0.093746804 0.080841042 0.34277263 4278255360
0.093880571 0.080803022 0.3432529 4278255360
0.094014339 0.080765001 0.34373319 4278255360
0.094148107 0.080726981 0.34421346 4278255360
0.094281867 0.080688968 0.34469372 4278255360
0.094415635 0.080650948 0.34517398 4278255360
0.094549403 0.080612928 0.34565428 4278255360
0.09468317 0.080574915 0.34613454 4278255360
0.094816931 0.080536895 0.34661481 4278255360
0.094950698 0.080498874 0.34709507 4278255360
0.095084466 0.080460854 0.34757537 4278255360
0.095218226 0.080422834 0.34805563 4278255360
0.095351994 0.080384821 0.3485359 4278255360
0.095485762 0.0803468 0.34901619 4278255360
0.095619529 0.08030878 0.34949645 4278255360
0.09575329 0.080270767 0.34997672 4278255360
0.095887057 0.080232747 0.35045698 4278255360
0.096020825 0.080194727 0.35093728 4278255360
0.096154593 0.080156706 0.35141754 4278255360
0.096288353 0.080118686 0.35189781 4278255360
0.096422121 0.080080673 0.35237807 4278255360
0.096555889 0.080042653 0.35285836 4278255360
0.096689656 0.080004632 0.35333863 4278255360
0.096823417 0.07996662 0.35381889 4278255360
0.096957184 0.079928599 0.35429916 4278255360
0.097090952 0.079890579 0.35477945 4278255360
0.097224712 0.079852559 0.35525972 4278255360
0.09735848 0.079814538 0.35573998 4278255360
0.097492248 0.079776525 0.35622025 4278255360
0.097626016 0.079738505 0.35670054 4278255360
0.097759776 0.079700485 0.3571808 4278255360
0.097893544 0.079662472 0.35766107 4278255360
0.098027311 0.079624452 0.35814133 4278255360
0.098161079 0.079586431 0.35862163 4278255360
0.098294839 0.079548411 0.35910189 4278255360
0.098428607 0.079510391 0.35958216 4278255360
0.098562375 0.079472378 0.36006242 4278255360
0.098696142 0.079434358 0.36054271 4278255360
0.098829903 0.079396337 0.36102298 4278255360
0.09896367 0.079358324 0.36150324 4278255360
0.099097438 0.079320304 0.36198354 4278255360
0.099231198 0.079282284 0.3624638 4278255360
0.099364966 0.079244263 0.36294407 4278255360
0.099498734 0.079206243 0.36342433 4278255360
0.099632502 0.07916823 0.3639046 4278255360
0.099766262 0.07913021 0.36438489 4278255360
0.09990003 0.07909219 0.36486515 4278255360
0.1000338 0.079054177 0.36534542 4278255360
0.10016756 0.079016156 0.36582571 4278255360
0.10030133 0.078978136 0.36630598 4278255360
0.10043509 0.078940116 0.36678624 4278255360
0.10056886 0.078902096 0.36726651 4278255360
0.10070263 0.078864083 0.3677468 4278255360
0.10083639 0.078826062 0.36822706 4278255360
0.10097016 0.078788042 0.36870733 4278255360
0.10110392 0.078750029 0.36918759 4278255360
0.10123768 0.078712009 0.36966789 4278255360
0.10137145 0.078673989 0.37014815 4278255360
0.10150522 0.078635968 0.37062842 4278255360
0.10163899 0.078597948 0.37110871 4278255360
0.10177275 0.078559935 0.37158898 4278255360
0.10190652 0.078521915 0.37206924 4278255360
