# .PCD v0.7 - Point Cloud Data file format
VERSION 0.7
FIELDS x y z rgb
SIZE 4 4 4 4
TYPE F F F U
COUNT 1 1 1 1
WIDTH 1032
HEIGHT 1
VIEWPOINT 0 0 0 1 0 0 0
POINTS 1032
DATA ascii
-0.023796834 0.030015945 0.49200001 4281549626
-0.022243937 0.030076955 0.49300003 4282009661
-0.020684546 0.030137962 0.49400002 4281353015
-0.019157279 0.030259978 0.49600002 4280366374
-0.017581645 0.030320985 0.49700001 4280238631
-0.015999516 0.030381994 0.49800003 4280042020
-0.014382011 0.030381994 0.49800003 4280107565
-0.0490641 0.031421736 0.48900002 4281221178
-0.047475822 0.031421736 0.48900002 4281549373
-0.045887552 0.031421736 0.48900002 4281944384
-0.042798348 0.03148599 0.49000001 4282667841
-0.039534461 0.031421736 0.48900002 4285363542
-0.037946187 0.031421736 0.48900002 4286284124
-0.036283568 0.031357478 0.48800004 4284575057
-0.034698538 0.031357478 0.48800004 4281746739
-0.031528492 0.031357478 0.48800004 4281418808
-0.029943464 0.031357478 0.48800004 4280826671
-0.028358439 0.031357478 0.48800004 4280695085
-0.026773416 0.031357478 0.48800004 4281286454
-0.025240006 0.031421736 0.48900002 4281089075
-0.023651732 0.031421736 0.48900002 4281154868
-0.022108579 0.03148599 0.49000001 4281155638
-0.020558931 0.031550247 0.49100003 4279972129
-0.01904141 0.031678762 0.49300003 4281223477
-0.017475519 0.03174302 0.49400002 4279848486
-0.015903134 0.031807277 0.49500003 4279586598
-0.014324252 0.031871535 0.49600002 4279587111
-0.0490641 0.033010546 0.48900002 4280957236
-0.047475822 0.033010546 0.48900002 4281944384
-0.044299282 0.033010546 0.48900002 4282602050
-0.032977805 0.032808028 0.48600003 4281484853
-0.031399276 0.032808028 0.48600003 4283524438
-0.029820746 0.032808028 0.48600003 4280694569
-0.028300326 0.032875534 0.48700002 4281022766
-0.026718551 0.032875534 0.48700002 4281285938
-0.025136774 0.032875534 0.48700002 4281483317
-0.023554998 0.032875534 0.48700002 4281286452
-0.022018339 0.03294304 0.48800004 4281154866
-0.020475188 0.033010546 0.48900002 4279445272
-0.018925538 0.033078052 0.49000001 4281421368
-0.017369393 0.033145558 0.49100003 4278994463
-0.015806749 0.033213064 0.49200001 4278732572
-0.014208734 0.033213064 0.49200001 4278600986
-0.012610717 0.033213064 0.49200001 4278995744
-0.039211068 0.034316335 0.48500001 4283715878
-0.037635788 0.034316335 0.48500001 4282399502
-0.036060508 0.034316335 0.48500001 4281940500
-0.034485228 0.034316335 0.48500001 4282468134
-0.032909948 0.034316335 0.48500001 4281287472
-0.031334668 0.034316335 0.48500001 4282274371
-0.029759385 0.034316335 0.48500001 4280103202
-0.028242216 0.034387089 0.48600003 4280562469
-0.026663689 0.034387089 0.48600003 4281680950
-0.025085159 0.034387089 0.48600003 4281615157
-0.02350663 0.034387089 0.48600003 4281155636
-0.021928102 0.034387089 0.48600003 4280892464
-0.020349573 0.034387089 0.48600003 4279971614
-0.018809667 0.034457844 0.48700002 4279974946
-0.017263265 0.034528602 0.48800004 4278862363
-0.015678242 0.034528602 0.48800004 4278731804
-0.014122096 0.034599356 0.48900002 4278731804
-0.012508191 0.034528602 0.48800004 4278863388
-0.0108784 0.034387089 0.48600003 4278666009
-0.009223328 0.034104068 0.48200002 4278731804
-0.0043764533 0.032971982 0.46600002 4278534943
-0.002856741 0.032901227 0.46500003 4278205978
-0.00134642 0.032901227 0.46500003 4278402333
-0.047572911 0.036262169 0.49000001 4281353782
-0.032842092 0.035818145 0.48400003 4281616439
-0.031334668 0.035892148 0.48500001 4281682234
-0.029759385 0.035892148 0.48500001 4279839776
-0.028184103 0.035892148 0.48500001 4280167457
-0.026608825 0.035892148 0.48500001 4281155120
-0.025033543 0.035892148 0.48500001 4281155890
-0.023409896 0.035818145 0.48400003 4281221683
-0.021837862 0.035818145 0.48400003 4281156403
-0.020265831 0.035818145 0.48400003 4279578139
-0.018732419 0.035892148 0.48500001 4279909664
-0.017157139 0.035892148 0.48500001 4278928156
-0.015613986 0.035966154 0.48600003 4278796570
-0.014035458 0.035966154 0.48600003 4278533912
-0.012431297 0.035892148 0.48500001 4278533912
-0.010811249 0.035744138 0.48300001 4278797084
-0.0091850571 0.035522126 0.48000002 4278731291
-0.005890022 0.034486063 0.46600002 4278731291
-0.0043764533 0.034486063 0.46600002 4278731291
-0.002856741 0.03441206 0.46500003 4278731291
-0.00134642 0.03441206 0.46500003 4278928670
0.00016354831 0.034338053 0.46400002 4278666011
0.0016706211 0.034338053 0.46400002 4278731804
0.0031708453 0.03426405 0.46300003 4278731550
-0.047572911 0.037854228 0.49000001 4280367403
-0.044208691 0.037699725 0.48800004 4282536771
-0.032842092 0.037390709 0.48400003 4282273597
-0.031270061 0.037390709 0.48400003 4281879611
-0.029759385 0.037467964 0.48500001 4280233764
-0.028184103 0.037467964 0.48500001 4279904287
-0.026553961 0.037390709 0.48400003 4281024304
-0.024981929 0.037390709 0.48400003 4281155890
-0.023361526 0.037313454 0.48300001 4281287989
-0.021792741 0.037313454 0.48300001 4281222196
-0.020223958 0.037313454 0.48300001 4279578654
-0.018655173 0.037313454 0.48300001 4279581469
-0.017086387 0.037313454 0.48300001 4278993177
-0.015517603 0.037313454 0.48300001 4278993947
-0.013948818 0.037313454 0.48300001 4278928154
-0.012354402 0.037236203 0.48200002 4278796568
-0.010744099 0.037081696 0.48000002 4278665496
-0.0091276504 0.036849935 0.47700003 4278665496
-0.0074671404 0.03630916 0.47000003 4278797082
-0.0059026615 0.036077399 0.46700001 4278928154
-0.0043764533 0.036000147 0.46600002 4278928154
-0.002856741 0.035922892 0.46500003 4278200581
-0.0013435245 0.035845637 0.46400002 4279318812
0.00016354831 0.035845637 0.46400002 4279320607
0.0016670206 0.035768386 0.46300003 4278796570
0.0031708453 0.035768386 0.46300003 4278664984
0.0046746703 0.035768386 0.46300003 4278665498
0.0061784955 0.035768386 0.46300003 4278533912
-0.047669999 0.039526794 0.49100003 4280301610
-0.044208691 0.039285287 0.48800004 4281286706
-0.031334668 0.039043777 0.48500001 4280761643
-0.029759385 0.039043777 0.48500001 4279970592
-0.028184103 0.039043777 0.48500001 4280364838
-0.026553961 0.038963273 0.48400003 4281353015
-0.024981929 0.038963273 0.48400003 4281155636
-0.023361526 0.03888277 0.48300001 4280958770
-0.021747623 0.03880227 0.48200002 4280892977
-0.020182086 0.03880227 0.48200002 4279512861
-0.01861655 0.03880227 0.48200002 4279647777
-0.017051013 0.03880227 0.48200002 4278598419
-0.015485475 0.03880227 0.48200002 4278928154
-0.01389106 0.038721766 0.48100004 4278928154
-0.012303138 0.038641263 0.48000002 4278664982
-0.010699331 0.038480259 0.47800002 4278862361
-0.0090702446 0.038158249 0.47400004 4278664982
-0.0074671404 0.037836239 0.47000003 4278928154
-0.0059026615 0.037594728 0.46700001 4278928154
-0.0043764533 0.037514228 0.46600002 4278928154
-0.002856741 0.037433725 0.46500003 4279058459
-0.0013435245 0.037353221 0.46400002 4278660880
0.00016319583 0.037272722 0.46300003 4279254301
0.0016670206 0.037272722 0.46300003 4278796570
0.0031708453 0.037272722 0.46300003 4278862361
0.0046645734 0.037192214 0.46200001 4278730005
0.0061651506 0.037192214 0.46200001 4278533396
0.0076657268 0.037192214 0.46200001 4278862361
-0.047767084 0.041205853 0.49200001 4280695339
-0.045981392 0.041038349 0.49000001 4281615669
-0.035986159 0.040535841 0.48400003 4282535744
-0.034485228 0.040619589 0.48500001 4281615157
-0.032909948 0.040619589 0.48500001 4281945402
-0.031334668 0.040619589 0.48500001 4281221933
-0.029759385 0.040619589 0.48500001 4280299295
-0.028184103 0.040619589 0.48500001 4280759848
-0.026553961 0.040535841 0.48400003 4281286452
-0.024930311 0.040452085 0.48300001 4281024050
-0.023361526 0.040452085 0.48300001 4281221942
-0.021747623 0.040368337 0.48200002 4281090356
-0.020182086 0.040368337 0.48200002 4279447580
-0.01861655 0.040368337 0.48200002 4279582498
-0.017015638 0.040284585 0.48100004 4278796568
-0.015453348 0.040284585 0.48100004 4278797082
-0.01386218 0.040200833 0.48000002 4278665496
-0.012277507 0.040117081 0.47900003 4278468117
-0.010676947 0.039949577 0.47700003 4278993947
-0.0090319728 0.039530821 0.47200003 4278862361
-0.007451253 0.039279561 0.46900001 4278928154
-0.005890022 0.039028309 0.46600002 4278862361
-0.0043670619 0.038944557 0.46500003 4279257119
-0.0028505973 0.038860805 0.46400002 4278199299
-0.0013435245 0.038860805 0.46400002 4278196992
0.00016319583 0.038777053 0.46300003 4279188762
0.0016670206 0.038777053 0.46300003 4278198787
0.0031639969 0.038693301 0.46200001 4278328583
0.0046645734 0.038693301 0.46200001 4278393095
0.0061651506 0.038693301 0.46200001 4278196486
0.0076657268 0.038693301 0.46200001 4278196740
0.0091464641 0.038609549 0.46100003 4278197508
0.015037282 0.038358297 0.45800003 4279386652
0.016524866 0.038358297 0.45800003 4278992662
0.017973121 0.038274541 0.45700002 4278730003
0.019457459 0.038274541 0.45700002 4278730003
0.020895973 0.038190793 0.45600003 4278795796
0.022377061 0.038190793 0.45600003 4278599187
0.023805827 0.038107038 0.45500001 4278599187
0.025228102 0.038023289 0.45400003 4278533394
-0.047864176 0.042891413 0.49300003 4281549362
-0.04438987 0.042630408 0.49000001 4283127363
-0.040954541 0.042369407 0.48700002 4281878325
-0.039291918 0.042282406 0.48600003 4280628262
-0.03771339 0.042282406 0.48600003 4281022766
-0.036060508 0.042195406 0.48500001 4281484085
-0.032977805 0.042282406 0.48600003 4280234784
-0.031399276 0.042282406 0.48600003 4280497956
-0.029759385 0.042195406 0.48500001 4281088809
-0.028184103 0.042195406 0.48500001 4280759846
-0.026553961 0.042108405 0.48400003 4281352499
-0.024930311 0.042021401 0.48300001 4281286706
-0.023361526 0.042021401 0.48300001 4281353269
-0.021747623 0.041934405 0.48200002 4281484601
-0.020182086 0.041934405 0.48200002 4279382557
-0.01861655 0.041934405 0.48200002 4279451682
-0.017051013 0.041934405 0.48200002 4278862361
-0.015453348 0.041847404 0.48100004 4278797082
-0.01386218 0.0417604 0.48000002 4278731289
-0.012277507 0.0416734 0.47900003 4278665496
-0.010676947 0.041499399 0.47700003 4278862875
-0.009012837 0.040977392 0.47100002 4278665496
-0.0074353656 0.040716391 0.46800002 4278928152
-0.005890022 0.04054239 0.46600002 4278862359
-0.0043670619 0.04045539 0.46500003 4278862361
-0.0028505973 0.040368386 0.46400002 4278333712
-0.001340629 0.040281389 0.46300003 4280171555
0.00016319583 0.040281389 0.46300003 4279451164
0.0016634201 0.040194385 0.46200001 4278195200
0.0031639969 0.040194385 0.46200001 4278589963
0.0046645734 0.040194385 0.46200001 4278654732
0.0061651506 0.040194385 0.46200001 4278720525
0.0076491348 0.040107384 0.46100003 4278588939
0.0091464641 0.040107384 0.46100003 4278654732
0.010620704 0.040020384 0.46000001 4278786318
0.012088448 0.039933383 0.45900002 4278588939
0.013579281 0.039933383 0.45900002 4278524170
0.015037282 0.039846383 0.45800003 4278393097
0.016524866 0.039846383 0.45800003 4278195968
0.017973121 0.039759383 0.45700002 4278199301
0.019457459 0.039759383 0.45700002 4278196224
0.020895973 0.039672382 0.45600003 4278197248
0.022377061 0.039672382 0.45600003 4278200586
0.023805827 0.039585378 0.45500001 4278661394
0.025228102 0.039498381 0.45400003 4278925590
0.026702695 0.039498381 0.45400003 4278531343
0.028115222 0.039411377 0.45300001 4278662929
0.029586565 0.039411377 0.45300001 4278729492
0.030989353 0.039324377 0.45200002 4278532626
0.032457449 0.039324377 0.45200002 4278664212
0.033850487 0.03923738 0.45100003 4278599189
0.035315339 0.03923738 0.45100003 4278402324
0.036780186 0.03923738 0.45100003 4278402324
0.038160235 0.039150376 0.45000002 4278468117
0.040809546 0.038889375 0.44700003 4278600216
0.042166859 0.03880237 0.44600001 4278666007
0.04371326 0.038889375 0.44700003 4278797593
0.045165118 0.038889375 0.44700003 4278732570
0.046616975 0.038889375 0.44700003 4278798363
-0.034627434 0.043951724 0.48700002 4281088809
-0.033045657 0.043951724 0.48700002 4280299295
-0.031399276 0.043861475 0.48600003 4280628260
-0.029820746 0.043861475 0.48600003 4281088811
-0.028184103 0.043771222 0.48500001 4280957225
-0.026608825 0.043771222 0.48500001 4281286704
-0.024981929 0.043680973 0.48400003 4281023532
-0.023361526 0.043590721 0.48300001 4281287476
-0.021792741 0.043590721 0.48300001 4280826155
-0.020182086 0.043500472 0.48200002 4279514141
-0.01861655 0.043500472 0.48200002 4279123228
-0.017051013 0.043500472 0.48200002 4278862361
-0.015485475 0.043500472 0.48200002 4278797082
-0.013919939 0.043500472 0.48200002 4278665496
-0.012303138 0.043319974 0.48000002 4278731289
-0.010699331 0.043139473 0.47800002 4278797082
-0.008993702 0.042417474 0.47000003 4278862875
-0.0074194777 0.042146724 0.46700001 4278797082
-0.005890022 0.042056475 0.46600002 4278862875
-0.0043576704 0.041875973 0.46400002 4278797084
-0.0028505973 0.041875973 0.46400002 4278201355
-0.001340629 0.041785724 0.46300003 4279976227
0.00016319583 0.041785724 0.46300003 4279188760
0.0016634201 0.041695476 0.46200001 4278327302
0.0031639969 0.041695476 0.46200001 4280037409
0.0046544774 0.041605227 0.46100003 4278918674
0.0061518066 0.041605227 0.46100003 4279313432
0.0076491348 0.041605227 0.46100003 4279116307
0.0091266232 0.041514974 0.46000001 4279445272
0.010620704 0.041514974 0.46000001 4279379479
0.012088448 0.041424725 0.45900002 4278524170
0.013579281 0.041424725 0.45900002 4278588939
0.015037282 0.041334476 0.45800003 4278786318
0.016524866 0.041334476 0.45800003 4278195456
0.018012451 0.041334476 0.45800003 4279384090
0.019457459 0.041244224 0.45700002 4279385371
0.020941796 0.041244224 0.45700002 4279319578
0.022377061 0.041153975 0.45600003 4279451164
0.023805827 0.041063726 0.45500001 4279121945
0.025283668 0.041063726 0.45500001 4279187226
0.026702695 0.040973477 0.45400003 4278529296
0.028177287 0.040973477 0.45400003 4278198790
0.029586565 0.040883224 0.45300001 4278196480
0.031057913 0.040883224 0.45300001 4278198019
0.032457449 0.040792976 0.45200002 4278198019
0.033925544 0.040792976 0.45200002 4278266638
0.035315339 0.040702727 0.45100003 4278727957
0.036780186 0.040702727 0.45100003 4278860056
0.038160235 0.040612474 0.45000002 4279123482
0.039621834 0.040612474 0.45000002 4278466833
0.040900841 0.040431976 0.44800001 4278467603
0.042355947 0.040431976 0.44800001 4278599189
0.043811049 0.040431976 0.44800001 4278664982
0.045266159 0.040431976 0.44800001 4278401808
0.04682555 0.040522225 0.44900003 4278468115
0.048498977 0.040702727 0.45100003 4278272019
0.050074611 0.040792976 0.45200002 4278337814
0.051656738 0.040883224 0.45300001 4278732572
0.053128082 0.040883224 0.45300001 4278732572
0.054599427 0.040883224 0.45300001 4278732572
-0.049866781 0.046469025 0.49700001 4281680946
-0.048155438 0.046375528 0.49600002 4281746480
-0.034698538 0.045627534 0.48800004 4283258947
-0.031463884 0.045534037 0.48700002 4281879093
-0.029882105 0.045534037 0.48700002 4280102168
-0.028242216 0.045440536 0.48600003 4280299547
-0.026608825 0.045347035 0.48500001 4280957737
-0.024981929 0.045253538 0.48400003 4280562981
-0.023409896 0.045253538 0.48400003 4281155118
-0.021792741 0.045160037 0.48300001 4281089327
-0.020223958 0.045160037 0.48300001 4280172071
-0.018693797 0.045253538 0.48400003 4279385887
-0.017121764 0.045253538 0.48400003 4278862363
-0.015549731 0.045253538 0.48400003 4278665498
-0.013948818 0.045160037 0.48300001 4278731289
-0.012354402 0.045066539 0.48200002 4278665496
-0.010744099 0.044879541 0.48000002 4278797084
-0.0089362953 0.043664053 0.46700001 4278731291
-0.0074035903 0.043570556 0.46600002 4278797084
-0.0058773826 0.043477058 0.46500003 4278665498
-0.0043576704 0.043383557 0.46400002 4278665498
-0.0028444538 0.04329006 0.46300003 4278198791
-0.001340629 0.04329006 0.46300003 4279713568
0.00016284335 0.043196559 0.46200001 4279649311
0.0016634201 0.043196559 0.46200001 4278393867
0.0031639969 0.043196559 0.46200001 4279972129
0.0046544774 0.043103062 0.46100003 4279314199
0.0061518066 0.043103062 0.46100003 4278195716
0.0076325419 0.043009561 0.46000001 4278986004
0.0091266232 0.043009561 0.46000001 4278656269
0.010620704 0.043009561 0.46000001 4278458888
0.012088448 0.042916063 0.45900002 4278194434
0.013579281 0.042916063 0.45900002 4279117590
0.015037282 0.042822566 0.45800003 4279116820
0.016524866 0.042822566 0.45800003 4279117840
0.018012451 0.042822566 0.45800003 4279253271
0.019457459 0.042729065 0.45700002 4279517727
0.020941796 0.042729065 0.45700002 4278198274
0.022377061 0.042635567 0.45600003 4278199559
0.023858149 0.042635567 0.45600003 4278924820
0.025283668 0.042542066 0.45500001 4278859797
0.026702695 0.042448569 0.45400003 4278991383
0.028177287 0.042448569 0.45400003 4278991381
0.029651878 0.042448569 0.45400003 4278925588
0.031057913 0.042355068 0.45300001 4279057176
0.032529257 0.042355068 0.45300001 4278925590
0.033925544 0.042261571 0.45200002 4279187738
0.03539364 0.042261571 0.45200002 4279187738
0.036780186 0.04216807 0.45100003 4279319324
0.038245037 0.04216807 0.45100003 4278331917
0.039621834 0.042074572 0.45000002 4278196992
0.041083433 0.042074572 0.45000002 4278196736
0.042450495 0.041981071 0.44900003 4278196480
0.043908846 0.041981071 0.44900003 4278196480
0.045468237 0.042074572 0.45000002 4278331917
0.04692984 0.042074572 0.45000002 4279056152
0.048606511 0.042261571 0.45200002 4279058970
0.050074611 0.042261571 0.45200002 4278664980
0.051656738 0.042355068 0.45300001 4278402322
0.053128082 0.042355068 0.45300001 4278533908
0.054719958 0.042448569 0.45400003 4278665494
0.056194548 0.042448569 0.45400003 4278862873
0.05766914 0.042448569 0.45400003 4279126049
-0.028300326 0.047116347 0.48700002 4281877035
-0.026663689 0.047019601 0.48600003 4280561434
-0.025033543 0.046922851 0.48500001 4281549099
-0.023409896 0.046826106 0.48400003 4282471228
-0.021837862 0.046826106 0.48400003 4281286702
-0.020265831 0.046826106 0.48400003 4280369704
-0.018732419 0.046922851 0.48500001 4279320094
-0.017157139 0.046922851 0.48500001 4278927902
-0.015581857 0.046922851 0.48500001 4278402072
-0.014006577 0.046922851 0.48500001 4278994209
-0.012431297 0.046922851 0.48500001 4278731037
-0.010788865 0.046632607 0.48200002 4278731291
-0.0089171594 0.045084637 0.46600002 4278665498
-0.0073877033 0.044987891 0.46500003 4278665498
-0.0058647431 0.044891141 0.46400002 4278533912
-0.0043576704 0.044891141 0.46400002 4278927386
-0.0028444538 0.044794392 0.46300003 4278198020
-0.0013377335 0.044697642 0.46200001 4278791701
0.00016284335 0.044697642 0.46200001 4279451682
0.0016634201 0.044697642 0.46200001 4278459406
0.0031571484 0.044600897 0.46100003 4278655502
0.0046544774 0.044600897 0.46100003 4278654732
0.0061518066 0.044600897 0.46100003 4278392330
0.0076325419 0.044504147 0.46000001 4278589709
0.0091266232 0.044504147 0.46000001 4278523916
0.010597616 0.044407401 0.45900002 4278654732
0.012088448 0.044407401 0.45900002 4280366374
0.013579281 0.044407401 0.45900002 4279973408
0.015037282 0.044310652 0.45800003 4278657037
0.016524866 0.044310652 0.45800003 4279053074
0.018012451 0.044310652 0.45800003 4279188508
0.019457459 0.044213902 0.45700002 4278460937
0.020941796 0.044213902 0.45700002 4278590474
0.022377061 0.044117156 0.45600003 4278459660
0.023858149 0.044117156 0.45600003 4278527761
0.025283668 0.044020407 0.45500001 4278924568
0.026761509 0.044020407 0.45500001 4278464017
0.028177287 0.043923661 0.45400003 4278529808
0.029651878 0.043923661 0.45400003 4278200843
0.031126473 0.043923661 0.45400003 4278199815
0.032529257 0.043826912 0.45300001 4279187992
0.034000598 0.043826912 0.45300001 4278991896
0.03539364 0.043730162 0.45200002 4278728724
0.036861736 0.043730162 0.45200002 4278794517
0.038329836 0.043730162 0.45200002 4278860310
0.039709885 0.043633416 0.45100003 4278926103
0.041174732 0.043633416 0.45100003 4278991642
0.042545035 0.043536667 0.45000002 4278991642
0.044104431 0.043633416 0.45100003 4278859543
0.045569282 0.043633416 0.45100003 4279451682
0.04703413 0.043633416 0.45100003 4279187226
0.048606511 0.043730162 0.45200002 4278529294
0.050185394 0.043826912 0.45300001 4278795285
0.051656738 0.043826912 0.45300001 4278664212
0.053245366 0.043923661 0.45400003 4278927384
0.054719958 0.043923661 0.45400003 4278927382
0.056194548 0.043923661 0.45400003 4278795796
0.05766914 0.043923661 0.45400003 4278928156
0.059274007 0.044020407 0.45500001 4278928156
-0.020349573 0.048598666 0.48600003 4280369702
-0.018771045 0.048598666 0.48600003 4279188508
-0.01722789 0.04869866 0.48700002 4278598937
-0.015646113 0.04869866 0.48700002 4278862623
-0.014064336 0.04869866 0.48700002 4278533658
-0.012482559 0.04869866 0.48700002 4278862623
-0.010811249 0.048298672 0.48300001 4278731037
-0.0088980244 0.046498723 0.46500003 4278731037
-0.0073718154 0.046398722 0.46400002 4278665244
-0.0058647431 0.046398722 0.46400002 4278533912
-0.004348279 0.046298727 0.46300003 4278728724
-0.0028444538 0.046298727 0.46300003 4278792466
-0.0013377335 0.046198729 0.46200001 4279516703
0.00016284335 0.046198729 0.46200001 4279254303
0.0016598196 0.046098731 0.46100003 4278527250
0.0031571484 0.046098731 0.46100003 4278523916
0.0046544774 0.046098731 0.46100003 4278983699
0.0061384616 0.045998733 0.46000001 4278654734
0.0076325419 0.045998733 0.46000001 4278654734
0.0091266232 0.045998733 0.46000001 4278654734
0.010597616 0.045898739 0.45900002 4278785806
0.012088448 0.045898739 0.45900002 4278785806
0.013579281 0.045898739 0.45900002 4278654732
0.015037282 0.045798741 0.45800003 4278654732
0.016524866 0.045798741 0.45800003 4279317016
0.018012451 0.045798741 0.45800003 4278925336
0.019457459 0.045698743 0.45700002 4278919439
0.020941796 0.045698743 0.45700002 4278917390
0.022377061 0.045598745 0.45600003 4278656269
0.023858149 0.045598745 0.45600003 4279184410
0.025283668 0.045498747 0.45500001 4278990107
0.026761509 0.045498747 0.45500001 4278267408
0.028239351 0.045498747 0.45500001 4278266124
0.029651878 0.045398753 0.45400003 4279252765
0.031126473 0.045398753 0.45400003 4279647523
0.032529257 0.045298751 0.45300001 4279187226
0.034000598 0.045298751 0.45300001 4278858261
0.035471946 0.045298751 0.45300001 4278200074
0.036861736 0.045198757 0.45200002 4278200074
0.038329836 0.045198757 0.45200002 4278200588
0.039797932 0.045198757 0.45200002 4278200842
0.041266028 0.045198757 0.45200002 4278860310
0.042639583 0.045098759 0.45100003 4278465552
0.044202223 0.045198757 0.45200002 4278597908
0.045670319 0.045198757 0.45200002 4278729494
0.047138415 0.045198757 0.45200002 4278400529
0.048714045 0.045298751 0.45300001 4278397710
0.050185394 0.045298751 0.45300001 4279123480
0.051770773 0.045398753 0.45400003 4278927384
0.053245366 0.045398753 0.45400003 4278795796
0.054719958 0.045398753 0.45400003 4278664980
0.056318324 0.045498747 0.45500001 4278664982
0.057796162 0.045498747 0.45500001 4278730007
0.059274007 0.045498747 0.45500001 4278795546
-0.020391444 0.050280973 0.48700002 4279907354
-0.018848291 0.05038422 0.48800004 4279385371
-0.017298641 0.050487466 0.48900002 4278795800
-0.015710369 0.050487466 0.48900002 4278993179
-0.014150975 0.050590709 0.49000001 4278796316
-0.012559454 0.050590709 0.49000001 4278598937
-0.0088980244 0.048009556 0.46500003 4278533658
-0.0073718154 0.047906306 0.46400002 4278533912
-0.0058647431 0.047906306 0.46400002 4278533912
-0.004348279 0.047803063 0.46300003 4279190045
-0.0028444538 0.047803063 0.46300003 4278860310
-0.0013377335 0.047699813 0.46200001 4278925336
0.00016284335 0.047699813 0.46200001 4278992412
0.0016598196 0.047596566 0.46100003 4278860826
0.0031571484 0.047596566 0.46100003 4279254814
0.0046443804 0.04749332 0.46000001 4279450658
0.0061384616 0.04749332 0.46000001 4279515937
0.0076325419 0.04749332 0.46000001 4279843619
0.0091067832 0.047390074 0.45900002 4279579164
0.010597616 0.047390074 0.45900002 4279117588
0.012088448 0.047390074 0.45900002 4278262279
0.013549698 0.047286831 0.45800003 4278524683
0.015037282 0.047286831 0.45800003 4278654986
0.016524866 0.047286831 0.45800003 4279383068
0.017973121 0.047183581 0.45700002 4278726675
0.019457459 0.047183581 0.45700002 4279514395
0.020941796 0.047183581 0.45700002 4279578652
0.022377061 0.047080338 0.45600003 4279710754
0.023858149 0.047080338 0.45600003 4279186459
0.025283668 0.046977088 0.45500001 4279186972
0.026761509 0.046977088 0.45500001 4279056154
0.028239351 0.046977088 0.45500001 4279056154
0.029651878 0.046873845 0.45400003 4278198275
0.031126473 0.046873845 0.45400003 4278266384
0.032601066 0.046873845 0.45400003 4279186972
0.034000598 0.046770595 0.45300001 4278198792
0.035471946 0.046770595 0.45300001 4278331150
0.03694329 0.046770595 0.45300001 4279054105
0.038329836 0.046667352 0.45200002 4278462738
0.039797932 0.046667352 0.45200002 4279581217
0.041266028 0.046667352 0.45200002 4279055127
0.042734127 0.046667352 0.45200002 4278726162
0.044202223 0.046667352 0.45200002 4278462990
0.04577136 0.046770595 0.45300001 4279386141
0.047242705 0.046770595 0.45300001 4279254555
0.048714045 0.046770595 0.45300001 4279187224
0.05029618 0.046873845 0.45400003 4278992664
0.051770773 0.046873845 0.45400003 4278795796
0.053362645 0.046977088 0.45500001 4278795796
0.054840483 0.046977088 0.45500001 4278796566
0.056318324 0.046977088 0.45500001 4278664982
0.057796162 0.046977088 0.45500001 4278927386
0.059274007 0.046977088 0.45500001 4279189791
0.060885374 0.047080338 0.45600003 4279778598
-0.017369393 0.052289266 0.49100003 4279121685
-0.015806749 0.052395761 0.49200001 4279187992
-0.014208734 0.052395761 0.49200001 4279254814
-0.012610717 0.052395761 0.49200001 4279123998
-0.0088788886 0.04941389 0.46400002 4278927132
-0.0073718154 0.04941389 0.46400002 4278992925
-0.0058521037 0.049307395 0.46300003 4278795546
-0.004348279 0.049307395 0.46300003 4278795546
-0.0028383103 0.0492009 0.46200001 4278927132
-0.0013377335 0.0492009 0.46200001 4278795800
0.00016249088 0.049094405 0.46100003 4278532628
0.0016598196 0.049094405 0.46100003 4278730007
0.0031571484 0.049094405 0.46100003 4278664214
0.0046443804 0.048987906 0.46000001 4278334995
0.0061384616 0.048987906 0.46000001 4278795546
0.0076159495 0.048881412 0.45900002 4279189791
0.0091067832 0.048881412 0.45900002 4279123482
0.010597616 0.048881412 0.45900002 4279123482
0.012062112 0.04877492 0.45800003 4279123482
0.013549698 0.04877492 0.45800003 4279123482
0.015037282 0.04877492 0.45800003 4279320094
0.016488785 0.048668422 0.45700002 4279319324
0.017973121 0.048668422 0.45700002 4279779875
0.019457459 0.048668422 0.45700002 4279253017
0.020895973 0.048561927 0.45600003 4278791955
0.022377061 0.048561927 0.45600003 4278396943
0.023805827 0.048455428 0.45500001 4278196224
0.025283668 0.048455428 0.45500001 4278195712
0.026761509 0.048455428 0.45500001 4278194944
0.028177287 0.048348937 0.45400003 4278462990
0.029651878 0.048348937 0.45400003 4279055640
0.031126473 0.048348937 0.45400003 4279581984
0.032601066 0.048348937 0.45400003 4279056154
0.034000598 0.048242439 0.45300001 4279121947
0.035471946 0.048242439 0.45300001 4278859545
0.03694329 0.048242439 0.45300001 4278925336
0.038414635 0.048242439 0.45300001 4279187738
0.039797932 0.048135944 0.45200002 4278792466
0.041266028 0.048135944 0.45200002 4279121431
0.042828668 0.048242439 0.45300001 4278198532
0.044300012 0.048242439 0.45300001 4278199561
0.04577136 0.048242439 0.45300001 4279254555
0.047242705 0.048242439 0.45300001 4278465039
0.048821583 0.048348937 0.45400003 4279188508
0.05029618 0.048348937 0.45400003 4278730007
0.051884804 0.048455428 0.45500001 4278664212
0.053362645 0.048455428 0.45500001 4278927384
0.054840483 0.048455428 0.45500001 4278993177
0.056442104 0.048561927 0.45600003 4278795798
0.05792319 0.048561927 0.45600003 4278927386
0.05940428 0.048561927 0.45600003 4279189791
0.060885374 0.048561927 0.45600003 4279055388
-0.054056786 0.055530746 0.50600004 4281484083
-0.051895376 0.054982025 0.50100005 4281483567
-0.0088788886 0.050921474 0.46400002 4279186974
-0.0073718154 0.050921474 0.46400002 4279055900
-0.0058521037 0.05081173 0.46300003 4279385635
-0.004348279 0.05081173 0.46300003 4279451941
-0.0028383103 0.050701983 0.46200001 4279386148
-0.0013377335 0.050701983 0.46200001 4279386402
0.00016249088 0.05059224 0.46100003 4279583781
0.0016598196 0.05059224 0.46100003 4279124513
0.0031502999 0.050482493 0.46000001 4278795548
0.0046443804 0.050482493 0.46000001 4278992927
0.0061384616 0.050482493 0.46000001 4278927134
0.0076159495 0.05037275 0.45900002 4278663449
0.0091067832 0.05037275 0.45900002 4278795033
0.010574528 0.050263006 0.45800003 4278729753
0.012062112 0.050263006 0.45800003 4278927132
0.013549698 0.050263006 0.45800003 4278795800
0.01500445 0.050153259 0.45700002 4278927386
0.016488785 0.050153259 0.45700002 4278795800
0.017973121 0.050153259 0.45700002 4278861080
0.019414883 0.050043516 0.45600003 4278992666
0.020895973 0.050043516 0.45600003 4278795287
0.022327987 0.049933773 0.45500001 4278861080
0.023805827 0.049933773 0.45500001 4279123482
0.025283668 0.049933773 0.45500001 4278991129
0.026702695 0.049824029 0.45400003 4279320094
0.028177287 0.049824029 0.45400003 4278991131
0.029651878 0.049824029 0.45400003 4279319326
0.031126473 0.049824029 0.45400003 4279055640
0.032529257 0.049714282 0.45300001 4278462736
0.034000598 0.049714282 0.45300001 4278197766
0.035471946 0.049714282 0.45300001 4278195456
0.03694329 0.049714282 0.45300001 4278195456
0.038414635 0.049714282 0.45300001 4278196992
0.039885979 0.049714282 0.45300001 4278264841
0.041357324 0.049714282 0.45300001 4278857748
0.042828668 0.049714282 0.45300001 4279516191
0.044300012 0.049714282 0.45300001 4279581982
0.04577136 0.049714282 0.45300001 4279319578
0.047346994 0.049824029 0.45400003 4278199301
0.048821583 0.049824029 0.45400003 4278793752
0.05029618 0.049824029 0.45400003 4278927386
0.051884804 0.049933773 0.45500001 4278927384
0.053362645 0.049933773 0.45500001 4278927384
0.054961015 0.050043516 0.45600003 4278993177
0.056442104 0.050043516 0.45600003 4278730005
0.05792319 0.050043516 0.45600003 4278927386
0.05940428 0.050043516 0.45600003 4279058718
0.060885374 0.050043516 0.45600003 4281554757
-0.053736288 0.056835808 0.50300002 4281680946
-0.051895376 0.056609824 0.50100005 4281351468
-0.0058521037 0.052316062 0.46300003 4284842606
-0.004348279 0.052316062 0.46300003 4284711020
-0.0028383103 0.052203067 0.46200001 4283855711
-0.001334838 0.052090075 0.46100003 4281554239
0.00016249088 0.052090075 0.46100003 4279909412
0.0016598196 0.052090075 0.46100003 4279055388
0.0031502999 0.051977079 0.46000001 4278990109
0.0046443804 0.051977079 0.46000001 4279582246
0.0061251172 0.051864088 0.45900002 4279648039
0.0076159495 0.051864088 0.45900002 4279714600
0.0091067832 0.051864088 0.45900002 4279451941
0.010574528 0.051751096 0.45800003 4279583527
0.012062112 0.051751096 0.45800003 4279452711
0.013520112 0.0516381 0.45700002 4279189793
0.01500445 0.0516381 0.45700002 4279255584
0.016488785 0.0516381 0.45700002 4279058205
0.017933793 0.051525109 0.45600003 4279058205
0.019414883 0.051525109 0.45600003 4278598421
0.020850148 0.051412113 0.45500001 4278927386
0.022327987 0.051412113 0.45500001 4278795800
0.023805827 0.051412113 0.45500001 4278729753
0.025228102 0.051299121 0.45400003 4278927132
0.026702695 0.051299121 0.45400003 4278663960
0.028177287 0.051299121 0.45400003 4278730007
0.029651878 0.051299121 0.45400003 4278730007
0.031057913 0.051186126 0.45300001 4278861080
0.032529257 0.051186126 0.45300001 4278729240
0.034000598 0.051186126 0.45300001 4278794263
0.035471946 0.051186126 0.45300001 4278991642
0.03694329 0.051186126 0.45300001 4279188508
0.038414635 0.051186126 0.45300001 4278990359
0.039885979 0.051186126 0.45300001 4280108840
0.041357324 0.051186126 0.45300001 4279516703
0.042828668 0.051186126 0.45300001 4279581471
0.044300012 0.051186126 0.45300001 4278791955
0.04577136 0.051186126 0.45300001 4278198277
0.047346994 0.051299121 0.45400003 4278198534
0.048821583 0.051299121 0.45400003 4278925851
0.050406963 0.051412113 0.45500001 4278927132
0.051884804 0.051412113 0.45500001 4279058970
0.053479929 0.051525109 0.45600003 4278993177
0.054961015 0.051525109 0.45600003 4279058970
0.056442104 0.051525109 0.45600003 4278993177
0.05792319 0.051525109 0.45600003 4278993179
0.05940428 0.051525109 0.45600003 4278795033
0.060885374 0.051525109 0.45600003 4285896327
-0.053629458 0.058353864 0.50200003 4281746739
-0.051895376 0.058237623 0.50100005 4281680433
-0.001334838 0.05358791 0.46100003 4284184164
0.00016249088 0.05358791 0.46100003 4284381541
0.0016562191 0.053471666 0.46000001 4284381541
0.0031502999 0.053471666 0.46000001 4284644713
0.0046443804 0.053471666 0.46000001 4284842606
0.0061251172 0.053355426 0.45900002 4284842606
0.0076159495 0.053355426 0.45900002 4283922276
0.0091067832 0.053355426 0.45900002 4282803793
0.010574528 0.053239185 0.45800003 4280633137
0.012062112 0.053239185 0.45800003 4279515426
0.013520112 0.053122938 0.45700002 4278858525
0.01500445 0.053122938 0.45700002 4279384867
0.016452705 0.053006697 0.45600003 4279779625
0.017933793 0.053006697 0.45600003 4279845416
0.019372307 0.052890453 0.45500001 4279714854
0.020850148 0.052890453 0.45500001 4279517475
0.022327987 0.052890453 0.45500001 4279583781
0.023753507 0.052774213 0.45400003 4279124000
0.025228102 0.052774213 0.45400003 4279124000
0.026702695 0.052774213 0.45400003 4279124000
0.028177287 0.052774213 0.45400003 4278729240
0.029586565 0.052657969 0.45300001 4278860826
0.031057913 0.052657969 0.45300001 4278860826
0.032529257 0.052657969 0.45300001 4278663447
0.034000598 0.052657969 0.45300001 4278795033
0.035471946 0.052657969 0.45300001 4278860826
0.03694329 0.052657969 0.45300001 4278861080
0.038329836 0.052541725 0.45200002 4279058459
0.039885979 0.052657969 0.45300001 4278992666
0.041357324 0.052657969 0.45300001 4278992666
0.042828668 0.052657969 0.45300001 4279255068
0.044300012 0.052657969 0.45300001 4279255068
0.04577136 0.052657969 0.45300001 4279254555
0.047346994 0.052774213 0.45400003 4279188762
0.048821583 0.052774213 0.45400003 4279189021
0.050406963 0.052890453 0.45500001 4278795546
0.051884804 0.052890453 0.45500001 4278927386
0.053479929 0.053006697 0.45600003 4278993179
0.054961015 0.053006697 0.45600003 4279124765
0.056565877 0.053122938 0.45700002 4279058972
0.058050212 0.053122938 0.45700002 4279058718
0.05940428 0.053006697 0.45600003 4279845420
-0.053522628 0.059865423 0.50100005 4281746226
-0.051791787 0.059745926 0.5 4281285675
0.0001621384 0.054966252 0.46000001 4284249957
0.0016562191 0.054966252 0.46000001 4284447336
0.0031502999 0.054966252 0.46000001 4284381543
0.0046443804 0.054966252 0.46000001 4284447334
0.0061251172 0.054846764 0.45900002 4284513127
0.0076159495 0.054846764 0.45900002 4284381541
0.0090869423 0.054727271 0.45800003 4284907885
0.010574528 0.054727271 0.45800003 4285171059
0.012062112 0.054727271 0.45800003 4285368438
0.013520112 0.054607779 0.45700002 4285303159
0.01500445 0.054607779 0.45700002 4285303929
0.016452705 0.05448829 0.45600003 4285896325
0.017933793 0.05448829 0.45600003 4285304190
0.019372307 0.054368794 0.45500001 4284119401
0.020850148 0.054368794 0.45500001 4281685573
0.022278916 0.054249305 0.45400003 4279910445
0.023753507 0.054249305 0.45400003 4279121183
0.025228102 0.054249305 0.45400003 4278726937
0.026702695 0.054249305 0.45400003 4278924316
0.028177287 0.054249305 0.45400003 4278859291
0.029586565 0.054129809 0.45300001 4279319842
0.031057913 0.054129809 0.45300001 4279254049
0.032529257 0.054129809 0.45300001 4279319842
0.034000598 0.054129809 0.45300001 4279385889
0.035471946 0.054129809 0.45300001 4279320094
0.03694329 0.054129809 0.45300001 4279385887
0.038329836 0.05401032 0.45200002 4279385887
0.039885979 0.054129809 0.45300001 4279385887
0.041357324 0.054129809 0.45300001 4279452193
0.042828668 0.054129809 0.45300001 4279452193
0.044300012 0.054129809 0.45300001 4279386400
0.045872401 0.054249305 0.45400003 4279320607
0.047346994 0.054249305 0.45400003 4279386400
0.048821583 0.054249305 0.45400003 4279255584
0.050406963 0.054368794 0.45500001 4279189791
0.051998835 0.05448829 0.45600003 4278860826
0.053479929 0.05448829 0.45600003 4278992925
0.055081543 0.054607779 0.45700002 4279058718
0.056565877 0.054607779 0.45700002 4279189791
0.058050212 0.054607779 0.45700002 4279187490
-0.053522628 0.061493225 0.50100005 4281680435
-0.051791787 0.061370477 0.5 4281613870
0.0061251172 0.056338102 0.45900002 4284381543
0.0076159495 0.056338102 0.45900002 4284776301
0.0090869423 0.056215361 0.45800003 4284907633
0.010574528 0.056215361 0.45800003 4285236598
0.012062112 0.056215361 0.45800003 4285368184
0.013520112 0.05609262 0.45700002 4285565563
0.01500445 0.05609262 0.45700002 4285565563
0.016452705 0.055969879 0.45600003 4285302391
0.017933793 0.055969879 0.45600003 4285302905
0.023753507 0.055724397 0.45400003 4284381803
0.026702695 0.055724397 0.45400003 4284119401
0.028115222 0.055601653 0.45300001 4283724897
0.029586565 0.055601653 0.45300001 4283921506
0.031057913 0.055601653 0.45300001 4283789918
0.032529257 0.055601653 0.45300001 4282210886
0.034000598 0.055601653 0.45300001 4282539851
0.035471946 0.055601653 0.45300001 4284053860
0.03694329 0.055601653 0.45300001 4283725410
0.038329836 0.055478916 0.45200002 4283396445
0.039885979 0.055601653 0.45300001 4282410320
0.041357324 0.055601653 0.45300001 4282081355
0.042828668 0.055601653 0.45300001 4281555011
0.044300012 0.055601653 0.45300001 4280502323
0.045872401 0.055724397 0.45400003 4279844393
0.047346994 0.055724397 0.45400003 4279712807
0.048929121 0.055847134 0.45500001 4279515426
0.050406963 0.055847134 0.45500001 4279515426
0.051998835 0.055969879 0.45600003 4278989595
0.053479929 0.055969879 0.45600003 4278924316
0.055081543 0.05609262 0.45700002 4279515941
0.056565877 0.05609262 0.45700002 4282541652
-0.055149876 0.063121028 0.50100005 4281287474
-0.053522628 0.063121028 0.50100005 4281811251
-0.051791787 0.062995031 0.5 4281679152
-0.053522628 0.064748824 0.50100005 4281680435
-0.051791787 0.064619578 0.5 4281745456
-0.053522628 0.066376626 0.50100005 4281812021
-0.051895376 0.066376626 0.50100005 4281745456
-0.051895376 0.068004422 0.50100005 4281614642
0.007952271 0.044399403 0.46672621 4294967295
0.007952271 0.044399403 0.46672621 4294901760
0.0080360705 0.043910049 0.46678546 4294901760
0.008119869 0.043420695 0.46684471 4294901760
0.0082036685 0.042931341 0.46690392 4294901760
0.008287468 0.042441983 0.46696317 4294901760
0.0083712675 0.041952629 0.46702242 4294901760
0.008455066 0.041463275 0.46708167 4294901760
0.0085388655 0.04097392 0.46714091 4294901760
0.008622665 0.040484566 0.46720016 4294901760
0.0087064644 0.039995208 0.46725938 4294901760
0.008790263 0.039505854 0.46731862 4294901760
0.0088740624 0.0390165 0.46737787 4294901760
0.0089578619 0.038527146 0.46743712 4294901760
0.0090416614 0.038037792 0.46749637 4294901760
0.0091254599 0.037548438 0.46755561 4294901760
0.0092092594 0.037059084 0.46761483 4294901760
0.0092930589 0.036569729 0.46767408 4294901760
0.0093768584 0.036080372 0.46773332 4294901760
0.0094606569 0.035591017 0.46779257 4294901760
0.0095444564 0.035101663 0.46785182 4294901760
0.0096282559 0.034612309 0.46791106 4294901760
0.0097120553 0.034122955 0.46797028 4294901760
0.0097958539 0.033633597 0.46802953 4294901760
0.0098796533 0.033144243 0.46808878 4294901760
0.0099634528 0.032654889 0.46814802 4294901760
0.010047251 0.032165535 0.46820727 4294901760
0.010131051 0.031676181 0.46826652 4294901760
0.01021485 0.031186825 0.46832573 4294901760
0.01029865 0.030697471 0.46838498 4294901760
0.010382449 0.030208116 0.46844423 4294901760
0.010466248 0.02971876 0.46850348 4294901760
0.010550047 0.029229406 0.46856272 4294901760
0.010633847 0.028740052 0.46862197 4294901760
0.010717645 0.028250696 0.46868119 4294901760
0.010801445 0.027761342 0.46874043 4294901760
0.010885244 0.027271988 0.46879968 4294901760
0.010969044 0.026782632 0.46885893 4294901760
0.011052843 0.026293278 0.46891817 4294901760
0.011136642 0.025803924 0.46897742 4294901760
0.011220441 0.025314569 0.46903664 4294901760
0.011304241 0.024825213 0.46909589 4294901760
0.011388039 0.024335859 0.46915513 4294901760
0.011471839 0.023846505 0.46921438 4294901760
0.011555638 0.023357149 0.46927363 4294901760
0.011639437 0.022867795 0.46933287 4294901760
0.011723236 0.022378441 0.46939209 4294901760
0.011807036 0.021889085 0.46945134 4294901760
0.011890835 0.021399731 0.46951059 4294901760
0.011974635 0.020910377 0.46956983 4294901760
0.012058433 0.020421021 0.46962908 4294901760
0.012142233 0.019931667 0.4696883 4294901760
0.012226032 0.019442312 0.46974754 4294901760
0.012309831 0.018952958 0.46980679 4294901760
0.01239363 0.018463604 0.46986604 4294901760
0.01247743 0.017974246 0.46992528 4294901760
0.012561229 0.017484892 0.46998453 4294901760
0.012645029 0.016995538 0.47004375 4294901760
0.012728827 0.016506184 0.470103 4294901760
0.012812627 0.01601683 0.47016224 4294901760
0.012896426 0.015527476 0.47022149 4294901760
0.012980225 0.015038118 0.47028074 4294901760
0.013064025 0.014548764 0.47033998 4294901760
0.013147824 0.014059409 0.4703992 4294901760
0.013231622 0.013570055 0.47045845 4294901760
0.013315422 0.013080701 0.47051769 4294901760
0.013399221 0.012591347 0.47057694 4294901760
0.01348302 0.012101989 0.47063619 4294901760
0.01356682 0.011612635 0.47069544 4294901760
0.013650618 0.011123281 0.47075465 4294901760
0.013734418 0.010633927 0.4708139 4294901760
0.013818217 0.010144573 0.47087315 4294901760
0.013902016 0.0096552186 0.47093239 4294901760
0.013985816 0.0091658607 0.47099164 4294901760
0.014069615 0.0086765066 0.47105089 4294901760
0.014153414 0.0081871524 0.47111011 4294901760
0.014237214 0.0076977983 0.47116935 4294901760
0.014321012 0.0072084442 0.4712286 4294901760
0.014404812 0.00671909 0.47128785 4294901760
0.014488611 0.0062297359 0.47134709 4294901760
0.01457241 0.0057403781 0.47140634 4294901760
0.01465621 0.0052510239 0.47146556 4294901760
0.014740009 0.0047616698 0.4715248 4294901760
0.014823807 0.0042723157 0.47158405 4294901760
0.014907608 0.0037829615 0.4716433 4294901760
0.014991406 0.0032936074 0.47170255 4294901760
0.015075206 0.0028042495 0.47176179 4294901760
0.015159005 0.0023148954 0.47182101 4294901760
0.015242804 0.0018255413 0.47188026 4294901760
0.015326603 0.0013361871 0.4719395 4294901760
0.015410403 0.00084683299 0.47199875 4294901760
0.015494201 0.00035747886 0.472058 4294901760
0.015578002 -0.000131879 0.47211725 4294901760
0.0156618 -0.00062123314 0.47217646 4294901760
0.015745599 -0.0011105873 0.47223571 4294901760
0.015829399 -0.0015999414 0.47229496 4294901760
0.015913198 -0.0020892955 0.4723542 4294901760
0.015996996 -0.0025786497 0.47241345 4294901760
0.016080797 -0.0030680075 0.4724727 4294901760
0.016164597 -0.0035573617 0.47253191 4294901760
0.016248394 -0.0040467158 0.47259116 4294901760
0.016332194 -0.0045360699 0.47265041 4294901760
0.007952271 0.044399403 0.46672621 4278255360
0.0083993357 0.044449542 0.466508 4278255360
0.0088463994 0.04449968 0.46628979 4278255360
0.009293464 0.044549823 0.46607155 4278255360
0.0097405277 0.044599961 0.46585333 4278255360
0.010187592 0.0446501 0.46563512 4278255360
0.010634657 0.044700239 0.46541691 4278255360
0.011081721 0.044750378 0.46519867 4278255360
0.011528785 0.044800516 0.46498045 4278255360
0.011975849 0.044850659 0.46476224 4278255360
0.012422914 0.044900797 0.46454403 4278255360
0.012869978 0.044950936 0.46432582 4278255360
0.013317042 0.045001075 0.46410757 4278255360
0.013764106 0.045051213 0.46388936 4278255360
0.01421117 0.045101352 0.46367115 4278255360
0.014658235 0.045151494 0.46345294 4278255360
0.0151053 0.045201633 0.46323469 4278255360
0.015552364 0.045251772 0.46301648 4278255360
0.015999429 0.04530191 0.46279827 4278255360
0.016446492 0.045352049 0.46258005 4278255360
0.016893556 0.045402188 0.46236184 4278255360
0.017340619 0.04545233 0.4621436 4278255360
0.017787684 0.045502469 0.46192539 4278255360
0.018234748 0.045552608 0.46170717 4278255360
0.018681813 0.045602746 0.46148896 4278255360
0.019128878 0.045652885 0.46127075 4278255360
0.019575942 0.045703024 0.46105251 4278255360
0.020023007 0.045753166 0.46083429 4278255360
0.020470072 0.045803305 0.46061608 4278255360
0.020917134 0.045853443 0.46039787 4278255360
0.021364201 0.045903582 0.46017963 4278255360
0.021811264 0.045953721 0.45996141 4278255360
0.022258326 0.046003859 0.4597432 4278255360
0.022705391 0.046054002 0.45952499 4278255360
0.023152456 0.046104141 0.45930678 4278255360
0.02359952 0.046154279 0.45908853 4278255360
0.024046585 0.046204418 0.45887032 4278255360
0.02449365 0.046254557 0.45865211 4278255360
0.024940712 0.046304695 0.4584339 4278255360
0.025387777 0.046354838 0.45821565 4278255360
0.025834842 0.046404976 0.45799744 4278255360
0.026281906 0.046455115 0.45777923 4278255360
0.026728969 0.046505254 0.45756102 4278255360
0.027176036 0.046555392 0.4573428 4278255360
0.027623098 0.046605535 0.45712456 4278255360
0.028070163 0.046655674 0.45690635 4278255360
0.028517228 0.046705812 0.45668814 4278255360
0.028964292 0.046755951 0.45646992 4278255360
0.029411355 0.04680609 0.45625168 4278255360
0.02985842 0.046856228 0.45603347 4278255360
0.030305484 0.046906367 0.45581526 4278255360
0.030752549 0.046956509 0.45559704 4278255360
0.031199612 0.047006648 0.45537883 4278255360
0.031646676 0.047056787 0.45516059 4278255360
0.032093741 0.047106925 0.45494238 4278255360
0.032540806 0.047157064 0.45472416 4278255360
0.03298787 0.047207206 0.45450595 4278255360
0.033434935 0.047257345 0.45428771 4278255360
0.033882 0.047307484 0.4540695 4278255360
0.034329064 0.047357623 0.45385128 4278255360
0.034776129 0.047407761 0.45363307 4278255360
0.035223193 0.0474579 0.45341486 4278255360
0.035670258 0.047508042 0.45319661 4278255360
0.036117319 0.047558181 0.4529784 4278255360
0.036564384 0.04760832 0.45276019 4278255360
0.037011445 0.047658458 0.45254198 4278255360
0.037458513 0.047708597 0.45232373 4278255360
0.037905578 0.047758736 0.45210552 4278255360
0.038352642 0.047808878 0.45188731 4278255360
0.038799703 0.047859017 0.4516691 4278255360
0.039246768 0.047909155 0.45145088 4278255360
0.039693832 0.047959294 0.45123264 4278255360
0.040140897 0.048009433 0.45101443 4278255360
0.040587962 0.048059572 0.45079622 4278255360
0.041035026 0.048109714 0.450578 4278255360
0.041482091 0.048159853 0.45035976 4278255360
0.041929156 0.048209991 0.45014155 4278255360
0.04237622 0.04826013 0.44992334 4278255360
0.042823285 0.048310269 0.44970512 4278255360
0.04327035 0.048360407 0.44948691 4278255360
0.043717414 0.04841055 0.44926867 4278255360
0.044164479 0.048460688 0.44905046 4278255360
0.044611543 0.048510827 0.44883224 4278255360
0.045058601 0.048560966 0.44861403 4278255360
0.045505665 0.048611104 0.44839582 4278255360
0.045952737 0.048661247 0.44817758 4278255360
0.046399802 0.048711386 0.44795936 4278255360
0.046846859 0.048761524 0.44774115 4278255360
0.047293924 0.048811663 0.44752294 4278255360
0.047740988 0.048861802 0.4473047 4278255360
0.048188053 0.04891194 0.44708648 4278255360
0.048635118 0.048962079 0.44686827 4278255360
0.049082182 0.049012221 0.44665006 4278255360
0.049529247 0.04906236 0.44643185 4278255360
0.049976312 0.049112499 0.4462136 4278255360
0.050423376 0.049162637 0.44599539 4278255360
0.050870441 0.049212776 0.44577718 4278255360
0.051317506 0.049262919 0.44555897 4278255360
0.05176457 0.049313057 0.44534072 4278255360
0.052211635 0.049363196 0.44512251 4278255360
0.052658699 0.049413335 0.4449043 4278255360
0.007952271 0.044399403 0.46672621 4278190335
0.0080909245 0.044480469 0.46719971 4278190335
0.0082295788 0.044561535 0.46767321 4278190335
0.0083682323 0.044642601 0.46814671 4278190335
0.0085068867 0.044723667 0.46862021 4278190335
0.0086455401 0.044804737 0.46909371 4278190335
0.0087841935 0.044885803 0.46956721 4278190335
0.0089228479 0.044966869 0.47004071 4278190335
0.0090615014 0.045047935 0.47051424 4278190335
0.0092001557 0.045129001 0.47098774 4278190335
0.0093388092 0.045210067 0.47146124 4278190335
0.0094774636 0.045291133 0.47193474 4278190335
0.009616117 0.045372199 0.47240824 4278190335
0.0097547704 0.045453269 0.47288173 4278190335
0.0098934248 0.045534335 0.47335523 4278190335
0.010032078 0.045615401 0.47382873 4278190335
