# .PCD v0.7 - Point Cloud Data file format
VERSION 0.7
FIELDS x y z rgb
SIZE 4 4 4 4
TYPE F F F U
COUNT 1 1 1 1
WIDTH 901
HEIGHT 1
VIEWPOINT 0 0 0 1 0 0 0
POINTS 901
DATA ascii
-0.0088016931 0.039198451 0.55400002 4280566311
-0.014020452 0.040480424 0.54700005 4279782182
-0.01226618 0.04055443 0.54800004 4279127330
-0.010524544 0.040702436 0.55000001 4279456808
-0.0087699182 0.040850446 0.55200005 4279588394
-0.0070149405 0.041072458 0.55500001 4279587881
-0.0052404744 0.04129447 0.55800003 4279849770
-0.0034465198 0.041516487 0.56100005 4279980072
-0.013969189 0.042103175 0.54500002 4279387937
-0.012221412 0.042180426 0.546 4278798365
-0.010467138 0.042257685 0.54700005 4278601499
-0.0087222559 0.042412188 0.54900002 4278733085
-0.007002301 0.042798456 0.55400002 4278733085
-0.0052310829 0.043030217 0.55700004 4278996257
-0.0034403759 0.043261975 0.56 4278601499
-0.0016272862 0.043416485 0.56200004 4279193638
0.00019914824 0.043648243 0.565 4279522603
-0.013917926 0.043712933 0.54300004 4279124765
-0.012154262 0.043712933 0.54300004 4278797595
-0.010409731 0.043793432 0.54400003 4278666009
-0.0086745927 0.043954436 0.546 4278600988
-0.0069770222 0.044437457 0.55200005 4278732574
-0.0052216914 0.044759467 0.55600005 4278731802
-0.0034403759 0.045081474 0.56 4279060767
-0.0016243907 0.045161977 0.56100005 4279060769
-0.015623831 0.045309685 0.54100001 4279780645
-0.013866662 0.045309685 0.54100001 4279058718
-0.012109494 0.045309685 0.54100001 4278928416
-0.010352325 0.045309685 0.54100001 4278862623
-0.008611043 0.045393441 0.54200006 4278928670
-0.0034342324 0.046817217 0.55900002 4278533912
-0.015594952 0.046980452 0.54000002 4279649574
-0.013815399 0.046893451 0.53900003 4278664730
-0.012042344 0.046806451 0.53800005 4279059488
-0.010294919 0.046806451 0.53800005 4279059488
-0.0085316049 0.046719447 0.537 4278797084
-0.0048835962 0.045240436 0.52000004 4278797084
-0.0031823479 0.045066431 0.51800001 4279191842
-0.0014998829 0.045066431 0.51800001 4278200844
0.00018222946 0.044979431 0.51700002 4279189021
-0.015566073 0.048644722 0.53900003 4279517475
-0.013764136 0.04846422 0.537 4279058718
-0.011997576 0.048373971 0.53600001 4279059488
-0.010218376 0.048193473 0.53400004 4278993695
-0.0066231154 0.047290973 0.52400005 4278665498
-0.0048835962 0.046929974 0.52000004 4278731291
-0.0031884916 0.046839725 0.51900005 4278862109
-0.0014969874 0.04665922 0.51700002 4278196992
0.000181877 0.046568971 0.51600003 4278991642
0.0018506448 0.04638847 0.514 4278198530
0.0035132691 0.046298221 0.51300001 4278197253
0.0051693977 0.046207972 0.51200002 4278196228
0.0068190307 0.046117723 0.51100004 4278196997
0.008445573 0.045937221 0.509 4278528011
0.010078967 0.045846973 0.50800002 4279055125
0.011705863 0.045756724 0.50700003 4279386139
0.0133526 0.045756724 0.50700003 4279189273
0.014969753 0.045666475 0.50600004 4278664210
0.016580408 0.045576219 0.505 4278665494
0.018184567 0.04548597 0.50400001 4278665496
0.019782232 0.045395721 0.50300002 4278468117
0.021373402 0.045305472 0.50200003 4278533910
0.022958076 0.045215223 0.50100005 4278665496
0.02453625 0.04512497 0.5 4278666009
0.02610793 0.045034721 0.49900001 4278731804
-0.015537194 0.050302491 0.53800005 4279452447
-0.013738505 0.050115488 0.53600001 4278993949
-0.01195281 0.049928494 0.53400004 4278862875
-0.01016097 0.049647994 0.53100002 4278797082
-0.0084045054 0.049460996 0.52900004 4278797082
-0.006610475 0.048900001 0.523 4278797084
-0.0048835962 0.048619505 0.52000004 4278665498
-0.0031823479 0.048432503 0.51800001 4279520293
-0.0014969874 0.048339006 0.51700002 4278198022
0.000181877 0.048245508 0.51600003 4279188510
0.0018506448 0.048058506 0.514 4278195459
0.0035132691 0.047965009 0.51300001 4278655502
0.0051693977 0.047871511 0.51200002 4278720779
0.0068190307 0.047778014 0.51100004 4278654986
0.008445573 0.047591012 0.509 4278720779
0.010078967 0.047497515 0.50800002 4278786572
0.011728952 0.047497515 0.50800002 4278589963
0.0133526 0.047404017 0.50700003 4278589963
0.014969753 0.04731052 0.50600004 4278196996
0.016580408 0.047217015 0.505 4278596371
0.018184567 0.047123518 0.50400001 4278199556
0.019782232 0.047030021 0.50300002 4278201356
0.021373402 0.046936523 0.50200003 4279188762
0.022958076 0.046843026 0.50100005 4279255068
0.024487179 0.046656024 0.49900001 4279124765
0.02605561 0.046562526 0.49800003 4278993179
0.027561978 0.046375528 0.49600002 4278664984
0.029114172 0.046282031 0.49500003 4278533912
0.030597804 0.046095032 0.49300003 4278533912
0.032133754 0.046001531 0.49200001 4278600218
0.033663213 0.045908034 0.49100003 4278731804
0.035186172 0.045814533 0.49000001 4278666011
0.03677769 0.045814533 0.49000001 4278731550
0.03829091 0.045721035 0.48900002 4278599964
0.03987918 0.045721035 0.48900002 4278731300
0.043231826 0.045908034 0.49100003 4280834877
0.050116103 0.046375528 0.49600002 4279978026
-0.015508313 0.051953752 0.537 4279058205
-0.013712874 0.05176026 0.53500003 4279059740
-0.011908042 0.051470011 0.53200001 4278928668
-0.010122699 0.05117977 0.52900004 4278797082
-0.0083727296 0.050986271 0.52700001 4278533910
-0.006597836 0.050502531 0.52200001 4278797082
-0.0048835962 0.05030904 0.52000004 4278797084
-0.0031823479 0.050115541 0.51800001 4279322914
-0.0014969874 0.050018791 0.51700002 4278266638
0.00018152452 0.0498253 0.51500005 4279320096
0.0018506448 0.049728546 0.514 4278657550
0.0035132691 0.049631801 0.51300001 4279445531
0.0051693977 0.049535051 0.51200002 4279116307
0.0068056863 0.049341559 0.51000005 4280102430
0.008445573 0.049244806 0.509 4279510293
0.010078967 0.049148057 0.50800002 4279642649
0.011728952 0.049148057 0.50800002 4278983951
0.0133526 0.049051311 0.50700003 4278589193
0.014969753 0.048954565 0.50600004 4278393865
0.016580408 0.048857812 0.505 4279056152
0.018184567 0.048761066 0.50400001 4279189021
0.019782232 0.048664317 0.50300002 4278860056
0.021373402 0.048567571 0.50200003 4279517473
0.022958076 0.048470825 0.50100005 4279121945
0.02453625 0.048374072 0.5 4278266122
0.02605561 0.048180576 0.49800003 4278198016
0.027561978 0.047987081 0.49600002 4278196480
0.029114172 0.047890335 0.49500003 4278198787
0.030659867 0.047793586 0.49400002 4278201099
0.032199066 0.047696836 0.49300003 4278793750
0.033731773 0.047600087 0.49200001 4278992666
0.03525798 0.047503341 0.49100003 4278795287
0.036852747 0.047503341 0.49100003 4278795800
0.038369212 0.047406591 0.49000001 4278796570
0.039960731 0.047406591 0.49000001 4278928156
0.041721858 0.047600087 0.49200001 4278862363
0.043319874 0.047600087 0.49200001 4278731291
0.045009185 0.047696836 0.49300003 4278796830
0.046704996 0.047793586 0.49400002 4279060517
0.048407301 0.047890335 0.49500003 4278796832
0.050116103 0.047987081 0.49600002 4282149958
0.051727112 0.047987081 0.49600002 4280834100
0.053338118 0.047987081 0.49600002 4279387685
0.055059914 0.048083827 0.49700001 4279452713
-0.015508313 0.053698521 0.537 4279715365
-0.013687242 0.053398531 0.53400004 4278928156
-0.011885659 0.053098537 0.53100002 4278797082
-0.010103562 0.052798543 0.528 4278731289
-0.0083409548 0.052498557 0.52500004 4278862877
-0.006597836 0.052198563 0.52200001 4278797084
-0.0048742048 0.051898576 0.51900005 4278797084
-0.0031823479 0.051798575 0.51800001 4278860826
-0.0014940919 0.051598582 0.51600003 4279318297
0.00018152452 0.051498584 0.51500005 4279320094
0.0018506448 0.051398583 0.514 4278459658
0.0035132691 0.051298589 0.51300001 4278459658
0.0051593012 0.051098596 0.51100004 4279840543
0.0068056863 0.050998598 0.51000005 4279577371
0.008445573 0.050898597 0.509 4278918926
0.010078967 0.050798602 0.50800002 4278918926
0.011728952 0.050798602 0.50800002 4278788623
0.0133526 0.050698604 0.50700003 4279578139
0.014969753 0.05059861 0.50600004 4278262794
0.016580408 0.050498608 0.505 4279450912
0.018184567 0.050398611 0.50400001 4278727957
0.019782232 0.050298616 0.50300002 4278199817
0.021373402 0.050198622 0.50200003 4278595603
0.022958076 0.050098624 0.50100005 4278464787
0.02453625 0.049998622 0.5 4279188762
0.02610793 0.049898628 0.49900001 4279057176
0.027617546 0.049698632 0.49700001 4279320348
0.029172987 0.049598634 0.49600002 4278925590
0.030721933 0.04949864 0.49500003 4279188762
0.032199066 0.049298644 0.49300003 4279188762
0.033800334 0.049298644 0.49300003 4278924568
0.035329789 0.049198646 0.49200001 4278792468
0.036927804 0.049198646 0.49200001 4278197248
0.038447518 0.049098648 0.49100003 4278196224
0.040042285 0.049098648 0.49100003 4278198275
0.041721858 0.049198646 0.49200001 4278464015
0.043407921 0.049298644 0.49300003 4278465298
0.04510048 0.049398642 0.49400002 4278795800
0.046704996 0.049398642 0.49400002 4278664984
0.048407301 0.04949864 0.49500003 4278928156
0.050116103 0.049598634 0.49600002 4278993949
0.051727112 0.049598634 0.49600002 4278928154
0.053445652 0.049698632 0.49700001 4278862877
0.055059914 0.049698632 0.49700001 4278928416
0.056674168 0.049698632 0.49700001 4281160253
-0.015508313 0.055443287 0.537 4279321377
-0.013687242 0.055133551 0.53400004 4279256097
-0.011885659 0.054823812 0.53100002 4278928156
-0.010084427 0.054410826 0.52700001 4278731289
-0.0083409548 0.054204334 0.52500004 4278797084
-0.006597836 0.053894594 0.52200001 4278731291
-0.0048742048 0.053584859 0.51900005 4278731291
-0.0031823479 0.053481609 0.51800001 4279386654
-0.0014940919 0.05327512 0.51600003 4278858259
0.00018152452 0.053171873 0.51500005 4279385887
0.0018506448 0.053068623 0.514 4278657037
0.0035064209 0.05286213 0.51200002 4278721549
0.0051593012 0.052758887 0.51100004 4278523146
0.0068056863 0.052655641 0.51000005 4278786318
0.008445573 0.052552391 0.509 4278720779
0.010078967 0.052449144 0.50800002 4278523400
0.011728952 0.052449144 0.50800002 4278920207
0.0133526 0.052345902 0.50700003 4279907102
0.014969753 0.052242655 0.50600004 4278196230
0.016580408 0.052139405 0.505 4279647775
0.018220648 0.052139405 0.505 4278197765
0.01982156 0.052036159 0.50400001 4278590472
0.021415979 0.051932916 0.50300002 4278196228
0.022958076 0.051726423 0.50100005 4278792214
0.02453625 0.051623173 0.5 4279649059
0.02610793 0.051519927 0.49900001 4278595601
0.027673116 0.051416684 0.49800003 4278596373
0.029172987 0.051210191 0.49600002 4278200330
0.030721933 0.051106945 0.49500003 4279058205
0.032264378 0.051003698 0.49400002 4278861080
0.033868894 0.051003698 0.49400002 4278861080
0.035401598 0.050900452 0.49300003 4279189275
0.037002861 0.050900452 0.49300003 4279123482
0.038525824 0.050797205 0.49200001 4278926103
0.040205393 0.050900452 0.49300003 4279649313
0.041806657 0.050900452 0.49300003 4279517727
0.043495968 0.051003698 0.49400002 4280306219
0.04510048 0.051003698 0.49400002 4278595601
0.046799541 0.051106945 0.49500003 4278928156
0.048505094 0.051210191 0.49600002 4278928156
0.050116103 0.051210191 0.49600002 4278928156
0.051831398 0.051313434 0.49700001 4278928156
0.053445652 0.051313434 0.49700001 4278928156
0.055059914 0.051313434 0.49700001 4278862363
0.056674168 0.051313434 0.49700001 4278266638
-0.015537194 0.057294555 0.53800005 4279255584
-0.013712874 0.056975067 0.53500003 4278862109
-0.011885659 0.056549083 0.53100002 4278928156
-0.010103562 0.056229595 0.528 4278796568
-0.0083409548 0.055910114 0.52500004 4278665496
-0.006597836 0.055590626 0.52200001 4278468119
-0.0048742048 0.055271141 0.51900005 4278796570
-0.0031823479 0.055164643 0.51800001 4278198529
-0.0014940919 0.054951653 0.51600003 4278200843
0.00018152452 0.054845162 0.51500005 4279189021
0.0018470443 0.054632165 0.51300001 4279649059
0.0035064209 0.054525673 0.51200002 4279185689
0.0051593012 0.054419179 0.51100004 4278722830
0.0068056863 0.054312684 0.51000005 4278393095
0.008445573 0.054206181 0.509 4278852365
0.010078967 0.05409969 0.50800002 4278852365
0.011705863 0.053993195 0.50700003 4278589709
0.0133526 0.053993195 0.50700003 4278589709
0.014969753 0.0538867 0.50600004 4278394376
0.016580408 0.053780202 0.505 4279253017
0.018184567 0.053673707 0.50400001 4278591755
0.01982156 0.053673707 0.50400001 4278721547
0.021415979 0.053567212 0.50300002 4279382557
0.0230039 0.053460717 0.50200003 4278265870
0.02453625 0.053247724 0.5 4278660882
0.02610793 0.053141229 0.49900001 4278791955
0.027673116 0.053034734 0.49800003 4279319326
0.029231803 0.052928239 0.49700001 4278199303
0.030783996 0.052821744 0.49600002 4278200845
0.032329693 0.052715249 0.49500003 4278199303
0.033868894 0.052608754 0.49400002 4278200074
0.035473406 0.052608754 0.49400002 4278198018
0.037077915 0.052608754 0.49400002 4278198016
0.038604129 0.05250226 0.49300003 4278925590
0.040286943 0.052608754 0.49400002 4278662931
0.041891459 0.052608754 0.49400002 4279386654
0.043495968 0.052608754 0.49400002 4279912485
0.04519178 0.052715249 0.49500003 4278464269
0.046894085 0.052821744 0.49600002 4279058970
0.048505094 0.052821744 0.49600002 4279125533
0.050217144 0.052928239 0.49700001 4278796568
0.051831398 0.052928239 0.49700001 4278796568
0.053445652 0.052928239 0.49700001 4278796568
0.055059914 0.052928239 0.49700001 4278664984
0.056674168 0.052928239 0.49700001 4278858521
-0.013764136 0.058932822 0.537 4279255068
-0.011930427 0.058493849 0.53300005 4278993179
-0.010122699 0.058054872 0.52900004 4278927384
-0.0083409548 0.057615891 0.52500004 4278730005
-0.006597836 0.057286657 0.52200001 4278730005
-0.0048835962 0.057067171 0.52000004 4278533398
-0.0031823479 0.056847677 0.51800001 4278928156
-0.0014940919 0.05662819 0.51600003 4279124252
0.00018152452 0.056518447 0.51500005 4278993179
0.0018470443 0.056298956 0.51300001 4278993179
0.0035064209 0.056189213 0.51200002 4278598421
0.0051593012 0.05607947 0.51100004 4279189791
0.0068056863 0.055969726 0.51000005 4278991642
0.008445573 0.055859976 0.509 4278991129
0.010078967 0.055750232 0.50800002 4279187740
0.011705863 0.055640489 0.50700003 4279647523
0.013326264 0.055530746 0.50600004 4278856726
0.014969753 0.055530746 0.50600004 4279054357
0.016580408 0.055420995 0.505 4278196992
0.018184567 0.055311255 0.50400001 4278197763
0.019782232 0.055201512 0.50300002 4278593293
0.021373402 0.055091769 0.50200003 4279448861
0.022958076 0.054982025 0.50100005 4279252252
0.02453625 0.054872274 0.5 4279318812
0.02610793 0.054762531 0.49900001 4279516705
0.027673116 0.054652788 0.49800003 4278726675
0.029231803 0.054543041 0.49700001 4279187740
0.030846059 0.054543041 0.49700001 4279188508
0.032395005 0.054433297 0.49600002 4279911461
0.033937454 0.054323554 0.49500003 4279186713
0.035545215 0.054323554 0.49500003 4278396173
0.037077915 0.054213811 0.49400002 4278726162
0.038682431 0.054213811 0.49400002 4278199817
0.040368497 0.054323554 0.49500003 4279055638
0.041976258 0.054323554 0.49500003 4279188762
0.043584019 0.054323554 0.49500003 4279451680
0.045283075 0.054433297 0.49600002 4279254301
0.046894085 0.054433297 0.49600002 4279124763
0.048602883 0.054543041 0.49700001 4278993947
0.050217144 0.054543041 0.49700001 4278993947
0.051831398 0.054543041 0.49700001 4278796568
0.053445652 0.054543041 0.49700001 4278862363
0.055059914 0.054543041 0.49700001 4278467351
0.056674168 0.054543041 0.49700001 4279319072
-0.0083727296 0.059547655 0.52700001 4279319578
-0.006610475 0.059095681 0.523 4279057176
-0.0048929877 0.058869693 0.52100003 4278860310
-0.0031823479 0.058530711 0.51800001 4278795285
-0.0014969874 0.058417719 0.51700002 4279058457
0.00018152452 0.058191735 0.51500005 4278992664
0.0018506448 0.058078736 0.514 4278862363
0.0035064209 0.057852753 0.51200002 4278993695
0.0051593012 0.057739761 0.51100004 4278927902
0.0068056863 0.057626769 0.51000005 4278927902
0.0084289815 0.057400778 0.50800002 4278796316
0.010059127 0.057287782 0.50700003 4278862109
0.011705863 0.057287782 0.50700003 4278664730
0.013326264 0.057174791 0.50600004 4278927902
0.014940167 0.057061791 0.505 4279124511
0.016547576 0.0569488 0.50400001 4279058205
0.018184567 0.0569488 0.50400001 4279123228
0.019782232 0.056835808 0.50300002 4279188508
0.021373402 0.056722816 0.50200003 4279582496
0.022958076 0.056609824 0.50100005 4279450912
0.02453625 0.056496825 0.5 4278989593
0.02610793 0.056383833 0.49900001 4278196737
0.027673116 0.056270842 0.49800003 4278196224
0.02929062 0.056270842 0.49800003 4278198020
0.030846059 0.056157846 0.49700001 4278397195
0.032395005 0.056044854 0.49600002 4279516443
0.034006014 0.056044854 0.49600002 4279582750
0.035545215 0.055931862 0.49500003 4279780129
0.037152976 0.055931862 0.49500003 4279780129
0.038760737 0.055931862 0.49500003 4279187738
0.040368497 0.055931862 0.49500003 4279648289
0.042061061 0.056044854 0.49600002 4279517727
0.043672066 0.056044854 0.49600002 4280175403
0.045374371 0.056157846 0.49700001 4279845668
0.046988629 0.056157846 0.49700001 4279058459
0.048602883 0.056157846 0.49700001 4279124763
0.050318185 0.056270842 0.49800003 4278993947
0.051831398 0.056157846 0.49700001 4278796568
0.053445652 0.056157846 0.49700001 4278599189
0.055059914 0.056157846 0.49700001 4278796316
0.056674168 0.056157846 0.49700001 4279254562
-0.0048929877 0.060562477 0.52100003 4278920461
-0.0031884916 0.060329996 0.51900005 4279249937
-0.0014969874 0.060097504 0.51700002 4279251734
0.00018152452 0.059865024 0.51500005 4279055125
0.0018506448 0.059748773 0.514 4279121947
0.0035064209 0.059516292 0.51200002 4279385889
0.0051593012 0.059400052 0.51100004 4279386402
0.0067923414 0.05916756 0.509 4279452965
0.0084289815 0.05905132 0.50800002 4279452965
0.010059127 0.05893508 0.50700003 4279189793
0.011682775 0.058818836 0.50600004 4279058720
0.013299926 0.058702588 0.505 4279124513
0.014940167 0.058702588 0.505 4278992927
0.016547576 0.058586348 0.50400001 4278992925
0.018148487 0.058470108 0.50300002 4278927132
0.019742904 0.058353864 0.50200003 4278795546
0.021373402 0.058353864 0.50200003 4278927132
0.022958076 0.058237623 0.50100005 4278927132
0.02453625 0.058121376 0.5 4278860826
0.02610793 0.058005136 0.49900001 4278991642
0.027673116 0.057888892 0.49800003 4279254814
0.02929062 0.057888892 0.49800003 4279254301
0.030846059 0.057772648 0.49700001 4279187738
0.032395005 0.057656407 0.49600002 4279582496
0.034006014 0.057656407 0.49600002 4278792466
0.035617024 0.057656407 0.49600002 4278529294
0.037228029 0.057656407 0.49600002 4278196736
0.038839042 0.057656407 0.49600002 4278196736
0.040450048 0.057656407 0.49600002 4278265609
0.042061061 0.057656407 0.49600002 4278858259
0.043760113 0.057772648 0.49700001 4278924568
0.045374371 0.057772648 0.49700001 4279649059
0.047083173 0.057888892 0.49800003 4279190045
0.048700679 0.057888892 0.49800003 4279190045
0.050318185 0.057888892 0.49800003 4279256349
0.051935688 0.057888892 0.49800003 4278993177
0.053553194 0.057888892 0.49800003 4278927384
0.055059914 0.057772648 0.49700001 4278664214
0.056674168 0.057772648 0.49700001 4278858523
0.0051492047 0.060940851 0.51000005 4285632892
0.0067923414 0.060821354 0.509 4284054375
0.0084123891 0.060582373 0.50700003 4281226046
0.010059127 0.060582373 0.50700003 4279384615
0.011682775 0.060462881 0.50600004 4279055904
0.013299926 0.060343385 0.505 4279384867
0.014910583 0.060223896 0.50400001 4279386150
0.016514745 0.060104404 0.50300002 4279386148
0.018148487 0.060104404 0.50300002 4279189021
0.019742904 0.059984915 0.50200003 4279058205
0.021330826 0.059865423 0.50100005 4278992412
0.022958076 0.059865423 0.50100005 4278861080
0.02453625 0.059745926 0.5 4279190045
0.02610793 0.059626438 0.49900001 4278993179
0.027673116 0.059506945 0.49800003 4278927386
0.02929062 0.059506945 0.49800003 4279058972
0.030846059 0.059387453 0.49700001 4278993179
0.032460317 0.059387453 0.49700001 4278730007
0.034006014 0.05926796 0.49600002 4278861080
0.035617024 0.05926796 0.49600002 4278992666
0.037228029 0.05926796 0.49600002 4279123482
0.038839042 0.05926796 0.49600002 4279189275
0.040450048 0.05926796 0.49600002 4279320348
0.042145859 0.059387453 0.49700001 4279254301
0.043760113 0.059387453 0.49700001 4279649572
0.045465667 0.059506945 0.49800003 4278992925
0.047083173 0.059506945 0.49800003 4278993949
0.048700679 0.059506945 0.49800003 4278993949
0.050318185 0.059506945 0.49800003 4278862361
0.051935688 0.059506945 0.49800003 4278862361
0.053553194 0.059506945 0.49800003 4278599189
0.0551707 0.059506945 0.49800003 4278730007
0.056674168 0.059387453 0.49700001 4279383842
0.0084123891 0.062229667 0.50700003 4285433977
0.010039286 0.06210693 0.50600004 4285302391
0.011659686 0.061984181 0.505 4285762942
0.013299926 0.061984181 0.505 4285697149
0.014910583 0.061861441 0.50400001 4285500538
0.016514745 0.061738703 0.50300002 4284053860
0.018112408 0.061615963 0.50200003 4281686595
0.019742904 0.061615963 0.50200003 4279975977
0.021330826 0.061493225 0.50100005 4279383838
0.022912249 0.061370477 0.5 4279055900
0.02453625 0.061370477 0.5 4279319842
0.02610793 0.061247736 0.49900001 4279649061
0.027673116 0.061124999 0.49800003 4279385887
0.02929062 0.061124999 0.49800003 4279123228
0.030846059 0.061002254 0.49700001 4279058205
0.032460317 0.061002254 0.49700001 4279058720
0.034006014 0.060879517 0.49600002 4278992927
0.035617024 0.060879517 0.49600002 4279058718
0.037228029 0.060879517 0.49600002 4279123998
0.038839042 0.060879517 0.49600002 4279123998
0.040531598 0.061002254 0.49700001 4279123998
0.042145859 0.061002254 0.49700001 4279123998
0.043848164 0.061124999 0.49800003 4278860826
0.045465667 0.061124999 0.49800003 4279058459
0.047177717 0.061247736 0.49900001 4279058459
0.048798468 0.061247736 0.49900001 4278927386
0.050419223 0.061247736 0.49900001 4278927386
0.051935688 0.061124999 0.49800003 4278730007
0.053553194 0.061124999 0.49800003 4278730007
0.0551707 0.061124999 0.49800003 4278794263
0.056674168 0.061002254 0.49700001 4283789918
0.014880999 0.063373007 0.50300002 4285170546
0.018112408 0.063247018 0.50200003 4284907372
0.019703576 0.063121028 0.50100005 4284447334
0.021330826 0.063121028 0.50100005 4284382055
0.022912249 0.062995031 0.5 4284973678
0.02453625 0.062995031 0.5 4284974190
0.02610793 0.062869042 0.49900001 4284974190
0.027673116 0.062743053 0.49800003 4284514409
0.02929062 0.062743053 0.49800003 4284119653
0.030846059 0.062617064 0.49700001 4283199064
0.032460317 0.062617064 0.49700001 4281423423
0.034006014 0.062491074 0.49600002 4280502321
0.035617024 0.062491074 0.49600002 4279450146
0.037228029 0.062491074 0.49600002 4279055902
0.038917344 0.062617064 0.49700001 4278925086
0.040531598 0.062617064 0.49700001 4279451178
0.042230662 0.062743053 0.49800003 4279188006
0.043848164 0.062743053 0.49800003 4279648811
0.045465667 0.062743053 0.49800003 4279517223
0.047177717 0.062869042 0.49900001 4279714854
0.048798468 0.062869042 0.49900001 4279649061
0.050419223 0.062869042 0.49900001 4279649574
0.052039977 0.062869042 0.49900001 4279320609
0.053553194 0.062743053 0.49800003 4279055386
0.0551707 0.062743053 0.49800003 4282869334
0.052039977 0.064490341 0.49900001 4284251241
0.053660728 0.064490341 0.49900001 4284448620
0.020398891 0.0534067 0.50783038 4294967295
0.020398891 0.0534067 0.50783038 4294901760
0.020458624 0.052910425 0.50784236 4294901760
0.020518357 0.052414153 0.50785434 4294901760
0.020578092 0.051917877 0.50786632 4294901760
0.020637825 0.051421601 0.5078783 4294901760
0.020697558 0.050925329 0.50789028 4294901760
0.020757291 0.050429054 0.50790226 4294901760
0.020817025 0.049932778 0.50791425 4294901760
0.02087676 0.049436506 0.50792623 4294901760
0.020936493 0.04894023 0.50793821 4294901760
0.020996226 0.048443954 0.50795019 4294901760
0.021055959 0.047947682 0.50796223 4294901760
0.021115694 0.047451407 0.50797421 4294901760
0.021175427 0.046955131 0.50798619 4294901760
0.021235161 0.046458859 0.50799817 4294901760
0.021294894 0.045962583 0.50801015 4294901760
0.021354627 0.045466311 0.50802213 4294901760
0.021414362 0.044970036 0.50803411 4294901760
0.021474095 0.04447376 0.50804609 4294901760
0.021533828 0.043977484 0.50805807 4294901760
0.021593561 0.043481212 0.50807005 4294901760
0.021653295 0.042984936 0.50808203 4294901760
0.02171303 0.042488664 0.50809401 4294901760
0.021772763 0.041992389 0.50810599 4294901760
0.021832496 0.041496113 0.50811797 4294901760
0.021892229 0.040999837 0.50812995 4294901760
0.021951962 0.040503565 0.50814193 4294901760
0.022011697 0.040007289 0.50815392 4294901760
0.02207143 0.039511018 0.5081659 4294901760
0.022131164 0.039014742 0.50817788 4294901760
0.022190897 0.038518466 0.50818992 4294901760
0.02225063 0.03802219 0.5082019 4294901760
0.022310365 0.037525918 0.50821388 4294901760
0.022370098 0.037029643 0.50822586 4294901760
0.022429831 0.036533371 0.50823784 4294901760
0.022489564 0.036037095 0.50824982 4294901760
0.0225493 0.035540819 0.5082618 4294901760
0.022609033 0.035044543 0.50827378 4294901760
0.022668766 0.034548271 0.50828576 4294901760
0.022728499 0.034051999 0.50829774 4294901760
0.022788232 0.033555724 0.50830972 4294901760
0.022847967 0.033059448 0.5083217 4294901760
0.0229077 0.032563172 0.50833368 4294901760
0.022967434 0.032066897 0.50834566 4294901760
0.023027167 0.031570625 0.50835764 4294901760
0.0230869 0.031074351 0.50836962 4294901760
0.023146635 0.030578075 0.50838161 4294901760
0.023206368 0.030081801 0.50839359 4294901760
0.023266101 0.029585527 0.50840557 4294901760
0.023325834 0.029089252 0.50841755 4294901760
0.023385569 0.028592978 0.50842953 4294901760
0.023445303 0.028096704 0.50844157 4294901760
0.023505036 0.02760043 0.50845355 4294901760
0.023564769 0.027104156 0.50846553 4294901760
0.023624502 0.026607879 0.50847751 4294901760
0.023684237 0.026111605 0.50848949 4294901760
0.02374397 0.025615331 0.50850147 4294901760
0.023803703 0.025119057 0.50851345 4294901760
0.023863437 0.024622783 0.50852543 4294901760
0.02392317 0.024126509 0.50853741 4294901760
0.023982905 0.023630232 0.50854939 4294901760
0.024042638 0.023133958 0.50856137 4294901760
0.024102371 0.022637684 0.50857335 4294901760
0.024162104 0.022141408 0.50858533 4294901760
0.024221838 0.021645136 0.50859731 4294901760
0.024281573 0.02114886 0.50860929 4294901760
0.024341306 0.020652585 0.50862128 4294901760
0.024401039 0.020156313 0.50863326 4294901760
0.024460772 0.019660037 0.50864524 4294901760
0.024520505 0.019163761 0.50865722 4294901760
0.02458024 0.018667489 0.50866926 4294901760
0.024639973 0.018171214 0.50868124 4294901760
0.024699707 0.017674938 0.50869322 4294901760
0.024759442 0.017178666 0.5087052 4294901760
0.024819173 0.01668239 0.50871718 4294901760
0.024878908 0.016186118 0.50872916 4294901760
0.024938641 0.015689842 0.50874114 4294901760
0.024998374 0.015193567 0.50875312 4294901760
0.025058107 0.014697295 0.5087651 4294901760
0.025117842 0.014201019 0.50877708 4294901760
0.025177576 0.013704743 0.50878906 4294901760
0.025237309 0.013208471 0.50880104 4294901760
0.025297042 0.012712196 0.50881302 4294901760
0.025356777 0.01221592 0.508825 4294901760
0.025416508 0.011719648 0.50883698 4294901760
0.025476243 0.011223372 0.50884897 4294901760
0.025535977 0.010727096 0.50886095 4294901760
0.02559571 0.010230824 0.50887293 4294901760
0.025655445 0.0097345486 0.50888491 4294901760
0.025715178 0.0092382729 0.50889689 4294901760
0.025774911 0.0087420009 0.50890887 4294901760
0.025834644 0.0082457252 0.50892091 4294901760
0.025894377 0.0077494495 0.50893289 4294901760
0.025954112 0.0072531775 0.50894487 4294901760
0.026013846 0.0067569017 0.50895685 4294901760
0.026073579 0.006260626 0.50896883 4294901760
0.026133312 0.005764354 0.50898081 4294901760
0.026193045 0.0052680783 0.50899279 4294901760
0.02625278 0.0047718026 0.50900477 4294901760
0.026312513 0.0042755306 0.50901675 4294901760
0.026372246 0.0037792549 0.50902873 4294901760
0.020398891 0.0534067 0.50783038 4278255360
0.020803345 0.053448357 0.50753939 4278255360
0.0212078 0.053490009 0.5072484 4278255360
0.021612257 0.053531665 0.50695735 4278255360
0.022016712 0.053573322 0.50666636 4278255360
0.022421166 0.053614978 0.50637537 4278255360
0.022825621 0.05365663 0.50608438 4278255360
0.023230076 0.053698286 0.50579339 4278255360
0.023634531 0.053739943 0.5055024 4278255360
0.024038987 0.053781599 0.50521135 4278255360
0.024443442 0.053823251 0.50492036 4278255360
0.024847897 0.053864907 0.50462937 4278255360
0.025252352 0.053906564 0.50433838 4278255360
0.025656808 0.05394822 0.50404739 4278255360
0.026061263 0.053989872 0.5037564 4278255360
0.026465718 0.054031529 0.50346535 4278255360
0.026870172 0.054073185 0.50317436 4278255360
0.027274627 0.054114841 0.50288337 4278255360
0.027679084 0.054156493 0.50259238 4278255360
0.028083539 0.05419815 0.50230139 4278255360
0.028487993 0.054239806 0.50201041 4278255360
0.028892448 0.054281462 0.50171936 4278255360
0.029296905 0.054323114 0.50142837 4278255360
0.02970136 0.054364771 0.50113738 4278255360
0.030105814 0.054406427 0.50084639 4278255360
0.030510269 0.054448083 0.5005554 4278255360
0.030914724 0.054489736 0.50026441 4278255360
0.031319179 0.054531392 0.49997339 4278255360
0.031723633 0.054573048 0.49968237 4278255360
0.032128088 0.0546147 0.49939138 4278255360
0.032532547 0.054656357 0.49910039 4278255360
0.032937001 0.054698013 0.49880937 4278255360
0.033341452 0.054739669 0.49851838 4278255360
0.033745911 0.054781321 0.49822739 4278255360
0.034150366 0.054822978 0.49793637 4278255360
0.034554821 0.054864634 0.49764538 4278255360
0.034959275 0.05490629 0.49735439 4278255360
0.03536373 0.054947942 0.49706337 4278255360
0.035768185 0.054989599 0.49677238 4278255360
0.03617264 0.055031255 0.49648139 4278255360
0.036577098 0.055072911 0.49619037 4278255360
0.036981553 0.055114564 0.49589938 4278255360
0.037386008 0.05515622 0.49560839 4278255360
0.037790462 0.055197876 0.49531737 4278255360
0.038194917 0.055239532 0.49502638 4278255360
0.038599372 0.055281185 0.49473539 4278255360
0.039003827 0.055322841 0.49444437 4278255360
0.039408281 0.055364497 0.49415338 4278255360
0.039812736 0.055406153 0.49386239 4278255360
0.040217191 0.055447806 0.49357137 4278255360
0.040621646 0.055489462 0.49328038 4278255360
0.041026101 0.055531118 0.49298939 4278255360
0.041430555 0.055572771 0.49269837 4278255360
0.04183501 0.055614427 0.49240738 4278255360
0.042239469 0.055656083 0.49211639 4278255360
0.042643923 0.055697739 0.49182537 4278255360
0.043048378 0.055739392 0.49153438 4278255360
0.043452833 0.055781048 0.49124339 4278255360
0.043857288 0.055822704 0.49095237 4278255360
0.044261742 0.05586436 0.49066138 4278255360
0.044666201 0.055906013 0.49037039 4278255360
0.045070656 0.055947669 0.49007937 4278255360
0.04547511 0.055989325 0.48978838 4278255360
0.045879565 0.056030981 0.48949739 4278255360
0.04628402 0.056072634 0.48920637 4278255360
0.046688475 0.05611429 0.48891538 4278255360
0.047092929 0.056155946 0.48862439 4278255360
0.047497384 0.056197602 0.48833337 4278255360
0.047901839 0.056239255 0.48804238 4278255360
0.048306294 0.056280911 0.48775139 4278255360
0.048710749 0.056322567 0.48746037 4278255360
0.049115203 0.056364223 0.48716938 4278255360
0.049519662 0.056405876 0.4868784 4278255360
0.049924117 0.056447532 0.48658738 4278255360
0.050328571 0.056489188 0.48629639 4278255360
0.050733026 0.056530841 0.48600537 4278255360
0.051137481 0.056572497 0.48571438 4278255360
0.051541936 0.056614153 0.48542339 4278255360
0.051946387 0.056655809 0.4851324 4278255360
0.052350849 0.056697465 0.48484138 4278255360
0.052755304 0.056739118 0.48455039 4278255360
0.053159758 0.056780774 0.48425937 4278255360
0.053564213 0.05682243 0.48396838 4278255360
0.053968668 0.056864083 0.48367739 4278255360
0.054373123 0.056905739 0.48338637 4278255360
0.054777578 0.056947395 0.48309538 4278255360
0.055182032 0.056989051 0.48280439 4278255360
0.055586487 0.057030704 0.48251337 4278255360
0.055990942 0.05707236 0.48222238 4278255360
0.056395397 0.057114016 0.48193139 4278255360
0.056799851 0.057155672 0.48164037 4278255360
0.057204306 0.057197325 0.48134938 4278255360
0.057608761 0.057238981 0.48105839 4278255360
0.058013216 0.057280637 0.48076737 4278255360
0.05841767 0.057322294 0.48047638 4278255360
0.058822125 0.057363946 0.48018539 4278255360
0.05922658 0.057405602 0.47989437 4278255360
0.059631042 0.057447258 0.47960338 4278255360
0.060035497 0.057488911 0.47931239 4278255360
0.060439952 0.057530567 0.47902137 4278255360
0.060844406 0.057572223 0.47873038 4278255360
0.020398891 0.0534067 0.50783038 4278190335
0.020668246 0.05344924 0.50824946 4278190335
0.020937599 0.053491782 0.50866854 4278190335
0.021206954 0.053534321 0.50908768 4278190335
0.021476308 0.053576861 0.50950676 4278190335
0.021745663 0.0536194 0.50992584 4278190335
0.022015017 0.053661942 0.51034492 4278190335
0.022284372 0.053704482 0.510764 4278190335
0.022553727 0.053747021 0.51118314 4278190335
0.02282308 0.053789563 0.51160222 4278190335
0.023092436 0.053832103 0.5120213 4278190335
0.023361789 0.053874642 0.51244038 4278190335
0.023631144 0.053917181 0.51285952 4278190335
0.023900498 0.053959724 0.5132786 4278190335
0.024169853 0.054002263 0.51369768 4278190335
0.024439208 0.054044802 0.51411676 4278190335
0.024708562 0.054087341 0.51453584 4278190335
0.024977917 0.054129884 0.51495498 4278190335
0.02524727 0.054172423 0.51537406 4278190335
0.025516625 0.054214962 0.51579314 4278190335
0.025785979 0.054257505 0.51621222 4278190335
0.026055334 0.054300044 0.51663131 4278190335
0.026324689 0.054342583 0.51705045 4278190335
0.026594043 0.054385122 0.51746953 4278190335
0.026863396 0.054427665 0.51788861 4278190335
0.027132751 0.054470204 0.51830769 4278190335
0.027402107 0.054512743 0.51872677 4278190335
0.02767146 0.054555286 0.51914591 4278190335
0.027940815 0.054597825 0.51956499 4278190335
0.028210171 0.054640364 0.51998407 4278190335
0.028479524 0.054682903 0.52040315 4278190335
0.028748877 0.054725446 0.52082229 4278190335
0.029018233 0.054767985 0.52124137 4278190335
0.029287588 0.054810524 0.52166045 4278190335
0.029556941 0.054853067 0.52207953 4278190335
0.029826296 0.054895606 0.52249861 4278190335
0.030095652 0.054938145 0.52291775 4278190335
0.030365005 0.054980684 0.52333683 4278190335
0.030634359 0.055023227 0.52375591 4278190335
0.030903714 0.055065766 0.52417499 4278190335
0.031173069 0.055108305 0.52459407 4278190335
0.031442422 0.055150844 0.52501321 4278190335
0.03171178 0.055193387 0.52543229 4278190335
0.031981133 0.055235926 0.52585137 4278190335
0.032250486 0.055278465 0.52627045 4278190335
0.03251984 0.055321008 0.52668953 4278190335
0.032789197 0.055363547 0.52710867 4278190335
0.03305855 0.055406086 0.52752775 4278190335
0.033327904 0.055448625 0.52794683 4278190335
0.033597261 0.055491168 0.52836591 4278190335
0.033866614 0.055533707 0.52878499 4278190335
0.034135967 0.055576246 0.52920413 4278190335
0.034405321 0.055618789 0.52962321 4278190335
0.034674674 0.055661328 0.53004229 4278190335
0.034944031 0.055703867 0.53046137 4278190335
0.035213385 0.055746406 0.53088051 4278190335
0.035482742 0.055788949 0.53129959 4278190335
0.035752095 0.055831488 0.53171867 4278190335
0.036021449 0.055874027 0.53213775 4278190335
0.036290802 0.05591657 0.53255683 4278190335
0.036560159 0.055959109 0.53297597 4278190335
0.036829513 0.056001648 0.53339505 4278190335
0.037098866 0.056044187 0.53381413 4278190335
0.037368223 0.05608673 0.53423321 4278190335
0.037637576 0.056129269 0.53465229 4278190335
0.03790693 0.056171808 0.53507143 4278190335
0.038176283 0.056214347 0.53549051 4278190335
0.038445637 0.05625689 0.53590959 4278190335
0.038714994 0.056299429 0.53632867 4278190335
0.038984347 0.056341968 0.53674781 4278190335
0.039253704 0.056384511 0.53716689 4278190335
0.039523058 0.05642705 0.53758597 4278190335
0.039792411 0.056469589 0.53800505 4278190335
0.040061764 0.056512129 0.53842413 4278190335
0.040331118 0.056554671 0.53884327 4278190335
0.040600475 0.05659721 0.53926235 4278190335
0.040869828 0.05663975 0.53968143 4278190335
0.041139185 0.056682292 0.54010051 4278190335
0.041408539 0.056724831 0.5405196 4278190335
0.041677892 0.056767371 0.54093874 4278190335
0.041947246 0.05680991 0.54135782 4278190335
0.042216599 0.056852452 0.5417769 4278190335
0.042485956 0.056894992 0.54219598 4278190335
0.042755309 0.056937531 0.54261506 4278190335
0.043024667 0.056980073 0.5430342 4278190335
0.04329402 0.057022613 0.54345328 4278190335
0.043563373 0.057065152 0.54387236 4278190335
0.043832727 0.057107691 0.54429144 4278190335
0.04410208 0.057150234 0.54471052 4278190335
0.044371437 0.057192773 0.54512966 4278190335
0.044640791 0.057235312 0.54554874 4278190335
0.044910148 0.057277851 0.54596782 4278190335
0.045179501 0.057320394 0.5463869 4278190335
0.045448855 0.057362933 0.54680604 4278190335
0.045718208 0.057405472 0.54722512 4278190335
0.045987561 0.057448015 0.5476442 4278190335
0.046256915 0.057490554 0.54806328 4278190335
0.046526276 0.057533093 0.54848236 4278190335
0.046795629 0.057575636 0.5489015 4278190335
0.047064982 0.057618175 0.54932058 4278190335
0.047334336 0.057660714 0.54973966 4278190335
0.020398891 0.0534067 0.50783038 4294967295
0.018782765 0.053151459 0.50531584 4294967295
0.017166637 0.05289622 0.5028013 4294967295
0.015550511 0.052640978 0.5002867 4294967295
0.013934385 0.052385736 0.49777216 4294967295
0.012318257 0.052130498 0.49525762 4294967295
0.010702131 0.051875256 0.49274305 4294967295
0.0090860045 0.051620014 0.4902285 4294967295
0.0074698785 0.051364772 0.48771393 4294967295
0.0058537507 0.051109534 0.48519939 4294967295
0.0042376239 0.050854292 0.48268482 4294967295
0.002621498 0.05059905 0.48017028 4294967295
0.001005372 0.050343812 0.47765571 4294967295
-0.00061075389 0.05008857 0.47514117 4294967295
-0.0022268817 0.049833328 0.4726266 4294967295
-0.0038430095 0.049578089 0.47011206 4294967295
-0.0054591335 0.049322847 0.46759748 4294967295
-0.0070752613 0.049067605 0.46508294 4294967295
-0.0086913891 0.048812367 0.4625684 4294967295
-0.010307515 0.048557125 0.46005383 4294967295
-0.011923643 0.048301883 0.45753929 4294967295
-0.013539767 0.048046641 0.45502472 4294967295
-0.015155895 0.047791403 0.45251018 4294967295
-0.016772022 0.047536161 0.44999561 4294967295
-0.018388147 0.047280919 0.44748107 4294967295
-0.020004274 0.047025681 0.4449665 4294967295
-0.021620398 0.046770439 0.44245195 4294967295
-0.02323653 0.046515197 0.43993738 4294967295
-0.024852654 0.046259955 0.43742284 4294967295
-0.026468778 0.046004716 0.43490827 4294967295
-0.02808491 0.045749474 0.43239373 4294967295
-0.029701034 0.045494236 0.42987919 4294967295
-0.03131716 0.045238994 0.42736462 4294967295
-0.032933287 0.044983752 0.42485005 4294967295
-0.034549415 0.04472851 0.42233551 4294967295
-0.036165543 0.044473272 0.41982096 4294967295
-0.037781671 0.04421803 0.41730639 4294967295
-0.039397791 0.043962788 0.41479182 4294967295
-0.041013919 0.04370755 0.41227728 4294967295
-0.042630039 0.043452308 0.40976274 4294967295
-0.044246174 0.043197066 0.40724817 4294967295
-0.045862295 0.042941824 0.40473363 4294967295
-0.047478423 0.042686585 0.40221906 4294967295
-0.04909455 0.042431343 0.39970452 4294967295
-0.050710678 0.042176105 0.39718994 4294967295
-0.052326806 0.041920863 0.3946754 4294967295
-0.053942934 0.041665621 0.39216083 4294967295
-0.055559054 0.041410379 0.38964629 4294967295
-0.057175182 0.041155141 0.38713175 4294967295
-0.05879131 0.040899899 0.38461718 4294967295
-0.060407437 0.040644657 0.38210261 4294967295
-0.062023565 0.040389419 0.37958807 4294967295
-0.063639686 0.040134177 0.37707353 4294967295
-0.065255813 0.039878935 0.37455899 4294967295
-0.066871949 0.039623693 0.37204438 4294967295
-0.068488069 0.039368454 0.36952984 4294967295
-0.070104197 0.039113212 0.3670153 4294967295
-0.071720324 0.038857974 0.36450076 4294967295
-0.073336445 0.038602732 0.36198619 4294967295
-0.074952573 0.03834749 0.35947162 4294967295
-0.076568708 0.038092248 0.35695708 4294967295
-0.078184836 0.037837006 0.35444251 4294967295
-0.079800956 0.037581768 0.35192797 4294967295
-0.081417084 0.037326526 0.34941339 4294967295
-0.083033204 0.037071288 0.34689885 4294967295
-0.084649332 0.036816046 0.34438431 4294967295
-0.086265467 0.036560804 0.34186974 4294967295
-0.087881595 0.036305562 0.33935517 4294967295
-0.089497715 0.03605032 0.33684063 4294967295
-0.091113843 0.035795081 0.33432609 4294967295
-0.092729971 0.035539843 0.33181152 4294967295
-0.094346091 0.035284601 0.32929698 4294967295
-0.095962226 0.035029359 0.32678241 4294967295
-0.097578354 0.034774117 0.32426786 4294967295
-0.099194475 0.034518875 0.32175329 4294967295
-0.1008106 0.034263637 0.31923875 4294967295
-0.10242673 0.034008395 0.31672418 4294967295
-0.10404285 0.033753157 0.31420964 4294967295
-0.10565897 0.033497915 0.3116951 4294967295
-0.10727511 0.033242673 0.3091805 4294967295
-0.10889124 0.032987431 0.30666596 4294967295
-0.11050736 0.032732189 0.30415142 4294967295
-0.11212348 0.03247695 0.30163687 4294967295
-0.11373962 0.032221712 0.2991223 4294967295
-0.11535574 0.03196647 0.29660773 4294967295
-0.11697187 0.031711228 0.29409319 4294967295
-0.11858799 0.031455986 0.29157865 4294967295
-0.12020413 0.031200746 0.28906408 4294967295
-0.12182025 0.030945506 0.28654951 4294967295
-0.12343637 0.030690264 0.28403497 4294967295
-0.12505251 0.030435024 0.28152043 4294967295
-0.12666865 0.030179782 0.27900586 4294967295
-0.12828477 0.029924542 0.27649128 4294967295
-0.12990089 0.029669302 0.27397674 4294967295
-0.13151701 0.02941406 0.2714622 4294967295
-0.13313314 0.029158819 0.26894766 4294967295
-0.13474926 0.028903579 0.26643309 4294967295
-0.1363654 0.028648337 0.26391852 4294967295
-0.13798152 0.028393097 0.26140398 4294967295
-0.13959765 0.028137855 0.25888944 4294967295
-0.14121377 0.027882615 0.25637487 4294967295
