# .PCD v0.7 - Point Cloud Data file format
VERSION 0.7
FIELDS x y z rgb
SIZE 4 4 4 4
TYPE F F F U
COUNT 1 1 1 1
WIDTH 978
HEIGHT 1
VIEWPOINT 0 0 0 1 0 0 0
POINTS 978
DATA ascii
0.0064378832 0.012325248 0.38800001 4279255584
0.007698108 0.012325248 0.38800001 4279192101
0.0089583332 0.012325248 0.38800001 4278865439
0.010244895 0.012357014 0.38900003 4279260451
0.011508367 0.012357014 0.38900003 4279523883
0.012804672 0.01238878 0.39000002 4279721264
0.014071392 0.01238878 0.39000002 4281956179
0.015377442 0.012420547 0.39100003 4279850803
0.007698108 0.013585899 0.38800001 4279059488
0.0089583332 0.013585899 0.38800001 4278929949
0.010244895 0.013620915 0.38900003 4278404372
0.011508367 0.013620915 0.38900003 4278602521
0.012804672 0.01365593 0.39000002 4278735134
0.014071392 0.01365593 0.39000002 4278208280
0.015377442 0.013690946 0.39100003 4279590959
0.016689988 0.013725961 0.39200002 4279656754
0.017963205 0.013725961 0.39200002 4279130408
0.019285493 0.013760975 0.39300001 4279525166
0.007678268 0.014808287 0.38700002 4279386141
0.0089583332 0.01484655 0.38800001 4278993177
0.010244895 0.014884816 0.38900003 4279059738
0.011508367 0.014884816 0.38900003 4278731800
0.012804672 0.014923079 0.39000002 4278929949
0.014071392 0.014923079 0.39000002 4278668574
0.015377442 0.014961344 0.39100003 4278800673
0.016689988 0.014999609 0.39200002 4278998052
0.017963205 0.014999609 0.39200002 4279064615
0.019285493 0.015037872 0.39300001 4279130408
0.020614278 0.015076137 0.39400002 4278604577
0.021893991 0.015076137 0.39400002 4278801956
0.007678268 0.016065689 0.38700002 4279516443
0.0089583332 0.016107202 0.38800001 4279255834
0.010218557 0.016107202 0.38800001 4279255834
0.011508367 0.016148716 0.38900003 4278402324
0.012804672 0.016190229 0.39000002 4279126560
0.014071392 0.016190229 0.39000002 4278864671
0.015377442 0.016231744 0.39100003 4278536476
0.016689988 0.016273256 0.39200002 4278865441
0.017963205 0.016273256 0.39200002 4278734367
0.019285493 0.016314769 0.39300001 4279063845
0.020614278 0.016356282 0.39400002 4278734880
0.021893991 0.016356282 0.39400002 4278405915
0.02323252 0.016397797 0.39500001 4278603294
0.02451548 0.016397797 0.39500001 4278735134
0.02579844 0.016397797 0.39500001 4278735134
0.027081402 0.016397797 0.39500001 4278272784
0.028364362 0.016397797 0.39500001 4278667542
0.007678268 0.017323092 0.38700002 4279451162
0.0089583332 0.017367853 0.38800001 4279124763
0.010218557 0.017367853 0.38800001 4278993177
0.011508367 0.017412616 0.38900003 4278731289
0.012804672 0.017457379 0.39000002 4278797595
0.014071392 0.017457379 0.39000002 4278929951
0.015377442 0.017502142 0.39100003 4278864671
0.016689988 0.017546903 0.39200002 4278734369
0.017963205 0.017546903 0.39200002 4278800162
0.019285493 0.017591666 0.39300001 4278800675
0.020614278 0.01763643 0.39400002 4278734882
0.021893991 0.01763643 0.39400002 4278668576
0.023173705 0.01763643 0.39400002 4278734367
0.02451548 0.017681191 0.39500001 4278602781
0.02579844 0.017681191 0.39500001 4278206997
0.027081402 0.017681191 0.39500001 4279716900
0.028436171 0.017725954 0.39600003 4278797080
0.029797435 0.017770715 0.39700001 4278799900
0.031165199 0.01781548 0.39800003 4278799646
0.032539453 0.017860241 0.39900002 4278602521
0.03392021 0.017905002 0.40000001 4278734107
0.057413835 0.019247878 0.43000001 4278470681
0.058810472 0.019247878 0.43000001 4278536474
0.060347132 0.019292641 0.43100002 4278733853
0.061890285 0.019337403 0.43200001 4278405402
0.063439943 0.019382168 0.43300003 4278669087
0.064846322 0.019382168 0.43300003 4278734880
0.066405714 0.019426929 0.43400002 4278931746
0.06797161 0.019471692 0.43500003 4278734371
0.007678268 0.018580494 0.38700002 4279450648
0.0089583332 0.018628506 0.38800001 4279190043
0.010218557 0.018628506 0.38800001 4278993177
0.011508367 0.018676519 0.38900003 4278928154
0.012804672 0.018724529 0.39000002 4278862875
0.014071392 0.018724529 0.39000002 4278600984
0.015377442 0.018772542 0.39100003 4278864669
0.016689988 0.018820552 0.39200002 4278865439
0.017963205 0.018820552 0.39200002 4278997025
0.019285493 0.018868564 0.39300001 4278865953
0.020614278 0.018916577 0.39400002 4278602781
0.021893991 0.018916577 0.39400002 4278470681
0.023173705 0.018916577 0.39400002 4278865693
0.02451548 0.018964587 0.39500001 4278799900
0.02579844 0.018964587 0.39500001 4278734107
0.027149964 0.0190126 0.39600003 4278796568
0.028436171 0.0190126 0.39600003 4279257117
0.029797435 0.01906061 0.39700001 4278928154
0.031165199 0.019108623 0.39800003 4278199040
0.032621007 0.019204644 0.40000001 4278199046
0.034005009 0.019252658 0.40100002 4278198789
0.035571601 0.019396693 0.40400001 4278199301
0.036975093 0.019444704 0.40500003 4278198530
0.038479622 0.019540727 0.40700001 4278197504
0.039899349 0.019588739 0.40800002 4278197248
0.041325577 0.01963675 0.40900001 4278200064
0.042758297 0.019684762 0.41000003 4278197760
0.044089977 0.019684762 0.41000003 4278197760
0.053985428 0.020404935 0.42500001 4278196224
0.055626374 0.02050096 0.42700002 4278196480
0.057280317 0.020596983 0.42900002 4278196736
0.058810472 0.020644994 0.43000001 4278196480
0.060347132 0.020693006 0.43100002 4278196992
0.061890285 0.020741018 0.43200001 4278198016
0.063293427 0.020741018 0.43200001 4278469661
0.064846322 0.020789029 0.43300003 4278602271
0.066405714 0.020837041 0.43400002 4278733857
0.06797161 0.020885052 0.43500003 4278864673
0.069384485 0.020885052 0.43500003 4286094987
0.0089583332 0.019889157 0.38800001 4279189271
0.010218557 0.019889157 0.38800001 4279058455
0.011508367 0.019940419 0.38900003 4279058968
0.012804672 0.019991679 0.39000002 4279059738
0.014071392 0.019991679 0.39000002 4278929179
0.015377442 0.020042941 0.39100003 4279061535
0.016689988 0.020094201 0.39200002 4278931232
0.017963205 0.020094201 0.39200002 4278931232
0.019285493 0.020145461 0.39300001 4278997025
0.020561956 0.020145461 0.39300001 4278997025
0.021893991 0.020196723 0.39400002 4278799646
0.023173705 0.020196723 0.39400002 4278799900
0.02451548 0.020247983 0.39500001 4278865693
0.02579844 0.020247983 0.39500001 4278930203
0.027149964 0.020299245 0.39600003 4278199552
0.028436171 0.020299245 0.39600003 4278993177
0.029797435 0.020350505 0.39700001 4278394376
0.031243503 0.020453027 0.39900002 4278787855
0.032621007 0.020504287 0.40000001 4278852881
0.034089811 0.020606807 0.40200001 4278852881
0.035571601 0.020709328 0.40400001 4278721295
0.036975093 0.02076059 0.40500003 4278852881
0.038479622 0.02086311 0.40700001 4278590222
0.039899349 0.020914372 0.40800002 4278196744
0.041325577 0.020965632 0.40900001 4279453476
0.042758297 0.021016894 0.41000003 4279256097
0.044197515 0.021068154 0.41100001 4279585062
0.045754012 0.021170676 0.41300002 4279716648
0.047323503 0.021273198 0.41500002 4279256097
0.048905987 0.021375719 0.41700003 4279322660
0.050501458 0.021478241 0.41900003 4279322914
0.052109923 0.021580761 0.42100003 4279059742
0.053858403 0.021734543 0.42400002 4278993949
0.055496104 0.021837065 0.42600003 4279125535
0.057146799 0.021939587 0.42800003 4279454498
0.058673706 0.021990847 0.42900002 4279125535
0.060207114 0.022042107 0.43000001 4279256867
0.061747022 0.022093369 0.43100002 4279585832
0.063293427 0.022144629 0.43200001 4279258664
0.064846322 0.022195891 0.43300003 4278732833
0.066405714 0.022247151 0.43400002 4278995746
0.06797161 0.022298412 0.43500003 4279521320
0.069384485 0.022298412 0.43500003 4286095241
0.007678268 0.0210953 0.38700002 4279385369
0.0089583332 0.021149809 0.38800001 4278861078
0.010218557 0.021149809 0.38800001 4278993177
0.011508367 0.021204319 0.38900003 4278993945
0.012804672 0.021258829 0.39000002 4278993945
0.014071392 0.021258829 0.39000002 4279126558
0.015377442 0.021313339 0.39100003 4278929949
0.016647412 0.021313339 0.39100003 4278799646
0.017963205 0.021367848 0.39200002 4279062818
0.019285493 0.021422358 0.39300001 4278997025
0.020561956 0.021422358 0.39300001 4278997025
0.021893991 0.021476869 0.39400002 4278536474
0.023173705 0.021476869 0.39400002 4278931232
0.02451548 0.021531377 0.39500001 4278865693
0.02579844 0.021531377 0.39500001 4279653926
0.027149964 0.021585887 0.39600003 4278794263
0.028436171 0.021585887 0.39600003 4279848488
0.029797435 0.021640398 0.39700001 4278657552
0.031243503 0.021749416 0.39900002 4278589709
0.032621007 0.021803927 0.40000001 4278392843
0.034089811 0.021912945 0.40200001 4278721295
0.035571601 0.022021966 0.40400001 4278985234
0.036975093 0.022076476 0.40500003 4279051027
0.038479622 0.022185495 0.40700001 4278853648
0.039899349 0.022240005 0.40800002 4278263306
0.041325577 0.022294514 0.40900001 4279257635
0.042758297 0.022349026 0.41000003 4278203148
0.044197515 0.022403535 0.41100001 4278200583
0.045754012 0.022512555 0.41300002 4278663701
0.047323503 0.022621574 0.41500002 4278201861
0.048905987 0.022730595 0.41700003 4278204945
0.05038093 0.022785103 0.41800001 4278200576
0.052109923 0.022948634 0.42100003 4279126560
0.053731378 0.023057653 0.42300001 4279192351
0.055496104 0.023221184 0.42600003 4278863386
0.057146799 0.023330202 0.42800003 4278666007
0.058673706 0.023384711 0.42900002 4278666007
0.060207114 0.023439221 0.43000001 4278731800
0.061747022 0.023493731 0.43100002 4278863386
0.063293427 0.02354824 0.43200001 4278469148
0.064846322 0.023602752 0.43300003 4278667294
0.066405714 0.02365726 0.43400002 4279522601
0.06797161 0.023711771 0.43500003 4279127843
0.069384485 0.023711771 0.43500003 4284846456
0.007698108 0.02241046 0.38800001 4279057176
0.0089583332 0.02241046 0.38800001 4278993179
0.010244895 0.02246822 0.38900003 4278993179
0.011508367 0.02246822 0.38900003 4278993947
0.012804672 0.022525977 0.39000002 4279126047
0.014071392 0.022525977 0.39000002 4279126558
0.015377442 0.022583738 0.39100003 4278995742
0.016647412 0.022583738 0.39100003 4278931232
0.017963205 0.022641497 0.39200002 4279062818
0.019285493 0.022699254 0.39300001 4278997279
0.020561956 0.022699254 0.39300001 4278865693
0.021893991 0.022757014 0.39400002 4278734107
0.023173705 0.022757014 0.39400002 4278799646
0.02451548 0.022814773 0.39500001 4278865439
0.02579844 0.022814773 0.39500001 4279456806
0.027149964 0.022872532 0.39600003 4279124252
0.028436171 0.022872532 0.39600003 4280374832
0.029797435 0.022930291 0.39700001 4278197510
0.031243503 0.023045808 0.39900002 4279052822
0.032621007 0.023103567 0.40000001 4278394380
0.034089811 0.023219084 0.40200001 4278195457
0.035571601 0.023334604 0.40400001 4278723855
0.037066389 0.023450121 0.40600002 4278263304
0.038479622 0.02350788 0.40700001 4279381787
0.039899349 0.023565639 0.40800002 4278198281
0.041325577 0.023623398 0.40900001 4279124765
0.042862587 0.023738915 0.41100001 4278199561
0.044305053 0.023796676 0.41200003 4278195968
0.045754012 0.023854433 0.41300002 4279056406
0.047323503 0.023969952 0.41500002 4278860308
0.048905987 0.02408547 0.41700003 4278203150
0.05038093 0.024143228 0.41800001 4279322914
0.051986147 0.024258746 0.42000002 4278466835
0.053731378 0.024432022 0.42300001 4278200327
0.055365831 0.02454754 0.42500001 4278334484
0.057013273 0.024663059 0.42700002 4278992666
0.058673706 0.024778577 0.42900002 4278334736
0.060207114 0.024836333 0.43000001 4278928156
0.061747022 0.024894094 0.43100002 4279059742
0.063293427 0.024951853 0.43200001 4278666781
0.064846322 0.025009612 0.43300003 4278733087
0.066405714 0.02506737 0.43400002 4278930464
0.06797161 0.025125131 0.43500003 4279061537
0.069384485 0.025125131 0.43500003 4285239932
0.007698108 0.023671111 0.38800001 4279254555
0.0089583332 0.023671111 0.38800001 4278927386
0.010244895 0.02373212 0.38900003 4278927386
0.011508367 0.02373212 0.38900003 4279257119
0.012804672 0.023793127 0.39000002 4278994461
0.014071392 0.023793127 0.39000002 4278798365
0.015377442 0.023854136 0.39100003 4279062048
0.016647412 0.023854136 0.39100003 4278931232
0.017963205 0.023915144 0.39200002 4279062818
0.019236421 0.023915144 0.39200002 4278931486
0.020561956 0.023976151 0.39300001 4278865693
0.021838421 0.023976151 0.39300001 4278734107
0.023173705 0.02403716 0.39400002 4278799646
0.024453416 0.02403716 0.39400002 4279062048
0.02579844 0.024098167 0.39500001 4279258144
0.027149964 0.024159176 0.39600003 4279913766
0.028436171 0.024159176 0.39600003 4279782180
0.029797435 0.024220183 0.39700001 4278528013
0.031243503 0.0243422 0.39900002 4278197767
0.032621007 0.024403207 0.40000001 4279448348
0.034089811 0.024525223 0.40200001 4278194945
0.035571601 0.02464724 0.40400001 4278591759
0.037066389 0.024769256 0.40600002 4280302889
0.038479622 0.024830263 0.40700001 4280303657
0.039899349 0.024891272 0.40800002 4278462220
0.041426618 0.025013288 0.41000003 4278595601
0.042862587 0.025074296 0.41100001 4278590472
0.044305053 0.025135305 0.41200003 4278196224
0.045864798 0.025257321 0.41400003 4278990613
0.047323503 0.025318328 0.41500002 4278203148
0.048905987 0.025440345 0.41700003 4278203148
0.05038093 0.025501352 0.41800001 4278269456
0.051986147 0.025623368 0.42000002 4278334482
0.053731378 0.025806392 0.42300001 4278662677
0.055365831 0.025928408 0.42500001 4278991644
0.057013273 0.026050424 0.42700002 4278465300
0.058673706 0.02617244 0.42900002 4278201098
0.060207114 0.026233448 0.43000001 4278202124
0.061747022 0.026294457 0.43100002 4278796316
0.063293427 0.026355464 0.43200001 4278929183
0.064846322 0.026416473 0.43300003 4278864671
0.066405714 0.02647748 0.43400002 4278929951
0.06797161 0.026538489 0.43500003 4279126047
0.069384485 0.026538489 0.43500003 4286291337
0.007698108 0.024931764 0.38800001 4279452193
0.0089814216 0.024996022 0.38900003 4279058972
0.010244895 0.024996022 0.38900003 4279058970
0.011508367 0.024996022 0.38900003 4278928154
0.012804672 0.025060279 0.39000002 4278994461
0.014071392 0.025060279 0.39000002 4278667292
0.015377442 0.025124537 0.39100003 4278996255
0.016647412 0.025124537 0.39100003 4278931232
0.017963205 0.025188792 0.39200002 4278931746
0.019236421 0.025188792 0.39200002 4278865953
0.020561956 0.02525305 0.39300001 4278471195
0.021838421 0.02525305 0.39300001 4278471195
0.023173705 0.025317308 0.39400002 4278799646
0.024453416 0.025317308 0.39400002 4279061535
0.02579844 0.025381563 0.39500001 4278664212
0.027081402 0.025381563 0.39500001 4279320861
0.028436171 0.025445823 0.39600003 4279452963
0.029797435 0.025510078 0.39700001 4278525199
0.031243503 0.025638593 0.39900002 4278656015
0.032621007 0.025702849 0.40000001 4278458636
0.034089811 0.025831364 0.40200001 4278590222
0.035571601 0.025959879 0.40400001 4278590222
0.037066389 0.026088392 0.40600002 4278590222
0.038479622 0.02615265 0.40700001 4278393867
0.039899349 0.026216907 0.40800002 4279711520
0.041426618 0.026345422 0.41000003 4279517473
0.042862587 0.026409678 0.41100001 4278197253
0.044305053 0.026473936 0.41200003 4279581982
0.045864798 0.026602451 0.41400003 4279320861
0.047323503 0.026666706 0.41500002 4279519521
0.048905987 0.026795221 0.41700003 4279256349
0.05038093 0.026859477 0.41800001 4279059740
0.051986147 0.026987992 0.42000002 4278928668
0.053604353 0.027116507 0.42200002 4278862875
0.055365831 0.027309278 0.42500001 4279126047
0.057013273 0.027437793 0.42700002 4279388707
0.058673706 0.027566306 0.42900002 4279388707
0.060207114 0.027630564 0.43000001 4279915051
0.061890285 0.027759077 0.43200001 4278204176
0.063439943 0.027823336 0.43300003 4279060767
0.064996079 0.027887592 0.43400002 4279061537
0.066405714 0.027887592 0.43400002 4279061537
0.06797161 0.02795185 0.43500003 4279125535
0.0077179489 0.026259923 0.38900003 4279189023
0.0089814216 0.026259923 0.38900003 4279058970
0.010244895 0.026259923 0.38900003 4279058970
0.011508367 0.026259923 0.38900003 4278993945
0.012804672 0.026327427 0.39000002 4279126045
0.014071392 0.026327427 0.39000002 4278864669
0.015377442 0.026394935 0.39100003 4278930716
0.016647412 0.026394935 0.39100003 4278734107
0.017963205 0.026462441 0.39200002 4278931486
0.019236421 0.026462441 0.39200002 4278931486
0.020561956 0.026529947 0.39300001 4278602267
0.021838421 0.026529947 0.39300001 4278602269
0.023173705 0.026597453 0.39400002 4278865439
0.024453416 0.026597453 0.39400002 4279061535
0.02579844 0.026664959 0.39500001 4278269454
0.027081402 0.026664959 0.39500001 4279584033
0.028436171 0.026732467 0.39600003 4279716135
0.029797435 0.026799971 0.39700001 4278787603
0.031165199 0.026867479 0.39800003 4279049492
0.032621007 0.027002489 0.40000001 4278983699
0.034089811 0.027137503 0.40200001 4279049492
0.035571601 0.027272515 0.40400001 4278655504
0.037066389 0.027407529 0.40600002 4278655504
0.038479622 0.027475033 0.40700001 4278787601
0.039997142 0.027610047 0.40900001 4280435245
0.041426618 0.027677553 0.41000003 4278197764
0.042862587 0.027745059 0.41100001 4278198792
0.044305053 0.027812567 0.41200003 4278198533
0.045864798 0.027947579 0.41400003 4278196736
0.047323503 0.028015085 0.41500002 4278196480
0.048905987 0.028150097 0.41700003 4278197248
0.05038093 0.028217603 0.41800001 4278196480
0.051986147 0.028352614 0.42000002 4278196224
0.053604353 0.028487628 0.42200002 4278195712
0.055235557 0.02862264 0.42400002 4278196736
0.057013273 0.028825158 0.42700002 4278199303
0.058673706 0.028960172 0.42900002 4278197760
0.060347132 0.029095184 0.43100002 4278333201
0.061890285 0.02916269 0.43200001 4278991644
0.063439943 0.029230196 0.43300003 4279127330
0.064996079 0.029297702 0.43400002 4279061537
0.066558726 0.02936521 0.43500003 4279521318
0.06797161 0.02936521 0.43500003 4281426753
0.0064544762 0.027523823 0.38900003 4279581984
0.0077179489 0.027523823 0.38900003 4279385887
0.0089814216 0.027523823 0.38900003 4279124763
0.010244895 0.027523823 0.38900003 4279124763
0.011508367 0.027523823 0.38900003 4279059740
0.012804672 0.027594578 0.39000002 4278994461
0.014071392 0.027594578 0.39000002 4279325222
0.015377442 0.027665334 0.39100003 4278667290
0.016647412 0.027665334 0.39100003 4278799900
0.017963205 0.027736088 0.39200002 4278931486
0.019236421 0.027736088 0.39200002 4278866207
0.020561956 0.027806843 0.39300001 4278734367
0.021838421 0.027806843 0.39300001 4278602783
0.023173705 0.027877599 0.39400002 4278799648
0.024453416 0.027877599 0.39400002 4278865441
0.02579844 0.027948353 0.39500001 4278270738
0.027081402 0.027948353 0.39500001 4278927384
0.028436171 0.028019112 0.39600003 4279322912
0.029797435 0.028089866 0.39700001 4279913516
0.031165199 0.028160622 0.39800003 4279451682
0.032621007 0.028302131 0.40000001 4279846186
0.034089811 0.028443642 0.40200001 4280240174
0.035571601 0.028585153 0.40400001 4280108840
0.036975093 0.028655909 0.40500003 4280109610
0.038479622 0.028797418 0.40700001 4279781158
0.039997142 0.028938929 0.40900001 4279584549
0.041426618 0.029009685 0.41000003 4279650857
0.042862587 0.029080439 0.41100001 4279585062
0.044412587 0.02922195 0.41300002 4279387937
0.045864798 0.029292706 0.41400003 4279256351
0.047323503 0.029363461 0.41500002 4279453730
0.048905987 0.029504972 0.41700003 4279387935
0.05038093 0.029575726 0.41800001 4279256349
0.051986147 0.029717239 0.42000002 4279190556
0.053604353 0.029858749 0.42200002 4279519521
0.055235557 0.03000026 0.42400002 4279651107
0.057013273 0.030212525 0.42700002 4279453728
0.058673706 0.030354036 0.42900002 4279125533
0.060347132 0.030495547 0.43100002 4279388705
0.061890285 0.030566301 0.43200001 4279191840
0.063586451 0.030707812 0.43400002 4278995744
0.065145843 0.030778568 0.43500003 4279456295
0.066558726 0.030778568 0.43500003 4278993443
0.06797161 0.030778568 0.43500003 4285635204
0.0064544762 0.028787725 0.38900003 4279450912
0.0077179489 0.028787725 0.38900003 4279386402
0.0089814216 0.028787725 0.38900003 4279058970
0.010244895 0.028787725 0.38900003 4279058970
0.011508367 0.028787725 0.38900003 4278928154
0.012804672 0.028861728 0.39000002 4278994461
0.014071392 0.028861728 0.39000002 4278929951
0.015377442 0.028935732 0.39100003 4279062050
0.016647412 0.028935732 0.39100003 4278931234
0.017963205 0.029009737 0.39200002 4278799646
0.019236421 0.029009737 0.39200002 4278800160
0.020561956 0.02908374 0.39300001 4278668574
0.021838421 0.02908374 0.39300001 4278602781
0.023173705 0.029157747 0.39400002 4278405402
0.024453416 0.029157747 0.39400002 4279456295
0.02579844 0.029231749 0.39500001 4278203662
0.027081402 0.029231749 0.39500001 4279388707
0.028436171 0.029305754 0.39600003 4279258146
0.029797435 0.029379759 0.39700001 4279061539
0.031165199 0.029453764 0.39800003 4278929953
0.032621007 0.029601771 0.40000001 4278798367
0.034089811 0.029749781 0.40200001 4278995746
0.035571601 0.029897789 0.40400001 4278995744
0.036975093 0.029971795 0.40500003 4278929951
0.038479622 0.030119803 0.40700001 4278929951
0.039997142 0.03026781 0.40900001 4279061537
0.041426618 0.030341817 0.41000003 4278733085
0.042862587 0.03041582 0.41100001 4278996257
0.044412587 0.030563829 0.41300002 4278733085
0.045864798 0.030637836 0.41400003 4278864671
0.047323503 0.030711839 0.41500002 4278733085
0.048905987 0.030859848 0.41700003 4278930464
0.05038093 0.030933851 0.41800001 4278995742
0.051986147 0.031081861 0.42000002 4278995742
0.053604353 0.03122987 0.42200002 4279061537
0.055235557 0.031377878 0.42400002 4278732572
0.057013273 0.03159989 0.42700002 4279192353
0.058810472 0.031821903 0.43000001 4279389732
0.060347132 0.031895909 0.43100002 4279258146
0.061890285 0.031969912 0.43200001 4279323939
0.063586451 0.032117922 0.43400002 4279323428
0.065145843 0.032191928 0.43500003 4278729501
0.066558726 0.032191928 0.43500003 4285568645
0.0064544762 0.030051624 0.38900003 4279582496
0.0077179489 0.030051624 0.38900003 4279386141
0.0089814216 0.030051624 0.38900003 4279320857
0.010244895 0.030051624 0.38900003 4279190041
0.011508367 0.030051624 0.38900003 4279322910
0.01277184 0.030051624 0.38900003 4279257631
0.014071392 0.030128878 0.39000002 4278930464
0.015377442 0.030206133 0.39100003 4278996257
0.016647412 0.030206133 0.39100003 4278865955
0.017963205 0.030283384 0.39200002 4278734369
0.019236421 0.030283384 0.39200002 4278931748
0.020561956 0.030360637 0.39300001 4278931234
0.021838421 0.030360637 0.39300001 4278668576
0.023173705 0.030437892 0.39400002 4278734369
0.024453416 0.030437892 0.39400002 4278799648
0.02579844 0.030515144 0.39500001 4278996257
0.027081402 0.030515144 0.39500001 4279061537
0.028436171 0.030592399 0.39600003 4279127330
0.02972238 0.030592399 0.39600003 4279061537
0.031086894 0.030669652 0.39700001 4279062050
0.032621007 0.030901412 0.40000001 4278864671
0.034089811 0.03105592 0.40200001 4278930464
0.035571601 0.031210426 0.40400001 4278996257
0.036975093 0.031287681 0.40500003 4278930464
0.038479622 0.031442188 0.40700001 4279127843
0.039997142 0.031596694 0.40900001 4278996259
0.041426618 0.031673949 0.41000003 4279062052
0.042862587 0.031751201 0.41100001 4279062052
0.044412587 0.031905707 0.41300002 4278996259
0.045864798 0.031982962 0.41400003 4278864673
0.047323503 0.032060217 0.41500002 4278931236
0.048905987 0.032214724 0.41700003 4278865443
0.05038093 0.032291975 0.41800001 4278996259
0.05186237 0.03236923 0.41900003 4278732320
0.053477332 0.032523736 0.42100003 4279323174
0.055105284 0.032678243 0.42300001 4278994209
0.057013273 0.032987259 0.42700002 4278860828
0.058810472 0.033219017 0.43000001 4279320357
0.060347132 0.033296272 0.43100002 4281490243
0.061890285 0.033373524 0.43200001 4284450416
0.063732967 0.033605289 0.43500003 4286291083
0.065295599 0.03368254 0.43600002 4286027911
0.0064544762 0.031315524 0.38900003 4279647777
0.0077179489 0.031315524 0.38900003 4279450910
0.0089814216 0.031315524 0.38900003 4279320348
0.010244895 0.031315524 0.38900003 4279386139
0.011508367 0.031315524 0.38900003 4279387935
0.01277184 0.031315524 0.38900003 4279388707
0.014071392 0.031396028 0.39000002 4279258148
0.015338113 0.031396028 0.39000002 4278929951
0.016647412 0.031476531 0.39100003 4278997027
0.017963205 0.031557031 0.39200002 4278997027
0.019236421 0.031557031 0.39200002 4278931234
0.020561956 0.031637534 0.39300001 4278931234
0.021838421 0.031637534 0.39300001 4278799650
0.023173705 0.031718038 0.39400002 4278602271
0.024453416 0.031718038 0.39400002 4278931236
0.025733128 0.031718038 0.39400002 4279062052
0.027081402 0.031798538 0.39500001 4278995746
0.028364362 0.031798538 0.39500001 4279061539
0.02972238 0.031879045 0.39600003 4279127332
0.03100859 0.031879045 0.39600003 4278929953
0.032621007 0.032201052 0.40000001 4278995746
0.034089811 0.032362059 0.40200001 4278995492
0.035571601 0.032523062 0.40400001 4279061285
0.036975093 0.032603566 0.40500003 4278995492
0.038479622 0.032764569 0.40700001 4278995492
0.039997142 0.032925576 0.40900001 4279061287
0.041426618 0.033006079 0.41000003 4278928931
0.042862587 0.033086583 0.41100001 4279192103
0.044412587 0.033247586 0.41300002 4278994211
0.045864798 0.03332809 0.41400003 4279520041
0.047323503 0.033408593 0.41500002 4279519271
0.048905987 0.033569597 0.41700003 4279650090
0.05038093 0.0336501 0.41800001 4281096257
0.05186237 0.033730604 0.41900003 4283661414
0.053477332 0.033891611 0.42100003 4286160517
0.055105284 0.034052614 0.42300001 4286555275
0.057013273 0.034374624 0.42700002 4285831556
0.058810472 0.034616131 0.43000001 4286159751
0.060347132 0.034696635 0.43100002 4285632894
0.061890285 0.034777138 0.43200001 4286027652
0.0064544762 0.032579426 0.38900003 4283922535
0.0077179489 0.032579426 0.38900003 4281685573
0.016647412 0.03274693 0.39100003 4279520041
0.017963205 0.032830682 0.39200002 4279914797
0.019236421 0.032830682 0.39200002 4279388453
0.020561956 0.03291443 0.39300001 4279585834
0.021838421 0.03291443 0.39300001 4279913775
0.023173705 0.032998186 0.39400002 4279913775
0.024453416 0.032998186 0.39400002 4279453994
0.025733128 0.032998186 0.39400002 4279716396
0.027081402 0.033081934 0.39500001 4280044848
0.028364362 0.033081934 0.39500001 4279715885
0.02972238 0.033165686 0.39600003 4279780908
0.03100859 0.033165686 0.39600003 4280109360
0.032621007 0.033500694 0.40000001 4280175666
0.034089811 0.033668198 0.40200001 4280373045
0.035571601 0.033835702 0.40400001 4280833596
0.036975093 0.033919454 0.40500003 4281885771
0.038479622 0.034086954 0.40700001 4282740312
0.039997142 0.034254458 0.40900001 4283529828
0.041426618 0.034338214 0.41000003 4284253297
0.042862587 0.034421962 0.41100001 4285371780
0.044412587 0.034589466 0.41300002 4286555538
0.045864798 0.034673218 0.41400003 4286883474
0.047323503 0.03475697 0.41500002 4286620302
0.048905987 0.034924474 0.41700003 4286620302
0.05038093 0.035008226 0.41800001 4286159751
0.05186237 0.035091978 0.41900003 4286225544
0.033902638 0.025141384 0.40501079 4294967295
0.033902638 0.025141384 0.40501079 4294901760
0.033928934 0.024642618 0.40503407 4294901760
0.033955235 0.024143852 0.40505731 4294901760
0.033981532 0.023645088 0.40508059 4294901760
0.034007832 0.023146322 0.40510383 4294901760
0.034034129 0.022647556 0.40512711 4294901760
0.03406043 0.02214879 0.40515035 4294901760
0.034086727 0.021650024 0.40517363 4294901760
0.034113023 0.02115126 0.40519688 4294901760
0.034139324 0.020652492 0.40522015 4294901760
0.034165621 0.020153727 0.4052434 4294901760
0.034191921 0.019654961 0.40526667 4294901760
0.034218218 0.019156195 0.40528995 4294901760
0.034244515 0.018657431 0.40531319 4294901760
0.034270816 0.018158663 0.40533647 4294901760
0.034297112 0.017659899 0.40535972 4294901760
0.034323413 0.017161133 0.40538299 4294901760
0.03434971 0.016662367 0.40540624 4294901760
0.03437601 0.016163601 0.40542951 4294901760
0.034402307 0.015664835 0.40545276 4294901760
0.034428604 0.015166069 0.40547603 4294901760
0.034454904 0.014667304 0.40549931 4294901760
0.034481201 0.014168538 0.40552256 4294901760
0.034507502 0.013669772 0.40554583 4294901760
0.034533799 0.013171007 0.40556908 4294901760
0.034560099 0.012672241 0.40559235 4294901760
0.034586396 0.012173476 0.4056156 4294901760
0.034612693 0.011674709 0.40563887 4294901760
0.034638993 0.011175944 0.40566212 4294901760
0.03466529 0.010677178 0.4056854 4294901760
0.034691591 0.010178411 0.40570867 4294901760
0.034717888 0.0096796462 0.40573192 4294901760
0.034744184 0.0091808811 0.40575519 4294901760
0.034770485 0.008682115 0.40577844 4294901760
0.034796782 0.0081833489 0.40580171 4294901760
0.034823082 0.0076845828 0.40582496 4294901760
0.034849379 0.0071858168 0.40584823 4294901760
0.03487568 0.0066870525 0.40587148 4294901760
0.034901977 0.0061882865 0.40589476 4294901760
0.034928273 0.0056895204 0.405918 4294901760
0.034954574 0.0051907543 0.40594128 4294901760
0.034980871 0.0046919882 0.40596455 4294901760
0.035007171 0.004193224 0.4059878 4294901760
0.035033468 0.0036944579 0.40601107 4294901760
0.035059765 0.0031956919 0.40603432 4294901760
0.035086066 0.0026969258 0.4060576 4294901760
0.035112362 0.0021981597 0.40608084 4294901760
0.035138663 0.0016993936 0.40610412 4294901760
0.03516496 0.0012006294 0.40612736 4294901760
0.03519126 0.00070186332 0.40615064 4294901760
0.035217557 0.00020309724 0.40617388 4294901760
0.035243854 -0.00029566884 0.40619716 4294901760
0.035270154 -0.00079443306 0.40622044 4294901760
0.035296451 -0.0012931991 0.40624368 4294901760
0.035322752 -0.0017919671 0.40626696 4294901760
0.035349049 -0.0022907313 0.4062902 4294901760
0.035375349 -0.0027894974 0.40631348 4294901760
0.035401646 -0.0032882635 0.40633672 4294901760
0.035427943 -0.0037870277 0.40636 4294901760
0.035454243 -0.0042857938 0.40638325 4294901760
0.03548054 -0.0047845617 0.40640652 4294901760
0.035506841 -0.0052833259 0.4064298 4294901760
0.035533138 -0.005782092 0.40645304 4294901760
0.035559434 -0.0062808581 0.40647632 4294901760
0.035585735 -0.0067796223 0.40649956 4294901760
0.035612032 -0.0072783865 0.40652284 4294901760
0.035638332 -0.0077771544 0.40654609 4294901760
0.035664629 -0.0082759224 0.40656936 4294901760
0.03569093 -0.0087746866 0.40659261 4294901760
0.035717227 -0.0092734508 0.40661588 4294901760
0.035743523 -0.0097722188 0.40663916 4294901760
0.035769824 -0.010270983 0.4066624 4294901760
0.035796121 -0.010769751 0.40668568 4294901760
0.035822421 -0.011268515 0.40670893 4294901760
0.035848718 -0.011767279 0.4067322 4294901760
0.035875015 -0.012266047 0.40675545 4294901760
0.035901316 -0.012764812 0.40677872 4294901760
0.035927612 -0.013263576 0.40680197 4294901760
0.035953913 -0.013762344 0.40682524 4294901760
0.03598021 -0.014261112 0.40684849 4294901760
0.03600651 -0.014759876 0.40687177 4294901760
0.036032807 -0.01525864 0.40689504 4294901760
0.036059104 -0.015757408 0.40691829 4294901760
0.036085404 -0.016256172 0.40694156 4294901760
0.036111701 -0.016754936 0.40696481 4294901760
0.036138002 -0.017253704 0.40698808 4294901760
0.036164299 -0.017752469 0.40701133 4294901760
0.036190599 -0.018251237 0.40703461 4294901760
0.036216896 -0.018750001 0.40705785 4294901760
0.036243193 -0.019248765 0.40708113 4294901760
0.036269493 -0.019747533 0.40710437 4294901760
0.03629579 -0.020246301 0.40712765 4294901760
0.036322091 -0.020745065 0.40715092 4294901760
0.036348388 -0.021243829 0.40717417 4294901760
0.036374688 -0.021742597 0.40719745 4294901760
0.036400985 -0.022241361 0.40722069 4294901760
0.036427282 -0.022740126 0.40724397 4294901760
0.036453582 -0.023238894 0.40726721 4294901760
0.036479879 -0.023737658 0.40729049 4294901760
0.03650618 -0.024236426 0.40731373 4294901760
0.036532477 -0.02473519 0.40733701 4294901760
0.033902638 0.025141384 0.40501079 4278255360
0.034283005 0.025176488 0.40533343 4278255360
0.034663368 0.025211589 0.40565604 4278255360
0.035043735 0.025246693 0.40597868 4278255360
0.035424102 0.025281796 0.40630132 4278255360
0.035804465 0.025316898 0.40662393 4278255360
0.036184832 0.025352001 0.40694657 4278255360
0.036565199 0.025387105 0.40726921 4278255360
0.036945563 0.025422206 0.40759182 4278255360
0.03732593 0.02545731 0.40791446 4278255360
0.037706297 0.025492413 0.4082371 4278255360
0.03808666 0.025527515 0.40855971 4278255360
0.038467027 0.025562618 0.40888235 4278255360
0.038847394 0.025597721 0.40920496 4278255360
0.039227758 0.025632823 0.4095276 4278255360
0.039608125 0.025667926 0.40985024 4278255360
0.039988488 0.02570303 0.41017285 4278255360
0.040368855 0.025738131 0.41049549 4278255360
0.040749222 0.025773235 0.41081813 4278255360
0.041129589 0.025808338 0.41114074 4278255360
0.041509952 0.02584344 0.41146338 4278255360
0.041890319 0.025878543 0.41178602 4278255360
0.042270683 0.025913646 0.41210863 4278255360
0.04265105 0.025948748 0.41243127 4278255360
0.043031417 0.025983851 0.41275391 4278255360
0.043411784 0.026018955 0.41307652 4278255360
0.043792147 0.026054056 0.41339916 4278255360
0.044172514 0.02608916 0.4137218 4278255360
0.044552878 0.026124263 0.41404441 4278255360
0.044933245 0.026159365 0.41436705 4278255360
0.045313612 0.026194468 0.41468966 4278255360
0.045693979 0.026229572 0.4150123 4278255360
0.046074342 0.026264673 0.41533494 4278255360
0.046454709 0.026299777 0.41565755 4278255360
0.046835072 0.02633488 0.41598019 4278255360
0.047215439 0.026369981 0.41630283 4278255360
0.047595806 0.026405085 0.41662544 4278255360
0.047976173 0.026440188 0.41694808 4278255360
0.048356537 0.02647529 0.41727072 4278255360
0.0487369 0.026510393 0.41759333 4278255360
0.049117267 0.026545497 0.41791597 4278255360
0.049497634 0.026580598 0.41823861 4278255360
0.049878001 0.026615702 0.41856122 4278255360
0.050258368 0.026650805 0.41888386 4278255360
0.050638732 0.026685908 0.4192065 4278255360
0.051019095 0.02672101 0.41952911 4278255360
0.051399462 0.026756113 0.41985175 4278255360
0.051779829 0.026791215 0.42017439 4278255360
0.052160196 0.026826318 0.420497 4278255360
0.052540563 0.026861422 0.42081964 4278255360
0.052920926 0.026896525 0.42114228 4278255360
0.05330129 0.026931627 0.42146489 4278255360
0.053681657 0.02696673 0.42178753 4278255360
0.054062024 0.027001832 0.42211014 4278255360
0.054442391 0.027036935 0.42243278 4278255360
0.054822758 0.027072039 0.42275542 4278255360
0.055203121 0.027107142 0.42307803 4278255360
0.055583484 0.027142243 0.42340067 4278255360
0.055963852 0.027177347 0.42372331 4278255360
0.056344219 0.027212448 0.42404592 4278255360
0.056724586 0.027247552 0.42436856 4278255360
0.057104953 0.027282655 0.4246912 4278255360
0.057485316 0.027317759 0.42501381 4278255360
0.057865679 0.02735286 0.42533645 4278255360
0.058246046 0.027387964 0.42565909 4278255360
0.058626413 0.027423065 0.4259817 4278255360
0.05900678 0.027458169 0.42630434 4278255360
0.059387147 0.027493272 0.42662698 4278255360
0.059767511 0.027528375 0.42694959 4278255360
0.060147874 0.027563477 0.42727223 4278255360
0.060528241 0.02759858 0.42759484 4278255360
0.060908608 0.027633682 0.42791748 4278255360
0.061288975 0.027668785 0.42824012 4278255360
0.061669342 0.027703889 0.42856276 4278255360
0.062049706 0.027738992 0.42888537 4278255360
0.062430069 0.027774094 0.42920801 4278255360
0.062810436 0.027809197 0.42953062 4278255360
0.063190803 0.027844299 0.42985326 4278255360
0.06357117 0.027879402 0.4301759 4278255360
0.063951537 0.027914505 0.43049851 4278255360
0.064331904 0.027949609 0.43082115 4278255360
0.064712264 0.02798471 0.43114379 4278255360
0.065092631 0.028019814 0.4314664 4278255360
0.065472998 0.028054917 0.43178904 4278255360
0.065853357 0.028090019 0.43211168 4278255360
0.066233724 0.028125122 0.43243429 4278255360
0.066614091 0.028160226 0.43275693 4278255360
0.066994458 0.028195327 0.43307957 4278255360
0.067374825 0.028230431 0.43340218 4278255360
0.067755193 0.028265534 0.43372482 4278255360
0.06813556 0.028300636 0.43404746 4278255360
0.068515927 0.028335739 0.43437007 4278255360
0.068896294 0.028370842 0.43469271 4278255360
0.069276653 0.028405944 0.43501532 4278255360
0.06965702 0.028441047 0.43533796 4278255360
0.070037387 0.028476151 0.4356606 4278255360
0.070417747 0.028511252 0.43598321 4278255360
0.070798114 0.028546356 0.43630585 4278255360
0.071178481 0.028581459 0.43662849 4278255360
0.071558848 0.028616561 0.4369511 4278255360
0.071939215 0.028651664 0.43727374 4278255360
0.033902638 0.025141384 0.40501079 4278190335
0.033712156 0.025152896 0.40547293 4278190335
0.033521675 0.025164407 0.40593508 4278190335
0.033331193 0.025175918 0.40639725 4278190335
0.033140711 0.025187429 0.4068594 4278190335
0.03295023 0.02519894 0.40732154 4278190335
0.032759748 0.025210451 0.40778369 4278190335
0.032569267 0.025221962 0.40824586 4278190335
0.032378785 0.025233472 0.40870801 4278190335
0.032188304 0.025244983 0.40917015 4278190335
0.031997818 0.025256494 0.4096323 4278190335
0.031807337 0.025268005 0.41009447 4278190335
0.031616855 0.025279516 0.41055661 4278190335
0.031426374 0.025291028 0.41101876 4278190335
0.031235892 0.025302539 0.4114809 4278190335
0.031045411 0.02531405 0.41194308 4278190335
0.030854929 0.025325561 0.41240522 4278190335
0.030664448 0.025337072 0.41286737 4278190335
0.030473966 0.025348583 0.41332951 4278190335
0.030283485 0.025360094 0.41379169 4278190335
0.030093003 0.025371606 0.41425383 4278190335
0.029902522 0.025383117 0.41471598 4278190335
0.02971204 0.025394626 0.41517812 4278190335
0.029521558 0.025406137 0.41564029 4278190335
0.029331077 0.025417648 0.41610244 4278190335
0.029140593 0.025429159 0.41656458 4278190335
0.028950112 0.025440671 0.41702673 4278190335
0.02875963 0.025452182 0.41748887 4278190335
0.028569149 0.025463693 0.41795105 4278190335
0.028378667 0.025475204 0.41841319 4278190335
0.028188184 0.025486715 0.41887534 4278190335
0.027997702 0.025498226 0.41933748 4278190335
0.027807221 0.025509737 0.41979966 4278190335
0.027616739 0.025521249 0.4202618 4278190335
0.027426258 0.02553276 0.42072394 4278190335
0.027235776 0.025544271 0.42118609 4278190335
0.027045295 0.02555578 0.42164826 4278190335
0.026854813 0.025567291 0.42211041 4278190335
0.026664332 0.025578802 0.42257255 4278190335
0.02647385 0.025590314 0.4230347 4278190335
0.026283368 0.025601825 0.42349687 4278190335
0.026092887 0.025613336 0.42395902 4278190335
0.025902405 0.025624847 0.42442116 4278190335
0.025711922 0.025636358 0.42488331 4278190335
0.02552144 0.025647869 0.42534548 4278190335
0.025330959 0.02565938 0.42580763 4278190335
0.025140477 0.025670892 0.42626977 4278190335
0.024949996 0.025682403 0.42673191 4278190335
0.024759514 0.025693914 0.42719406 4278190335
0.024569031 0.025705425 0.42765623 4278190335
0.024378549 0.025716934 0.42811838 4278190335
0.024188068 0.025728446 0.42858052 4278190335
0.023997586 0.025739957 0.42904267 4278190335
0.023807105 0.025751468 0.42950484 4278190335
0.023616623 0.025762979 0.42996699 4278190335
0.023426142 0.02577449 0.43042913 4278190335
0.02323566 0.025786001 0.43089128 4278190335
0.023045179 0.025797512 0.43135345 4278190335
0.022854697 0.025809024 0.43181559 4278190335
0.022664215 0.025820535 0.43227774 4278190335
0.022473732 0.025832046 0.43273988 4278190335
0.02228325 0.025843557 0.43320206 4278190335
0.022092769 0.025855068 0.4336642 4278190335
0.021902287 0.025866579 0.43412635 4278190335
0.021711806 0.02587809 0.43458849 4278190335
0.021521324 0.0258896 0.43505067 4278190335
0.021330841 0.025901111 0.43551281 4278190335
0.021140359 0.025912622 0.43597496 4278190335
0.020949878 0.025924133 0.4364371 4278190335
0.020759396 0.025935644 0.43689924 4278190335
0.020568915 0.025947155 0.43736142 4278190335
0.020378433 0.025958667 0.43782356 4278190335
0.020187952 0.025970178 0.43828571 4278190335
0.01999747 0.025981689 0.43874788 4278190335
0.019806989 0.0259932 0.43921003 4278190335
0.019616507 0.026004711 0.43967217 4278190335
0.019426025 0.026016222 0.44013432 4278190335
0.019235544 0.026027733 0.44059646 4278190335
0.019045062 0.026039245 0.44105864 4278190335
0.018854579 0.026050754 0.44152078 4278190335
0.018664097 0.026062265 0.44198292 4278190335
0.018473616 0.026073776 0.4424451 4278190335
0.018283134 0.026085287 0.44290724 4278190335
0.018092653 0.026096798 0.44336939 4278190335
0.017902171 0.02610831 0.44383153 4278190335
0.017711688 0.026119821 0.44429368 4278190335
0.017521206 0.026131332 0.44475585 4278190335
0.017330725 0.026142843 0.445218 4278190335
0.017140243 0.026154354 0.44568014 4278190335
0.016949762 0.026165865 0.44614229 4278190335
0.01675928 0.026177377 0.44660446 4278190335
0.016568799 0.026188888 0.44706661 4278190335
0.016378317 0.026200399 0.44752875 4278190335
0.016187835 0.02621191 0.44799089 4278190335
0.015997354 0.026223419 0.44845307 4278190335
0.015806872 0.02623493 0.44891521 4278190335
0.015616391 0.026246442 0.44937736 4278190335
0.015425907 0.026257953 0.4498395 4278190335
0.015235426 0.026269464 0.45030165 4278190335
0.015044944 0.026280975 0.45076382 4278190335
0.014854463 0.026292486 0.45122597 4278190335
0.033902638 0.025141384 0.40501079 4294967295
0.035045527 0.025072318 0.40223789 4294967295
0.03618842 0.025003253 0.39946496 4294967295
0.037331309 0.024934186 0.39669207 4294967295
0.038474198 0.024865121 0.39391914 4294967295
0.039617091 0.024796054 0.39114624 4294967295
0.040759981 0.024726989 0.38837332 4294967295
0.04190287 0.024657922 0.38560042 4294967295
0.043045763 0.024588855 0.38282752 4294967295
0.044188652 0.02451979 0.38005459 4294967295
0.045331545 0.024450723 0.3772817 4294967295
0.046474434 0.024381658 0.37450877 4294967295
0.047617324 0.024312591 0.37173587 4294967295
0.048760213 0.024243524 0.36896294 4294967295
0.049903106 0.024174459 0.36619005 4294967295
0.051045999 0.024105392 0.36341715 4294967295
0.052188888 0.024036327 0.36064422 4294967295
0.053331777 0.02396726 0.35787132 4294967295
0.054474667 0.023898195 0.3550984 4294967295
0.055617556 0.023829129 0.3523255 4294967295
0.056760449 0.023760062 0.34955257 4294967295
0.057903338 0.023690997 0.34677967 4294967295
0.059046231 0.02362193 0.34400678 4294967295
0.06018912 0.023552865 0.34123385 4294967295
0.06133201 0.023483798 0.33846095 4294967295
0.062474899 0.023414731 0.33568802 4294967295
0.063617788 0.023345666 0.33291513 4294967295
0.064760685 0.023276599 0.3301422 4294967295
0.065903574 0.023207534 0.3273693 4294967295
0.067046463 0.023138467 0.32459641 4294967295
0.068189353 0.0230694 0.32182348 4294967295
0.069332242 0.023000335 0.31905058 4294967295
0.070475131 0.02293127 0.31627765 4294967295
0.071618028 0.022862203 0.31350476 4294967295
0.072760917 0.022793137 0.31073183 4294967295
0.073903807 0.022724072 0.30795893 4294967295
0.075046703 0.022655005 0.30518603 4294967295
0.076189592 0.02258594 0.30241311 4294967295
0.077332482 0.022516873 0.29964021 4294967295
0.078475371 0.022447806 0.29686728 4294967295
0.07961826 0.022378741 0.29409438 4294967295
0.08076115 0.022309674 0.29132146 4294967295
0.081904039 0.022240609 0.28854856 4294967295
0.083046928 0.022171542 0.28577566 4294967295
0.084189817 0.022102475 0.28300273 4294967295
0.085332707 0.02203341 0.28022984 4294967295
0.086475603 0.021964343 0.27745691 4294967295
0.087618493 0.021895278 0.27468401 4294967295
0.088761382 0.021826211 0.27191108 4294967295
0.089904279 0.021757144 0.26913819 4294967295
0.091047168 0.021688079 0.26636529 4294967295
0.092190057 0.021619014 0.26359236 4294967295
0.093332946 0.021549948 0.26081946 4294967295
0.094475836 0.021480881 0.25804657 4294967295
0.095618725 0.021411816 0.25527364 4294967295
0.096761622 0.021342749 0.25250071 4294967295
0.097904511 0.021273684 0.24972782 4294967295
0.0990474 0.021204617 0.2469549 4294967295
0.10019029 0.02113555 0.24418199 4294967295
0.10133318 0.021066485 0.24140909 4294967295
0.10247608 0.020997418 0.23863617 4294967295
0.10361896 0.020928353 0.23586325 4294967295
0.10476185 0.020859286 0.23309036 4294967295
0.10590474 0.020790219 0.23031744 4294967295
0.10704763 0.020721154 0.22754453 4294967295
0.10819052 0.020652089 0.22477163 4294967295
0.10933342 0.020583022 0.22199871 4294967295
0.11047631 0.020513956 0.21922579 4294967295
0.1116192 0.020444889 0.21645288 4294967295
0.11276209 0.020375824 0.21367998 4294967295
0.11390498 0.020306759 0.21090707 4294967295
0.11504786 0.020237692 0.20813416 4294967295
0.11619076 0.020168625 0.20536125 4294967295
0.11733365 0.020099558 0.20258833 4294967295
0.11847654 0.020030493 0.19981542 4294967295
0.11961943 0.019961428 0.19704252 4294967295
0.12076232 0.019892361 0.19426961 4294967295
0.12190521 0.019823294 0.1914967 4294967295
0.1230481 0.019754229 0.18872379 4294967295
0.12419099 0.019685162 0.18595088 4294967295
0.12533388 0.019616097 0.18317796 4294967295
0.12647676 0.01954703 0.18040505 4294967295
0.12761965 0.019477963 0.17763215 4294967295
0.12876254 0.019408898 0.17485924 4294967295
0.12990543 0.019339833 0.17208633 4294967295
0.13104834 0.019270767 0.1693134 4294967295
0.13219123 0.0192017 0.1665405 4294967295
0.13333412 0.019132633 0.16376759 4294967295
0.134477 0.019063568 0.16099468 4294967295
0.13561989 0.018994503 0.15822178 4294967295
0.13676278 0.018925436 0.15544887 4294967295
0.13790569 0.018856369 0.15267596 4294967295
0.13904858 0.018787302 0.14990303 4294967295
0.14019147 0.018718237 0.14713013 4294967295
0.14133435 0.018649172 0.14435723 4294967295
0.14247724 0.018580105 0.14158431 4294967295
0.14362013 0.018511038 0.13881141 4294967295
0.14476302 0.018441973 0.13603848 4294967295
0.14590591 0.018372906 0.13326558 4294967295
0.1470488 0.018303841 0.13049266 4294967295
0.14819169 0.018234774 0.12771976 4294967295
