# .PCD v0.7 - Point Cloud Data file format
VERSION 0.7
FIELDS x y z rgb
SIZE 4 4 4 4
TYPE F F F U
COUNT 1 1 1 1
WIDTH 972
HEIGHT 1
VIEWPOINT 0 0 0 1 0 0 0
POINTS 972
DATA ascii
0.027972691 -0.005598302 0.40800002 4279706393
0.02936968 -0.0056120232 0.40900001 4279640600
0.026647503 -0.0042726686 0.40800002 4279772186
0.028041249 -0.0042831404 0.40900001 4279377428
0.029441491 -0.0042936131 0.41000003 4279509014
0.030848226 -0.0043040849 0.41100001 4279838746
0.032339767 -0.0043250294 0.41300002 4279772953
0.093508527 -0.0044925851 0.42900002 4282937687
0.094901919 -0.0044925851 0.42900002 4283135066
0.096295312 -0.0044925851 0.42900002 4283135066
0.097688705 -0.0044925851 0.42900002 4284450414
0.099313058 -0.0045030573 0.43000001 4285305723
0.026712814 -0.0029542579 0.40900001 4279641113
0.028109811 -0.002961481 0.41000003 4279312150
0.029513298 -0.0029687041 0.41100001 4279575320
0.030923283 -0.0029759274 0.41200003 4279706393
0.032339767 -0.0029831503 0.41300002 4279706393
0.035107419 -0.0029903736 0.41400003 4279576858
0.036427312 -0.0028820266 0.39900002 4278731802
0.037723266 -0.0028820266 0.39900002 4278799648
0.03901922 -0.0028820266 0.39900002 4278733855
0.040315174 -0.0028820266 0.39900002 4279456808
0.041611124 -0.0028820266 0.39900002 4279390250
0.048934586 -0.0029325886 0.40600002 4280177969
0.050253276 -0.0029325886 0.40600002 4280177969
0.051698986 -0.0029398117 0.40700001 4280177969
0.053020924 -0.0029398117 0.40700001 4280046897
0.054476384 -0.0029470348 0.40800002 4279520041
0.055801567 -0.0029470348 0.40800002 4279849006
0.057266768 -0.0029542579 0.40900001 4279784238
0.092115134 -0.0030987205 0.42900002 4279652904
0.093508527 -0.0030987205 0.42900002 4279784492
0.094901919 -0.0030987205 0.42900002 4279586859
0.096295312 -0.0030987205 0.42900002 4279389480
0.097688705 -0.0030987205 0.42900002 4279521066
0.099313058 -0.0031059433 0.43000001 4279849518
0.10070969 -0.0031059433 0.43000001 4279914797
0.1023438 -0.0031131667 0.43100002 4279585832
0.10374369 -0.0031131667 0.43100002 4279980592
0.10514357 -0.0031131667 0.43100002 4280110641
0.026712814 -0.0016253751 0.40900001 4279444248
0.028109811 -0.0016293493 0.41000003 4279246355
0.029513298 -0.0016333233 0.41100001 4279443734
0.030923283 -0.0016372973 0.41200003 4279377941
0.032339767 -0.0016412713 0.41300002 4279706393
0.033762742 -0.0016452454 0.41400003 4279838746
0.035107419 -0.0016452454 0.41400003 4279641881
0.036427312 -0.001585635 0.39900002 4278531091
0.037723266 -0.001585635 0.39900002 4278600216
0.03901922 -0.001585635 0.39900002 4278469400
0.040315174 -0.001585635 0.39900002 4278535704
0.041611124 -0.001585635 0.39900002 4278469911
0.042907074 -0.001585635 0.39900002 4282943839
0.044203028 -0.001585635 0.39900002 4280839233
0.047381338 -0.0016055051 0.40400001 4279062822
0.048814058 -0.0016094792 0.40500003 4278931234
0.050253276 -0.0016134531 0.40600002 4279193636
0.051571961 -0.0016134531 0.40600002 4279062050
0.053020924 -0.0016174271 0.40700001 4279194406
0.054342862 -0.0016174271 0.40700001 4278997025
0.055801567 -0.0016214012 0.40800002 4278865439
0.057126753 -0.0016214012 0.40800002 4278931232
0.058595203 -0.0016253751 0.40900001 4278931232
0.059777126 -0.0016214012 0.40800002 4278997279
0.090721741 -0.0017048557 0.42900002 4278733083
0.092115134 -0.0017048557 0.42900002 4279127841
0.093508527 -0.0017048557 0.42900002 4278733337
0.094901919 -0.0017048557 0.42900002 4278864923
0.096295312 -0.0017048557 0.42900002 4278996509
0.097688705 -0.0017048557 0.42900002 4278930716
0.099313058 -0.0017088297 0.43000001 4278864669
0.10070969 -0.0017088297 0.43000001 4279193121
0.10210633 -0.0017088297 0.43000001 4278666777
0.10374369 -0.0017128037 0.43100002 4279193121
0.10514357 -0.0017128037 0.43100002 4279521320
0.10654346 -0.0017128037 0.43100002 4279389734
0.025260255 -0.00029504253 0.40700001 4279904285
0.026647503 -0.00029576744 0.40800002 4279509014
0.028109811 -0.00029721731 0.41000003 4279311635
0.029441491 -0.00029721731 0.41000003 4279706393
0.030848226 -0.0002979422 0.41100001 4279706393
0.032339767 -0.00029939206 0.41300002 4279837979
0.033762742 -0.00030011698 0.41400003 4279838233
0.035107419 -0.00030011698 0.41400003 4279707158
0.035131361 -0.00028924318 0.39900002 4279053844
0.036427312 -0.00028924318 0.39900002 4278989847
0.037723266 -0.00028924318 0.39900002 4278795287
0.03901922 -0.00028924318 0.39900002 4278664212
0.040315174 -0.00028924318 0.39900002 4278468628
0.041611124 -0.00028924318 0.39900002 4278864669
0.042907074 -0.00028924318 0.39900002 4278471195
0.044203028 -0.00028924318 0.39900002 4278208024
0.045727048 -0.00029069302 0.40100002 4278669087
0.047264058 -0.00029214285 0.40300003 4278800160
0.04869353 -0.00029286777 0.40400001 4279063332
0.050129499 -0.00029359269 0.40500003 4279063332
0.05144494 -0.00029359269 0.40500003 4278931746
0.052890651 -0.00029431761 0.40600002 4278734367
0.054209344 -0.00029431761 0.40600002 4278668828
0.055528026 -0.00029431761 0.40600002 4279195172
0.056986734 -0.00029504253 0.40700001 4278734107
0.058595203 -0.00029649236 0.40900001 4278799900
0.05963061 -0.00029504253 0.40700001 4278734107
0.090721741 -0.00031099078 0.42900002 4278469911
0.092115134 -0.00031099078 0.42900002 4278404372
0.093508527 -0.00031099078 0.42900002 4278272786
0.094901919 -0.00031099078 0.42900002 4278535958
0.096295312 -0.00031099078 0.42900002 4278469652
0.097688705 -0.00031099078 0.42900002 4278600468
0.099082097 -0.00031099078 0.42900002 4278600984
0.10070969 -0.00031171567 0.43000001 4278667031
0.10210633 -0.00031171567 0.43000001 4278601238
0.10374369 -0.00031244062 0.43100002 4278732570
0.10514357 -0.00031244062 0.43100002 4278666779
0.10654346 -0.00031244062 0.43100002 4279127330
0.025198191 0.0010248179 0.40600002 4279772953
0.026582189 0.001027342 0.40700001 4279509268
0.027972691 0.0010298663 0.40800002 4279443221
0.02936968 0.0010323904 0.40900001 4279969565
0.030698113 0.0010323904 0.40900001 4280233504
0.032339767 0.0010424872 0.41300002 4279707160
0.033762742 0.0010450114 0.41400003 4279904026
0.03392021 0.0010096728 0.40000001 4279641879
0.035131361 0.0010071486 0.39900002 4278856465
0.036427312 0.0010071486 0.39900002 4279055640
0.037723266 0.0010071486 0.39900002 4278795287
0.03901922 0.0010071486 0.39900002 4278795285
0.040315174 0.0010071486 0.39900002 4278797334
0.041611124 0.0010071486 0.39900002 4278732054
0.042907074 0.0010071486 0.39900002 4278469652
0.044203028 0.0010071486 0.39900002 4278338066
0.045613013 0.0010096728 0.40000001 4278535445
0.047146775 0.0010147212 0.40200001 4278601751
0.048573002 0.0010172453 0.40300003 4278601751
0.050005723 0.0010197696 0.40400001 4278404118
0.051317912 0.0010197696 0.40400001 4278272532
0.052760381 0.0010222938 0.40500003 4278404118
0.054075826 0.0010222938 0.40500003 4278469911
0.055391259 0.0010222938 0.40500003 4278206482
0.056846719 0.0010248179 0.40600002 4278469398
0.057878878 0.0010197696 0.40400001 4278337812
0.059484098 0.0010248179 0.40600002 4278469398
0.060653023 0.0010222938 0.40500003 4278469398
0.061968468 0.0010222938 0.40500003 4278337812
0.07328549 0.0010525839 0.41700003 4278338066
0.074818894 0.0010551082 0.41800001 4278535445
0.076358803 0.0010576323 0.41900003 4278338066
0.0779052 0.0010601565 0.42000002 4278338066
0.079458103 0.0010626807 0.42100003 4278338066
0.080825508 0.0010626807 0.42100003 4278337296
0.090510271 0.00108035 0.42800003 4278205710
0.091900416 0.00108035 0.42800003 4278600468
0.09329056 0.00108035 0.42800003 4278403089
0.094901919 0.0010828741 0.42900002 4278468882
0.096295312 0.0010828741 0.42900002 4278600468
0.097688705 0.0010828741 0.42900002 4278732054
0.099082097 0.0010828741 0.42900002 4278468628
0.10070969 0.0010853983 0.43000001 4278600214
0.10210633 0.0010853983 0.43000001 4278732054
0.10374369 0.0010879225 0.43100002 4278666261
0.10514357 0.0010879225 0.43100002 4278666009
0.10654346 0.0010879225 0.43100002 4279126560
0.10819379 0.0010904466 0.43200001 4278663195
0.025136126 0.0023381801 0.40500003 4280036125
0.026516879 0.0023439534 0.40600002 4279772440
0.027835568 0.0023439534 0.40600002 4279640854
0.029226065 0.0023497266 0.40700001 4279772440
0.031556722 0.0023266335 0.40300003 4279838233
0.032784112 0.0023208603 0.40200001 4279969819
0.034005009 0.002315087 0.40100002 4279773467
0.035219409 0.0023093137 0.40000001 4278922517
0.036427312 0.0023035405 0.39900002 4278990361
0.037723266 0.0023035405 0.39900002 4278728724
0.03901922 0.0023035405 0.39900002 4278663699
0.040315174 0.0023035405 0.39900002 4278664980
0.041611124 0.0023035405 0.39900002 4278731287
0.042907074 0.0023035405 0.39900002 4278468628
0.044203028 0.0023035405 0.39900002 4278468882
0.045613013 0.0023093137 0.40000001 4278600468
0.047029499 0.002315087 0.40100002 4278600468
0.04845247 0.0023208603 0.40200001 4278338066
0.049881946 0.0023266335 0.40300003 4278535445
0.051317912 0.0023324068 0.40400001 4278469652
0.052630108 0.0023324068 0.40400001 4278338066
0.0539423 0.0023324068 0.40400001 4278403089
0.055391259 0.0023381801 0.40500003 4278203658
0.056706704 0.0023381801 0.40500003 4278201094
0.057878878 0.0023324068 0.40400001 4278862363
0.05933759 0.0023381801 0.40500003 4278468115
0.060653023 0.0023381801 0.40500003 4278468115
0.062121473 0.0023439534 0.40600002 4278402835
0.06359642 0.0023497266 0.40700001 4278337042
0.065237358 0.0023612732 0.40900001 4278402835
0.066728555 0.0023670467 0.41000003 4278337042
0.068226233 0.0023728197 0.41100001 4278468628
0.069730408 0.0023785932 0.41200003 4278402835
0.071413584 0.0023901397 0.41400003 4278403089
0.073109739 0.0024016863 0.41600001 4278468369
0.074639909 0.0024074595 0.41700003 4278665748
0.076176554 0.0024132328 0.41800001 4278797334
0.077719718 0.0024190061 0.41900003 4278402576
0.079269364 0.0024247793 0.42000002 4278928152
0.080825508 0.0024305528 0.42100003 4278927382
0.08219292 0.0024305528 0.42100003 4278730005
0.083758809 0.0024363259 0.42200002 4278597906
0.085331187 0.0024420992 0.42300001 4278400527
0.086910069 0.0024478727 0.42400002 4278201607
0.088495448 0.0024536457 0.42500001 4278201095
0.090298794 0.0024651925 0.42700002 4278199554
0.091900416 0.0024709657 0.42800003 4278198528
0.09329056 0.0024709657 0.42800003 4278196736
0.094680704 0.0024709657 0.42800003 4278196224
0.096295312 0.002476739 0.42900002 4278196224
0.097688705 0.002476739 0.42900002 4278196992
0.099082097 0.002476739 0.42900002 4278197248
0.10047549 0.002476739 0.42900002 4278199044
0.10210633 0.0024825123 0.43000001 4278664982
0.10350298 0.0024825123 0.43000001 4278862359
0.10514357 0.0024882855 0.43100002 4278928152
0.10654346 0.0024882855 0.43100002 4278862361
0.10819379 0.0024940588 0.43200001 4278990879
0.025011998 0.0036360216 0.40300003 4280167198
0.026386254 0.0036450441 0.40400001 4279838233
0.027698448 0.0036450441 0.40400001 4279838233
0.029082449 0.0036540665 0.40500003 4279969819
0.030397888 0.0036540665 0.40500003 4280232991
0.031556722 0.0036360216 0.40300003 4280298784
0.032702558 0.003617977 0.40100002 4280101918
0.03392021 0.0036089544 0.40000001 4279511063
0.035219409 0.0036089544 0.40000001 4279054103
0.036427312 0.0035999322 0.39900002 4279056154
0.037723266 0.0035999322 0.39900002 4278794517
0.03901922 0.0035999322 0.39900002 4278861078
0.040315174 0.0035999322 0.39900002 4278928152
0.041611124 0.0035999322 0.39900002 4278796566
0.042907074 0.0035999322 0.39900002 4278468115
0.044203028 0.0035999322 0.39900002 4278666007
0.045613013 0.0036089544 0.40000001 4278600468
0.047029499 0.003617977 0.40100002 4278403089
0.04845247 0.0036269992 0.40200001 4278468628
0.049881946 0.0036360216 0.40300003 4278468628
0.05119089 0.0036360216 0.40300003 4278600214
0.052630108 0.0036450441 0.40400001 4278402835
0.0539423 0.0036450441 0.40400001 4278665748
0.055254489 0.0036450441 0.40400001 4278200835
0.056566685 0.0036450441 0.40400001 4278199556
0.057878878 0.0036450441 0.40400001 4278861080
0.05933759 0.0036540665 0.40500003 4278862361
0.060653023 0.0036540665 0.40500003 4278202634
0.062121473 0.0036630889 0.40600002 4278200840
0.06359642 0.0036721111 0.40700001 4278198528
0.065237358 0.0036901559 0.40900001 4278197248
0.066728555 0.0036991783 0.41000003 4278196480
0.068226233 0.0037082008 0.41100001 4278195200
0.069730408 0.0037172232 0.41200003 4278194688
0.071241081 0.0037262456 0.41300002 4278195968
0.072933994 0.0037442902 0.41500002 4278462988
0.074460909 0.0037533126 0.41600001 4278197760
0.076176554 0.0037713575 0.41800001 4278199041
0.077719718 0.0037803799 0.41900003 4278529294
0.079269364 0.0037894021 0.42000002 4278989845
0.080633521 0.0037894021 0.42000002 4278989845
0.08219292 0.0037984247 0.42100003 4279318810
0.083758809 0.0038074469 0.42200002 4279319324
0.085331187 0.0038164693 0.42300001 4279385117
0.086910069 0.0038254918 0.42400002 4279385117
0.088495448 0.0038345142 0.42500001 4279056152
0.090087324 0.0038435366 0.42600003 4278991129
0.09168569 0.0038525588 0.42700002 4279254301
0.09329056 0.0038615814 0.42800003 4279451680
0.094680704 0.0038615814 0.42800003 4279056922
0.096070848 0.0038615814 0.42800003 4279189021
0.097688705 0.0038706036 0.42900002 4278992412
0.099082097 0.0038706036 0.42900002 4279056922
0.10047549 0.0038706036 0.42900002 4278266638
0.10210633 0.003879626 0.43000001 4278927386
0.10350298 0.003879626 0.43000001 4278993177
0.10514357 0.0038886485 0.43100002 4279124761
0.10654346 0.0038886485 0.43100002 4279453728
0.10819379 0.0038976707 0.43200001 4278990107
0.024949932 0.0049331384 0.40200001 4280298782
0.026320942 0.0049454099 0.40300003 4279969817
0.027629888 0.0049454099 0.40300003 4280101403
0.028938832 0.0049454099 0.40300003 4280232989
0.03392021 0.0049085952 0.40000001 4279249172
0.035219409 0.0049085952 0.40000001 4279318812
0.036427312 0.0048963241 0.39900002 4278859543
0.037723266 0.0048963241 0.39900002 4278860308
0.03901922 0.0048963241 0.39900002 4278795285
0.040315174 0.0048963241 0.39900002 4278664980
0.041611124 0.0048963241 0.39900002 4278468115
0.042907074 0.0048963241 0.39900002 4278665494
0.044203028 0.0048963241 0.39900002 4278533908
0.045613013 0.0049085952 0.40000001 4278665494
0.047029499 0.0049208668 0.40100002 4278468115
0.04845247 0.0049331384 0.40200001 4278402835
0.049758166 0.0049331384 0.40200001 4278600214
0.05119089 0.0049454099 0.40300003 4278468628
0.052499834 0.0049454099 0.40300003 4278468628
0.0539423 0.0049576815 0.40400001 4278533908
0.055254489 0.0049576815 0.40400001 4278201093
0.056566685 0.0049576815 0.40400001 4278860310
0.058022145 0.0049699531 0.40500003 4278663701
0.05933759 0.0049699531 0.40500003 4278195969
0.060802784 0.0049822242 0.40600002 4278458375
0.062121473 0.0049822242 0.40600002 4278523398
0.063752681 0.0050067673 0.40800002 4278523400
0.065237358 0.0050190389 0.40900001 4278654472
0.066728555 0.0050313105 0.41000003 4278785291
0.068226233 0.0050435816 0.41100001 4278720265
0.069730408 0.0050558536 0.41200003 4278720265
0.071241081 0.0050681247 0.41300002 4278326021
0.072933994 0.0050926679 0.41500002 4279514395
0.074460909 0.005104939 0.41600001 4279123482
0.07599432 0.005117211 0.41700003 4279189275
0.077534221 0.0051294821 0.41800001 4279320861
0.079080626 0.0051417537 0.41900003 4279123482
0.080633521 0.0051540253 0.42000002 4278991896
0.081997685 0.0051540253 0.42000002 4278991896
0.083560333 0.0051662968 0.42100003 4278794517
0.085129462 0.0051785684 0.42200002 4278201610
0.086705089 0.0051908395 0.42300001 4278991894
0.088287227 0.0052031111 0.42400002 4278926101
0.090087324 0.0052276542 0.42600003 4279124250
0.09168569 0.0052399258 0.42700002 4278729492
0.093072586 0.0052399258 0.42700002 4278532113
0.094680704 0.0052521974 0.42800003 4278795285
0.096070848 0.0052521974 0.42800003 4278202636
0.097460993 0.0052521974 0.42800003 4278795800
0.099082097 0.0052644685 0.42900002 4279714852
0.10047549 0.0052644685 0.42900002 4279582496
0.10210633 0.0052767401 0.43000001 4278993177
0.10350298 0.0052767401 0.43000001 4278795798
0.10514357 0.0052890116 0.43100002 4278993177
0.10654346 0.0052890116 0.43100002 4279453728
0.10819379 0.0053012832 0.43200001 4279843873
0.02358542 0.0062237573 0.40100002 4279970846
0.024949932 0.0062392773 0.40200001 4280167709
0.026255628 0.0062392773 0.40200001 4279772951
0.027561326 0.0062392773 0.40200001 4279838231
0.03392021 0.0062082363 0.40000001 4279381525
0.035219409 0.0062082363 0.40000001 4279056152
0.036518607 0.0062082363 0.40000001 4279123228
0.037723266 0.0061927158 0.39900002 4278664212
0.03901922 0.0061927158 0.39900002 4278795798
0.040315174 0.0061927158 0.39900002 4278533908
0.041611124 0.0061927158 0.39900002 4278533908
0.042907074 0.0061927158 0.39900002 4278731287
0.044313814 0.0062082363 0.40000001 4278665494
0.045613013 0.0062082363 0.40000001 4278533908
0.047029499 0.0062237573 0.40100002 4278731287
0.04845247 0.0062392773 0.40200001 4278731800
0.049758166 0.0062392773 0.40200001 4278468628
0.05119089 0.0062547983 0.40300003 4278468628
0.052499834 0.0062547983 0.40300003 4278402835
0.0539423 0.0062703188 0.40400001 4278664980
0.055254489 0.0062703188 0.40400001 4278196736
0.056566685 0.0062703188 0.40400001 4278925336
0.058022145 0.0062858397 0.40500003 4278662677
0.05933759 0.0062858397 0.40500003 4278589193
0.060802784 0.0063013597 0.40600002 4278851851
0.062274482 0.0063168802 0.40700001 4278852111
0.063752681 0.0063324012 0.40800002 4278786318
0.065237358 0.0063479217 0.40900001 4279576604
0.066728555 0.0063634426 0.41000003 4279774237
0.068226233 0.0063789627 0.41100001 4279116307
0.069730408 0.0063944836 0.41200003 4279708955
0.071241081 0.0064100041 0.41300002 4278195203
0.072758257 0.0064255251 0.41400003 4279186711
0.074281923 0.0064410456 0.41500002 4278530832
0.075812072 0.0064565656 0.41600001 4278198275
0.077348739 0.0064720865 0.41700003 4278196482
0.078891888 0.006487607 0.41800001 4278267408
0.080441535 0.006503128 0.41900003 4278794263
0.081997685 0.006518648 0.42000002 4278267919
0.083560333 0.006534169 0.42100003 4279123228
0.085129462 0.0065496895 0.42200002 4279056922
0.086705089 0.0065652099 0.42300001 4278266890
0.088287227 0.0065807309 0.42400002 4278199301
0.089875855 0.0065962509 0.42500001 4278397708
0.091470972 0.0066117719 0.42600003 4278200072
0.093072586 0.0066272924 0.42700002 4278661394
0.094680704 0.0066428133 0.42800003 4278200843
0.096070848 0.0066428133 0.42800003 4278266636
0.097460993 0.0066428133 0.42800003 4278794263
0.099082097 0.0066583334 0.42900002 4278200071
0.10047549 0.0066583334 0.42900002 4279385887
0.10210633 0.0066738538 0.43000001 4278795798
0.10350298 0.0066738538 0.43000001 4278927384
0.10514357 0.0066893748 0.43100002 4279387935
0.10654346 0.0066893748 0.43100002 4279256349
0.02358542 0.0075266473 0.40100002 4280036637
0.024887869 0.0075266473 0.40100002 4280167709
0.026190316 0.0075266473 0.40100002 4279838231
0.027492767 0.0075266473 0.40100002 4279969819
0.03392021 0.007507877 0.40000001 4279579418
0.035219409 0.007507877 0.40000001 4278991129
0.036518607 0.007507877 0.40000001 4278925590
0.03781781 0.007507877 0.40000001 4278664212
0.03901922 0.0074891075 0.39900002 4279058970
0.040315174 0.0074891075 0.39900002 4278731289
0.041611124 0.0074891075 0.39900002 4278533908
0.043014612 0.007507877 0.40000001 4278533908
0.044313814 0.007507877 0.40000001 4278533908
0.045727048 0.0075266473 0.40100002 4278468628
0.047029499 0.0075266473 0.40100002 4278731800
0.04845247 0.0075454167 0.40200001 4278600214
0.049881946 0.0075641866 0.40300003 4278666007
0.05119089 0.0075641866 0.40300003 4278600214
0.052630108 0.007582956 0.40400001 4278600214
0.0539423 0.007582956 0.40400001 4279059742
0.055254489 0.007582956 0.40400001 4278196992
0.056706704 0.0076017259 0.40500003 4278991383
0.058022145 0.0076017259 0.40500003 4278200586
0.05933759 0.0076017259 0.40500003 4279050512
0.060802784 0.0076204957 0.40600002 4279313684
0.062274482 0.0076392652 0.40700001 4278589961
0.063752681 0.007658035 0.40800002 4278590476
0.065237358 0.0076768044 0.40900001 4279249176
0.066728555 0.0076955743 0.41000003 4278195461
0.068226233 0.0077143437 0.41100001 4279183381
0.069730408 0.0077331141 0.41200003 4278195971
0.071241081 0.0077518835 0.41300002 4278195970
0.072758257 0.0077706533 0.41400003 4278858259
0.074281923 0.0077894228 0.41500002 4278196736
0.075812072 0.0078081922 0.41600001 4278458888
0.077348739 0.0078269625 0.41700003 4278262792
0.078891888 0.0078457315 0.41800001 4278396943
0.080249548 0.0078457315 0.41800001 4279056922
0.08180245 0.0078645013 0.41900003 4278464785
0.083361842 0.0078832712 0.42000002 4278991129
0.08492773 0.0079020411 0.42100003 4278333199
0.086500116 0.007920811 0.42200002 4279056152
0.088287227 0.0079583498 0.42400002 4279516189
0.089875855 0.0079771196 0.42500001 4279055638
0.091470972 0.0079958895 0.42600003 4278198273
0.093072586 0.0080146594 0.42700002 4278792466
0.094459489 0.0080146594 0.42700002 4278924566
0.096070848 0.0080334293 0.42800003 4278728211
0.097460993 0.0080334293 0.42800003 4279320861
0.099082097 0.0080521982 0.42900002 4278196480
0.10047549 0.0080521982 0.42900002 4279123482
0.10210633 0.0080709681 0.43000001 4278796568
0.10350298 0.0080709681 0.43000001 4279059740
0.10514357 0.008089738 0.43100002 4279322914
0.10654346 0.008089738 0.43100002 4279254049
0.02358542 0.0088295368 0.40100002 4280037405
0.024887869 0.0088295368 0.40100002 4280101401
0.026190316 0.0088295368 0.40100002 4280167196
0.027492767 0.0088295368 0.40100002 4280364575
0.032702558 0.0088295368 0.40100002 4280302627
0.034005009 0.0088295368 0.40100002 4279514906
0.035219409 0.0088075176 0.40000001 4279057176
0.036518607 0.0088075176 0.40000001 4279057174
0.03781781 0.0088075176 0.40000001 4278795798
0.039117008 0.0088075176 0.40000001 4278862361
0.040416211 0.0088075176 0.40000001 4278665496
0.04171541 0.0088075176 0.40000001 4278665494
0.043014612 0.0088075176 0.40000001 4278731287
0.044313814 0.0088075176 0.40000001 4278534162
0.045727048 0.0088295368 0.40100002 4278600468
0.047146775 0.0088515552 0.40200001 4278732054
0.04845247 0.0088515552 0.40200001 4278600214
0.049881946 0.0088735744 0.40300003 4278731800
0.05119089 0.0088735744 0.40300003 4278600214
0.052630108 0.0088955928 0.40400001 4278600214
0.0539423 0.0088955928 0.40400001 4279649572
0.055254489 0.0088955928 0.40400001 4278198537
0.056706704 0.008917612 0.40500003 4279188762
0.058022145 0.008917612 0.40500003 4278198017
0.059484098 0.0089396304 0.40600002 4279511576
0.060802784 0.0089396304 0.40600002 4278590472
0.062274482 0.0089616496 0.40700001 4279117586
0.063752681 0.0089836689 0.40800002 4278328072
0.065237358 0.0090056872 0.40900001 4279379479
0.066728555 0.0090277065 0.41000003 4278393097
0.068226233 0.0090497248 0.41100001 4278788623
0.069730408 0.009071744 0.41200003 4278591757
0.071241081 0.0090937624 0.41300002 4278461453
0.072758257 0.0091157816 0.41400003 4279122199
0.074281923 0.0091378 0.41500002 4278458886
0.075812072 0.0091598183 0.41600001 4278392584
0.077163242 0.0091598183 0.41600001 4279515424
0.078703158 0.0091818376 0.41700003 4279121947
0.080249548 0.0092038559 0.41800001 4279386141
0.08180245 0.0092258751 0.41900003 4279057176
0.083361842 0.0092478935 0.42000002 4279451934
0.08492773 0.0092699127 0.42100003 4279451934
0.086500116 0.0092919311 0.42200002 4278991383
0.088078998 0.0093139503 0.42300001 4279517725
0.089875855 0.0093579879 0.42500001 4279057174
0.091470972 0.0093800072 0.42600003 4279057176
0.093072586 0.0094020255 0.42700002 4278859797
0.094459489 0.0094020255 0.42700002 4278859027
0.096070848 0.0094240448 0.42800003 4278266890
0.097688705 0.0094460631 0.42900002 4278198530
0.099082097 0.0094460631 0.42900002 4279516703
0.10047549 0.0094460631 0.42900002 4279190045
0.10210633 0.0094680814 0.43000001 4278862361
0.10350298 0.0094680814 0.43000001 4279059740
0.10514357 0.0094901007 0.43100002 4279912744
0.10654346 0.0094901007 0.43100002 4284121449
0.032702558 0.010132426 0.40100002 4278921486
0.034005009 0.010132426 0.40100002 4279646492
0.035307456 0.010132426 0.40100002 4279319578
0.036609907 0.010132426 0.40100002 4278859797
0.037912354 0.010132426 0.40100002 4278861078
0.039214805 0.010132426 0.40100002 4278993177
0.040416211 0.010107159 0.40000001 4278797082
0.041819703 0.010132426 0.40100002 4278665494
0.04312215 0.010132426 0.40100002 4278468115
0.044424601 0.010132426 0.40100002 4278665748
0.045727048 0.010132426 0.40100002 4278600468
0.047146775 0.010157694 0.40200001 4278863640
0.048573002 0.010182963 0.40300003 4278468628
0.049881946 0.010182963 0.40300003 4278666007
0.051317912 0.01020823 0.40400001 4278600214
0.052630108 0.01020823 0.40400001 4278731287
0.0539423 0.01020823 0.40400001 4279121433
0.055391259 0.010233498 0.40500003 4278198281
0.056706704 0.010233498 0.40500003 4279516957
0.058022145 0.010233498 0.40500003 4278197251
0.059484098 0.010258766 0.40600002 4278654984
0.060802784 0.010258766 0.40600002 4278589193
0.062274482 0.010284034 0.40700001 4278654472
0.063752681 0.010309302 0.40800002 4278720265
0.065237358 0.010334569 0.40900001 4278785804
0.066565797 0.010334569 0.40900001 4278720013
0.068060234 0.010359838 0.41000003 4278720011
0.069561154 0.010385105 0.41100001 4278588939
0.071068585 0.010410374 0.41200003 4279711520
0.072582506 0.010435641 0.41300002 4278857748
0.074102931 0.010460909 0.41400003 4278856465
0.075629838 0.010486177 0.41500002 4278593293
0.077163242 0.010511445 0.41600001 4278198278
0.078703158 0.010536713 0.41700003 4278196224
0.080249548 0.01056198 0.41800001 4278195456
0.08180245 0.010587249 0.41900003 4278196224
0.083361842 0.010612517 0.42000002 4278196224
0.08492773 0.010637784 0.42100003 4278197762
0.086500116 0.010663052 0.42200002 4278199817
0.088078998 0.01068832 0.42300001 4278529294
0.089875855 0.010738856 0.42500001 4278792466
0.091470972 0.010764124 0.42600003 4279253017
0.093072586 0.010789392 0.42700002 4279779361
0.094459489 0.010789392 0.42700002 4279976740
0.096070848 0.01081466 0.42800003 4279779363
0.097688705 0.010839928 0.42900002 4279845668
0.099082097 0.010839928 0.42900002 4279189021
0.10070969 0.010865195 0.43000001 4279189791
0.10210633 0.010865195 0.43000001 4279190556
0.10374369 0.010890463 0.43100002 4279387935
0.10514357 0.010890463 0.43100002 4281226044
0.032784112 0.011463834 0.40200001 4279711772
0.034089811 0.011463834 0.40200001 4279187224
0.035307456 0.011435317 0.40100002 4279122199
0.036609907 0.011435317 0.40100002 4278925588
0.037912354 0.011435317 0.40100002 4278795285
0.039214805 0.011435317 0.40100002 4278993177
0.040517252 0.011435317 0.40100002 4278796566
0.041819703 0.011435317 0.40100002 4278665494
0.04312215 0.011435317 0.40100002 4278665494
0.044535384 0.011463834 0.40200001 4278665494
0.045841079 0.011463834 0.40200001 4278600216
0.047146775 0.011463834 0.40200001 4278797595
0.048573002 0.011492351 0.40300003 4278468630
0.049881946 0.011492351 0.40300003 4278666007
0.051317912 0.011520868 0.40400001 4278666007
0.052630108 0.011520868 0.40400001 4278928666
0.0539423 0.011520868 0.40400001 4278199301
0.055391259 0.011549385 0.40500003 4279647264
0.056706704 0.011549385 0.40500003 4279517473
0.058022145 0.011549385 0.40500003 4278196224
0.059484098 0.011577902 0.40600002 4278326021
0.060802784 0.011577902 0.40600002 4278589961
0.062274482 0.011606419 0.40700001 4278195459
0.06359642 0.011606419 0.40700001 4278393095
0.065077856 0.011634936 0.40800002 4279117588
0.066565797 0.011663453 0.40900001 4279315480
0.068060234 0.01169197 0.41000003 4279710750
0.069561154 0.011720487 0.41100001 4279974692
0.071068585 0.011749004 0.41200003 4279647523
0.072582506 0.011777521 0.41300002 4279779877
0.074102931 0.011806038 0.41400003 4279516703
0.075629838 0.011834555 0.41500002 4279319324
0.077163242 0.011863071 0.41600001 4279254301
0.078703158 0.01189159 0.41700003 4279189021
0.080249548 0.011920106 0.41800001 4278729240
0.081607215 0.011920106 0.41800001 4279189791
0.083361842 0.01197714 0.42000002 4279190045
0.08492773 0.012005657 0.42100003 4279058459
0.086500116 0.012034174 0.42200002 4278992666
0.088078998 0.01206269 0.42300001 4279124252
0.089664385 0.012091208 0.42400002 4279058459
0.091470972 0.012148242 0.42600003 4279124252
0.093072586 0.012176759 0.42700002 4279124252
0.094459489 0.012176759 0.42700002 4279124252
0.096070848 0.012205277 0.42800003 4279058459
0.097688705 0.012233793 0.42900002 4279453217
0.099082097 0.012233793 0.42900002 4279715619
0.10070969 0.01226231 0.43000001 4278860310
0.10210633 0.01226231 0.43000001 4280239401
0.10374369 0.012290827 0.43100002 4284711790
0.10514357 0.012290827 0.43100002 4286091648
0.031478416 0.012769973 0.40200001 4279381271
0.032784112 0.012769973 0.40200001 4279449113
0.034089811 0.012769973 0.40200001 4279253017
0.035395507 0.012769973 0.40200001 4279057176
0.036701199 0.012769973 0.40200001 4278926103
0.038006898 0.012769973 0.40200001 4278992664
0.039312594 0.012769973 0.40200001 4279124763
0.040618293 0.012769973 0.40200001 4278928154
0.041923989 0.012769973 0.40200001 4278665494
0.043229684 0.012769973 0.40200001 4278600214
0.044535384 0.012769973 0.40200001 4278731800
0.045841079 0.012769973 0.40200001 4278731802
0.047264058 0.012801739 0.40300003 4278731802
0.048573002 0.012801739 0.40300003 4278600216
0.050005723 0.012833506 0.40400001 4278731802
0.051317912 0.012833506 0.40400001 4278600216
0.052630108 0.012833506 0.40400001 4278336531
0.054075826 0.012865272 0.40500003 4278266636
0.055391259 0.012865272 0.40500003 4279056152
0.056706704 0.012865272 0.40500003 4279058972
0.058022145 0.012865272 0.40500003 4279124765
0.05933759 0.012865272 0.40500003 4278992412
0.060802784 0.012897038 0.40600002 4279058205
0.062121473 0.012897038 0.40600002 4279058970
0.06359642 0.012928803 0.40700001 4278993177
0.065077856 0.01296057 0.40800002 4278993177
0.066403046 0.01296057 0.40800002 4278993179
0.067894228 0.012992335 0.40900001 4279058972
0.069391914 0.013024103 0.41000003 4278927386
0.070896089 0.013055868 0.41100001 4279058972
0.072406769 0.013087635 0.41200003 4279058972
0.073923938 0.0131194 0.41300002 4279058972
0.075447597 0.013151167 0.41400003 4278862363
0.07697776 0.013182933 0.41500002 4278862363
0.078514419 0.013214699 0.41600001 4278797084
0.080057569 0.013246465 0.41700003 4278797084
0.081607215 0.013278231 0.41800001 4278928668
0.083163366 0.013309998 0.41900003 4279059740
0.084725998 0.013341763 0.42000002 4278993947
0.086500116 0.013405296 0.42200002 4279519521
0.088078998 0.013437062 0.42300001 4279519521
0.089664385 0.013468828 0.42400002 4279190304
0.091470972 0.01353236 0.42600003 4279255584
0.093072586 0.013564126 0.42700002 4279516705
0.094459489 0.013564126 0.42700002 4280371500
0.096070848 0.013595892 0.42800003 4282014790
0.097688705 0.013627659 0.42900002 4284449133
0.099082097 0.013627659 0.42900002 4286092157
0.10070969 0.013659424 0.43000001 4285763192
0.10210633 0.013659424 0.43000001 4285631608
0.10374369 0.013691191 0.43100002 4285697401
0.031478416 0.014076112 0.40200001 4283263574
0.032784112 0.014076112 0.40200001 4278395660
0.034089811 0.014076112 0.40200001 4279449113
0.035395507 0.014076112 0.40200001 4279320348
0.036701199 0.014076112 0.40200001 4278991896
0.038006898 0.014076112 0.40200001 4278927384
0.039312594 0.014076112 0.40200001 4279058968
0.040618293 0.014076112 0.40200001 4278993945
0.041923989 0.014076112 0.40200001 4278796566
0.043229684 0.014076112 0.40200001 4278402835
0.044535384 0.014076112 0.40200001 4278402837
0.045955114 0.014111128 0.40300003 4278666009
0.047264058 0.014111128 0.40300003 4278863388
0.048573002 0.014111128 0.40300003 4278797595
0.050005723 0.014146143 0.40400001 4278731802
0.051317912 0.014146143 0.40400001 4278929181
0.052630108 0.014146143 0.40400001 4278731289
0.054075826 0.014181159 0.40500003 4279519010
0.055391259 0.014181159 0.40500003 4279321631
0.056706704 0.014181159 0.40500003 4279058972
0.058022145 0.014181159 0.40500003 4279387937
0.05933759 0.014181159 0.40500003 4279125535
0.060802784 0.014216173 0.40600002 4278862875
0.062121473 0.014216173 0.40600002 4278928668
0.063440166 0.014216173 0.40600002 4278994461
0.064918354 0.014251187 0.40700001 4278994461
0.066403046 0.014286203 0.40800002 4279389219
0.067894228 0.014321218 0.40900001 4279125533
0.069391914 0.014356234 0.41000003 4279125533
0.070896089 0.014391249 0.41100001 4279125533
0.072406769 0.014426265 0.41200003 4279125533
0.073923938 0.01446128 0.41300002 4279783463
0.075447597 0.014496296 0.41400003 4279257119
0.07697776 0.01453131 0.41500002 4279388705
0.078514419 0.014566325 0.41600001 4279322912
0.080057569 0.014601341 0.41700003 4279124763
0.081607215 0.014636355 0.41800001 4279124250
0.083163366 0.014671371 0.41900003 4279320096
0.084725998 0.014706386 0.42000002 4280699952
0.086295143 0.014741402 0.42100003 4282344523
0.087870777 0.014776416 0.42200002 4284514924
0.089664385 0.014846447 0.42400002 4286225029
0.091470972 0.014916478 0.42600003 4286619017
0.035395507 0.015382251 0.40200001 4278922771
0.036701199 0.015382251 0.40200001 4279318810
0.038006898 0.015382251 0.40200001 4279124250
0.039312594 0.015382251 0.40200001 4279190556
0.040618293 0.015382251 0.40200001 4279059738
0.041923989 0.015382251 0.40200001 4279059738
0.043229684 0.015382251 0.40200001 4278862873
0.04464617 0.015420516 0.40300003 4278994459
0.045955114 0.015420516 0.40300003 4278929181
0.047264058 0.015420516 0.40300003 4279191840
0.04869353 0.015458779 0.40400001 4278862875
0.050005723 0.015458779 0.40400001 4278928668
0.051317912 0.015458779 0.40400001 4278994461
0.052760381 0.015497045 0.40500003 4279126047
0.054075826 0.015497045 0.40500003 4278994461
0.055391259 0.015497045 0.40500003 4279322914
0.056706704 0.015497045 0.40500003 4279387937
0.058022145 0.015497045 0.40500003 4279453730
0.05933759 0.015497045 0.40500003 4279519523
0.060653023 0.015497045 0.40500003 4279519523
0.062121473 0.015535308 0.40600002 4279585316
0.063440166 0.015535308 0.40600002 4279453730
0.064918354 0.015573572 0.40700001 4279650596
0.066240288 0.015573572 0.40700001 4279255838
0.067728229 0.015611837 0.40800002 4279189021
0.069222659 0.015650101 0.40900001 4279123228
0.070723593 0.015688365 0.41000003 4279320355
0.072231017 0.01572663 0.41100001 4279583529
0.073744945 0.015764894 0.41200003 4280633905
0.075265355 0.015803158 0.41300002 4282146628
0.07679227 0.015841423 0.41400003 4283791969
0.078325681 0.015879687 0.41500002 4285239415
0.080057569 0.015956216 0.41700003 4286159747
0.081411988 0.015956216 0.41700003 4286224257
0.083163366 0.016032744 0.41900003 4285961087
0.084725998 0.016071009 0.42000002 4285961087
0.086295143 0.016109273 0.42100003 4285961087
0.038101446 0.016729904 0.40300003 4279778850
0.03941039 0.016729904 0.40300003 4278989847
0.040719334 0.016729904 0.40300003 4279321377
0.042028278 0.016729904 0.40300003 4279584549
0.043337222 0.016729904 0.40300003 4279387937
0.04464617 0.016729904 0.40300003 4279387937
0.045955114 0.016729904 0.40300003 4279452963
0.047264058 0.016729904 0.40300003 4279321377
0.04869353 0.016771417 0.40400001 4279649313
0.050005723 0.016771417 0.40400001 4279451682
0.051317912 0.016771417 0.40400001 4279188510
0.052760381 0.01681293 0.40500003 4278991131
0.054075826 0.01681293 0.40500003 4279977256
0.055391259 0.01681293 0.40500003 4279977256
0.056706704 0.01681293 0.40500003 4280963637
0.058022145 0.01681293 0.40500003 4282082118
0.05933759 0.01681293 0.40500003 4283463517
0.060653023 0.01681293 0.40500003 4284449899
0.062121473 0.016854443 0.40600002 4285502071
0.063440166 0.016854443 0.40600002 4285962622
0.064758852 0.016854443 0.40600002 4286225542
0.066240288 0.016895955 0.40700001 4286226312
0.067728229 0.01693747 0.40800002 4286291335
0.069222659 0.016978983 0.40900001 4286028163
0.070723593 0.017020497 0.41000003 4285436798
0.072231017 0.01706201 0.41100001 4285830786
0.073744945 0.017103525 0.41200003 4285961859
0.075265355 0.017145038 0.41300002 4285764480
0.07679227 0.017186552 0.41400003 4285961089
0.078325681 0.017228065 0.41500002 4285567101
0.080057569 0.017311091 0.41700003 4285895294
0.081411988 0.017311091 0.41700003 4285961087
0.083163366 0.017394118 0.41900003 4285895296
0.084725998 0.017435631 0.42000002 4286157954
0.064226791 0.006934091 0.41192725 4294967295
0.064226791 0.006934091 0.41192725 4294901760
0.064226791 0.006934091 0.41242725 4294901760
0.064226791 0.006934091 0.41292724 4294901760
0.064226791 0.006934091 0.41342726 4294901760
0.064226791 0.006934091 0.41392726 4294901760
0.064226791 0.006934091 0.41442725 4294901760
0.064226791 0.006934091 0.41492724 4294901760
0.064226791 0.006934091 0.41542727 4294901760
0.064226791 0.006934091 0.41592726 4294901760
0.064226791 0.006934091 0.41642725 4294901760
0.064226791 0.006934091 0.41692725 4294901760
0.064226791 0.006934091 0.41742724 4294901760
0.064226791 0.006934091 0.41792727 4294901760
0.064226791 0.006934091 0.41842726 4294901760
0.064226791 0.006934091 0.41892725 4294901760
0.064226791 0.006934091 0.41942725 4294901760
0.064226791 0.006934091 0.41992724 4294901760
0.064226791 0.006934091 0.42042726 4294901760
0.064226791 0.006934091 0.42092726 4294901760
0.064226791 0.006934091 0.42142725 4294901760
0.064226791 0.006934091 0.42192724 4294901760
0.064226791 0.006934091 0.42242727 4294901760
0.064226791 0.006934091 0.42292726 4294901760
0.064226791 0.006934091 0.42342725 4294901760
0.064226791 0.006934091 0.42392725 4294901760
0.064226791 0.006934091 0.42442727 4294901760
0.064226791 0.006934091 0.42492726 4294901760
0.064226791 0.006934091 0.42542726 4294901760
0.064226791 0.006934091 0.42592725 4294901760
0.064226791 0.006934091 0.42642725 4294901760
0.064226791 0.006934091 0.42692727 4294901760
0.064226791 0.006934091 0.42742726 4294901760
0.064226791 0.006934091 0.42792726 4294901760
0.064226791 0.006934091 0.42842725 4294901760
0.064226791 0.006934091 0.42892724 4294901760
0.064226791 0.006934091 0.42942727 4294901760
0.064226791 0.006934091 0.42992726 4294901760
0.064226791 0.006934091 0.43042725 4294901760
0.064226791 0.006934091 0.43092725 4294901760
0.064226791 0.006934091 0.43142727 4294901760
0.064226791 0.006934091 0.43192726 4294901760
0.064226791 0.006934091 0.43242726 4294901760
0.064226791 0.006934091 0.43292725 4294901760
0.064226791 0.006934091 0.43342727 4294901760
0.064226791 0.006934091 0.43392727 4294901760
0.064226791 0.006934091 0.43442726 4294901760
0.064226791 0.006934091 0.43492725 4294901760
0.064226791 0.006934091 0.43542725 4294901760
0.064226791 0.006934091 0.43592727 4294901760
0.064226791 0.006934091 0.43642727 4294901760
0.064226791 0.006934091 0.43692726 4294901760
0.064226791 0.006934091 0.43742725 4294901760
0.064226791 0.006934091 0.43792725 4294901760
0.064226791 0.006934091 0.43842727 4294901760
0.064226791 0.006934091 0.43892726 4294901760
0.064226791 0.006934091 0.43942726 4294901760
0.064226791 0.006934091 0.43992725 4294901760
0.064226791 0.006934091 0.44042724 4294901760
0.064226791 0.006934091 0.44092727 4294901760
0.064226791 0.006934091 0.44142726 4294901760
0.064226791 0.006934091 0.44192725 4294901760
0.064226791 0.006934091 0.44242725 4294901760
0.064226791 0.006934091 0.44292727 4294901760
0.064226791 0.006934091 0.44342726 4294901760
0.064226791 0.006934091 0.44392726 4294901760
0.064226791 0.006934091 0.44442725 4294901760
0.064226791 0.006934091 0.44492728 4294901760
0.064226791 0.006934091 0.44542727 4294901760
0.064226791 0.006934091 0.44592726 4294901760
0.064226791 0.006934091 0.44642726 4294901760
0.064226791 0.006934091 0.44692725 4294901760
0.064226791 0.006934091 0.44742727 4294901760
0.064226791 0.006934091 0.44792727 4294901760
0.064226791 0.006934091 0.44842726 4294901760
0.064226791 0.006934091 0.44892725 4294901760
0.064226791 0.006934091 0.44942725 4294901760
0.064226791 0.006934091 0.44992727 4294901760
0.064226791 0.006934091 0.45042726 4294901760
0.064226791 0.006934091 0.45092726 4294901760
0.064226791 0.006934091 0.45142725 4294901760
0.064226791 0.006934091 0.45192727 4294901760
0.064226791 0.006934091 0.45242727 4294901760
0.064226791 0.006934091 0.45292726 4294901760
0.064226791 0.006934091 0.45342726 4294901760
0.064226791 0.006934091 0.45392725 4294901760
0.064226791 0.006934091 0.45442727 4294901760
0.064226791 0.006934091 0.45492727 4294901760
0.064226791 0.006934091 0.45542726 4294901760
0.064226791 0.006934091 0.45592725 4294901760
0.064226791 0.006934091 0.45642728 4294901760
0.064226791 0.006934091 0.45692727 4294901760
0.064226791 0.006934091 0.45742726 4294901760
0.064226791 0.006934091 0.45792726 4294901760
0.064226791 0.006934091 0.45842725 4294901760
0.064226791 0.006934091 0.45892727 4294901760
0.064226791 0.006934091 0.45942727 4294901760
0.064226791 0.006934091 0.45992726 4294901760
0.064226791 0.006934091 0.46042725 4294901760
0.064226791 0.006934091 0.46092728 4294901760
0.064226791 0.006934091 0.46142727 4294901760
0.064226791 0.006934091 0.46192726 4294901760
0.064226791 0.006934091 0.41192725 4278255360
0.063969888 0.007025579 0.41234633 4278255360
0.063712992 0.0071170675 0.41276541 4278255360
0.063456088 0.0072085555 0.41318449 4278255360
0.063199185 0.0073000435 0.4136036 4278255360
0.062942281 0.0073915315 0.41402268 4278255360
0.062685385 0.00748302 0.41444176 4278255360
0.062428482 0.007574508 0.41486084 4278255360
0.062171582 0.007665996 0.41527992 4278255360
0.061914679 0.0077574844 0.41569901 4278255360
0.061657779 0.0078489725 0.41611809 4278255360
0.061400875 0.00794046 0.41653717 4278255360
0.061143976 0.0080319485 0.41695628 4278255360
0.060887076 0.0081234369 0.41737536 4278255360
0.060630172 0.0082149245 0.41779444 4278255360
0.060373273 0.008306413 0.41821352 4278255360
0.060116369 0.0083979014 0.4186326 4278255360
0.05985947 0.008489389 0.41905168 4278255360
0.059602566 0.0085808774 0.41947076 4278255360
0.059345666 0.0086723659 0.41988984 4278255360
0.059088767 0.0087638535 0.42030895 4278255360
0.058831863 0.0088553419 0.42072803 4278255360
0.058574963 0.0089468304 0.42114711 4278255360
0.05831806 0.0090383179 0.42156619 4278255360
0.05806116 0.0091298064 0.42198527 4278255360
0.057804257 0.0092212949 0.42240435 4278255360
0.057547357 0.0093127824 0.42282343 4278255360
0.057290457 0.0094042709 0.42324254 4278255360
0.057033554 0.0094957594 0.42366162 4278255360
0.056776654 0.0095872469 0.4240807 4278255360
0.056519751 0.0096787354 0.42449978 4278255360
0.056262851 0.0097702229 0.42491886 4278255360
0.056005947 0.0098617114 0.42533794 4278255360
0.055749048 0.0099531999 0.42575702 4278255360
0.055492148 0.010044687 0.4261761 4278255360
0.055235244 0.010136176 0.42659521 4278255360
0.054978345 0.010227664 0.42701429 4278255360
0.054721445 0.010319152 0.42743337 4278255360
0.054464541 0.01041064 0.42785245 4278255360
0.054207642 0.010502128 0.42827153 4278255360
0.053950738 0.010593616 0.42869061 4278255360
0.053693838 0.010685105 0.42910969 4278255360
0.053436935 0.010776592 0.42952877 4278255360
0.053180035 0.010868081 0.42994788 4278255360
0.052923135 0.010959569 0.43036696 4278255360
0.052666232 0.011051057 0.43078604 4278255360
0.052409329 0.011142545 0.43120512 4278255360
0.052152429 0.011234034 0.4316242 4278255360
0.051895529 0.011325521 0.43204328 4278255360
0.051638626 0.01141701 0.43246236 4278255360
0.051381726 0.011508498 0.43288147 4278255360
0.051124826 0.011599986 0.43330055 4278255360
0.050867923 0.011691473 0.43371964 4278255360
0.050611023 0.011782962 0.43413872 4278255360
0.050354119 0.01187445 0.4345578 4278255360
0.05009722 0.011965939 0.43497688 4278255360
0.049840316 0.012057427 0.43539596 4278255360
0.049583416 0.012148915 0.43581504 4278255360
0.049326517 0.012240402 0.43623412 4278255360
0.049069613 0.012331891 0.43665323 4278255360
0.048812713 0.012423379 0.43707231 4278255360
0.048555814 0.012514867 0.43749139 4278255360
0.04829891 0.012606355 0.43791047 4278255360
0.048042007 0.012697844 0.43832955 4278255360
0.047785107 0.012789331 0.43874863 4278255360
0.047528207 0.01288082 0.43916771 4278255360
0.047271304 0.012972308 0.43958682 4278255360
0.0470144 0.013063796 0.4400059 4278255360
0.046757504 0.013155284 0.44042498 4278255360
0.046500601 0.013246773 0.44084406 4278255360
0.046243697 0.01333826 0.44126314 4278255360
0.045986801 0.013429748 0.44168222 4278255360
0.045729898 0.013521237 0.4421013 4278255360
0.045472994 0.013612725 0.44252038 4278255360
0.045216095 0.013704213 0.44293949 4278255360
0.044959195 0.013795702 0.44335857 4278255360
0.044702291 0.013887189 0.44377765 4278255360
0.044445392 0.013978677 0.44419673 4278255360
0.044188492 0.014070165 0.44461581 4278255360
0.043931589 0.014161654 0.44503489 4278255360
0.043674685 0.014253142 0.44545397 4278255360
0.043417785 0.014344631 0.44587308 4278255360
0.043160886 0.014436118 0.44629216 4278255360
0.042903982 0.014527606 0.44671124 4278255360
0.042647082 0.014619094 0.44713032 4278255360
0.042390179 0.014710583 0.4475494 4278255360
0.042133279 0.01480207 0.44796848 4278255360
0.041876376 0.01489356 0.44838756 4278255360
0.041619476 0.014985047 0.44880664 4278255360
0.041362576 0.015076535 0.44922572 4278255360
0.041105673 0.015168022 0.44964483 4278255360
0.040848769 0.015259512 0.45006391 4278255360
0.04059187 0.015350999 0.45048299 4278255360
0.04033497 0.015442489 0.45090207 4278255360
0.040078066 0.015533976 0.45132115 4278255360
0.039821167 0.015625464 0.45174024 4278255360
0.039564267 0.015716951 0.45215935 4278255360
0.039307363 0.015808441 0.45257843 4278255360
0.03905046 0.015899928 0.45299751 4278255360
0.038793564 0.015991416 0.45341659 4278255360
0.03853666 0.016082905 0.45383567 4278255360
