# .PCD v0.7 - Point Cloud Data file format
VERSION 0.7
FIELDS x y z rgb
SIZE 4 4 4 4
TYPE F F F U
COUNT 1 1 1 1
WIDTH 834
HEIGHT 1
VIEWPOINT 0 0 0 1 0 0 0
POINTS 834
DATA ascii
-0.021083824 0.038297247 0.59600002 4279914281
-0.019180141 0.038361501 0.597 4280244016
-0.017241085 0.038361501 0.597 4280242481
-0.022903765 0.040031195 0.59300005 4280568366
-0.020977698 0.040031195 0.59300005 4279257119
-0.019083761 0.040098701 0.59400004 4279126560
-0.017125569 0.040031195 0.59300005 4279061539
-0.020906946 0.041816399 0.59100002 4278928154
-0.018955249 0.041745644 0.59000003 4278994461
-0.01701005 0.04167489 0.58900005 4278797595
-0.0071792542 0.040189028 0.56800002 4278731039
-0.0053249979 0.040118273 0.56700003 4278796578
-0.02080082 0.043514602 0.588 4279124763
-0.018858867 0.043440599 0.58700001 4279257119
-0.016923411 0.043366596 0.58600003 4278928154
-0.010964662 0.042404536 0.57300001 4278862877
-0.0090558939 0.042182527 0.57000005 4278797084
-0.0071792542 0.042034514 0.56800002 4278336019
-0.0053156065 0.041886508 0.56600004 4278202896
-0.0034649502 0.041738499 0.56400001 4278796316
-0.0016330772 0.041738499 0.56400001 4278993695
0.0001984433 0.041664492 0.56300002 4278862623
0.0020270683 0.041664492 0.56300002 4278862623
0.0038488447 0.041590489 0.56200004 4278928416
-0.022672022 0.045347821 0.58700001 4279385889
-0.020765444 0.045347821 0.58700001 4278928154
-0.018794613 0.045193318 0.58500004 4279059740
-0.016836772 0.045038808 0.583 4278796570
-0.014866293 0.04480705 0.58000004 4278862363
-0.012870535 0.044420782 0.57500005 4278862623
-0.010926391 0.044111766 0.57100004 4278862877
-0.0090400064 0.04395726 0.56900001 4278928156
-0.0071666148 0.043802753 0.56700003 4278926103
-0.0053062146 0.043648243 0.565 4278464269
-0.0034649502 0.043570992 0.56400001 4279058459
-0.0016301817 0.043493737 0.56300002 4278927386
0.0001984433 0.043493737 0.56300002 4279190558
0.0020234678 0.043416485 0.56200004 4278928154
0.0038488447 0.043416485 0.56200004 4278993947
-0.022633398 0.047174543 0.58600003 4279451680
-0.020694694 0.04709404 0.58500004 4278993947
-0.018762486 0.04701354 0.58400005 4278862875
-0.016779013 0.046772029 0.58100003 4278797084
-0.014815029 0.046530519 0.57800001 4278928670
-0.012825768 0.046128009 0.57300001 4278862877
-0.010907256 0.045886502 0.57000005 4278993949
-0.009024119 0.045725495 0.56800002 4278928156
-0.0071539758 0.045564491 0.56600004 4278200327
-0.0053062146 0.045483984 0.565 4278200583
-0.0034649502 0.045403484 0.56400001 4279780897
-0.0016301817 0.045322981 0.56300002 4278196736
0.00019809084 0.045242481 0.56200004 4278196740
0.0020234678 0.045242481 0.56200004 4278328583
0.0038419964 0.045161977 0.56100005 4278196736
0.0056439321 0.04500097 0.55900002 4278397195
0.0074595655 0.04500097 0.55900002 4279450650
0.0092254207 0.044759467 0.55600005 4279649313
-0.022633398 0.049078517 0.58600003 4279517473
-0.020659318 0.048911016 0.58400005 4278797082
-0.018698229 0.048743509 0.58200002 4278862875
-0.016750135 0.048576009 0.58000004 4278468117
-0.014763767 0.048241001 0.57600003 4278862875
-0.012803384 0.047905993 0.57200003 4278797082
-0.010888119 0.047654737 0.56900001 4278928670
-0.0090082316 0.047487233 0.56700003 4278993949
-0.0071413354 0.047319729 0.565 4278333199
-0.0052968231 0.047235977 0.56400001 4280042533
-0.0034588068 0.047152225 0.56300002 4279582496
-0.0016272862 0.047068477 0.56200004 4278918926
0.00019809084 0.047068477 0.56200004 4278983951
0.0020198673 0.046984725 0.56100005 4278852365
0.0038419964 0.046984725 0.56100005 4278786318
0.0056439321 0.046817217 0.55900002 4278655502
0.0074595655 0.046817217 0.55900002 4278655502
0.0092420131 0.046649717 0.55700004 4278655756
0.011070991 0.046733469 0.55800003 4278590476
0.012860288 0.046649717 0.55700004 4279977508
0.014669425 0.046649717 0.55700004 4278198272
0.016448978 0.046565969 0.55600005 4278196480
0.018222034 0.046482213 0.55500001 4278199041
0.019988593 0.046398461 0.55400002 4278399246
0.021748658 0.046314709 0.55300003 4278991381
0.041206025 0.045979701 0.54900002 4278535195
0.042989179 0.045979701 0.54900002 4279127078
0.044853885 0.046063453 0.55000001 4279192871
0.046640288 0.046063453 0.55000001 4279653422
0.048426684 0.046063453 0.55000001 4279389480
-0.022594776 0.05089549 0.58500004 4279386400
-0.020659318 0.050808489 0.58400005 4278928156
-0.018698229 0.050634485 0.58200002 4278993947
-0.016721256 0.050373487 0.57900006 4278862361
-0.014738135 0.050025482 0.57500005 4279059740
-0.012803384 0.049764477 0.57200003 4278862877
-0.010888119 0.049503475 0.56900001 4278862877
-0.0090082316 0.049329475 0.56700003 4278993949
-0.0071413354 0.04915547 0.565 4278198788
-0.0052968231 0.04906847 0.56400001 4279648289
-0.0034588068 0.048981469 0.56300002 4278595087
-0.0016272862 0.048894472 0.56200004 4278327302
0.00019773837 0.048807472 0.56100005 4279708955
0.0020198673 0.048807472 0.56100005 4278721549
0.0038351475 0.048720468 0.56 4279445785
0.0056439321 0.048633467 0.55900002 4280432680
0.0074595655 0.048633467 0.55900002 4279051027
0.0092586055 0.048546467 0.55800003 4279905823
0.011070991 0.048546467 0.55800003 4278656269
0.012883376 0.048546467 0.55800003 4279515676
0.014669425 0.048459467 0.55700004 4279451162
0.016448978 0.048372466 0.55600005 4279780127
0.018222034 0.048285462 0.55500001 4278990611
0.019988593 0.048198462 0.55400002 4279582234
0.021748658 0.048111461 0.55300003 4279582236
0.023417072 0.04785046 0.55000001 4279779363
0.025020177 0.047502454 0.546 4279121685
0.026695441 0.047328454 0.54400003 4278198784
0.028462352 0.047328454 0.54400003 4278197248
0.030229267 0.047328454 0.54400003 4278197248
0.031996179 0.047328454 0.54400003 4278200586
0.033825155 0.047415454 0.54500002 4278859797
0.035791256 0.047676459 0.54800004 4279189273
0.037639722 0.047763459 0.54900002 4278664212
0.039494682 0.04785046 0.55000001 4278927384
0.041281082 0.04785046 0.55000001 4278796568
0.043067485 0.04785046 0.55000001 4278731289
0.044935435 0.047937457 0.551 4278270738
0.046725087 0.047937457 0.551 4278731802
0.048514735 0.047937457 0.551 4278863388
0.050395682 0.048024464 0.55200005 4279126560
0.052283123 0.048111461 0.55300003 4279257635
-0.022594776 0.052796219 0.58500004 4279254814
-0.020659318 0.05270597 0.58400005 4279125535
-0.018666102 0.052435219 0.58100003 4279059740
-0.016692374 0.052164465 0.57800001 4279125533
-0.014712502 0.051803466 0.574 4278599189
-0.012781001 0.051532719 0.57100004 4279059740
-0.010868984 0.051261969 0.56800002 4278928668
-0.0089923441 0.051081471 0.56600004 4279058972
-0.0071413354 0.050991215 0.565 4278198530
-0.0052968231 0.050900966 0.56400001 4278859545
-0.0034588068 0.050810717 0.56300002 4278266384
-0.0016272862 0.050720468 0.56200004 4278787855
0.00019773837 0.050630223 0.56100005 4278656269
0.0020162668 0.050539967 0.56 4278853646
0.0038351475 0.050539967 0.56 4278458890
0.0056439321 0.050449718 0.55900002 4279248406
0.0074595655 0.050449718 0.55900002 4279050773
0.0092586055 0.050359469 0.55800003 4279643932
0.011070991 0.050359469 0.55800003 4278393097
0.012883376 0.050359469 0.55800003 4279910947
0.014669425 0.05026922 0.55700004 4278924820
0.016478563 0.05026922 0.55700004 4278460683
0.018254867 0.050178971 0.55600005 4278328837
0.020024672 0.050088719 0.55500001 4278529294
0.021748658 0.049908221 0.55300003 4278331915
0.023459649 0.049727716 0.551 4279582496
0.025111826 0.049456973 0.54800004 4278200329
0.026842659 0.049366724 0.54700005 4279187992
0.028619315 0.049366724 0.54700005 4279320348
0.030395973 0.049366724 0.54700005 4278991383
0.032172631 0.049366724 0.54700005 4279254555
0.033949289 0.049366724 0.54700005 4279188508
0.035921879 0.049637467 0.55000001 4279188508
0.037708282 0.049637467 0.55000001 4279385117
0.039566487 0.049727716 0.551 4278464015
0.041356135 0.049727716 0.551 4278198787
0.043145787 0.049727716 0.551 4278198016
0.045016989 0.049817972 0.55200005 4278927384
0.046809889 0.049817972 0.55200005 4278796568
0.048602786 0.049817972 0.55200005 4278796568
0.050486978 0.049908221 0.55300003 4278665496
0.052283123 0.049908221 0.55300003 4278797082
0.054177057 0.04999847 0.55400002 4279125535
-0.022594776 0.054696944 0.58500004 4279190045
-0.020659318 0.054603446 0.58400005 4278993949
-0.018698229 0.054416444 0.58200002 4278993949
-0.016721256 0.054135952 0.57900006 4278928154
-0.014712502 0.053668451 0.574 4278993947
-0.012781001 0.053387959 0.57100004 4279059740
-0.010868984 0.053107459 0.56800002 4278993947
-0.0089923441 0.052920461 0.56600004 4279190558
-0.0071413354 0.05282696 0.565 4278859543
-0.0052874316 0.052639961 0.56300002 4279254816
-0.0034526633 0.052546464 0.56200004 4279188510
-0.0016243907 0.052452967 0.56100005 4278590476
0.00019773837 0.052452967 0.56100005 4278983697
0.0020162668 0.052359466 0.56 4278852365
0.0038351475 0.052359466 0.56 4278852111
0.0056439321 0.052265964 0.55900002 4278852365
0.0074595655 0.052265964 0.55900002 4278524170
0.0092586055 0.052172467 0.55800003 4278853646
0.011070991 0.052172467 0.55800003 4278196486
0.012883376 0.052172467 0.55800003 4280371498
0.014669425 0.05207897 0.55700004 4278199044
0.016478563 0.05207897 0.55700004 4278918926
0.018254867 0.051985472 0.55600005 4278525449
0.020024672 0.051891968 0.55500001 4278199816
0.021787986 0.05179847 0.55400002 4280042533
0.023502227 0.051611476 0.55200005 4279121433
0.025203474 0.051424474 0.55000001 4279976740
0.026940804 0.051330976 0.54900002 4278198787
0.028723955 0.051330976 0.54900002 4278198530
0.030507108 0.051330976 0.54900002 4278199297
0.032290261 0.051330976 0.54900002 4278794517
0.034135479 0.051424474 0.55000001 4278531345
0.035987191 0.051517971 0.551 4278728724
0.037845407 0.051611476 0.55200005 4278794517
0.039638299 0.051611476 0.55200005 4279123482
0.041431196 0.051611476 0.55200005 4279123482
0.043224096 0.051611476 0.55200005 4278200843
0.045098543 0.051704973 0.55300003 4278992664
0.046894688 0.051704973 0.55300003 4278795798
0.048690833 0.051704973 0.55300003 4278862361
0.05057827 0.05179847 0.55400002 4278796568
0.052377667 0.05179847 0.55400002 4278797082
0.05427485 0.051891968 0.55500001 4278928154
0.056077491 0.051891968 0.55500001 4279712553
-0.022672022 0.05679116 0.58700001 4279320348
-0.020694694 0.056597669 0.58500004 4278862363
-0.018730355 0.05640417 0.583 4278928156
-0.016750135 0.056113929 0.58000004 4278665498
-0.014738135 0.055630188 0.57500005 4278665498
-0.012781001 0.055243194 0.57100004 4278665498
-0.010888119 0.055049695 0.56900001 4278928156
-0.0089923441 0.054759454 0.56600004 4279190558
-0.0071413354 0.054662701 0.565 4278729494
-0.0052874316 0.054469205 0.56300002 4279058205
-0.0034526633 0.05437246 0.56200004 4279189791
-0.0016243907 0.054275714 0.56100005 4279320607
0.00019738587 0.054178961 0.56 4279517475
0.0020162668 0.054178961 0.56 4279910949
0.0038282992 0.054082215 0.55900002 4279976229
0.0056439321 0.054082215 0.55900002 4279119383
0.0074462211 0.053985465 0.55800003 4278591755
0.0092586055 0.053985465 0.55800003 4278393095
0.011070991 0.053985465 0.55800003 4278262281
0.012883376 0.053985465 0.55800003 4278660369
0.014669425 0.05388872 0.55700004 4279384092
0.016478563 0.05388872 0.55700004 4279579164
0.018254867 0.053791974 0.55600005 4280105508
0.020024672 0.053695221 0.55500001 4279318810
0.021787986 0.053598475 0.55400002 4278989845
0.023544803 0.053501725 0.55300003 4279516189
0.025295125 0.053404979 0.55200005 4278199815
0.027038947 0.053308226 0.551 4278398222
0.028828595 0.053308226 0.551 4278727187
0.030618245 0.053308226 0.551 4278858261
0.032407895 0.053308226 0.551 4279055127
0.034197543 0.053308226 0.551 4279318812
0.036052506 0.053404979 0.55200005 4278595089
0.037845407 0.053404979 0.55200005 4278199046
0.039710108 0.053501725 0.55300003 4278726673
0.041506253 0.053501725 0.55300003 4278926103
0.043302398 0.053501725 0.55300003 4278200071
0.045180093 0.053598475 0.55400002 4278926103
0.046979491 0.053598475 0.55400002 4278927384
0.04877888 0.053598475 0.55400002 4278599189
0.050669566 0.053695221 0.55500001 4278928154
0.052472211 0.053695221 0.55500001 4278993947
0.05427485 0.053695221 0.55500001 4278862363
0.05617854 0.053791974 0.55600005 4278989857
-0.018794613 0.058498394 0.58500004 4279056154
-0.012803384 0.057198428 0.57200003 4279190306
-0.010888119 0.056898434 0.56900001 4279190306
-0.0090082316 0.056698442 0.56700003 4279255584
-0.0071413354 0.056498442 0.565 4279189791
-0.0052874316 0.05629845 0.56300002 4279123998
-0.0034526633 0.056198455 0.56200004 4279058718
-0.0016243907 0.056098457 0.56100005 4278993179
0.00019738587 0.055998456 0.56 4279058972
0.0020126663 0.055898461 0.55900002 4278993179
0.0038282992 0.055898461 0.55900002 4279058718
0.0056338357 0.055798467 0.55800003 4279189791
0.0074462211 0.055798467 0.55800003 4279123998
0.0092586055 0.055798467 0.55800003 4279188508
0.011070991 0.055798467 0.55800003 4279320096
0.012860288 0.055698469 0.55700004 4279385887
0.014669425 0.055698469 0.55700004 4279254301
0.016478563 0.055698469 0.55700004 4279779363
0.018254867 0.055598475 0.55600005 4279120920
0.020024672 0.055498473 0.55500001 4278199561
0.021827314 0.055498473 0.55500001 4278196480
0.02358738 0.055398475 0.55400002 4278196224
0.025340948 0.055298481 0.55300003 4278199818
0.027088022 0.055198483 0.55200005 4278989847
0.028880918 0.055198483 0.55200005 4279450912
0.030673815 0.055198483 0.55200005 4279451682
0.032466713 0.055198483 0.55200005 4279056924
0.03425961 0.055198483 0.55200005 4278991129
0.036117818 0.055298481 0.55300003 4278859543
0.037913963 0.055298481 0.55300003 4278858773
0.039710108 0.055298481 0.55300003 4278200072
0.041581307 0.055398475 0.55400002 4279320348
0.043380704 0.055398475 0.55400002 4278196736
0.045180093 0.055398475 0.55400002 4279058205
0.046979491 0.055398475 0.55400002 4278993179
0.048866928 0.055498473 0.55500001 4278862361
0.050669566 0.055498473 0.55500001 4278928154
0.052566759 0.055598475 0.55600005 4278928154
0.054372646 0.055598475 0.55600005 4279059488
0.05617854 0.055598475 0.55600005 4278924066
-0.010907256 0.058850423 0.57000005 4281488444
-0.0090082316 0.058540683 0.56700003 4279647525
-0.0071413354 0.058334187 0.565 4279187488
-0.0052968231 0.05823094 0.56400001 4279384865
-0.0034526633 0.058024451 0.56200004 4279451941
-0.0016243907 0.057921205 0.56100005 4279780906
0.00019738587 0.057817955 0.56 4279649574
0.0020126663 0.057714708 0.55900002 4279452965
0.0038282992 0.057714708 0.55900002 4279255586
0.0056338357 0.057611465 0.55800003 4279124513
0.0074462211 0.057611465 0.55800003 4279190306
0.0092586055 0.057611465 0.55800003 4278927132
0.011051151 0.057508219 0.55700004 4279058718
0.012860288 0.057508219 0.55700004 4278862109
0.014669425 0.057508219 0.55700004 4278927902
0.016478563 0.057508219 0.55700004 4279059488
0.018254867 0.057404973 0.55600005 4279124511
0.020024672 0.057301722 0.55500001 4279058205
0.021827314 0.057301722 0.55500001 4279058205
0.02358738 0.057198476 0.55400002 4279189021
0.025340948 0.057095233 0.55300003 4279320094
0.027137095 0.057095233 0.55300003 4279188508
0.028880918 0.056991987 0.55200005 4279978024
0.030673815 0.056991987 0.55200005 4279121947
0.032525528 0.057095233 0.55300003 4278529042
0.034321673 0.057095233 0.55300003 4278199563
0.036117818 0.057095233 0.55300003 4278196480
0.037913963 0.057095233 0.55300003 4278198532
0.039781917 0.057198476 0.55400002 4278266124
0.041581307 0.057198476 0.55400002 4279253019
0.043380704 0.057198476 0.55400002 4278199046
0.045261644 0.057301722 0.55500001 4279124252
0.047064289 0.057301722 0.55500001 4278993179
0.048866928 0.057301722 0.55500001 4278928154
0.050760869 0.057404973 0.55600005 4278928154
0.052566759 0.057404973 0.55600005 4278993949
0.054372646 0.057404973 0.55600005 4279058718
0.05617854 0.057404973 0.55600005 4281292100
-0.010907256 0.06070241 0.57000005 4284907374
-0.009024119 0.060489416 0.56800002 4284973165
-0.0071413354 0.060169928 0.565 4284841577
-0.0052968231 0.060063433 0.56400001 4284907370
-0.0034588068 0.059956938 0.56300002 4285039985
-0.0016243907 0.059743952 0.56100005 4285039985
0.00019738587 0.05963745 0.56 4283789918
0.0020126663 0.059530959 0.55900002 4280502323
0.0038214508 0.059424464 0.55800003 4279581732
0.0056338357 0.059424464 0.55800003 4279318558
0.0074462211 0.059424464 0.55800003 4279911463
0.0092420131 0.059317969 0.55700004 4279715115
0.011051151 0.059317969 0.55700004 4279780906
0.012860288 0.059317969 0.55700004 4279583781
0.014669425 0.059317969 0.55700004 4279583781
0.016448978 0.059211474 0.55600005 4279190304
0.018254867 0.059211474 0.55600005 4279190304
0.020024672 0.059104975 0.55500001 4278795546
0.021787986 0.05899848 0.55400002 4279124511
0.02358738 0.05899848 0.55400002 4279058718
0.025340948 0.058891986 0.55300003 4278992925
0.027137095 0.058891986 0.55300003 4278927132
0.028933238 0.058891986 0.55300003 4279058718
0.030729383 0.058891986 0.55300003 4278730007
0.032525528 0.058891986 0.55300003 4279124252
0.034321673 0.058891986 0.55300003 4278992666
0.036117818 0.058891986 0.55300003 4279255068
0.037982523 0.05899848 0.55400002 4279189021
0.039781917 0.05899848 0.55400002 4279781158
0.041581307 0.05899848 0.55400002 4279517473
0.043380704 0.05899848 0.55400002 4279320094
0.045261644 0.059104975 0.55500001 4278991896
0.047064289 0.059104975 0.55500001 4278993179
0.048954982 0.059211474 0.55600005 4278795800
0.050760869 0.059211474 0.55600005 4279190556
0.052566759 0.059211474 0.55600005 4279190556
0.054470439 0.059317969 0.55700004 4278992412
0.056279577 0.059317969 0.55700004 4285961605
-0.0071539758 0.06211542 0.56600004 4284775788
-0.0052968231 0.061895926 0.56400001 4284578409
-0.0034588068 0.061786182 0.56300002 4284775788
-0.0016243907 0.061566696 0.56100005 4284841579
0.00019738587 0.061456949 0.56 4284907372
0.0020126663 0.061347205 0.55900002 4284841579
0.0038214508 0.061237462 0.55800003 4284907372
0.0056338357 0.061237462 0.55800003 4285302130
0.0074462211 0.061237462 0.55800003 4285565815
0.0092420131 0.061127719 0.55700004 4286223745
0.011051151 0.061127719 0.55700004 4285961087
0.012860288 0.061127719 0.55700004 4283922789
0.014669425 0.061127719 0.55700004 4282146378
0.016448978 0.061017975 0.55600005 4280108078
0.018254867 0.061017975 0.55600005 4279515941
0.020024672 0.060908224 0.55500001 4279187490
0.021787986 0.060798481 0.55400002 4279384869
0.02358738 0.060798481 0.55400002 4279385639
0.025340948 0.060688738 0.55300003 4279517223
0.027137095 0.060688738 0.55300003 4279451941
0.028933238 0.060688738 0.55300003 4279583781
0.030729383 0.060688738 0.55300003 4279320609
0.032525528 0.060688738 0.55300003 4279255584
0.034321673 0.060688738 0.55300003 4279650342
0.03618313 0.060798481 0.55400002 4279452963
0.037982523 0.060798481 0.55400002 4279255584
0.039781917 0.060798481 0.55400002 4279452963
0.041581307 0.060798481 0.55400002 4279452963
0.043459006 0.060908224 0.55500001 4279255584
0.045261644 0.060908224 0.55500001 4279189791
0.047064289 0.060908224 0.55500001 4279256097
0.048954982 0.061017975 0.55600005 4278993695
0.050760869 0.061017975 0.55600005 4279059488
0.052661303 0.061127719 0.55700004 4279255584
0.054470439 0.061127719 0.55700004 4281161280
-0.0034588068 0.063615426 0.56300002 4284578409
0.025340948 0.062485494 0.55300003 4284842608
0.027137095 0.062485494 0.55300003 4284580206
0.028933238 0.062485494 0.55300003 4283659104
0.030729383 0.062485494 0.55300003 4281619519
0.032525528 0.062485494 0.55300003 4281290552
0.034383737 0.062598482 0.55400002 4282541906
0.03618313 0.062598482 0.55400002 4281686597
0.037982523 0.062598482 0.55400002 4281094456
0.039781917 0.062598482 0.55400002 4280304942
0.041581307 0.062598482 0.55400002 4280371248
0.043459006 0.062711477 0.55500001 4279713318
0.045261644 0.062711477 0.55500001 4279252767
0.047064289 0.062711477 0.55500001 4278990109
0.048954982 0.062824473 0.55600005 4278990109
0.050852165 0.062937468 0.55700004 4279779627
0.052661303 0.062937468 0.55700004 4283462756
0.050852165 0.064747214 0.55700004 4285894782
0.015316353 0.052947398 0.56034708 4294967295
0.015316353 0.052947398 0.56034708 4294901760
0.015382681 0.0524537 0.56039023 4294901760
0.015449008 0.051960006 0.56043345 4294901760
0.015515336 0.051466309 0.5604766 4294901760
0.015581663 0.050972614 0.56051981 4294901760
0.015647991 0.050478917 0.56056297 4294901760
0.015714318 0.049985223 0.56060618 4294901760
0.015780644 0.049491525 0.56064934 4294901760
0.015846973 0.048997827 0.56069255 4294901760
0.0159133 0.048504133 0.5607357 4294901760
0.015979627 0.048010435 0.56077892 4294901760
0.016045956 0.047516741 0.56082207 4294901760
0.016112283 0.047023043 0.56086528 4294901760
0.01617861 0.046529345 0.56090844 4294901760
0.016244937 0.046035651 0.56095165 4294901760
0.016311266 0.045541953 0.5609948 4294901760
0.016377592 0.045048259 0.56103802 4294901760
0.016443919 0.044554561 0.56108117 4294901760
0.016510248 0.044060864 0.56112432 4294901760
0.016576575 0.043567169 0.56116754 4294901760
0.016642902 0.043073472 0.56121069 4294901760
0.016709229 0.042579778 0.56125391 4294901760
0.016775558 0.04208608 0.56129706 4294901760
0.016841885 0.041592382 0.56134027 4294901760
0.016908212 0.041098688 0.56138343 4294901760
0.016974539 0.04060499 0.56142664 4294901760
0.017040867 0.040111296 0.56146979 4294901760
0.017107194 0.039617598 0.56151301 4294901760
0.017173521 0.0391239 0.56155616 4294901760
0.017239848 0.038630206 0.56159937 4294901760
0.017306177 0.038136508 0.56164253 4294901760
0.017372504 0.037642814 0.56168574 4294901760
0.017438831 0.037149116 0.56172889 4294901760
0.01750516 0.036655419 0.56177211 4294901760
0.017571487 0.036161724 0.56181526 4294901760
0.017637813 0.03566803 0.56185842 4294901760
0.01770414 0.035174333 0.56190163 4294901760
0.017770469 0.034680635 0.56194478 4294901760
0.017836796 0.034186937 0.561988 4294901760
0.017903123 0.033693243 0.56203115 4294901760
0.017969452 0.033199549 0.56207436 4294901760
0.018035779 0.032705851 0.56211752 4294901760
0.018102106 0.032212153 0.56216073 4294901760
0.018168433 0.031718455 0.56220388 4294901760
0.018234761 0.031224761 0.5622471 4294901760
0.018301088 0.030731065 0.56229025 4294901760
0.018367415 0.030237367 0.56233346 4294901760
0.018433742 0.029743673 0.56237662 4294901760
0.018500071 0.029249977 0.56241983 4294901760
0.018566398 0.028756279 0.56246299 4294901760
0.018632725 0.028262584 0.5625062 4294901760
0.018699054 0.027768888 0.56254935 4294901760
0.018765381 0.027275192 0.56259251 4294901760
0.018831708 0.026781496 0.56263572 4294901760
0.018898034 0.026287798 0.56267887 4294901760
0.018964363 0.025794102 0.56272209 4294901760
0.01903069 0.025300406 0.56276524 4294901760
0.019097017 0.02480671 0.56280845 4294901760
0.019163344 0.024313014 0.56285161 4294901760
0.019229673 0.023819318 0.56289482 4294901760
0.019296 0.02332562 0.56293797 4294901760
0.019362327 0.022831924 0.56298119 4294901760
0.019428656 0.022338228 0.56302434 4294901760
0.019494982 0.021844532 0.56306756 4294901760
0.019561309 0.021350835 0.56311071 4294901760
0.019627636 0.02085714 0.56315392 4294901760
0.019693965 0.020363443 0.56319708 4294901760
0.019760292 0.019869745 0.56324023 4294901760
0.019826619 0.019376051 0.56328344 4294901760
0.019892946 0.018882353 0.5633266 4294901760
0.019959275 0.018388659 0.56336981 4294901760
0.020025602 0.017894961 0.56341296 4294901760
0.020091929 0.017401263 0.56345618 4294901760
0.020158257 0.016907569 0.56349933 4294901760
0.020224584 0.016413871 0.56354254 4294901760
0.020290911 0.015920177 0.5635857 4294901760
0.020357238 0.015426479 0.56362891 4294901760
0.020423565 0.014932785 0.56367207 4294901760
0.020489894 0.014439087 0.56371528 4294901760
0.020556221 0.01394539 0.56375843 4294901760
0.020622548 0.013451695 0.56380165 4294901760
0.020688877 0.012957998 0.5638448 4294901760
0.020755203 0.012464304 0.56388801 4294901760
0.02082153 0.011970606 0.56393117 4294901760
0.020887859 0.011476912 0.56397432 4294901760
0.020954186 0.010983214 0.56401753 4294901760
0.021020513 0.010489516 0.56406069 4294901760
0.021086842 0.0099958219 0.5641039 4294901760
0.021153169 0.009502124 0.56414706 4294901760
0.021219496 0.0090084299 0.56419027 4294901760
0.021285823 0.0085147321 0.56423342 4294901760
0.02135215 0.0080210343 0.56427664 4294901760
0.021418478 0.0075273365 0.56431979 4294901760
0.021484805 0.0070336424 0.564363 4294901760
0.021551132 0.0065399483 0.56440616 4294901760
0.021617461 0.0060462505 0.56444937 4294901760
0.021683788 0.0055525564 0.56449252 4294901760
0.021750115 0.0050588548 0.56453574 4294901760
0.021816444 0.0045651607 0.56457889 4294901760
0.021882771 0.0040714629 0.5646221 4294901760
0.021949098 0.0035777688 0.56466526 4294901760
0.015316353 0.052947398 0.56034708 4278255360
0.015779836 0.052993771 0.56016535 4278255360
0.016243318 0.053040139 0.55998355 4278255360
0.016706802 0.053086512 0.55980182 4278255360
0.017170284 0.053132884 0.55962008 4278255360
0.017633768 0.053179257 0.55943835 4278255360
0.01809725 0.053225625 0.55925655 4278255360
0.018560734 0.053271998 0.55907482 4278255360
0.019024216 0.05331837 0.55889308 4278255360
0.019487699 0.053364739 0.55871135 4278255360
0.019951181 0.053411111 0.55852956 4278255360
0.020414665 0.053457484 0.55834782 4278255360
0.020878147 0.053503852 0.55816609 4278255360
0.021341629 0.053550225 0.55798429 4278255360
0.021805113 0.053596597 0.55780256 4278255360
0.022268597 0.053642966 0.55762082 4278255360
0.022732079 0.053689338 0.55743909 4278255360
0.023195561 0.053735711 0.55725729 4278255360
0.023659047 0.053782083 0.55707556 4278255360
0.024122529 0.053828452 0.55689383 4278255360
0.024586011 0.053874824 0.55671209 4278255360
0.025049493 0.053921197 0.5565303 4278255360
0.025512977 0.053967565 0.55634856 4278255360
0.02597646 0.054013938 0.55616683 4278255360
0.026439942 0.05406031 0.55598509 4278255360
0.026903424 0.054106683 0.5558033 4278255360
0.027366906 0.054153051 0.55562156 4278255360
0.027830392 0.054199424 0.55543983 4278255360
0.028293874 0.054245796 0.55525804 4278255360
0.028757356 0.054292165 0.5550763 4278255360
0.02922084 0.054338537 0.55489457 4278255360
0.029684324 0.05438491 0.55471283 4278255360
0.030147806 0.054431278 0.55453104 4278255360
0.030611288 0.054477651 0.5543493 4278255360
0.03107477 0.054524023 0.55416757 4278255360
0.031538256 0.054570392 0.55398583 4278255360
0.032001738 0.054616764 0.55380404 4278255360
0.032465219 0.054663137 0.55362231 4278255360
0.032928701 0.054709509 0.55344057 4278255360
0.033392183 0.054755878 0.55325878 4278255360
0.033855669 0.05480225 0.55307704 4278255360
0.034319151 0.054848623 0.55289531 4278255360
0.034782633 0.054894991 0.55271357 4278255360
0.035246119 0.054941364 0.55253178 4278255360
0.035709601 0.054987736 0.55235004 4278255360
0.036173083 0.055034108 0.55216831 4278255360
0.036636565 0.055080477 0.55198658 4278255360
0.037100051 0.05512685 0.55180478 4278255360
0.037563533 0.055173222 0.55162305 4278255360
0.038027015 0.055219591 0.55144131 4278255360
0.038490497 0.055265963 0.55125952 4278255360
0.038953979 0.055312335 0.55107778 4278255360
0.039417461 0.055358704 0.55089605 4278255360
0.039880946 0.055405077 0.55071431 4278255360
0.040344428 0.055451449 0.55053252 4278255360
0.040807914 0.055497818 0.55035079 4278255360
0.041271396 0.05554419 0.55016905 4278255360
0.041734878 0.055590563 0.54998732 4278255360
0.04219836 0.055636935 0.54980552 4278255360
0.042661842 0.055683304 0.54962379 4278255360
0.043125328 0.055729676 0.54944205 4278255360
0.04358881 0.055776048 0.54926032 4278255360
0.044052292 0.055822417 0.54907852 4278255360
0.044515774 0.05586879 0.54889679 4278255360
0.044979256 0.055915162 0.54871505 4278255360
0.045442741 0.055961534 0.54853326 4278255360
0.045906223 0.056007903 0.54835153 4278255360
0.046369709 0.056054275 0.54816979 4278255360
0.046833187 0.056100648 0.54798806 4278255360
0.047296673 0.056147017 0.54780626 4278255360
0.047760155 0.056193389 0.54762453 4278255360
0.048223637 0.056239761 0.54744279 4278255360
0.048687123 0.05628613 0.54726106 4278255360
0.049150605 0.056332503 0.54707927 4278255360
0.049614087 0.056378875 0.54689753 4278255360
0.050077569 0.056425244 0.5467158 4278255360
0.050541051 0.056471616 0.546534 4278255360
0.051004533 0.056517988 0.54635227 4278255360
0.051468015 0.056564361 0.54617053 4278255360
0.0519315 0.05661073 0.5459888 4278255360
0.052394982 0.056657102 0.545807 4278255360
0.052858464 0.056703474 0.54562527 4278255360
0.05332195 0.056749843 0.54544353 4278255360
0.053785432 0.056796215 0.5452618 4278255360
0.054248914 0.056842588 0.54508001 4278255360
0.0547124 0.05688896 0.54489827 4278255360
0.055175882 0.056935329 0.54471654 4278255360
0.055639364 0.056981701 0.5445348 4278255360
0.056102846 0.057028074 0.54435301 4278255360
0.056566328 0.057074443 0.54417127 4278255360
0.05702981 0.057120815 0.54398954 4278255360
0.057493296 0.057167187 0.54380774 4278255360
0.057956778 0.057213556 0.54362601 4278255360
0.05842026 0.057259928 0.54344428 4278255360
0.058883745 0.057306301 0.54326254 4278255360
0.059347227 0.05735267 0.54308075 4278255360
0.059810709 0.057399042 0.54289901 4278255360
0.060274195 0.057445414 0.54271728 4278255360
0.060737677 0.057491787 0.54253554 4278255360
0.061201159 0.057538155 0.54235375 4278255360
0.061664641 0.057584528 0.54217201 4278255360
0.015316353 0.052947398 0.56034708 4278190335
0.015446108 0.053006746 0.5608263 4278190335
0.015575862 0.053066093 0.56130552 4278190335
0.015705617 0.053125437 0.56178468 4278190335
0.015835371 0.053184785 0.56226391 4278190335
0.015965126 0.053244133 0.56274313 4278190335
0.01609488 0.05330348 0.56322235 4278190335
0.016224634 0.053362828 0.56370157 4278190335
0.016354389 0.053422175 0.56418073 4278190335
0.016484143 0.053481519 0.56465995 4278190335
0.016613899 0.053540867 0.56513917 4278190335
0.016743653 0.053600214 0.5656184 4278190335
0.016873408 0.053659562 0.56609762 4278190335
0.017003162 0.05371891 0.56657678 4278190335
0.017132916 0.053778253 0.567056 4278190335
0.017262671 0.053837601 0.56753522 4278190335
0.017392425 0.053896949 0.56801444 4278190335
0.01752218 0.053956296 0.56849366 4278190335
0.017651934 0.054015644 0.56897283 4278190335
0.01778169 0.054074991 0.56945205 4278190335
0.017911443 0.054134335 0.56993127 4278190335
0.018041197 0.054193683 0.57041049 4278190335
0.018170953 0.054253031 0.57088971 4278190335
0.018300707 0.054312378 0.57136887 4278190335
0.018430462 0.054371726 0.57184809 4278190335
0.018560216 0.054431073 0.57232732 4278190335
0.018689971 0.054490417 0.57280654 4278190335
0.018819725 0.054549765 0.57328576 4278190335
0.018949479 0.054609112 0.57376492 4278190335
0.019079234 0.05466846 0.57424414 4278190335
0.019208988 0.054727808 0.57472336 4278190335
0.019338744 0.054787152 0.57520258 4278190335
0.019468497 0.054846499 0.57568181 4278190335
0.019598253 0.054905847 0.57616097 4278190335
0.019728007 0.054965194 0.57664019 4278190335
0.019857761 0.055024542 0.57711941 4278190335
0.019987516 0.05508389 0.57759863 4278190335
0.02011727 0.055143233 0.57807785 4278190335
0.020247024 0.055202581 0.57855701 4278190335
0.020376779 0.055261929 0.57903624 4278190335
0.020506535 0.055321276 0.57951546 4278190335
0.020636288 0.055380624 0.57999468 4278190335
0.020766042 0.055439968 0.5804739 4278190335
0.020895798 0.055499315 0.58095306 4278190335
0.021025551 0.055558663 0.58143228 4278190335
0.021155305 0.05561801 0.5819115 4278190335
0.021285061 0.055677358 0.58239073 4278190335
0.021414816 0.055736706 0.58286995 4278190335
0.02154457 0.05579605 0.58334911 4278190335
0.021674324 0.055855397 0.58382833 4278190335
0.021804079 0.055914745 0.58430755 4278190335
0.021933833 0.055974092 0.58478677 4278190335
0.022063587 0.05603344 0.58526599 4278190335
0.022193342 0.056092784 0.58574516 4278190335
0.022323098 0.056152131 0.58622438 4278190335
0.022452852 0.056211479 0.5867036 4278190335
0.022582605 0.056270827 0.58718282 4278190335
0.022712361 0.056330174 0.58766204 4278190335
0.022842115 0.056389522 0.5881412 4278190335
0.022971869 0.056448866 0.58862042 4278190335
0.023101624 0.056508213 0.58909965 4278190335
0.02323138 0.056567561 0.58957887 4278190335
0.023361133 0.056626908 0.59005809 4278190335
0.023490887 0.056686256 0.59053725 4278190335
0.023620643 0.0567456 0.59101647 4278190335
0.023750396 0.056804948 0.59149569 4278190335
0.02388015 0.056864295 0.59197491 4278190335
0.024009906 0.056923643 0.59245414 4278190335
0.024139661 0.05698299 0.5929333 4278190335
0.024269415 0.057042338 0.59341252 4278190335
0.024399169 0.057101682 0.59389174 4278190335
0.024528924 0.057161029 0.59437096 4278190335
0.02465868 0.057220377 0.59485018 4278190335
0.024788432 0.057279725 0.59532934 4278190335
0.024918187 0.057339072 0.59580857 4278190335
0.025047943 0.057398416 0.59628779 4278190335
0.025177695 0.057457764 0.59676701 4278190335
0.02530745 0.057517111 0.59724623 4278190335
0.025437206 0.057576459 0.59772539 4278190335
0.02556696 0.057635807 0.59820461 4278190335
0.025696713 0.057695154 0.59868383 4278190335
0.025826469 0.057754498 0.59916306 4278190335
0.025956225 0.057813846 0.59964228 4278190335
0.026085977 0.057873193 0.60012144 4278190335
0.026215732 0.057932541 0.60060066 4278190335
0.026345488 0.057991888 0.60107988 4278190335
0.026475241 0.058051236 0.6015591 4278190335
0.026604995 0.05811058 0.60203832 4278190335
0.026734751 0.058169927 0.60251749 4278190335
0.026864504 0.058229275 0.60299671 4278190335
0.026994258 0.058288623 0.60347593 4278190335
0.027124014 0.05834797 0.60395515 4278190335
0.027253769 0.058407314 0.60443437 4278190335
0.027383523 0.058466662 0.60491353 4278190335
0.027513277 0.058526009 0.60539275 4278190335
0.027643032 0.058585357 0.60587198 4278190335
0.027772786 0.058644705 0.6063512 4278190335
0.027902542 0.058704052 0.60683042 4278190335
0.028032295 0.058763396 0.60730958 4278190335
0.028162051 0.058822744 0.6077888 4278190335
0.028291805 0.058882091 0.60826802 4278190335
0.015316353 0.052947398 0.56034708 4294967295
0.014537826 0.052591316 0.55747181 4294967295
0.013759299 0.052235235 0.55459654 4294967295
0.012980772 0.051879153 0.55172133 4294967295
0.012202244 0.051523071 0.54884607 4294967295
0.011423717 0.051166989 0.5459708 4294967295
0.01064519 0.050810907 0.54309553 4294967295
0.0098666633 0.050454825 0.54022026 4294967295
0.0090881363 0.050098747 0.53734505 4294967295
0.0083096083 0.049742661 0.53446978 4294967295
0.0075310818 0.049386583 0.53159451 4294967295
0.0067525553 0.049030501 0.52871925 4294967295
0.0059740283 0.04867442 0.52584398 4294967295
0.0051955013 0.048318338 0.52296877 4294967295
0.0044169733 0.047962256 0.5200935 4294967295
0.0036384463 0.047606174 0.51721823 4294967295
0.0028599193 0.047250092 0.51434296 4294967295
0.0020813923 0.04689401 0.5114677 4294967295
0.0013028644 0.046537928 0.50859249 4294967295
0.00052433833 0.046181846 0.50571722 4294967295
-0.0002541896 0.045825765 0.50284195 4294967295
-0.0010327147 0.045469683 0.49996668 4294967295
-0.0018112427 0.045113601 0.49709141 4294967295
-0.0025897706 0.044757519 0.49421617 4294967295
-0.0033682967 0.044401437 0.49134094 4294967295
-0.0041468246 0.044045359 0.48846567 4294967295
-0.0049253507 0.043689277 0.4855904 4294967295
-0.0057038805 0.043333195 0.48271513 4294967295
-0.0064824065 0.042977113 0.47983989 4294967295
-0.0072609326 0.042621031 0.47696465 4294967295
-0.0080394605 0.04226495 0.47408938 4294967295
-0.0088179866 0.041908868 0.47121412 4294967295
-0.0095965145 0.041552786 0.46833885 4294967295
-0.010375042 0.041196704 0.46546361 4294967295
-0.011153569 0.040840622 0.46258834 4294967295
-0.011932095 0.04048454 0.4597131 4294967295
-0.012710624 0.040128458 0.45683783 4294967295
-0.01348915 0.039772376 0.45396256 4294967295
-0.014267677 0.039416295 0.45108733 4294967295
-0.015046203 0.039060213 0.44821206 4294967295
-0.015824731 0.038704131 0.44533682 4294967295
-0.016603258 0.038348049 0.44246155 4294967295
-0.017381784 0.037991971 0.43958628 4294967295
-0.018160313 0.037635885 0.43671104 4294967295
-0.018938839 0.037279807 0.43383577 4294967295
-0.019717366 0.036923725 0.43096054 4294967295
-0.020495895 0.036567643 0.42808527 4294967295
-0.021274421 0.036211561 0.42521 4294967295
-0.022052947 0.03585548 0.42233476 4294967295
-0.022831477 0.035499398 0.41945949 4294967295
-0.023610003 0.035143316 0.41658425 4294967295
-0.024388529 0.034787234 0.41370898 4294967295
-0.025167055 0.034431152 0.41083372 4294967295
-0.025945581 0.034075074 0.40795848 4294967295
-0.026724115 0.033718988 0.40508321 4294967295
-0.027502641 0.033362906 0.40220797 4294967295
-0.028281167 0.033006825 0.3993327 4294967295
-0.029059693 0.032650746 0.39645743 4294967295
-0.029838219 0.032294661 0.3935822 4294967295
-0.030616745 0.031938583 0.39070696 4294967295
-0.031395275 0.031582497 0.38783166 4294967295
-0.032173801 0.031226417 0.38495642 4294967295
-0.032952327 0.030870335 0.38208115 4294967295
-0.033730857 0.030514255 0.37920588 4294967295
-0.034509383 0.030158173 0.37633064 4294967295
-0.035287909 0.029802091 0.37345541 4294967295
-0.036066439 0.029446008 0.37058014 4294967295
-0.036844965 0.029089928 0.36770487 4294967295
-0.037623491 0.028733846 0.3648296 4294967295
-0.038402017 0.028377764 0.36195436 4294967295
-0.039180543 0.028021684 0.35907912 4294967295
-0.039959069 0.027665602 0.35620385 4294967295
-0.040737603 0.027309518 0.35332859 4294967295
-0.041516129 0.026953436 0.35045332 4294967295
-0.042294655 0.026597356 0.34757808 4294967295
-0.043073181 0.026241275 0.34470281 4294967295
-0.043851707 0.025885193 0.34182757 4294967295
-0.044630233 0.025529113 0.3389523 4294967295
-0.045408759 0.025173031 0.33607703 4294967295
-0.046187293 0.024816947 0.33320177 4294967295
-0.046965819 0.024460865 0.33032653 4294967295
-0.047744341 0.024104785 0.32745129 4294967295
-0.048522867 0.023748703 0.32457602 4294967295
-0.049301393 0.023392621 0.32170075 4294967295
-0.050079919 0.023036541 0.31882551 4294967295
-0.050858453 0.022680458 0.31595024 4294967295
-0.051636979 0.022324376 0.31307501 4294967295
-0.052415505 0.021968294 0.31019974 4294967295
-0.053194031 0.021612212 0.30732447 4294967295
-0.053972557 0.02125613 0.30444923 4294967295
-0.054751083 0.020900052 0.30157396 4294967295
-0.055529617 0.020543966 0.29869869 4294967295
-0.056308143 0.020187885 0.29582345 4294967295
-0.057086669 0.019831806 0.29294819 4294967295
-0.057865195 0.019475725 0.29007295 4294967295
-0.058643721 0.019119643 0.28719768 4294967295
-0.059422247 0.018763561 0.28432244 4294967295
-0.060200781 0.018407479 0.28144717 4294967295
-0.060979307 0.018051397 0.2785719 4294967295
-0.061757833 0.017695315 0.27569667 4294967295
-0.062536359 0.017339233 0.2728214 4294967295
