# .PCD v0.7 - Point Cloud Data file format
VERSION 0.7
FIELDS x y z rgb
SIZE 4 4 4 4
TYPE F F F U
COUNT 1 1 1 1
WIDTH 648
HEIGHT 1
VIEWPOINT 0 0 0 1 0 0 0
POINTS 648
DATA ascii
0.084751211 -0.080776803 0.42700002 4280834618
0.086138099 -0.080776803 0.42700002 4280046637
0.087525003 -0.080776803 0.42700002 4279718182
0.088911898 -0.080776803 0.42700002 4279848486
0.081785433 -0.079203516 0.42600003 4280569141
0.08316908 -0.079203516 0.42600003 4280570422
0.084552728 -0.079203516 0.42600003 4280047151
0.086138099 -0.079389438 0.42700002 4279588394
0.087525003 -0.079389438 0.42700002 4279193634
0.088911898 -0.079389438 0.42700002 4279851051
0.081593439 -0.077636719 0.42500001 4280375350
0.082973845 -0.077636719 0.42500001 4280047151
0.084552728 -0.0778194 0.42600003 4279654187
0.085936375 -0.0778194 0.42600003 4279391015
0.08732003 -0.0778194 0.42600003 4279390502
0.088911898 -0.078002073 0.42700002 4280175403
0.078647159 -0.076076433 0.42400002 4280636469
0.080024309 -0.076076433 0.42400002 4280375350
0.081593439 -0.076255858 0.42500001 4279457326
0.082973845 -0.076255858 0.42500001 4279457580
0.084354244 -0.076255858 0.42500001 4279523369
0.085936375 -0.076435283 0.42600003 4279062048
0.075534865 -0.074346453 0.42200002 4283002970
0.076905519 -0.074346453 0.42200002 4281031743
0.078461662 -0.074522629 0.42300001 4279916848
0.080024309 -0.074698813 0.42400002 4279785775
0.08140146 -0.074698813 0.42400002 4279326508
0.082778618 -0.074698813 0.42400002 4279260713
0.084354244 -0.074874982 0.42500001 4279062052
0.087115049 -0.074874982 0.42500001 4282411081
0.073812723 -0.072629482 0.42000002 4282015821
0.07535588 -0.072802417 0.42100003 4280836161
0.076723285 -0.072802417 0.42100003 4279588142
0.07827618 -0.072975338 0.42200002 4279326506
0.079835571 -0.073148265 0.42300001 4279129127
0.08140146 -0.073321193 0.42400002 4279194920
0.082778618 -0.073321193 0.42400002 4279194406
0.084155768 -0.073321193 0.42400002 4281229628
0.073636979 -0.071095183 0.41900003 4280637239
0.074997894 -0.071095183 0.41900003 4279588142
0.076541036 -0.071264856 0.42000002 4279326508
0.07809069 -0.071434543 0.42100003 4279129638
0.079646841 -0.071604215 0.42200002 4278998052
0.081209473 -0.071773894 0.42300001 4280047662
0.082778618 -0.071943574 0.42400002 4280441393
0.085734643 -0.072113246 0.42500001 4282542667
0.071758568 -0.06923452 0.41600001 4280112692
0.07328549 -0.069400951 0.41700003 4279719215
0.074818894 -0.069567382 0.41800001 4279589426
0.076358803 -0.069733813 0.41900003 4279260715
0.077719718 -0.069733813 0.41900003 4278800673
0.079458103 -0.070066668 0.42100003 4280377910
0.081209473 -0.070399523 0.42300001 4280966456
0.082583375 -0.070399523 0.42300001 4281425724
0.068724237 -0.067556538 0.41400003 4281096766
0.070068903 -0.067556538 0.41400003 4280506682
0.071586072 -0.067719713 0.41500002 4279259947
0.073109739 -0.067882888 0.41600001 4279392047
0.074460909 -0.067882888 0.41600001 4279129388
0.07599432 -0.068046071 0.41700003 4279129642
0.077534221 -0.068209253 0.41800001 4280376114
0.079269364 -0.068535611 0.42000002 4280375600
0.067054056 -0.065891542 0.41200003 4280833596
0.068558231 -0.066051468 0.41300002 4280310584
0.069899656 -0.066051468 0.41300002 4279588142
0.071413584 -0.066211402 0.41400003 4279327021
0.072758257 -0.066211402 0.41400003 4278735654
0.074281923 -0.066371337 0.41500002 4278734884
0.075629838 -0.066371337 0.41500002 4280508985
0.077163242 -0.066531263 0.41600001 4280572211
0.067054056 -0.064552918 0.41200003 4280309555
0.068392232 -0.064552918 0.41200003 4279654957
0.069730408 -0.064552918 0.41200003 4279458603
0.071241081 -0.064709596 0.41300002 4279130408
0.072582506 -0.064709596 0.41300002 4278998052
0.074102931 -0.064866282 0.41400003 4280901946
0.075447597 -0.064866282 0.41400003 4280440625
0.06555637 -0.06306085 0.41100001 4279391017
0.066891305 -0.06306085 0.41100001 4279260715
0.068226233 -0.06306085 0.41100001 4279261224
0.069730408 -0.06321428 0.41200003 4278999076
0.071068585 -0.06321428 0.41200003 4279260965
0.072406769 -0.06321428 0.41200003 4280837178
0.073923938 -0.06336771 0.41300002 4280505905
0.075265355 -0.06336771 0.41300002 4282477642
0.064065196 -0.061575286 0.41000003 4279653422
0.065396868 -0.061575286 0.41000003 4279194922
0.066891305 -0.061725467 0.41100001 4279261226
0.068226233 -0.061725467 0.41100001 4279064615
0.069561154 -0.061725467 0.41100001 4279129638
0.070896089 -0.061725467 0.41100001 4280902456
0.072406769 -0.061875656 0.41200003 4280375600
0.062733509 -0.060243152 0.41000003 4279916848
0.064065196 -0.060243152 0.41000003 4279325992
0.065396868 -0.060243152 0.41000003 4279064619
0.066728555 -0.060243152 0.41000003 4279130410
0.068060234 -0.060243152 0.41000003 4279260199
0.069561154 -0.060390085 0.41100001 4280640569
0.070896089 -0.060390085 0.41100001 4280178223
0.077759475 -0.060537022 0.41200003 4285895032
0.061401825 -0.058911026 0.41000003 4279653422
0.062733509 -0.058911026 0.41000003 4279260713
0.063908935 -0.058767337 0.40900001 4279195431
0.065237358 -0.058767337 0.40900001 4279064617
0.066728555 -0.058911026 0.41000003 4279129642
0.068060234 -0.058911026 0.41000003 4280640317
0.069391914 -0.058911026 0.41000003 4280506934
0.076421298 -0.059198394 0.41200003 4285828726
0.063752681 -0.057298016 0.40800002 4279195431
0.065237358 -0.057438452 0.40900001 4279786543
0.066565797 -0.057438452 0.40900001 4281034559
0.067894228 -0.057438452 0.40900001 4280374578
0.072231017 -0.057719324 0.41100001 4280832303
0.06359642 -0.055835195 0.40700001 4279655469
0.065077856 -0.055972386 0.40800002 4280639799
0.066403046 -0.055972386 0.40800002 4280836153
0.067894228 -0.05610957 0.40900001 4280438577
0.072055273 -0.056246761 0.41000003 4282738765
0.073565945 -0.056383945 0.41100001 4285631860
0.060353503 -0.053977061 0.40300003 4278933281
0.061815456 -0.054110996 0.40400001 4280575287
0.063440166 -0.054378871 0.40600002 4280574776
0.072055273 -0.054914627 0.41000003 4285631093
0.053007659 -0.051883534 0.39700001 4280506682
0.054297112 -0.051883534 0.39700001 4279325742
0.055726588 -0.052014224 0.39800003 4279261226
0.057162557 -0.052144911 0.39900002 4279130410
0.058605023 -0.052275598 0.40000001 4279064615
0.060203739 -0.052536976 0.40200001 4279787057
0.06166245 -0.05266767 0.40300003 4280771133
0.069053411 -0.053321112 0.40800002 4282804045
0.07055109 -0.053451799 0.40900001 4286157950
0.051587928 -0.050466206 0.39600003 4280965180
0.05287414 -0.050466206 0.39600003 4279653937
0.054297112 -0.050593644 0.39700001 4279260715
0.055726588 -0.050721087 0.39800003 4279129638
0.057162557 -0.050848521 0.39900002 4279195431
0.058605023 -0.05097596 0.40000001 4280115508
0.060203739 -0.05123084 0.40200001 4280837948
0.069053411 -0.051995482 0.40800002 4286289536
0.070378602 -0.051995482 0.40800002 4285959288
0.05004767 -0.048931178 0.39400002 4280703284
0.051457655 -0.049055368 0.39500001 4279851055
0.05287414 -0.049179561 0.39600003 4279326508
0.054297112 -0.049303748 0.39700001 4279064617
0.055586569 -0.049303748 0.39700001 4279195431
0.057019293 -0.049427941 0.39800003 4280707643
0.058605023 -0.049676321 0.40000001 4280770870
0.066077538 -0.050421465 0.40600002 4282737998
0.06756223 -0.050545655 0.40700001 4286223230
0.069053411 -0.050669849 0.40800002 4286091644
0.070378602 -0.050669849 0.40800002 4286222714
0.071703784 -0.050669849 0.40800002 4286222714
0.048644178 -0.047530089 0.39300001 4280505399
0.05004767 -0.047651034 0.39400002 4279392301
0.051457655 -0.047771972 0.39500001 4279261228
0.052740615 -0.047771972 0.39500001 4279064617
0.054160345 -0.047892917 0.39600003 4278735652
0.055586569 -0.048013855 0.39700001 4280641082
0.057019293 -0.0481348 0.39800003 4280706360
0.065914787 -0.048981391 0.40500003 4285895032
0.06756223 -0.04922327 0.40700001 4285960312
0.068884164 -0.04922327 0.40700001 4286091898
0.070378602 -0.049344216 0.40800002 4285960312
0.071703784 -0.049344216 0.40800002 4286157691
0.038334671 -0.0461355 0.39200002 4279457076
0.047367714 -0.046253193 0.39300001 4279719215
0.048644178 -0.046253193 0.39300001 4279260461
0.05004767 -0.046370886 0.39400002 4278867751
0.051327381 -0.046370886 0.39400002 4279065130
0.052740615 -0.046488576 0.39500001 4278867749
0.054160345 -0.046606272 0.39600003 4280050227
0.055586569 -0.046723962 0.39700001 4280047662
0.064280339 -0.04743012 0.40300003 4285894517
0.065914787 -0.047665507 0.40500003 4286091898
0.06756223 -0.047900889 0.40700001 4286091898
0.069053411 -0.048018582 0.40800002 4286157691
0.070378602 -0.048018582 0.40800002 4285894519
0.038334671 -0.044861849 0.39200002 4279261228
0.03960789 -0.044861849 0.39200002 4279655219
0.040881105 -0.044861849 0.39200002 4279983672
0.04215432 -0.044861849 0.39200002 4280047928
0.043427538 -0.044861849 0.39200002 4280244539
0.044700753 -0.044861849 0.39200002 4279850803
0.045973971 -0.044861849 0.39200002 4279588142
0.047247186 -0.044861849 0.39200002 4279195435
0.048644178 -0.04497629 0.39300001 4279064619
0.05004767 -0.045090739 0.39400002 4279196201
0.051327381 -0.045090739 0.39400002 4278735650
0.052740615 -0.04520518 0.39500001 4281035838
0.054160345 -0.045319624 0.39600003 4280376112
0.056876026 -0.045434065 0.39700001 4280832051
0.061356433 -0.04589184 0.40100002 4282737480
0.062815137 -0.046006285 0.40200001 4285763698
0.064280339 -0.046120729 0.40300003 4286091380
0.065914787 -0.046349615 0.40500003 4286222712
0.06756223 -0.0465785 0.40700001 4286091898
0.069053411 -0.046692945 0.40800002 4285894519
0.070378602 -0.046692945 0.40800002 4285960312
0.035022616 -0.045923285 0.41300002 4280299043
0.03627599 -0.045812089 0.41200003 4280234018
0.037614167 -0.045812089 0.41200003 4279447578
0.038334671 -0.043588202 0.39200002 4278669089
0.03960789 -0.043588202 0.39200002 4279129640
0.040881105 -0.043588202 0.39200002 4280050742
0.04215432 -0.043588202 0.39200002 4279194920
0.043427538 -0.043588202 0.39200002 4279325994
0.044700753 -0.043588202 0.39200002 4279522349
0.045973971 -0.043588202 0.39200002 4279787059
0.047367714 -0.043699395 0.39300001 4279130412
0.048644178 -0.043699395 0.39300001 4279393584
0.05004767 -0.043810591 0.39400002 4279327787
0.051457655 -0.043921784 0.39500001 4280115506
0.052740615 -0.043921784 0.39500001 4280901942
0.054160345 -0.04403298 0.39600003 4280374319
0.059904218 -0.044477757 0.40000001 4283001170
0.061356433 -0.044588953 0.40100002 4286289790
0.062815137 -0.044700146 0.40200001 4285895032
0.064280339 -0.044811342 0.40300003 4286026618
0.065914787 -0.045033731 0.40500003 4286091898
0.06756223 -0.045256115 0.40700001 4285960058
0.069053411 -0.045367312 0.40800002 4286091644
0.070378602 -0.045367312 0.40800002 4285960312
0.035022616 -0.044581406 0.41300002 4279904799
0.036364038 -0.044581406 0.41300002 4279970592
0.037614167 -0.044473462 0.41200003 4279576858
0.038952347 -0.044473462 0.41200003 4278795800
0.03843246 -0.0424225 0.39300001 4278600216
0.039708927 -0.0424225 0.39300001 4278602783
0.040881105 -0.042314555 0.39200002 4278734882
0.04215432 -0.042314555 0.39200002 4278406687
0.043427538 -0.042314555 0.39200002 4279327789
0.044700753 -0.042314555 0.39200002 4283143531
0.046091251 -0.0424225 0.39300001 4279590961
0.047367714 -0.0424225 0.39300001 4279065128
0.048767958 -0.042530444 0.39400002 4278472478
0.05004767 -0.042530444 0.39400002 4280508981
0.051457655 -0.042638388 0.39500001 4280771383
0.059904218 -0.043178115 0.40000001 4285895292
0.061356433 -0.043286063 0.40100002 4285895032
0.062815137 -0.043394007 0.40200001 4285960312
0.064280339 -0.043501955 0.40300003 4285894519
0.065914787 -0.043717843 0.40500003 4286091898
0.06756223 -0.043933731 0.40700001 4286157691
0.069053411 -0.044041678 0.40800002 4285960312
0.070378602 -0.044041678 0.40800002 4286091128
0.032652985 -0.043658312 0.41700003 4280036639
0.0340074 -0.043658312 0.41700003 4279970846
0.035107419 -0.043344226 0.41400003 4279773213
0.036364038 -0.043239526 0.41300002 4279707420
0.037614167 -0.043134831 0.41200003 4279774237
0.038952347 -0.043134831 0.41200003 4278795033
0.03843246 -0.0411456 0.39300001 4278730007
0.039708927 -0.0411456 0.39300001 4278535193
0.040985391 -0.0411456 0.39300001 4278733855
0.042261854 -0.0411456 0.39300001 4278931746
0.043538321 -0.0411456 0.39300001 4279063845
0.044814784 -0.0411456 0.39300001 4278867749
0.046091251 -0.0411456 0.39300001 4278604577
0.047488246 -0.0412503 0.39400002 4279393580
0.048767958 -0.0412503 0.39400002 4279721775
0.050174691 -0.041354995 0.39500001 4280705590
0.051587928 -0.041459691 0.39600003 4280902458
0.05287414 -0.041459691 0.39600003 4280768053
0.032652985 -0.042303436 0.41700003 4279970846
0.033844296 -0.042100541 0.41500002 4279641367
0.035107419 -0.041999094 0.41400003 4279772953
0.036364038 -0.041897647 0.41300002 4279773465
0.037614167 -0.0417962 0.41200003 4279642649
0.038952347 -0.0417962 0.41200003 4278530832
0.040192727 -0.041694753 0.41100001 4278993179
0.039708927 -0.039868705 0.39300001 4278533910
0.04108968 -0.039970152 0.39400002 4278797082
0.042261854 -0.039868705 0.39300001 4278995744
0.043538321 -0.039868705 0.39300001 4278997025
0.044814784 -0.039868705 0.39300001 4279655982
0.046208534 -0.039970152 0.39400002 4279063847
0.047488246 -0.039970152 0.39400002 4279852336
0.048891731 -0.040071599 0.39500001 4280377910
0.050301719 -0.040173046 0.39600003 4280902458
0.051587928 -0.040173046 0.39600003 4281033530
0.03257468 -0.04085036 0.41600001 4280299295
0.033844296 -0.040752165 0.41500002 4280101403
0.035107419 -0.040653966 0.41400003 4279838231
0.036364038 -0.040555768 0.41300002 4279510293
0.037614167 -0.040457573 0.41200003 4279644184
0.038952347 -0.040457573 0.41200003 4278794263
0.040290523 -0.040457573 0.41200003 4278466835
0.0416287 -0.040457573 0.41200003 4278599191
0.04119397 -0.038788203 0.39500001 4278862877
0.042369392 -0.038690008 0.39400002 4279455012
0.043649107 -0.038690008 0.39400002 4279851053
0.044928819 -0.038690008 0.39400002 4279786543
0.046208534 -0.038690008 0.39400002 4279852338
0.04760877 -0.038788203 0.39500001 4280509498
0.049015511 -0.038886402 0.39600003 4280574008
0.050301719 -0.038886402 0.39600003 4280705081
0.051718198 -0.0389846 0.39700001 4281559106
0.054433882 -0.039082799 0.39800003 4282871121
0.055726588 -0.039082799 0.39800003 4285762933
0.03257468 -0.039498735 0.41600001 4279904539
0.033844296 -0.039403789 0.41500002 4280036125
0.035107419 -0.039308839 0.41400003 4279838233
0.036364038 -0.039213888 0.41300002 4279379475
0.037614167 -0.039118942 0.41200003 4280039969
0.03781781 -0.037979554 0.40000001 4278793750
0.03901922 -0.037884604 0.39900002 4278729494
0.040214133 -0.037789658 0.39800003 4278533912
0.041298259 -0.037599761 0.39600003 4278994463
0.04247693 -0.037504807 0.39500001 4279258146
0.04375989 -0.037504807 0.39500001 4279390502
0.04504285 -0.037504807 0.39500001 4279851566
0.046325814 -0.037504807 0.39500001 4279983152
0.04760877 -0.037504807 0.39500001 4280377397
0.049015511 -0.037599761 0.39600003 4280705594
0.050301719 -0.037599761 0.39600003 4281165632
0.051718198 -0.037694708 0.39700001 4280769590
0.05314118 -0.037789658 0.39800003 4283922524
0.03257468 -0.03814711 0.41600001 4280035871
0.033925846 -0.03814711 0.41600001 4279904539
0.034089811 -0.036863312 0.40200001 4279838746
0.035395507 -0.036863312 0.40200001 4279577367
0.036701199 -0.036863312 0.40200001 4279317014
0.03781781 -0.036679912 0.40000001 4278728470
0.03901922 -0.036588214 0.39900002 4278532115
0.040214133 -0.036496516 0.39800003 4278533912
0.041402545 -0.036404815 0.39700001 4279126049
0.042584468 -0.036313117 0.39600003 4279587111
0.04375989 -0.036221415 0.39500001 4280180018
0.04504285 -0.036221415 0.39500001 4279917359
0.046325814 -0.036221415 0.39500001 4279917359
0.047729302 -0.036313117 0.39600003 4280377399
0.049015511 -0.036313117 0.39600003 4281231425
0.050301719 -0.036313117 0.39600003 4281558593
0.051718198 -0.036404815 0.39700001 4282871632
0.05314118 -0.036496516 0.39800003 4285632890
0.032702558 -0.035468724 0.40100002 4279904285
0.034089811 -0.035557173 0.40200001 4279772953
0.035395507 -0.035557173 0.40200001 4279579418
0.036609907 -0.035468724 0.40100002 4279120918
0.03781781 -0.03538027 0.40000001 4278794004
0.03901922 -0.035291821 0.39900002 4278860308
0.040214133 -0.035203371 0.39800003 4278797082
0.041402545 -0.035114922 0.39700001 4279126560
0.042584468 -0.035026472 0.39600003 4279587111
0.043870676 -0.035026472 0.39600003 4280310834
0.045156885 -0.035026472 0.39600003 4280114736
0.046443094 -0.035026472 0.39600003 4280377910
0.047729302 -0.035026472 0.39600003 4280574776
0.049015511 -0.035026472 0.39600003 4281231425
0.050301719 -0.035026472 0.39600003 4283134293
0.051718198 -0.035114922 0.39700001 4285567097
0.025733128 -0.033569422 0.39400002 4285763194
0.034005009 -0.034165833 0.40100002 4279641365
0.035307456 -0.034165833 0.40100002 4279450396
0.036609907 -0.034165833 0.40100002 4278925336
0.03781781 -0.034080632 0.40000001 4278860308
0.03901922 -0.033995431 0.39900002 4278795285
0.040214133 -0.03391023 0.39800003 4278928154
0.041402545 -0.033825029 0.39700001 4279191840
0.042692002 -0.033825029 0.39700001 4279653422
0.043870676 -0.033739828 0.39600003 4279983154
0.045156885 -0.033739828 0.39600003 4279983154
0.046443094 -0.033739828 0.39600003 4280048947
0.047729302 -0.033739828 0.39600003 4281034046
0.049015511 -0.033739828 0.39600003 4283596639
0.050301719 -0.033739828 0.39600003 4285895292
0.034005009 -0.032862943 0.40100002 4279644184
0.035307456 -0.032862943 0.40100002 4278991383
0.036609907 -0.032862943 0.40100002 4278860310
0.03781781 -0.03278099 0.40000001 4278861078
0.03901922 -0.032699037 0.39900002 4279124248
0.040214133 -0.032617088 0.39800003 4279322912
0.041506838 -0.032617088 0.39800003 4279521318
0.042692002 -0.032535132 0.39700001 4280180018
0.043981459 -0.032535132 0.39700001 4280048947
0.045156885 -0.032453183 0.39600003 4279983154
0.046443094 -0.032453183 0.39600003 4280837950
0.047729302 -0.032453183 0.39600003 4283529562
0.049015511 -0.032453183 0.39600003 4285895292
0.050301719 -0.032453183 0.39600003 4286026364
0.032702558 -0.031560052 0.40100002 4279709723
0.034005009 -0.031560052 0.40100002 4279908383
0.035307456 -0.031560052 0.40100002 4279188762
0.036518607 -0.031481348 0.40000001 4278991894
0.03781781 -0.031481348 0.40000001 4278927384
0.03901922 -0.031402644 0.39900002 4278664212
0.040315174 -0.031402644 0.39900002 4279257635
0.041506838 -0.031323943 0.39800003 4279258148
0.042692002 -0.031245237 0.39700001 4280048432
0.043981459 -0.031245237 0.39700001 4280311604
0.045270916 -0.031245237 0.39700001 4280573241
0.046560373 -0.031245237 0.39700001 4283399262
0.04784983 -0.031245237 0.39700001 4285961339
0.049139284 -0.031245237 0.39700001 4286092411
0.050428741 -0.031245237 0.39700001 4286092157
0.023879502 -0.030634433 0.40600002 4286289023
0.031556722 -0.030408071 0.40300003 4286091898
0.034005009 -0.030257162 0.40100002 4285302380
0.035307456 -0.030257162 0.40100002 4279777819
0.036518607 -0.030181706 0.40000001 4279121685
0.03781781 -0.030181706 0.40000001 4279124252
0.03901922 -0.030106254 0.39900002 4279519523
0.040315174 -0.030106254 0.39900002 4279652906
0.041506838 -0.0300308 0.39800003 4280047664
0.04279954 -0.0300308 0.39800003 4280178737
0.043981459 -0.029955344 0.39700001 4280375602
0.045270916 -0.029955344 0.39700001 4284515174
0.046560373 -0.029955344 0.39700001 4285895546
0.04784983 -0.029955344 0.39700001 4285961085
0.049139284 -0.029955344 0.39700001 4286157950
0.050428741 -0.029955344 0.39700001 4286026364
0.030322831 -0.029170888 0.40400001 4286026364
0.031556722 -0.029098682 0.40300003 4286223997
0.032784112 -0.029026477 0.40200001 4286091898
0.034005009 -0.028954273 0.40100002 4285960312
0.035307456 -0.028954273 0.40100002 4286223736
0.03901922 -0.028809862 0.39900002 4281356851
0.040315174 -0.028809862 0.39900002 4280700717
0.041506838 -0.028737657 0.39800003 4281161528
0.04279954 -0.028737657 0.39800003 4283989084
0.044092245 -0.028737657 0.39800003 4286093693
0.045384951 -0.028737657 0.39800003 4286026616
0.046677656 -0.028737657 0.39800003 4286158204
0.047970362 -0.028737657 0.39800003 4286223484
0.049263064 -0.028737657 0.39800003 4286289277
0.050555769 -0.028737657 0.39800003 4286223484
0.029082449 -0.027927207 0.40500003 4286092671
0.030397888 -0.027927207 0.40500003 4286289536
0.031635024 -0.02785825 0.40400001 4286289536
0.032947216 -0.02785825 0.40400001 4286223997
0.034259412 -0.02785825 0.40400001 4286289790
0.035571601 -0.02785825 0.40400001 4286092409
0.036518607 -0.027582426 0.40000001 4286026616
0.037723266 -0.027513471 0.39900002 4286157689
0.03901922 -0.027513471 0.39900002 4286092409
0.040315174 -0.027513471 0.39900002 4286027130
0.041611124 -0.027513471 0.39900002 4285698165
0.042907074 -0.027513471 0.39900002 4286026616
0.044203028 -0.027513471 0.39900002 4286092409
0.045498982 -0.027513471 0.39900002 4286092409
0.046794936 -0.027513471 0.39900002 4286289788
0.048090886 -0.027513471 0.39900002 4286158202
0.04938684 -0.027513471 0.39900002 4286158202
0.050682791 -0.027513471 0.39900002 4286026616
0.054450225 -0.047156349 0.40450519 4294967295
0.054450225 -0.047156349 0.40450519 4294901760
0.054450225 -0.047156349 0.40500519 4294901760
0.054450225 -0.047156349 0.40550518 4294901760
0.054450225 -0.047156349 0.4060052 4294901760
0.054450225 -0.047156349 0.4065052 4294901760
0.054450225 -0.047156349 0.40700519 4294901760
0.054450225 -0.047156349 0.40750518 4294901760
0.054450225 -0.047156349 0.40800521 4294901760
0.054450225 -0.047156349 0.4085052 4294901760
0.054450225 -0.047156349 0.40900519 4294901760
0.054450225 -0.047156349 0.40950519 4294901760
0.054450225 -0.047156349 0.41000518 4294901760
0.054450225 -0.047156349 0.41050521 4294901760
0.054450225 -0.047156349 0.4110052 4294901760
0.054450225 -0.047156349 0.41150519 4294901760
0.054450225 -0.047156349 0.41200519 4294901760
0.054450225 -0.047156349 0.41250521 4294901760
0.054450225 -0.047156349 0.4130052 4294901760
0.054450225 -0.047156349 0.4135052 4294901760
0.054450225 -0.047156349 0.41400519 4294901760
0.054450225 -0.047156349 0.41450518 4294901760
0.054450225 -0.047156349 0.41500521 4294901760
0.054450225 -0.047156349 0.4155052 4294901760
0.054450225 -0.047156349 0.41600519 4294901760
0.054450225 -0.047156349 0.41650519 4294901760
0.054450225 -0.047156349 0.41700518 4294901760
0.054450225 -0.047156349 0.4175052 4294901760
0.054450225 -0.047156349 0.4180052 4294901760
0.054450225 -0.047156349 0.41850519 4294901760
0.054450225 -0.047156349 0.41900519 4294901760
0.054450225 -0.047156349 0.41950521 4294901760
0.054450225 -0.047156349 0.4200052 4294901760
0.054450225 -0.047156349 0.4205052 4294901760
0.054450225 -0.047156349 0.42100519 4294901760
0.054450225 -0.047156349 0.42150521 4294901760
0.054450225 -0.047156349 0.42200521 4294901760
0.054450225 -0.047156349 0.4225052 4294901760
0.054450225 -0.047156349 0.42300519 4294901760
0.054450225 -0.047156349 0.42350519 4294901760
0.054450225 -0.047156349 0.42400521 4294901760
0.054450225 -0.047156349 0.4245052 4294901760
0.054450225 -0.047156349 0.4250052 4294901760
0.054450225 -0.047156349 0.42550519 4294901760
0.054450225 -0.047156349 0.42600518 4294901760
0.054450225 -0.047156349 0.42650521 4294901760
0.054450225 -0.047156349 0.4270052 4294901760
0.054450225 -0.047156349 0.4275052 4294901760
0.054450225 -0.047156349 0.42800519 4294901760
0.054450225 -0.047156349 0.42850521 4294901760
0.054450225 -0.047156349 0.42900521 4294901760
0.054450225 -0.047156349 0.4295052 4294901760
0.054450225 -0.047156349 0.43000519 4294901760
0.054450225 -0.047156349 0.43050519 4294901760
0.054450225 -0.047156349 0.43100521 4294901760
0.054450225 -0.047156349 0.4315052 4294901760
0.054450225 -0.047156349 0.4320052 4294901760
0.054450225 -0.047156349 0.43250519 4294901760
0.054450225 -0.047156349 0.43300521 4294901760
0.054450225 -0.047156349 0.43350521 4294901760
0.054450225 -0.047156349 0.4340052 4294901760
0.054450225 -0.047156349 0.43450519 4294901760
0.054450225 -0.047156349 0.43500519 4294901760
0.054450225 -0.047156349 0.43550521 4294901760
0.054450225 -0.047156349 0.4360052 4294901760
0.054450225 -0.047156349 0.4365052 4294901760
0.054450225 -0.047156349 0.43700519 4294901760
0.054450225 -0.047156349 0.43750522 4294901760
0.054450225 -0.047156349 0.43800521 4294901760
0.054450225 -0.047156349 0.4385052 4294901760
0.054450225 -0.047156349 0.4390052 4294901760
0.054450225 -0.047156349 0.43950519 4294901760
0.054450225 -0.047156349 0.44000521 4294901760
0.054450225 -0.047156349 0.44050521 4294901760
0.054450225 -0.047156349 0.4410052 4294901760
0.054450225 -0.047156349 0.44150519 4294901760
0.054450225 -0.047156349 0.44200522 4294901760
0.054450225 -0.047156349 0.44250521 4294901760
0.054450225 -0.047156349 0.4430052 4294901760
0.054450225 -0.047156349 0.4435052 4294901760
0.054450225 -0.047156349 0.44400519 4294901760
0.054450225 -0.047156349 0.44450521 4294901760
0.054450225 -0.047156349 0.44500521 4294901760
0.054450225 -0.047156349 0.4455052 4294901760
0.054450225 -0.047156349 0.4460052 4294901760
0.054450225 -0.047156349 0.44650519 4294901760
0.054450225 -0.047156349 0.44700521 4294901760
0.054450225 -0.047156349 0.44750521 4294901760
0.054450225 -0.047156349 0.4480052 4294901760
0.054450225 -0.047156349 0.44850519 4294901760
0.054450225 -0.047156349 0.44900519 4294901760
0.054450225 -0.047156349 0.44950521 4294901760
0.054450225 -0.047156349 0.4500052 4294901760
0.054450225 -0.047156349 0.4505052 4294901760
0.054450225 -0.047156349 0.45100522 4294901760
0.054450225 -0.047156349 0.45150521 4294901760
0.054450225 -0.047156349 0.45200521 4294901760
0.054450225 -0.047156349 0.4525052 4294901760
0.054450225 -0.047156349 0.45300519 4294901760
0.054450225 -0.047156349 0.45350522 4294901760
0.054450225 -0.047156349 0.45400521 4294901760
0.054450225 -0.047156349 0.45450521 4294901760
0.054450225 -0.047156349 0.40450519 4278255360
0.05422749 -0.047006652 0.40492707 4278255360
0.054004759 -0.046856955 0.40534896 4278255360
0.053782023 -0.046707258 0.40577084 4278255360
0.053559292 -0.046557561 0.40619269 4278255360
0.053336557 -0.046407863 0.40661457 4278255360
0.053113822 -0.046258166 0.40703645 4278255360
0.052891091 -0.046108469 0.40745834 4278255360
0.052668355 -0.045958772 0.40788022 4278255360
0.052445624 -0.045809072 0.4083021 4278255360
0.052222889 -0.045659374 0.40872395 4278255360
0.052000158 -0.045509677 0.40914583 4278255360
0.051777422 -0.04535998 0.40956771 4278255360
0.051554687 -0.045210283 0.4099896 4278255360
0.051331956 -0.045060586 0.41041148 4278255360
0.051109221 -0.044910889 0.41083336 4278255360
0.050886489 -0.044761192 0.41125524 4278255360
0.050663754 -0.044611495 0.41167709 4278255360
0.050441019 -0.044461798 0.41209897 4278255360
0.050218288 -0.044312101 0.41252086 4278255360
0.049995553 -0.044162404 0.41294274 4278255360
0.049772821 -0.044012707 0.41336462 4278255360
0.049550086 -0.04386301 0.4137865 4278255360
0.049327351 -0.043713313 0.41420838 4278255360
0.04910462 -0.043563616 0.41463023 4278255360
0.048881885 -0.043413915 0.41505212 4278255360
0.048659153 -0.043264218 0.415474 4278255360
0.048436418 -0.043114521 0.41589588 4278255360
0.048213683 -0.042964824 0.41631776 4278255360
0.047990952 -0.042815126 0.41673964 4278255360
0.047768217 -0.042665429 0.41716152 4278255360
0.047545485 -0.042515732 0.41758338 4278255360
0.04732275 -0.042366035 0.41800526 4278255360
0.047100015 -0.042216338 0.41842714 4278255360
0.046877284 -0.042066641 0.41884902 4278255360
0.046654548 -0.041916944 0.4192709 4278255360
0.046431817 -0.041767247 0.41969278 4278255360
0.046209082 -0.04161755 0.42011464 4278255360
0.045986347 -0.041467853 0.42053652 4278255360
0.045763616 -0.041318156 0.4209584 4278255360
0.04554088 -0.041168459 0.42138028 4278255360
0.045318149 -0.041018762 0.42180216 4278255360
0.045095414 -0.040869065 0.42222404 4278255360
0.044872679 -0.040719364 0.42264593 4278255360
0.044649947 -0.040569667 0.42306778 4278255360
0.044427216 -0.04041997 0.42348966 4278255360
0.044204481 -0.040270273 0.42391154 4278255360
0.043981746 -0.040120576 0.42433342 4278255360
0.043759014 -0.039970879 0.42475531 4278255360
0.043536279 -0.039821181 0.42517719 4278255360
0.043313548 -0.039671484 0.42559904 4278255360
0.043090813 -0.039521787 0.42602092 4278255360
0.042868078 -0.03937209 0.4264428 4278255360
0.042645346 -0.039222393 0.42686468 4278255360
0.042422611 -0.039072696 0.42728657 4278255360
0.04219988 -0.038922999 0.42770845 4278255360
0.041977145 -0.038773302 0.42813033 4278255360
0.04175441 -0.038623601 0.42855218 4278255360
0.041531678 -0.038473904 0.42897406 4278255360
0.041308943 -0.038324207 0.42939594 4278255360
0.041086212 -0.03817451 0.42981783 4278255360
0.040863477 -0.038024813 0.43023971 4278255360
0.040640742 -0.037875116 0.43066159 4278255360
0.04041801 -0.037725419 0.43108347 4278255360
0.040195275 -0.037575722 0.43150532 4278255360
0.039972544 -0.037426025 0.4319272 4278255360
0.039749809 -0.037276328 0.43234909 4278255360
0.039527074 -0.037126631 0.43277097 4278255360
0.039304342 -0.036976933 0.43319285 4278255360
0.039081607 -0.036827236 0.43361473 4278255360
0.038858876 -0.036677539 0.43403661 4278255360
0.038636141 -0.036527842 0.43445846 4278255360
0.038413405 -0.036378145 0.43488035 4278255360
0.038190674 -0.036228448 0.43530223 4278255360
0.037967943 -0.036078751 0.43572411 4278255360
0.037745208 -0.035929054 0.43614599 4278255360
0.037522472 -0.035779357 0.43656787 4278255360
0.037299737 -0.03562966 0.43698972 4278255360
0.037077006 -0.035479963 0.43741161 4278255360
0.036854275 -0.035330262 0.43783349 4278255360
0.036631539 -0.035180565 0.43825537 4278255360
0.036408804 -0.035030868 0.43867725 4278255360
0.036186069 -0.034881171 0.43909913 4278255360
0.035963338 -0.034731474 0.43952101 4278255360
0.035740606 -0.034581777 0.43994287 4278255360
0.035517871 -0.03443208 0.44036475 4278255360
0.035295136 -0.034282383 0.44078663 4278255360
0.035072401 -0.034132686 0.44120851 4278255360
0.03484967 -0.033982988 0.44163039 4278255360
0.034626938 -0.033833291 0.44205227 4278255360
0.034404203 -0.033683594 0.44247413 4278255360
0.034181468 -0.033533894 0.44289601 4278255360
0.033958733 -0.033384196 0.44331789 4278255360
0.033736002 -0.033234499 0.44373977 4278255360
0.03351327 -0.033084802 0.44416165 4278255360
0.033290535 -0.032935105 0.44458354 4278255360
0.0330678 -0.032785408 0.44500542 4278255360
0.032845065 -0.032635711 0.4454273 4278255360
0.032622334 -0.032486014 0.44584915 4278255360
0.032399602 -0.032336317 0.44627103 4278255360
0.032176867 -0.03218662 0.44669291 4278255360
