# .PCD v0.7 - Point Cloud Data file format
VERSION 0.7
FIELDS x y z rgb
SIZE 4 4 4 4
TYPE F F F U
COUNT 1 1 1 1
WIDTH 1023
HEIGHT 1
VIEWPOINT 0 0 0 1 0 0 0
POINTS 1023
DATA ascii
-0.082867987 0.02828511 0.41900003 4278795796
-0.081312552 0.028217603 0.41800001 4278664980
-0.079763606 0.028150097 0.41700003 4278796566
-0.078409187 0.028150097 0.41700003 4278928154
-0.073989362 0.028015085 0.41500002 4278994459
-0.067936495 0.027745059 0.41100001 4278928666
-0.066439524 0.027677553 0.41000003 4278862875
-0.064949036 0.027610047 0.40900001 4278928668
-0.063465059 0.027542541 0.40800002 4278994461
-0.061987568 0.027475033 0.40700001 4278863388
-0.058906268 0.027272515 0.40400001 4278731802
-0.057594076 0.027272515 0.40400001 4278929181
-0.056142576 0.027205011 0.40300003 4278863388
-0.054833632 0.027205011 0.40300003 4279061537
-0.053524684 0.027205011 0.40300003 4279193123
-0.052215744 0.027205011 0.40300003 4279390502
-0.050906796 0.027205011 0.40300003 4279982639
-0.10913798 0.030920077 0.43700001 4280497960
-0.10747211 0.030849323 0.43600002 4282013507
-0.10581274 0.030778568 0.43500003 4279190558
-0.10415985 0.030707812 0.43400002 4279190558
-0.10227671 0.030566301 0.43200001 4279256349
-0.10040656 0.03042479 0.43000001 4279256349
-0.098549418 0.030283282 0.42800003 4279257119
-0.09693227 0.030212525 0.42700002 4279125533
-0.095321611 0.030141771 0.42600003 4279190558
-0.093717448 0.030071015 0.42500001 4278199046
-0.09233705 0.030071015 0.42500001 4278200072
-0.090742633 0.03000026 0.42400002 4280109864
-0.089154705 0.029929504 0.42300001 4278722830
-0.087573282 0.029858749 0.42200002 4278853135
-0.085998364 0.029787995 0.42100003 4278655756
-0.084429927 0.029717239 0.42000002 4278655756
-0.082867987 0.029646484 0.41900003 4278524681
-0.081312552 0.029575726 0.41800001 4278393865
-0.079763606 0.029504972 0.41700003 4278460685
-0.078409187 0.029504972 0.41700003 4278198026
-0.076869987 0.029434215 0.41600001 4278397710
-0.075337283 0.029363461 0.41500002 4279123228
-0.073989362 0.029363461 0.41500002 4279124252
-0.072466403 0.029292706 0.41400003 4279519010
-0.070949942 0.02922195 0.41300002 4279190043
-0.06943997 0.029151196 0.41200003 4279058970
-0.067936495 0.029080439 0.41100001 4278993947
-0.066439524 0.029009685 0.41000003 4278928154
-0.064949036 0.028938929 0.40900001 4278862359
-0.063465059 0.028868174 0.40800002 4278993947
-0.061987568 0.028797418 0.40700001 4278928154
-0.060367521 0.028655909 0.40500003 4278928668
-0.058906268 0.028585153 0.40400001 4279060767
-0.057594076 0.028585153 0.40400001 4278863390
-0.056281887 0.028585153 0.40400001 4279060769
-0.054833632 0.028514398 0.40300003 4278797597
-0.053524684 0.028514398 0.40300003 4278863390
-0.052215744 0.028514398 0.40300003 4278929181
-0.050906796 0.028514398 0.40300003 4279060767
-0.049597852 0.028514398 0.40300003 4279258146
-0.048288908 0.028514398 0.40300003 4279653674
-0.046979964 0.028514398 0.40300003 4279390504
-0.045784343 0.028585153 0.40400001 4279653676
-0.044472151 0.028585153 0.40400001 4279851055
-0.10938773 0.032413941 0.43800002 4279840028
-0.10747211 0.032265931 0.43600002 4280895024
-0.10581274 0.032191928 0.43500003 4279453217
-0.10391985 0.032043919 0.43300003 4279256351
-0.10203996 0.031895909 0.43100002 4279256349
-0.10040656 0.031821903 0.43000001 4279387935
-0.098549418 0.031673897 0.42800003 4279059740
-0.09693227 0.03159989 0.42700002 4279257119
-0.095321611 0.031525888 0.42600003 4279256349
-0.093717448 0.031451881 0.42500001 4278331915
-0.09233705 0.031451881 0.42500001 4280306219
-0.090742633 0.031377878 0.42400002 4279912231
-0.089154705 0.031303871 0.42300001 4278853646
-0.087573282 0.03122987 0.42200002 4278983951
-0.085998364 0.031155866 0.42100003 4278852111
-0.084429927 0.031081861 0.42000002 4278917390
-0.082867987 0.031007856 0.41900003 4278851597
-0.081312552 0.030933851 0.41800001 4278983183
-0.079763606 0.030859848 0.41700003 4278983183
-0.07822115 0.030785842 0.41600001 4278851599
-0.076869987 0.030785842 0.41600001 4278589963
-0.075337283 0.030711839 0.41500002 4280434473
-0.073989362 0.030711839 0.41500002 4279911463
-0.072466403 0.030637836 0.41400003 4279055640
-0.070949942 0.030563829 0.41300002 4278198276
-0.06943997 0.030489827 0.41200003 4278197248
-0.067936495 0.03041582 0.41100001 4278196224
-0.066439524 0.030341817 0.41000003 4278199303
-0.064949036 0.03026781 0.40900001 4279187738
-0.063465059 0.030193808 0.40800002 4279254301
-0.061987568 0.030119803 0.40700001 4278992412
-0.060516577 0.030045798 0.40600002 4279255584
-0.05905208 0.029971795 0.40500003 4278928156
-0.057594076 0.029897789 0.40400001 4279125535
-0.056281887 0.029897789 0.40400001 4278797084
-0.054833632 0.029823786 0.40300003 4278928670
-0.053524684 0.029823786 0.40300003 4278928670
-0.052215744 0.029823786 0.40300003 4278994461
-0.050906796 0.029823786 0.40300003 4278994461
-0.049597852 0.029823786 0.40300003 4278994461
-0.048288908 0.029823786 0.40300003 4279060767
-0.046979964 0.029823786 0.40300003 4278929181
-0.045784343 0.029897789 0.40400001 4278929181
-0.044472151 0.029897789 0.40400001 4279127330
-0.043159962 0.029897789 0.40400001 4278535454
-0.041847765 0.029897789 0.40400001 4278666788
-0.040535573 0.029897789 0.40400001 4285438343
-0.03922338 0.029897789 0.40400001 4279649070
-0.037911188 0.029897789 0.40400001 4279979570
-0.10938773 0.033837046 0.43800002 4282273597
-0.10747211 0.03368254 0.43600002 4281816380
-0.10556948 0.033528034 0.43400002 4279453215
-0.10391985 0.033450779 0.43300003 4279256349
-0.10203996 0.033296272 0.43100002 4279387937
-0.10040656 0.033219017 0.43000001 4279256349
-0.098549418 0.033064511 0.42800003 4279190556
-0.09693227 0.032987259 0.42700002 4279124763
-0.095321611 0.032910004 0.42600003 4279190556
-0.093717448 0.032832749 0.42500001 4278197248
-0.09233705 0.032832749 0.42500001 4279385117
-0.090742633 0.032755498 0.42400002 4279779875
-0.089154705 0.032678243 0.42300001 4278393865
-0.087573282 0.032600991 0.42200002 4278656267
-0.085998364 0.032523736 0.42100003 4279576858
-0.084429927 0.032446481 0.42000002 4279840030
-0.082867987 0.03236923 0.41900003 4279379479
-0.081312552 0.032291975 0.41800001 4280563753
-0.079763606 0.032214724 0.41700003 4279971616
-0.07822115 0.032137468 0.41600001 4279312916
-0.076869987 0.032137468 0.41600001 4278852111
-0.075337283 0.032060217 0.41500002 4280565547
-0.073989362 0.032060217 0.41500002 4279320607
-0.072466403 0.031982962 0.41400003 4279386400
-0.070949942 0.031905707 0.41300002 4279386141
-0.06943997 0.031828456 0.41200003 4279386141
-0.067936495 0.031751201 0.41100001 4279385371
-0.066439524 0.031673949 0.41000003 4279780129
-0.064949036 0.031596694 0.40900001 4279845668
-0.063465059 0.031519443 0.40800002 4279582498
-0.061987568 0.031442188 0.40700001 4279384865
-0.060516577 0.031364933 0.40600002 4278661142
-0.05905208 0.031287681 0.40500003 4278199820
-0.057594076 0.031210426 0.40400001 4278196993
-0.056281887 0.031210426 0.40400001 4278198535
-0.054969691 0.031210426 0.40400001 4278199564
-0.053524684 0.031133173 0.40300003 4278200591
-0.052215744 0.031133173 0.40300003 4279188508
-0.050906796 0.031133173 0.40300003 4279320861
-0.049597852 0.031133173 0.40300003 4279519010
-0.048288908 0.031133173 0.40300003 4279387935
-0.046979964 0.031133173 0.40300003 4278862875
-0.045784343 0.031210426 0.40400001 4278928668
-0.044472151 0.031210426 0.40400001 4278929183
-0.043159962 0.031210426 0.40400001 4279126562
-0.041847765 0.031210426 0.40400001 4279126308
-0.040535573 0.031210426 0.40400001 4279322922
-0.03922338 0.031210426 0.40400001 4279125029
-0.037911188 0.031210426 0.40400001 4279059490
-0.036598995 0.031210426 0.40400001 4278992927
-0.10938773 0.035260152 0.43800002 4280365340
-0.10722561 0.035018645 0.43500003 4281487667
-0.10556948 0.034938142 0.43400002 4279453215
-0.10391985 0.034857642 0.43300003 4279387935
-0.10203996 0.034696635 0.43100002 4279125533
-0.10040656 0.034616131 0.43000001 4279059740
-0.098549418 0.034455128 0.42800003 4279125533
-0.09693227 0.034374624 0.42700002 4279059740
-0.095321611 0.034294121 0.42600003 4279059740
-0.093717448 0.034213617 0.42500001 4278197248
-0.09233705 0.034213617 0.42500001 4279254555
-0.090742633 0.034133118 0.42400002 4280043301
-0.089154705 0.034052614 0.42300001 4278722830
-0.087573282 0.033972111 0.42200002 4278524683
-0.085998364 0.033891611 0.42100003 4279643934
-0.084429927 0.033811107 0.42000002 4280038692
-0.082867987 0.033730604 0.41900003 4278524683
-0.081312552 0.0336501 0.41800001 4278393095
-0.079763606 0.033569597 0.41700003 4278918926
-0.078409187 0.033569597 0.41700003 4280235299
-0.076869987 0.033489093 0.41600001 4278853648
-0.075337283 0.033408593 0.41500002 4280369452
-0.073989362 0.033408593 0.41500002 4279320607
-0.072466403 0.03332809 0.41400003 4278199303
-0.070949942 0.033247586 0.41300002 4278527500
-0.06943997 0.033167087 0.41200003 4279384344
-0.067936495 0.033086583 0.41100001 4278199296
-0.066439524 0.033006079 0.41000003 4278199298
-0.064949036 0.032925576 0.40900001 4279320607
-0.063465059 0.032845076 0.40800002 4279189021
-0.061987568 0.032764569 0.40700001 4279123228
-0.060516577 0.032684069 0.40600002 4279255584
-0.05905208 0.032603566 0.40500003 4279058205
-0.057736639 0.032603566 0.40500003 4279123998
-0.056281887 0.032523062 0.40400001 4279452193
-0.054969691 0.032523062 0.40400001 4279385887
-0.053524684 0.032442562 0.40300003 4279450912
-0.052215744 0.032442562 0.40300003 4279648291
-0.050906796 0.032442562 0.40300003 4278989847
-0.049597852 0.032442562 0.40300003 4279121433
-0.048288908 0.032442562 0.40300003 4278200074
-0.046979964 0.032442562 0.40300003 4278661396
-0.045784343 0.032523062 0.40400001 4279059488
-0.044472151 0.032523062 0.40400001 4278862623
-0.043159962 0.032523062 0.40400001 4278797084
-0.041847765 0.032523062 0.40400001 4278665498
-0.040535573 0.032523062 0.40400001 4278665498
-0.03922338 0.032523062 0.40400001 4278731291
-0.037911188 0.032523062 0.40400001 4278862877
-0.036598995 0.032523062 0.40400001 4278796316
-0.10697912 0.036348253 0.43400002 4281486636
-0.10532624 0.036264502 0.43300003 4279453980
-0.10367984 0.03618075 0.43200001 4279124761
-0.10203996 0.036096998 0.43100002 4279059738
-0.10017306 0.035929494 0.42900002 4279257117
-0.098549418 0.035845742 0.42800003 4278993945
-0.09693227 0.03576199 0.42700002 4278993945
-0.095321611 0.035678241 0.42600003 4279320859
-0.093717448 0.035594486 0.42500001 4278199816
-0.09233705 0.035594486 0.42500001 4278530578
-0.090742633 0.035510737 0.42400002 4279516703
-0.089154705 0.035426982 0.42300001 4278852365
-0.087573282 0.035343233 0.42200002 4278852365
-0.085998364 0.035259482 0.42100003 4278983951
-0.084429927 0.03517573 0.42000002 4278983951
-0.082867987 0.035091978 0.41900003 4278654986
-0.081312552 0.035008226 0.41800001 4278720779
-0.079763606 0.034924474 0.41700003 4280432678
-0.078409187 0.034924474 0.41700003 4280433959
-0.076869987 0.034840722 0.41600001 4278459658
-0.075337283 0.03475697 0.41500002 4280040485
-0.073989362 0.03475697 0.41500002 4279056154
-0.072466403 0.034673218 0.41400003 4278592269
-0.070949942 0.034589466 0.41300002 4278985232
-0.06943997 0.034505714 0.41200003 4279381273
-0.067936495 0.034421962 0.41100001 4279450396
-0.066601567 0.034421962 0.41100001 4279582496
-0.065107845 0.034338214 0.41000003 4280436780
-0.063620605 0.034254458 0.40900001 4279318299
-0.062139876 0.03417071 0.40800002 4278858773
-0.06066563 0.034086954 0.40700001 4279649059
-0.059197884 0.034003206 0.40600002 4279058718
-0.057736639 0.033919454 0.40500003 4279387683
-0.056421202 0.033919454 0.40500003 4279058972
-0.054969691 0.033835702 0.40400001 4279190558
-0.053657498 0.033835702 0.40400001 4279124252
-0.052215744 0.03375195 0.40300003 4279190045
-0.050906796 0.03375195 0.40300003 4279058459
-0.049597852 0.03375195 0.40300003 4279190045
-0.048288908 0.03375195 0.40300003 4279320861
-0.047096539 0.033835702 0.40400001 4278197248
-0.045784343 0.033835702 0.40400001 4279058972
-0.044472151 0.033835702 0.40400001 4278928154
-0.043159962 0.033835702 0.40400001 4278928154
-0.041847765 0.033835702 0.40400001 4278862363
-0.040535573 0.033835702 0.40400001 4278797084
-0.03922338 0.033835702 0.40400001 4278862877
-0.037911188 0.033835702 0.40400001 4278664984
-0.036598995 0.033835702 0.40400001 4278664214
-0.10813901 0.037671361 0.43300003 4279442692
-0.10697912 0.037758362 0.43400002 4281157671
-0.10532624 0.037671361 0.43300003 4279585053
-0.10367984 0.037584361 0.43200001 4279256347
-0.10203996 0.03749736 0.43100002 4279387933
-0.10017306 0.037323359 0.42900002 4279453726
-0.098549418 0.037236359 0.42800003 4279190554
-0.09693227 0.037149355 0.42700002 4278993945
-0.095321611 0.037062358 0.42600003 4279124248
-0.093937963 0.037062358 0.42600003 4279582748
-0.09233705 0.036975354 0.42500001 4279451934
-0.090742633 0.036888354 0.42400002 4279582496
-0.089154705 0.036801353 0.42300001 4278919439
-0.087573282 0.036714353 0.42200002 4279049744
-0.085998364 0.036627352 0.42100003 4278917390
-0.084429927 0.036540352 0.42000002 4278916877
-0.082867987 0.036453351 0.41900003 4278982670
-0.081312552 0.036366347 0.41800001 4278916877
-0.079954885 0.036366347 0.41800001 4278916877
-0.078409187 0.036279351 0.41700003 4278917644
-0.076869987 0.036192346 0.41600001 4278721547
-0.075337283 0.036105346 0.41500002 4280238118
-0.073989362 0.036105346 0.41500002 4279910947
-0.072466403 0.036018349 0.41400003 4278722830
-0.070949942 0.035931345 0.41300002 4278919441
-0.06943997 0.035844345 0.41200003 4279776033
-0.068101794 0.035844345 0.41200003 4279450144
-0.066601567 0.035757344 0.41100001 4279582498
-0.065107845 0.035670344 0.41000003 4279976742
-0.063620605 0.03558334 0.40900001 4279976229
-0.062139876 0.035496343 0.40800002 4279977254
-0.06066563 0.035409339 0.40700001 4280437805
-0.059197884 0.035322338 0.40600002 4278792468
-0.057879195 0.035322338 0.40600002 4279187226
-0.056421202 0.035235338 0.40500003 4279187226
-0.054969691 0.035148337 0.40400001 4278595087
-0.053657498 0.035148337 0.40400001 4278199811
-0.052345309 0.035148337 0.40400001 4279188762
-0.051033117 0.035148337 0.40400001 4278201610
-0.049720924 0.035148337 0.40400001 4279321629
-0.048408728 0.035148337 0.40400001 4279584033
-0.047096539 0.035148337 0.40400001 4278197504
-0.045784343 0.035148337 0.40400001 4279190045
-0.044472151 0.035148337 0.40400001 4279058970
-0.043159962 0.035148337 0.40400001 4278862361
-0.041847765 0.035148337 0.40400001 4278862361
-0.040535573 0.035148337 0.40400001 4278862361
-0.03922338 0.035148337 0.40400001 4278862361
-0.037911188 0.035148337 0.40400001 4278730005
-0.036598995 0.035148337 0.40400001 4278927384
-0.035286803 0.035148337 0.40400001 4278658834
-0.10813901 0.039078228 0.43300003 4280757782
-0.10697912 0.039168477 0.43400002 4280763167
-0.10508298 0.038987976 0.43200001 4279256088
-0.10343985 0.038897727 0.43100002 4279256347
-0.10180321 0.038807474 0.43000001 4279190554
-0.10017306 0.038717225 0.42900002 4279256347
-0.098549418 0.038626976 0.42800003 4279058968
-0.09693227 0.038536727 0.42700002 4279058970
-0.095545366 0.038536727 0.42700002 4278729494
-0.093937963 0.038446479 0.42600003 4278792466
-0.09233705 0.038356226 0.42500001 4279319578
-0.090956643 0.038356226 0.42500001 4279320861
-0.089365482 0.038265977 0.42400002 4279517475
-0.087780803 0.038175724 0.42300001 4280042281
-0.086202629 0.038085476 0.42200002 4279383070
-0.084630951 0.037995227 0.42100003 4279250201
-0.083065763 0.037904978 0.42000002 4278657552
-0.081507079 0.037814729 0.41900003 4278262281
-0.079954885 0.037724476 0.41800001 4278786572
-0.078409187 0.037634227 0.41700003 4278851597
-0.076869987 0.037543975 0.41600001 4278655756
-0.075518817 0.037543975 0.41600001 4279974176
-0.073989362 0.037453726 0.41500002 4279713055
-0.072466403 0.037363477 0.41400003 4279711774
-0.070949942 0.037273228 0.41300002 4279908129
-0.06943997 0.037182979 0.41200003 4279975459
-0.068101794 0.037182979 0.41200003 4279450658
-0.066601567 0.037092727 0.41100001 4279451682
-0.065107845 0.037002478 0.41000003 4279714852
-0.063620605 0.036912225 0.40900001 4278199557
-0.062139876 0.036821976 0.40800002 4278200329
-0.06066563 0.036731727 0.40700001 4279516703
-0.059197884 0.036641479 0.40600002 4278331663
-0.057879195 0.036641479 0.40600002 4278198793
-0.056421202 0.03655123 0.40500003 4280041768
-0.055105757 0.03655123 0.40500003 4280107561
-0.053657498 0.036460977 0.40400001 4278198532
-0.052345309 0.036460977 0.40400001 4278198790
-0.051033117 0.036460977 0.40400001 4278593806
-0.049720924 0.036460977 0.40400001 4279254303
-0.048408728 0.036460977 0.40400001 4279320607
-0.047096539 0.036460977 0.40400001 4278196992
-0.045784343 0.036460977 0.40400001 4278992925
-0.044472151 0.036460977 0.40400001 4278993949
-0.043159962 0.036460977 0.40400001 4278928154
-0.041847765 0.036460977 0.40400001 4278928154
-0.04043524 0.036370728 0.40300003 4279125533
-0.039126292 0.036370728 0.40300003 4278664982
-0.037817348 0.036370728 0.40300003 4278795798
-0.036508407 0.036370728 0.40300003 4279058970
-0.03519946 0.036370728 0.40300003 4278660115
-0.10508298 0.040391587 0.43200001 4279255318
-0.10343985 0.040298089 0.43100002 4279124761
-0.10180321 0.040204588 0.43000001 4279124761
-0.10017306 0.040111091 0.42900002 4279058968
-0.098549418 0.040017594 0.42800003 4278993175
-0.097159281 0.040017594 0.42800003 4278993177
-0.095545366 0.039924093 0.42700002 4279256349
-0.093937963 0.039830595 0.42600003 4279190043
-0.092554316 0.039830595 0.42600003 4279189273
-0.090956643 0.039737094 0.42500001 4279255836
-0.089365482 0.039643597 0.42400002 4278992925
-0.087780803 0.039550096 0.42300001 4279190304
-0.086202629 0.039456598 0.42200002 4279058718
-0.084630951 0.039363101 0.42100003 4278992412
-0.083065763 0.0392696 0.42000002 4279255838
-0.081701607 0.0392696 0.42000002 4279255068
-0.080146164 0.039176103 0.41900003 4279451934
-0.078597218 0.039082602 0.41800001 4279845668
-0.077054776 0.038989104 0.41700003 4280174119
-0.075518817 0.038895603 0.41600001 4280042533
-0.073989362 0.038802106 0.41500002 4278857748
-0.072466403 0.038708605 0.41400003 4278461966
-0.070949942 0.038615108 0.41300002 4278197254
-0.06960851 0.038615108 0.41300002 4278197513
-0.068101794 0.038521606 0.41200003 4278197255
-0.066601567 0.038428109 0.41100001 4278922517
-0.065107845 0.038334608 0.41000003 4278792466
-0.063620605 0.038241111 0.40900001 4279319324
-0.062139876 0.03814761 0.40800002 4279450910
-0.06066563 0.038054112 0.40700001 4279121945
-0.059343692 0.038054112 0.40700001 4279451680
-0.057879195 0.037960611 0.40600002 4279385887
-0.056421202 0.037867114 0.40500003 4279386402
-0.055105757 0.037867114 0.40500003 4279451682
-0.053657498 0.037773613 0.40400001 4279649059
-0.052345309 0.037773613 0.40400001 4279911461
-0.051033117 0.037773613 0.40400001 4278331150
-0.049720924 0.037773613 0.40400001 4279319842
-0.048408728 0.037773613 0.40400001 4279255586
-0.047096539 0.037773613 0.40400001 4278200331
-0.045784343 0.037773613 0.40400001 4279190043
-0.044472151 0.037773613 0.40400001 4279124763
-0.043159962 0.037773613 0.40400001 4278993947
-0.041847765 0.037773613 0.40400001 4278862361
-0.04043524 0.037680116 0.40300003 4278862363
-0.039126292 0.037680116 0.40300003 4278796570
-0.037817348 0.037680116 0.40300003 4278795800
-0.036508407 0.037680116 0.40300003 4278927386
-0.03519946 0.037680116 0.40300003 4278396943
-0.10508298 0.041795198 0.43200001 4280566301
-0.10343985 0.041698452 0.43100002 4279646742
-0.10180321 0.041601703 0.43000001 4279516953
-0.10017306 0.041504957 0.42900002 4279319574
-0.098549418 0.041408207 0.42800003 4279254553
-0.097159281 0.041408207 0.42800003 4279189273
-0.095545366 0.041311458 0.42700002 4279189273
-0.093937963 0.041214712 0.42600003 4279255066
-0.092554316 0.041214712 0.42600003 4279190043
-0.090956643 0.041117962 0.42500001 4279058972
-0.089576244 0.041117962 0.42500001 4278862363
-0.087988324 0.041021217 0.42400002 4278796570
-0.086406901 0.040924467 0.42300001 4278862363
-0.084831975 0.040827718 0.42200002 4278928156
-0.083263539 0.040730972 0.42100003 4278993947
-0.081701607 0.040634222 0.42000002 4279058970
-0.080146164 0.040537477 0.41900003 4279058970
-0.078597218 0.040440727 0.41800001 4279124763
-0.077239558 0.040440727 0.41800001 4279058970
-0.075518817 0.040247228 0.41600001 4279255836
-0.073989362 0.040150482 0.41500002 4279190043
-0.072466403 0.040053736 0.41400003 4279453217
-0.071121737 0.040053736 0.41400003 4279452193
-0.06960851 0.039956983 0.41300002 4279649059
-0.068101794 0.039860237 0.41200003 4279516703
-0.066601567 0.039763488 0.41100001 4279516703
-0.065107845 0.039666742 0.41000003 4279450396
-0.063620605 0.039569993 0.40900001 4279713057
-0.062139876 0.039473243 0.40800002 4278923287
-0.06066563 0.039376494 0.40700001 4278198793
-0.059343692 0.039376494 0.40700001 4278197252
-0.057879195 0.039279748 0.40600002 4278198022
-0.056421202 0.039183002 0.40500003 4278199049
-0.055105757 0.039183002 0.40500003 4278858007
-0.053657498 0.039086252 0.40400001 4279450398
-0.052345309 0.039086252 0.40400001 4279516191
-0.051033117 0.039086252 0.40400001 4280437807
-0.049720924 0.039086252 0.40400001 4279649061
-0.048408728 0.039086252 0.40400001 4279385889
-0.047096539 0.039086252 0.40400001 4278200331
-0.045784343 0.039086252 0.40400001 4279190045
-0.044472151 0.039086252 0.40400001 4279190556
-0.043159962 0.039086252 0.40400001 4279190556
-0.041847765 0.039086252 0.40400001 4279058970
-0.04043524 0.038989503 0.40300003 4279059742
-0.039126292 0.038989503 0.40300003 4278796316
-0.037817348 0.038989503 0.40300003 4278927386
-0.036508407 0.038989503 0.40300003 4278861080
-0.03519946 0.038989503 0.40300003 4278922004
-0.10343985 0.043098815 0.43100002 4281151765
-0.10180321 0.042998817 0.43000001 4280825626
-0.10017306 0.042898819 0.42900002 4280036623
-0.098779671 0.042898819 0.42900002 4279776018
-0.097159281 0.042798825 0.42800003 4279973910
-0.095545366 0.042698827 0.42700002 4279712535
-0.094158471 0.042698827 0.42700002 4279581719
-0.092554316 0.042598829 0.42600003 4279516441
-0.091170669 0.042598829 0.42600003 4279385369
-0.089576244 0.042498831 0.42500001 4279189273
-0.087988324 0.042398833 0.42400002 4279123480
-0.086611174 0.042398833 0.42400002 4278729492
-0.085032992 0.042298835 0.42300001 4279058457
-0.083461314 0.042198841 0.42200002 4278861078
-0.081896134 0.042098843 0.42100003 4279058457
-0.080337442 0.041998845 0.42000002 4279058457
-0.078785248 0.04189885 0.41900003 4278993177
-0.077239558 0.041798849 0.41800001 4278993177
-0.075700358 0.041698854 0.41700003 4279124763
-0.074167646 0.041598856 0.41600001 4279124763
-0.07264144 0.041498858 0.41500002 4279387935
-0.071121737 0.041398864 0.41400003 4279256351
-0.06960851 0.041298863 0.41300002 4279190304
-0.068101794 0.041198868 0.41200003 4279124765
-0.066601567 0.04109887 0.41100001 4279256351
-0.065107845 0.040998872 0.41000003 4279190304
-0.063620605 0.040898874 0.40900001 4279124511
-0.062139876 0.040798876 0.40800002 4279256097
-0.06066563 0.040698878 0.40700001 4279123998
-0.059197884 0.040598884 0.40600002 4279320607
-0.057879195 0.040598884 0.40600002 4279451680
-0.056421202 0.040498886 0.40500003 4279977254
-0.055105757 0.040498886 0.40500003 4279779361
-0.053657498 0.040398888 0.40400001 4279516189
-0.052345309 0.040398888 0.40400001 4279384092
-0.051033117 0.040398888 0.40400001 4278725138
-0.049720924 0.040398888 0.40400001 4278198023
-0.048408728 0.040398888 0.40400001 4278198023
-0.047096539 0.040398888 0.40400001 4279318558
-0.045784343 0.040398888 0.40400001 4279124765
-0.044472151 0.040398888 0.40400001 4279058972
-0.043159962 0.040398888 0.40400001 4278928156
-0.041847765 0.040398888 0.40400001 4278993949
-0.040535573 0.040398888 0.40400001 4279125535
-0.039126292 0.040298894 0.40300003 4278796316
-0.037817348 0.040298894 0.40300003 4279058205
-0.036508407 0.040298894 0.40300003 4278794263
-0.098549418 0.044189438 0.42800003 4280427788
-0.097159281 0.044189438 0.42800003 4280164873
-0.095545366 0.044086192 0.42700002 4279640071
-0.094158471 0.044086192 0.42700002 4279508487
-0.092554316 0.043982945 0.42600003 4279049219
-0.091170669 0.043982945 0.42600003 4279181318
-0.089576244 0.043879699 0.42500001 4278919943
-0.088195838 0.043879699 0.42500001 4279249678
-0.086611174 0.043776453 0.42400002 4279843358
-0.085032992 0.043673206 0.42300001 4279514906
-0.08365909 0.043673206 0.42300001 4279516443
-0.082090661 0.04356996 0.42200002 4279451164
-0.080528729 0.043466717 0.42100003 4279057176
-0.078973278 0.043363467 0.42000002 4279057176
-0.07742434 0.04326022 0.41900003 4279320348
-0.075700358 0.043053728 0.41700003 4279451934
-0.074167646 0.042950481 0.41600001 4279452447
-0.07264144 0.042847235 0.41500002 4279453217
-0.071121737 0.042743992 0.41400003 4279255584
-0.06960851 0.042640742 0.41300002 4279255584
-0.068101794 0.042537499 0.41200003 4279256351
-0.066601567 0.042434249 0.41100001 4279256351
-0.065107845 0.042331006 0.41000003 4279124511
-0.063620605 0.042227756 0.40900001 4279124511
-0.062139876 0.04212451 0.40800002 4279124511
-0.06066563 0.042021263 0.40700001 4279124511
-0.059197884 0.041918017 0.40600002 4279387683
-0.057879195 0.041918017 0.40600002 4279124765
-0.056421202 0.041814774 0.40500003 4279387937
-0.055105757 0.041814774 0.40500003 4279321631
-0.053657498 0.041711524 0.40400001 4279452963
-0.052345309 0.041711524 0.40400001 4279255584
-0.051033117 0.041711524 0.40400001 4279255584
-0.049720924 0.041711524 0.40400001 4279320607
-0.048408728 0.041711524 0.40400001 4279386400
-0.047096539 0.041711524 0.40400001 4279321377
-0.045784343 0.041711524 0.40400001 4279124511
-0.044472151 0.041711524 0.40400001 4279124511
-0.043159962 0.041711524 0.40400001 4279256867
-0.041847765 0.041711524 0.40400001 4278862109
-0.040535573 0.041711524 0.40400001 4278927902
-0.03922338 0.041711524 0.40400001 4278533144
-0.037817348 0.041608281 0.40300003 4278860056
-0.036508407 0.041608281 0.40300003 4278727187
-0.094158471 0.045473557 0.42700002 4279967241
-0.092554316 0.045367062 0.42600003 4279704842
-0.091170669 0.045367062 0.42600003 4279375877
-0.089787014 0.045367062 0.42600003 4279310086
-0.088195838 0.045260567 0.42500001 4279442442
-0.086611174 0.045154072 0.42400002 4279311115
-0.085234024 0.045154072 0.42400002 4279508494
-0.08365909 0.045047574 0.42300001 4279706897
-0.082285188 0.045047574 0.42300001 4279707922
-0.08072 0.044941083 0.42200002 4279709459
-0.079161316 0.044834588 0.42100003 4279709975
-0.077609122 0.044728089 0.42000002 4279843106
-0.075881891 0.044515099 0.41800001 4279777826
-0.074167646 0.044302106 0.41600001 4279580188
-0.07264144 0.044195615 0.41500002 4280107815
-0.071121737 0.04408912 0.41400003 4279977256
-0.06960851 0.043982621 0.41300002 4279779877
-0.068101794 0.043876126 0.41200003 4279715367
-0.066601567 0.043769632 0.41100001 4279583781
-0.065107845 0.043663137 0.41000003 4279452965
-0.063620605 0.043556638 0.40900001 4279452965
-0.062139876 0.043450143 0.40800002 4279256099
-0.06066563 0.043343648 0.40700001 4279256099
-0.059197884 0.043237153 0.40600002 4279190306
-0.057736639 0.043130659 0.40500003 4279190306
-0.056421202 0.043130659 0.40500003 4279519523
-0.054969691 0.043024164 0.40400001 4279519523
-0.053657498 0.043024164 0.40400001 4279584803
-0.052345309 0.043024164 0.40400001 4279584803
-0.051033117 0.043024164 0.40400001 4279321379
-0.049720924 0.043024164 0.40400001 4279256099
-0.048408728 0.043024164 0.40400001 4279387683
-0.047096539 0.043024164 0.40400001 4279124511
-0.045784343 0.043024164 0.40400001 4279190304
-0.044472151 0.043024164 0.40400001 4279190304
-0.043159962 0.043024164 0.40400001 4279124513
-0.041847765 0.043024164 0.40400001 4279124513
-0.040535573 0.043024164 0.40400001 4278992927
-0.03922338 0.043024164 0.40400001 4279124000
-0.037911188 0.043024164 0.40400001 4279121947
-0.036508407 0.042917669 0.40300003 4280105508
-0.083856866 0.046531692 0.42400002 4280165393
-0.082285188 0.046421945 0.42300001 4280297233
-0.08072 0.046312202 0.42200002 4280429589
-0.079349346 0.046312202 0.42200002 4281680433
-0.077793911 0.046202458 0.42100003 4286616707
-0.076426499 0.046202458 0.42100003 4285893497
-0.075059094 0.046202458 0.42100003 4285696888
-0.073691681 0.046202458 0.42100003 4286157439
-0.068101794 0.045214757 0.41200003 4284185961
-0.066601567 0.04510501 0.41100001 4282541652
-0.065107845 0.044995267 0.41000003 4281949515
-0.063620605 0.04488552 0.40900001 4280633909
-0.062139876 0.044775777 0.40800002 4280041770
-0.06066563 0.044666033 0.40700001 4279647012
-0.059197884 0.04455629 0.40600002 4279647012
-0.057736639 0.044446547 0.40500003 4279450146
-0.056421202 0.044446547 0.40500003 4279779111
-0.054969691 0.0443368 0.40400001 4279647525
-0.053657498 0.0443368 0.40400001 4279779111
-0.052345309 0.0443368 0.40400001 4279648039
-0.051033117 0.0443368 0.40400001 4279648037
-0.049720924 0.0443368 0.40400001 4279779623
-0.048408728 0.0443368 0.40400001 4279977256
-0.047096539 0.0443368 0.40400001 4279911463
-0.045784343 0.0443368 0.40400001 4279780647
-0.044472151 0.0443368 0.40400001 4279649574
-0.043159962 0.0443368 0.40400001 4279583527
-0.041847765 0.0443368 0.40400001 4279583527
-0.040535573 0.0443368 0.40400001 4279583527
-0.03922338 0.0443368 0.40400001 4279648807
-0.037911188 0.0443368 0.40400001 4279711524
-0.059197884 0.045875423 0.40600002 4285434491
-0.057736639 0.045762431 0.40500003 4286026114
-0.056421202 0.045762431 0.40500003 4285697403
-0.054969691 0.045649435 0.40400001 4285894782
-0.053657498 0.045649435 0.40400001 4286355333
-0.052215744 0.045536444 0.40300003 4286092675
-0.050906796 0.045536444 0.40300003 4286026882
-0.049597852 0.045536444 0.40300003 4285566331
-0.048408728 0.045649435 0.40400001 4285171573
-0.047096539 0.045649435 0.40400001 4284579436
-0.045784343 0.045649435 0.40400001 4283922789
-0.044472151 0.045649435 0.40400001 4282804308
-0.043159962 0.045649435 0.40400001 4282606929
-0.041847765 0.045649435 0.40400001 4281883206
-0.040535573 0.045649435 0.40400001 4282343755
-0.03922338 0.045649435 0.40400001 4284053862
-0.054969691 0.046962075 0.40400001 4285960062
-0.053524684 0.046845831 0.40300003 4285631610
-0.052215744 0.046845831 0.40300003 4285697403
-0.050906796 0.046845831 0.40300003 4285565817
-0.049597852 0.046845831 0.40300003 4285434231
-0.048288908 0.046845831 0.40300003 4285302645
-0.047096539 0.046962075 0.40400001 4285302645
-0.041847765 0.046962075 0.40400001 4284710506
-0.040535573 0.046962075 0.40400001 4284710506
-0.069349013 0.036801297 0.41379312 4294967295
-0.069349013 0.036801297 0.41379312 4294901760
-0.06936352 0.036304619 0.41373742 4294901760
-0.069378026 0.035807945 0.41368172 4294901760
-0.069392532 0.035311267 0.41362604 4294901760
-0.069407038 0.034814589 0.41357034 4294901760
-0.069421545 0.034317914 0.41351464 4294901760
-0.069436058 0.033821236 0.41345894 4294901760
-0.069450565 0.033324562 0.41340324 4294901760
-0.069465071 0.032827884 0.41334757 4294901760
-0.069479577 0.032331206 0.41329187 4294901760
-0.069494084 0.031834532 0.41323617 4294901760
-0.06950859 0.031337854 0.41318047 4294901760
-0.069523096 0.030841177 0.4131248 4294901760
-0.069537602 0.030344501 0.4130691 4294901760
-0.069552109 0.029847823 0.4130134 4294901760
-0.069566622 0.029351147 0.4129577 4294901760
-0.069581129 0.028854471 0.412902 4294901760
-0.069595635 0.028357793 0.41284633 4294901760
-0.069610141 0.027861116 0.41279063 4294901760
-0.069624647 0.02736444 0.41273493 4294901760
-0.069639154 0.026867762 0.41267923 4294901760
-0.06965366 0.026371088 0.41262352 4294901760
-0.069668166 0.02587441 0.41256785 4294901760
-0.069682673 0.025377734 0.41251215 4294901760
-0.069697179 0.024881057 0.41245645 4294901760
-0.069711685 0.024384379 0.41240075 4294901760
-0.069726199 0.023887705 0.41234505 4294901760
-0.069740705 0.023391027 0.41228938 4294901760
-0.069755211 0.022894349 0.41223368 4294901760
-0.069769718 0.022397675 0.41217798 4294901760
-0.069784224 0.021900997 0.41212228 4294901760
-0.06979873 0.02140432 0.41206661 4294901760
-0.069813237 0.020907644 0.41201091 4294901760
-0.069827743 0.020410966 0.41195521 4294901760
-0.069842249 0.01991429 0.41189951 4294901760
-0.069856763 0.019417614 0.41184381 4294901760
-0.069871269 0.018920936 0.41178814 4294901760
-0.069885775 0.018424259 0.41173244 4294901760
-0.069900282 0.017927583 0.41167673 4294901760
-0.069914788 0.017430907 0.41162103 4294901760
-0.069929294 0.016934229 0.41156533 4294901760
-0.069943801 0.016437553 0.41150966 4294901760
-0.069958307 0.015940877 0.41145396 4294901760
-0.069972813 0.0154442 0.41139826 4294901760
-0.069987319 0.014947524 0.41134256 4294901760
-0.070001826 0.014450848 0.41128686 4294901760
-0.070016339 0.01395417 0.41123119 4294901760
-0.070030846 0.013457494 0.41117549 4294901760
-0.070045352 0.012960818 0.41111979 4294901760
-0.070059858 0.01246414 0.41106409 4294901760
-0.070074365 0.011967463 0.41100842 4294901760
-0.070088871 0.011470787 0.41095272 4294901760
-0.070103377 0.010974111 0.41089702 4294901760
-0.070117883 0.010477435 0.41084132 4294901760
-0.07013239 0.0099807549 0.41078562 4294901760
-0.070146903 0.0094840787 0.41072994 4294901760
-0.07016141 0.0089874025 0.41067424 4294901760
-0.070175916 0.0084907264 0.41061854 4294901760
-0.070190422 0.0079940502 0.41056284 4294901760
-0.070204929 0.007497374 0.41050714 4294901760
-0.070219435 0.0070006959 0.41045147 4294901760
-0.070233941 0.0065040197 0.41039577 4294901760
-0.070248447 0.0060073435 0.41034007 4294901760
-0.070262954 0.0055106655 0.41028437 4294901760
-0.07027746 0.0050139911 0.41022867 4294901760
-0.070291966 0.0045173131 0.410173 4294901760
-0.07030648 0.004020635 0.4101173 4294901760
-0.070320986 0.0035239607 0.4100616 4294901760
-0.070335492 0.0030272827 0.4100059 4294901760
-0.070349999 0.0025306083 0.4099502 4294901760
-0.070364505 0.0020339303 0.40989453 4294901760
-0.070379011 0.0015372559 0.40983883 4294901760
-0.070393518 0.0010405742 0.40978312 4294901760
-0.070408024 0.00054389983 0.40972742 4294901760
-0.07042253 4.722178e-05 0.40967175 4294901760
-0.070437044 -0.00044945255 0.40961605 4294901760
-0.07045155 -0.0009461306 0.40956035 4294901760
-0.070466056 -0.0014428049 0.40950465 4294901760
-0.070480563 -0.001939483 0.40944895 4294901760
-0.070495069 -0.002436161 0.40939328 4294901760
-0.070509575 -0.0029328391 0.40933758 4294901760
-0.070524082 -0.0034295134 0.40928188 4294901760
-0.070538588 -0.0039261915 0.40922618 4294901760
-0.070553094 -0.0044228658 0.40917048 4294901760
-0.0705676 -0.0049195439 0.40911481 4294901760
-0.070582107 -0.0054162219 0.40905911 4294901760
-0.07059662 -0.0059128962 0.40900341 4294901760
-0.070611127 -0.0064095743 0.40894771 4294901760
-0.070625633 -0.0069062486 0.40889201 4294901760
-0.070640139 -0.0074029267 0.40883633 4294901760
-0.070654646 -0.007899601 0.40878063 4294901760
-0.070669152 -0.0083962828 0.40872493 4294901760
-0.070683658 -0.0088929571 0.40866923 4294901760
-0.070698164 -0.0093896352 0.40861356 4294901760
-0.070712671 -0.0098863095 0.40855786 4294901760
-0.070727184 -0.010382988 0.40850216 4294901760
-0.070741691 -0.010879662 0.40844646 4294901760
-0.070756197 -0.01137634 0.40839076 4294901760
-0.070770703 -0.011873018 0.40833509 4294901760
-0.07078521 -0.012369692 0.40827939 4294901760
-0.070799716 -0.01286637 0.40822369 4294901760
-0.069349013 0.036801297 0.41379312 4278255360
-0.068898506 0.036812428 0.41357651 4278255360
-0.068448 0.03682356 0.41335991 4278255360
-0.067997493 0.036834691 0.41314328 4278255360
-0.067546986 0.036845822 0.41292667 4278255360
-0.067096479 0.036856953 0.41271007 4278255360
-0.066645972 0.036868084 0.41249347 4278255360
-0.066195466 0.036879212 0.41227683 4278255360
-0.065744959 0.036890343 0.41206023 4278255360
-0.065294452 0.036901474 0.41184363 4278255360
-0.064843945 0.036912605 0.41162702 4278255360
-0.064393438 0.036923736 0.41141039 4278255360
-0.063942932 0.036934868 0.41119379 4278255360
-0.063492425 0.036945999 0.41097718 4278255360
-0.063041918 0.03695713 0.41076058 4278255360
-0.062591411 0.036968261 0.41054398 4278255360
-0.062140908 0.036979392 0.41032735 4278255360
-0.061690401 0.036990523 0.41011074 4278255360
-0.061239894 0.037001655 0.40989414 4278255360
-0.060789388 0.037012782 0.40967754 4278255360
-0.060338881 0.037023913 0.4094609 4278255360
-0.059888374 0.037035044 0.4092443 4278255360
-0.059437867 0.037046175 0.4090277 4278255360
-0.05898736 0.037057307 0.40881109 4278255360
-0.058536857 0.037068438 0.40859446 4278255360
-0.058086351 0.037079569 0.40837786 4278255360
-0.057635844 0.0370907 0.40816125 4278255360
-0.057185337 0.037101831 0.40794465 4278255360
-0.05673483 0.037112962 0.40772805 4278255360
-0.056284323 0.037124094 0.40751141 4278255360
-0.055833817 0.037135225 0.40729481 4278255360
-0.05538331 0.037146356 0.40707821 4278255360
-0.054932803 0.037157483 0.4068616 4278255360
-0.054482296 0.037168615 0.40664497 4278255360
-0.054031789 0.037179746 0.40642837 4278255360
-0.053581282 0.037190877 0.40621176 4278255360
-0.053130776 0.037202008 0.40599516 4278255360
-0.052680269 0.037213139 0.40577853 4278255360
-0.052229762 0.03722427 0.40556192 4278255360
-0.051779255 0.037235402 0.40534532 4278255360
-0.051328748 0.037246533 0.40512872 4278255360
-0.050878242 0.037257664 0.40491211 4278255360
-0.050427735 0.037268795 0.40469548 4278255360
-0.049977228 0.037279926 0.40447888 4278255360
-0.049526721 0.037291054 0.40426227 4278255360
-0.049076218 0.037302185 0.40404567 4278255360
-0.048625708 0.037313316 0.40382904 4278255360
-0.048175205 0.037324447 0.40361243 4278255360
-0.047724698 0.037335578 0.40339583 4278255360
-0.047274191 0.03734671 0.40317923 4278255360
-0.046823684 0.037357841 0.40296263 4278255360
-0.046373177 0.037368972 0.40274599 4278255360
-0.045922674 0.037380103 0.40252939 4278255360
-0.045472167 0.037391234 0.40231279 4278255360
-0.045021657 0.037402365 0.40209618 4278255360
-0.04457115 0.037413497 0.40187955 4278255360
-0.044120647 0.037424628 0.40166295 4278255360
-0.04367014 0.037435755 0.40144634 4278255360
-0.043219633 0.037446886 0.40122974 4278255360
-0.042769127 0.037458017 0.40101311 4278255360
-0.04231862 0.037469149 0.4007965 4278255360
-0.041868113 0.03748028 0.4005799 4278255360
-0.041417606 0.037491411 0.4003633 4278255360
-0.040967099 0.037502542 0.40014666 4278255360
-0.040516593 0.037513673 0.39993006 4278255360
-0.040066086 0.037524804 0.39971346 4278255360
-0.039615579 0.037535936 0.39949685 4278255360
-0.039165072 0.037547067 0.39928025 4278255360
-0.038714565 0.037558198 0.39906362 4278255360
-0.038264059 0.037569325 0.39884701 4278255360
-0.037813552 0.037580457 0.39863041 4278255360
-0.037363049 0.037591588 0.39841381 4278255360
-0.036912538 0.037602719 0.39819717 4278255360
-0.036462031 0.03761385 0.39798057 4278255360
-0.036011524 0.037624981 0.39776397 4278255360
-0.035561018 0.037636112 0.39754736 4278255360
-0.035110515 0.037647244 0.39733076 4278255360
-0.034660008 0.037658375 0.39711413 4278255360
-0.034209501 0.037669506 0.39689752 4278255360
-0.03375899 0.037680637 0.39668092 4278255360
-0.033308487 0.037691768 0.39646432 4278255360
-0.032857981 0.037702899 0.39624768 4278255360
-0.032407474 0.037714027 0.39603108 4278255360
-0.031956967 0.037725158 0.39581448 4278255360
-0.03150646 0.037736289 0.39559788 4278255360
-0.031055953 0.03774742 0.39538124 4278255360
-0.030605447 0.037758552 0.39516464 4278255360
-0.03015494 0.037769683 0.39494804 4278255360
-0.029704433 0.037780814 0.39473143 4278255360
-0.02925393 0.037791945 0.39451483 4278255360
-0.028803423 0.037803076 0.3942982 4278255360
-0.028352913 0.037814207 0.39408159 4278255360
-0.027902406 0.037825339 0.39386499 4278255360
-0.027451899 0.03783647 0.39364839 4278255360
-0.027001396 0.037847597 0.39343175 4278255360
-0.026550889 0.037858728 0.39321515 4278255360
-0.026100382 0.037869859 0.39299855 4278255360
-0.025649872 0.037880991 0.39278194 4278255360
-0.025199369 0.037892122 0.39256531 4278255360
-0.024748862 0.037903253 0.39234871 4278255360
-0.024298355 0.037914384 0.3921321 4278255360
-0.069349013 0.036801297 0.41379312 4278190335
-0.069106705 0.036745578 0.41422692 4278190335
-0.068864398 0.036689855 0.41466072 4278190335
-0.06862209 0.036634136 0.41509452 4278190335
-0.068379782 0.036578413 0.41552833 4278190335
-0.068137474 0.036522694 0.4159621 4278190335
-0.067895159 0.036466971 0.4163959 4278190335
-0.067652851 0.036411252 0.41682971 4278190335
-0.067410544 0.036355529 0.41726351 4278190335
-0.067168236 0.03629981 0.41769731 4278190335
-0.066925928 0.036244087 0.41813111 4278190335
-0.06668362 0.036188368 0.41856492 4278190335
-0.066441312 0.036132645 0.41899872 4278190335
-0.066199005 0.036076926 0.41943252 4278190335
-0.065956697 0.036021203 0.41986629 4278190335
-0.065714389 0.035965484 0.4203001 4278190335
-0.065472081 0.035909761 0.4207339 4278190335
-0.065229766 0.035854042 0.4211677 4278190335
-0.064987458 0.035798319 0.4216015 4278190335
-0.064745151 0.0357426 0.42203531 4278190335
-0.064502843 0.03568688 0.42246911 4278190335
-0.064260535 0.035631157 0.42290291 4278190335
-0.064018227 0.035575438 0.42333671 4278190335
-0.063775919 0.035519715 0.42377049 4278190335
-0.063533612 0.035463996 0.42420429 4278190335
-0.063291304 0.035408273 0.42463809 4278190335
-0.063048996 0.035352554 0.4250719 4278190335
-0.062806688 0.035296831 0.4255057 4278190335
-0.062564373 0.035241112 0.4259395 4278190335
-0.062322069 0.035185389 0.4263733 4278190335
-0.062079757 0.03512967 0.42680711 4278190335
-0.06183745 0.035073947 0.42724091 4278190335
-0.061595142 0.035018228 0.42767468 4278190335
-0.061352834 0.034962505 0.42810848 4278190335
-0.061110526 0.034906786 0.42854229 4278190335
-0.060868219 0.034851063 0.42897609 4278190335
-0.060625911 0.034795344 0.42940989 4278190335
-0.060383599 0.034739621 0.42984369 4278190335
-0.060141291 0.034683902 0.4302775 4278190335
-0.059898984 0.034628183 0.4307113 4278190335
-0.059656676 0.03457246 0.4311451 4278190335
-0.059414368 0.034516737 0.43157887 4278190335
-0.059172057 0.034461018 0.43201268 4278190335
-0.058929749 0.034405299 0.43244648 4278190335
-0.058687441 0.034349576 0.43288028 4278190335
-0.058445133 0.034293856 0.43331409 4278190335
-0.058202825 0.034238134 0.43374789 4278190335
-0.057960518 0.034182414 0.43418169 4278190335
-0.05771821 0.034126692 0.43461549 4278190335
-0.057475898 0.034070972 0.4350493 4278190335
-0.057233591 0.034015249 0.4354831 4278190335
-0.056991283 0.03395953 0.43591687 4278190335
-0.056748975 0.033903807 0.43635067 4278190335
-0.056506667 0.033848088 0.43678448 4278190335
-0.056264356 0.033792365 0.43721828 4278190335
-0.056022048 0.033736646 0.43765208 4278190335
-0.05577974 0.033680923 0.43808588 4278190335
-0.055537432 0.033625204 0.43851969 4278190335
-0.055295125 0.033569485 0.43895349 4278190335
-0.055052817 0.033513762 0.43938726 4278190335
-0.054810505 0.033458039 0.43982106 4278190335
-0.054568198 0.03340232 0.44025487 4278190335
-0.05432589 0.033346601 0.44068867 4278190335
-0.054083582 0.033290878 0.44112247 4278190335
-0.053841271 0.033235159 0.44155627 4278190335
-0.053598963 0.033179436 0.44199008 4278190335
-0.053356655 0.033123717 0.44242388 4278190335
-0.053114347 0.033067994 0.44285768 4278190335
-0.052872039 0.033012275 0.44329149 4278190335
-0.052629732 0.032956552 0.44372526 4278190335
-0.052387424 0.032900833 0.44415906 4278190335
-0.052145116 0.03284511 0.44459286 4278190335
-0.051902805 0.032789391 0.44502667 4278190335
-0.051660493 0.032733668 0.44546047 4278190335
-0.051418185 0.032677948 0.44589427 4278190335
-0.051175877 0.032622226 0.44632807 4278190335
-0.05093357 0.032566506 0.44676188 4278190335
-0.050691262 0.032510787 0.44719565 4278190335
-0.050448954 0.032455064 0.44762945 4278190335
-0.050206646 0.032399341 0.44806325 4278190335
-0.049964339 0.032343622 0.44849706 4278190335
-0.049722031 0.032287903 0.44893086 4278190335
-0.049479723 0.03223218 0.44936466 4278190335
-0.049237411 0.032176461 0.44979846 4278190335
-0.048995104 0.032120738 0.45023227 4278190335
-0.048752792 0.032065019 0.45066607 4278190335
-0.048510484 0.032009296 0.45109987 4278190335
-0.048268177 0.031953577 0.45153365 4278190335
-0.048025869 0.031897854 0.45196745 4278190335
-0.047783561 0.031842135 0.45240125 4278190335
-0.047541253 0.031786412 0.45283505 4278190335
-0.047298945 0.031730693 0.45326886 4278190335
-0.047056638 0.03167497 0.45370266 4278190335
-0.046814326 0.031619251 0.45413646 4278190335
-0.046572018 0.031563528 0.45457026 4278190335
-0.046329711 0.031507809 0.45500404 4278190335
-0.046087403 0.031452086 0.45543784 4278190335
-0.045845091 0.031396367 0.45587164 4278190335
-0.045602784 0.031340644 0.45630544 4278190335
-0.045360476 0.031284925 0.45673925 4278190335
-0.045118168 0.031229204 0.45717305 4278190335
-0.069349013 0.036801297 0.41379312 4294967295
-0.070802867 0.037135623 0.41119033 4294967295
-0.072256714 0.03746995 0.40858752 4294967295
-0.073710568 0.037804276 0.40598473 4294967295
-0.075164415 0.038138598 0.40338194 4294967295
-0.076618269 0.038472924 0.40077913 4294967295
-0.078072116 0.038807251 0.39817634 4294967295
-0.07952597 0.039141577 0.39557356 4294967295
-0.080979817 0.039475903 0.39297074 4294967295
-0.082433671 0.039810229 0.39036795 4294967295
-0.083887517 0.040144555 0.38776517 4294967295
-0.085341372 0.040478878 0.38516235 4294967295
-0.086795218 0.040813204 0.38255957 4294967295
-0.088249072 0.04114753 0.37995678 4294967295
-0.089702919 0.041481856 0.37735397 4294967295
-0.091156773 0.041816182 0.37475118 4294967295
-0.09261062 0.042150509 0.37214839 4294967295
-0.094064474 0.042484835 0.36954558 4294967295
-0.095518321 0.042819157 0.36694279 4294967295
-0.096972175 0.043153483 0.36434001 4294967295
-0.098426029 0.04348781 0.36173719 4294967295
-0.099879876 0.043822136 0.35913441 4294967295
-0.10133372 0.044156462 0.35653162 4294967295
-0.10278758 0.044490788 0.3539288 4294967295
-0.10424143 0.044825111 0.35132602 4294967295
-0.10569528 0.045159437 0.34872323 4294967295
-0.10714912 0.045493763 0.34612042 4294967295
-0.10860298 0.045828089 0.34351763 4294967295
-0.11005683 0.046162415 0.34091485 4294967295
-0.11151068 0.046496741 0.33831203 4294967295
-0.11296453 0.046831064 0.33570924 4294967295
-0.11441838 0.04716539 0.33310646 4294967295
-0.11587223 0.047499716 0.33050364 4294967295
-0.11732608 0.047834042 0.32790086 4294967295
-0.11877993 0.048168369 0.32529807 4294967295
-0.12023378 0.048502695 0.32269526 4294967295
-0.12168764 0.048837021 0.32009247 4294967295
-0.12314148 0.049171343 0.31748968 4294967295
-0.12459533 0.04950567 0.31488687 4294967295
-0.12604919 0.049839996 0.31228408 4294967295
-0.12750304 0.050174322 0.3096813 4294967295
-0.12895688 0.050508648 0.30707848 4294967295
-0.13041073 0.050842971 0.30447569 4294967295
-0.13186458 0.051177301 0.30187291 4294967295
-0.13331844 0.051511623 0.29927009 4294967295
-0.13477229 0.051845949 0.29666731 4294967295
-0.13622615 0.052180275 0.29406452 4294967295
-0.13767999 0.052514601 0.29146171 4294967295
-0.13913384 0.052848928 0.28885892 4294967295
-0.14058769 0.05318325 0.28625613 4294967295
-0.14204153 0.05351758 0.28365332 4294967295
-0.14349538 0.053851902 0.28105056 4294967295
-0.14494924 0.054186229 0.27844775 4294967295
-0.14640309 0.054520555 0.27584496 4294967295
-0.14785695 0.054854881 0.27324215 4294967295
-0.1493108 0.055189207 0.27063936 4294967295
-0.15076464 0.05552353 0.26803654 4294967295
-0.15221849 0.05585786 0.26543379 4294967295
-0.15367234 0.056192182 0.26283097 4294967295
-0.15512618 0.056526508 0.26022819 4294967295
-0.15658006 0.056860834 0.25762537 4294967295
-0.15803391 0.057195161 0.25502259 4294967295
-0.15948775 0.057529487 0.25241977 4294967295
-0.1609416 0.057863809 0.249817 4294967295
-0.16239545 0.058198139 0.2472142 4294967295
-0.16384929 0.058532462 0.24461141 4294967295
-0.16530316 0.058866791 0.2420086 4294967295
-0.166757 0.059201114 0.2394058 4294967295
-0.16821085 0.05953544 0.23680301 4294967295
-0.16966471 0.059869766 0.23420022 4294967295
-0.17111856 0.060204089 0.23159742 4294967295
-0.1725724 0.060538415 0.22899464 4294967295
