# .PCD v0.7 - Point Cloud Data file format
VERSION 0.7
FIELDS x y z rgb
SIZE 4 4 4 4
TYPE F F F U
COUNT 1 1 1 1
WIDTH 996
HEIGHT 1
VIEWPOINT 0 0 0 1 0 0 0
POINTS 996
DATA ascii
0.056318324 -0.015113253 0.45500001 4285961857
0.057796162 -0.015113253 0.45500001 4286225029
0.059274007 -0.015113253 0.45500001 4286357128
0.060751848 -0.015113253 0.45500001 4286357130
0.062229685 -0.015113253 0.45500001 4286620302
0.06370753 -0.015113253 0.45500001 4286225544
0.065185368 -0.015113253 0.45500001 4286555279
0.066809729 -0.01514647 0.45600003 4285897349
0.034751166 -0.013874647 0.46300003 4287015060
0.036254991 -0.013874647 0.46300003 4286817681
0.037677262 -0.01384468 0.46200001 4286686095
0.039177842 -0.01384468 0.46200001 4286817681
0.040590368 -0.013814714 0.46100003 4287212439
0.042087696 -0.013814714 0.46100003 4287146646
0.043490481 -0.013784746 0.46000001 4286949265
0.04498456 -0.013784746 0.46000001 4286489484
0.046377603 -0.013754779 0.45900002 4284780665
0.047868434 -0.013754779 0.45900002 4283661414
0.049251731 -0.013724813 0.45800003 4282544214
0.050628532 -0.013694846 0.45700002 4281689673
0.051998835 -0.013664879 0.45600003 4280770370
0.053479929 -0.013664879 0.45600003 4280507198
0.054840483 -0.013634912 0.45500001 4280968262
0.056318324 -0.013634912 0.45500001 4280770368
0.057796162 -0.013634912 0.45500001 4280046899
0.059274007 -0.013634912 0.45500001 4280639547
0.060751848 -0.013634912 0.45500001 4281165378
0.062229685 -0.013634912 0.45500001 4280507961
0.06370753 -0.013634912 0.45500001 4279916594
0.065328635 -0.013664879 0.45600003 4280311352
0.066809729 -0.013664879 0.45600003 4279521838
0.068440571 -0.013694846 0.45700002 4280901958
0.034751166 -0.012370314 0.46300003 4286950550
0.036254991 -0.012370314 0.46300003 4285437825
0.037677262 -0.012343595 0.46200001 4283992430
0.039177842 -0.012343595 0.46200001 4282742874
0.040590368 -0.012316878 0.46100003 4281691208
0.042087696 -0.012316878 0.46100003 4280705342
0.043490481 -0.012290159 0.46000001 4280113975
0.04498456 -0.012290159 0.46000001 4280509244
0.046377603 -0.012263442 0.45900002 4279194668
0.047764149 -0.012236725 0.45800003 4280050231
0.049251731 -0.012236725 0.45800003 4279523887
0.050628532 -0.012210007 0.45700002 4279523887
0.051998835 -0.012183289 0.45600003 4279196205
0.053362645 -0.012156571 0.45500001 4279459377
0.054840483 -0.012156571 0.45500001 4278867751
0.056318324 -0.012156571 0.45500001 4279328302
0.057796162 -0.012156571 0.45500001 4278933031
0.059274007 -0.012156571 0.45500001 4279327789
0.060751848 -0.012156571 0.45500001 4278735652
0.062229685 -0.012156571 0.45500001 4279196203
0.06370753 -0.012156571 0.45500001 4279130410
0.065328635 -0.012183289 0.45600003 4278998824
0.066956237 -0.012210007 0.45700002 4279130410
0.068590336 -0.012236725 0.45800003 4279590193
0.070230931 -0.012263442 0.45900002 4281623114
0.011981719 -0.0095047979 0.40500003 4281231434
0.034751166 -0.010865978 0.46300003 4280443453
0.036254991 -0.010865978 0.46300003 4280048695
0.037677262 -0.01084251 0.46200001 4280445502
0.039177842 -0.01084251 0.46200001 4279130408
0.040590368 -0.010819041 0.46100003 4279591472
0.042087696 -0.010819041 0.46100003 4279525679
0.043490481 -0.010795572 0.46000001 4279394093
0.04498456 -0.010795572 0.46000001 4279394093
0.046377603 -0.010772103 0.45900002 4279723312
0.047764149 -0.010748635 0.45800003 4278933796
0.049144194 -0.010725167 0.45700002 4279065382
0.050628532 -0.010725167 0.45700002 4278933796
0.051884804 -0.010678229 0.45500001 4278539808
0.053362645 -0.010678229 0.45500001 4278539808
0.054840483 -0.010678229 0.45500001 4278671394
0.056318324 -0.010678229 0.45500001 4278474015
0.057796162 -0.010678229 0.45500001 4278407452
0.059274007 -0.010678229 0.45500001 4278604831
0.060751848 -0.010678229 0.45500001 4278670624
0.062229685 -0.010678229 0.45500001 4278670624
0.063847549 -0.010701698 0.45600003 4278604831
0.065328635 -0.010701698 0.45600003 4278670111
0.066956237 -0.010725167 0.45700002 4278867236
0.068590336 -0.010748635 0.45800003 4279195435
0.070230931 -0.010772103 0.45900002 4279190054
0.0080552371 -0.0082091307 0.40600002 4280435495
0.0093508381 -0.0081889117 0.40500003 4279389219
0.010692614 -0.0082091307 0.40600002 4279325992
0.012011304 -0.0082091307 0.40600002 4279063847
0.013362825 -0.0082293497 0.40700001 4279721779
0.034751166 -0.0093616443 0.46300003 4279196201
0.036254991 -0.0093616443 0.46300003 4279327787
0.037677262 -0.0093414243 0.46200001 4279000105
0.039177842 -0.0093414243 0.46200001 4278802726
0.040590368 -0.0093212053 0.46100003 4278540068
0.042087696 -0.0093212053 0.46100003 4278737447
0.043490481 -0.0093009854 0.46000001 4278868771
0.04498456 -0.0093009854 0.46000001 4278539806
0.046377603 -0.0092807664 0.45900002 4278670109
0.047764149 -0.0092605464 0.45800003 4278670109
0.049144194 -0.0092403265 0.45700002 4278538523
0.050517749 -0.0092201075 0.45600003 4278538523
0.051770773 -0.0091796685 0.45400003 4278604316
0.053245366 -0.0091796685 0.45400003 4278538523
0.054719958 -0.0091796685 0.45400003 4278406937
0.056194548 -0.0091796685 0.45400003 4278472730
0.05766914 -0.0091796685 0.45400003 4278538525
0.059143737 -0.0091796685 0.45400003 4278603548
0.060751848 -0.0091998875 0.45500001 4278538525
0.062229685 -0.0091998875 0.45500001 4278867236
0.063847549 -0.0092201075 0.45600003 4279260965
0.065328635 -0.0092201075 0.45600003 4278932000
0.066956237 -0.0092403265 0.45700002 4279129125
0.068590336 -0.0092605464 0.45800003 4279852336
0.070230931 -0.0092807664 0.45900002 4279453226
0.009397014 -0.0069069648 0.40700001 4279386650
0.01071895 -0.0069069648 0.40700001 4278994459
0.012070472 -0.0069239358 0.40800002 4278866207
0.01342849 -0.0069409059 0.40900001 4278603548
0.014829082 -0.0069748466 0.41100001 4279196201
0.01616401 -0.0069748466 0.41100001 4283406185
0.039177842 -0.0078403391 0.46200001 4278209305
0.040590368 -0.0078233685 0.46100003 4278472991
0.042087696 -0.0078233685 0.46100003 4278472991
0.043490481 -0.007806398 0.46000001 4278735904
0.044886768 -0.0077894274 0.45900002 4278604318
0.046377603 -0.0077894274 0.45900002 4278538271
0.047764149 -0.0077724573 0.45800003 4278604064
0.049144194 -0.0077554868 0.45700002 4278734880
0.050517749 -0.0077385162 0.45600003 4278734880
0.051542707 -0.0076706344 0.45200002 4278998306
0.053010803 -0.0076706344 0.45200002 4278735134
0.054599427 -0.0076876045 0.45300001 4278800927
0.056070771 -0.0076876045 0.45300001 4279326504
0.05766914 -0.0077045755 0.45400003 4279588394
0.059143737 -0.0077045755 0.45400003 4278732572
0.060751848 -0.0077215456 0.45500001 4278202377
0.062229685 -0.0077215456 0.45500001 4278200325
0.063847549 -0.0077385162 0.45600003 4278201097
0.065328635 -0.0077385162 0.45600003 4279586598
0.066956237 -0.0077554868 0.45700002 4278732570
0.068590336 -0.0077724573 0.45800003 4279719467
0.070230931 -0.0077894274 0.45900002 4279715633
0.0094431909 -0.0056120232 0.40900001 4279385369
0.010771624 -0.0056120232 0.40900001 4279190041
0.012100057 -0.0056120232 0.40900001 4278863386
0.013461323 -0.0056257448 0.41000003 4278667544
0.014829082 -0.005639466 0.41100001 4278998306
0.01620334 -0.0056531876 0.41200003 4278998306
0.017584093 -0.0056669088 0.41300002 4278801958
0.018925518 -0.0056669088 0.41300002 4278934312
0.020266943 -0.0056669088 0.41300002 4279394863
0.042637542 -0.0059824996 0.43600002 4278735134
0.044154711 -0.0059962207 0.43700001 4278866466
0.045782663 -0.0060236631 0.43900001 4278931746
0.047423609 -0.0060511059 0.44100001 4279457576
0.049077548 -0.0060785487 0.44300002 4278732572
0.05120061 -0.0061608767 0.44900003 4278401812
0.052776244 -0.0061745979 0.45000002 4278199811
0.054358374 -0.0061883195 0.45100003 4278199555
0.055946995 -0.0062020407 0.45200002 4278202895
0.057542115 -0.0062157619 0.45300001 4279256099
0.059143737 -0.0062294835 0.45400003 4280439858
0.06061833 -0.0062294835 0.45400003 4279718186
0.062229685 -0.0062432047 0.45500001 4279586600
0.063847549 -0.0062569259 0.45600003 4278992925
0.065328635 -0.0062569259 0.45600003 4279915051
0.066956237 -0.006270647 0.45700002 4279653674
0.068590336 -0.0062843687 0.45800003 4279653674
0.070230931 -0.0062980899 0.45900002 4279912242
0.0094662802 -0.0042936131 0.41000003 4279450650
0.010797961 -0.0042936131 0.41000003 4279124250
0.012159226 -0.0043040849 0.41100001 4278928666
0.013494154 -0.0043040849 0.41100001 4279060765
0.014865164 -0.0043145572 0.41200003 4278602521
0.01620334 -0.0043145572 0.41200003 4278735134
0.017584093 -0.0043250294 0.41300002 4278670111
0.018925518 -0.0043250294 0.41300002 4278670624
0.020316016 -0.0043355017 0.41400003 4278802210
0.021713009 -0.004345974 0.41500002 4278473245
0.023116497 -0.0043564462 0.41600001 4278802210
0.024526484 -0.0043669185 0.41700003 4278670624
0.025880901 -0.0043669185 0.41700003 4278933283
0.027300628 -0.0043773907 0.41800001 4278933283
0.028726855 -0.004387863 0.41900003 4278203654
0.030231385 -0.0044088075 0.42100003 4279456806
0.031673849 -0.0044192798 0.42200002 4278932000
0.033201117 -0.0044402243 0.42400002 4278931998
0.034741372 -0.0044611688 0.42600003 4278800927
0.036294624 -0.0044821128 0.42800003 4278800414
0.037860863 -0.0045030573 0.43000001 4279325220
0.0393488 -0.0045135296 0.43100002 4279456806
0.040937781 -0.0045344741 0.43300003 4278666011
0.042539749 -0.0045554186 0.43500003 4278732572
0.044154711 -0.0045763627 0.43700001 4278200578
0.045678377 -0.0045868354 0.43800002 4278200583
0.047423609 -0.0046182517 0.44100001 4279716135
0.049077548 -0.0046391962 0.44300002 4279848234
0.050972544 -0.0046810852 0.44700003 4279979820
0.052658964 -0.0047020297 0.44900003 4279848234
0.054237843 -0.004712502 0.45000002 4279454246
0.055946995 -0.0047334465 0.45200002 4279126562
0.057542115 -0.0047439183 0.45300001 4279389732
0.059143737 -0.004754391 0.45400003 4279587111
0.06061833 -0.004754391 0.45400003 4278798365
0.062229685 -0.0047648628 0.45500001 4279127330
0.063847549 -0.0047753355 0.45600003 4278202380
0.065328635 -0.0047753355 0.45600003 4279521320
0.066956237 -0.0047858073 0.45700002 4279456295
0.068590336 -0.0047962801 0.45800003 4279653676
0.070230931 -0.0048067519 0.45900002 4284253299
0.0094893686 -0.0029687041 0.41100001 4279254301
0.010824297 -0.0029687041 0.41100001 4279255838
0.012188811 -0.0029759274 0.41200003 4278862361
0.013526988 -0.0029759274 0.41200003 4278928666
0.014865164 -0.0029759274 0.41200003 4279062048
0.016242668 -0.0029831503 0.41300002 4279062818
0.017584093 -0.0029831503 0.41300002 4278866466
0.018971344 -0.0029903736 0.41400003 4278998052
0.020316016 -0.0029903736 0.41400003 4278866466
0.021713009 -0.0029975967 0.41500002 4278734880
0.023116497 -0.0030048196 0.41600001 4278735134
0.024526484 -0.003012043 0.41700003 4279064099
0.025942964 -0.0030192661 0.41800001 4278340376
0.027300628 -0.0030192661 0.41800001 4278866207
0.028795416 -0.0030337123 0.42000002 4278337046
0.030231385 -0.0030409356 0.42100003 4278732574
0.031673849 -0.0030481585 0.42200002 4278731802
0.033201117 -0.0030626049 0.42400002 4278202118
0.034741372 -0.0030770511 0.42600003 4278198786
0.036294624 -0.0030914973 0.42800003 4278198279
0.037860863 -0.0031059433 0.43000001 4278526478
0.0393488 -0.0031131667 0.43100002 4278657550
0.040937781 -0.0031276129 0.43300003 4278592273
0.042539749 -0.0031420593 0.43500003 4280306991
0.04405367 -0.0031492822 0.43600002 4279455012
0.045678377 -0.0031637286 0.43800002 4279455012
0.047316074 -0.0031781748 0.44000003 4279718186
0.048966765 -0.0031926211 0.44200003 4278203405
0.050744478 -0.0032142904 0.44500002 4278532626
0.052541681 -0.0032359597 0.44800001 4278269454
0.054117315 -0.003243183 0.44900003 4278796568
0.055823222 -0.0032576292 0.45100003 4278599191
0.057415091 -0.0032648523 0.45200002 4278598167
0.05901346 -0.0032720752 0.45300001 4278203409
0.06061833 -0.0032792985 0.45400003 4279059488
0.062229685 -0.0032865216 0.45500001 4279389221
0.063847549 -0.0032937448 0.45600003 4278468119
0.065328635 -0.0032937448 0.45600003 4279652906
0.066956237 -0.0033009679 0.45700002 4279719469
0.068440571 -0.0033009679 0.45700002 4279586859
0.0095124571 -0.0016372973 0.41200003 4279451934
0.010850633 -0.0016372973 0.41200003 4279255838
0.012188811 -0.0016372973 0.41200003 4278928668
0.01355982 -0.0016412713 0.41300002 4278863386
0.014901243 -0.0016412713 0.41300002 4279193121
0.016242668 -0.0016412713 0.41300002 4278996255
0.017626671 -0.0016452454 0.41400003 4279326504
0.018971344 -0.0016452454 0.41400003 4278800673
0.020365089 -0.0016492193 0.41500002 4278866720
0.021765329 -0.0016531934 0.41600001 4278800927
0.023116497 -0.0016531934 0.41600001 4278734880
0.024526484 -0.0016571674 0.41700003 4278669089
0.025942964 -0.0016611414 0.41800001 4278734880
0.027365942 -0.0016651155 0.41900003 4279194918
0.028795416 -0.0016690894 0.42000002 4278468630
0.030231385 -0.0016730635 0.42100003 4279389734
0.031748902 -0.0016810115 0.42300001 4278198796
0.033201117 -0.0016849856 0.42400002 4278262540
0.034741372 -0.0016929336 0.42600003 4278853396
0.036294624 -0.0017008816 0.42800003 4278853394
0.037860863 -0.0017088297 0.43000001 4278392843
0.0393488 -0.0017128037 0.43100002 4279050773
0.040937781 -0.0017207518 0.43300003 4278526226
0.042539749 -0.0017286999 0.43500003 4279715367
0.04405367 -0.0017326738 0.43600002 4278202893
0.045678377 -0.0017406219 0.43800002 4278199563
0.047316074 -0.0017485699 0.44000003 4278532628
0.048966765 -0.001756518 0.44200003 4279387937
0.050744478 -0.00176844 0.44500002 4279124765
0.052424401 -0.0017763881 0.44700003 4278532626
0.054117315 -0.0017843362 0.44900003 4278202122
0.055823222 -0.0017922842 0.45100003 4278267919
0.057415091 -0.0017962581 0.45200002 4278201610
0.05901346 -0.0018002321 0.45300001 4279914027
0.06061833 -0.0018042063 0.45400003 4279256097
0.062229685 -0.0018081802 0.45500001 4280441395
0.063847549 -0.0018121543 0.45600003 4278204689
0.065328635 -0.0018121543 0.45600003 4279653674
0.066956237 -0.0018161283 0.45700002 4279916846
0.068440571 -0.0018161283 0.45700002 4280769338
0.0095355455 -0.00029939206 0.41300002 4279255838
0.010876969 -0.00029939206 0.41300002 4279124765
0.012218395 -0.00029939206 0.41300002 4278731289
0.01355982 -0.00029939206 0.41300002 4278929179
0.014901243 -0.00029939206 0.41300002 4279061535
0.016281998 -0.00030011698 0.41400003 4279127841
0.017626671 -0.00030011698 0.41400003 4278931746
0.019017167 -0.0003008419 0.41500002 4278734880
0.020365089 -0.0003008419 0.41500002 4279129892
0.021765329 -0.00030156682 0.41600001 4278800414
0.023172066 -0.00030229174 0.41700003 4278800414
0.024526484 -0.00030229174 0.41700003 4278800414
0.025942964 -0.00030301666 0.41800001 4278931232
0.027365942 -0.00030374157 0.41900003 4278995742
0.028795416 -0.00030446649 0.42000002 4279058972
0.030231385 -0.00030519141 0.42100003 4279980072
0.031748902 -0.00030664125 0.42300001 4279118101
0.033279419 -0.00030809108 0.42500001 4279577887
0.034822926 -0.00030954092 0.42700002 4279709727
0.036294624 -0.00031026587 0.42800003 4279841824
0.037860863 -0.00031171567 0.43000001 4278592271
0.0393488 -0.00031244062 0.43100002 4280105510
0.040937781 -0.00031389046 0.43300003 4278197254
0.042539749 -0.00031534029 0.43500003 4280306989
0.04405367 -0.00031606521 0.43600002 4278330634
0.045678377 -0.00031751505 0.43800002 4278593039
0.047316074 -0.00031896491 0.44000003 4278927384
0.048966765 -0.00032041475 0.44200003 4278730005
0.050630447 -0.00032186459 0.44400004 4278201605
0.052307121 -0.00032331442 0.44600001 4279190556
0.053996786 -0.00032476426 0.44800001 4279257121
0.055699442 -0.0003262141 0.45000002 4279783465
0.057415091 -0.00032766393 0.45200002 4279520293
0.05901346 -0.00032838885 0.45300001 4278862109
0.06061833 -0.0003291138 0.45400003 4278201612
0.062229685 -0.00032983869 0.45500001 4278201869
0.063847549 -0.00033056363 0.45600003 4279521836
0.065328635 -0.00033056363 0.45600003 4279588396
0.066956237 -0.00033128855 0.45700002 4279783727
0.068440571 -0.00033128855 0.45700002 4286359697
0.0068692882 0.0010450114 0.41400003 4283920477
0.0082139615 0.0010450114 0.41400003 4279317529
0.0095586339 0.0010450114 0.41400003 4279453215
0.010903306 0.0010450114 0.41400003 4279190556
0.01224798 0.0010450114 0.41400003 4278862875
0.013592653 0.0010450114 0.41400003 4278929179
0.014937324 0.0010450114 0.41400003 4279062048
0.016281998 0.0010450114 0.41400003 4278931232
0.017669247 0.0010475356 0.41500002 4278603294
0.019017167 0.0010475356 0.41500002 4278340122
0.020414161 0.0010500597 0.41600001 4278998052
0.021817649 0.0010525839 0.41700003 4278734880
0.023172066 0.0010525839 0.41700003 4278669087
0.024585299 0.0010551082 0.41800001 4278800673
0.02600503 0.0010576323 0.41900003 4278865953
0.027365942 0.0010576323 0.41900003 4279654185
0.028795416 0.0010601565 0.42000002 4280177453
0.030303193 0.0010652049 0.42200002 4278597654
0.031748902 0.001067729 0.42300001 4279908131
0.033279419 0.0010727773 0.42500001 4279250201
0.034822926 0.0010778258 0.42700002 4279841824
0.036379423 0.0010828741 0.42900002 4280302889
0.037860863 0.0010853983 0.43000001 4279317275
0.039440095 0.0010904466 0.43200001 4280698928
0.040937781 0.0010929708 0.43300003 4278331404
0.042539749 0.0010980192 0.43500003 4280570415
0.04405367 0.0011005434 0.43600002 4278199047
0.045678377 0.0011055918 0.43800002 4280699952
0.047208536 0.0011081159 0.43900001 4280309035
0.048966765 0.0011156885 0.44200003 4279848484
0.050630447 0.0011207369 0.44400004 4279058972
0.052307121 0.0011257852 0.44600001 4278198528
0.053996786 0.0011308335 0.44800001 4278199041
0.055699442 0.0011358819 0.45000002 4278201613
0.057415091 0.0011409303 0.45200002 4280110895
0.059143737 0.0011459787 0.45400003 4279781930
0.060751848 0.0011485028 0.45500001 4279848236
0.062229685 0.0011485028 0.45500001 4279849520
0.063847549 0.001151027 0.45600003 4279521066
0.065328635 0.001151027 0.45600003 4278928418
0.066956237 0.0011535512 0.45700002 4285043067
0.0082338015 0.002395913 0.41500002 4279976229
0.0095586339 0.0023901397 0.41400003 4279321631
0.010903306 0.0023901397 0.41400003 4279124765
0.01224798 0.0023901397 0.41400003 4278928668
0.013592653 0.0023901397 0.41400003 4279126560
0.014937324 0.0023901397 0.41400003 4279193634
0.016321326 0.002395913 0.41500002 4278799646
0.017669247 0.002395913 0.41500002 4278800160
0.019062992 0.0024016863 0.41600001 4278998052
0.020414161 0.0024016863 0.41600001 4278800675
0.021817649 0.0024074595 0.41700003 4278998054
0.023227634 0.0024132328 0.41800001 4278866468
0.024585299 0.0024132328 0.41800001 4278866468
0.02600503 0.0024190061 0.41900003 4278800162
0.027431253 0.0024247793 0.42000002 4278202633
0.028863978 0.0024305528 0.42100003 4279454246
0.030303193 0.0024363259 0.42200002 4278201357
0.031748902 0.0024420992 0.42300001 4279644961
0.033279419 0.0024536457 0.42500001 4278658066
0.034822926 0.0024651925 0.42700002 4278394380
0.036379423 0.002476739 0.42900002 4278656785
0.037860863 0.0024825123 0.43000001 4278919187
0.039440095 0.0024940588 0.43200001 4278656785
0.040937781 0.0024998321 0.43300003 4280502319
0.042539749 0.0025113788 0.43500003 4279056924
0.04405367 0.0025171519 0.43600002 4278199303
0.045678377 0.0025286984 0.43800002 4278198789
0.047208536 0.0025344717 0.43900001 4278596371
0.048855979 0.0025460182 0.44100001 4279978024
0.050630447 0.0025633383 0.44400004 4279585316
0.052307121 0.0025748848 0.44600001 4279849258
0.053996786 0.0025864313 0.44800001 4279521320
0.055699442 0.0025979779 0.45000002 4279323941
0.057415091 0.0026095244 0.45200002 4279587113
0.059143737 0.0026210712 0.45400003 4279652906
0.060751848 0.0026268442 0.45500001 4279454248
0.062229685 0.0026268442 0.45500001 4279847982
0.063847549 0.0026326177 0.45600003 4284187504
0.065328635 0.0026326177 0.45600003 4286621331
0.0068858806 0.0037442902 0.41500002 4280238118
0.0082338015 0.0037442902 0.41500002 4279976994
0.0095817223 0.0037442902 0.41500002 4279519010
0.010929643 0.0037442902 0.41500002 4279124252
0.012277564 0.0037442902 0.41500002 4279257121
0.013625485 0.0037442902 0.41500002 4279258146
0.014973405 0.0037442902 0.41500002 4279062048
0.016321326 0.0037442902 0.41500002 4278996509
0.017711822 0.0037533126 0.41600001 4278931746
0.019062992 0.0037533126 0.41600001 4278866466
0.020463234 0.0037623351 0.41700003 4278800673
0.021817649 0.0037623351 0.41700003 4278669087
0.023227634 0.0037713575 0.41800001 4278603294
0.024585299 0.0037713575 0.41800001 4278800673
0.02600503 0.0037803799 0.41900003 4279325992
0.027431253 0.0037894021 0.42000002 4278201095
0.028863978 0.0037984247 0.42100003 4279848234
0.030303193 0.0038074469 0.42200002 4278201101
0.031748902 0.0038164693 0.42300001 4278788371
0.033279419 0.0038345142 0.42500001 4278722580
0.034822926 0.0038525588 0.42700002 4278787603
0.036379423 0.0038706036 0.42900002 4278656017
0.037860863 0.003879626 0.43000001 4278328333
0.039440095 0.0038976707 0.43200001 4279184410
0.040937781 0.0039066933 0.43300003 4280373295
0.042539749 0.0039247382 0.43500003 4279716648
0.04405367 0.0039337603 0.43600002 4279520293
0.045678377 0.0039518052 0.43800002 4279388707
0.047208536 0.0039608274 0.43900001 4279388707
0.048855979 0.0039788722 0.44100001 4279454500
0.050516412 0.003996917 0.44300002 4279455012
0.052189842 0.0040149619 0.44500002 4279192353
0.053876258 0.0040330067 0.44700003 4279323939
0.055699442 0.0040600738 0.45000002 4279257894
0.057415091 0.0040781186 0.45200002 4280176436
0.059143737 0.0040961634 0.45400003 4283792998
0.060751848 0.0041051856 0.45500001 4286357900
0.062229685 0.0041051856 0.45500001 4286159751
0.0082536414 0.005104939 0.41600001 4279714852
0.0095817223 0.0050926679 0.41500002 4279321631
0.010929643 0.0050926679 0.41500002 4279058972
0.012277564 0.0050926679 0.41500002 4278994459
0.013625485 0.0050926679 0.41500002 4279258144
0.014973405 0.0050926679 0.41500002 4278931232
0.016321326 0.0050926679 0.41500002 4278997025
0.017711822 0.005104939 0.41600001 4278865953
0.019062992 0.005104939 0.41600001 4278734880
0.020463234 0.005117211 0.41700003 4278734880
0.021869969 0.0051294821 0.41800001 4278866466
0.023227634 0.0051294821 0.41800001 4278800673
0.024644116 0.0051417537 0.41900003 4278734880
0.02600503 0.0051417537 0.41900003 4279325222
0.027431253 0.0051540253 0.42000002 4278729755
0.028863978 0.0051662968 0.42100003 4279716902
0.030303193 0.0051785684 0.42200002 4278202641
0.031748902 0.0051908395 0.42300001 4279515937
0.033279419 0.0052153827 0.42500001 4280239914
0.034822926 0.0052399258 0.42700002 4279781158
0.036379423 0.0052644685 0.42900002 4279913514
0.037860863 0.0052767401 0.43000001 4279585314
0.039440095 0.0053012832 0.43200001 4279389219
0.040937781 0.0053135548 0.43300003 4279258146
0.042441957 0.0053258259 0.43400002 4279192353
0.04405367 0.005350369 0.43600002 4279258146
0.045574088 0.0053626406 0.43700001 4279389732
0.047208536 0.0053871833 0.43900001 4279521320
0.048855979 0.0054117264 0.44100001 4279587113
0.050516412 0.0054362696 0.44300002 4279519523
0.052189842 0.0054608122 0.44500002 4281228606
0.053876258 0.0054853554 0.44700003 4284714102
0.055699442 0.0055221696 0.45000002 4286094987
0.057415091 0.0055467128 0.45200002 4286292107
0.059143737 0.0055712559 0.45400003 4285897349
0.060751848 0.005583527 0.45500001 4285962372
0.0069024726 0.0064565656 0.41600001 4280042533
0.0082536414 0.0064565656 0.41600001 4279649826
0.0096048107 0.0064565656 0.41600001 4279256351
0.010955979 0.0064565656 0.41600001 4279124763
0.012307148 0.0064565656 0.41600001 4278928666
0.013658317 0.0064565656 0.41600001 4279060765
0.015009484 0.0064565656 0.41600001 4278865439
0.016360654 0.0064565656 0.41600001 4278931746
0.017711822 0.0064565656 0.41600001 4278669087
0.019108817 0.0064720865 0.41700003 4278867236
0.020463234 0.0064720865 0.41700003 4278669857
0.021869969 0.006487607 0.41800001 4278800673
0.023227634 0.006487607 0.41800001 4278800673
0.024644116 0.006503128 0.41900003 4278734367
0.02600503 0.006503128 0.41900003 4278468630
0.027431253 0.006518648 0.42000002 4278203406
0.028863978 0.006534169 0.42100003 4279258148
0.030303193 0.0065496895 0.42200002 4279390502
0.031748902 0.0065652099 0.42300001 4279127330
0.033279419 0.0065962509 0.42500001 4279193121
0.034822926 0.0066272924 0.42700002 4279193121
0.036294624 0.0066428133 0.42800003 4279456293
0.037860863 0.0066738538 0.43000001 4279193375
0.0393488 0.0066893748 0.43100002 4279193375
0.040937781 0.0067204162 0.43300003 4279193123
0.042441957 0.0067359363 0.43400002 4279323939
0.04405367 0.0067669777 0.43600002 4280046383
0.045574088 0.0067824982 0.43700001 4280242481
0.047100998 0.0067980192 0.43800002 4282279757
0.048855979 0.0068445806 0.44100001 4285700481
0.050516412 0.0068756216 0.44300002 4286489486
0.052189842 0.0069066631 0.44500002 4285831302
0.053876258 0.0069377045 0.44700003 4286356876
0.055699442 0.006984266 0.45000002 4285896325
0.057415091 0.007015307 0.45200002 4285831302
0.059143737 0.0070463484 0.45400003 4285831302
0.0055646491 0.0078269625 0.41700003 4279974174
0.0069190655 0.0078269625 0.41700003 4279582496
0.0082734823 0.0078269625 0.41700003 4279584033
0.0096048107 0.0078081922 0.41600001 4279124765
0.010955979 0.0078081922 0.41600001 4279059740
0.012307148 0.0078081922 0.41600001 4278929179
0.013658317 0.0078081922 0.41600001 4279456293
0.015009484 0.0078081922 0.41600001 4279062818
0.016360654 0.0078081922 0.41600001 4278931746
0.017711822 0.0078081922 0.41600001 4278866466
0.019108817 0.0078269625 0.41700003 4279063845
0.020463234 0.0078269625 0.41700003 4278735650
0.021869969 0.0078457315 0.41800001 4278669857
0.023227634 0.0078457315 0.41800001 4278734880
0.024644116 0.0078645013 0.41900003 4278865955
0.02600503 0.0078645013 0.41900003 4279390502
0.027431253 0.0078832712 0.42000002 4279192353
0.028863978 0.0079020411 0.42100003 4279456297
0.030303193 0.007920811 0.42200002 4278601501
0.031748902 0.0079395799 0.42300001 4278996259
0.033201117 0.0079583498 0.42400002 4279391017
0.034822926 0.0080146594 0.42700002 4279456297
0.036294624 0.0080334293 0.42800003 4279718699
0.037860863 0.0080709681 0.43000001 4279454762
0.0393488 0.008089738 0.43100002 4279914029
0.040937781 0.0081272777 0.43300003 4282214988
0.042441957 0.0081460467 0.43400002 4284911479
0.04405367 0.0081835864 0.43600002 4287015058
0.045574088 0.0082023554 0.43700001 4286357128
0.047100998 0.0082211262 0.43800002 4285699198
0.048855979 0.0082774349 0.44100001 4286159749
0.050516412 0.0083149746 0.44300002 4286291337
0.052189842 0.0083525134 0.44500002 4286224777
0.053876258 0.0083900532 0.44700003 4286224777
0.055699442 0.0084463619 0.45000002 4286093191
0.0069190655 0.0091818376 0.41700003 4279779109
0.0082734823 0.0091818376 0.41700003 4279649061
0.0096278992 0.0091818376 0.41700003 4279190558
0.010955979 0.0091598183 0.41600001 4279257121
0.012307148 0.0091598183 0.41600001 4279060767
0.013658317 0.0091598183 0.41600001 4279456293
0.015009484 0.0091598183 0.41600001 4279260197
0.016360654 0.0091598183 0.41600001 4278865953
0.0177544 0.0091818376 0.41700003 4278537501
0.019108817 0.0091818376 0.41700003 4278998052
0.020512305 0.0092038559 0.41800001 4279063847
0.021869969 0.0092038559 0.41800001 4278800162
0.023227634 0.0092038559 0.41800001 4279063334
0.024644116 0.0092258751 0.41900003 4278997027
0.02600503 0.0092258751 0.41900003 4279456808
0.027431253 0.0092478935 0.42000002 4280048432
0.028863978 0.0092699127 0.42100003 4280047664
0.030303193 0.0092919311 0.42200002 4280244789
0.031748902 0.0093139503 0.42300001 4279585580
0.033201117 0.0093359696 0.42400002 4281229126
0.034822926 0.0094020255 0.42700002 4284318826
0.036294624 0.0094240448 0.42800003 4286489486
0.010955979 0.010511445 0.41600001 4279583781
0.012307148 0.010511445 0.41600001 4279191842
0.013658317 0.010511445 0.41600001 4279718699
0.015009484 0.010511445 0.41600001 4279062822
0.016360654 0.010511445 0.41600001 4279720752
0.0177544 0.010536713 0.41700003 4279720752
0.019108817 0.010536713 0.41700003 4279786543
0.020512305 0.01056198 0.41800001 4279852338
0.021869969 0.01056198 0.41800001 4279916594
0.023227634 0.01056198 0.41800001 4280046897
0.024644116 0.010587249 0.41900003 4280637239
0.02600503 0.010587249 0.41900003 4281753413
0.027431253 0.010612517 0.42000002 4284647793
0.0177544 0.01189159 0.41700003 4279913516
0.019108817 0.01189159 0.41700003 4280966204
0.03808324 -0.0012045938 0.43508658 4294967295
0.03808324 -0.0012045938 0.43508658 4294901760
0.038151629 -0.0007107064 0.43512398 4294901760
0.038220018 -0.000216819 0.43516135 4294901760
0.038288407 0.00027706835 0.43519875 4294901760
0.0383568 0.00077095581 0.43523616 4294901760
0.038425189 0.0012648432 0.43527353 4294901760
0.038493577 0.0017587305 0.43531093 4294901760
0.038561966 0.0022526181 0.43534833 4294901760
0.038630355 0.0027465054 0.4353857 4294901760
0.038698744 0.0032403928 0.43542311 4294901760
0.038767133 0.0037342801 0.43546051 4294901760
0.038835522 0.0042281672 0.43549788 4294901760
0.038903914 0.004722055 0.43553528 4294901760
0.038972303 0.0052159419 0.43557268 4294901760
0.039040692 0.0057098297 0.43561006 4294901760
0.039109081 0.0062037176 0.43564746 4294901760
0.03917747 0.0066976044 0.43568486 4294901760
0.039245859 0.0071914922 0.43572223 4294901760
0.039314248 0.0076853791 0.43575963 4294901760
0.039382637 0.0081792669 0.43579704 4294901760
0.039451029 0.0086731538 0.43583441 4294901760
0.039519418 0.0091670407 0.43587181 4294901760
0.039587807 0.0096609285 0.43590921 4294901760
0.039656196 0.010154816 0.43594658 4294901760
0.039724585 0.010648703 0.43598399 4294901760
0.039792974 0.011142591 0.43602139 4294901760
0.039861362 0.011636478 0.43605876 4294901760
0.039929755 0.012130367 0.43609616 4294901760
0.039998144 0.012624254 0.43613353 4294901760
0.040066533 0.01311814 0.43617094 4294901760
0.040134922 0.013612028 0.43620834 4294901760
0.040203311 0.014105915 0.43624571 4294901760
0.040271699 0.014599803 0.43628311 4294901760
0.040340088 0.015093691 0.43632051 4294901760
0.040408477 0.015587579 0.43635789 4294901760
0.04047687 0.016081465 0.43639529 4294901760
0.040545259 0.016575353 0.43643269 4294901760
0.040613648 0.017069241 0.43647006 4294901760
0.040682036 0.017563129 0.43650746 4294901760
0.040750425 0.018057015 0.43654487 4294901760
0.040818814 0.018550903 0.43658224 4294901760
0.040887203 0.01904479 0.43661964 4294901760
0.040955592 0.019538676 0.43665704 4294901760
0.041023985 0.020032566 0.43669441 4294901760
0.041092373 0.020526452 0.43673182 4294901760
0.041160762 0.02102034 0.43676922 4294901760
0.041229151 0.021514228 0.43680659 4294901760
0.04129754 0.022008115 0.43684399 4294901760
0.041365929 0.022502001 0.43688139 4294901760
0.041434318 0.022995889 0.43691877 4294901760
0.041502707 0.023489777 0.43695617 4294901760
0.041571099 0.023983665 0.43699357 4294901760
0.041639488 0.024477551 0.43703094 4294901760
0.041707877 0.024971439 0.43706834 4294901760
0.041776266 0.025465328 0.43710575 4294901760
0.041844655 0.025959214 0.43714312 4294901760
0.041913044 0.026453102 0.43718052 4294901760
0.041981433 0.026946988 0.43721792 4294901760
0.042049825 0.027440876 0.43725529 4294901760
0.042118214 0.027934762 0.4372927 4294901760
0.042186603 0.028428651 0.4373301 4294901760
0.042254992 0.028922539 0.43736747 4294901760
0.042323381 0.029416425 0.43740487 4294901760
0.04239177 0.029910313 0.43744227 4294901760
0.042460158 0.030404201 0.43747965 4294901760
0.042528547 0.030898089 0.43751705 4294901760
0.04259694 0.031391975 0.43755445 4294901760
0.042665329 0.031885862 0.43759182 4294901760
0.042733718 0.03237975 0.43762922 4294901760
0.042802107 0.032873634 0.43766662 4294901760
0.042870495 0.033367522 0.437704 4294901760
0.042938884 0.03386141 0.4377414 4294901760
0.043007273 0.034355298 0.4377788 4294901760
0.043075666 0.034849185 0.43781617 4294901760
0.043144055 0.035343073 0.43785357 4294901760
0.043212444 0.035836961 0.43789095 4294901760
0.043280832 0.036330849 0.43792835 4294901760
0.043349221 0.036824733 0.43796575 4294901760
0.04341761 0.037318621 0.43800312 4294901760
0.043485999 0.037812512 0.43804052 4294901760
0.043554388 0.038306396 0.43807793 4294901760
0.043622777 0.038800284 0.4381153 4294901760
0.043691169 0.039294172 0.4381527 4294901760
0.043759558 0.03978806 0.4381901 4294901760
0.043827947 0.040281944 0.43822747 4294901760
0.043896336 0.040775836 0.43826488 4294901760
0.043964725 0.041269723 0.43830228 4294901760
0.044033114 0.041763607 0.43833965 4294901760
0.044101503 0.042257495 0.43837705 4294901760
0.044169895 0.042751383 0.43841445 4294901760
0.044238284 0.043245271 0.43845183 4294901760
0.044306673 0.043739159 0.43848923 4294901760
0.044375062 0.044233046 0.43852663 4294901760
0.044443451 0.044726934 0.438564 4294901760
0.04451184 0.045220822 0.4386014 4294901760
0.044580229 0.045714706 0.43863881 4294901760
0.044648618 0.046208594 0.43867618 4294901760
0.04471701 0.046702486 0.43871358 4294901760
0.044785399 0.04719637 0.43875098 4294901760
0.044853788 0.047690257 0.43878835 4294901760
0.044922177 0.048184145 0.43882576 4294901760
0.03808324 -0.0012045938 0.43508658 4278255360
0.038432792 -0.0012794633 0.43543616 4278255360
0.03878234 -0.0013543328 0.43578574 4278255360
0.039131891 -0.0014292023 0.43613532 4278255360
0.039481439 -0.0015040718 0.4364849 4278255360
0.03983099 -0.0015789414 0.43683451 4278255360
0.040180542 -0.0016538108 0.4371841 4278255360
0.040530089 -0.0017286803 0.43753368 4278255360
0.040879641 -0.0018035498 0.43788326 4278255360
0.041229188 -0.0018784194 0.43823284 4278255360
0.04157874 -0.0019532889 0.43858242 4278255360
0.041928291 -0.0020281584 0.438932 4278255360
0.042277839 -0.0021030279 0.43928158 4278255360
0.04262739 -0.0021778974 0.43963119 4278255360
0.042976938 -0.0022527669 0.43998078 4278255360
0.04332649 -0.0023276363 0.44033036 4278255360
0.043676041 -0.0024025058 0.44067994 4278255360
0.044025589 -0.0024773753 0.44102952 4278255360
0.04437514 -0.0025522448 0.4413791 4278255360
0.044724688 -0.0026271143 0.44172868 4278255360
0.045074239 -0.0027019838 0.44207826 4278255360
0.045423791 -0.0027768533 0.44242787 4278255360
0.045773339 -0.0028517228 0.44277745 4278255360
0.04612289 -0.0029265925 0.44312704 4278255360
0.046472438 -0.0030014617 0.44347662 4278255360
0.046821989 -0.0030763315 0.4438262 4278255360
0.047171541 -0.0031512009 0.44417578 4278255360
0.047521088 -0.0032260707 0.44452536 4278255360
0.04787064 -0.0033009399 0.44487494 4278255360
0.048220187 -0.0033758094 0.44522452 4278255360
0.048569739 -0.0034506791 0.44557413 4278255360
0.04891929 -0.0035255486 0.44592372 4278255360
0.049268838 -0.0036004179 0.4462733 4278255360
0.049618389 -0.0036752876 0.44662288 4278255360
0.049967937 -0.0037501571 0.44697246 4278255360
0.050317489 -0.0038250266 0.44732204 4278255360
0.05066704 -0.0038998961 0.44767162 4278255360
0.051016588 -0.0039747655 0.4480212 4278255360
0.051366139 -0.004049635 0.44837081 4278255360
0.051715687 -0.0041245045 0.4487204 4278255360
0.052065238 -0.004199374 0.44906998 4278255360
0.05241479 -0.0042742435 0.44941956 4278255360
0.052764338 -0.004349113 0.44976914 4278255360
0.053113889 -0.0044239825 0.45011872 4278255360
0.053463437 -0.004498852 0.4504683 4278255360
0.053812988 -0.0045737214 0.45081788 4278255360
0.05416254 -0.0046485914 0.45116746 4278255360
0.054512087 -0.0047234604 0.45151708 4278255360
0.054861635 -0.0047983299 0.45186666 4278255360
0.055211186 -0.0048731994 0.45221624 4278255360
0.055560738 -0.0049480693 0.45256582 4278255360
0.055910289 -0.0050229384 0.4529154 4278255360
0.056259837 -0.0050978083 0.45326498 4278255360
0.056609385 -0.0051726773 0.45361456 4278255360
0.056958936 -0.0052475473 0.45396417 4278255360
0.057308488 -0.0053224163 0.45431376 4278255360
0.057658039 -0.0053972863 0.45466334 4278255360
0.058007587 -0.0054721553 0.45501292 4278255360
0.058357134 -0.0055470252 0.4553625 4278255360
0.058706686 -0.0056218943 0.45571208 4278255360
0.059056237 -0.0056967642 0.45606166 4278255360
0.059405789 -0.0057716342 0.45641124 4278255360
0.059755336 -0.0058465032 0.45676082 4278255360
0.060104888 -0.0059213722 0.45711043 4278255360
0.060454436 -0.0059962422 0.45746002 4278255360
0.060803987 -0.0060711112 0.4578096 4278255360
0.061153539 -0.0061459811 0.45815918 4278255360
0.06150309 -0.0062208511 0.45850876 4278255360
0.061852638 -0.0062957201 0.45885834 4278255360
0.062202185 -0.0063705901 0.45920792 4278255360
0.062551737 -0.0064454591 0.4595575 4278255360
0.062901288 -0.0065203281 0.45990711 4278255360
0.06325084 -0.0065951981 0.4602567 4278255360
0.063600391 -0.006670068 0.46060628 4278255360
0.063949935 -0.006744937 0.46095586 4278255360
0.064299487 -0.006819807 0.46130544 4278255360
0.064649038 -0.006894676 0.46165502 4278255360
0.064998582 -0.006969546 0.4620046 4278255360
0.065348133 -0.007044415 0.46235418 4278255360
0.065697685 -0.0071192849 0.46270376 4278255360
0.066047236 -0.007194154 0.46305338 4278255360
0.066396788 -0.0072690239 0.46340296 4278255360
0.066746339 -0.0073438929 0.46375254 4278255360
0.067095883 -0.0074187629 0.46410212 4278255360
0.067445435 -0.0074936319 0.4644517 4278255360
0.067794986 -0.0075685019 0.46480128 4278255360
0.068144538 -0.0076433718 0.46515086 4278255360
0.068494081 -0.0077182408 0.46550044 4278255360
0.068843633 -0.0077931099 0.46585006 4278255360
0.069193184 -0.0078679798 0.46619964 4278255360
0.069542736 -0.0079428488 0.46654922 4278255360
0.069892287 -0.0080177188 0.4668988 4278255360
0.070241839 -0.0080925887 0.46724838 4278255360
0.07059139 -0.0081674578 0.46759796 4278255360
0.070940934 -0.0082423277 0.46794754 4278255360
0.071290486 -0.0083171967 0.46829712 4278255360
0.07164003 -0.0083920658 0.46864671 4278255360
0.071989581 -0.0084669357 0.46899632 4278255360
0.072339132 -0.0085418057 0.4693459 4278255360
0.072688684 -0.0086166747 0.46969548 4278255360
0.073038235 -0.0086915446 0.47004506 4278255360
0.03808324 -0.0012045938 0.43508658 4278190335
0.038439058 -0.0012273254 0.43473604 4278190335
0.038794875 -0.0012500571 0.43438551 4278190335
0.039150693 -0.0012727887 0.43403497 4278190335
0.03950651 -0.0012955205 0.43368444 4278190335
0.039862327 -0.0013182521 0.43333387 4278190335
0.040218145 -0.0013409838 0.43298334 4278190335
0.040573966 -0.0013637154 0.4326328 4278190335
0.040929783 -0.0013864471 0.43228227 4278190335
0.041285601 -0.0014091787 0.43193173 4278190335
0.041641418 -0.0014319104 0.4315812 4278190335
0.041997235 -0.001454642 0.43123066 4278190335
0.042353053 -0.0014773738 0.43088013 4278190335
0.04270887 -0.0015001054 0.43052959 4278190335
0.043064687 -0.001522837 0.43017903 4278190335
0.043420505 -0.0015455687 0.42982849 4278190335
0.043776322 -0.0015683003 0.42947796 4278190335
0.04413214 -0.001591032 0.42912742 4278190335
0.044487961 -0.0016137636 0.42877689 4278190335
0.044843778 -0.0016364953 0.42842636 4278190335
0.045199595 -0.001659227 0.42807582 4278190335
0.045555413 -0.0016819586 0.42772529 4278190335
0.04591123 -0.0017046903 0.42737475 4278190335
0.046267048 -0.001727422 0.42702419 4278190335
0.046622865 -0.0017501536 0.42667365 4278190335
0.046978682 -0.0017728852 0.42632312 4278190335
0.0473345 -0.0017956169 0.42597258 4278190335
0.047690317 -0.0018183487 0.42562205 4278190335
0.048046134 -0.0018410803 0.42527151 4278190335
0.048401952 -0.0018638119 0.42492098 4278190335
0.048757769 -0.0018865436 0.42457044 4278190335
0.049113587 -0.0019092753 0.42421991 4278190335
0.049469404 -0.0019320068 0.42386937 4278190335
0.049825225 -0.0019547385 0.42351881 4278190335
0.050181042 -0.0019774702 0.42316827 4278190335
0.05053686 -0.002000202 0.42281774 4278190335
0.050892677 -0.0020229337 0.4224672 4278190335
0.051248495 -0.0020456652 0.42211667 4278190335
0.051604312 -0.0020683969 0.42176613 4278190335
0.051960129 -0.0020911284 0.4214156 4278190335
0.052315947 -0.0021138601 0.42106506 4278190335
0.052671764 -0.0021365918 0.4207145 4278190335
0.053027581 -0.0021593235 0.42036396 4278190335
0.053383403 -0.0021820553 0.42001343 4278190335
0.05373922 -0.0022047868 0.41966289 4278190335
0.054095037 -0.0022275182 0.41931236 4278190335
0.054450855 -0.00225025 0.41896182 4278190335
0.054806672 -0.0022729817 0.41861129 4278190335
0.055162489 -0.0022957134 0.41826075 4278190335
0.055518307 -0.0023184451 0.41791022 4278190335
0.055874124 -0.0023411768 0.41755968 4278190335
0.056229942 -0.0023639083 0.41720912 4278190335
0.056585759 -0.0023866401 0.41685858 4278190335
0.056941576 -0.0024093715 0.41650805 4278190335
0.057297394 -0.0024321033 0.41615751 4278190335
0.057653211 -0.002454835 0.41580698 4278190335
0.058009028 -0.0024775667 0.41545644 4278190335
0.058364846 -0.0025002984 0.41510591 4278190335
0.058720663 -0.0025230299 0.41475537 4278190335
0.059076481 -0.0025457616 0.41440484 4278190335
0.059432302 -0.0025684934 0.41405427 4278190335
0.059788119 -0.0025912249 0.41370374 4278190335
0.060143936 -0.0026139566 0.4133532 4278190335
0.060499754 -0.0026366883 0.41300267 4278190335
0.060855571 -0.00265942 0.41265213 4278190335
0.061211389 -0.0026821515 0.4123016 4278190335
0.06156721 -0.0027048835 0.41195107 4278190335
0.061923027 -0.0027276149 0.41160053 4278190335
0.062278844 -0.0027503464 0.41125 4278190335
0.062634662 -0.0027730782 0.41089943 4278190335
0.062990479 -0.0027958099 0.4105489 4278190335
0.063346297 -0.0028185416 0.41019836 4278190335
0.063702114 -0.0028412733 0.40984783 4278190335
0.064057931 -0.002864005 0.40949729 4278190335
0.064413749 -0.0028867365 0.40914676 4278190335
0.064769566 -0.0029094683 0.40879622 4278190335
0.065125383 -0.0029321997 0.40844569 4278190335
0.065481201 -0.0029549315 0.40809515 4278190335
0.065837018 -0.0029776632 0.40774459 4278190335
0.066192836 -0.0030003949 0.40739405 4278190335
0.066548653 -0.0030231266 0.40704352 4278190335
0.06690447 -0.0030458581 0.40669298 4278190335
0.067260288 -0.0030685898 0.40634245 4278190335
0.067616105 -0.0030913213 0.40599191 4278190335
0.067971922 -0.003114053 0.40564138 4278190335
0.06832774 -0.0031367848 0.40529084 4278190335
0.068683565 -0.0031595165 0.40494031 4278190335
0.069039375 -0.0031822482 0.40458974 4278190335
0.069395199 -0.0032049797 0.40423921 4278190335
0.069751009 -0.0032277114 0.40388867 4278190335
0.070106834 -0.0032504429 0.40353814 4278190335
0.070462652 -0.0032731749 0.4031876 4278190335
0.070818469 -0.0032959064 0.40283707 4278190335
0.071174286 -0.0033186381 0.40248653 4278190335
0.071530104 -0.0033413698 0.402136 4278190335
0.071885914 -0.0033641013 0.40178546 4278190335
0.072241738 -0.003386833 0.4014349 4278190335
0.072597556 -0.0034095647 0.40108436 4278190335
0.072953373 -0.0034322964 0.40073383 4278190335
0.073309191 -0.0034550279 0.40038329 4278190335
0.073665008 -0.0034777597 0.40003276 4278190335
0.03808324 -0.0012045938 0.43508658 4294967295
0.035948336 -0.0010682038 0.43718982 4294967295
0.033813428 -0.00093181391 0.43929303 4294967295
0.031678524 -0.00079542398 0.44139627 4294967295
0.029543616 -0.00065903401 0.44349951 4294967295
0.027408712 -0.00052264403 0.44560272 4294967295
0.025273805 -0.00038625411 0.44770595 4294967295
0.023138899 -0.00024986413 0.44980919 4294967295
0.021003993 -0.00011347421 0.4519124 4294967295
0.018869087 2.291589e-05 0.45401564 4294967295
0.016734181 0.00015930575 0.45611888 4294967295
0.014599275 0.00029569573 0.45822209 4294967295
0.012464371 0.0004320856 0.46032533 4294967295
0.010329464 0.00056847557 0.46242857 4294967295
0.0081945583 0.00070486555 0.46453178 4294967295
0.0060596503 0.00084125553 0.46663502 4294967295
0.0039247461 0.0009776454 0.46873826 4294967295
0.0017898381 0.0011140355 0.47084147 4294967295
-0.00034506619 0.0012504256 0.47294471 4294967295
-0.0024799705 0.0013868152 0.47504795 4294967295
-0.0046148784 0.0015232053 0.47715116 4294967295
-0.0067497827 0.0016595952 0.47925439 4294967295
-0.0088846907 0.0017959853 0.48135763 4294967295
-0.011019595 0.0019323751 0.48346084 4294967295
-0.013154499 0.002068765 0.48556408 4294967295
-0.015289407 0.0022051551 0.48766732 4294967295
-0.017424311 0.002341545 0.48977053 4294967295
-0.019559219 0.002477935 0.49187377 4294967295
-0.021694124 0.0026143249 0.49397701 4294967295
-0.023829028 0.002750715 0.49608022 4294967295
-0.02596394 0.0028871049 0.49818346 4294967295
-0.028098844 0.0030234947 0.5002867 4294967295
-0.030233748 0.0031598846 0.50238991 4294967295
-0.03236866 0.0032962749 0.50449318 4294967295
-0.034503564 0.0034326648 0.50659639 4294967295
-0.036638469 0.0035690547 0.5086996 4294967295
-0.038773373 0.003705445 0.51080287 4294967295
-0.040908277 0.0038418348 0.51290607 4294967295
-0.043043181 0.0039782245 0.51500928 4294967295
-0.045178086 0.0041146139 0.51711249 4294967295
-0.047312997 0.0042510042 0.51921576 4294967295
-0.049447902 0.0043873945 0.52131897 4294967295
-0.051582806 0.0045237839 0.52342224 4294967295
-0.053717718 0.0046601743 0.52552545 4294967295
-0.055852622 0.0047965646 0.52762866 4294967295
-0.057987526 0.004932954 0.52973187 4294967295
-0.06012243 0.0050693443 0.53183514 4294967295
-0.062257335 0.0052057337 0.53393835 4294967295
-0.064392239 0.005342124 0.53604162 4294967295
-0.066527151 0.0054785144 0.53814483 4294967295
-0.068662055 0.0056149038 0.54024804 4294967295
-0.070796959 0.0057512941 0.54235125 4294967295
-0.072931863 0.0058876835 0.54445451 4294967295
-0.075066768 0.0060240738 0.54655772 4294967295
-0.077201679 0.0061604641 0.54866099 4294967295
-0.079336584 0.0062968535 0.5507642 4294967295
-0.081471488 0.0064332439 0.55286741 4294967295
-0.083606392 0.0065696333 0.55497068 4294967295
-0.085741296 0.0067060236 0.55707389 4294967295
-0.087876201 0.006842413 0.5591771 4294967295
-0.09001112 0.0069788033 0.56128037 4294967295
-0.092146024 0.0071151936 0.56338358 4294967295
-0.094280928 0.007251583 0.56548679 4294967295
-0.096415833 0.0073879734 0.56759 4294967295
-0.098550737 0.0075243628 0.56969327 4294967295
-0.10068564 0.0076607531 0.57179648 4294967295
-0.10282056 0.0077971434 0.57389975 4294967295
-0.10495546 0.0079335328 0.57600296 4294967295
-0.10709037 0.0080699231 0.57810616 4294967295
-0.10922527 0.0082063125 0.58020937 4294967295
-0.11136018 0.0083427029 0.58231264 4294967295
-0.11349508 0.0084790923 0.58441585 4294967295
-0.11562999 0.0086154835 0.58651912 4294967295
-0.11776489 0.0087518729 0.58862233 4294967295
-0.11989979 0.0088882633 0.59072554 4294967295
-0.1220347 0.0090246527 0.59282875 4294967295
-0.1241696 0.009161042 0.59493202 4294967295
-0.12630451 0.0092974324 0.59703523 4294967295
-0.12843941 0.0094338218 0.5991385 4294967295
-0.13057433 0.009570213 0.60124171 4294967295
-0.13270923 0.0097066024 0.60334492 4294967295
-0.13484414 0.0098429928 0.60544819 4294967295
-0.13697904 0.0099793822 0.6075514 4294967295
-0.13911395 0.010115772 0.60965461 4294967295
-0.14124885 0.010252162 0.61175787 4294967295
-0.14338377 0.010388552 0.61386108 4294967295
-0.14551868 0.010524943 0.61596429 4294967295
-0.14765358 0.010661332 0.61806756 4294967295
-0.14978848 0.010797722 0.62017077 4294967295
-0.15192339 0.010934112 0.62227398 4294967295
-0.15405829 0.011070502 0.62437725 4294967295
-0.1561932 0.011206892 0.62648046 4294967295
-0.1583281 0.011343282 0.62858367 4294967295
-0.16046301 0.011479672 0.63068694 4294967295
-0.16259791 0.011616061 0.63279015 4294967295
-0.16473281 0.011752452 0.63489336 4294967295
-0.16686772 0.011888841 0.63699663 4294967295
-0.16900264 0.012025232 0.63909984 4294967295
-0.17113754 0.012161622 0.64120305 4294967295
-0.17327245 0.012298012 0.64330631 4294967295
-0.17540735 0.012434402 0.64540952 4294967295
