# .PCD v0.7 - Point Cloud Data file format
VERSION 0.7
FIELDS x y z rgb
SIZE 4 4 4 4
TYPE F F F U
COUNT 1 1 1 1
WIDTH 1056
HEIGHT 1
VIEWPOINT 0 0 0 1 0 0 0
POINTS 1056
DATA ascii
0.03843246 0.011207181 0.39300001 4281288759
0.034691118 0.012515845 0.39400002 4279969819
0.035970829 0.012515845 0.39400002 4279509268
0.037155997 0.012484078 0.39300001 4279640854
0.039708927 0.012484078 0.39300001 4281157686
0.034691118 0.01379599 0.39400002 4279376910
0.035970829 0.01379599 0.39400002 4279442705
0.037155997 0.013760975 0.39300001 4279377682
0.03843246 0.013760975 0.39300001 4279180303
0.040776815 0.013690946 0.39100003 4279841826
0.041939247 0.01365593 0.39000002 4279452195
0.043205969 0.01365593 0.39000002 4279848234
0.034691118 0.015076137 0.39400002 4279442705
0.035970829 0.015076137 0.39400002 4279442705
0.037155997 0.015037872 0.39300001 4279377682
0.03843246 0.015037872 0.39300001 4279311889
0.03960789 0.014999609 0.39200002 4279180562
0.040776815 0.014961344 0.39100003 4279313686
0.041939247 0.014923079 0.39000002 4279254816
0.043205969 0.014923079 0.39000002 4278993695
0.034691118 0.016356282 0.39400002 4279311119
0.035970829 0.016356282 0.39400002 4279508244
0.037155997 0.016314769 0.39300001 4279442451
0.03843246 0.016314769 0.39300001 4279310865
0.03960789 0.016273256 0.39200002 4279180049
0.040776815 0.016231744 0.39100003 4279115537
0.041939247 0.016190229 0.39000002 4278200331
0.043095186 0.016148716 0.38900003 4278927386
0.04413059 0.016065689 0.38700002 4278731800
0.04538757 0.016065689 0.38700002 4278666007
0.033411406 0.01763643 0.39400002 4280101403
0.034691118 0.01763643 0.39400002 4279442705
0.035970829 0.01763643 0.39400002 4279442705
0.037155997 0.017591666 0.39300001 4279442451
0.03843246 0.017591666 0.39300001 4279179279
0.03960789 0.017546903 0.39200002 4279378195
0.040776815 0.017502142 0.39100003 4279115537
0.041939247 0.017457379 0.39000002 4278659086
0.0429844 0.017367853 0.38800001 4278858513
0.04413059 0.017323092 0.38700002 4278664212
0.045270287 0.017278329 0.38600001 4278533910
0.046403486 0.017233565 0.38500002 4278797595
0.047653969 0.017233565 0.38500002 4279521318
0.04877742 0.017188802 0.384 4282678871
0.050024655 0.017188802 0.384 4278862363
0.033411406 0.018916577 0.39400002 4279904537
0.034691118 0.018916577 0.39400002 4279311889
0.035970829 0.018916577 0.39400002 4279508498
0.037155997 0.018868564 0.39300001 4279574037
0.03843246 0.018868564 0.39300001 4279113486
0.03960789 0.018820552 0.39200002 4279180303
0.040672526 0.018724529 0.39000002 4279575572
0.041831709 0.018676519 0.38900003 4279052560
0.0429844 0.018628506 0.38800001 4278922256
0.04413059 0.018580494 0.38700002 4278794004
0.045270287 0.018532483 0.38600001 4278597906
0.046403486 0.018484471 0.38500002 4278336531
0.047653969 0.018484471 0.38500002 4278731802
0.04877742 0.01843646 0.384 4278206230
0.050024655 0.01843646 0.384 4279127332
0.033411406 0.020196723 0.39400002 4279772951
0.034691118 0.020196723 0.39400002 4279442705
0.035970829 0.020196723 0.39400002 4279574037
0.037155997 0.020145461 0.39300001 4279639830
0.038334671 0.020094201 0.39200002 4279574037
0.039506849 0.020042941 0.39100003 4279180303
0.040672526 0.019991679 0.39000002 4279510291
0.041831709 0.019940419 0.38900003 4279052558
0.0429844 0.019889157 0.38800001 4278922256
0.04413059 0.019837897 0.38700002 4278530832
0.045270287 0.019786635 0.38600001 4278531345
0.046403486 0.019735375 0.38500002 4278795798
0.047530189 0.019684114 0.384 4278533396
0.04877742 0.019684114 0.384 4278336531
0.050024655 0.019684114 0.384 4278468117
0.051271889 0.019684114 0.384 4278205201
0.05238235 0.019632854 0.38300002 4278271251
0.053626336 0.019632854 0.38300002 4278337044
0.054870322 0.019632854 0.38300002 4278337044
0.056114309 0.019632854 0.38300002 4278204430
0.057358291 0.019632854 0.38300002 4278271249
0.058755282 0.019684114 0.384 4278600468
0.060002517 0.019684114 0.384 4278468882
0.061249748 0.019684114 0.384 4278600468
0.062496983 0.019684114 0.384 4278271503
0.063744217 0.019684114 0.384 4278468628
0.065160699 0.019735375 0.38500002 4278731800
0.066411175 0.019735375 0.38500002 4278600216
0.067837402 0.019786635 0.38600001 4278600214
0.069091134 0.019786635 0.38600001 4278468628
0.070527099 0.019837897 0.38700002 4278731800
0.071784079 0.019837897 0.38700002 4278468628
0.073041059 0.019837897 0.38700002 4278929179
0.074298032 0.019837897 0.38700002 4278797593
0.033411406 0.021476869 0.39400002 4279772440
0.034691118 0.021476869 0.39400002 4279574037
0.035970829 0.021476869 0.39400002 4279837209
0.037155997 0.021422358 0.39300001 4279969049
0.038334671 0.021367848 0.39200002 4279771670
0.039506849 0.021313339 0.39100003 4279312400
0.040672526 0.021258829 0.39000002 4279444498
0.041831709 0.021204319 0.38900003 4279118865
0.042873617 0.0210953 0.38700002 4278988562
0.044016559 0.02104079 0.38600001 4278661394
0.045153007 0.020986279 0.38500002 4278596371
0.046403486 0.020986279 0.38500002 4278531345
0.047530189 0.020931769 0.384 4278598421
0.04877742 0.020931769 0.384 4278401810
0.049894385 0.020877261 0.38300002 4278204945
0.051138371 0.020877261 0.38300002 4278204431
0.05238235 0.020877261 0.38300002 4278204431
0.053626336 0.020877261 0.38300002 4278204174
0.054870322 0.020877261 0.38300002 4278336017
0.056114309 0.020877261 0.38300002 4278204431
0.057358291 0.020877261 0.38300002 4278204174
0.058602277 0.020877261 0.38300002 4278204431
0.060002517 0.020931769 0.384 4278204429
0.061249748 0.020931769 0.384 4278203915
0.062496983 0.020931769 0.384 4278204431
0.063744217 0.020931769 0.384 4278204431
0.065160699 0.020986279 0.38500002 4278204176
0.066411175 0.020986279 0.38500002 4278401812
0.067837402 0.02104079 0.38600001 4278204433
0.069091134 0.02104079 0.38600001 4278204174
0.070527099 0.0210953 0.38700002 4278204431
0.071784079 0.0210953 0.38700002 4278336017
0.073041059 0.0210953 0.38700002 4278336017
0.074298032 0.0210953 0.38700002 4278204431
0.075555012 0.0210953 0.38700002 4278401810
0.076811984 0.0210953 0.38700002 4278204431
0.11303977 0.021531377 0.39500001 4278862873
0.11461216 0.021585887 0.39600003 4278797080
0.11619103 0.021640398 0.39700001 4278797080
0.11748049 0.021640398 0.39700001 4278993947
0.033411406 0.022757014 0.39400002 4279837463
0.034691118 0.022757014 0.39400002 4279902743
0.035970829 0.022757014 0.39400002 4280034842
0.037155997 0.022699254 0.39300001 4279903256
0.038334671 0.022641497 0.39200002 4279837461
0.039506849 0.022583738 0.39100003 4279641365
0.04056824 0.02246822 0.38900003 4279444498
0.041724171 0.02241046 0.38800001 4278856465
0.042873617 0.022352701 0.38700002 4279055125
0.044016559 0.022294942 0.38600001 4278661394
0.045153007 0.022237184 0.38500002 4278661394
0.046282958 0.022179425 0.384 4278729494
0.047530189 0.022179425 0.384 4278598421
0.048650399 0.022121666 0.38300002 4278335249
0.049894385 0.022121666 0.38300002 4278335249
0.051138371 0.022121666 0.38300002 4278335249
0.05238235 0.022121666 0.38300002 4278466833
0.053486321 0.022063907 0.38200003 4278335247
0.054870322 0.022121666 0.38300002 4278664212
0.056114309 0.022121666 0.38300002 4278336017
0.057358291 0.022121666 0.38300002 4278204431
0.058602277 0.022121666 0.38300002 4278204431
0.059846263 0.022121666 0.38300002 4278203917
0.061249748 0.022179425 0.384 4278397708
0.062496983 0.022179425 0.384 4278198275
0.063744217 0.022179425 0.384 4278202896
0.065160699 0.022237184 0.38500002 4278269456
0.066411175 0.022237184 0.38500002 4278335249
0.067837402 0.022294942 0.38600001 4278203663
0.069091134 0.022294942 0.38600001 4278334736
0.070344858 0.022294942 0.38600001 4278334736
0.071784079 0.022352701 0.38700002 4278269456
0.073041059 0.022352701 0.38700002 4278466835
0.074298032 0.022352701 0.38700002 4278335247
0.075555012 0.022352701 0.38700002 4278269454
0.076811984 0.022352701 0.38700002 4278532626
0.078068964 0.022352701 0.38700002 4278335247
0.07953091 0.02241046 0.38800001 4278466833
0.09764424 0.022814773 0.39500001 4278400525
0.10587539 0.022930291 0.39700001 4278663697
0.10716484 0.022930291 0.39700001 4278597904
0.10872748 0.022988051 0.39800003 4278400525
0.11002018 0.022988051 0.39800003 4278467601
0.11131289 0.022988051 0.39800003 4278533394
0.1126056 0.022988051 0.39800003 4278336015
0.11332595 0.022872532 0.39600003 4278599187
0.11490158 0.022930291 0.39700001 4278533394
0.1164837 0.022988051 0.39800003 4278664980
0.11777641 0.022988051 0.39800003 4278796566
0.033496205 0.024098167 0.39500001 4279507983
0.034691118 0.02403716 0.39400002 4280034327
0.035970829 0.02403716 0.39400002 4280034840
0.037155997 0.023976151 0.39300001 4280100633
0.038334671 0.023915144 0.39200002 4279969047
0.039405808 0.023793127 0.39000002 4279575570
0.04056824 0.02373212 0.38900003 4279510291
0.041724171 0.023671111 0.38800001 4278987281
0.042873617 0.023610104 0.38700002 4279055379
0.044016559 0.023549095 0.38600001 4278859027
0.045153007 0.023488088 0.38500002 4278794004
0.046282958 0.023427079 0.384 4278597908
0.047530189 0.023427079 0.384 4278597908
0.048650399 0.023366071 0.38300002 4278730007
0.049894385 0.023366071 0.38300002 4278664214
0.051004853 0.023305064 0.38200003 4278335247
0.052245583 0.023305064 0.38200003 4278335247
0.053486321 0.023305064 0.38200003 4278532626
0.054727063 0.023305064 0.38200003 4278335247
0.0559678 0.023305064 0.38200003 4278335247
0.057358291 0.023366071 0.38300002 4278203661
0.058602277 0.023366071 0.38300002 4278335247
0.059846263 0.023366071 0.38300002 4278335247
0.061249748 0.023427079 0.384 4278199044
0.062496983 0.023427079 0.384 4278198787
0.063744217 0.023427079 0.384 4278728470
0.065160699 0.023488088 0.38500002 4278267919
0.066411175 0.023488088 0.38500002 4278201099
0.067837402 0.023549095 0.38600001 4278595601
0.069091134 0.023549095 0.38600001 4278595601
0.070344858 0.023549095 0.38600001 4278660880
0.071784079 0.023610104 0.38700002 4278792466
0.073041059 0.023610104 0.38700002 4278726673
0.074298032 0.023610104 0.38700002 4278266636
0.075555012 0.023610104 0.38700002 4278924820
0.076811984 0.023610104 0.38700002 4278530062
0.078270689 0.023671111 0.38800001 4278661648
0.07953091 0.023671111 0.38800001 4278530832
0.080791138 0.023671111 0.38800001 4278268173
0.082051367 0.023671111 0.38800001 4278793750
0.083526313 0.02373212 0.38900003 4278793750
0.09227819 0.02403716 0.39400002 4278924820
0.093557902 0.02403716 0.39400002 4278990613
0.094837613 0.02403716 0.39400002 4278727441
0.096361272 0.024098167 0.39500001 4279122199
0.09764424 0.024098167 0.39500001 4278924820
0.098927192 0.024098167 0.39500001 4278990613
0.10046386 0.024159176 0.39600003 4279056406
0.10175007 0.024159176 0.39600003 4279056406
0.10329647 0.024220183 0.39700001 4278661648
0.10458592 0.024220183 0.39700001 4279056406
0.10587539 0.024220183 0.39700001 4279122199
0.10716484 0.024220183 0.39700001 4278859027
0.10872748 0.024281193 0.39800003 4278595853
0.11002018 0.024281193 0.39800003 4278859025
0.11131289 0.024281193 0.39800003 4278991894
0.1126056 0.024281193 0.39800003 4278532626
0.11389831 0.024281193 0.39800003 4278532626
0.11548043 0.0243422 0.39900002 4278400527
0.11677638 0.0243422 0.39900002 4278532111
0.11836825 0.024403207 0.40000001 4278795283
0.12026579 0.024525223 0.40200001 4278729490
0.12187391 0.024586232 0.40300003 4279055125
0.032213245 0.025381563 0.39500001 4280363805
0.033496205 0.025381563 0.39500001 4279837463
0.034691118 0.025317308 0.39400002 4280034327
0.03587953 0.02525305 0.39300001 4279903254
0.037061453 0.025188792 0.39200002 4279837461
0.038236879 0.025124537 0.39100003 4279508496
0.039405808 0.025060279 0.39000002 4279312398
0.04056824 0.024996022 0.38900003 4279444498
0.041616637 0.024867509 0.38700002 4279119637
0.042762831 0.024803249 0.38600001 4278923541
0.044016559 0.024803249 0.38600001 4278595855
0.045153007 0.024738993 0.38500002 4278727441
0.046282958 0.024674736 0.384 4278795287
0.047406413 0.024610478 0.38300002 4278729494
0.048650399 0.024610478 0.38300002 4278466835
0.049764112 0.024546223 0.38200003 4278466835
0.051004853 0.024546223 0.38200003 4278269456
0.052245583 0.024546223 0.38200003 4278335249
0.053486321 0.024546223 0.38200003 4278532628
0.054727063 0.024546223 0.38200003 4278466835
0.0559678 0.024546223 0.38200003 4278335249
0.057358291 0.024610478 0.38300002 4278466835
0.058602277 0.024610478 0.38300002 4278269456
0.059846263 0.024610478 0.38300002 4278203150
0.061249748 0.024674736 0.384 4278195712
0.062496983 0.024674736 0.384 4278791185
0.063744217 0.024674736 0.384 4278596371
0.065160699 0.024738993 0.38500002 4278196480
0.066411175 0.024738993 0.38500002 4278195459
0.067837402 0.024803249 0.38600001 4278195461
0.069091134 0.024803249 0.38600001 4278194694
0.070344858 0.024803249 0.38600001 4278259974
0.071784079 0.024867509 0.38700002 4278325767
0.073041059 0.024867509 0.38700002 4278325767
0.074298032 0.024867509 0.38700002 4278325767
0.075555012 0.024867509 0.38700002 4278326021
0.077010468 0.024931764 0.38800001 4278260228
0.078270689 0.024931764 0.38800001 4278259974
0.07953091 0.024931764 0.38800001 4278195712
0.080791138 0.024931764 0.38800001 4278858007
0.082262844 0.024996022 0.38900003 4278594322
0.083526313 0.024996022 0.38900003 4278922517
0.085007749 0.025060279 0.39000002 4278593552
0.08649569 0.025124537 0.39100003 4279053590
0.087765656 0.025124537 0.39100003 4278988051
0.089263335 0.025188792 0.39200002 4279317016
0.090767518 0.02525305 0.39300001 4278856465
0.092043974 0.02525305 0.39300001 4279053844
0.093557902 0.025317308 0.39400002 4278856465
0.094837613 0.025317308 0.39400002 4278593293
0.096361272 0.025381563 0.39500001 4279514395
0.09764424 0.025381563 0.39500001 4278988564
0.098927192 0.025381563 0.39500001 4279317529
0.10046386 0.025445823 0.39600003 4278988564
0.10175007 0.025445823 0.39600003 4278856465
0.10329647 0.025510078 0.39700001 4278856465
0.10458592 0.025510078 0.39700001 4278593293
0.10587539 0.025510078 0.39700001 4278790672
0.10743479 0.025574338 0.39800003 4278659086
0.10872748 0.025574338 0.39800003 4278790672
0.11002018 0.025574338 0.39800003 4278724109
0.11159257 0.025638593 0.39900002 4278194432
0.11288852 0.025638593 0.39900002 4278531345
0.11418448 0.025638593 0.39900002 4278531345
0.11576986 0.025702849 0.40000001 4278662931
0.11736172 0.025767108 0.40100002 4278728722
0.11866418 0.025767108 0.40100002 4278794515
0.12056496 0.025895622 0.40300003 4278728722
0.12187391 0.025895622 0.40300003 4279450396
0.033496205 0.026664959 0.39500001 4279903256
0.034691118 0.026597453 0.39400002 4279639569
0.03587953 0.026529947 0.39300001 4279836948
0.037061453 0.026462441 0.39200002 4279573776
0.038236879 0.026394935 0.39100003 4279574289
0.039304767 0.026259923 0.38900003 4279509264
0.04046395 0.026192416 0.38800001 4279642901
0.041616637 0.02612491 0.38700002 4279317529
0.042762831 0.026057404 0.38600001 4278989847
0.043902528 0.025989898 0.38500002 4278661394
0.045153007 0.025989898 0.38500002 4278794004
0.046282958 0.02592239 0.384 4278335247
0.047406413 0.025854886 0.38300002 4278532626
0.048650399 0.025854886 0.38300002 4278466833
0.049764112 0.02578738 0.38200003 4278335247
0.051004853 0.02578738 0.38200003 4279387935
0.052245583 0.02578738 0.38200003 4278466833
0.053486321 0.02578738 0.38200003 4278598419
0.054727063 0.02578738 0.38200003 4278598419
0.0559678 0.02578738 0.38200003 4278598419
0.057358291 0.025854886 0.38300002 4278335247
0.058602277 0.025854886 0.38300002 4278400529
0.059846263 0.025854886 0.38300002 4278728724
0.061249748 0.02592239 0.384 4278195974
0.062496983 0.02592239 0.384 4278856211
0.063744217 0.02592239 0.384 4278529810
0.065160699 0.025989898 0.38500002 4278195971
0.066411175 0.025989898 0.38500002 4278456839
0.067837402 0.026057404 0.38600001 4278391046
0.069091134 0.026057404 0.38600001 4278456841
0.070344858 0.026057404 0.38600001 4278456841
0.071784079 0.02612491 0.38700002 4278391048
0.073041059 0.02612491 0.38700002 4278522634
0.074298032 0.02612491 0.38700002 4278522634
0.075555012 0.02612491 0.38700002 4278456841
0.077010468 0.026192416 0.38800001 4278391048
0.078270689 0.026192416 0.38800001 4278654218
0.07953091 0.026192416 0.38800001 4278196742
0.080999367 0.026259923 0.38900003 4278726675
0.082262844 0.026259923 0.38900003 4278924566
0.083526313 0.026259923 0.38900003 4278924566
0.085007749 0.026327427 0.39000002 4279055640
0.08649569 0.026394935 0.39100003 4279055638
0.087765656 0.026394935 0.39100003 4278792466
0.089263335 0.026462441 0.39200002 4279055638
0.090767518 0.026529947 0.39300001 4279187224
0.092043974 0.026529947 0.39300001 4279187224
0.093557902 0.026597453 0.39400002 4279187224
0.094837613 0.026597453 0.39400002 4279121431
0.096117325 0.026597453 0.39400002 4279056152
0.09764424 0.026664959 0.39500001 4278924566
0.098927192 0.026664959 0.39500001 4279056406
0.10046386 0.026732467 0.39600003 4278924820
0.10175007 0.026732467 0.39600003 4278727441
0.10329647 0.026799971 0.39700001 4278859027
0.10458592 0.026799971 0.39700001 4278727441
0.10587539 0.026799971 0.39700001 4278727441
0.10743479 0.026867479 0.39800003 4279055892
0.10872748 0.026867479 0.39800003 4278924820
0.11029661 0.026934985 0.39900002 4278858513
0.11159257 0.026934985 0.39900002 4278196224
0.11288852 0.026934985 0.39900002 4278727441
0.11447065 0.027002489 0.40000001 4278794004
0.11605928 0.027069997 0.40100002 4278662931
0.11765439 0.027137503 0.40200001 4278465550
0.11896009 0.027137503 0.40200001 4278662929
0.12086412 0.027272515 0.40400001 4278860308
0.12217632 0.027272515 0.40400001 4279581471
0.026807161 0.027665334 0.39100003 4284381803
0.028148938 0.027736088 0.39200002 4284118633
0.029497208 0.027806843 0.39300001 4284183910
0.032213245 0.027948353 0.39500001 4282801228
0.033496205 0.027948353 0.39500001 4279378195
0.034691118 0.027877599 0.39400002 4279507983
0.035788238 0.027736088 0.39200002 4279639569
0.036966912 0.027665334 0.39100003 4279836948
0.038139086 0.027594578 0.39000002 4279574289
0.039304767 0.027523823 0.38900003 4279443984
0.04046395 0.027453067 0.38800001 4279445522
0.041616637 0.027382312 0.38700002 4278857748
0.042762831 0.027311556 0.38600001 4278858775
0.043902528 0.027240802 0.38500002 4278530832
0.045153007 0.027240802 0.38500002 4278991894
0.046282958 0.027170045 0.384 4278664212
0.047406413 0.027099291 0.38300002 4278335247
0.048650399 0.027099291 0.38300002 4278335247
0.049764112 0.027028536 0.38200003 4278466833
0.051004853 0.027028536 0.38200003 4278466833
0.052245583 0.027028536 0.38200003 4278466833
0.053486321 0.027028536 0.38200003 4278466833
0.054727063 0.027028536 0.38200003 4278335247
0.0559678 0.027028536 0.38200003 4278532626
0.057358291 0.027099291 0.38300002 4278532113
0.058602277 0.027099291 0.38300002 4278532113
0.060002517 0.027170045 0.384 4278399759
0.061249748 0.027170045 0.384 4278460685
0.062496983 0.027170045 0.384 4278857748
0.063910216 0.027240802 0.38500002 4279186713
0.065160699 0.027240802 0.38500002 4278195718
0.066411175 0.027240802 0.38500002 4279313432
0.067837402 0.027311556 0.38600001 4278523916
0.069091134 0.027311556 0.38600001 4278852881
0.070344858 0.027311556 0.38600001 4279116053
0.071784079 0.027382312 0.38700002 4278721549
0.073041059 0.027382312 0.38700002 4278985234
0.074298032 0.027382312 0.38700002 4278392584
0.075750239 0.027453067 0.38800001 4278458377
0.077010468 0.027453067 0.38800001 4278985234
0.078270689 0.027453067 0.38800001 4278589963
0.07973589 0.027523823 0.38900003 4279513371
0.080999367 0.027523823 0.38900003 4278989593
0.082262844 0.027523823 0.38900003 4278396943
0.083741032 0.027594578 0.39000002 4278196999
0.085007749 0.027594578 0.39000002 4278327302
0.08649569 0.027665334 0.39100003 4279053590
0.08799012 0.027736088 0.39200002 4278331404
0.089263335 0.027736088 0.39200002 4279055127
0.090767518 0.027806843 0.39300001 4278593804
0.092043974 0.027806843 0.39300001 4278199045
0.093557902 0.027877599 0.39400002 4279055125
0.094837613 0.027877599 0.39400002 4278198788
0.096117325 0.027877599 0.39400002 4278529808
0.09764424 0.027948353 0.39500001 4279187738
0.098927192 0.027948353 0.39500001 4278595601
0.10046386 0.028019112 0.39600003 4278200586
0.10175007 0.028019112 0.39600003 4278199044
0.10329647 0.028089866 0.39700001 4278198273
0.10458592 0.028089866 0.39700001 4278726673
0.10614207 0.028160622 0.39800003 4278198787
0.10743479 0.028160622 0.39800003 4278199044
0.10872748 0.028160622 0.39800003 4278596625
0.11029661 0.028231377 0.39900002 4278990099
0.11159257 0.028231377 0.39900002 4278593293
0.11317145 0.028302131 0.40000001 4278728211
0.11475683 0.028372888 0.40100002 4278728722
0.11605928 0.028372888 0.40100002 4278465550
0.11765439 0.028443642 0.40200001 4278728722
0.11925601 0.028514398 0.40300003 4278860308
0.12086412 0.028585153 0.40400001 4279123480
0.12217632 0.028585153 0.40400001 4279252252
0.032213245 0.029231749 0.39500001 4283986785
0.033496205 0.029231749 0.39500001 4284710508
0.035788238 0.029009737 0.39200002 4279574291
0.036966912 0.028935732 0.39100003 4279836948
0.038139086 0.028861728 0.39000002 4279771668
0.039304767 0.028787725 0.38900003 4279312912
0.04046395 0.028713718 0.38800001 4279445781
0.041616637 0.028639715 0.38700002 4279186459
0.042762831 0.028565709 0.38600001 4278727189
0.043902528 0.028491706 0.38500002 4278727957
0.045153007 0.028491706 0.38500002 4278794263
0.046282958 0.028417701 0.384 4278729492
0.047406413 0.028343696 0.38300002 4278730005
0.048650399 0.028343696 0.38300002 4278335247
0.049764112 0.028269693 0.38200003 4278466833
0.051004853 0.028269693 0.38200003 4278466833
0.052245583 0.028269693 0.38200003 4278466833
0.053486321 0.028269693 0.38200003 4278335247
0.054727063 0.028269693 0.38200003 4278532626
0.056114309 0.028343696 0.38300002 4278532626
0.057358291 0.028343696 0.38300002 4278335247
0.058602277 0.028343696 0.38300002 4278532113
0.060002517 0.028417701 0.384 4278464785
0.061249748 0.028417701 0.384 4278527248
0.062659733 0.028491706 0.38500002 4278792468
0.063910216 0.028491706 0.38500002 4278462736
0.065160699 0.028491706 0.38500002 4278392582
0.066583671 0.028565709 0.38600001 4278985234
0.067837402 0.028565709 0.38600001 4279578141
0.069091134 0.028565709 0.38600001 4278194693
0.070527099 0.028639715 0.38700002 4278656015
0.071784079 0.028639715 0.38700002 4278194435
0.073041059 0.028639715 0.38700002 4278458888
0.074298032 0.028639715 0.38700002 4278588939
0.075750239 0.028713718 0.38800001 4279775520
0.077010468 0.028713718 0.38800001 4278723343
0.078270689 0.028713718 0.38800001 4278392582
0.07973589 0.028787725 0.38900003 4278856724
0.080999367 0.028787725 0.38900003 4278924568
0.082474314 0.028861728 0.39000002 4278195972
0.083741032 0.028861728 0.39000002 4278589193
0.085225724 0.028935732 0.39100003 4278458377
0.08649569 0.028935732 0.39100003 4278722830
0.08799012 0.029009737 0.39200002 4278857748
0.089263335 0.029009737 0.39200002 4279120918
0.090767518 0.02908374 0.39300001 4278593806
0.092043974 0.02908374 0.39300001 4279054357
0.093320444 0.02908374 0.39300001 4278924568
0.094837613 0.029157747 0.39400002 4278198273
0.096117325 0.029157747 0.39400002 4278594576
0.09764424 0.029231749 0.39500001 4278330634
0.098927192 0.029231749 0.39500001 4278330121
0.10046386 0.029305754 0.39600003 4278988564
0.10175007 0.029305754 0.39600003 4278528013
0.10329647 0.029379759 0.39700001 4278922769
0.10458592 0.029379759 0.39700001 4279316762
0.10614207 0.029453764 0.39800003 4279580188
0.10743479 0.029453764 0.39800003 4278198534
0.10900066 0.029527768 0.39900002 4278858773
0.11029661 0.029527768 0.39900002 4278198532
0.11187225 0.029601771 0.40000001 4279054357
0.11317145 0.029601771 0.40000001 4278728724
0.11475683 0.029675776 0.40100002 4278794517
0.11634871 0.029749781 0.40200001 4278465552
0.11794706 0.029823786 0.40300003 4278860310
0.11925601 0.029823786 0.40300003 4278794517
0.12086412 0.029897789 0.40400001 4278991896
0.12217632 0.029897789 0.40400001 4278790931
0.034603067 0.030360637 0.39300001 4284710508
0.035696942 0.030206133 0.39100003 4285301362
0.036872365 0.030128878 0.39000002 4279771670
0.038041294 0.030051624 0.38900003 4279903254
0.039203726 0.029974369 0.38800001 4279116816
0.040359661 0.029897118 0.38700002 4279250453
0.041616637 0.029897118 0.38700002 4279187224
0.042762831 0.029819863 0.38600001 4278727187
0.043902528 0.02974261 0.38500002 4278727957
0.045153007 0.02974261 0.38500002 4278925849
0.046282958 0.029665355 0.384 4278729494
0.047406413 0.029588103 0.38300002 4278269456
0.048650399 0.029588103 0.38300002 4278598421
0.049764112 0.02951085 0.38200003 4278598421
0.051004853 0.02951085 0.38200003 4278335249
0.052245583 0.02951085 0.38200003 4278466835
0.053486321 0.02951085 0.38200003 4278269456
0.054727063 0.02951085 0.38200003 4278466835
0.056114309 0.029588103 0.38300002 4278466833
0.057358291 0.029588103 0.38300002 4278598419
0.058755282 0.029665355 0.384 4278400529
0.060002517 0.029665355 0.384 4278265357
0.061249748 0.029665355 0.384 4278198283
0.062659733 0.02974261 0.38500002 4278858261
0.063910216 0.02974261 0.38500002 4278527246
0.065160699 0.02974261 0.38500002 4278195205
0.066583671 0.029819863 0.38600001 4278523400
0.067837402 0.029819863 0.38600001 4278391814
0.069091134 0.029819863 0.38600001 4278523400
0.070527099 0.029897118 0.38700002 4278523146
0.071784079 0.029897118 0.38700002 4278456839
0.073041059 0.029897118 0.38700002 4278456839
0.074490011 0.029974369 0.38800001 4278391560
0.075750239 0.029974369 0.38800001 4278194691
0.077010468 0.029974369 0.38800001 4278194948
0.078472421 0.030051624 0.38900003 4278194434
0.07973589 0.030051624 0.38900003 4279055127
0.080999367 0.030051624 0.38900003 4278726675
0.082474314 0.030128878 0.39000002 4278392584
0.083741032 0.030128878 0.39000002 4278654472
0.085225724 0.030206133 0.39100003 4278458888
0.08649569 0.030206133 0.39100003 4279119383
0.08799012 0.030283384 0.39200002 4278197766
0.089263335 0.030283384 0.39200002 4278462220
0.090767518 0.030360637 0.39300001 4279055125
0.092043974 0.030360637 0.39300001 4278199816
0.093320444 0.030360637 0.39300001 4278197248
0.094837613 0.030437892 0.39400002 4279121945
0.096117325 0.030437892 0.39400002 4278990359
0.09764424 0.030515144 0.39500001 4278792466
0.098927192 0.030515144 0.39500001 4279055125
0.10046386 0.030592399 0.39600003 4279120918
0.10175007 0.030592399 0.39600003 4278593806
0.10329647 0.030669652 0.39700001 4278725392
0.10458592 0.030669652 0.39700001 4279251736
0.10614207 0.030746907 0.39800003 4278528013
0.10743479 0.030746907 0.39800003 4278726162
0.10900066 0.030824158 0.39900002 4278858259
0.11029661 0.030824158 0.39900002 4278196482
0.11187225 0.030901412 0.40000001 4279251736
0.11317145 0.030901412 0.40000001 4278794517
0.11475683 0.030978667 0.40100002 4278662931
0.11634871 0.03105592 0.40200001 4278597908
0.11794706 0.031133173 0.40300003 4278729494
0.11955193 0.031210426 0.40400001 4278729494
0.12086412 0.031210426 0.40400001 4279320348
0.12217632 0.031210426 0.40400001 4284381543
0.035605643 0.031396028 0.39000002 4284841840
0.03677782 0.031315524 0.38900003 4285762683
0.037943501 0.031235021 0.38800001 4279050514
0.039203726 0.031235021 0.38800001 4279183892
0.040359661 0.031154519 0.38700002 4278988051
0.041509099 0.031074015 0.38600001 4279121431
0.042762831 0.031074015 0.38600001 4278727957
0.043902528 0.030993514 0.38500002 4278860310
0.045153007 0.030993514 0.38500002 4278861080
0.046282958 0.03091301 0.384 4278729494
0.047406413 0.030832509 0.38300002 4278597908
0.048650399 0.030832509 0.38300002 4278532628
0.049894385 0.030832509 0.38300002 4278532628
0.051004853 0.030752007 0.38200003 4278466835
0.052245583 0.030752007 0.38200003 4278532628
0.053486321 0.030752007 0.38200003 4278466835
0.054870322 0.030832509 0.38300002 4278466835
0.056114309 0.030832509 0.38300002 4278532628
0.057508048 0.03091301 0.384 4278598419
0.058755282 0.03091301 0.384 4278728724
0.060002517 0.03091301 0.384 4278197766
0.061409254 0.030993514 0.38500002 4278922004
0.062659733 0.030993514 0.38500002 4278924568
0.063910216 0.030993514 0.38500002 4278658064
0.065329939 0.031074015 0.38600001 4278325769
0.066583671 0.031074015 0.38600001 4278654218
0.067837402 0.031074015 0.38600001 4278654218
0.069270127 0.031154519 0.38700002 4278522632
0.070527099 0.031154519 0.38700002 4278785804
0.071784079 0.031154519 0.38700002 4278719498
0.073041059 0.031154519 0.38700002 4278719498
0.074490011 0.031235021 0.38800001 4278522632
0.075750239 0.031235021 0.38800001 4278456839
0.077010468 0.031235021 0.38800001 4278720011
0.078472421 0.031315524 0.38900003 4278523146
0.07973589 0.031315524 0.38900003 4278857748
0.081207588 0.031396028 0.39000002 4278529296
0.082474314 0.031396028 0.39000002 4279513371
0.08395575 0.031476531 0.39100003 4279775516
0.085225724 0.031476531 0.39100003 4279249685
0.08649569 0.031476531 0.39100003 4279381785
0.08799012 0.031557031 0.39200002 4278988564
0.089263335 0.031557031 0.39200002 4278988564
0.090767518 0.031637534 0.39300001 4278988564
0.092043974 0.031637534 0.39300001 4278923541
0.093320444 0.031637534 0.39300001 4278857748
0.094837613 0.031718038 0.39400002 4279055127
0.096117325 0.031718038 0.39400002 4279186713
0.09764424 0.031798538 0.39500001 4278791955
0.098927192 0.031798538 0.39500001 4278791953
0.10046386 0.031879045 0.39600003 4278726160
0.10175007 0.031879045 0.39600003 4279252506
0.10329647 0.031959545 0.39700001 4278594576
0.10458592 0.031959545 0.39700001 4279120918
0.10614207 0.032040048 0.39800003 4279054355
0.10770471 0.032120552 0.39900002 4279054355
0.10900066 0.032120552 0.39900002 4278330632
0.11029661 0.032120552 0.39900002 4278196996
0.11187225 0.032201052 0.40000001 4279187224
0.11345438 0.032281555 0.40100002 4278794517
0.11475683 0.032281555 0.40100002 4278860308
0.11634871 0.032362059 0.40200001 4278991894
0.11794706 0.032442562 0.40300003 4278663699
0.11925601 0.032442562 0.40300003 4278991894
0.12086412 0.032523062 0.40400001 4279055125
0.12217632 0.032523062 0.40400001 4285499511
0.035514347 0.032579426 0.38900003 4284776047
0.036683276 0.032495674 0.38800001 4284841840
0.037943501 0.032495674 0.38800001 4284315237
0.039102685 0.032411922 0.38700002 4278920722
0.040359661 0.032411922 0.38700002 4279119383
0.041509099 0.03232817 0.38600001 4279121431
0.042762831 0.03232817 0.38600001 4278858773
0.043902528 0.032244418 0.38500002 4278662931
0.045153007 0.032244418 0.38500002 4278991896
0.046282958 0.032160666 0.384 4278597908
0.047530189 0.032160666 0.384 4278532628
0.048650399 0.032076914 0.38300002 4278664214
0.049894385 0.032076914 0.38300002 4278598421
0.051004853 0.031993162 0.38200003 4278664214
0.052245583 0.031993162 0.38200003 4278532628
0.053626336 0.032076914 0.38300002 4278598421
0.054870322 0.032076914 0.38300002 4278532628
0.056114309 0.032076914 0.38300002 4278532628
0.057508048 0.032160666 0.384 4278466833
0.058755282 0.032160666 0.384 4278268173
0.060002517 0.032160666 0.384 4278266124
0.061409254 0.032244418 0.38500002 4278594576
0.062659733 0.032244418 0.38500002 4278924566
0.063910216 0.032244418 0.38500002 4278924566
0.065329939 0.03232817 0.38600001 4279515678
0.066583671 0.03232817 0.38600001 4279514141
0.067837402 0.03232817 0.38600001 4279711520
0.069270127 0.032411922 0.38700002 4279316764
0.070527099 0.032411922 0.38700002 4279448350
0.071784079 0.032411922 0.38700002 4279382557
0.07322979 0.032495674 0.38800001 4279448350
0.074490011 0.032495674 0.38800001 4279710752
0.075750239 0.032495674 0.38800001 4279513373
0.077208951 0.032579426 0.38900003 4279184406
0.078472421 0.032579426 0.38900003 4279448602
0.07973589 0.032579426 0.38900003 4278660369
0.081207588 0.032663178 0.39000002 4279384092
0.082474314 0.032663178 0.39000002 4279185943
0.08395575 0.03274693 0.39100003 4279317016
0.085225724 0.03274693 0.39100003 4279448602
0.08649569 0.03274693 0.39100003 4279843360
0.08799012 0.032830682 0.39200002 4279777567
0.089263335 0.032830682 0.39200002 4279317016
0.090767518 0.03291443 0.39300001 4279382809
0.092043974 0.03291443 0.39300001 4279514395
0.093320444 0.03291443 0.39300001 4279580188
0.094837613 0.032998186 0.39400002 4279711774
0.096117325 0.032998186 0.39400002 4280107045
0.09764424 0.033081934 0.39500001 4279449115
0.098927192 0.033081934 0.39500001 4279778080
0.10046386 0.033165686 0.39600003 4279449115
0.10175007 0.033165686 0.39600003 4279514908
0.10329647 0.033249438 0.39700001 4279778080
0.10484937 0.03333319 0.39800003 4279711774
0.10614207 0.03333319 0.39800003 4279843360
0.10770471 0.033416942 0.39900002 4279053844
0.10900066 0.033416942 0.39900002 4279382809
0.11057305 0.033500694 0.40000001 4279186711
0.11187225 0.033500694 0.40000001 4279187224
0.11345438 0.033584446 0.40100002 4278793750
0.11475683 0.033584446 0.40100002 4278991383
0.11634871 0.033668198 0.40200001 4278991383
0.11794706 0.03375195 0.40300003 4278991896
0.11925601 0.03375195 0.40300003 4278792468
0.12086412 0.033835702 0.40400001 4285171571
0.12217632 0.033835702 0.40400001 4285631097
0.035423048 0.033756323 0.38800001 4284841842
0.036588732 0.033669323 0.38700002 4284776049
0.037845708 0.033669323 0.38700002 4284710254
0.039102685 0.033669323 0.38700002 4285368438
0.040255371 0.033582322 0.38600001 4279183896
0.041509099 0.033582322 0.38600001 4279318045
0.042762831 0.033582322 0.38600001 4279121433
0.043902528 0.033495322 0.38500002 4279058459
0.045153007 0.033495322 0.38500002 4278992666
0.046282958 0.033408321 0.384 4278730007
0.047530189 0.033408321 0.384 4278664214
0.048650399 0.033321321 0.38300002 4278532628
0.049894385 0.033321321 0.38300002 4278664214
0.051138371 0.033321321 0.38300002 4278664214
0.052245583 0.033234321 0.38200003 4278532628
0.053626336 0.033321321 0.38300002 4278795800
0.054870322 0.033321321 0.38300002 4278730007
0.056114309 0.033321321 0.38300002 4278927386
0.057508048 0.033408321 0.384 4278729492
0.058755282 0.033408321 0.384 4278728470
0.060158778 0.033495322 0.38500002 4278266636
0.061409254 0.033495322 0.38500002 4279056152
0.062659733 0.033495322 0.38500002 4278925590
0.064076215 0.033582322 0.38600001 4278926103
0.065329939 0.033582322 0.38600001 4278926103
0.066583671 0.033582322 0.38600001 4278926103
0.067837402 0.033582322 0.38600001 4279057176
0.069270127 0.033669323 0.38700002 4279057176
0.070527099 0.033669323 0.38700002 4278991383
0.071784079 0.033669323 0.38700002 4279057176
0.07322979 0.033756323 0.38800001 4278991383
0.074490011 0.033756323 0.38800001 4279057176
0.075750239 0.033756323 0.38800001 4279057176
0.077208951 0.033843327 0.38900003 4278991381
0.078472421 0.033843327 0.38900003 4278991381
0.07973589 0.033843327 0.38900003 4279057174
0.081207588 0.033930324 0.39000002 4279188760
0.082474314 0.033930324 0.39000002 4278991383
0.08395575 0.034017328 0.39100003 4278991383
0.085225724 0.034017328 0.39100003 4278925590
0.08649569 0.034017328 0.39100003 4279057176
0.08799012 0.034104329 0.39200002 4278991383
0.089263335 0.034104329 0.39200002 4279188762
0.090767518 0.034191329 0.39300001 4279057176
0.092043974 0.034191329 0.39300001 4279386141
0.093320444 0.034191329 0.39300001 4279188762
0.094837613 0.034278329 0.39400002 4279254555
0.096117325 0.034278329 0.39400002 4279123228
0.09764424 0.03436533 0.39500001 4279123228
0.098927192 0.03436533 0.39500001 4279056922
0.10046386 0.03445233 0.39600003 4279188762
0.10175007 0.03445233 0.39600003 4279188760
0.10329647 0.034539331 0.39700001 4279188760
0.10484937 0.034626335 0.39800003 4279188760
0.10614207 0.034626335 0.39800003 4279057174
0.10770471 0.034713335 0.39900002 4279319576
0.10900066 0.034713335 0.39900002 4279319576
0.11057305 0.034800332 0.40000001 4279385371
0.11215193 0.034887336 0.40100002 4279451164
0.11345438 0.034887336 0.40100002 4279451164
0.11504301 0.034974337 0.40200001 4279516957
0.11634871 0.034974337 0.40200001 4279516957
0.11794706 0.035061337 0.40300003 4279318299
0.11925601 0.035061337 0.40300003 4285433716
0.12086412 0.035148337 0.40400001 4285433716
0.12217632 0.035148337 0.40400001 4285893499
0.035423048 0.035016976 0.38800001 4284841842
0.036588732 0.034926727 0.38700002 4284907635
0.037845708 0.034926727 0.38700002 4284907635
0.039001644 0.034836479 0.38600001 4284841840
0.040255371 0.034836479 0.38600001 4285237366
0.041509099 0.034836479 0.38600001 4282080072
0.042652048 0.03474623 0.38500002 4278856728
0.043902528 0.03474623 0.38500002 4279188510
0.045153007 0.03474623 0.38500002 4278992412
0.046282958 0.034655977 0.384 4278992925
0.047530189 0.034655977 0.384 4279058718
0.048650399 0.034565728 0.38300002 4278927386
0.049894385 0.034565728 0.38300002 4278993179
0.051138371 0.034565728 0.38300002 4278927386
0.05238235 0.034565728 0.38300002 4278993179
0.053626336 0.034565728 0.38300002 4278993179
0.054870322 0.034565728 0.38300002 4279058972
0.056114309 0.034565728 0.38300002 4279058459
0.057508048 0.034655977 0.384 4279124250
0.058755282 0.034655977 0.384 4278861078
0.060158778 0.03474623 0.38500002 4279058457
0.061409254 0.03474623 0.38500002 4279058457
0.062659733 0.03474623 0.38500002 4279124250
0.064076215 0.034836479 0.38600001 4279058457
0.065329939 0.034836479 0.38600001 4278992664
0.066583671 0.034836479 0.38600001 4278992666
0.067837402 0.034836479 0.38600001 4278861080
0.069270127 0.034926727 0.38700002 4278861080
0.070527099 0.034926727 0.38700002 4279058459
0.071784079 0.034926727 0.38700002 4279058459
0.07322979 0.035016976 0.38800001 4278992666
0.074490011 0.035016976 0.38800001 4278992666
0.075750239 0.035016976 0.38800001 4278992666
0.077208951 0.035107229 0.38900003 4279123482
0.078472421 0.035107229 0.38900003 4278991896
0.07973589 0.035107229 0.38900003 4279189275
0.081207588 0.035197478 0.39000002 4279123482
0.082474314 0.035197478 0.39000002 4279123482
0.08395575 0.03528773 0.39100003 4279189275
0.085225724 0.03528773 0.39100003 4279189275
0.08649569 0.03528773 0.39100003 4279189275
0.08799012 0.035377979 0.39200002 4279255068
0.089263335 0.035377979 0.39200002 4279255068
0.090767518 0.035468228 0.39300001 4279189275
0.092043974 0.035468228 0.39300001 4279123480
0.093320444 0.035468228 0.39300001 4279123480
0.094837613 0.035558477 0.39400002 4279189273
0.096117325 0.035558477 0.39400002 4279189273
0.09764424 0.035648726 0.39500001 4279255068
0.098927192 0.035648726 0.39500001 4279320348
0.10046386 0.035738979 0.39600003 4279451164
0.10200701 0.035829227 0.39700001 4279254553
0.10329647 0.035829227 0.39700001 4279320346
0.10484937 0.03591948 0.39800003 4279780129
0.10614207 0.03591948 0.39800003 4279187992
0.10770471 0.036009729 0.39900002 4279647516
0.10900066 0.036009729 0.39900002 4278923793
0.11057305 0.036099978 0.40000001 4279186711
0.11215193 0.036190227 0.40100002 4279712287
0.11373731 0.036280476 0.40200001 4280501036
0.11504301 0.036280476 0.40200001 4282803021
0.11663813 0.036370728 0.40300003 4285433977
0.11794706 0.036370728 0.40300003 4285696890
0.11955193 0.036460977 0.40400001 4285564532
0.12086412 0.036460977 0.40400001 4285630325
0.12217632 0.036460977 0.40400001 4285630325
0.036588732 0.036184132 0.38700002 4284973428
0.037747912 0.036090631 0.38600001 4284907635
0.039001644 0.036090631 0.38600001 4284973426
0.040255371 0.036090631 0.38600001 4284776561
0.041509099 0.036090631 0.38600001 4284645999
0.042652048 0.035997134 0.38500002 4284909430
0.043902528 0.035997134 0.38500002 4283857766
0.045153007 0.035997134 0.38500002 4279581221
0.046282958 0.035903633 0.384 4278858009
0.047406413 0.035810135 0.38300002 4278859293
0.048650399 0.035810135 0.38300002 4279254562
0.049894385 0.035810135 0.38300002 4279254816
0.051004853 0.035716638 0.38200003 4279189023
0.052245583 0.035716638 0.38200003 4279254816
0.053626336 0.035810135 0.38300002 4279320609
0.054870322 0.035810135 0.38300002 4279254814
0.056114309 0.035810135 0.38300002 4278991642
0.057508048 0.035903633 0.384 4279189021
0.058755282 0.035903633 0.384 4279254814
0.060158778 0.035997134 0.38500002 4279254814
0.061409254 0.035997134 0.38500002 4279123228
0.062659733 0.035997134 0.38500002 4278991642
0.064076215 0.036090631 0.38600001 4279254814
0.065329939 0.036090631 0.38600001 4279254814
0.066583671 0.036090631 0.38600001 4279254301
0.068013154 0.036184132 0.38700002 4278925336
0.069270127 0.036184132 0.38700002 4279320094
0.070527099 0.036184132 0.38700002 4279320094
0.071784079 0.036184132 0.38700002 4279320348
0.07322979 0.036277629 0.38800001 4279188762
0.074490011 0.036277629 0.38800001 4279254555
0.075750239 0.036277629 0.38800001 4279254301
0.077208951 0.03637113 0.38900003 4279516703
0.078472421 0.03637113 0.38900003 4279319324
0.07973589 0.03637113 0.38900003 4279450910
0.081207588 0.036464628 0.39000002 4279319326
0.082474314 0.036464628 0.39000002 4279581984
0.08395575 0.036558129 0.39100003 4279516191
0.085225724 0.036558129 0.39100003 4279187740
0.08649569 0.036558129 0.39100003 4279385119
0.08799012 0.036651626 0.39200002 4279121433
0.089263335 0.036651626 0.39200002 4279450396
0.090767518 0.036745124 0.39300001 4279384090
0.092043974 0.036745124 0.39300001 4279185941
0.093320444 0.036745124 0.39300001 4279383320
0.094837613 0.036838625 0.39400002 4280172838
0.096117325 0.036838625 0.39400002 4280633139
0.09764424 0.036932122 0.39500001 4281093690
0.098927192 0.036932122 0.39500001 4281883206
0.10046386 0.037025623 0.39600003 4284119653
0.10200701 0.03711912 0.39700001 4285039983
0.10329647 0.03711912 0.39700001 4285566327
0.10484937 0.037212621 0.39800003 4285501308
0.10614207 0.037212621 0.39800003 4285697917
0.10770471 0.037306119 0.39900002 4285435513
0.10900066 0.037306119 0.39900002 4285369720
0.11140235 0.037680116 0.40300003 4285171571
0.11243161 0.037586614 0.40200001 4285631608
0.11373731 0.037586614 0.40200001 4285433716
0.11504301 0.037586614 0.40200001 4285499511
0.11663813 0.037680116 0.40300003 4285433718
0.11794706 0.037680116 0.40300003 4285631097
0.11955193 0.037773613 0.40400001 4285631097
0.12086412 0.037773613 0.40400001 4285696890
0.11140235 0.038989503 0.40300003 4285499509
0.11243161 0.038892753 0.40200001 4285761911
0.11373731 0.038892753 0.40200001 4285630325
0.11532918 0.038989503 0.40300003 4285893497
0.11663813 0.038989503 0.40300003 4285631097
0.11794706 0.038989503 0.40300003 4285696890
0.11955193 0.039086252 0.40400001 4285631097
0.071973085 0.028007135 0.39027086 4294967295
0.071973085 0.028007135 0.39027086 4294901760
0.071973085 0.028007135 0.39077085 4294901760
0.071973085 0.028007135 0.39127085 4294901760
0.071973085 0.028007135 0.39177087 4294901760
0.071973085 0.028007135 0.39227086 4294901760
0.071973085 0.028007135 0.39277086 4294901760
0.071973085 0.028007135 0.39327085 4294901760
0.071973085 0.028007135 0.39377087 4294901760
0.071973085 0.028007135 0.39427087 4294901760
0.071973085 0.028007135 0.39477086 4294901760
0.071973085 0.028007135 0.39527085 4294901760
0.071973085 0.028007135 0.39577085 4294901760
0.071973085 0.028007135 0.39627087 4294901760
0.071973085 0.028007135 0.39677086 4294901760
0.071973085 0.028007135 0.39727086 4294901760
0.071973085 0.028007135 0.39777085 4294901760
0.071973085 0.028007135 0.39827085 4294901760
0.071973085 0.028007135 0.39877087 4294901760
0.071973085 0.028007135 0.39927086 4294901760
0.071973085 0.028007135 0.39977086 4294901760
0.071973085 0.028007135 0.40027085 4294901760
0.071973085 0.028007135 0.40077087 4294901760
0.071973085 0.028007135 0.40127087 4294901760
0.071973085 0.028007135 0.40177086 4294901760
0.071973085 0.028007135 0.40227085 4294901760
0.071973085 0.028007135 0.40277088 4294901760
0.071973085 0.028007135 0.40327087 4294901760
0.071973085 0.028007135 0.40377086 4294901760
0.071973085 0.028007135 0.40427086 4294901760
0.071973085 0.028007135 0.40477085 4294901760
0.071973085 0.028007135 0.40527087 4294901760
0.071973085 0.028007135 0.40577087 4294901760
0.071973085 0.028007135 0.40627086 4294901760
0.071973085 0.028007135 0.40677086 4294901760
0.071973085 0.028007135 0.40727085 4294901760
0.071973085 0.028007135 0.40777087 4294901760
0.071973085 0.028007135 0.40827087 4294901760
0.071973085 0.028007135 0.40877086 4294901760
0.071973085 0.028007135 0.40927085 4294901760
0.071973085 0.028007135 0.40977088 4294901760
0.071973085 0.028007135 0.41027087 4294901760
0.071973085 0.028007135 0.41077086 4294901760
0.071973085 0.028007135 0.41127086 4294901760
0.071973085 0.028007135 0.41177088 4294901760
0.071973085 0.028007135 0.41227087 4294901760
0.071973085 0.028007135 0.41277087 4294901760
0.071973085 0.028007135 0.41327086 4294901760
0.071973085 0.028007135 0.41377085 4294901760
0.071973085 0.028007135 0.41427088 4294901760
0.071973085 0.028007135 0.41477087 4294901760
0.071973085 0.028007135 0.41527086 4294901760
0.071973085 0.028007135 0.41577086 4294901760
0.071973085 0.028007135 0.41627085 4294901760
0.071973085 0.028007135 0.41677088 4294901760
0.071973085 0.028007135 0.41727087 4294901760
0.071973085 0.028007135 0.41777086 4294901760
0.071973085 0.028007135 0.41827086 4294901760
0.071973085 0.028007135 0.41877085 4294901760
0.071973085 0.028007135 0.41927087 4294901760
0.071973085 0.028007135 0.41977087 4294901760
0.071973085 0.028007135 0.42027086 4294901760
0.071973085 0.028007135 0.42077085 4294901760
0.071973085 0.028007135 0.42127088 4294901760
0.071973085 0.028007135 0.42177087 4294901760
0.071973085 0.028007135 0.42227086 4294901760
0.071973085 0.028007135 0.42277086 4294901760
0.071973085 0.028007135 0.42327088 4294901760
0.071973085 0.028007135 0.42377087 4294901760
0.071973085 0.028007135 0.42427087 4294901760
0.071973085 0.028007135 0.42477086 4294901760
0.071973085 0.028007135 0.42527086 4294901760
0.071973085 0.028007135 0.42577088 4294901760
0.071973085 0.028007135 0.42627087 4294901760
0.071973085 0.028007135 0.42677087 4294901760
0.071973085 0.028007135 0.42727086 4294901760
0.071973085 0.028007135 0.42777085 4294901760
0.071973085 0.028007135 0.42827088 4294901760
0.071973085 0.028007135 0.42877087 4294901760
0.071973085 0.028007135 0.42927086 4294901760
0.071973085 0.028007135 0.42977086 4294901760
0.071973085 0.028007135 0.43027088 4294901760
0.071973085 0.028007135 0.43077087 4294901760
0.071973085 0.028007135 0.43127087 4294901760
0.071973085 0.028007135 0.43177086 4294901760
0.071973085 0.028007135 0.43227085 4294901760
0.071973085 0.028007135 0.43277088 4294901760
0.071973085 0.028007135 0.43327087 4294901760
0.071973085 0.028007135 0.43377087 4294901760
0.071973085 0.028007135 0.43427086 4294901760
0.071973085 0.028007135 0.43477088 4294901760
0.071973085 0.028007135 0.43527088 4294901760
0.071973085 0.028007135 0.43577087 4294901760
0.071973085 0.028007135 0.43627086 4294901760
0.071973085 0.028007135 0.43677086 4294901760
0.071973085 0.028007135 0.43727088 4294901760
0.071973085 0.028007135 0.43777087 4294901760
0.071973085 0.028007135 0.43827087 4294901760
0.071973085 0.028007135 0.43877086 4294901760
0.071973085 0.028007135 0.43927088 4294901760
0.071973085 0.028007135 0.43977088 4294901760
0.071973085 0.028007135 0.44027087 4294901760
0.071973085 0.028007135 0.39027086 4278255360
0.071830757 0.027979679 0.39074939 4278255360
0.071688421 0.027952224 0.3912279 4278255360
0.071546093 0.027924769 0.39170644 4278255360
0.071403757 0.027897313 0.39218497 4278255360
0.071261428 0.027869858 0.39266348 4278255360
0.0711191 0.027842401 0.39314201 4278255360
0.070976764 0.027814945 0.39362055 4278255360
0.070834436 0.02778749 0.39409909 4278255360
0.070692107 0.027760034 0.39457759 4278255360
0.070549771 0.027732579 0.39505613 4278255360
0.070407443 0.027705124 0.39553466 4278255360
0.070265107 0.027677668 0.39601317 4278255360
0.070122778 0.027650213 0.39649171 4278255360
0.06998045 0.027622757 0.39697024 4278255360
0.069838114 0.027595302 0.39744878 4278255360
0.069695786 0.027567847 0.39792728 4278255360
0.06955345 0.027540389 0.39840582 4278255360
0.069411121 0.027512934 0.39888436 4278255360
0.069268793 0.027485479 0.39936286 4278255360
0.069126457 0.027458023 0.3998414 4278255360
0.068984129 0.027430568 0.40031993 4278255360
0.0688418 0.027403113 0.40079844 4278255360
0.068699464 0.027375657 0.40127698 4278255360
0.068557136 0.027348202 0.40175551 4278255360
0.0684148 0.027320746 0.40223402 4278255360
0.068272471 0.027293291 0.40271255 4278255360
0.068130143 0.027265836 0.40319109 4278255360
0.067987807 0.027238378 0.40366963 4278255360
