# .PCD v0.7 - Point Cloud Data file format
VERSION 0.7
FIELDS x y z rgb
SIZE 4 4 4 4
TYPE F F F U
COUNT 1 1 1 1
WIDTH 1034
HEIGHT 1
VIEWPOINT 0 0 0 1 0 0 0
POINTS 1034
DATA ascii
-0.026938658 0.013901036 0.39700001 4280429346
-0.025713811 0.013936052 0.39800003 4280429346
-0.024298385 0.013866021 0.39600003 4280693290
-0.022895953 0.01379599 0.39400002 4281088048
-0.021561377 0.013760975 0.39300001 4281285940
-0.020284912 0.013760975 0.39300001 4281285938
-0.018960079 0.013725961 0.39200002 4280759081
-0.017641744 0.013690946 0.39100003 4280101151
-0.016329905 0.01365593 0.39000002 4279904799
-0.015024561 0.013620915 0.38900003 4280169508
-0.029294519 0.015076137 0.39400002 4280694317
-0.028085906 0.015114401 0.39500001 4280101666
-0.026870804 0.015152666 0.39600003 4280364323
-0.025584595 0.015152666 0.39600003 4280364323
-0.024237026 0.015114401 0.39500001 4280430116
-0.022895953 0.015076137 0.39400002 4281021483
-0.021561377 0.015037872 0.39300001 4281089075
-0.020233298 0.014999609 0.39200002 4281221429
-0.018911714 0.014961344 0.39100003 4280167459
-0.017596623 0.014923079 0.39000002 4279772701
-0.016288033 0.014884816 0.38900003 4279773213
-0.015024561 0.014884816 0.38900003 4279577369
-0.013690336 0.014808287 0.38700002 4279121945
-0.012401231 0.014770022 0.38600001 4279518756
-0.011118623 0.014731758 0.38500002 4279191842
-0.0098681422 0.014731758 0.38500002 4279455014
-0.031692244 0.016273256 0.39200002 4280694055
-0.029220166 0.016314769 0.39300001 4280825901
-0.028014803 0.016356282 0.39400002 4280101666
-0.026802946 0.016397797 0.39500001 4280627495
-0.025519988 0.016397797 0.39500001 4280693542
-0.024237026 0.016397797 0.39500001 4280561186
-0.022895953 0.016356282 0.39400002 4280824874
-0.021561377 0.016314769 0.39300001 4281088559
-0.020233298 0.016273256 0.39200002 4280628522
-0.018911714 0.016231744 0.39100003 4279772701
-0.017596623 0.016190229 0.39000002 4279641115
-0.016288033 0.016148716 0.38900003 4279444250
-0.014985936 0.016107202 0.38800001 4279379479
-0.013654959 0.016024174 0.38600001 4279714854
-0.012369104 0.015982661 0.38500002 4279058972
-0.011118623 0.015982661 0.38500002 4278666011
-0.0098681422 0.015982661 0.38500002 4278797597
-0.0085952785 0.015941149 0.384 4278929183
-0.0073480452 0.015941149 0.384 4278994211
-0.0061167004 0.015982661 0.38500002 4284321906
-0.0048662201 0.015982661 0.38500002 4280440889
-0.0036157393 0.015982661 0.38500002 4279521066
-0.0023652585 0.015982661 0.38500002 4279126308
-0.0011147779 0.015982661 0.38500002 4279192101
-0.030419029 0.017546903 0.39200002 4280890149
-0.028014803 0.01763643 0.39400002 4280167457
-0.026735092 0.01763643 0.39400002 4280430116
-0.02545538 0.01763643 0.39400002 4281022253
-0.024175666 0.01763643 0.39400002 4280627495
-0.022895953 0.01763643 0.39400002 4280825387
-0.021561377 0.017591666 0.39300001 4280891694
-0.020233298 0.017546903 0.39200002 4280036385
-0.018911714 0.017502142 0.39100003 4279772188
-0.017596623 0.017457379 0.39000002 4279640602
-0.01624616 0.017367853 0.38800001 4279575322
-0.014947313 0.017323092 0.38700002 4279576604
-0.013654959 0.017278329 0.38600001 4279319324
-0.012369104 0.017233565 0.38500002 4278861080
-0.011089743 0.017188802 0.384 4278599189
-0.0098425103 0.017188802 0.384 4278664982
-0.0085952785 0.017188802 0.384 4278796568
-0.0073480452 0.017188802 0.384 4278993947
-0.0061008125 0.017188802 0.384 4278665498
-0.0048535801 0.017188802 0.384 4278665498
-0.0036063476 0.017188802 0.384 4278468632
-0.0023591151 0.017188802 0.384 4278731802
-0.0011118823 0.017188802 0.384 4278666009
0.00013499784 0.017144041 0.38300002 4278731802
0.0013789824 0.017144041 0.38300002 4278402837
-0.030419029 0.018820552 0.39200002 4280955427
-0.029220166 0.018868564 0.39300001 4280825641
-0.027943699 0.018868564 0.39300001 4279838492
-0.026735092 0.018916577 0.39400002 4280496422
-0.02545538 0.018916577 0.39400002 4280562729
-0.024175666 0.018916577 0.39400002 4280496938
-0.022895953 0.018916577 0.39400002 4280825901
-0.021561377 0.018868564 0.39300001 4280825901
-0.020233298 0.018820552 0.39200002 4280365350
-0.018911714 0.018772542 0.39100003 4279443736
-0.017551504 0.018676519 0.38900003 4279509016
-0.01620429 0.018580494 0.38700002 4279510041
-0.014908689 0.018532483 0.38600001 4279642397
-0.013619585 0.018484471 0.38500002 4279120920
-0.012336976 0.01843646 0.384 4279056152
-0.011060865 0.018388448 0.38300002 4278795800
-0.0098168794 0.018388448 0.38300002 4278598421
-0.0085728951 0.018388448 0.38300002 4278599189
-0.0073289103 0.018388448 0.38300002 4278664982
-0.006084925 0.018388448 0.38300002 4278599189
-0.0048409407 0.018388448 0.38300002 4278599189
-0.0035969564 0.018388448 0.38300002 4278401810
-0.0023529716 0.018388448 0.38300002 4278533396
-0.0011089868 0.018388448 0.38300002 4278533396
0.00013499784 0.018388448 0.38300002 4278599189
0.0013753821 0.018340437 0.38200003 4278599189
-0.029145814 0.020094201 0.39200002 4281023020
-0.027943699 0.020145461 0.39300001 4279641113
-0.026735092 0.020196723 0.39400002 4280562215
-0.02545538 0.020196723 0.39400002 4280628008
-0.024175666 0.020196723 0.39400002 4280825389
-0.022895953 0.020196723 0.39400002 4281022766
-0.021616241 0.020196723 0.39400002 4281088559
-0.020284912 0.020145461 0.39300001 4280035871
-0.018911714 0.020042941 0.39100003 4279509014
-0.017506385 0.019889157 0.38800001 4279443221
-0.016162418 0.019786635 0.38600001 4279312662
-0.014870066 0.019735375 0.38500002 4279511065
-0.013584209 0.019684114 0.384 4279054873
-0.012304849 0.019632854 0.38300002 4278991383
-0.011060865 0.019632854 0.38300002 4278729494
-0.0097912485 0.019581594 0.38200003 4278795287
-0.0085505117 0.019581594 0.38200003 4278599191
-0.0073097749 0.019581594 0.38200003 4278533398
-0.0060690381 0.019581594 0.38200003 4278533396
-0.0048283017 0.019581594 0.38200003 4278598419
-0.0035875649 0.019581594 0.38200003 4278664212
-0.0023468281 0.019581594 0.38200003 4278466833
-0.0011060913 0.019581594 0.38200003 4278532626
0.00013464538 0.019581594 0.38200003 4278598419
0.0013717816 0.019530332 0.38100001 4278532626
0.0026024217 0.019479072 0.38000003 4278532626
0.0038265658 0.019427812 0.37900001 4278532626
0.0050575584 0.019427812 0.37900001 4278598419
0.0062885508 0.019427812 0.37900001 4278335249
-0.029220166 0.021422358 0.39300001 4280759081
-0.027943699 0.021422358 0.39300001 4280299045
-0.026735092 0.021476869 0.39400002 4281022766
-0.025519988 0.021531377 0.39500001 4281285938
-0.024237026 0.021531377 0.39500001 4280496422
-0.022954063 0.021531377 0.39500001 4281089073
-0.021616241 0.021476869 0.39400002 4280957487
-0.020284912 0.021422358 0.39300001 4279772699
-0.018863345 0.021258829 0.39000002 4279377428
-0.017506385 0.021149809 0.38800001 4279443221
-0.016162418 0.02104079 0.38600001 4279576088
-0.014831441 0.020931769 0.384 4279445272
-0.013548833 0.020877261 0.38300002 4278858261
-0.012304849 0.020877261 0.38300002 4278728724
-0.011031985 0.02082275 0.38200003 4278597908
-0.0097912485 0.02082275 0.38200003 4278730007
-0.0085505117 0.02082275 0.38200003 4278599191
-0.0073097749 0.02082275 0.38200003 4278336019
-0.0060690381 0.02082275 0.38200003 4278532626
-0.0048283017 0.02082275 0.38200003 4278532626
-0.0035875649 0.02082275 0.38200003 4278335247
-0.0023406844 0.02076824 0.38100001 4278466833
-0.0011031957 0.02076824 0.38100001 4278598419
0.00013429289 0.02076824 0.38100001 4278664212
0.0013681811 0.020713732 0.38000003 4278730005
0.0025955732 0.020659219 0.37900001 4278532626
0.0038265658 0.020659219 0.37900001 4278198016
0.0050575584 0.020659219 0.37900001 4278791953
0.0062885508 0.020659219 0.37900001 4278198018
0.0074997037 0.020604711 0.37800002 4278531091
0.0087274481 0.020604711 0.37800002 4278662931
0.011212522 0.020659219 0.37900001 4278335249
0.012443515 0.020659219 0.37900001 4278466833
0.027071808 0.020550201 0.377 4278599189
0.028296303 0.020550201 0.377 4278533396
0.029520802 0.020550201 0.377 4278599189
0.030745298 0.020550201 0.377 4278664982
0.031884998 0.02049569 0.37600002 4278533910
0.033106245 0.02049569 0.37600002 4278468117
-0.029220166 0.022699254 0.39300001 4282141247
-0.028014803 0.022757014 0.39400002 4280233252
-0.026735092 0.022757014 0.39400002 4280825389
-0.025519988 0.022814773 0.39500001 4280693801
-0.024237026 0.022814773 0.39500001 4280693801
-0.022954063 0.022814773 0.39500001 4280695085
-0.021671103 0.022814773 0.39500001 4280760878
-0.020336529 0.022757014 0.39400002 4280036385
-0.019105183 0.022814773 0.39500001 4279639830
-0.017461266 0.022352701 0.38700002 4279509014
-0.016078675 0.022179425 0.384 4279511065
-0.014831441 0.022179425 0.384 4279511576
-0.013548833 0.022121666 0.38300002 4278989847
-0.012272721 0.022063907 0.38200003 4278991129
-0.011031985 0.022063907 0.38200003 4278597908
-0.0097656166 0.022006148 0.38100001 4278795800
-0.0085281283 0.022006148 0.38100001 4278730007
-0.007290639 0.022006148 0.38100001 4278598421
-0.0060531502 0.022006148 0.38100001 4278598421
-0.0048156618 0.022006148 0.38100001 4278598421
-0.0035781732 0.022006148 0.38100001 4278532628
-0.0023406844 0.022006148 0.38100001 4278532628
-0.0011003002 0.02194839 0.38000003 4278466835
0.00013394043 0.02194839 0.38000003 4278598421
0.0013681811 0.02194839 0.38000003 4278335249
0.0025955732 0.021890629 0.37900001 4278532115
0.0038265658 0.021890629 0.37900001 4278595855
0.0050575584 0.021890629 0.37900001 4278197762
0.0062719584 0.021832872 0.37800002 4278529296
0.0074997037 0.021832872 0.37800002 4278596371
0.0087274481 0.021832872 0.37800002 4278596625
0.0099551929 0.021832872 0.37800002 4278925590
0.011182938 0.021832872 0.37800002 4278860310
0.012410683 0.021832872 0.37800002 4278465552
0.013638427 0.021832872 0.37800002 4278532115
0.014866171 0.021832872 0.37800002 4278532115
0.016093915 0.021832872 0.37800002 4278531345
0.022232641 0.021832872 0.37800002 4278597908
0.023460384 0.021832872 0.37800002 4278597908
0.024688128 0.021832872 0.37800002 4278598419
0.025915874 0.021832872 0.37800002 4278795798
0.027143618 0.021832872 0.37800002 4278335247
0.028296303 0.021775112 0.377 4278532626
0.029520802 0.021775112 0.377 4278466833
0.030745298 0.021775112 0.377 4278466835
0.031969797 0.021775112 0.377 4278598419
0.033106245 0.021717353 0.37600002 4278598419
0.034327492 0.021717353 0.37600002 4278335247
0.035548743 0.021717353 0.37600002 4278533396
0.03676999 0.021717353 0.37600002 4278468117
-0.029220166 0.023976151 0.39300001 4280759848
-0.028014803 0.02403716 0.39400002 4280233252
-0.026802946 0.024098167 0.39500001 4280627495
-0.025519988 0.024098167 0.39500001 4280561702
-0.024237026 0.024098167 0.39500001 4280824874
-0.022954063 0.024098167 0.39500001 4280825901
-0.021671103 0.024098167 0.39500001 4280694315
-0.020388143 0.024098167 0.39500001 4280101666
-0.019105183 0.024098167 0.39500001 4279507733
-0.017822221 0.024098167 0.39500001 4279837211
-0.016036803 0.023366071 0.38300002 4279379225
-0.014792819 0.023366071 0.38300002 4279446553
-0.013513459 0.023305064 0.38200003 4279055640
-0.012272721 0.023305064 0.38200003 4278925590
-0.011031985 0.023305064 0.38200003 4278400529
-0.0097656166 0.023244055 0.38100001 4278795800
-0.0085281283 0.023244055 0.38100001 4278730007
-0.007290639 0.023244055 0.38100001 4278664214
-0.0060531502 0.023244055 0.38100001 4278466835
-0.0048156618 0.023244055 0.38100001 4278532628
-0.0035781732 0.023244055 0.38100001 4278466835
-0.0023345409 0.023183048 0.38000003 4278466835
-0.0011003002 0.023183048 0.38000003 4278466835
0.00013394043 0.023183048 0.38000003 4278664214
0.0013645806 0.023122039 0.37900001 4278532628
0.0025955732 0.023122039 0.37900001 4278400529
0.0038265658 0.023122039 0.37900001 4278858259
0.0050442144 0.023061031 0.37800002 4278198277
0.0062719584 0.023061031 0.37800002 4278858261
0.0074997037 0.023061031 0.37800002 4278727189
0.0087274481 0.023061031 0.37800002 4278197509
0.0099551929 0.023061031 0.37800002 4278196486
0.011182938 0.023061031 0.37800002 4278196488
0.012410683 0.023061031 0.37800002 4278195714
0.013638427 0.023061031 0.37800002 4278196226
0.014866171 0.023061031 0.37800002 4278195712
0.016093915 0.023061031 0.37800002 4278198024
0.017321661 0.023061031 0.37800002 4278461453
0.018549407 0.023061031 0.37800002 4278726162
0.019777149 0.023061031 0.37800002 4278792468
0.021004895 0.023061031 0.37800002 4278858775
0.022232641 0.023061031 0.37800002 4278529810
0.023460384 0.023061031 0.37800002 4278530578
0.024688128 0.023061031 0.37800002 4278465298
0.025915874 0.023061031 0.37800002 4278728470
0.027143618 0.023061031 0.37800002 4278860310
0.028371362 0.023061031 0.37800002 4278597908
0.029520802 0.023000022 0.377 4278400529
0.030745298 0.023000022 0.377 4278532115
0.031969797 0.023000022 0.377 4278466835
0.033194292 0.023000022 0.377 4278335247
0.034418788 0.023000022 0.377 4278335247
0.035643287 0.023000022 0.377 4278335247
0.036867782 0.023000022 0.377 4278466833
0.038092278 0.023000022 0.377 4278532626
0.040648807 0.023061031 0.37800002 4278336017
0.041987337 0.023122039 0.37900001 4278336017
-0.034151338 0.025124537 0.39100003 4283062853
-0.032881368 0.025124537 0.39100003 4281088296
-0.031692244 0.025188792 0.39200002 4281154091
-0.029294519 0.025317308 0.39400002 4280365350
-0.028014803 0.025317308 0.39400002 4279904285
-0.026802946 0.025381563 0.39500001 4280232737
-0.025584595 0.025445823 0.39600003 4280364323
-0.024298385 0.025445823 0.39600003 4280627495
-0.023012176 0.025445823 0.39600003 4281022253
-0.021671103 0.025381563 0.39500001 4281023280
-0.020388143 0.025381563 0.39500001 4279444250
-0.019105183 0.025381563 0.39500001 4279771418
-0.017822221 0.025381563 0.39500001 4279903004
-0.016036803 0.024610478 0.38300002 4279576858
-0.014792819 0.024610478 0.38300002 4279314967
-0.013513459 0.024546223 0.38200003 4279121431
-0.012272721 0.024546223 0.38200003 4278728724
-0.011031985 0.024546223 0.38200003 4278663701
-0.0097656166 0.024481965 0.38100001 4278730007
-0.0085281283 0.024481965 0.38100001 4278730005
-0.007290639 0.024481965 0.38100001 4278598419
-0.0060531502 0.024481965 0.38100001 4278664212
-0.0048156618 0.024481965 0.38100001 4278532626
-0.0035687818 0.024417708 0.38000003 4278466833
-0.0023345409 0.024417708 0.38000003 4278532626
-0.0011003002 0.024417708 0.38000003 4278466833
0.00013358794 0.02435345 0.37900001 4278532113
0.0013645806 0.02435345 0.37900001 4278597906
0.0025955732 0.02435345 0.37900001 4278531343
0.0038164693 0.024289194 0.37800002 4278658062
0.0050442144 0.024289194 0.37800002 4278524170
0.0062719584 0.024289194 0.37800002 4278792214
0.0074997037 0.024289194 0.37800002 4278595349
0.0087274481 0.024289194 0.37800002 4278458636
0.0099551929 0.024289194 0.37800002 4278523146
0.011182938 0.024289194 0.37800002 4278654220
0.012410683 0.024289194 0.37800002 4278785293
0.013638427 0.024289194 0.37800002 4278522634
0.014866171 0.024289194 0.37800002 4278654220
0.016093915 0.024289194 0.37800002 4278720013
0.017321661 0.024289194 0.37800002 4278522634
0.018549407 0.024289194 0.37800002 4278654218
0.019777149 0.024289194 0.37800002 4278522632
0.021060463 0.02435345 0.37900001 4278588939
0.022291455 0.02435345 0.37900001 4278325767
0.023522448 0.02435345 0.37900001 4278196228
0.02475344 0.02435345 0.37900001 4278331404
0.025915874 0.024289194 0.37800002 4278194688
0.027143618 0.024289194 0.37800002 4278195712
0.028371362 0.024289194 0.37800002 4278195968
0.029599108 0.024289194 0.37800002 4278198023
0.030826852 0.024289194 0.37800002 4278331150
0.032054599 0.024289194 0.37800002 4278594835
0.033194292 0.024224935 0.377 4278595603
0.034418788 0.024224935 0.377 4278727189
0.035643287 0.024224935 0.377 4278925338
0.036965575 0.024289194 0.37800002 4278925338
0.038193323 0.024289194 0.37800002 4278662931
0.039421067 0.024289194 0.37800002 4278465552
0.040756345 0.02435345 0.37900001 4278334736
0.041987337 0.02435345 0.37900001 4278532115
0.04321833 0.02435345 0.37900001 4278334736
0.044566605 0.024417708 0.38000003 4278268943
0.053626336 0.024610478 0.38300002 4278664982
-0.037961245 0.026394935 0.39100003 4280694053
-0.034151338 0.026394935 0.39100003 4280890151
-0.032965463 0.026462441 0.39200002 4281088813
-0.030496629 0.026529947 0.39300001 4279510043
-0.029294519 0.026597453 0.39400002 4279575320
-0.028085906 0.026664959 0.39500001 4279772186
-0.026870804 0.026732467 0.39600003 4280101151
-0.025584595 0.026732467 0.39600003 4280298530
-0.024298385 0.026732467 0.39600003 4280430118
-0.023012176 0.026732467 0.39600003 4281154354
-0.021725969 0.026732467 0.39600003 4281089075
-0.020388143 0.026664959 0.39500001 4279904287
-0.019105183 0.026664959 0.39500001 4279508246
-0.017822221 0.026664959 0.39500001 4279968797
-0.016036803 0.025854886 0.38300002 4279511065
-0.014754196 0.02578738 0.38200003 4279314967
-0.013513459 0.02578738 0.38200003 4278991129
-0.012272721 0.02578738 0.38200003 4278663701
-0.011031985 0.02578738 0.38200003 4278664214
-0.0097656166 0.025719872 0.38100001 4278730007
-0.0085281283 0.025719872 0.38100001 4278730005
-0.007290639 0.025719872 0.38100001 4278532626
-0.0060531502 0.025719872 0.38100001 4278466833
-0.0048156618 0.025719872 0.38100001 4278598419
-0.0035687818 0.025652368 0.38000003 4278335247
-0.0023345409 0.025652368 0.38000003 4278466833
-0.0011003002 0.025652368 0.38000003 4278532113
0.00013358794 0.02558486 0.37900001 4278465550
0.0013645806 0.02558486 0.37900001 4278662929
0.0025955732 0.02558486 0.37900001 4278662931
0.0038164693 0.025517354 0.37800002 4278658064
0.0050442144 0.025517354 0.37800002 4279117590
0.0062719584 0.025517354 0.37800002 4278990107
0.0074997037 0.025517354 0.37800002 4279186972
0.0087274481 0.025517354 0.37800002 4278720011
0.0099551929 0.025517354 0.37800002 4278983185
0.011182938 0.025517354 0.37800002 4278851086
0.012410683 0.025517354 0.37800002 4278785806
0.013638427 0.025517354 0.37800002 4278719500
0.014866171 0.025517354 0.37800002 4278785293
0.016093915 0.025517354 0.37800002 4278785806
0.017321661 0.025517354 0.37800002 4278785806
0.018598478 0.02558486 0.37900001 4278719500
0.019829469 0.02558486 0.37900001 4278719500
0.021060463 0.02558486 0.37900001 4278587914
0.022291455 0.02558486 0.37900001 4278719500
0.023522448 0.02558486 0.37900001 4278723343
0.02475344 0.02558486 0.37900001 4279055127
0.025984434 0.02558486 0.37900001 4278792468
0.027215425 0.02558486 0.37900001 4279384092
0.028446417 0.02558486 0.37900001 4278988564
0.029599108 0.025517354 0.37800002 4279317529
0.030826852 0.025517354 0.37800002 4279054103
0.032054599 0.025517354 0.37800002 4278988310
0.033282343 0.025517354 0.37800002 4278988310
0.034510083 0.025517354 0.37800002 4278329867
0.035737831 0.025517354 0.37800002 4278460685
0.036965575 0.025517354 0.37800002 4278196998
0.038193323 0.025517354 0.37800002 4278195200
0.039525352 0.02558486 0.37900001 4278195712
0.040756345 0.02558486 0.37900001 4278195200
0.041987337 0.02558486 0.37900001 4278195968
0.043332364 0.025652368 0.38000003 4278196992
0.044566605 0.025652368 0.38000003 4278198790
0.046041902 0.02578738 0.38200003 4278265609
0.04728264 0.02578738 0.38200003 4278529294
0.048650399 0.025854886 0.38300002 4278727187
0.049894385 0.025854886 0.38300002 4278596371
0.051138371 0.025854886 0.38300002 4278925336
0.05238235 0.025854886 0.38300002 4278530578
0.053626336 0.025854886 0.38300002 4278532115
0.055013586 0.02592239 0.384 4278400529
0.056407336 0.025989898 0.38500002 4278335249
0.057807572 0.026057404 0.38600001 4278532626
0.0590613 0.026057404 0.38600001 4278533396
0.060471293 0.02612491 0.38700002 4278796568
0.061728265 0.02612491 0.38700002 4278797082
0.062985241 0.02612491 0.38700002 4278797082
0.065668441 0.026192416 0.38800001 4278467351
-0.0355119 0.027736088 0.39200002 4280955944
-0.03185394 0.027877599 0.39400002 4279772699
-0.030574229 0.027877599 0.39400002 4279443734
-0.029368868 0.027948353 0.39500001 4279509016
-0.028157011 0.028019112 0.39600003 4279640600
-0.026870804 0.028019112 0.39600003 4280166944
-0.025649203 0.028089866 0.39700001 4280298532
-0.024359744 0.028089866 0.39700001 4280628010
-0.023070287 0.028089866 0.39700001 4280956975
-0.021725969 0.028019112 0.39600003 4280957489
-0.020388143 0.027948353 0.39500001 4279772188
-0.019105183 0.027948353 0.39500001 4279902491
-0.017822221 0.027948353 0.39500001 4279903004
-0.016036803 0.027099291 0.38300002 4279642649
-0.014754196 0.027028536 0.38200003 4279380760
-0.013513459 0.027028536 0.38200003 4278991896
-0.012272721 0.027028536 0.38200003 4278730007
-0.011031985 0.027028536 0.38200003 4278532628
-0.0097912485 0.027028536 0.38200003 4278730007
-0.0085505117 0.027028536 0.38200003 4278730007
-0.007290639 0.02695778 0.38100001 4278664212
-0.0060531502 0.02695778 0.38100001 4278466833
-0.0048156618 0.02695778 0.38100001 4278597906
-0.0035687818 0.026887026 0.38000003 4278730005
-0.0023345409 0.026887026 0.38000003 4278532626
-0.0011003002 0.026887026 0.38000003 4278532115
0.00013358794 0.026816269 0.37900001 4278662931
0.0013645806 0.026816269 0.37900001 4278794517
0.0025955732 0.026816269 0.37900001 4279123482
0.0038164693 0.026745515 0.37800002 4278197513
0.0050442144 0.026745515 0.37800002 4279381273
0.0062719584 0.026745515 0.37800002 4278793752
0.0074997037 0.026745515 0.37800002 4279318812
0.0087274481 0.026745515 0.37800002 4278785804
0.0099551929 0.026745515 0.37800002 4279575834
0.011182938 0.026745515 0.37800002 4278984721
0.012410683 0.026745515 0.37800002 4278721549
0.013638427 0.026745515 0.37800002 4279839776
0.014866171 0.026745515 0.37800002 4278984467
0.016136492 0.026816269 0.37900001 4279577117
0.017367486 0.026816269 0.37900001 4279445785
0.018598478 0.026816269 0.37900001 4278984721
0.019829469 0.026816269 0.37900001 4278918674
0.021060463 0.026816269 0.37900001 4279313432
0.022291455 0.026816269 0.37900001 4278588939
0.023522448 0.026816269 0.37900001 4279512859
0.02475344 0.026816269 0.37900001 4278726421
0.025984434 0.026816269 0.37900001 4278858775
0.027215425 0.026816269 0.37900001 4278266638
0.028446417 0.026816269 0.37900001 4278330634
0.029677412 0.026816269 0.37900001 4278923541
0.030908404 0.026816269 0.37900001 4278989845
0.032139398 0.026816269 0.37900001 4278858259
0.033370391 0.026816269 0.37900001 4278792466
0.034601379 0.026816269 0.37900001 4278989845
0.035832375 0.026816269 0.37900001 4279055638
0.037063368 0.026816269 0.37900001 4278858259
0.03829436 0.026816269 0.37900001 4278989845
0.039525352 0.026816269 0.37900001 4279318810
0.040863883 0.026887026 0.38000003 4278858259
0.042098124 0.026887026 0.38000003 4279186711
0.043332364 0.026887026 0.38000003 4279055127
0.044683885 0.02695778 0.38100001 4278791701
0.046041902 0.027028536 0.38200003 4279054103
0.04728264 0.027028536 0.38200003 4278856211
0.048650399 0.027099291 0.38300002 4278329867
0.049894385 0.027099291 0.38300002 4278197769
0.051138371 0.027099291 0.38300002 4278196484
0.052519117 0.027170045 0.384 4278195971
0.053766351 0.027170045 0.384 4278195712
0.055013586 0.027170045 0.384 4278197506
0.056407336 0.027240802 0.38500002 4278399759
0.057807572 0.027311556 0.38600001 4278597908
0.0590613 0.027311556 0.38600001 4278400529
0.060471293 0.027382312 0.38700002 4278532115
0.061728265 0.027382312 0.38700002 4278532374
0.063147992 0.027453067 0.38800001 4278730007
0.06440822 0.027453067 0.38800001 4278862363
0.065668441 0.027453067 0.38800001 4278664984
0.06692867 0.027453067 0.38800001 4280304944
-0.033133656 0.029157747 0.39400002 4279641881
-0.031934787 0.029231749 0.39500001 4280036125
-0.030651828 0.029231749 0.39500001 4279707160
-0.028228113 0.029379759 0.39700001 4279575320
-0.026938658 0.029379759 0.39700001 4280101151
-0.025713811 0.029453764 0.39800003 4280232737
-0.024421105 0.029453764 0.39800003 4280233252
-0.0231284 0.029453764 0.39800003 4280891696
-0.021780832 0.029379759 0.39700001 4280825389
-0.020388143 0.029231749 0.39500001 4279903002
-0.019105183 0.029231749 0.39500001 4279836696
-0.017280787 0.028343696 0.38300002 4279837979
-0.016036803 0.028343696 0.38300002 4279642649
-0.014754196 0.028269693 0.38200003 4279381271
-0.013513459 0.028269693 0.38200003 4279057174
-0.012272721 0.028269693 0.38200003 4278663699
-0.011031985 0.028269693 0.38200003 4278730005
-0.0097912485 0.028269693 0.38200003 4278598419
-0.0085505117 0.028269693 0.38200003 4278598419
-0.0073097749 0.028269693 0.38200003 4278598419
-0.0060531502 0.028195687 0.38100001 4278598419
-0.0048156618 0.028195687 0.38100001 4278466833
-0.0035781732 0.028195687 0.38100001 4278466833
-0.0023345409 0.028121684 0.38000003 4278598419
-0.0011003002 0.028121684 0.38000003 4278532113
0.00013358794 0.028047679 0.37900001 4278597906
0.0013645806 0.028047679 0.37900001 4278795285
0.0025955732 0.028047679 0.37900001 4278400529
0.0038164693 0.027973674 0.37800002 4278197258
0.0050442144 0.027973674 0.37800002 4279052308
0.0062719584 0.027973674 0.37800002 4278858773
0.0074997037 0.027973674 0.37800002 4278791955
0.0087274481 0.027973674 0.37800002 4278720779
0.0099551929 0.027973674 0.37800002 4279313686
0.011182938 0.027973674 0.37800002 4278853648
0.012410683 0.027973674 0.37800002 4278919441
0.013674506 0.028047679 0.37900001 4279511578
0.014905499 0.028047679 0.37900001 4278260998
0.016136492 0.028047679 0.37900001 4278985234
0.017367486 0.028047679 0.37900001 4278195974
0.018598478 0.028047679 0.37900001 4278391814
0.019829469 0.028047679 0.37900001 4279314969
0.021060463 0.028047679 0.37900001 4278328074
0.022291455 0.028047679 0.37900001 4278458377
0.023522448 0.028047679 0.37900001 4278921234
0.02475344 0.028047679 0.37900001 4278727189
0.025984434 0.028047679 0.37900001 4278397710
0.027215425 0.028047679 0.37900001 4278197256
0.028446417 0.028047679 0.37900001 4278393097
0.029677412 0.028047679 0.37900001 4278262281
0.030908404 0.028047679 0.37900001 4278396173
0.032139398 0.028047679 0.37900001 4278791701
0.033370391 0.028047679 0.37900001 4278199564
0.034601379 0.028047679 0.37900001 4278660115
0.035832375 0.028047679 0.37900001 4278331663
0.03716116 0.028121684 0.38000003 4278198276
0.038395401 0.028121684 0.38000003 4278331915
0.039629642 0.028121684 0.38000003 4278727187
0.040863883 0.028121684 0.38000003 4278727187
0.042208906 0.028195687 0.38100001 4278596371
0.043446396 0.028195687 0.38100001 4278727957
0.044683885 0.028195687 0.38100001 4278925336
0.046041902 0.028269693 0.38200003 4278727957
0.04728264 0.028269693 0.38200003 4278530578
0.048650399 0.028343696 0.38300002 4278859543
0.049894385 0.028343696 0.38300002 4278596371
0.051138371 0.028343696 0.38300002 4278727957
0.052519117 0.028417701 0.384 4278858775
0.053766351 0.028417701 0.384 4278792468
0.055156853 0.028491706 0.38500002 4278197506
0.056407336 0.028491706 0.38500002 4278464015
0.057807572 0.028565709 0.38600001 4278662931
0.0590613 0.028565709 0.38600001 4278532115
0.060471293 0.028639715 0.38700002 4278597908
0.061728265 0.028639715 0.38700002 4278334995
0.063147992 0.028713718 0.38800001 4278598167
0.06440822 0.028713718 0.38800001 4278598167
0.065668441 0.028713718 0.38800001 4278532374
0.06692867 0.028713718 0.38800001 4278725910
-0.030807028 0.030669652 0.39700001 4279904022
-0.029591925 0.030746907 0.39800003 4280693538
-0.021835696 0.030746907 0.39800003 4281220145
-0.020439759 0.030592399 0.39600003 4280231967
-0.01915355 0.030592399 0.39600003 4280034075
-0.017280787 0.029588103 0.38300002 4280430116
-0.016036803 0.029588103 0.38300002 4279840028
-0.014754196 0.02951085 0.38200003 4279579164
-0.013513459 0.02951085 0.38200003 4279188762
-0.012272721 0.02951085 0.38200003 4278926101
-0.011031985 0.02951085 0.38200003 4278795285
-0.0097912485 0.02951085 0.38200003 4278795798
-0.0085505117 0.02951085 0.38200003 4278730005
-0.0073097749 0.02951085 0.38200003 4278795798
-0.0060690381 0.02951085 0.38200003 4278598419
-0.0048156618 0.029433595 0.38100001 4278532626
-0.0035781732 0.029433595 0.38100001 4278400527
-0.0023345409 0.029356342 0.38000003 4278532115
-0.0011003002 0.029356342 0.38000003 4278597908
0.00013394043 0.029356342 0.38000003 4278597908
0.0013645806 0.029279089 0.37900001 4278597906
0.0025955732 0.029279089 0.37900001 4278531345
0.0038265658 0.029279089 0.37900001 4278327820
0.0050442144 0.029201835 0.37800002 4278195206
0.0062719584 0.029201835 0.37800002 4278792468
0.0074997037 0.029201835 0.37800002 4278527759
0.0087274481 0.029201835 0.37800002 4278589193
0.0099551929 0.029201835 0.37800002 4278720265
0.011212522 0.029279089 0.37900001 4278720011
0.012443515 0.029279089 0.37900001 4278522632
0.013674506 0.029279089 0.37900001 4278588939
0.014905499 0.029279089 0.37900001 4278391560
0.016136492 0.029279089 0.37900001 4278654732
0.017367486 0.029279089 0.37900001 4278523146
0.018598478 0.029279089 0.37900001 4278918926
0.019829469 0.029279089 0.37900001 4279446551
0.021060463 0.029279089 0.37900001 4279315478
0.022350272 0.029356342 0.38000003 4278260998
0.023584513 0.029356342 0.38000003 4279382555
0.024818754 0.029356342 0.38000003 4278726673
0.026052997 0.029356342 0.38000003 4278197001
0.027287235 0.029356342 0.38000003 4278458123
0.028521474 0.029356342 0.38000003 4278654732
0.029755717 0.029356342 0.38000003 4278195205
0.030989956 0.029356342 0.38000003 4278198026
0.032224201 0.029356342 0.38000003 4279054875
0.033458438 0.029356342 0.38000003 4278923287
0.034692679 0.029356342 0.38000003 4278527759
0.035926919 0.029356342 0.38000003 4278593552
0.03716116 0.029356342 0.38000003 4279055127
0.038395401 0.029356342 0.38000003 4278462990
0.039629642 0.029356342 0.38000003 4278923541
0.040971417 0.029433595 0.38100001 4278660882
0.042208906 0.029433595 0.38100001 4278197504
0.043446396 0.029433595 0.38100001 4278529296
0.044801168 0.02951085 0.38200003 4278331917
0.046041902 0.02951085 0.38200003 4278199046
0.04728264 0.02951085 0.38200003 4278200074
0.048650399 0.029588103 0.38300002 4278661394
0.049894385 0.029588103 0.38300002 4278661394
0.051138371 0.029588103 0.38300002 4278530578
0.052519117 0.029665355 0.384 4278662677
0.053766351 0.029665355 0.384 4278596371
0.055156853 0.02974261 0.38500002 4278198280
0.056407336 0.02974261 0.38500002 4278990361
0.057807572 0.029819863 0.38600001 4278662677
0.0590613 0.029819863 0.38600001 4278465552
0.060471293 0.029897118 0.38700002 4278663701
0.061728265 0.029897118 0.38700002 4278597654
0.063147992 0.029974369 0.38800001 4278663447
0.06440822 0.029974369 0.38800001 4278531861
0.065668441 0.029974369 0.38800001 4278531861
0.06692867 0.029974369 0.38800001 4278529046
-0.023302734 0.032281555 0.40100002 4279771670
-0.022000287 0.032281555 0.40100002 4279772438
-0.017280787 0.030832509 0.38300002 4279641115
-0.016036803 0.030832509 0.38300002 4279446555
-0.014792819 0.030832509 0.38300002 4279448350
-0.013513459 0.030752007 0.38200003 4278926103
-0.012272721 0.030752007 0.38200003 4278860308
-0.011031985 0.030752007 0.38200003 4279058457
-0.0097912485 0.030752007 0.38200003 4278795285
-0.0085505117 0.030752007 0.38200003 4278664212
-0.0073097749 0.030752007 0.38200003 4278730005
-0.0060690381 0.030752007 0.38200003 4278335247
-0.0048283017 0.030752007 0.38200003 4278664212
-0.0035781732 0.030671503 0.38100001 4278532628
-0.0023406844 0.030671503 0.38100001 4278466835
-0.0011003002 0.030591002 0.38000003 4278598421
0.00013394043 0.030591002 0.38000003 4278466835
0.0013645806 0.030510496 0.37900001 4278335249
0.0025955732 0.030510496 0.37900001 4278531861
0.0038265658 0.030510496 0.37900001 4278593041
0.0050575584 0.030510496 0.37900001 4279513375
0.0062885508 0.030510496 0.37900001 4279121433
0.0075195436 0.030510496 0.37900001 4279054873
0.0087505365 0.030510496 0.37900001 4278654732
0.0099815289 0.030510496 0.37900001 4278654732
0.011212522 0.030510496 0.37900001 4278654218
0.012443515 0.030510496 0.37900001 4278720011
0.013674506 0.030510496 0.37900001 4278587914
0.014905499 0.030510496 0.37900001 4278654220
0.016136492 0.030510496 0.37900001 4278522632
0.017367486 0.030510496 0.37900001 4278654218
0.018598478 0.030510496 0.37900001 4278654218
0.019829469 0.030510496 0.37900001 4278522632
0.021116031 0.030591002 0.38000003 4278391560
0.022350272 0.030591002 0.38000003 4278391560
0.023584513 0.030591002 0.38000003 4279053844
0.024818754 0.030591002 0.38000003 4278858259
0.026052997 0.030591002 0.38000003 4278197001
0.027287235 0.030591002 0.38000003 4278720011
0.028521474 0.030591002 0.38000003 4278654732
0.029755717 0.030591002 0.38000003 4278984980
0.030989956 0.030591002 0.38000003 4278790933
0.032224201 0.030591002 0.38000003 4278790933
0.033458438 0.030591002 0.38000003 4278265357
0.034692679 0.030591002 0.38000003 4278857494
0.035926919 0.030591002 0.38000003 4278330382
0.03716116 0.030591002 0.38000003 4279121179
0.038496442 0.030671503 0.38100001 4278198023
0.039733931 0.030671503 0.38100001 4278988310
0.040971417 0.030671503 0.38100001 4278198283
0.042208906 0.030671503 0.38100001 4278395662
0.04356043 0.030752007 0.38200003 4278329869
0.044801168 0.030752007 0.38200003 4278461455
0.046041902 0.030752007 0.38200003 4279054873
0.047406413 0.030832509 0.38300002 4278594322
0.048650399 0.030832509 0.38300002 4278790933
0.049894385 0.030832509 0.38300002 4278527761
0.051271889 0.03091301 0.384 4278462736
0.052519117 0.03091301 0.384 4278727187
0.053766351 0.03091301 0.384 4278990359
0.055156853 0.030993514 0.38500002 4278197511
0.056407336 0.030993514 0.38500002 4278661396
0.057807572 0.031074015 0.38600001 4278531091
0.0590613 0.031074015 0.38600001 4278531345
0.060471293 0.031154519 0.38700002 4278532115
0.061728265 0.031154519 0.38700002 4278532115
0.062985241 0.031154519 0.38700002 4278597908
0.06440822 0.031235021 0.38800001 4278729240
0.065668441 0.031235021 0.38800001 4278334482
0.066756174 0.031154519 0.38700002 4278726423
-0.027277935 0.033668198 0.40200001 4280098578
-0.017280787 0.032076914 0.38300002 4284248420
-0.016036803 0.032076914 0.38300002 4279118363
-0.014792819 0.032076914 0.38300002 4279317277
-0.013548833 0.032076914 0.38300002 4279123230
-0.012304849 0.032076914 0.38300002 4278860056
-0.011031985 0.031993162 0.38200003 4278992664
-0.0097912485 0.031993162 0.38200003 4278861078
-0.0085505117 0.031993162 0.38200003 4278795798
-0.0073097749 0.031993162 0.38200003 4278730005
-0.0060690381 0.031993162 0.38200003 4278598419
-0.0048283017 0.031993162 0.38200003 4278335247
-0.0035781732 0.03190941 0.38100001 4278598419
-0.0023406844 0.03190941 0.38100001 4278466833
-0.0011003002 0.031825658 0.38000003 4278335249
0.00013394043 0.031825658 0.38000003 4278335249
0.0013645806 0.031741906 0.37900001 4278532628
0.0025955732 0.031741906 0.37900001 4278199043
0.0038265658 0.031741906 0.37900001 4278461453
0.0050575584 0.031741906 0.37900001 4278198026
0.0062885508 0.031741906 0.37900001 4278858773
0.0075195436 0.031741906 0.37900001 4278858773
0.0087505365 0.031741906 0.37900001 4279054873
0.0099815289 0.031741906 0.37900001 4279317275
0.011212522 0.031741906 0.37900001 4279052822
0.012443515 0.031741906 0.37900001 4278854416
0.013674506 0.031741906 0.37900001 4278524683
0.014905499 0.031741906 0.37900001 4278524429
0.016136492 0.031741906 0.37900001 4278326021
0.017367486 0.031741906 0.37900001 4278720011
0.018598478 0.031741906 0.37900001 4278391048
0.019881791 0.031825658 0.38000003 4278654220
0.021116031 0.031825658 0.38000003 4278720011
0.022350272 0.031825658 0.38000003 4278456839
0.023584513 0.031825658 0.38000003 4278922258
0.024818754 0.031825658 0.38000003 4278726162
0.026052997 0.031825658 0.38000003 4279053592
0.027287235 0.031825658 0.38000003 4279118101
0.028521474 0.031825658 0.38000003 4279643932
0.029755717 0.031825658 0.38000003 4279644445
0.030989956 0.031825658 0.38000003 4279185943
0.032224201 0.031825658 0.38000003 4279120920
0.033458438 0.031825658 0.38000003 4278858007
0.034692679 0.031825658 0.38000003 4278989593
0.036021464 0.03190941 0.38100001 4278858007
0.037258953 0.03190941 0.38100001 4278792214
0.038496442 0.03190941 0.38100001 4278989593
0.039733931 0.03190941 0.38100001 4278989593
0.040971417 0.03190941 0.38100001 4278858007
0.042208906 0.03190941 0.38100001 4279055386
0.04356043 0.031993162 0.38200003 4278660117
0.044801168 0.031993162 0.38200003 4278923289
0.046041902 0.031993162 0.38200003 4278196738
0.047406413 0.032076914 0.38300002 4278198023
0.048650399 0.032076914 0.38300002 4279251482
0.049894385 0.032076914 0.38300002 4278527248
0.051271889 0.032160666 0.384 4278196998
0.052519117 0.032160666 0.384 4279121433
0.053766351 0.032160666 0.384 4279121431
0.055156853 0.032244418 0.38500002 4278197769
0.056407336 0.032244418 0.38500002 4278595603
0.057807572 0.03232817 0.38600001 4278465298
0.0590613 0.03232817 0.38600001 4278728724
0.060471293 0.032411922 0.38700002 4278532115
0.061728265 0.032411922 0.38700002 4278532115
0.062985241 0.032411922 0.38700002 4278532115
0.064242221 0.032411922 0.38700002 4278663701
0.065499194 0.032411922 0.38700002 4278729494
0.066756174 0.032411922 0.38700002 4278858007
-0.016036803 0.033321321 0.38300002 4280105258
-0.014792819 0.033321321 0.38300002 4279250721
-0.013548833 0.033321321 0.38300002 4279254049
-0.012304849 0.033321321 0.38300002 4278859804
-0.011060865 0.033321321 0.38300002 4278860826
-0.0098168794 0.033321321 0.38300002 4278927132
-0.0085728951 0.033321321 0.38300002 4278664214
-0.0073097749 0.033234321 0.38200003 4278598421
-0.0060690381 0.033234321 0.38200003 4278664212
-0.0048283017 0.033234321 0.38200003 4278335247
-0.0035875649 0.033234321 0.38200003 4278466833
-0.0023406844 0.033147316 0.38100001 4278466833
-0.0011031957 0.033147316 0.38100001 4278663699
0.00013394043 0.03306032 0.38000003 4278729492
0.0013681811 0.03306032 0.38000003 4278465550
0.0025955732 0.032973316 0.37900001 4278530832
0.0038265658 0.032973316 0.37900001 4278792466
0.0050575584 0.032973316 0.37900001 4279253019
0.0062885508 0.032973316 0.37900001 4278727959
0.0075195436 0.032973316 0.37900001 4278727957
0.0087505365 0.032973316 0.37900001 4278727957
0.0099815289 0.032973316 0.37900001 4278596371
0.011212522 0.032973316 0.37900001 4278596371
0.012443515 0.032973316 0.37900001 4278924566
0.013674506 0.032973316 0.37900001 4278792468
0.014905499 0.032973316 0.37900001 4279121433
0.016136492 0.032973316 0.37900001 4278923541
0.017367486 0.032973316 0.37900001 4279120920
0.018598478 0.032973316 0.37900001 4279384092
0.019881791 0.03306032 0.38000003 4279054873
0.021116031 0.03306032 0.38000003 4278922519
0.022350272 0.03306032 0.38000003 4279185689
0.023584513 0.03306032 0.38000003 4279581471
0.024818754 0.03306032 0.38000003 4278857748
0.026052997 0.03306032 0.38000003 4278527761
0.027287235 0.03306032 0.38000003 4278592271
0.028521474 0.03306032 0.38000003 4278196742
0.029755717 0.03306032 0.38000003 4278195460
0.030989956 0.03306032 0.38000003 4278195973
0.032224201 0.03306032 0.38000003 4278195202
0.033458438 0.03306032 0.38000003 4278195202
0.034692679 0.03306032 0.38000003 4278195715
0.036021464 0.033147316 0.38100001 4278196484
0.037258953 0.033147316 0.38100001 4278197769
0.038496442 0.033147316 0.38100001 4278658832
0.039733931 0.033147316 0.38100001 4278594322
0.040971417 0.033147316 0.38100001 4278726421
0.042319693 0.033234321 0.38200003 4279515937
0.04356043 0.033234321 0.38200003 4278726935
0.044801168 0.033234321 0.38200003 4278595349
0.046041902 0.033234321 0.38200003 4278858521
0.047406413 0.033321321 0.38300002 4278858521
0.048650399 0.033321321 0.38300002 4278726935
0.049894385 0.033321321 0.38300002 4278726935
0.051271889 0.033408321 0.384 4278858775
0.052519117 0.033408321 0.384 4278858775
0.053766351 0.033408321 0.384 4279121947
0.055156853 0.033495322 0.38500002 4278197254
0.056407336 0.033495322 0.38500002 4278858775
0.057807572 0.033582322 0.38600001 4278530578
0.0590613 0.033582322 0.38600001 4278794263
0.060471293 0.033669323 0.38700002 4278662677
0.061728265 0.033669323 0.38700002 4278597654
0.062985241 0.033669323 0.38700002 4278663447
0.06440822 0.033756323 0.38800001 4278597654
0.065499194 0.033669323 0.38700002 4278729240
0.066756174 0.033669323 0.38700002 4278791964
-0.014792819 0.034565728 0.38300002 4283920738
-0.013548833 0.034565728 0.38300002 4279316512
-0.012304849 0.034565728 0.38300002 4279252002
-0.011060865 0.034565728 0.38300002 4279122978
-0.0098168794 0.034565728 0.38300002 4278992162
-0.0085728951 0.034565728 0.38300002 4278860574
-0.0073289103 0.034565728 0.38300002 4279189539
-0.0060690381 0.034475479 0.38200003 4279058207
-0.0048283017 0.034475479 0.38200003 4278795033
-0.0035875649 0.034475479 0.38200003 4278729240
-0.0023406844 0.034385227 0.38100001 4278663447
-0.0011031957 0.034385227 0.38100001 4278663447
0.00013394043 0.034294982 0.38000003 4278795287
0.0013681811 0.034294982 0.38000003 4278794517
0.0025955732 0.034204729 0.37900001 4278728724
0.0038265658 0.034204729 0.37900001 4278859797
0.0050575584 0.034204729 0.37900001 4278596625
0.0062885508 0.034204729 0.37900001 4278728211
0.0075195436 0.034204729 0.37900001 4278728211
0.0087505365 0.034204729 0.37900001 4278398992
0.0099815289 0.034204729 0.37900001 4278859543
0.011212522 0.034204729 0.37900001 4278728470
0.012443515 0.034204729 0.37900001 4278728470
0.013674506 0.034204729 0.37900001 4278662677
0.014905499 0.034204729 0.37900001 4278728470
0.016136492 0.034204729 0.37900001 4278727957
0.017367486 0.034204729 0.37900001 4278596371
0.018647552 0.034294982 0.38000003 4278596371
0.019881791 0.034294982 0.38000003 4278859543
0.021116031 0.034294982 0.38000003 4278727957
0.022350272 0.034294982 0.38000003 4278925336
0.023584513 0.034294982 0.38000003 4278530578
0.024818754 0.034294982 0.38000003 4278596371
0.026052997 0.034294982 0.38000003 4278858773
0.027287235 0.034294982 0.38000003 4278858773
0.028521474 0.034294982 0.38000003 4278990359
0.029755717 0.034294982 0.38000003 4278858775
0.030989956 0.034294982 0.38000003 4278924314
0.032224201 0.034294982 0.38000003 4278858521
0.033458438 0.034294982 0.38000003 4279186972
0.034692679 0.034294982 0.38000003 4278858007
0.036021464 0.034385227 0.38100001 4279054873
0.037258953 0.034385227 0.38100001 4279251484
0.038496442 0.034385227 0.38100001 4279646242
0.039733931 0.034385227 0.38100001 4279053592
0.040971417 0.034385227 0.38100001 4278658834
0.042319693 0.034475479 0.38200003 4278198283
0.04356043 0.034475479 0.38200003 4278197001
0.044801168 0.034475479 0.38200003 4278196744
0.046041902 0.034475479 0.38200003 4278194432
0.047406413 0.034565728 0.38300002 4278194945
0.048650399 0.034565728 0.38300002 4278194944
0.049894385 0.034565728 0.38300002 4278195712
0.051271889 0.034655977 0.384 4278197253
0.052519117 0.034655977 0.384 4278329867
0.05390637 0.03474623 0.38500002 4278198025
0.055156853 0.03474623 0.38500002 4278395662
0.056553848 0.034836479 0.38600001 4278924568
0.057807572 0.034836479 0.38600001 4278728472
0.059214313 0.034926727 0.38700002 4278728470
0.060471293 0.034926727 0.38700002 4278794263
0.061887767 0.035016976 0.38800001 4278794263
0.063147992 0.035016976 0.38800001 4278597654
0.06440822 0.035016976 0.38800001 4278400277
0.065668441 0.035016976 0.38800001 4278794265
0.066756174 0.034926727 0.38700002 4283264607
-0.016036803 0.035810135 0.38300002 4284052324
-0.014792819 0.035810135 0.38300002 4284183910
-0.013548833 0.035810135 0.38300002 4284446569
-0.012304849 0.035810135 0.38300002 4285302393
-0.011060865 0.035810135 0.38300002 4283987817
-0.0098168794 0.035810135 0.38300002 4280502071
-0.0085728951 0.035810135 0.38300002 4279186724
-0.0073289103 0.035810135 0.38300002 4278791964
-0.0060690381 0.035716638 0.38200003 4279055388
-0.0048283017 0.035716638 0.38200003 4278858523
-0.0035875649 0.035716638 0.38200003 4279188258
-0.0023406844 0.035623137 0.38100001 4278991392
-0.0011031957 0.035623137 0.38100001 4278925851
0.00013394043 0.03552964 0.38000003 4278991129
0.0013681811 0.03552964 0.38000003 4278859543
0.0025955732 0.035436139 0.37900001 4279056922
0.0038265658 0.035436139 0.37900001 4278793750
0.0050575584 0.035436139 0.37900001 4278991129
0.0062885508 0.035436139 0.37900001 4278925336
0.0075195436 0.035436139 0.37900001 4278991129
0.0087505365 0.035436139 0.37900001 4278793752
0.0099815289 0.035436139 0.37900001 4278991129
0.011212522 0.035436139 0.37900001 4278728470
0.012443515 0.035436139 0.37900001 4278728470
0.013674506 0.035436139 0.37900001 4278860056
0.014905499 0.035436139 0.37900001 4278728470
0.016136492 0.035436139 0.37900001 4278531091
0.017367486 0.035436139 0.37900001 4278860056
0.018647552 0.03552964 0.38000003 4278662677
0.019881791 0.03552964 0.38000003 4278860056
0.021116031 0.03552964 0.38000003 4278794263
0.022350272 0.03552964 0.38000003 4278794263
0.023584513 0.03552964 0.38000003 4278662677
0.024818754 0.03552964 0.38000003 4278728470
0.026052997 0.03552964 0.38000003 4278662677
0.027287235 0.03552964 0.38000003 4278531091
0.028521474 0.03552964 0.38000003 4278662677
0.029755717 0.03552964 0.38000003 4278728470
0.030989956 0.03552964 0.38000003 4278662677
0.032224201 0.03552964 0.38000003 4278662677
0.033458438 0.03552964 0.38000003 4278662677
0.034692679 0.03552964 0.38000003 4278991642
0.035926919 0.03552964 0.38000003 4278662677
0.037258953 0.035623137 0.38100001 4278728472
0.038496442 0.035623137 0.38100001 4278728472
0.039733931 0.035623137 0.38100001 4278793752
0.040971417 0.035623137 0.38100001 4278727959
0.042208906 0.035623137 0.38100001 4278727959
0.04356043 0.035716638 0.38200003 4278858775
0.044801168 0.035716638 0.38200003 4279582498
0.046041902 0.035716638 0.38200003 4278858775
0.047406413 0.035810135 0.38300002 4278727189
0.048650399 0.035810135 0.38300002 4278989847
0.049894385 0.035810135 0.38300002 4279055640
0.051271889 0.035903633 0.384 4278857748
0.052519117 0.035903633 0.384 4279514656
0.05390637 0.035997134 0.38500002 4279054875
0.055156853 0.035997134 0.38500002 4279120666
0.056553848 0.036090631 0.38600001 4278727189
0.057957333 0.036184132 0.38700002 4278727959
0.059214313 0.036184132 0.38700002 4278531091
0.060627546 0.036277629 0.38800001 4278663447
0.061887767 0.036277629 0.38800001 4278729240
0.063147992 0.036277629 0.38800001 4278531861
0.06440822 0.036277629 0.38800001 4278729242
0.065668441 0.036277629 0.38800001 4278464533
-0.016036803 0.037054539 0.38300002 4283986018
-0.014792819 0.037054539 0.38300002 4284117604
-0.013548833 0.037054539 0.38300002 4284381289
-0.012304849 0.037054539 0.38300002 4284512875
-0.011060865 0.037054539 0.38300002 4284513391
-0.0098168794 0.037054539 0.38300002 4284644975
-0.0085728951 0.037054539 0.38300002 4284710768
-0.0073097749 0.036957793 0.38200003 4284973940
-0.0060690381 0.036957793 0.38200003 4284973940
-0.0048283017 0.036957793 0.38200003 4284843639
-0.0035875649 0.036957793 0.38200003 4284910202
-0.0023406844 0.036861043 0.38100001 4284647030
-0.0011031957 0.036861043 0.38100001 4283989098
0.00013394043 0.036764298 0.38000003 4282738515
0.0013681811 0.036764298 0.38000003 4281553728
0.0025955732 0.036667548 0.37900001 4280303409
0.0038265658 0.036667548 0.37900001 4279448352
0.0050575584 0.036667548 0.37900001 4278790935
0.0062885508 0.036667548 0.37900001 4278462740
0.0075195436 0.036667548 0.37900001 4278725912
0.0087505365 0.036667548 0.37900001 4279055390
0.0099815289 0.036667548 0.37900001 4278726425
0.011212522 0.036667548 0.37900001 4278990109
0.012443515 0.036667548 0.37900001 4279055902
0.013674506 0.036667548 0.37900001 4278990877
0.014905499 0.036667548 0.37900001 4278925084
0.016136492 0.036667548 0.37900001 4278859291
0.017367486 0.036667548 0.37900001 4278925597
0.018647552 0.036764298 0.38000003 4278859804
0.019881791 0.036764298 0.38000003 4278794011
0.021116031 0.036764298 0.38000003 4278794265
0.022350272 0.036764298 0.38000003 4278794265
0.023584513 0.036764298 0.38000003 4278728472
0.024818754 0.036764298 0.38000003 4278728472
0.026052997 0.036764298 0.38000003 4278794265
0.027287235 0.036764298 0.38000003 4278794265
0.028446417 0.036667548 0.37900001 4278662679
0.029677412 0.036667548 0.37900001 4278728472
0.030989956 0.036764298 0.38000003 4278728472
0.032224201 0.036764298 0.38000003 4278662679
0.033458438 0.036764298 0.38000003 4278531093
0.034692679 0.036764298 0.38000003 4278531093
0.035926919 0.036764298 0.38000003 4278662679
0.03716116 0.036764298 0.38000003 4278728472
0.038496442 0.036861043 0.38100001 4278662679
