# .PCD v0.7 - Point Cloud Data file format
VERSION 0.7
FIELDS x y z rgb
SIZE 4 4 4 4
TYPE F F F U
COUNT 1 1 1 1
WIDTH 894
HEIGHT 1
VIEWPOINT 0 0 0 1 0 0 0
POINTS 894
DATA ascii
-0.023554998 0.020217029 0.48700002 4279777567
-0.021882981 0.020134002 0.48500001 4280043301
-0.020307701 0.020134002 0.48500001 4279125535
-0.02350663 0.02175458 0.48600003 4278528013
-0.021882981 0.021709817 0.48500001 4279452447
-0.020265831 0.021665055 0.48400003 4278665496
-0.01861655 0.021575529 0.48200002 4278731289
-0.017051013 0.021575529 0.48200002 4278666781
-0.015453348 0.021530768 0.48100004 4278205978
-0.01389106 0.021530768 0.48100004 4278929701
-0.012303138 0.021486005 0.48000002 4278798115
-0.010744099 0.021486005 0.48000002 4278599964
-0.0091659222 0.021441242 0.47900003 4279060515
-0.0075942408 0.021396479 0.47800002 4278994209
-0.0060416963 0.021396479 0.47800002 4279191588
-0.023458261 0.023285633 0.48500001 4279250199
-0.021837862 0.023237621 0.48400003 4279253017
-0.020223958 0.02318961 0.48300001 4278664214
-0.01861655 0.023141598 0.48200002 4278664982
-0.017015638 0.023093587 0.48100004 4278336531
-0.015453348 0.023093587 0.48100004 4278468117
-0.01386218 0.023045575 0.48000002 4278402837
-0.012303138 0.023045575 0.48000002 4278402837
-0.010721715 0.022997564 0.47900003 4278402837
-0.0091467863 0.022949552 0.47800002 4278402837
-0.0075942408 0.022949552 0.47800002 4278468630
-0.0060290569 0.022901541 0.47700003 4278402837
-0.0044609774 0.022805518 0.47500002 4278402839
-0.0029120327 0.022757506 0.47400004 4278402839
-0.0013695842 0.022709493 0.47300002 4278929183
0.0001663681 0.022661483 0.47200003 4278666011
0.0016994249 0.022661483 0.47200003 4278402837
0.0032256332 0.02261347 0.47100002 4278929181
0.004755442 0.02261347 0.47100002 4278928670
-0.023458261 0.024861448 0.48500001 4279250199
-0.021792741 0.024758926 0.48300001 4279121431
-0.020182086 0.024707666 0.48200002 4278925590
-0.018577926 0.024656406 0.48100004 4278926101
-0.016980261 0.024605144 0.48000002 4278664212
-0.01542122 0.024605144 0.48000002 4278664212
-0.0138333 0.024553884 0.47900003 4278598419
-0.012277507 0.024553884 0.47900003 4278598419
-0.010699331 0.024502622 0.47800002 4278467603
-0.0091467863 0.024502622 0.47800002 4278401810
-0.0075783534 0.024451362 0.47700003 4278467603
-0.0060164174 0.0244001 0.47600001 4278204174
-0.0044609774 0.02434884 0.47500002 4278862361
-0.0029120327 0.02429758 0.47400004 4278466835
-0.0013695842 0.024246318 0.47300002 4278401810
0.00016672058 0.024246318 0.47300002 4278336017
0.0016994249 0.024195058 0.47200003 4278270738
0.0032324817 0.024195058 0.47200003 4278533910
0.004755442 0.024143796 0.47100002 4278533910
0.0062852511 0.024143796 0.47100002 4278665496
-0.023409896 0.026382752 0.48400003 4279119383
-0.021792741 0.026328241 0.48300001 4279056152
-0.020182086 0.026273731 0.48200002 4278465552
-0.018539302 0.026164712 0.48000002 4278795287
-0.016980261 0.026164712 0.48000002 4278730007
-0.015389093 0.026110204 0.47900003 4278664214
-0.0138333 0.026110204 0.47900003 4278466835
-0.012251875 0.026055692 0.47800002 4278335249
-0.010676947 0.026001183 0.47700003 4278335249
-0.0091276504 0.026001183 0.47700003 4278532626
-0.0075624655 0.025946673 0.47600001 4278598419
-0.0060164174 0.025946673 0.47600001 4278335247
-0.0044609774 0.025892163 0.47500002 4278858261
-0.0029120327 0.025837654 0.47400004 4278199303
-0.0013695842 0.025783144 0.47300002 4278335249
0.00016672058 0.025783144 0.47300002 4278466835
0.0017030254 0.025783144 0.47300002 4278335249
0.0032324817 0.025728634 0.47200003 4278532626
0.0047655385 0.025728634 0.47200003 4278335247
0.0062985956 0.025728634 0.47200003 4278466833
0.0078482442 0.025783144 0.47300002 4278467603
0.0093845492 0.025783144 0.47300002 4278467603
-0.023361526 0.027897557 0.48300001 4278922771
-0.021747623 0.027839798 0.48200002 4278859797
-0.020140216 0.027782042 0.48100004 4278730007
-0.018539302 0.027724281 0.48000002 4278795798
-0.016944887 0.027666522 0.47900003 4278467603
-0.015356964 0.027608763 0.47800002 4278599191
-0.013804421 0.027608763 0.47800002 4278532374
-0.012226244 0.027551005 0.47700003 4278466581
-0.010676947 0.027551005 0.47700003 4278335249
-0.0091085145 0.027493244 0.47600001 4278597908
-0.0075624655 0.027493244 0.47600001 4278532113
-0.006003778 0.027435487 0.47500002 4278400527
-0.0044609774 0.027435487 0.47500002 4278792468
-0.0029120327 0.027377728 0.47400004 4279055640
-0.0013724798 0.027377728 0.47400004 4278464785
0.00016707306 0.027377728 0.47400004 4278530578
0.0017030254 0.027319968 0.47300002 4278727957
0.0032393301 0.027319968 0.47300002 4278925590
0.004775635 0.027319968 0.47300002 4278728724
0.00631194 0.027319968 0.47300002 4278728724
0.0078648375 0.027377728 0.47400004 4278465552
0.0094043901 0.027377728 0.47400004 4278531345
0.010967032 0.027435487 0.47500002 4278794517
0.012509832 0.027435487 0.47500002 4278663701
0.014082218 0.027493244 0.47600001 4278532628
0.015628267 0.027493244 0.47600001 4278927386
0.021812461 0.027493244 0.47600001 4278532626
0.023358511 0.027493244 0.47600001 4278466833
0.024852239 0.027435487 0.47500002 4278335247
0.02758494 0.027088933 0.46900001 4278664212
0.029046191 0.027031174 0.46800002 4278599189
0.030566255 0.027031174 0.46800002 4278796568
0.03201776 0.026973415 0.46700001 4278862361
0.033534575 0.026973415 0.46700001 4278862361
0.035051391 0.026973415 0.46700001 4279059740
0.036646515 0.027031174 0.46800002 4278862361
0.038248129 0.027088933 0.46900001 4279059742
0.039856248 0.027146691 0.47000003 4279125281
-0.023361526 0.029466873 0.48300001 4279054355
-0.021747623 0.029405866 0.48200002 4278925590
-0.020140216 0.029344859 0.48100004 4278730007
-0.018539302 0.02928385 0.48000002 4278664982
-0.016944887 0.029222842 0.47900003 4278467603
-0.015356964 0.029161833 0.47800002 4278336017
-0.013775541 0.029100826 0.47700003 4278532628
-0.012226244 0.029100826 0.47700003 4278466835
-0.010654564 0.029039817 0.47600001 4278532115
-0.0091085145 0.029039817 0.47600001 4278597908
-0.0075624655 0.029039817 0.47600001 4278268943
-0.006003778 0.02897881 0.47500002 4278531345
-0.0044609774 0.02897881 0.47500002 4278196742
-0.0029181761 0.02897881 0.47500002 4279054357
-0.0013724798 0.028917802 0.47400004 4279450398
0.00016707306 0.028917802 0.47400004 4278262790
0.0017066259 0.028917802 0.47400004 4278195718
0.0032461786 0.028917802 0.47400004 4278327304
0.0047857314 0.028917802 0.47400004 4278393095
0.006325285 0.028917802 0.47400004 4278195458
0.0078648375 0.028917802 0.47400004 4278195714
0.0094043901 0.028917802 0.47400004 4278196999
0.010967032 0.02897881 0.47500002 4278196225
0.012536168 0.029039817 0.47600001 4278396427
0.014082218 0.029039817 0.47600001 4278924568
0.015628267 0.029039817 0.47600001 4278794263
0.017174315 0.029039817 0.47600001 4278399505
0.018720362 0.029039817 0.47600001 4278662677
0.020266412 0.029039817 0.47600001 4278531345
0.021812461 0.029039817 0.47600001 4278334736
0.023358511 0.029039817 0.47600001 4278334736
0.024852239 0.02897881 0.47500002 4278532115
0.026339471 0.028917802 0.47400004 4278334736
0.027702574 0.028734777 0.47100002 4278597908
0.029170319 0.02867377 0.47000003 4278466835
0.030631566 0.028612761 0.46900001 4278532628
0.03215488 0.028612761 0.46900001 4278533398
0.033678193 0.028612761 0.46900001 4278467605
0.035201505 0.028612761 0.46900001 4278467603
0.036803123 0.02867377 0.47000003 4278533396
0.038411234 0.028734777 0.47100002 4278664982
0.039941046 0.028734777 0.47100002 4278731289
0.041558903 0.028795786 0.47200003 4278665496
0.043274552 0.028917802 0.47400004 4278797084
0.04490865 0.02897881 0.47500002 4278797084
0.046549242 0.029039817 0.47600001 4278993949
0.048196334 0.029100826 0.47700003 4279059488
0.049849916 0.029161833 0.47800002 4278927904
-0.023361526 0.031036191 0.48300001 4279317527
-0.021747623 0.030971935 0.48200002 4278925590
-0.020098343 0.03084342 0.48000002 4278598421
-0.01850068 0.030779164 0.47900003 4278795800
-0.016944887 0.030779164 0.47900003 4278599189
-0.015356964 0.030714905 0.47800002 4278401810
-0.013775541 0.030650649 0.47700003 4278335247
-0.012226244 0.030650649 0.47700003 4278598419
-0.010654564 0.030586392 0.47600001 4278664212
-0.0091085145 0.030586392 0.47600001 4278532113
-0.0075624655 0.030586392 0.47600001 4278728724
-0.006003778 0.030522134 0.47500002 4278860310
-0.0044609774 0.030522134 0.47500002 4278195456
-0.0029181761 0.030522134 0.47500002 4279185943
-0.0013753753 0.030522134 0.47500002 4278922004
0.00016742553 0.030522134 0.47500002 4278589709
0.0017066259 0.030457878 0.47400004 4278588941
0.0032461786 0.030457878 0.47400004 4278523148
0.0047857314 0.030457878 0.47400004 4278720013
0.006325285 0.030457878 0.47400004 4278720013
0.007881429 0.030522134 0.47500002 4278720525
0.009424231 0.030522134 0.47500002 4278523146
0.01099012 0.030586392 0.47600001 4278523146
0.012536168 0.030586392 0.47600001 4278523146
0.014082218 0.030586392 0.47600001 4278194944
0.015628267 0.030586392 0.47600001 4278791701
0.017174315 0.030586392 0.47600001 4278923287
0.018720362 0.030586392 0.47600001 4278331152
0.020266412 0.030586392 0.47600001 4278198538
0.021812461 0.030586392 0.47600001 4278196483
0.023358511 0.030586392 0.47600001 4278195456
0.024852239 0.030522134 0.47500002 4278195456
0.026339471 0.030457878 0.47400004 4278196738
0.027761392 0.030329363 0.47200003 4278199307
0.02929445 0.030329363 0.47200003 4278331663
0.03076219 0.030265106 0.47100002 4278858775
0.032292001 0.030265106 0.47100002 4278596373
0.03382181 0.030265106 0.47100002 4278662679
0.035351615 0.030265106 0.47100002 4278334484
0.036959734 0.030329363 0.47200003 4278268691
0.038492788 0.030329363 0.47200003 4278531861
0.040110648 0.030393621 0.47300002 4278663447
0.041735001 0.030457878 0.47400004 4278466581
0.043365847 0.030522134 0.47500002 4278663960
0.045003194 0.030586392 0.47600001 4278993179
0.046647035 0.030650649 0.47700003 4278599191
0.048297372 0.030714905 0.47800002 4278664984
0.049849916 0.030714905 0.47800002 4278862363
0.051509999 0.030779164 0.47900003 4278993949
0.053176578 0.03084342 0.48000002 4279059742
0.054735616 0.03084342 0.48000002 4278860574
-0.023361526 0.032605506 0.48300001 4279383574
-0.021747623 0.032538 0.48200002 4278399244
-0.020098343 0.032402989 0.48000002 4278730005
-0.01850068 0.032335483 0.47900003 4278795798
-0.016944887 0.032335483 0.47900003 4278599189
-0.015356964 0.032267977 0.47800002 4278599189
-0.013775541 0.032200471 0.47700003 4278401810
-0.012226244 0.032200471 0.47700003 4278336017
-0.010654564 0.032132965 0.47600001 4278466833
-0.0091085145 0.032132965 0.47600001 4278664212
-0.0075624655 0.032132965 0.47600001 4278663699
-0.0060164174 0.032132965 0.47600001 4278860310
-0.0044609774 0.032065459 0.47500002 4278195457
-0.0029181761 0.032065459 0.47500002 4279055125
-0.0013753753 0.032065459 0.47500002 4278526476
0.00016742553 0.032065459 0.47500002 4278458377
0.0017102263 0.032065459 0.47500002 4278919187
0.0032530271 0.032065459 0.47500002 4278458123
0.0047958279 0.032065459 0.47500002 4280168225
0.0063386289 0.032065459 0.47500002 4279115537
0.007881429 0.032065459 0.47500002 4279774237
0.009424231 0.032065459 0.47500002 4279049744
0.01099012 0.032132965 0.47600001 4278983697
0.012536168 0.032132965 0.47600001 4279181076
0.014082218 0.032132965 0.47600001 4278262281
0.015628267 0.032132965 0.47600001 4278923287
0.017174315 0.032132965 0.47600001 4278727189
0.018759692 0.032200471 0.47700003 4278858775
0.020266412 0.032132965 0.47600001 4279055640
0.021812461 0.032132965 0.47600001 4278989847
0.023358511 0.032132965 0.47600001 4278858261
0.024904558 0.032132965 0.47600001 4278858261
0.02639504 0.032065459 0.47500002 4278858261
0.027879026 0.031997953 0.47400004 4279450398
0.029356513 0.031930447 0.47300002 4279055640
0.030892815 0.031930447 0.47300002 4278726675
0.032429121 0.031930447 0.47300002 4279054873
0.033965427 0.031930447 0.47300002 4278199307
0.03550173 0.031930447 0.47300002 4278196480
0.037038036 0.031930447 0.47300002 4278195456
0.038655896 0.031997953 0.47400004 4278195456
0.040280249 0.032065459 0.47500002 4278195456
0.041911095 0.032132965 0.47600001 4278198276
0.043548442 0.032200471 0.47700003 4278200074
0.045097739 0.032200471 0.47700003 4278596371
0.046744827 0.032267977 0.47800002 4278794263
0.048398416 0.032335483 0.47900003 4278532374
0.049954206 0.032335483 0.47900003 4278466581
0.051617533 0.032402989 0.48000002 4278664214
0.053176578 0.032402989 0.48000002 4278928156
0.054735616 0.032402989 0.48000002 4279058972
0.056294661 0.032402989 0.48000002 4278465046
-0.023361526 0.034174822 0.48300001 4279252504
-0.021747623 0.034104068 0.48200002 4278794004
-0.020140216 0.034033313 0.48100004 4278729492
-0.018539302 0.033962559 0.48000002 4278730005
-0.016944887 0.033891805 0.47900003 4278598419
-0.015356964 0.033821046 0.47800002 4278466833
-0.013775541 0.033750292 0.47700003 4278532626
-0.012226244 0.033750292 0.47700003 4278532626
-0.010654564 0.033679534 0.47600001 4278466833
-0.0091085145 0.033679534 0.47600001 4278795798
-0.0075624655 0.033679534 0.47600001 4278532115
-0.0060164174 0.033679534 0.47600001 4278266636
-0.0044703684 0.033679534 0.47600001 4278197511
-0.0029181761 0.033608783 0.47500002 4278923541
-0.0013753753 0.033608783 0.47500002 4278196742
0.00016742553 0.033608783 0.47500002 4278655756
0.0017102263 0.033608783 0.47500002 4278194693
0.0032530271 0.033608783 0.47500002 4278984980
0.0047958279 0.033608783 0.47500002 4279971616
0.0063386289 0.033608783 0.47500002 4278195205
0.007881429 0.033608783 0.47500002 4278260998
0.009444071 0.033679534 0.47600001 4278589963
0.01099012 0.033679534 0.47600001 4279445783
0.012536168 0.033679534 0.47600001 4278393095
0.014082218 0.033679534 0.47600001 4278657550
0.015628267 0.033679534 0.47600001 4278858261
0.017174315 0.033679534 0.47600001 4278198537
0.018759692 0.033750292 0.47700003 4278262792
0.020266412 0.033679534 0.47600001 4278196744
0.021812461 0.033679534 0.47600001 4278330380
0.023358511 0.033679534 0.47600001 4279054873
0.024904558 0.033679534 0.47600001 4278200077
0.026450608 0.033679534 0.47600001 4278791955
0.027937841 0.033608783 0.47500002 4278197762
0.029480642 0.033608783 0.47500002 4278989847
0.030958129 0.033538029 0.47400004 4278727187
0.032497685 0.033538029 0.47400004 4278530578
0.034109045 0.033608783 0.47500002 4278727957
0.035651844 0.033608783 0.47500002 4278924566
0.037194647 0.033608783 0.47500002 4278924566
0.038818996 0.033679534 0.47600001 4278924566
0.040365048 0.033679534 0.47600001 4278858773
0.041999146 0.033750292 0.47700003 4278989845
0.043639734 0.033821046 0.47800002 4278726162
0.045192283 0.033821046 0.47800002 4278197511
0.04684262 0.033891805 0.47900003 4279120920
0.048398416 0.033891805 0.47900003 4278531861
0.050058495 0.033962559 0.48000002 4278400275
0.051617533 0.033962559 0.48000002 4278663447
0.053176578 0.033962559 0.48000002 4278597654
0.054735616 0.033962559 0.48000002 4278663447
0.056411941 0.034033313 0.48100004 4278201613
0.05797423 0.034033313 0.48100004 4284910200
-0.023409896 0.035818145 0.48400003 4279646746
-0.021747623 0.035670135 0.48200002 4278859027
-0.020140216 0.035596132 0.48100004 4278861080
-0.018539302 0.035522126 0.48000002 4278795285
-0.016944887 0.035448123 0.47900003 4278730005
-0.015356964 0.035374116 0.47800002 4278532626
-0.013804421 0.035374116 0.47800002 4278664212
-0.012226244 0.035300113 0.47700003 4278466833
-0.010676947 0.035300113 0.47700003 4278532626
-0.0091085145 0.035226107 0.47600001 4278598419
-0.0075624655 0.035226107 0.47600001 4278532113
-0.0060164174 0.035226107 0.47600001 4278661648
-0.0044703684 0.035226107 0.47600001 4278460683
-0.0029243196 0.035226107 0.47600001 4278726675
-0.0013782708 0.035226107 0.47600001 4278195973
0.00016742553 0.035152104 0.47500002 4278523916
0.0017102263 0.035152104 0.47500002 4278458125
0.0032530271 0.035152104 0.47500002 4278588941
0.0047958279 0.035152104 0.47500002 4278523146
0.0063386289 0.035152104 0.47500002 4278391560
0.007881429 0.035152104 0.47500002 4278391560
0.009444071 0.035226107 0.47600001 4278260228
0.01099012 0.035226107 0.47600001 4278327302
0.012536168 0.035226107 0.47600001 4278195716
0.014082218 0.035226107 0.47600001 4278921234
0.015628267 0.035226107 0.47600001 4279121433
0.017174315 0.035226107 0.47600001 4278393867
0.018720362 0.035226107 0.47600001 4278589963
0.020266412 0.035226107 0.47600001 4278458890
0.021812461 0.035226107 0.47600001 4278195971
0.023358511 0.035226107 0.47600001 4279055386
0.024904558 0.035226107 0.47600001 4278197508
0.026450608 0.035226107 0.47600001 4278199561
0.027996656 0.035226107 0.47600001 4279055127
0.029542705 0.035226107 0.47600001 4278198019
0.031088753 0.035226107 0.47600001 4278196736
0.032634802 0.035226107 0.47600001 4278197248
0.03418085 0.035226107 0.47600001 4278397197
0.035726897 0.035226107 0.47600001 4278595089
0.037351254 0.035300113 0.47700003 4278197504
0.03890055 0.035300113 0.47700003 4278595601
0.040534649 0.035374116 0.47800002 4278398222
0.042087194 0.035374116 0.47800002 4278530578
0.043731034 0.035448123 0.47900003 4278727957
0.045286831 0.035448123 0.47900003 4278593293
0.046940412 0.035522126 0.48000002 4279054355
0.048499454 0.035522126 0.48000002 4278531091
0.050058495 0.035522126 0.48000002 4278794263
0.051725071 0.035596132 0.48100004 4278597654
0.053287365 0.035596132 0.48100004 4278531861
0.054849651 0.035596132 0.48100004 4278663447
0.056411941 0.035596132 0.48100004 4278531093
0.05797423 0.035596132 0.48100004 4284646258
-0.028532773 0.037931483 0.49100003 4284971882
-0.02682828 0.037776977 0.48900002 4281287989
-0.023458261 0.037467964 0.48500001 4279319326
-0.021792741 0.037313454 0.48300001 4278925849
-0.020140216 0.037158951 0.48100004 4278992664
-0.018539302 0.037081696 0.48000002 4278992664
-0.016944887 0.037004441 0.47900003 4278861078
-0.015356964 0.036927186 0.47800002 4278335247
-0.013804421 0.036927186 0.47800002 4278466833
-0.012226244 0.036849935 0.47700003 4278598417
-0.010676947 0.036849935 0.47700003 4278664210
-0.0091276504 0.036849935 0.47700003 4278598419
-0.0075624655 0.03677268 0.47600001 4278991896
-0.0060164174 0.03677268 0.47600001 4278200586
-0.0044703684 0.03677268 0.47600001 4278265611
-0.0029243196 0.03677268 0.47600001 4278858775
-0.0013782708 0.03677268 0.47600001 4279187226
0.00016777799 0.03677268 0.47600001 4278527761
0.0017138268 0.03677268 0.47600001 4278721549
0.0032530271 0.036695428 0.47500002 4278391814
0.0047958279 0.036695428 0.47500002 4278588939
0.0063386289 0.036695428 0.47500002 4278391560
0.007881429 0.036695428 0.47500002 4278654732
0.009444071 0.03677268 0.47600001 4278720011
0.01099012 0.03677268 0.47600001 4278720011
0.012536168 0.03677268 0.47600001 4278720265
0.014082218 0.03677268 0.47600001 4279973922
0.015628267 0.03677268 0.47600001 4279581471
0.017174315 0.03677268 0.47600001 4278789136
0.018720362 0.03677268 0.47600001 4278655756
0.020266412 0.03677268 0.47600001 4279052308
0.021812461 0.03677268 0.47600001 4279383068
0.023358511 0.03677268 0.47600001 4278199307
0.024904558 0.03677268 0.47600001 4278923287
0.026450608 0.03677268 0.47600001 4278265357
0.027996656 0.03677268 0.47600001 4278199047
0.029542705 0.03677268 0.47600001 4278594576
0.031088753 0.03677268 0.47600001 4278199561
0.032703366 0.036849935 0.47700003 4278922004
0.034252662 0.036849935 0.47700003 4278329097
0.035801958 0.036849935 0.47700003 4278195968
0.037351254 0.036849935 0.47700003 4279449115
0.038982101 0.036927186 0.47800002 4278725392
0.040534649 0.036927186 0.47800002 4278856465
0.042175245 0.037004441 0.47900003 4278331402
0.043731034 0.037004441 0.47900003 4278859027
0.045381371 0.037081696 0.48000002 4278198791
0.046940412 0.037081696 0.48000002 4279186711
0.048499454 0.037081696 0.48000002 4278662677
0.050162785 0.037158951 0.48100004 4278662677
0.051725071 0.037158951 0.48100004 4278531861
0.053287365 0.037158951 0.48100004 4278663447
0.054849651 0.037158951 0.48100004 4278662677
0.056411941 0.037158951 0.48100004 4279254303
0.05797423 0.037158951 0.48100004 4284186477
-0.026938006 0.039526794 0.49100003 4284709995
-0.02350663 0.03912428 0.48600003 4279777826
-0.021837862 0.038963273 0.48400003 4279187740
-0.020182086 0.03880227 0.48200002 4278992412
-0.018577926 0.038721766 0.48100004 4278795287
-0.016980261 0.038641263 0.48000002 4278663701
-0.015389093 0.038560763 0.47900003 4278729492
-0.013804421 0.038480259 0.47800002 4278663699
-0.012251875 0.038480259 0.47800002 4278729492
-0.010676947 0.038399756 0.47700003 4278532113
-0.0091276504 0.038399756 0.47700003 4278663699
-0.0075783534 0.038399756 0.47700003 4278532115
-0.0060290569 0.038399756 0.47700003 4278794517
-0.0044703684 0.038319252 0.47600001 4278399246
-0.0029243196 0.038319252 0.47600001 4278728211
-0.0013782708 0.038319252 0.47600001 4278860310
0.00016777799 0.038319252 0.47600001 4278662931
0.0017138268 0.038319252 0.47600001 4278859543
0.0032598756 0.038319252 0.47600001 4279056152
0.0047958279 0.038238753 0.47500002 4278989845
0.0063386289 0.038238753 0.47500002 4279187224
0.007881429 0.038238753 0.47500002 4279121433
0.009444071 0.038319252 0.47600001 4279647264
0.01099012 0.038319252 0.47600001 4279448602
0.012536168 0.038319252 0.47600001 4279514395
0.014082218 0.038319252 0.47600001 4279383322
0.015628267 0.038319252 0.47600001 4278198534
0.017174315 0.038319252 0.47600001 4278196225
0.018720362 0.038319252 0.47600001 4278194432
0.020266412 0.038319252 0.47600001 4278193920
0.021812461 0.038319252 0.47600001 4278194944
0.023358511 0.038319252 0.47600001 4278196996
0.024904558 0.038319252 0.47600001 4278461453
0.026450608 0.038319252 0.47600001 4278857748
0.028055474 0.038399756 0.47700003 4279186713
0.02960477 0.038399756 0.47700003 4279120918
0.031154066 0.038399756 0.47700003 4279121431
0.032703366 0.038399756 0.47700003 4279055638
0.034252662 0.038399756 0.47700003 4278989845
0.035877012 0.038480259 0.47800002 4278858259
0.03742956 0.038480259 0.47800002 4278660367
0.038982101 0.038480259 0.47800002 4279055127
0.040619452 0.038560763 0.47900003 4278593806
0.042175245 0.038560763 0.47900003 4278199816
0.043822329 0.038641263 0.48000002 4278792466
0.045381371 0.038641263 0.48000002 4278195456
0.046940412 0.038641263 0.48000002 4278726162
0.048499454 0.038641263 0.48000002 4278793750
0.050162785 0.038721766 0.48100004 4278531091
0.051725071 0.038721766 0.48100004 4278531091
0.053287365 0.038721766 0.48100004 4278662677
0.054849651 0.038721766 0.48100004 4278728472
0.056411941 0.038721766 0.48100004 4279188510
0.05797423 0.038721766 0.48100004 4283396961
-0.023603365 0.040870849 0.48800004 4284776301
-0.021882981 0.040619589 0.48500001 4280960821
-0.020223958 0.040452085 0.48300001 4278792218
-0.018577926 0.040284585 0.48100004 4278990111
-0.016980261 0.040200833 0.48000002 4279319844
-0.015389093 0.040117081 0.47900003 4279319842
-0.013804421 0.040033329 0.47800002 4279254816
-0.012251875 0.040033329 0.47800002 4278991644
-0.010699331 0.040033329 0.47800002 4278794263
-0.0091276504 0.039949577 0.47700003 4278925849
-0.0075783534 0.039949577 0.47700003 4278860058
-0.0060290569 0.039949577 0.47700003 4278860058
-0.0044797603 0.039949577 0.47700003 4278860056
-0.0029243196 0.039865825 0.47600001 4278399505
-0.0013782708 0.039865825 0.47600001 4278794263
0.00016777799 0.039865825 0.47600001 4278333712
0.0017138268 0.039865825 0.47600001 4278728724
0.0032598756 0.039865825 0.47600001 4278926103
0.0048059244 0.039865825 0.47600001 4278728724
0.0063386289 0.039782073 0.47500002 4278531345
0.007881429 0.039782073 0.47500002 4278728724
0.009424231 0.039782073 0.47500002 4278860310
0.01099012 0.039865825 0.47600001 4278794004
0.012536168 0.039865825 0.47600001 4278990613
0.014082218 0.039865825 0.47600001 4278990613
0.015628267 0.039865825 0.47600001 4279056406
0.017174315 0.039865825 0.47600001 4278924820
0.018720362 0.039865825 0.47600001 4278859027
0.020266412 0.039865825 0.47600001 4278990099
0.021812461 0.039865825 0.47600001 4279121431
0.023358511 0.039865825 0.47600001 4279252504
0.024904558 0.039865825 0.47600001 4279186711
0.026450608 0.039865825 0.47600001 4279384092
0.028055474 0.039949577 0.47700003 4278791955
0.02960477 0.039949577 0.47700003 4279185943
0.031154066 0.039949577 0.47700003 4278396427
0.032771926 0.040033329 0.47800002 4278196736
0.034324467 0.040033329 0.47800002 4278194432
0.035877012 0.040033329 0.47800002 4278195200
0.03742956 0.040033329 0.47800002 4278193920
0.039063655 0.040117081 0.47900003 4278197510
0.040619452 0.040117081 0.47900003 4278527246
0.042175245 0.040117081 0.47900003 4279054103
0.043822329 0.040200833 0.48000002 4279383068
0.045381371 0.040200833 0.48000002 4278196224
0.046940412 0.040200833 0.48000002 4279056154
0.048600499 0.040284585 0.48100004 4278793750
0.050162785 0.040284585 0.48100004 4278793750
0.051725071 0.040284585 0.48100004 4278728470
0.053287365 0.040284585 0.48100004 4278991642
0.054849651 0.040284585 0.48100004 4278860056
0.056411941 0.040284585 0.48100004 4278595603
0.05797423 0.040284585 0.48100004 4284843126
-0.020265831 0.042108405 0.48400003 4284710508
-0.01861655 0.041934405 0.48200002 4285039987
-0.017015638 0.041847404 0.48100004 4285303929
-0.01542122 0.0417604 0.48000002 4284711538
-0.0138333 0.0416734 0.47900003 4283331168
-0.012251875 0.041586399 0.47800002 4281686343
-0.010699331 0.041586399 0.47800002 4279975209
-0.0091467863 0.041586399 0.47800002 4278790935
-0.0075783534 0.041499399 0.47700003 4278660892
-0.0060290569 0.041499399 0.47700003 4278858271
-0.0044797603 0.041499399 0.47700003 4279055902
-0.0029304633 0.041499399 0.47700003 4279121179
-0.0013782708 0.041412398 0.47600001 4279121693
0.00016777799 0.041412398 0.47600001 4279187740
0.0017138268 0.041412398 0.47600001 4278859543
0.0032598756 0.041412398 0.47600001 4278794263
0.0048059244 0.041412398 0.47600001 4278794263
0.0063519734 0.041412398 0.47600001 4278991642
0.007881429 0.041325398 0.47500002 4278794263
0.009424231 0.041325398 0.47500002 4278728470
0.010967032 0.041325398 0.47500002 4278728724
0.012509832 0.041325398 0.47500002 4278860310
0.014052633 0.041325398 0.47500002 4278531345
0.015628267 0.041412398 0.47600001 4278531091
0.017174315 0.041412398 0.47600001 4278662677
0.018720362 0.041412398 0.47600001 4278662677
0.020266412 0.041412398 0.47600001 4278662677
0.021812461 0.041412398 0.47600001 4278662677
0.023358511 0.041412398 0.47600001 4278860056
0.024904558 0.041412398 0.47600001 4278794263
0.026450608 0.041412398 0.47600001 4278860056
0.028055474 0.041499399 0.47700003 4278727957
0.02960477 0.041499399 0.47700003 4278727441
0.031154066 0.041499399 0.47700003 4278727441
0.032771926 0.041586399 0.47800002 4278924820
0.034324467 0.041586399 0.47800002 4278990613
0.035877012 0.041586399 0.47800002 4279121945
0.037507866 0.0416734 0.47900003 4278990359
0.039063655 0.0416734 0.47900003 4279120918
0.040619452 0.0416734 0.47900003 4279252504
0.042263292 0.0417604 0.48000002 4279186713
0.043822329 0.0417604 0.48000002 4279318299
0.045381371 0.0417604 0.48000002 4279318812
0.046940412 0.0417604 0.48000002 4278858775
0.048600499 0.041847404 0.48100004 4278728470
0.050162785 0.041847404 0.48100004 4278728470
0.051725071 0.041847404 0.48100004 4278925849
0.053287365 0.041847404 0.48100004 4278728470
0.054849651 0.041847404 0.48100004 4278991131
0.056411941 0.041847404 0.48100004 4281489218
0.05797423 0.041847404 0.48100004 4284579182
-0.01861655 0.043500472 0.48200002 4284710254
-0.017015638 0.043410223 0.48100004 4284710770
-0.01542122 0.043319974 0.48000002 4284842356
-0.0138333 0.043229725 0.47900003 4284776563
-0.012251875 0.043139473 0.47800002 4284710770
-0.010699331 0.043139473 0.47800002 4284776563
-0.0091467863 0.043139473 0.47800002 4284776561
-0.0075783534 0.043049224 0.47700003 4284381803
-0.0060290569 0.043049224 0.47700003 4284514159
-0.0044797603 0.043049224 0.47700003 4284053608
-0.0029304633 0.043049224 0.47700003 4284052838
-0.0013782708 0.042958971 0.47600001 4283723873
0.00016777799 0.042958971 0.47600001 4282408013
0.0017138268 0.042958971 0.47600001 4280303661
0.0032598756 0.042958971 0.47600001 4280173358
0.0048059244 0.042958971 0.47600001 4278990111
0.0063519734 0.042958971 0.47600001 4278463767
0.007881429 0.042868722 0.47500002 4278463765
0.009424231 0.042868722 0.47500002 4278726937
0.010967032 0.042868722 0.47500002 4278990107
0.012509832 0.042868722 0.47500002 4278990107
0.014052633 0.042868722 0.47500002 4278925084
0.015595434 0.042868722 0.47500002 4279056670
0.017138233 0.042868722 0.47500002 4279056924
0.018681034 0.042868722 0.47500002 4278925338
0.020266412 0.042958971 0.47600001 4278859545
0.021812461 0.042958971 0.47600001 4278925851
0.023358511 0.042958971 0.47600001 4278728472
0.024904558 0.042958971 0.47600001 4278991644
0.026450608 0.042958971 0.47600001 4278728472
0.028055474 0.043049224 0.47700003 4278859545
0.02960477 0.043049224 0.47700003 4278859543
0.031219378 0.043139473 0.47800002 4278793750
0.032771926 0.043139473 0.47800002 4278925336
0.034324467 0.043139473 0.47800002 4278727957
0.035877012 0.043139473 0.47800002 4278925336
0.037507866 0.043229725 0.47900003 4278925336
0.039063655 0.043229725 0.47900003 4278991129
0.040619452 0.043229725 0.47900003 4278991129
0.042263292 0.043319974 0.48000002 4278859543
0.043822329 0.043319974 0.48000002 4278793750
0.045381371 0.043319974 0.48000002 4278859543
0.046940412 0.043319974 0.48000002 4278793750
0.048600499 0.043410223 0.48100004 4278859543
0.050162785 0.043410223 0.48100004 4278794263
0.051725071 0.043410223 0.48100004 4278991642
0.053287365 0.043410223 0.48100004 4278991642
0.054849651 0.043410223 0.48100004 4278331667
0.056411941 0.043410223 0.48100004 4284580467
0.05797423 0.043410223 0.48100004 4284514159
0.012509832 0.044412047 0.47500002 4285106550
0.014052633 0.044412047 0.47500002 4284514411
0.015595434 0.044412047 0.47500002 4283659615
0.017138233 0.044412047 0.47500002 4281555011
0.018681034 0.044412047 0.47500002 4280436276
0.020223835 0.044412047 0.47500002 4279646760
0.021812461 0.044505544 0.47600001 4278791703
0.023358511 0.044505544 0.47600001 4278594835
0.024904558 0.044505544 0.47600001 4278529044
0.026506176 0.044599045 0.47700003 4278529044
0.028055474 0.044599045 0.47700003 4278529044
0.02960477 0.044599045 0.47700003 4279054875
0.031219378 0.044692542 0.47800002 4278397458
0.032771926 0.044692542 0.47800002 4278989593
0.034324467 0.044692542 0.47800002 4278397456
0.035877012 0.044692542 0.47800002 4279121179
0.037507866 0.044786043 0.47900003 4278595349
0.039063655 0.044786043 0.47900003 4278990109
0.040619452 0.044786043 0.47900003 4279121695
0.042263292 0.044879541 0.48000002 4278858523
0.043822329 0.044879541 0.48000002 4279055902
0.045381371 0.044879541 0.48000002 4279056670
0.046940412 0.044879541 0.48000002 4278596119
0.048600499 0.044973042 0.48100004 4279384865
0.050162785 0.044973042 0.48100004 4279187486
0.051725071 0.044973042 0.48100004 4279121179
0.053287365 0.044973042 0.48100004 4279975977
0.054849651 0.044973042 0.48100004 4284909171
0.056411941 0.044973042 0.48100004 4284382827
0.05797423 0.044973042 0.48100004 4283987817
0.026506176 0.046148866 0.47700003 4284974964
0.028055474 0.046148866 0.47700003 4284843378
0.02960477 0.046148866 0.47700003 4284909171
0.031219378 0.046245612 0.47800002 4285106550
0.032771926 0.046245612 0.47800002 4284909171
0.034324467 0.046245612 0.47800002 4285040503
0.035877012 0.046245612 0.47800002 4284908917
0.037507866 0.046342365 0.47900003 4284974710
0.039063655 0.046342365 0.47900003 4285303675
0.040619452 0.046342365 0.47900003 4284974710
0.042263292 0.046439111 0.48000002 4285106296
0.043822329 0.046439111 0.48000002 4285303675
0.045381371 0.046439111 0.48000002 4284645745
0.046940412 0.046439111 0.48000002 4284777844
0.048600499 0.046535861 0.48100004 4284909430
0.050162785 0.046535861 0.48100004 4284777844
0.051725071 0.046535861 0.48100004 4284711538
0.053287365 0.046535861 0.48100004 4284579182
0.054849651 0.046535861 0.48100004 4284645229
0.042263292 0.047998678 0.48000002 4284842354
0.043822329 0.047998678 0.48000002 4284710768
0.045381371 0.047998678 0.48000002 4284710768
0.046940412 0.047998678 0.48000002 4284710768
0.048600499 0.04809868 0.48100004 4284644975
0.050162785 0.04809868 0.48100004 4284644975
0.051725071 0.04809868 0.48100004 4284579182
0.053287365 0.04809868 0.48100004 4284710768
0.015133187 0.035100978 0.47724608 4294967295
0.015133187 0.035100978 0.47724608 4294901760
0.015133187 0.035100978 0.47774607 4294901760
0.015133187 0.035100978 0.47824606 4294901760
0.015133187 0.035100978 0.47874609 4294901760
0.015133187 0.035100978 0.47924608 4294901760
0.015133187 0.035100978 0.47974607 4294901760
0.015133187 0.035100978 0.48024607 4294901760
0.015133187 0.035100978 0.48074606 4294901760
0.015133187 0.035100978 0.48124608 4294901760
0.015133187 0.035100978 0.48174608 4294901760
0.015133187 0.035100978 0.48224607 4294901760
0.015133187 0.035100978 0.48274606 4294901760
0.015133187 0.035100978 0.48324609 4294901760
0.015133187 0.035100978 0.48374608 4294901760
0.015133187 0.035100978 0.48424608 4294901760
0.015133187 0.035100978 0.48474607 4294901760
0.015133187 0.035100978 0.48524606 4294901760
0.015133187 0.035100978 0.48574609 4294901760
0.015133187 0.035100978 0.48624608 4294901760
0.015133187 0.035100978 0.48674607 4294901760
0.015133187 0.035100978 0.48724607 4294901760
0.015133187 0.035100978 0.48774606 4294901760
0.015133187 0.035100978 0.48824608 4294901760
0.015133187 0.035100978 0.48874608 4294901760
0.015133187 0.035100978 0.48924607 4294901760
0.015133187 0.035100978 0.48974606 4294901760
0.015133187 0.035100978 0.49024606 4294901760
0.015133187 0.035100978 0.49074608 4294901760
0.015133187 0.035100978 0.49124607 4294901760
0.015133187 0.035100978 0.49174607 4294901760
0.015133187 0.035100978 0.49224606 4294901760
0.015133187 0.035100978 0.49274606 4294901760
0.015133187 0.035100978 0.49324608 4294901760
0.015133187 0.035100978 0.49374607 4294901760
0.015133187 0.035100978 0.49424607 4294901760
0.015133187 0.035100978 0.49474606 4294901760
0.015133187 0.035100978 0.49524608 4294901760
0.015133187 0.035100978 0.49574608 4294901760
0.015133187 0.035100978 0.49624607 4294901760
0.015133187 0.035100978 0.49674606 4294901760
0.015133187 0.035100978 0.49724606 4294901760
0.015133187 0.035100978 0.49774608 4294901760
0.015133187 0.035100978 0.49824607 4294901760
0.015133187 0.035100978 0.49874607 4294901760
0.015133187 0.035100978 0.49924606 4294901760
0.015133187 0.035100978 0.49974605 4294901760
0.015133187 0.035100978 0.50024605 4294901760
0.015133187 0.035100978 0.50074607 4294901760
0.015133187 0.035100978 0.50124609 4294901760
0.015133187 0.035100978 0.50174606 4294901760
0.015133187 0.035100978 0.50224608 4294901760
0.015133187 0.035100978 0.50274605 4294901760
0.015133187 0.035100978 0.50324607 4294901760
0.015133187 0.035100978 0.50374609 4294901760
0.015133187 0.035100978 0.50424606 4294901760
0.015133187 0.035100978 0.50474608 4294901760
0.015133187 0.035100978 0.50524604 4294901760
0.015133187 0.035100978 0.50574607 4294901760
0.015133187 0.035100978 0.50624609 4294901760
0.015133187 0.035100978 0.50674605 4294901760
0.015133187 0.035100978 0.50724608 4294901760
0.015133187 0.035100978 0.50774604 4294901760
0.015133187 0.035100978 0.50824606 4294901760
0.015133187 0.035100978 0.50874609 4294901760
0.015133187 0.035100978 0.50924605 4294901760
0.015133187 0.035100978 0.50974607 4294901760
0.015133187 0.035100978 0.51024604 4294901760
0.015133187 0.035100978 0.51074606 4294901760
0.015133187 0.035100978 0.51124609 4294901760
0.015133187 0.035100978 0.51174605 4294901760
0.015133187 0.035100978 0.51224607 4294901760
0.015133187 0.035100978 0.51274604 4294901760
0.015133187 0.035100978 0.51324606 4294901760
0.015133187 0.035100978 0.51374608 4294901760
0.015133187 0.035100978 0.51424605 4294901760
0.015133187 0.035100978 0.51474607 4294901760
0.015133187 0.035100978 0.51524603 4294901760
0.015133187 0.035100978 0.51574606 4294901760
0.015133187 0.035100978 0.51624608 4294901760
0.015133187 0.035100978 0.51674604 4294901760
0.015133187 0.035100978 0.51724607 4294901760
0.015133187 0.035100978 0.51774609 4294901760
0.015133187 0.035100978 0.51824605 4294901760
0.015133187 0.035100978 0.51874608 4294901760
0.015133187 0.035100978 0.51924604 4294901760
0.015133187 0.035100978 0.51974607 4294901760
0.015133187 0.035100978 0.52024609 4294901760
0.015133187 0.035100978 0.52074605 4294901760
0.015133187 0.035100978 0.52124608 4294901760
0.015133187 0.035100978 0.52174604 4294901760
0.015133187 0.035100978 0.52224606 4294901760
0.015133187 0.035100978 0.52274609 4294901760
0.015133187 0.035100978 0.52324605 4294901760
0.015133187 0.035100978 0.52374607 4294901760
0.015133187 0.035100978 0.52424604 4294901760
0.015133187 0.035100978 0.52474606 4294901760
0.015133187 0.035100978 0.52524608 4294901760
0.015133187 0.035100978 0.52574605 4294901760
0.015133187 0.035100978 0.52624607 4294901760
0.015133187 0.035100978 0.52674603 4294901760
0.015133187 0.035100978 0.52724606 4294901760
0.015133187 0.035100978 0.47724608 4278255360
0.015068589 0.035088349 0.47774172 4278255360
0.015003989 0.03507572 0.47823736 4278255360
0.014939391 0.035063092 0.47873303 4278255360
0.014874793 0.035050459 0.47922868 4278255360
0.014810194 0.03503783 0.47972432 4278255360
0.014745595 0.035025202 0.48021996 4278255360
0.014680997 0.035012573 0.4807156 4278255360
0.014616398 0.034999944 0.48121127 4278255360
0.014551799 0.034987316 0.48170692 4278255360
0.0144872 0.034974687 0.48220256 4278255360
0.014422602 0.034962054 0.4826982 4278255360
0.014358004 0.034949426 0.48319387 4278255360
0.014293404 0.034936797 0.48368952 4278255360
0.014228806 0.034924168 0.48418516 4278255360
0.014164208 0.034911539 0.4846808 4278255360
0.014099609 0.034898911 0.48517644 4278255360
0.01403501 0.034886278 0.48567212 4278255360
0.013970411 0.034873649 0.48616776 4278255360
0.013905813 0.034861021 0.4866634 4278255360
0.013841214 0.034848392 0.48715904 4278255360
0.013776615 0.034835763 0.48765469 4278255360
0.013712017 0.034823135 0.48815036 4278255360
0.013647418 0.034810506 0.488646 4278255360
0.013582819 0.034797873 0.48914164 4278255360
0.013518221 0.034785245 0.48963729 4278255360
0.013453622 0.034772616 0.49013293 4278255360
0.013389023 0.034759987 0.4906286 4278255360
0.013324425 0.034747358 0.49112424 4278255360
0.013259826 0.03473473 0.49161988 4278255360
0.013195228 0.034722097 0.49211553 4278255360
0.013130629 0.034709468 0.49261117 4278255360
0.01306603 0.03469684 0.49310684 4278255360
0.013001432 0.034684211 0.49360248 4278255360
0.012936832 0.034671582 0.49409813 4278255360
0.012872234 0.034658954 0.49459377 4278255360
0.012807636 0.034646325 0.49508944 4278255360
0.012743037 0.034633692 0.49558508 4278255360
0.012678439 0.034621064 0.49608073 4278255360
0.012613839 0.034608435 0.49657637 4278255360
0.012549241 0.034595806 0.49707201 4278255360
0.012484642 0.034583177 0.49756768 4278255360
0.012420043 0.034570549 0.49806333 4278255360
0.012355445 0.03455792 0.49855897 4278255360
0.012290847 0.034545287 0.49905461 4278255360
0.012226248 0.034532659 0.49955025 4278255360
0.012161649 0.03452003 0.5000459 4278255360
0.01209705 0.034507401 0.50054157 4278255360
0.012032452 0.034494773 0.50103724 4278255360
0.011967853 0.034482144 0.50153285 4278255360
0.011903254 0.034469515 0.50202852 4278255360
0.011838656 0.034456883 0.50252414 4278255360
0.011774058 0.034444254 0.50301981 4278255360
0.011709458 0.034431625 0.50351548 4278255360
0.01164486 0.034418996 0.50401109 4278255360
0.01158026 0.034406368 0.50450677 4278255360
0.011515662 0.034393739 0.50500238 4278255360
0.011451064 0.034381106 0.50549805 4278255360
0.011386465 0.034368478 0.50599372 4278255360
0.011321867 0.034355849 0.50648934 4278255360
0.011257268 0.03434322 0.50698501 4278255360
0.011192669 0.034330592 0.50748062 4278255360
0.01112807 0.034317963 0.50797629 4278255360
0.011063471 0.034305334 0.50847197 4278255360
0.010998873 0.034292702 0.50896758 4278255360
0.010934275 0.034280073 0.50946325 4278255360
0.010869676 0.034267444 0.50995886 4278255360
0.010805077 0.034254815 0.51045454 4278255360
0.010740479 0.034242187 0.51095021 4278255360
0.010675879 0.034229558 0.51144582 4278255360
0.010611281 0.034216926 0.51194149 4278255360
0.010546682 0.034204297 0.51243711 4278255360
0.010482084 0.034191668 0.51293278 4278255360
0.010417486 0.034179039 0.51342845 4278255360
0.010352886 0.034166411 0.51392406 4278255360
0.010288288 0.034153782 0.51441973 4278255360
0.010223689 0.034141153 0.51491535 4278255360
0.01015909 0.034128521 0.51541102 4278255360
0.010094492 0.034115892 0.51590669 4278255360
0.010029893 0.034103263 0.5164023 4278255360
0.009965295 0.034090634 0.51689798 4278255360
0.0099006966 0.034078006 0.51739359 4278255360
0.0098360972 0.034065377 0.51788926 4278255360
0.0097714989 0.034052748 0.51838493 4278255360
0.0097068995 0.034040116 0.51888055 4278255360
0.0096423011 0.034027487 0.51937622 4278255360
0.0095777027 0.034014858 0.51987189 4278255360
0.0095131043 0.03400223 0.5203675 4278255360
0.0094485059 0.033989601 0.52086318 4278255360
0.0093839066 0.033976972 0.52135879 4278255360
0.0093193082 0.033964343 0.52185446 4278255360
0.0092547089 0.033951711 0.52235013 4278255360
0.0091901105 0.033939082 0.52284575 4278255360
0.0091255121 0.033926453 0.52334142 4278255360
0.0090609137 0.033913825 0.52383703 4278255360
0.0089963153 0.033901196 0.5243327 4278255360
0.0089317169 0.033888567 0.52482837 4278255360
0.0088671166 0.033875935 0.52532399 4278255360
0.0088025182 0.033863306 0.52581966 4278255360
0.0087379199 0.033850677 0.52631527 4278255360
0.0086733215 0.033838049 0.52681094 4278255360
