# .PCD v0.7 - Point Cloud Data file format
VERSION 0.7
FIELDS x y z rgb
SIZE 4 4 4 4
TYPE F F F U
COUNT 1 1 1 1
WIDTH 1057
HEIGHT 1
VIEWPOINT 0 0 0 1 0 0 0
POINTS 1057
DATA ascii
0.062324163 0.034690775 0.33600003 4281558604
0.06341549 0.034690775 0.33600003 4279979309
0.0646988 0.034794021 0.33700001 4280110893
0.065988615 0.034897268 0.33800003 4280176940
0.067086443 0.034897268 0.33800003 4280176168
0.068184264 0.034897268 0.33800003 4280636208
0.069282085 0.034897268 0.33800003 4281226294
0.0025270884 0.039296821 0.36900002 4279648289
0.0037155047 0.03919033 0.36800003 4278533910
0.004897425 0.039083831 0.36700001 4278731289
0.006072849 0.038977336 0.36600003 4278600218
0.0072417771 0.038870838 0.36500001 4278666011
0.0083811209 0.038657848 0.36300001 4278468630
0.0095338086 0.038551353 0.36200002 4278666009
0.010650417 0.038338363 0.36000001 4278600216
0.011786866 0.038231868 0.35900003 4278402837
0.012916816 0.03812537 0.35800001 4278599189
0.014040273 0.038018879 0.35700002 4278599189
0.015157233 0.03791238 0.35600001 4278198535
0.016267698 0.037805885 0.35500002 4279118615
0.017420739 0.037805885 0.35500002 4278860310
0.018521456 0.03769939 0.354 4278662931
0.01967125 0.03769939 0.354 4278654986
0.020762227 0.037592895 0.35300002 4279181330
0.021908771 0.037592895 0.35300002 4278720011
0.022990003 0.0374864 0.35200003 4278786058
0.02406474 0.037379902 0.35100001 4278654220
0.025204787 0.037379902 0.35100001 4278785804
0.02626978 0.037273411 0.35000002 4279047695
0.027328275 0.037166912 0.34900001 4278851086
0.028461827 0.037166912 0.34900001 4278719498
0.029510582 0.037060417 0.34800002 4278719498
0.030552836 0.036953922 0.347 4278785291
0.031679891 0.036953922 0.347 4278851084
0.032712407 0.036847427 0.34600002 4278262279
0.033836212 0.036847427 0.34600002 4279187226
0.034858983 0.036740933 0.34500003 4278858775
0.035979543 0.036740933 0.34500003 4278397197
0.036992565 0.036634434 0.34400001 4278196996
0.037999097 0.036527943 0.34300002 4278195200
0.03911316 0.036527943 0.34300002 4278197252
0.040109944 0.036421444 0.34200001 4278196736
0.041100234 0.036314949 0.34100002 4278199816
0.0422078 0.036314949 0.34100002 4278660880
0.043188341 0.036208451 0.34 4278464785
0.044162393 0.03610196 0.33900002 4278334736
0.045129947 0.035995465 0.33800003 4278598419
0.045954231 0.035782471 0.33600003 4278598419
0.047045562 0.035782471 0.33600003 4278664212
0.047993623 0.035675976 0.33500001 4278664982
0.048788682 0.035462983 0.333 4278533396
0.04987026 0.035462983 0.333 4278533394
0.050798841 0.035356492 0.33200002 4278468115
0.051877178 0.035356492 0.33200002 4278468115
0.052955512 0.035356492 0.33200002 4278665494
0.054033849 0.035356492 0.33200002 4278796566
0.055112191 0.035356492 0.33200002 4278795796
0.056190521 0.035356492 0.33200002 4278993175
0.057441354 0.035462983 0.333 4279124761
0.05852294 0.035462983 0.333 4278795798
0.059783522 0.035569482 0.33400002 4279124765
0.06105059 0.035675976 0.33500001 4279189791
0.062138673 0.035675976 0.33500001 4279584803
0.06341549 0.035782471 0.33600003 4280900411
0.0646988 0.035888966 0.33700001 4285637505
0.06579338 0.035888966 0.33700001 4285111674
0.06688796 0.035888966 0.33700001 4281098301
0.067982532 0.035888966 0.33700001 4279586086
0.069077104 0.035888966 0.33700001 4279651107
0.070171684 0.035888966 0.33700001 4279190556
0.071054794 0.035782471 0.33600003 4280373547
0.072146118 0.035782471 0.33600003 4281293114
0.0025202399 0.040385999 0.36800003 4279385887
0.0037155047 0.040385999 0.36800003 4278797084
0.004897425 0.040276252 0.36700001 4278731291
0.006072849 0.040166508 0.36600003 4278666011
0.0072417771 0.040056761 0.36500001 4278468632
0.0083811209 0.039837271 0.36300001 4278600216
0.0095074726 0.039617784 0.36100003 4278468630
0.010650417 0.039508041 0.36000001 4278402835
0.011754032 0.039288551 0.35800001 4278600214
0.012880736 0.039178807 0.35700002 4278468115
0.014000944 0.03906906 0.35600001 4278599187
0.015157233 0.03906906 0.35600001 4278198021
0.016267698 0.038959317 0.35500002 4278789650
0.017420739 0.038959317 0.35500002 4278597654
0.018521456 0.03884957 0.354 4278728470
0.01967125 0.03884957 0.354 4278654986
0.020762227 0.038739827 0.35300002 4279905053
0.021908771 0.038739827 0.35300002 4279182100
0.022990003 0.038630083 0.35200003 4278721549
0.02406474 0.038520336 0.35100001 4280037922
0.025204787 0.038520336 0.35100001 4279445785
0.02626978 0.038410597 0.35000002 4279313686
0.027328275 0.038300849 0.34900001 4280366885
0.028461827 0.038300849 0.34900001 4278720525
0.029510582 0.038191106 0.34800002 4279115283
0.030552836 0.038081359 0.347 4278786318
0.031679891 0.038081359 0.347 4278654218
0.032712407 0.037971616 0.34600002 4278328070
0.033836212 0.037971616 0.34600002 4279121431
0.034858983 0.037861872 0.34500003 4278663701
0.035979543 0.037861872 0.34500003 4278729494
0.036992565 0.037752125 0.34400001 4278859797
0.037999097 0.037642382 0.34300002 4278925590
0.03911316 0.037642382 0.34300002 4279385371
0.040109944 0.037532635 0.34200001 4279450910
0.041220758 0.037532635 0.34200001 4279384092
0.0422078 0.037422892 0.34100002 4278857748
0.043188341 0.037313148 0.34 4278198024
0.044162393 0.037203405 0.33900002 4278196738
0.045129947 0.037093662 0.33800003 4278195712
0.046090998 0.036983915 0.33700001 4278196740
0.047045562 0.036874171 0.33600003 4278196738
0.04813689 0.036874171 0.33600003 4278330634
0.048935197 0.036654681 0.33400002 4278792468
0.050020024 0.036654681 0.33400002 4278858773
0.05095185 0.036544934 0.333 4278662929
0.052033436 0.036544934 0.333 4278532113
0.053115014 0.036544934 0.333 4278729492
0.0541966 0.036544934 0.333 4278663697
0.055278186 0.036544934 0.333 4278795796
0.056359768 0.036544934 0.333 4278598417
0.057441354 0.036544934 0.333 4278664980
0.058698688 0.036654681 0.33400002 4278796566
0.059783522 0.036654681 0.33400002 4278664980
0.06105059 0.036764424 0.33500001 4278862361
0.062138673 0.036764424 0.33500001 4278862361
0.06341549 0.036874171 0.33600003 4279257119
0.064506821 0.036874171 0.33600003 4278664212
0.06579338 0.036983915 0.33700001 4279453728
0.06688796 0.036983915 0.33700001 4278664210
0.067982532 0.036983915 0.33700001 4279520289
0.068872131 0.036874171 0.33600003 4279586598
0.069963463 0.036874171 0.33600003 4279257633
0.071054794 0.036874171 0.33600003 4279191840
0.072146118 0.036874171 0.33600003 4278993947
0.0013249754 0.041581668 0.36800003 4281026864
0.0025202399 0.041581668 0.36800003 4279123480
0.003705408 0.041468672 0.36700001 4278731287
0.0048840805 0.041355681 0.36600003 4278862873
0.006072849 0.041355681 0.36600003 4278731289
0.0072219367 0.04112969 0.36400002 4278665496
0.0083811209 0.041016694 0.36300001 4278600216
0.0095074726 0.040790711 0.36100003 4278468630
0.010620832 0.040564723 0.35900003 4278666007
0.011754032 0.040451728 0.35800001 4278533908
0.012880736 0.040338736 0.35700002 4278468115
0.014000944 0.040225741 0.35600001 4278402322
0.015157233 0.040225741 0.35600001 4278197511
0.016267698 0.040112749 0.35500002 4279381785
0.017420739 0.040112749 0.35500002 4278729240
0.018521456 0.039999753 0.354 4278596371
0.01967125 0.039999753 0.354 4278786058
0.020762227 0.039886761 0.35300002 4279576858
0.021846708 0.03977377 0.35200003 4278854416
0.022990003 0.03977377 0.35200003 4278920209
0.02406474 0.039660774 0.35100001 4280236071
0.025204787 0.039660774 0.35100001 4278393097
0.02626978 0.039547779 0.35000002 4278986002
0.027328275 0.039434783 0.34900001 4278328585
0.028461827 0.039434783 0.34900001 4278458890
0.029510582 0.039321791 0.34800002 4278393097
0.030640885 0.039321791 0.34800002 4279052308
0.031679891 0.039208796 0.347 4278589961
0.032712407 0.039095804 0.34600002 4278854927
0.033836212 0.039095804 0.34600002 4279056152
0.034858983 0.038982812 0.34500003 4278729492
0.035979543 0.038982812 0.34500003 4278532113
0.036992565 0.038869817 0.34400001 4278198530
0.03810988 0.038869817 0.34400001 4278266122
0.03911316 0.038756825 0.34300002 4278662931
0.040227227 0.038756825 0.34300002 4278795287
0.041220758 0.03864383 0.34200001 4279124252
0.0422078 0.038530838 0.34100002 4278728724
0.04331537 0.038530838 0.34100002 4278663699
0.044292662 0.038417842 0.34 4278795285
0.045263465 0.03830485 0.33900002 4279057176
0.046227768 0.038191859 0.33800003 4279187738
0.047185577 0.038078863 0.33700001 4279187224
0.04813689 0.037965868 0.33600003 4279516189
0.049081706 0.037852872 0.33500001 4279317014
0.050169785 0.037852872 0.33500001 4278330119
0.051104859 0.03773988 0.33400002 4278195968
0.052189693 0.03773988 0.33400002 4278195712
0.053274523 0.03773988 0.33400002 4278195712
0.054359358 0.03773988 0.33400002 4278196480
0.055444192 0.03773988 0.33400002 4278331402
0.056529019 0.03773988 0.33400002 4278726673
0.057613853 0.03773988 0.33400002 4278794004
0.058698688 0.03773988 0.33400002 4278728722
0.059783522 0.03773988 0.33400002 4278532113
0.06105059 0.037852872 0.33500001 4278861076
0.062138673 0.037852872 0.33500001 4278730003
0.063226752 0.037852872 0.33500001 4278599189
0.064506821 0.037965868 0.33600003 4278533396
0.065598145 0.037965868 0.33600003 4278796566
0.066689476 0.037965868 0.33600003 4278467601
0.0677808 0.037965868 0.33600003 4278796566
0.068872131 0.037965868 0.33600003 4278533908
0.069755234 0.037852872 0.33500001 4278731287
0.070843317 0.037852872 0.33500001 4278928666
0.071931392 0.037852872 0.33500001 4278928152
0.072801508 0.03773988 0.33400002 4279584033
0.00012971072 0.042777337 0.36800003 4279245061
0.0013249754 0.042777337 0.36800003 4280830507
0.0025133914 0.042661093 0.36700001 4279255066
0.003705408 0.042661093 0.36700001 4278862359
0.0048840805 0.042544849 0.36600003 4278993945
0.0060562561 0.042428605 0.36500001 4278665496
0.0072219367 0.042312365 0.36400002 4278533910
0.0083580324 0.042079877 0.36200002 4278533910
0.0094811358 0.041847393 0.36000001 4278468117
0.010620832 0.041731153 0.35900003 4278533908
0.011754032 0.041614905 0.35800001 4278402322
0.012880736 0.041498665 0.35700002 4278468115
0.014000944 0.041382421 0.35600001 4278467601
0.015114657 0.041266181 0.35500002 4278459656
0.016267698 0.041266181 0.35500002 4278196484
0.017371666 0.041149933 0.354 4278926103
0.018521456 0.041149933 0.354 4278530832
0.019615682 0.041033693 0.35300002 4278851851
0.020762227 0.041033693 0.35300002 4278720265
0.021846708 0.040917452 0.35200003 4278654986
0.022990003 0.040917452 0.35200003 4278524170
0.02406474 0.040801208 0.35100001 4278721547
0.02513298 0.040684965 0.35000002 4278589191
0.02626978 0.040684965 0.35000002 4279576858
0.027328275 0.040568721 0.34900001 4278392330
0.028461827 0.040568721 0.34900001 4279116820
0.029510582 0.04045248 0.34800002 4279513373
0.030640885 0.04045248 0.34800002 4278197254
0.031679891 0.040336236 0.347 4278327302
0.032806948 0.040336236 0.347 4278328583
0.033836212 0.040219992 0.34600002 4278859543
0.034960024 0.040219992 0.34600002 4278991383
0.035979543 0.040103752 0.34500003 4278196736
0.036992565 0.039987508 0.34400001 4278459658
0.03810988 0.039987508 0.34400001 4278458890
0.03911316 0.039871268 0.34300002 4279121431
0.040227227 0.039871268 0.34300002 4278200586
0.041220758 0.03975502 0.34200001 4278398222
0.042331576 0.03975502 0.34200001 4278199301
0.04331537 0.03963878 0.34100002 4278597654
0.044292662 0.039522536 0.34 4278992412
0.045263465 0.039406296 0.33900002 4278201353
0.046364535 0.039406296 0.33900002 4278925590
0.047325596 0.039290052 0.33800003 4278794517
0.048280153 0.039173808 0.33700001 4278794515
0.049228221 0.039057568 0.33600003 4278991894
0.050319545 0.039057568 0.33600003 4278794002
0.051257867 0.038941324 0.33500001 4279056404
0.052345946 0.038941324 0.33500001 4279056406
0.053434025 0.038941324 0.33500001 4279253271
0.054359358 0.03882508 0.33400002 4279515930
0.055444192 0.03882508 0.33400002 4279055125
0.056529019 0.03882508 0.33400002 4278791185
0.057613853 0.03882508 0.33400002 4278593293
0.058698688 0.03882508 0.33400002 4278197253
0.059783522 0.03882508 0.33400002 4278195456
0.060868353 0.03882508 0.33400002 4278195200
0.062138673 0.038941324 0.33500001 4278529294
0.063226752 0.038941324 0.33500001 4278794517
0.064314827 0.038941324 0.33500001 4278664210
0.06540291 0.038941324 0.33500001 4278730003
0.066490993 0.038941324 0.33500001 4278730003
0.067579068 0.038941324 0.33500001 4278598417
0.068667151 0.038941324 0.33500001 4278533394
0.069547012 0.03882508 0.33400002 4278796566
0.070631847 0.03882508 0.33400002 4278599187
0.071716674 0.03882508 0.33400002 4278928152
0.072583541 0.038708836 0.333 4279255836
0.073443912 0.038592596 0.33200002 4278925590
0.00012971072 0.043973006 0.36800003 4280361999
0.0013213749 0.04385351 0.36700001 4281291569
0.0025133914 0.04385351 0.36700001 4279453215
0.0036953117 0.043734021 0.36600003 4278664980
0.0048840805 0.043734021 0.36600003 4278993945
0.0060562561 0.043614529 0.36500001 4278599189
0.0072219367 0.043495037 0.36400002 4278797082
0.0083580324 0.043256052 0.36200002 4278533910
0.0094811358 0.043017067 0.36000001 4278533910
0.010591248 0.042778086 0.35800001 4278468117
0.0117212 0.042658594 0.35700002 4278204943
0.012844655 0.042539101 0.35600001 4278468115
0.014000944 0.042539101 0.35600001 4278401808
0.015114657 0.042419609 0.35500002 4279252504
0.016267698 0.042419609 0.35500002 4279185941
0.017371666 0.042300116 0.354 4278860308
0.018521456 0.042300116 0.354 4278991381
0.019615682 0.042180628 0.35300002 4278851851
0.020762227 0.042180628 0.35300002 4278851851
0.021846708 0.042061135 0.35200003 4278785291
0.022990003 0.042061135 0.35200003 4278916877
0.02406474 0.041941643 0.35100001 4278587912
0.02513298 0.04182215 0.35000002 4278785291
0.02626978 0.04182215 0.35000002 4278785291
0.027328275 0.041702658 0.34900001 4278785291
0.028461827 0.041702658 0.34900001 4278523916
0.029510582 0.041583166 0.34800002 4278195715
0.030640885 0.041583166 0.34800002 4278854416
0.031679891 0.041463673 0.347 4278524681
0.032806948 0.041463673 0.347 4279579164
0.033836212 0.041344184 0.34600002 4278859543
0.034960024 0.041344184 0.34600002 4278198279
0.035979543 0.041224692 0.34500003 4278262279
0.037100103 0.041224692 0.34500003 4278458377
0.03810988 0.0411052 0.34400001 4278655756
0.039227191 0.0411052 0.34400001 4279711520
0.040227227 0.040985707 0.34300002 4278857748
0.04134129 0.040985707 0.34300002 4279056152
0.042331576 0.040866215 0.34200001 4279187738
0.04331537 0.040746726 0.34100002 4278857494
0.044422939 0.040746726 0.34100002 4278199563
0.045396984 0.04062723 0.34 4279122199
0.046364535 0.040507741 0.33900002 4278200583
0.047325596 0.040388249 0.33800003 4279189275
0.048423421 0.040388249 0.33800003 4278597906
0.049374733 0.040268756 0.33700001 4278400527
0.050319545 0.040149264 0.33600003 4278597906
0.051410876 0.040149264 0.33600003 4278729492
0.052502207 0.040149264 0.33600003 4278728722
0.053434025 0.040029772 0.33500001 4278794515
0.054522108 0.040029772 0.33500001 4278991894
0.055610187 0.040029772 0.33500001 4278729492
0.056698266 0.040029772 0.33500001 4278729492
0.057613853 0.039910283 0.33400002 4278728724
0.058698688 0.039910283 0.33400002 4278925590
0.059783522 0.039910283 0.33400002 4279121431
0.060868353 0.039910283 0.33400002 4279121431
0.062138673 0.040029772 0.33500001 4278196226
0.063226752 0.040029772 0.33500001 4278792466
0.064314827 0.040029772 0.33500001 4278729492
0.06540291 0.040029772 0.33500001 4278532113
0.066292517 0.039910283 0.33400002 4278532624
0.067377344 0.039910283 0.33400002 4278598417
0.068462178 0.039910283 0.33400002 4278599187
0.069547012 0.039910283 0.33400002 4278599187
0.07042037 0.039790787 0.333 4278533394
0.071501955 0.039790787 0.333 4278664210
0.072365575 0.039671298 0.33200002 4278202378
0.073443912 0.039671298 0.33200002 4279188762
0.00012971072 0.045168675 0.36800003 4280361997
0.0013213749 0.045045931 0.36700001 4281422642
0.0025133914 0.045045931 0.36700001 4279189273
0.0036953117 0.044923194 0.36600003 4278664982
0.0048840805 0.044923194 0.36600003 4278796568
0.0060562561 0.044800449 0.36500001 4278796568
0.0072219367 0.044677708 0.36400002 4278664982
0.0084042093 0.044677708 0.36400002 4278664982
0.0094547998 0.044064008 0.35900003 4278533396
0.010591248 0.043941263 0.35800001 4278533394
0.0117212 0.043818522 0.35700002 4278533394
0.012844655 0.043695781 0.35600001 4278401808
0.014000944 0.043695781 0.35600001 4278201092
0.015114657 0.043573041 0.35500002 4278462220
0.016267698 0.043573041 0.35500002 4278198790
0.017371666 0.0434503 0.354 4278663701
0.018521456 0.0434503 0.354 4278861080
0.019615682 0.043327559 0.35300002 4279054103
0.020762227 0.043327559 0.35300002 4278459660
0.021846708 0.043204818 0.35200003 4278523400
0.02292469 0.043082077 0.35100001 4278654218
0.02406474 0.043082077 0.35100001 4278785804
0.02513298 0.042959336 0.35000002 4278851084
0.02626978 0.042959336 0.35000002 4278851084
0.027328275 0.042836595 0.34900001 4278851084
0.028461827 0.042836595 0.34900001 4278785291
0.029510582 0.042713854 0.34800002 4278720011
0.030640885 0.042713854 0.34800002 4278654218
0.031679891 0.04259111 0.347 4278720011
0.032806948 0.04259111 0.347 4279317016
0.033836212 0.042468373 0.34600002 4279254301
0.034960024 0.042468373 0.34600002 4278923541
0.035979543 0.042345632 0.34500003 4278524681
0.037100103 0.042345632 0.34500003 4278654732
0.03810988 0.042222891 0.34400001 4278786572
0.039227191 0.042222891 0.34400001 4279053590
0.040227227 0.04210015 0.34300002 4278462220
0.04134129 0.04210015 0.34300002 4278989845
0.042331576 0.041977406 0.34200001 4278595089
0.04331537 0.041854668 0.34100002 4278857494
0.044422939 0.041854668 0.34100002 4278857494
0.045396984 0.041731924 0.34 4278925590
0.046364535 0.041609187 0.33900002 4278925590
0.047465611 0.041609187 0.33900002 4278464017
0.048423421 0.041486446 0.33800003 4278199817
0.049374733 0.041363701 0.33700001 4278197764
0.050469305 0.041363701 0.33700001 4278594835
0.051410876 0.041240964 0.33600003 4278199303
0.052502207 0.041240964 0.33600003 4278727189
0.053593531 0.041240964 0.33600003 4278199046
0.054522108 0.041118219 0.33500001 4278661394
0.055610187 0.041118219 0.33500001 4278597908
0.056698266 0.041118219 0.33500001 4278729494
0.057786349 0.041118219 0.33500001 4278597906
0.058874432 0.041118219 0.33500001 4278663699
0.059962511 0.041118219 0.33500001 4278663699
0.06105059 0.041118219 0.33500001 4278794515
0.061953187 0.040995482 0.33400002 4278197765
0.063038021 0.040995482 0.33400002 4279053842
0.064122848 0.040995482 0.33400002 4278729494
0.065207683 0.040995482 0.33400002 4278663701
0.066292517 0.040995482 0.33400002 4278730005
0.067377344 0.040995482 0.33400002 4278335247
0.068257198 0.040872738 0.333 4278664212
0.069338784 0.040872738 0.333 4278598419
0.07042037 0.040872738 0.333 4278532624
0.071287237 0.040750001 0.33200002 4278663697
0.072365575 0.040750001 0.33200002 4278926101
0.073443912 0.040750001 0.33200002 4278728209
0.0013213749 0.046238355 0.36700001 4280038424
0.0025133914 0.046238355 0.36700001 4279516955
0.0036953117 0.046112366 0.36600003 4278730005
0.0048840805 0.046112366 0.36600003 4278795798
0.0060562561 0.045986373 0.36500001 4278795798
0.0072219367 0.045860387 0.36400002 4278730005
0.0084042093 0.045860387 0.36400002 4278533396
0.0094547998 0.045230437 0.35900003 4278533396
0.010561664 0.044978455 0.35700002 4278533394
0.0117212 0.044978455 0.35700002 4278401808
0.012844655 0.044852462 0.35600001 4278467601
0.013961616 0.044726476 0.35500002 4278730005
0.015114657 0.044726476 0.35500002 4279122199
0.016221872 0.044600483 0.354 4278858773
0.017371666 0.044600483 0.354 4278795287
0.018469136 0.044474494 0.35300002 4278795287
0.019615682 0.044474494 0.35300002 4278861078
0.020703411 0.044348504 0.35200003 4278729494
0.021846708 0.044348504 0.35200003 4278926103
0.02292469 0.044222515 0.35100001 4278925336
0.02406474 0.044222515 0.35100001 4279713568
0.02513298 0.044096526 0.35000002 4279318299
0.026194721 0.043970533 0.34900001 4279843106
0.027328275 0.043970533 0.34900001 4278789134
0.028380277 0.043844543 0.34800002 4278588939
0.029510582 0.043844543 0.34800002 4278194694
0.030552836 0.04371855 0.347 4278720265
0.031679891 0.04371855 0.347 4278588939
0.032806948 0.04371855 0.347 4279317529
0.033836212 0.043592565 0.34600002 4278661648
0.034960024 0.043592565 0.34600002 4278924566
0.035979543 0.043466575 0.34500003 4279383322
0.037100103 0.043466575 0.34500003 4279051025
0.03810988 0.043340582 0.34400001 4279446551
0.039227191 0.043340582 0.34400001 4279055638
0.040227227 0.043214593 0.34300002 4279121431
0.04134129 0.043214593 0.34300002 4278331917
0.042331576 0.043088604 0.34200001 4278989847
0.043442391 0.043088604 0.34200001 4278924568
0.044422939 0.042962614 0.34100002 4278198535
0.045396984 0.042836621 0.34 4278858261
0.046501301 0.042836621 0.34 4278198789
0.047465611 0.042710632 0.33900002 4278858259
0.048423421 0.042584646 0.33800003 4278199044
0.049521249 0.042584646 0.33800003 4278461453
0.050469305 0.042458653 0.33700001 4278198283
0.051563885 0.042458653 0.33700001 4278527248
0.052502207 0.042332664 0.33600003 4278198283
0.053593531 0.042332664 0.33600003 4279384092
0.054684862 0.042332664 0.33600003 4278397197
0.055610187 0.042206671 0.33500001 4279121433
0.056698266 0.042206671 0.33500001 4278199046
0.057786349 0.042206671 0.33500001 4278198276
0.058874432 0.042206671 0.33500001 4278201097
0.059962511 0.042206671 0.33500001 4279781410
0.06105059 0.042206671 0.33500001 4278728722
0.061953187 0.042080685 0.33400002 4278196224
0.063038021 0.042080685 0.33400002 4279120918
0.064122848 0.042080685 0.33400002 4278532115
0.065207683 0.042080685 0.33400002 4278729494
0.066292517 0.042080685 0.33400002 4278663699
0.067175612 0.041954692 0.333 4278729492
0.068257198 0.041954692 0.333 4278597906
0.069338784 0.041954692 0.333 4278663699
0.0702089 0.041828703 0.33200002 4278597906
0.071287237 0.041828703 0.33200002 4278597906
0.072365575 0.041828703 0.33200002 4278530832
0.073222697 0.041702714 0.33100003 4278859797
0.074297786 0.041702714 0.33100003 4279119133
0.0036953117 0.047301535 0.36600003 4279318549
0.004870736 0.047172293 0.36500001 4278991381
0.0060562561 0.047172293 0.36500001 4278991894
0.0072020958 0.046913814 0.36300001 4278860310
0.008334944 0.046655338 0.36100003 4278664212
0.0094547998 0.046396859 0.35900003 4278598419
0.010561664 0.046138383 0.35700002 4278532626
0.0117212 0.046138383 0.35700002 4278466833
0.012844655 0.046009142 0.35600001 4278597906
0.013961616 0.045879904 0.35500002 4278729492
0.015114657 0.045879904 0.35500002 4278861078
0.016221872 0.045750663 0.354 4278729492
0.017371666 0.045750663 0.354 4278795798
0.018469136 0.045621425 0.35300002 4278730005
0.019615682 0.045621425 0.35300002 4278730005
0.020703411 0.045492187 0.35200003 4278664212
0.021846708 0.045492187 0.35200003 4278730005
0.02292469 0.045362946 0.35100001 4278795800
0.02399618 0.045233708 0.35000002 4278664214
0.02513298 0.045233708 0.35000002 4278730007
0.026194721 0.045104466 0.34900001 4278729494
0.027328275 0.045104466 0.34900001 4278991896
0.028380277 0.044975229 0.34800002 4278925336
0.029510582 0.044975229 0.34800002 4279121945
0.030552836 0.044845987 0.347 4279253019
0.031679891 0.044845987 0.347 4279383838
0.032712407 0.044716749 0.34600002 4279055640
0.033836212 0.044716749 0.34600002 4278529296
0.034960024 0.044716749 0.34600002 4278197253
0.035979543 0.044587512 0.34500003 4278194944
0.037100103 0.044587512 0.34500003 4278195969
0.03810988 0.04445827 0.34400001 4278197511
0.039227191 0.04445827 0.34400001 4278197510
0.040227227 0.044329032 0.34300002 4279185943
0.04134129 0.044329032 0.34300002 4279318810
0.042331576 0.044199791 0.34200001 4279121431
0.04331537 0.044070557 0.34100002 4278727957
0.044422939 0.044070557 0.34100002 4278793750
0.045396984 0.043941315 0.34 4278991129
0.046501301 0.043941315 0.34 4279187740
0.047465611 0.043812077 0.33900002 4279121945
0.048423421 0.04368284 0.33800003 4278990359
0.049521249 0.04368284 0.33800003 4279055638
0.050469305 0.043553598 0.33700001 4278726675
0.051563885 0.043553598 0.33700001 4279054105
0.052658461 0.043553598 0.33700001 4278330382
0.053593531 0.04342436 0.33600003 4278725908
0.054684862 0.04342436 0.33600003 4278198793
0.055776194 0.04342436 0.33600003 4279120668
0.056698266 0.043295119 0.33500001 4278594322
0.057786349 0.043295119 0.33500001 4278198280
0.058874432 0.043295119 0.33500001 4278397197
0.059962511 0.043295119 0.33500001 4278991381
0.060868353 0.043165881 0.33400002 4278794002
0.061953187 0.043165881 0.33400002 4278195968
0.063038021 0.043165881 0.33400002 4279253017
0.064122848 0.043165881 0.33400002 4278729494
0.065012448 0.04303664 0.333 4278729494
0.066094033 0.04303664 0.333 4278663699
0.067175612 0.04303664 0.333 4278663699
0.068052225 0.042907402 0.33200002 4278663699
0.069130562 0.042907402 0.33200002 4278729492
0.0702089 0.042907402 0.33200002 4278532113
0.071072519 0.042778164 0.33100003 4278532113
0.072147608 0.042778164 0.33100003 4278729492
0.073222697 0.042778164 0.33100003 4278794517
0.074297786 0.042778164 0.33100003 4278856474
0.0072020958 0.048093241 0.36300001 4278921486
0.008334944 0.047828268 0.36100003 4279055892
0.0094284629 0.047430802 0.35800001 4279055892
0.010561664 0.047298312 0.35700002 4278728209
0.011688367 0.047165822 0.35600001 4278925588
0.012844655 0.047165822 0.35600001 4278794515
0.013961616 0.047033336 0.35500002 4278860308
0.015114657 0.047033336 0.35500002 4278860310
0.016221872 0.046900846 0.354 4278663701
0.017371666 0.046900846 0.354 4278861080
0.018469136 0.04676836 0.35300002 4278927386
0.019615682 0.04676836 0.35300002 4278664214
0.020703411 0.046635874 0.35200003 4278664214
0.021784643 0.046503384 0.35100001 4278795800
0.02292469 0.046503384 0.35100001 4278795800
0.02399618 0.046370897 0.35000002 4278730007
0.02513298 0.046370897 0.35000002 4278532628
0.026194721 0.046238404 0.34900001 4278730007
0.027328275 0.046238404 0.34900001 4278598421
0.028380277 0.046105918 0.34800002 4278664214
0.029510582 0.046105918 0.34800002 4278664214
0.030552836 0.045973428 0.347 4278598421
0.031679891 0.045973428 0.347 4278664214
0.032712407 0.045840941 0.34600002 4278729494
0.033836212 0.045840941 0.34600002 4278860310
0.034858983 0.045708455 0.34500003 4278794263
0.035979543 0.045708455 0.34500003 4278925849
0.036992565 0.045575965 0.34400001 4278925336
0.03810988 0.045575965 0.34400001 4278464787
0.03911316 0.045443479 0.34300002 4279055640
0.040227227 0.045443479 0.34300002 4278922517
0.041220758 0.045310989 0.34200001 4278196742
0.042331576 0.045310989 0.34200001 4278195971
0.04331537 0.045178503 0.34100002 4278197767
0.044422939 0.045178503 0.34100002 4278195712
0.045396984 0.045046009 0.34 4278197766
0.046364535 0.044913523 0.33900002 4278790931
0.047465611 0.044913523 0.33900002 4279187226
0.048423421 0.044781037 0.33800003 4279516705
0.049521249 0.044781037 0.33800003 4278859543
0.050469305 0.044648547 0.33700001 4278925336
0.051563885 0.044648547 0.33700001 4278727957
0.052658461 0.044648547 0.33700001 4279188508
0.053593531 0.044516061 0.33600003 4278793750
0.054684862 0.044516061 0.33600003 4278925338
0.055776194 0.044516061 0.33600003 4279779875
0.056698266 0.044383571 0.33500001 4278199561
0.057786349 0.044383571 0.33500001 4278196224
0.058874432 0.044383571 0.33500001 4278462990
0.059962511 0.044383571 0.33500001 4278859795
0.060868353 0.044251084 0.33400002 4278794002
0.061953187 0.044251084 0.33400002 4278196224
0.063038021 0.044251084 0.33400002 4278989845
0.063930862 0.044118594 0.333 4278663701
0.065012448 0.044118594 0.333 4278663701
0.066094033 0.044118594 0.333 4278795798
0.066973887 0.043986108 0.33200002 4278598419
0.068052225 0.043986108 0.33200002 4278664212
0.069130562 0.043986108 0.33200002 4278663699
0.06999743 0.043853618 0.33100003 4278795285
0.071072519 0.043853618 0.33100003 4278532113
0.072147608 0.043853618 0.33100003 4278860308
0.073222697 0.043853618 0.33100003 4278991896
0.074297786 0.043853618 0.33100003 4278660117
0.0094284629 0.048593976 0.35800001 4278852615
0.010561664 0.048458241 0.35700002 4278788105
0.011688367 0.048322503 0.35600001 4278590726
0.012844655 0.048322503 0.35600001 4278724107
0.013961616 0.048186764 0.35500002 4279054355
0.015114657 0.048186764 0.35500002 4279187224
0.016221872 0.048051026 0.354 4279319324
0.017371666 0.048051026 0.354 4279254814
0.018469136 0.047915291 0.35300002 4279320609
0.019560114 0.047779553 0.35200003 4279386400
0.020703411 0.047779553 0.35200003 4279386400
0.021784643 0.047643814 0.35100001 4279189021
0.02292469 0.047643814 0.35100001 4279189021
0.02399618 0.04750808 0.35000002 4279058459
0.02513298 0.04750808 0.35000002 4278993179
0.026194721 0.047372341 0.34900001 4278598421
0.027249973 0.047236603 0.34800002 4278664214
0.028380277 0.047236603 0.34800002 4278795800
0.029425781 0.047100864 0.347 4278664214
0.030552836 0.047100864 0.347 4278664214
0.031679891 0.047100864 0.347 4278598421
0.032712407 0.04696513 0.34600002 4278598421
0.033836212 0.04696513 0.34600002 4278730007
0.034858983 0.046829391 0.34500003 4278795798
0.035979543 0.046829391 0.34500003 4278730005
0.036992565 0.046693653 0.34400001 4278598421
0.03810988 0.046693653 0.34400001 4278730007
0.03911316 0.046557918 0.34300002 4278664214
0.040227227 0.046557918 0.34300002 4278729494
0.041220758 0.04642218 0.34200001 4278926103
0.042331576 0.04642218 0.34200001 4278925590
0.04331537 0.046286441 0.34100002 4279056406
0.044292662 0.046150703 0.34 4279121945
0.045396984 0.046150703 0.34 4279120918
0.046364535 0.046014968 0.33900002 4279317529
0.047465611 0.046014968 0.33900002 4279119383
0.048423421 0.04587923 0.33800003 4278196999
0.049521249 0.04587923 0.33800003 4278195712
0.050469305 0.045743492 0.33700001 4278195971
0.051563885 0.045743492 0.33700001 4278195969
0.052658461 0.045743492 0.33700001 4278198024
0.053593531 0.045607757 0.33600003 4278791955
0.054684862 0.045607757 0.33600003 4278792466
0.055776194 0.045607757 0.33600003 4278661648
0.056698266 0.045472018 0.33500001 4279057176
0.057786349 0.045472018 0.33500001 4278794004
0.058874432 0.045472018 0.33500001 4278794517
0.059962511 0.045472018 0.33500001 4278860308
0.060868353 0.04533628 0.33400002 4278794515
0.061953187 0.04533628 0.33400002 4278196740
0.063038021 0.04533628 0.33400002 4279187478
0.063930862 0.045200542 0.333 4278663699
0.065012448 0.045200542 0.333 4278598419
0.065895557 0.045064807 0.33200002 4278598419
0.066973887 0.045064807 0.33200002 4278795798
0.068052225 0.045064807 0.33200002 4278730005
0.068922341 0.044929069 0.33100003 4278598419
0.06999743 0.044929069 0.33100003 4278795285
0.071072519 0.044929069 0.33100003 4278532113
0.072147608 0.044929069 0.33100003 4278662929
0.073222697 0.044929069 0.33100003 4279123480
0.074073315 0.04479333 0.33000001 4278594324
0.010561664 0.049618173 0.35700002 4279113223
0.011688367 0.049479183 0.35600001 4279507981
0.012808575 0.0493402 0.35500002 4279706897
0.013961616 0.0493402 0.35500002 4279904787
0.015072079 0.049201209 0.354 4279773717
0.016221872 0.049201209 0.354 4285762933
0.017371666 0.049201209 0.354 4285106548
0.018521456 0.049201209 0.354 4282803793
0.01967125 0.049201209 0.354 4279909412
0.020821042 0.049201209 0.354 4279054875
0.021970835 0.049201209 0.354 4279450146
0.022859378 0.048645265 0.35000002 4279910695
0.02399618 0.048645265 0.35000002 4279779363
0.02513298 0.048645265 0.35000002 4279385887
0.026194721 0.048506279 0.34900001 4279254814
0.027249973 0.048367295 0.34800002 4278992412
0.028380277 0.048367295 0.34800002 4278729240
0.029425781 0.048228305 0.347 4278730007
0.030552836 0.048228305 0.347 4278598421
0.031588595 0.048089322 0.34600002 4278466835
0.032712407 0.048089322 0.34600002 4278795800
0.033836212 0.048089322 0.34600002 4278598421
0.034858983 0.047950335 0.34500003 4278532626
0.035875253 0.047811348 0.34400001 4278730005
0.036992565 0.047811348 0.34400001 4278532628
0.037999097 0.047672361 0.34300002 4278598419
0.03911316 0.047672361 0.34300002 4278598419
0.040109944 0.047533374 0.34200001 4278664212
0.041220758 0.047533374 0.34200001 4278664212
0.0422078 0.047394387 0.34100002 4278598419
0.04331537 0.047394387 0.34100002 4278597906
0.044292662 0.047255401 0.34 4278663699
0.045396984 0.047255401 0.34 4278926101
0.046364535 0.047116414 0.33900002 4279057176
0.047465611 0.047116414 0.33900002 4278991383
0.048423421 0.046977431 0.33800003 4278925590
0.049521249 0.046977431 0.33800003 4279056152
0.050469305 0.04683844 0.33700001 4279056152
0.051563885 0.04683844 0.33700001 4279120918
0.052658461 0.04683844 0.33700001 4279515676
0.053593531 0.046699457 0.33600003 4278790418
0.054684862 0.046699457 0.33600003 4278329867
0.055776194 0.046699457 0.33600003 4278195456
0.056698266 0.046560466 0.33500001 4278194944
0.057786349 0.046560466 0.33500001 4278195200
0.058874432 0.046560466 0.33500001 4278196224
0.059783522 0.046421483 0.33400002 4278397195
0.060868353 0.046421483 0.33400002 4278593804
0.061953187 0.046421483 0.33400002 4278195969
0.062849283 0.046282496 0.333 4279121685
0.063930862 0.046282496 0.333 4278598419
0.065012448 0.046282496 0.333 4278664212
0.065895557 0.046143509 0.33200002 4278598421
0.066973887 0.046143509 0.33200002 4278795798
0.068052225 0.046143509 0.33200002 4278730005
0.068922341 0.046004526 0.33100003 4278795798
0.06999743 0.046004526 0.33100003 4278730005
0.071072519 0.046004526 0.33100003 4278335247
0.072147608 0.046004526 0.33100003 4278596623
0.073001474 0.045865536 0.33000001 4278925590
0.074073315 0.045865536 0.33000001 4280171301
0.028298723 0.049355745 0.347 4279516451
0.029425781 0.049355745 0.347 4279385119
0.030552836 0.049355745 0.347 4279320096
0.031588595 0.049213514 0.34600002 4279385889
0.032712407 0.049213514 0.34600002 4279189275
0.033836212 0.049213514 0.34600002 4279255068
0.034858983 0.049071278 0.34500003 4278991896
0.035875253 0.048929039 0.34400001 4278729494
0.036992565 0.048929039 0.34400001 4278664214
0.037999097 0.048786808 0.34300002 4278730007
0.038999125 0.048644569 0.34200001 4278466835
0.040109944 0.048644569 0.34200001 4278598421
0.041220758 0.048644569 0.34200001 4278730005
0.0422078 0.048502333 0.34100002 4278664212
0.04331537 0.048502333 0.34100002 4278597906
0.044292662 0.048360098 0.34 4278729492
0.045396984 0.048360098 0.34 4278729492
0.046364535 0.048217863 0.33900002 4278729494
0.047465611 0.048217863 0.33900002 4278663701
0.048423421 0.048075628 0.33800003 4278795287
0.049521249 0.048075628 0.33800003 4278729494
0.050469305 0.047933392 0.33700001 4278729494
0.051563885 0.047933392 0.33700001 4278991896
0.052658461 0.047933392 0.33700001 4278991896
0.053593531 0.047791157 0.33600003 4278925590
0.054684862 0.047791157 0.33600003 4278990613
0.055776194 0.047791157 0.33600003 4278924820
0.056698266 0.047648918 0.33500001 4279056406
0.057786349 0.047648918 0.33500001 4279187738
0.058874432 0.047648918 0.33500001 4279318810
0.059783522 0.047506686 0.33400002 4279514908
0.060868353 0.047506686 0.33400002 4278790672
0.061767694 0.047364447 0.333 4279515676
0.062849283 0.047364447 0.333 4278925336
0.063930862 0.047364447 0.333 4278664214
0.06481722 0.047222216 0.33200002 4278598421
0.065895557 0.047222216 0.33200002 4278730007
0.066973887 0.047222216 0.33200002 4278664214
0.067847252 0.04707998 0.33100003 4278664212
0.068922341 0.04707998 0.33100003 4278532626
0.06999743 0.04707998 0.33100003 4278532113
0.071072519 0.04707998 0.33100003 4278400527
0.072147608 0.04707998 0.33100003 4278925590
0.073001474 0.046937741 0.33000001 4278727441
0.074073315 0.046937741 0.33000001 4283789406
0.034757942 0.050046727 0.34400001 4279121433
0.035875253 0.050046727 0.34400001 4279121947
0.036885031 0.049901247 0.34300002 4279188510
0.037999097 0.049901247 0.34300002 4279320094
0.038999125 0.04975576 0.34200001 4279189275
0.040109944 0.04975576 0.34200001 4279255068
0.041100234 0.049610276 0.34100002 4279190045
0.0422078 0.049610276 0.34100002 4279189273
0.043188341 0.049464788 0.34 4279189273
0.044292662 0.049464788 0.34 4279255066
0.045263465 0.049319305 0.33900002 4278991894
0.046364535 0.049319305 0.33900002 4278992664
0.047325596 0.049173824 0.33800003 4278729494
0.048423421 0.049173824 0.33800003 4278861080
0.049521249 0.049173824 0.33800003 4278992666
0.050469305 0.049028337 0.33700001 4278729494
0.051563885 0.049028337 0.33700001 4278861078
0.052658461 0.049028337 0.33700001 4278597906
0.053753033 0.049028337 0.33700001 4278597906
0.054684862 0.048882853 0.33600003 4278861080
0.055776194 0.048882853 0.33600003 4278795285
0.056867518 0.048882853 0.33600003 4278663701
0.057786349 0.048737366 0.33500001 4278663701
0.058874432 0.048737366 0.33500001 4279189275
0.059783522 0.048591882 0.33400002 4278860310
0.060868353 0.048591882 0.33400002 4278926103
0.061767694 0.048446395 0.333 4278860310
0.062849283 0.048446395 0.333 4278728724
0.063930862 0.048446395 0.333 4278597908
0.06481722 0.048300914 0.33200002 4278598421
0.065895557 0.048300914 0.33200002 4278598421
0.066973887 0.048300914 0.33200002 4278664214
0.067847252 0.048155431 0.33100003 4278532628
0.068922341 0.048155431 0.33100003 4278730007
0.06999743 0.048155431 0.33100003 4278465552
0.071072519 0.048155431 0.33100003 4278531345
0.072147608 0.048155431 0.33100003 4278727187
0.073001474 0.048009943 0.33000001 4278593552
0.074073315 0.048009943 0.33000001 4284842356
0.035770968 0.05101569 0.34300002 4284513641
0.036885031 0.05101569 0.34300002 4283855711
0.037999097 0.05101569 0.34300002 4282211658
0.038999125 0.050866954 0.34200001 4281158966
0.040109944 0.050866954 0.34200001 4279777313
0.041100234 0.050718222 0.34100002 4279251736
0.0422078 0.050718222 0.34100002 4279186713
0.043188341 0.050569486 0.34 4279252506
0.044292662 0.050569486 0.34 4279253017
0.045263465 0.050420754 0.33900002 4279779615
0.046364535 0.050420754 0.33900002 4279713822
0.047325596 0.050272021 0.33800003 4279451680
0.048423421 0.050272021 0.33800003 4279385887
0.049521249 0.050272021 0.33800003 4279320607
0.050469305 0.050123286 0.33700001 4279386654
0.051563885 0.050123286 0.33700001 4279386141
0.052658461 0.050123286 0.33700001 4279386141
0.053753033 0.050123286 0.33700001 4279320861
0.054684862 0.049974553 0.33600003 4279190045
0.055776194 0.049974553 0.33600003 4279058459
0.056867518 0.049974553 0.33600003 4278992666
0.057786349 0.049825817 0.33500001 4279058459
0.058698688 0.049677085 0.33400002 4278861080
0.059783522 0.049677085 0.33400002 4278926103
0.060868353 0.049677085 0.33400002 4278991896
0.061767694 0.049528349 0.333 4278860310
0.062849283 0.049528349 0.333 4278728724
0.063738875 0.049379617 0.33200002 4278860310
0.06481722 0.049379617 0.33200002 4278729494
0.065895557 0.049379617 0.33200002 4278466835
0.066973887 0.049379617 0.33200002 4278598421
0.067847252 0.049230885 0.33100003 4278597908
0.068922341 0.049230885 0.33100003 4278663701
0.06999743 0.049230885 0.33100003 4278859797
0.071072519 0.049230885 0.33100003 4278859797
0.072147608 0.049230885 0.33100003 4279186713
0.073001474 0.049082149 0.33000001 4282080072
0.054684862 0.05106625 0.33600003 4279712803
0.055776194 0.05106625 0.33600003 4279778850
0.056867518 0.05106625 0.33600003 4279647775
0.057786349 0.050914265 0.33500001 4279582496
0.058698688 0.050762285 0.33400002 4279320094
0.059783522 0.050762285 0.33400002 4279320094
0.060868353 0.050762285 0.33400002 4279320094
0.061767694 0.050610296 0.333 4279386141
0.062849283 0.050610296 0.333 4279254555
0.063738875 0.050458316 0.33200002 4279386141
0.06481722 0.050458316 0.33200002 4279715106
0.065895557 0.050458316 0.33200002 4279386654
0.066973887 0.050458316 0.33200002 4279386654
0.068052225 0.050458316 0.33200002 4279255068
0.068922341 0.050306335 0.33100003 4278859797
0.06999743 0.050306335 0.33100003 4279055892
0.071072519 0.050306335 0.33100003 4279120918
0.072147608 0.050306335 0.33100003 4280895026
0.057613853 0.051847484 0.33400002 4284118883
0.058698688 0.051847484 0.33400002 4283460953
0.059783522 0.051847484 0.33400002 4281815614
0.060868353 0.051847484 0.33400002 4280960305
0.061767694 0.051692251 0.333 4279710752
0.062660545 0.051537022 0.33200002 4279381785
0.063738875 0.051537022 0.33200002 4279052820
0.06481722 0.051537022 0.33200002 4279250453
0.065895557 0.051537022 0.33200002 4279251736
0.066973887 0.051537022 0.33200002 4279712287
0.068052225 0.051537022 0.33200002 4278856976
0.068922341 0.051381789 0.33100003 4279317527
0.06999743 0.051381789 0.33100003 4280104994
0.071072519 0.051381789 0.33100003 4281946687
0.057613853 0.052932683 0.33400002 4285499511
0.058698688 0.052932683 0.33400002 4285236339
0.059783522 0.052932683 0.33400002 4284972913
0.039394122 0.041947797 0.34450066 4294967295
0.039394122 0.041947797 0.34450066 4294901760
0.039394122 0.041947797 0.34500065 4294901760
0.039394122 0.041947797 0.34550065 4294901760
0.039394122 0.041947797 0.34600067 4294901760
0.039394122 0.041947797 0.34650066 4294901760
0.039394122 0.041947797 0.34700066 4294901760
0.039394122 0.041947797 0.34750065 4294901760
0.039394122 0.041947797 0.34800068 4294901760
0.039394122 0.041947797 0.34850067 4294901760
0.039394122 0.041947797 0.34900066 4294901760
0.039394122 0.041947797 0.34950066 4294901760
0.039394122 0.041947797 0.35000065 4294901760
0.039394122 0.041947797 0.35050067 4294901760
0.039394122 0.041947797 0.35100067 4294901760
0.039394122 0.041947797 0.35150066 4294901760
0.039394122 0.041947797 0.35200065 4294901760
0.039394122 0.041947797 0.35250068 4294901760
0.039394122 0.041947797 0.35300067 4294901760
0.039394122 0.041947797 0.35350066 4294901760
0.039394122 0.041947797 0.35400066 4294901760
0.039394122 0.041947797 0.35450065 4294901760
0.039394122 0.041947797 0.35500067 4294901760
0.039394122 0.041947797 0.35550067 4294901760
0.039394122 0.041947797 0.35600066 4294901760
0.039394122 0.041947797 0.35650066 4294901760
0.039394122 0.041947797 0.35700065 4294901760
0.039394122 0.041947797 0.35750067 4294901760
0.039394122 0.041947797 0.35800067 4294901760
0.039394122 0.041947797 0.35850066 4294901760
0.039394122 0.041947797 0.35900065 4294901760
0.039394122 0.041947797 0.35950068 4294901760
0.039394122 0.041947797 0.36000067 4294901760
0.039394122 0.041947797 0.36050066 4294901760
0.039394122 0.041947797 0.36100066 4294901760
0.039394122 0.041947797 0.36150068 4294901760
0.039394122 0.041947797 0.36200067 4294901760
0.039394122 0.041947797 0.36250067 4294901760
0.039394122 0.041947797 0.36300066 4294901760
0.039394122 0.041947797 0.36350065 4294901760
0.039394122 0.041947797 0.36400068 4294901760
0.039394122 0.041947797 0.36450067 4294901760
0.039394122 0.041947797 0.36500067 4294901760
0.039394122 0.041947797 0.36550066 4294901760
0.039394122 0.041947797 0.36600065 4294901760
0.039394122 0.041947797 0.36650068 4294901760
0.039394122 0.041947797 0.36700067 4294901760
0.039394122 0.041947797 0.36750066 4294901760
0.039394122 0.041947797 0.36800066 4294901760
0.039394122 0.041947797 0.36850068 4294901760
0.039394122 0.041947797 0.36900067 4294901760
0.039394122 0.041947797 0.36950067 4294901760
0.039394122 0.041947797 0.37000066 4294901760
0.039394122 0.041947797 0.37050065 4294901760
0.039394122 0.041947797 0.37100068 4294901760
0.039394122 0.041947797 0.37150067 4294901760
0.039394122 0.041947797 0.37200066 4294901760
0.039394122 0.041947797 0.37250066 4294901760
0.039394122 0.041947797 0.37300068 4294901760
0.039394122 0.041947797 0.37350067 4294901760
0.039394122 0.041947797 0.37400067 4294901760
0.039394122 0.041947797 0.37450066 4294901760
0.039394122 0.041947797 0.37500066 4294901760
0.039394122 0.041947797 0.37550068 4294901760
0.039394122 0.041947797 0.37600067 4294901760
0.039394122 0.041947797 0.37650067 4294901760
0.039394122 0.041947797 0.37700066 4294901760
0.039394122 0.041947797 0.37750068 4294901760
0.039394122 0.041947797 0.37800068 4294901760
0.039394122 0.041947797 0.37850067 4294901760
0.039394122 0.041947797 0.37900066 4294901760
0.039394122 0.041947797 0.37950066 4294901760
0.039394122 0.041947797 0.38000068 4294901760
0.039394122 0.041947797 0.38050067 4294901760
0.039394122 0.041947797 0.38100067 4294901760
0.039394122 0.041947797 0.38150066 4294901760
0.039394122 0.041947797 0.38200068 4294901760
0.039394122 0.041947797 0.38250068 4294901760
0.039394122 0.041947797 0.38300067 4294901760
0.039394122 0.041947797 0.38350067 4294901760
0.039394122 0.041947797 0.38400066 4294901760
0.039394122 0.041947797 0.38450068 4294901760
0.039394122 0.041947797 0.38500068 4294901760
0.039394122 0.041947797 0.38550067 4294901760
0.039394122 0.041947797 0.38600066 4294901760
0.039394122 0.041947797 0.38650066 4294901760
0.039394122 0.041947797 0.38700068 4294901760
0.039394122 0.041947797 0.38750067 4294901760
0.039394122 0.041947797 0.38800067 4294901760
0.039394122 0.041947797 0.38850066 4294901760
0.039394122 0.041947797 0.38900065 4294901760
0.039394122 0.041947797 0.38950068 4294901760
0.039394122 0.041947797 0.39000067 4294901760
0.039394122 0.041947797 0.39050066 4294901760
0.039394122 0.041947797 0.39100069 4294901760
0.039394122 0.041947797 0.39150068 4294901760
0.039394122 0.041947797 0.39200068 4294901760
0.039394122 0.041947797 0.39250067 4294901760
0.039394122 0.041947797 0.39300066 4294901760
0.039394122 0.041947797 0.39350069 4294901760
0.039394122 0.041947797 0.39400068 4294901760
0.039394122 0.041947797 0.39450067 4294901760
0.039394122 0.041947797 0.34450066 4278255360
0.039608106 0.041956738 0.34495246 4278255360
0.03982209 0.041965678 0.34540427 4278255360
0.040036075 0.041974619 0.34585607 4278255360
0.040250059 0.041983556 0.3463079 4278255360
0.040464047 0.041992497 0.34675971 4278255360
0.040678032 0.042001437 0.34721151 4278255360
0.040892016 0.042010378 0.34766331 4278255360
0.041106001 0.042019319 0.34811512 4278255360
0.041319985 0.042028259 0.34856692 4278255360
0.041533969 0.0420372 0.34901875 4278255360
0.041747954 0.042046141 0.34947056 4278255360
0.041961938 0.042055078 0.34992236 4278255360
0.042175923 0.042064019 0.35037416 4278255360
0.042389911 0.042072959 0.35082597 4278255360
0.042603895 0.0420819 0.35127777 4278255360
0.042817879 0.042090841 0.3517296 4278255360
0.043031864 0.042099781 0.3521814 4278255360
0.043245848 0.042108722 0.35263321 4278255360
0.043459833 0.042117663 0.35308501 4278255360
0.043673817 0.0421266 0.35353681 4278255360
0.043887801 0.04213554 0.35398862 4278255360
0.044101786 0.042144481 0.35444045 4278255360
0.04431577 0.042153422 0.35489225 4278255360
0.044529758 0.042162362 0.35534406 4278255360
0.044743743 0.042171303 0.35579586 4278255360
0.044957727 0.042180244 0.35624766 4278255360
0.045171712 0.042189181 0.35669947 4278255360
0.045385696 0.042198122 0.35715127 4278255360
0.04559968 0.042207062 0.3576031 4278255360
0.045813665 0.042216003 0.35805491 4278255360
0.046027649 0.042224944 0.35850671 4278255360
0.046241634 0.042233884 0.35895851 4278255360
0.046455622 0.042242825 0.35941032 4278255360
0.046669606 0.042251766 0.35986212 4278255360
0.046883591 0.042260703 0.36031395 4278255360
0.047097575 0.042269643 0.36076576 4278255360
0.047311559 0.042278584 0.36121756 4278255360
0.047525544 0.042287525 0.36166936 4278255360
0.047739528 0.042296465 0.36212116 4278255360
0.047953516 0.042305406 0.36257297 4278255360
0.048167497 0.042314347 0.3630248 4278255360
0.048381485 0.042323288 0.3634766 4278255360
0.048595469 0.042332225 0.36392841 4278255360
0.048809454 0.042341165 0.36438021 4278255360
0.049023438 0.042350106 0.36483201 4278255360
0.049237423 0.042359047 0.36528382 4278255360
0.049451407 0.042367987 0.36573565 4278255360
0.049665391 0.042376928 0.36618745 4278255360
0.04987938 0.042385869 0.36663926 4278255360
0.05009336 0.042394809 0.36709106 4278255360
0.050307348 0.042403746 0.36754286 4278255360
0.050521329 0.042412687 0.36799467 4278255360
0.050735317 0.042421628 0.36844647 4278255360
0.050949302 0.042430568 0.3688983 4278255360
0.051163286 0.042439509 0.36935011 4278255360
0.05137727 0.04244845 0.36980191 4278255360
0.051591255 0.042457391 0.37025371 4278255360
0.051805239 0.042466328 0.37070552 4278255360
0.052019224 0.042475268 0.37115732 4278255360
0.052233212 0.042484209 0.37160915 4278255360
0.052447196 0.04249315 0.37206095 4278255360
0.05266118 0.04250209 0.37251276 4278255360
0.052875165 0.042511031 0.37296456 4278255360
0.053089149 0.042519972 0.37341636 4278255360
