# .PCD v0.7 - Point Cloud Data file format
VERSION 0.7
FIELDS x y z rgb
SIZE 4 4 4 4
TYPE F F F U
COUNT 1 1 1 1
WIDTH 1036
HEIGHT 1
VIEWPOINT 0 0 0 1 0 0 0
POINTS 1036
DATA ascii
0.00016742553 0.02434884 0.47500002 4278599189
0.0017102263 0.02434884 0.47500002 4278401810
-0.023409896 0.026382752 0.48400003 4278987799
-0.021792741 0.026328241 0.48300001 4278989593
-0.020140216 0.026219223 0.48100004 4278531091
-0.018577926 0.026219223 0.48100004 4278795287
-0.016980261 0.026164712 0.48000002 4278795798
-0.015389093 0.026110204 0.47900003 4278664212
-0.0138333 0.026110204 0.47900003 4278401810
-0.012277507 0.026110204 0.47900003 4278401812
-0.010699331 0.026055692 0.47800002 4278466835
-0.0091467863 0.026055692 0.47800002 4278466835
-0.0075783534 0.026001183 0.47700003 4278466833
-0.0060290569 0.026001183 0.47700003 4278532626
-0.0044703684 0.025946673 0.47600001 4278200843
-0.0029243196 0.025946673 0.47600001 4278198530
-0.0013753753 0.025892163 0.47500002 4278663701
0.00016742553 0.025892163 0.47500002 4278597908
0.0017102263 0.025892163 0.47500002 4278466833
0.0032530271 0.025892163 0.47500002 4278664212
0.0047958279 0.025892163 0.47500002 4278598419
0.023211293 0.025783144 0.47300002 4278665496
0.024695277 0.025728634 0.47200003 4278862875
0.027761392 0.025728634 0.47200003 4278928670
0.02929445 0.025728634 0.47200003 4279059742
0.037116341 0.025837654 0.47400004 4280965180
0.038655896 0.025837654 0.47400004 4283397724
-0.023361526 0.027897557 0.48300001 4278988310
-0.021747623 0.027839798 0.48200002 4279121947
-0.020140216 0.027782042 0.48100004 4278729494
-0.018539302 0.027724281 0.48000002 4278795800
-0.016944887 0.027666522 0.47900003 4278664212
-0.015389093 0.027666522 0.47900003 4278664212
-0.013804421 0.027608763 0.47800002 4278664212
-0.012251875 0.027608763 0.47800002 4278532626
-0.010676947 0.027551005 0.47700003 4278466833
-0.0091276504 0.027551005 0.47700003 4278466833
-0.0075783534 0.027551005 0.47700003 4278532626
-0.0060164174 0.027493244 0.47600001 4278466835
-0.0044703684 0.027493244 0.47600001 4278200074
-0.0029243196 0.027493244 0.47600001 4278529296
-0.0013753753 0.027435487 0.47500002 4278728470
0.00016742553 0.027435487 0.47500002 4278465298
0.0017102263 0.027435487 0.47500002 4278399505
0.0032530271 0.027435487 0.47500002 4278662931
0.0047958279 0.027435487 0.47500002 4278531345
0.006325285 0.027377728 0.47400004 4278531345
0.007881429 0.027435487 0.47500002 4278400529
0.009424231 0.027435487 0.47500002 4278334736
0.012536168 0.027493244 0.47600001 4278532115
0.014082218 0.027493244 0.47600001 4278400527
0.015628267 0.027493244 0.47600001 4278663699
0.017138233 0.027435487 0.47500002 4278598419
0.018681034 0.027435487 0.47500002 4278598419
0.020223835 0.027435487 0.47500002 4278203404
0.021720814 0.027377728 0.47400004 4278532626
0.023211293 0.027319968 0.47300002 4278401810
0.024747597 0.027319968 0.47300002 4278533396
0.026283903 0.027319968 0.47300002 4278599189
0.027761392 0.027262211 0.47200003 4278401810
0.02929445 0.027262211 0.47200003 4278665496
0.030892815 0.027319968 0.47300002 4278665494
0.032429121 0.027319968 0.47300002 4278665494
0.033965427 0.027319968 0.47300002 4278731287
0.03550173 0.027319968 0.47300002 4278862875
0.037116341 0.027377728 0.47400004 4278862877
0.038655896 0.027377728 0.47400004 4278665244
0.040280249 0.027435487 0.47500002 4279125281
0.041911095 0.027493244 0.47600001 4278927904
0.043457143 0.027493244 0.47600001 4279190052
-0.023361526 0.029466873 0.48300001 4279317529
-0.021747623 0.029405866 0.48200002 4278924566
-0.020140216 0.029344859 0.48100004 4278729494
-0.018539302 0.02928385 0.48000002 4278664214
-0.016944887 0.029222842 0.47900003 4278664214
-0.015356964 0.029161833 0.47800002 4278730007
-0.013804421 0.029161833 0.47800002 4278532628
-0.012226244 0.029100826 0.47700003 4278532628
-0.010676947 0.029100826 0.47700003 4278335249
-0.0091276504 0.029100826 0.47700003 4278598421
-0.0075624655 0.029039817 0.47600001 4278400529
-0.0060164174 0.029039817 0.47600001 4278202893
-0.0044703684 0.029039817 0.47600001 4278195968
-0.0029181761 0.02897881 0.47500002 4278594576
-0.0013753753 0.02897881 0.47500002 4278595603
0.00016742553 0.02897881 0.47500002 4278197765
0.0017102263 0.02897881 0.47500002 4278196488
0.0032530271 0.02897881 0.47500002 4278195974
0.0047958279 0.02897881 0.47500002 4278196999
0.0063386289 0.02897881 0.47500002 4278195200
0.007881429 0.02897881 0.47500002 4278197254
0.009424231 0.02897881 0.47500002 4278460937
0.010967032 0.02897881 0.47500002 4278791185
0.012536168 0.029039817 0.47600001 4278923541
0.014082218 0.029039817 0.47600001 4278661394
0.015628267 0.029039817 0.47600001 4278596625
0.017174315 0.029039817 0.47600001 4278926103
0.018681034 0.02897881 0.47500002 4278531345
0.020223835 0.02897881 0.47500002 4278532115
0.021720814 0.028917802 0.47400004 4278400529
0.023260366 0.028917802 0.47400004 4278663699
0.024747597 0.028856793 0.47300002 4278268941
0.026283903 0.028856793 0.47300002 4278400527
0.027820207 0.028856793 0.47300002 4278334736
0.029356513 0.028856793 0.47300002 4278269456
0.030892815 0.028856793 0.47300002 4278466833
0.032429121 0.028856793 0.47300002 4278204429
0.033965427 0.028856793 0.47300002 4278533394
0.035576787 0.028917802 0.47400004 4278467601
0.037116341 0.028917802 0.47400004 4278468115
0.038737446 0.02897881 0.47500002 4278533908
0.040365048 0.029039817 0.47600001 4278665496
0.041911095 0.029039817 0.47600001 4278533910
0.043548442 0.029100826 0.47700003 4278797084
0.045192283 0.029161833 0.47800002 4278862877
0.04684262 0.029222842 0.47900003 4278994463
0.048398416 0.029222842 0.47900003 4278994209
0.050058495 0.02928385 0.48000002 4278402072
0.051617533 0.02928385 0.48000002 4279122976
-0.023313159 0.030971935 0.48200002 4279185943
-0.021702504 0.030907677 0.48100004 4278859543
-0.020098343 0.03084342 0.48000002 4278532115
-0.01850068 0.030779164 0.47900003 4278795287
-0.016944887 0.030779164 0.47900003 4278730007
-0.015356964 0.030714905 0.47800002 4278730007
-0.013804421 0.030714905 0.47800002 4278466835
-0.012226244 0.030650649 0.47700003 4278532628
-0.010676947 0.030650649 0.47700003 4278532628
-0.0091085145 0.030586392 0.47600001 4278466835
-0.0075624655 0.030586392 0.47600001 4278335249
-0.0060164174 0.030586392 0.47600001 4278729494
-0.0044703684 0.030586392 0.47600001 4278194944
-0.0029181761 0.030522134 0.47500002 4279185943
-0.0013753753 0.030522134 0.47500002 4279384092
0.00016742553 0.030522134 0.47500002 4278328074
0.0017102263 0.030522134 0.47500002 4278588939
0.0032530271 0.030522134 0.47500002 4278654218
0.0047958279 0.030522134 0.47500002 4278654218
0.0063386289 0.030522134 0.47500002 4278654218
0.007881429 0.030522134 0.47500002 4278720011
0.009424231 0.030522134 0.47500002 4278720011
0.01099012 0.030586392 0.47600001 4278523146
0.012536168 0.030586392 0.47600001 4278391560
0.014082218 0.030586392 0.47600001 4278196999
0.015628267 0.030586392 0.47600001 4278660369
0.017174315 0.030586392 0.47600001 4278198533
0.018681034 0.030522134 0.47500002 4278198019
0.020223835 0.030522134 0.47500002 4278194944
0.021766638 0.030522134 0.47500002 4278195968
0.023260366 0.030457878 0.47400004 4278198022
0.024799919 0.030457878 0.47400004 4278199564
0.026339471 0.030457878 0.47400004 4278594835
0.027820207 0.030393621 0.47300002 4278660628
0.029356513 0.030393621 0.47300002 4278727187
0.030892815 0.030393621 0.47300002 4278596371
0.032497685 0.030457878 0.47400004 4278399759
0.034037236 0.030457878 0.47400004 4278662931
0.035576787 0.030457878 0.47400004 4278400527
0.037194647 0.030522134 0.47500002 4278532113
0.038737446 0.030522134 0.47500002 4278532113
0.040365048 0.030586392 0.47600001 4278466833
0.041999146 0.030650649 0.47700003 4278269454
0.043548442 0.030650649 0.47700003 4278401810
0.045192283 0.030714905 0.47800002 4278336017
0.04684262 0.030779164 0.47900003 4278599189
0.048398416 0.030779164 0.47900003 4278731289
0.050058495 0.03084342 0.48000002 4278731289
0.051617533 0.03084342 0.48000002 4278797084
0.053287365 0.030907677 0.48100004 4278994463
0.054849651 0.030907677 0.48100004 4278597404
-0.023313159 0.032538 0.48200002 4279186711
-0.021702504 0.032470495 0.48100004 4278926101
-0.020098343 0.032402989 0.48000002 4278729492
-0.01850068 0.032335483 0.47900003 4278664212
-0.016944887 0.032335483 0.47900003 4278664212
-0.015356964 0.032267977 0.47800002 4278532628
-0.013775541 0.032200471 0.47700003 4278466835
-0.012226244 0.032200471 0.47700003 4278664214
-0.010676947 0.032200471 0.47700003 4278466835
-0.0091085145 0.032132965 0.47600001 4278597908
-0.0075624655 0.032132965 0.47600001 4278597908
-0.0060164174 0.032132965 0.47600001 4278861080
-0.0044703684 0.032132965 0.47600001 4278195200
-0.0029181761 0.032065459 0.47500002 4279252506
-0.0013753753 0.032065459 0.47500002 4278527248
0.00016742553 0.032065459 0.47500002 4278260746
0.0017102263 0.032065459 0.47500002 4278458636
0.0032530271 0.032065459 0.47500002 4278984467
0.0047958279 0.032065459 0.47500002 4279905569
0.0063386289 0.032065459 0.47500002 4279313432
0.007881429 0.032065459 0.47500002 4279774237
0.009424231 0.032065459 0.47500002 4278654732
0.01099012 0.032132965 0.47600001 4278918674
0.012536168 0.032132965 0.47600001 4278720525
0.014082218 0.032132965 0.47600001 4278195204
0.015628267 0.032132965 0.47600001 4278988564
0.017174315 0.032132965 0.47600001 4278924566
0.018720362 0.032132965 0.47600001 4279121945
0.020266412 0.032132965 0.47600001 4278924566
0.021766638 0.032065459 0.47500002 4278989845
0.023309439 0.032065459 0.47500002 4279187224
0.024799919 0.031997953 0.47400004 4278858259
0.026339471 0.031997953 0.47400004 4278726675
0.027879026 0.031997953 0.47400004 4279318812
0.029418578 0.031997953 0.47400004 4278594576
0.030958129 0.031997953 0.47400004 4278331404
0.032497685 0.031997953 0.47400004 4278197765
0.034037236 0.031997953 0.47400004 4278195712
0.035651844 0.032065459 0.47500002 4278195456
0.037194647 0.032065459 0.47500002 4278195456
0.038818996 0.032132965 0.47600001 4278197765
0.04044985 0.032200471 0.47700003 4278199817
0.041999146 0.032200471 0.47700003 4278529294
0.043639734 0.032267977 0.47800002 4278792466
0.045286831 0.032335483 0.47900003 4278333453
0.04684262 0.032335483 0.47900003 4278532115
0.048499454 0.032402989 0.48000002 4278598421
0.050058495 0.032402989 0.48000002 4278598421
0.051725071 0.032470495 0.48100004 4278401812
0.053287365 0.032470495 0.48100004 4278862363
0.054849651 0.032470495 0.48100004 4278993949
0.056411941 0.032470495 0.48100004 4278597402
-0.023313159 0.034104068 0.48200002 4279318551
-0.021702504 0.034033313 0.48100004 4278925588
-0.020098343 0.033962559 0.48000002 4278663699
-0.01850068 0.033891805 0.47900003 4278729492
-0.01690951 0.033821046 0.47800002 4278533396
-0.015356964 0.033821046 0.47800002 4278467603
-0.013775541 0.033750292 0.47700003 4278203660
-0.012226244 0.033750292 0.47700003 4278401810
-0.010676947 0.033750292 0.47700003 4278336019
-0.0091085145 0.033679534 0.47600001 4278598421
-0.0075624655 0.033679534 0.47600001 4278532628
-0.0060164174 0.033679534 0.47600001 4279123482
-0.0044703684 0.033679534 0.47600001 4278195714
-0.0029243196 0.033679534 0.47600001 4279120918
-0.0013753753 0.033608783 0.47500002 4278592271
0.00016742553 0.033608783 0.47500002 4278590222
0.0017102263 0.033608783 0.47500002 4278195464
0.0032530271 0.033608783 0.47500002 4279511578
0.0047958279 0.033608783 0.47500002 4279840030
0.0063386289 0.033608783 0.47500002 4278391560
0.007881429 0.033608783 0.47500002 4278656015
0.009444071 0.033679534 0.47600001 4278458123
0.01099012 0.033679534 0.47600001 4278985750
0.012536168 0.033679534 0.47600001 4278196234
0.014082218 0.033679534 0.47600001 4278195458
0.015628267 0.033679534 0.47600001 4278857748
0.017174315 0.033679534 0.47600001 4278199561
0.018720362 0.033679534 0.47600001 4278197254
0.020266412 0.033679534 0.47600001 4278195971
0.021812461 0.033679534 0.47600001 4278725392
0.023309439 0.033608783 0.47500002 4278198276
0.024852239 0.033608783 0.47500002 4278199816
0.02639504 0.033608783 0.47500002 4278661394
0.027937841 0.033608783 0.47500002 4278199301
0.029480642 0.033608783 0.47500002 4278661394
0.031023441 0.033608783 0.47500002 4278793750
0.032566246 0.033608783 0.47500002 4278727957
0.034109045 0.033608783 0.47500002 4278793750
0.035651844 0.033608783 0.47500002 4278858773
0.037272949 0.033679534 0.47600001 4278858773
0.03890055 0.033750292 0.47700003 4278989847
0.04044985 0.033750292 0.47700003 4278923541
0.042087194 0.033821046 0.47800002 4279120920
0.043639734 0.033821046 0.47800002 4278857748
0.045286831 0.033891805 0.47900003 4278790418
0.046940412 0.033962559 0.48000002 4278989847
0.048499454 0.033962559 0.48000002 4278663447
0.050162785 0.034033313 0.48100004 4278663447
0.051725071 0.034033313 0.48100004 4278466835
0.053287365 0.034033313 0.48100004 4278664214
0.054849651 0.034033313 0.48100004 4278730007
0.056411941 0.034033313 0.48100004 4278663960
0.058094755 0.034104068 0.48200002 4284515696
-0.023313159 0.035670135 0.48200002 4279385371
-0.021702504 0.035596132 0.48100004 4278859797
-0.020098343 0.035522126 0.48000002 4278992664
-0.01850068 0.035448123 0.47900003 4278664212
-0.01690951 0.035374116 0.47800002 4278532626
-0.015356964 0.035374116 0.47800002 4278598419
-0.013775541 0.035300113 0.47700003 4278335247
-0.012226244 0.035300113 0.47700003 4278532626
-0.010676947 0.035300113 0.47700003 4278335249
-0.0091085145 0.035226107 0.47600001 4278532628
-0.0075624655 0.035226107 0.47600001 4278597908
-0.0060164174 0.035226107 0.47600001 4278529808
-0.0044703684 0.035226107 0.47600001 4278262792
-0.0029243196 0.035226107 0.47600001 4278857748
-0.0013782708 0.035226107 0.47600001 4278526478
0.00016777799 0.035226107 0.47600001 4278524170
0.0017102263 0.035152104 0.47500002 4278654732
0.0032530271 0.035152104 0.47500002 4278654218
0.0047958279 0.035152104 0.47500002 4278523146
0.0063386289 0.035152104 0.47500002 4278654218
0.007881429 0.035152104 0.47500002 4278654732
0.009444071 0.035226107 0.47600001 4278983697
0.01099012 0.035226107 0.47600001 4279446555
0.012536168 0.035226107 0.47600001 4278986002
0.014082218 0.035226107 0.47600001 4279118099
0.015628267 0.035226107 0.47600001 4278857746
0.017174315 0.035226107 0.47600001 4278196999
0.018720362 0.035226107 0.47600001 4278458890
0.020266412 0.035226107 0.47600001 4278524170
0.021812461 0.035226107 0.47600001 4278196226
0.023358511 0.035226107 0.47600001 4279055640
0.024904558 0.035226107 0.47600001 4278197504
0.026450608 0.035226107 0.47600001 4278331404
0.027937841 0.035152104 0.47500002 4278792468
0.029480642 0.035152104 0.47500002 4278198275
0.031023441 0.035152104 0.47500002 4278198532
0.032566246 0.035152104 0.47500002 4278199817
0.03418085 0.035226107 0.47600001 4278660882
0.035726897 0.035226107 0.47600001 4279121431
0.037351254 0.035300113 0.47700003 4278200329
0.03890055 0.035300113 0.47700003 4278792466
0.040534649 0.035374116 0.47800002 4278858773
0.042087194 0.035374116 0.47800002 4278924566
0.043731034 0.035448123 0.47900003 4278924566
0.045381371 0.035522126 0.48000002 4278397197
0.046940412 0.035522126 0.48000002 4278989847
0.048499454 0.035522126 0.48000002 4278531861
0.050162785 0.035596132 0.48100004 4278597908
0.051725071 0.035596132 0.48100004 4278663701
0.053287365 0.035596132 0.48100004 4278663701
0.054963682 0.035670135 0.48200002 4278531861
0.05652922 0.035670135 0.48200002 4278728470
0.058094755 0.035670135 0.48200002 4284318317
-0.028242216 0.037545215 0.48600003 4285169261
-0.023313159 0.037236203 0.48200002 4279450396
-0.021702504 0.037158951 0.48100004 4278991129
-0.020098343 0.037081696 0.48000002 4278861080
-0.01850068 0.037004441 0.47900003 4278861080
-0.016944887 0.037004441 0.47900003 4278795800
-0.015356964 0.036927186 0.47800002 4278466835
-0.013804421 0.036927186 0.47800002 4278663699
-0.012226244 0.036849935 0.47700003 4278400527
-0.010676947 0.036849935 0.47700003 4278663699
-0.0091276504 0.036849935 0.47700003 4278597906
-0.0075624655 0.03677268 0.47600001 4278861080
-0.0060164174 0.03677268 0.47600001 4278201099
-0.0044703684 0.03677268 0.47600001 4278198790
-0.0029243196 0.03677268 0.47600001 4278858775
-0.0013782708 0.03677268 0.47600001 4279186972
0.00016777799 0.03677268 0.47600001 4278262792
0.0017138268 0.03677268 0.47600001 4278194951
0.0032530271 0.036695428 0.47500002 4278523146
0.0047958279 0.036695428 0.47500002 4278720011
0.0063386289 0.036695428 0.47500002 4278654218
0.007881429 0.036695428 0.47500002 4278720011
0.009444071 0.03677268 0.47600001 4278851086
0.01099012 0.03677268 0.47600001 4278654220
0.012536168 0.03677268 0.47600001 4278523146
0.014082218 0.03677268 0.47600001 4278789648
0.015628267 0.03677268 0.47600001 4279055125
0.017210396 0.036849935 0.47700003 4278591757
0.018759692 0.036849935 0.47700003 4278524170
0.02030899 0.036849935 0.47700003 4278459658
0.021812461 0.03677268 0.47600001 4279250969
0.023358511 0.03677268 0.47600001 4278198276
0.024904558 0.03677268 0.47600001 4278791955
0.026450608 0.03677268 0.47600001 4278397197
0.027996656 0.03677268 0.47600001 4278857748
0.029542705 0.03677268 0.47600001 4278265611
0.031088753 0.03677268 0.47600001 4278199561
0.032634802 0.03677268 0.47600001 4278593554
0.03418085 0.03677268 0.47600001 4278198026
0.035801958 0.036849935 0.47700003 4278196481
0.037351254 0.036849935 0.47700003 4279251736
0.038982101 0.036927186 0.47800002 4278593806
0.040534649 0.036927186 0.47800002 4278725392
0.042175245 0.037004441 0.47900003 4278197248
0.043731034 0.037004441 0.47900003 4279319578
0.045381371 0.037081696 0.48000002 4278265611
0.046940412 0.037081696 0.48000002 4278989847
0.048600499 0.037158951 0.48100004 4278531091
0.050162785 0.037158951 0.48100004 4278860056
0.051725071 0.037158951 0.48100004 4278662677
0.053398147 0.037236203 0.48200002 4278597654
0.054963682 0.037236203 0.48200002 4278531861
0.05652922 0.037236203 0.48200002 4278465300
0.058094755 0.037236203 0.48200002 4283068250
-0.026718551 0.039204784 0.48700002 4284577639
-0.023361526 0.03888277 0.48300001 4279779111
-0.021747623 0.03880227 0.48200002 4279056924
-0.020140216 0.038721766 0.48100004 4279058207
-0.018539302 0.038641263 0.48000002 4278992412
-0.016944887 0.038560763 0.47900003 4278466581
-0.015356964 0.038480259 0.47800002 4278598167
-0.013804421 0.038480259 0.47800002 4278729494
-0.012226244 0.038399756 0.47700003 4278663699
-0.010676947 0.038399756 0.47700003 4278729492
-0.0091276504 0.038399756 0.47700003 4278597906
-0.0075783534 0.038399756 0.47700003 4278400275
-0.0060290569 0.038399756 0.47700003 4278794263
-0.0044703684 0.038319252 0.47600001 4278595087
-0.0029243196 0.038319252 0.47600001 4278859543
-0.0013782708 0.038319252 0.47600001 4278662677
0.00016777799 0.038319252 0.47600001 4278662677
0.0017138268 0.038319252 0.47600001 4278990359
0.0032598756 0.038319252 0.47600001 4279055638
0.0048059244 0.038319252 0.47600001 4279055127
0.0063386289 0.038238753 0.47500002 4279383322
0.0078980215 0.038319252 0.47600001 4279251482
0.009444071 0.038319252 0.47600001 4279514141
0.01099012 0.038319252 0.47600001 4279513373
0.012536168 0.038319252 0.47600001 4278657550
0.014082218 0.038319252 0.47600001 4279054103
0.015628267 0.038319252 0.47600001 4278196224
0.017210396 0.038399756 0.47700003 4278195200
0.018759692 0.038399756 0.47700003 4278195712
0.02030899 0.038399756 0.47700003 4278195714
0.021858286 0.038399756 0.47700003 4278527248
0.023407584 0.038399756 0.47700003 4279251736
0.02495688 0.038399756 0.47700003 4279449115
0.026450608 0.038319252 0.47600001 4279186713
0.027996656 0.038319252 0.47600001 4278923541
0.029542705 0.038319252 0.47600001 4278923541
0.031088753 0.038319252 0.47600001 4278989847
0.032703366 0.038399756 0.47700003 4279055640
0.034252662 0.038399756 0.47700003 4279186713
0.035801958 0.038399756 0.47700003 4279120920
0.03742956 0.038480259 0.47800002 4278462990
0.038982101 0.038480259 0.47800002 4278922517
0.040619452 0.038560763 0.47900003 4278197509
0.042175245 0.038560763 0.47900003 4278199045
0.043822329 0.038641263 0.48000002 4279055638
0.045381371 0.038641263 0.48000002 4278196992
0.046940412 0.038641263 0.48000002 4279648291
0.048600499 0.038721766 0.48100004 4278662677
0.050162785 0.038721766 0.48100004 4278531861
0.051725071 0.038721766 0.48100004 4278400275
0.053398147 0.03880227 0.48200002 4278400275
0.054963682 0.03880227 0.48200002 4278597654
0.05652922 0.03880227 0.48200002 4278925851
0.058094755 0.03880227 0.48200002 4282344788
-0.02682828 0.040954597 0.48900002 4284248674
-0.025136774 0.040787093 0.48700002 4284512616
-0.023458261 0.040619589 0.48500001 4283394648
-0.020140216 0.040284585 0.48100004 4278858521
-0.018539302 0.040200833 0.48000002 4279516451
-0.016944887 0.040117081 0.47900003 4279386402
-0.015389093 0.040117081 0.47900003 4279122976
-0.013804421 0.040033329 0.47800002 4279188769
-0.012251875 0.040033329 0.47800002 4278991644
-0.010676947 0.039949577 0.47700003 4278925851
-0.0091276504 0.039949577 0.47700003 4278728470
-0.0075783534 0.039949577 0.47700003 4278991642
-0.0060290569 0.039949577 0.47700003 4278860056
-0.0044797603 0.039949577 0.47700003 4278794263
-0.0029304633 0.039949577 0.47700003 4278860056
-0.0013782708 0.039865825 0.47600001 4278860056
0.00016777799 0.039865825 0.47600001 4278728724
0.0017138268 0.039865825 0.47600001 4278794517
0.0032598756 0.039865825 0.47600001 4278662931
0.0048059244 0.039865825 0.47600001 4278728211
0.0063519734 0.039865825 0.47600001 4278859797
0.0078980215 0.039865825 0.47600001 4278662931
0.009444071 0.039865825 0.47600001 4278728724
0.01099012 0.039865825 0.47600001 4278859797
0.012536168 0.039865825 0.47600001 4278859543
0.014082218 0.039865825 0.47600001 4278793750
0.015628267 0.039865825 0.47600001 4278793750
0.017210396 0.039949577 0.47700003 4278858773
0.018759692 0.039949577 0.47700003 4278924566
0.02030899 0.039949577 0.47700003 4278989845
0.021858286 0.039949577 0.47700003 4279252506
0.023407584 0.039949577 0.47700003 4279515678
0.02495688 0.039949577 0.47700003 4279251736
0.026506176 0.039949577 0.47700003 4279185943
0.028055474 0.039949577 0.47700003 4278264841
0.02960477 0.039949577 0.47700003 4278198024
0.031154066 0.039949577 0.47700003 4278195970
0.032703366 0.039949577 0.47700003 4278194176
0.034252662 0.039949577 0.47700003 4278196225
0.035877012 0.040033329 0.47800002 4278197510
0.03742956 0.040033329 0.47800002 4278395660
0.039063655 0.040117081 0.47900003 4278593039
0.040619452 0.040117081 0.47900003 4279317275
0.042263292 0.040200833 0.48000002 4279383322
0.043822329 0.040200833 0.48000002 4279251736
0.045381371 0.040200833 0.48000002 4278198279
0.047038205 0.040284585 0.48100004 4278990361
0.048600499 0.040284585 0.48100004 4278465300
0.050162785 0.040284585 0.48100004 4278662679
0.051725071 0.040284585 0.48100004 4278531861
0.053287365 0.040284585 0.48100004 4278597654
0.054963682 0.040368337 0.48200002 4278728472
0.05652922 0.040368337 0.48200002 4278595349
0.058094755 0.040368337 0.48200002 4284908919
-0.02518839 0.042456411 0.48800004 4284117858
-0.02350663 0.042282406 0.48600003 4284315237
-0.021882981 0.042195406 0.48500001 4284513129
-0.020182086 0.041934405 0.48200002 4284711022
-0.018577926 0.041847404 0.48100004 4285303159
-0.016980261 0.0417604 0.48000002 4284448366
-0.015389093 0.0416734 0.47900003 4282541652
-0.013804421 0.041586399 0.47800002 4280568629
-0.012251875 0.041586399 0.47800002 4279515941
-0.010699331 0.041586399 0.47800002 4278595099
-0.0091276504 0.041499399 0.47700003 4278726687
-0.0075783534 0.041499399 0.47700003 4278661144
-0.0060290569 0.041499399 0.47700003 4278661144
-0.0044797603 0.041499399 0.47700003 4278924314
-0.0029304633 0.041499399 0.47700003 4278990107
-0.0013811664 0.041499399 0.47700003 4278859543
0.00016777799 0.041412398 0.47600001 4278925336
0.0017138268 0.041412398 0.47600001 4278925336
0.0032598756 0.041412398 0.47600001 4278793750
0.0048059244 0.041412398 0.47600001 4278794004
0.0063519734 0.041412398 0.47600001 4278859797
0.0078980215 0.041412398 0.47600001 4278860310
0.009444071 0.041412398 0.47600001 4278926103
0.01099012 0.041412398 0.47600001 4278794517
0.012536168 0.041412398 0.47600001 4278728724
0.014082218 0.041412398 0.47600001 4278728724
0.015628267 0.041412398 0.47600001 4278531345
0.017210396 0.041499399 0.47700003 4278794517
0.018759692 0.041499399 0.47700003 4278794517
0.02030899 0.041499399 0.47700003 4278662677
0.021858286 0.041499399 0.47700003 4278794263
0.023407584 0.041499399 0.47700003 4278728470
0.02495688 0.041499399 0.47700003 4278728470
0.026506176 0.041499399 0.47700003 4278727957
0.028055474 0.041499399 0.47700003 4278793750
0.02960477 0.041499399 0.47700003 4278727957
0.031154066 0.041499399 0.47700003 4278793750
0.032703366 0.041499399 0.47700003 4278924566
0.034252662 0.041499399 0.47700003 4278990359
0.035877012 0.041586399 0.47800002 4279450144
0.03742956 0.041586399 0.47800002 4278989593
0.039063655 0.0416734 0.47900003 4279252765
0.040619452 0.0416734 0.47900003 4279318045
0.042263292 0.0417604 0.48000002 4278790931
0.043822329 0.0417604 0.48000002 4278461966
0.045381371 0.0417604 0.48000002 4278857748
0.047038205 0.041847404 0.48100004 4279056152
0.048600499 0.041847404 0.48100004 4278663447
0.050162785 0.041847404 0.48100004 4278531861
0.051725071 0.041847404 0.48100004 4278597654
0.053287365 0.041847404 0.48100004 4278729240
0.054963682 0.041934405 0.48200002 4278991644
0.05652922 0.041934405 0.48200002 4279450148
-0.021928102 0.043861475 0.48600003 4284380776
-0.020223958 0.043590721 0.48300001 4284512875
-0.018577926 0.043410223 0.48100004 4284776047
-0.016980261 0.043319974 0.48000002 4284907887
-0.015389093 0.043229725 0.47900003 4284776301
-0.0138333 0.043229725 0.47900003 4284841840
-0.012251875 0.043139473 0.47800002 4284973426
-0.010699331 0.043139473 0.47800002 4284907633
-0.0091467863 0.043139473 0.47800002 4284841840
-0.0075783534 0.043049224 0.47700003 4284907887
-0.0060290569 0.043049224 0.47700003 4284645229
-0.0044797603 0.043049224 0.47700003 4283987817
-0.0029304633 0.043049224 0.47700003 4282737748
-0.0013811664 0.043049224 0.47700003 4282080072
0.00016777799 0.042958971 0.47600001 4280303661
0.0017138268 0.042958971 0.47600001 4279251232
0.0032598756 0.042958971 0.47600001 4278594072
0.0048059244 0.042958971 0.47600001 4278660630
0.0063519734 0.042958971 0.47600001 4278792216
0.0078980215 0.042958971 0.47600001 4279252765
0.009444071 0.042958971 0.47600001 4279055386
0.01099012 0.042958971 0.47600001 4279121693
0.012536168 0.042958971 0.47600001 4279055900
0.014082218 0.042958971 0.47600001 4279187740
0.015628267 0.042958971 0.47600001 4278924568
0.017210396 0.043049224 0.47700003 4278991131
0.018759692 0.043049224 0.47700003 4278860058
0.02030899 0.043049224 0.47700003 4278925851
0.021858286 0.043049224 0.47700003 4278794265
0.023407584 0.043049224 0.47700003 4278662679
0.02495688 0.043049224 0.47700003 4278860056
0.026506176 0.043049224 0.47700003 4278662677
0.028055474 0.043049224 0.47700003 4278794263
0.02960477 0.043049224 0.47700003 4278728470
0.031154066 0.043049224 0.47700003 4278794263
0.032703366 0.043049224 0.47700003 4278860056
0.034324467 0.043139473 0.47800002 4278728470
0.035877012 0.043139473 0.47800002 4278728470
0.03742956 0.043139473 0.47800002 4278860056
0.039063655 0.043229725 0.47900003 4278925849
0.040619452 0.043229725 0.47900003 4278860056
0.042263292 0.043319974 0.48000002 4278794265
0.043822329 0.043319974 0.48000002 4278859545
0.045381371 0.043319974 0.48000002 4279187738
0.047038205 0.043410223 0.48100004 4278859797
0.048600499 0.043410223 0.48100004 4278794517
0.050162785 0.043410223 0.48100004 4278728724
0.051725071 0.043410223 0.48100004 4278794517
0.053398147 0.043500472 0.48200002 4278925849
0.054963682 0.043500472 0.48200002 4279121695
0.05652922 0.043500472 0.48200002 4284250987
0.01099012 0.044505544 0.47600001 4284252524
0.012536168 0.044505544 0.47600001 4283528801
0.014082218 0.044505544 0.47600001 4281950028
0.015628267 0.044505544 0.47600001 4280239410
0.017210396 0.044599045 0.47700003 4279186722
0.018759692 0.044599045 0.47700003 4278594839
0.02030899 0.044599045 0.47700003 4278792218
0.021858286 0.044599045 0.47700003 4278660632
0.023407584 0.044599045 0.47700003 4278726425
0.02495688 0.044599045 0.47700003 4279121181
0.026506176 0.044599045 0.47700003 4279121181
0.028055474 0.044599045 0.47700003 4278661144
0.02960477 0.044599045 0.47700003 4278595351
0.031154066 0.044599045 0.47700003 4278924316
0.032703366 0.044599045 0.47700003 4279055902
0.034324467 0.044692542 0.47800002 4278990109
0.035877012 0.044692542 0.47800002 4279055902
0.037507866 0.044786043 0.47900003 4279121695
0.039063655 0.044786043 0.47900003 4279056670
0.04070425 0.044879541 0.48000002 4278925084
0.042263292 0.044879541 0.48000002 4279121693
0.043822329 0.044879541 0.48000002 4278990361
0.045475919 0.044973042 0.48100004 4279056154
0.047038205 0.044973042 0.48100004 4278924568
0.048600499 0.044973042 0.48100004 4279121947
0.050162785 0.044973042 0.48100004 4279319326
0.051832609 0.045066539 0.48200002 4279385119
0.053398147 0.045066539 0.48200002 4278924314
0.054963682 0.045066539 0.48200002 4283790438
0.039063655 0.046342365 0.47900003 4284318063
0.04070425 0.046439111 0.48000002 4284186477
0.042263292 0.046439111 0.48000002 4283989098
0.043822329 0.046439111 0.48000002 4283331168
0.045475919 0.046535861 0.48100004 4283725410
0.047038205 0.046535861 0.48100004 4283593824
0.048600499 0.046535861 0.48100004 4283462238
0.050267071 0.046632607 0.48200002 4283527777
0.051832609 0.046632607 0.48200002 4284579952
0.053398147 0.046632607 0.48200002 4284843124
0.054963682 0.046632607 0.48200002 4284579184
0.048600499 0.04809868 0.48100004 4284644975
0.050267071 0.048198674 0.48200002 4284710768
0.051832609 0.048198674 0.48200002 4284579182
0.053398147 0.048198674 0.48200002 4284710768
0.054963682 0.048198674 0.48200002 4284644975
0.014718052 0.034939241 0.47767004 4294967295
0.014718052 0.034939241 0.47767004 4294901760
0.014763847 0.034445506 0.47760579 4294901760
0.014809642 0.033951771 0.47754154 4294901760
0.014855437 0.033458035 0.47747728 4294901760
0.014901232 0.032964297 0.47741306 4294901760
0.014947027 0.032470562 0.4773488 4294901760
0.014992822 0.031976826 0.47728455 4294901760
0.015038617 0.031483091 0.4772203 4294901760
0.015084412 0.030989356 0.47715604 4294901760
0.015130207 0.030495619 0.47709179 4294901760
0.015176002 0.030001884 0.47702757 4294901760
0.015221797 0.029508147 0.47696331 4294901760
0.015267592 0.029014412 0.47689906 4294901760
0.015313387 0.028520677 0.4768348 4294901760
0.015359182 0.028026942 0.47677055 4294901760
0.015404977 0.027533205 0.4767063 4294901760
0.015450772 0.02703947 0.47664207 4294901760
0.015496567 0.026545733 0.47657782 4294901760
0.015542362 0.026051998 0.47651356 4294901760
0.015588157 0.025558263 0.47644931 4294901760
0.015633952 0.025064528 0.47638506 4294901760
0.015679747 0.024570793 0.4763208 4294901760
0.015725542 0.024077056 0.47625658 4294901760
0.015771337 0.023583319 0.47619233 4294901760
0.015817132 0.023089584 0.47612807 4294901760
0.015862927 0.022595849 0.47606382 4294901760
0.015908722 0.022102114 0.47599956 4294901760
0.015954517 0.021608377 0.47593531 4294901760
0.016000312 0.021114642 0.47587106 4294901760
0.016046107 0.020620907 0.47580683 4294901760
0.016091902 0.02012717 0.47574258 4294901760
0.016137697 0.019633435 0.47567832 4294901760
0.016183492 0.0191397 0.47561407 4294901760
0.016229287 0.018645963 0.47554982 4294901760
0.016275082 0.018152228 0.47548556 4294901760
0.016320877 0.017658493 0.47542134 4294901760
0.016366672 0.017164756 0.47535709 4294901760
0.016412467 0.016671021 0.47529283 4294901760
0.016458262 0.016177285 0.47522858 4294901760
0.016504057 0.01568355 0.47516432 4294901760
0.016549852 0.015189813 0.47510007 4294901760
0.016595647 0.014696078 0.47503585 4294901760
0.016641442 0.014202343 0.47497159 4294901760
0.016687237 0.013708606 0.47490734 4294901760
0.016733032 0.013214871 0.47484308 4294901760
0.016778827 0.012721136 0.47477883 4294901760
0.016824622 0.012227399 0.47471458 4294901760
0.016870417 0.011733664 0.47465035 4294901760
0.016916212 0.011239929 0.4745861 4294901760
0.016962007 0.010746192 0.47452185 4294901760
0.017007802 0.010252457 0.47445759 4294901760
0.017053597 0.009758722 0.47439334 4294901760
0.01709939 0.009264987 0.47432908 4294901760
0.017145185 0.0087712519 0.47426483 4294901760
0.017190982 0.0082775131 0.47420061 4294901760
0.017236777 0.007783778 0.47413635 4294901760
0.017282572 0.0072900429 0.4740721 4294901760
0.017328365 0.0067963079 0.47400784 4294901760
0.01737416 0.0063025728 0.47394359 4294901760
0.017419955 0.0058088377 0.47387934 4294901760
0.017465752 0.0053150989 0.47381511 4294901760
0.017511545 0.0048213638 0.47375086 4294901760
0.01755734 0.0043276288 0.47368661 4294901760
0.017603135 0.0038338937 0.47362235 4294901760
0.01764893 0.0033401586 0.4735581 4294901760
0.017694725 0.0028464235 0.47349384 4294901760
0.01774052 0.0023526847 0.47342962 4294901760
0.017786315 0.0018589497 0.47336537 4294901760
0.01783211 0.0013652146 0.47330111 4294901760
0.017877905 0.00087147951 0.47323686 4294901760
0.0179237 0.00037774444 0.47317261 4294901760
0.017969495 -0.00011599064 0.47310835 4294901760
0.01801529 -0.00060972944 0.47304413 4294901760
0.018061085 -0.0011034645 0.47297987 4294901760
0.01810688 -0.0015971996 0.47291562 4294901760
0.018152675 -0.0020909347 0.47285137 4294901760
0.01819847 -0.0025846697 0.47278711 4294901760
0.018244265 -0.0030784048 0.47272286 4294901760
0.01829006 -0.0035721399 0.4726586 4294901760
0.018335855 -0.0040658787 0.47259438 4294901760
0.01838165 -0.0045596138 0.47253013 4294901760
0.018427445 -0.0050533488 0.47246587 4294901760
0.01847324 -0.0055470839 0.47240162 4294901760
0.018519035 -0.006040819 0.47233737 4294901760
0.01856483 -0.0065345541 0.47227311 4294901760
0.018610625 -0.0070282929 0.47220889 4294901760
0.01865642 -0.0075220279 0.47214463 4294901760
0.018702215 -0.008015763 0.47208038 4294901760
0.01874801 -0.0085094981 0.47201613 4294901760
0.018793805 -0.0090032332 0.47195187 4294901760
0.0188396 -0.0094969682 0.47188762 4294901760
0.018885395 -0.009990707 0.47182339 4294901760
0.01893119 -0.010484442 0.47175914 4294901760
0.018976985 -0.010978177 0.47169489 4294901760
0.01902278 -0.011471912 0.47163063 4294901760
0.019068575 -0.011965647 0.47156638 4294901760
0.01911437 -0.012459382 0.47150213 4294901760
0.019160165 -0.012953121 0.4714379 4294901760
0.01920596 -0.013446856 0.47137365 4294901760
0.019251755 -0.013940591 0.47130939 4294901760
0.01929755 -0.014434326 0.47124514 4294901760
0.014718052 0.034939241 0.47767004 4278255360
0.0152159 0.034985568 0.47766888 4278255360
0.015713748 0.0350319 0.47766769 4278255360
0.016211595 0.035078228 0.47766653 4278255360
0.016709443 0.035124559 0.47766533 4278255360
0.017207291 0.035170887 0.47766417 4278255360
0.017705137 0.035217218 0.47766298 4278255360
0.018202985 0.035263546 0.47766182 4278255360
0.018700833 0.035309877 0.47766063 4278255360
0.01919868 0.035356205 0.47765946 4278255360
0.019696528 0.035402536 0.47765827 4278255360
0.020194376 0.035448864 0.47765711 4278255360
0.020692224 0.035495196 0.47765592 4278255360
0.02119007 0.035541523 0.47765476 4278255360
0.021687917 0.035587855 0.47765356 4278255360
0.022185767 0.035634182 0.4776524 4278255360
0.022683613 0.035680514 0.47765121 4278255360
0.023181461 0.035726842 0.47765005 4278255360
0.023679309 0.035773173 0.47764885 4278255360
0.024177156 0.035819501 0.47764769 4278255360
0.024675004 0.035865832 0.4776465 4278255360
0.025172852 0.03591216 0.47764534 4278255360
0.0256707 0.035958491 0.47764415 4278255360
0.026168548 0.036004819 0.47764298 4278255360
0.026666395 0.036051147 0.47764179 4278255360
0.027164243 0.036097478 0.47764063 4278255360
0.027662089 0.036143806 0.47763944 4278255360
0.028159939 0.036190137 0.47763827 4278255360
0.028657785 0.036236465 0.47763708 4278255360
0.029155632 0.036282796 0.47763592 4278255360
0.029653482 0.036329124 0.47763473 4278255360
0.030151328 0.036375456 0.47763357 4278255360
0.030649176 0.036421783 0.47763237 4278255360
0.031147024 0.036468115 0.47763121 4278255360
0.031644873 0.036514442 0.47763002 4278255360
0.032142717 0.036560774 0.47762886 4278255360
0.032640569 0.036607102 0.47762766 4278255360
0.033138413 0.036653433 0.4776265 4278255360
0.033636261 0.036699761 0.47762531 4278255360
0.034134109 0.036746092 0.47762415 4278255360
0.034631956 0.03679242 0.47762296 4278255360
0.035129804 0.036838751 0.47762179 4278255360
0.035627648 0.036885079 0.4776206 4278255360
0.0361255 0.03693141 0.47761944 4278255360
0.036623348 0.036977738 0.47761825 4278255360
0.037121192 0.03702407 0.47761708 4278255360
0.037619043 0.037070397 0.47761589 4278255360
0.038116887 0.037116729 0.47761473 4278255360
0.038614735 0.037163056 0.47761354 4278255360
0.039112583 0.037209388 0.47761238 4278255360
0.039610431 0.037255716 0.47761118 4278255360
0.040108278 0.037302043 0.47761002 4278255360
0.040606126 0.037348375 0.47760886 4278255360
0.041103974 0.037394702 0.47760767 4278255360
0.041601822 0.037441034 0.47760651 4278255360
0.04209967 0.037487362 0.47760531 4278255360
0.042597517 0.037533693 0.47760415 4278255360
0.043095365 0.037580021 0.47760296 4278255360
0.043593213 0.037626352 0.4776018 4278255360
0.044091061 0.03767268 0.4776006 4278255360
0.044588909 0.037719011 0.47759944 4278255360
0.045086756 0.037765339 0.47759825 4278255360
0.045584604 0.03781167 0.47759709 4278255360
0.046082452 0.037857998 0.4775959 4278255360
0.0465803 0.03790433 0.47759473 4278255360
0.047078144 0.037950657 0.47759354 4278255360
0.047575995 0.037996989 0.47759238 4278255360
0.048073843 0.038043316 0.47759119 4278255360
0.048571691 0.038089648 0.47759002 4278255360
0.049069539 0.038135976 0.47758883 4278255360
0.049567383 0.038182307 0.47758767 4278255360
0.050065231 0.038228635 0.47758648 4278255360
0.050563082 0.038274966 0.47758532 4278255360
0.05106093 0.038321294 0.47758412 4278255360
0.051558774 0.038367625 0.47758296 4278255360
0.052056622 0.038413953 0.47758177 4278255360
0.05255447 0.038460281 0.47758061 4278255360
0.053052317 0.038506612 0.47757941 4278255360
0.053550165 0.03855294 0.47757825 4278255360
0.054048013 0.038599271 0.47757706 4278255360
0.054545861 0.038645599 0.4775759 4278255360
0.055043709 0.03869193 0.47757471 4278255360
0.055541556 0.038738258 0.47757354 4278255360
0.056039404 0.03878459 0.47757235 4278255360
0.056537248 0.038830917 0.47757119 4278255360
0.0570351 0.038877249 0.47757 4278255360
0.057532948 0.038923576 0.47756884 4278255360
0.058030795 0.038969908 0.47756764 4278255360
0.058528643 0.039016236 0.47756648 4278255360
0.059026487 0.039062567 0.47756529 4278255360
0.059524335 0.039108895 0.47756413 4278255360
0.060022186 0.039155226 0.47756293 4278255360
0.060520034 0.039201554 0.47756177 4278255360
0.061017878 0.039247885 0.47756058 4278255360
0.061515726 0.039294213 0.47755942 4278255360
0.062013574 0.039340544 0.47755823 4278255360
0.062511422 0.039386872 0.47755706 4278255360
0.063009277 0.039433204 0.47755587 4278255360
0.063507117 0.039479531 0.47755471 4278255360
0.064004965 0.039525859 0.47755352 4278255360
0.064502813 0.03957219 0.47755235 4278255360
0.014718052 0.034939241 0.47767004 4278190335
0.014720087 0.034874905 0.47816589 4278190335
0.014722122 0.034810573 0.47866172 4278190335
0.014724157 0.034746237 0.47915757 4278190335
0.014726192 0.034681905 0.47965339 4278190335
0.014728227 0.034617569 0.48014924 4278190335
0.014730262 0.034553237 0.48064509 4278190335
0.014732297 0.034488901 0.48114091 4278190335
0.014734332 0.034424569 0.48163676 4278190335
0.014736366 0.034360234 0.48213261 4278190335
0.014738401 0.034295902 0.48262843 4278190335
0.014740436 0.034231566 0.48312429 4278190335
0.014742471 0.034167234 0.48362011 4278190335
0.014744506 0.034102898 0.48411596 4278190335
0.014746541 0.034038566 0.48461181 4278190335
0.014748576 0.03397423 0.48510763 4278190335
0.014750611 0.033909898 0.48560348 4278190335
0.014752646 0.033845562 0.4860993 4278190335
0.014754681 0.03378123 0.48659515 4278190335
0.014756716 0.033716895 0.487091 4278190335
0.014758751 0.033652563 0.48758683 4278190335
0.014760786 0.033588227 0.48808268 4278190335
0.014762821 0.033523895 0.4885785 4278190335
0.014764856 0.033459559 0.48907435 4278190335
0.014766891 0.033395227 0.4895702 4278190335
0.014768925 0.033330891 0.49006602 4278190335
0.01477096 0.033266559 0.49056187 4278190335
0.014772995 0.033202223 0.49105769 4278190335
0.01477503 0.033137891 0.49155354 4278190335
0.014777065 0.033073556 0.4920494 4278190335
0.0147791 0.033009224 0.49254522 4278190335
0.014781135 0.032944888 0.49304107 4278190335
0.01478317 0.032880556 0.49353689 4278190335
0.014785205 0.03281622 0.49403274 4278190335
0.01478724 0.032751888 0.49452859 4278190335
0.014789275 0.032687552 0.49502441 4278190335
0.01479131 0.032623217 0.49552026 4278190335
0.014793345 0.032558884 0.49601611 4278190335
0.01479538 0.032494549 0.49651194 4278190335
0.014797415 0.032430217 0.49700779 4278190335
0.01479945 0.032365881 0.49750361 4278190335
0.014801485 0.032301549 0.49799946 4278190335
0.014803519 0.032237213 0.49849531 4278190335
0.014805554 0.032172881 0.49899113 4278190335
0.014807589 0.032108545 0.49948698 4278190335
0.014809624 0.032044213 0.4999828 4278190335
0.014811659 0.031979878 0.50047868 4278190335
0.014813694 0.031915545 0.50097448 4278190335
0.014815729 0.03185121 0.50147033 4278190335
0.014817764 0.031786878 0.50196618 4278190335
0.014819799 0.031722542 0.50246203 4278190335
0.014821835 0.03165821 0.50295788 4278190335
0.01482387 0.031593874 0.50345367 4278190335
0.014825905 0.031529542 0.50394952 4278190335
0.01482794 0.031465206 0.50444537 4278190335
0.014829975 0.031400874 0.50494123 4278190335
0.01483201 0.031336538 0.50543708 4278190335
0.014834045 0.031272206 0.50593287 4278190335
0.014836079 0.031207871 0.50642872 4278190335
0.014838114 0.031143537 0.50692457 4278190335
0.014840149 0.031079203 0.50742042 4278190335
0.014842184 0.031014869 0.50791627 4278190335
0.014844219 0.030950535 0.50841206 4278190335
0.014846254 0.030886201 0.50890791 4278190335
0.014848289 0.030821867 0.50940377 4278190335
0.014850324 0.030757533 0.50989962 4278190335
0.014852359 0.030693199 0.51039547 4278190335
0.014854394 0.030628866 0.51089126 4278190335
0.014856429 0.030564532 0.51138711 4278190335
0.014858464 0.030500198 0.51188296 4278190335
0.014860499 0.030435864 0.51237881 4278190335
0.014862534 0.03037153 0.51287466 4278190335
0.014864569 0.030307196 0.51337051 4278190335
0.014866604 0.030242862 0.51386631 4278190335
0.014868638 0.030178528 0.51436216 4278190335
0.014870673 0.030114194 0.51485801 4278190335
0.014872708 0.03004986 0.51535386 4278190335
0.014874743 0.029985527 0.51584971 4278190335
0.014876778 0.029921193 0.5163455 4278190335
0.014878813 0.029856857 0.51684135 4278190335
0.014880848 0.029792525 0.5173372 4278190335
0.014882883 0.029728189 0.51783305 4278190335
0.014884918 0.029663857 0.51832891 4278190335
0.014886953 0.029599521 0.5188247 4278190335
0.014888988 0.029535189 0.51932055 4278190335
0.014891023 0.029470854 0.5198164 4278190335
0.014893058 0.02940652 0.52031225 4278190335
0.014895093 0.029342186 0.5208081 4278190335
0.014897128 0.029277854 0.52130389 4278190335
0.014899163 0.029213518 0.52179974 4278190335
0.014901198 0.029149186 0.52229559 4278190335
0.014903232 0.02908485 0.52279145 4278190335
0.014905267 0.029020516 0.5232873 4278190335
0.014907302 0.028956182 0.52378309 4278190335
0.014909337 0.028891848 0.52427894 4278190335
0.014911372 0.028827514 0.52477479 4278190335
0.014913407 0.028763181 0.52527064 4278190335
0.014915442 0.028698847 0.52576649 4278190335
0.014917477 0.028634513 0.52626228 4278190335
0.014919512 0.028570179 0.52675813 4278190335
0.014921547 0.028505845 0.52725399 4278190335
0.014718052 0.034939241 0.47767004 4294967295
0.014705842 0.035325244 0.474695 4294967295
0.014693633 0.035711247 0.47171998 4294967295
0.014681423 0.036097251 0.46874493 4294967295
0.014669213 0.036483254 0.46576989 4294967295
0.014657004 0.036869258 0.46279484 4294967295
0.014644794 0.037255265 0.45981982 4294967295
0.014632584 0.037641268 0.45684478 4294967295
0.014620374 0.038027272 0.45386973 4294967295
0.014608164 0.038413275 0.45089471 4294967295
0.014595955 0.038799278 0.44791967 4294967295
0.014583745 0.039185282 0.44494462 4294967295
0.014571535 0.039571285 0.44196957 4294967295
0.014559326 0.039957289 0.43899456 4294967295
0.014547116 0.040343292 0.43601951 4294967295
0.014534906 0.040729295 0.43304446 4294967295
0.014522697 0.041115299 0.43006945 4294967295
0.014510487 0.041501306 0.4270944 4294967295
0.014498278 0.041887309 0.42411935 4294967295
0.014486067 0.042273313 0.42114431 4294967295
0.014473857 0.042659316 0.41816929 4294967295
0.014461648 0.04304532 0.41519424 4294967295
0.014449438 0.043431323 0.4122192 4294967295
0.014437228 0.043817326 0.40924418 4294967295
0.014425019 0.04420333 0.40626913 4294967295
0.014412809 0.044589333 0.40329409 4294967295
0.0144006 0.044975337 0.40031904 4294967295
0.01438839 0.04536134 0.39734399 4294967295
0.01437618 0.045747347 0.39436898 4294967295
0.014363971 0.046133347 0.39139393 4294967295
0.014351761 0.046519354 0.38841888 4294967295
0.014339551 0.046905357 0.38544387 4294967295
0.014327341 0.047291361 0.38246882 4294967295
0.014315131 0.047677364 0.37949377 4294967295
0.014302921 0.048063368 0.37651873 4294967295
0.014290712 0.048449371 0.37354371 4294967295
0.014278502 0.048835374 0.37056866 4294967295
0.014266293 0.049221382 0.36759362 4294967295
0.014254083 0.049607381 0.3646186 4294967295
0.014241873 0.049993385 0.36164355 4294967295
0.014229664 0.050379392 0.35866851 4294967295
0.014217454 0.050765395 0.35569346 4294967295
0.014205244 0.051151395 0.35271844 4294967295
0.014193035 0.051537402 0.3497434 4294967295
0.014180824 0.051923405 0.34676838 4294967295
0.014168615 0.052309409 0.34379333 4294967295
0.014156405 0.052695412 0.34081829 4294967295
0.014144195 0.053081416 0.33784324 4294967295
0.014131986 0.053467419 0.33486819 4294967295
0.014119776 0.053853422 0.33189315 4294967295
0.014107566 0.05423943 0.32891813 4294967295
0.014095357 0.054625429 0.32594311 4294967295
0.014083147 0.055011436 0.32296807 4294967295
0.014070937 0.055397436 0.31999302 4294967295
0.014058728 0.055783443 0.31701797 4294967295
0.014046518 0.056169447 0.31404293 4294967295
0.014034308 0.05655545 0.31106788 4294967295
0.014022098 0.056941453 0.30809286 4294967295
0.014009888 0.057327457 0.30511785 4294967295
0.013997679 0.05771346 0.3021428 4294967295
0.013985469 0.058099464 0.29916775 4294967295
0.013973259 0.058485471 0.29619271 4294967295
0.01396105 0.05887147 0.29321766 4294967295
0.01394884 0.059257478 0.29024261 4294967295
0.01393663 0.059643477 0.2872676 4294967295
0.013924421 0.060029484 0.28429258 4294967295
0.013912211 0.060415488 0.2813175 4294967295
0.013900002 0.060801491 0.27834249 4294967295
0.013887792 0.061187495 0.27536744 4294967295
0.013875581 0.061573498 0.27239239 4294967295
0.013863372 0.061959501 0.26941735 4294967295
0.013851162 0.062345505 0.26644233 4294967295
0.013838952 0.062731512 0.26346728 4294967295
0.013826743 0.063117519 0.26049224 4294967295
0.013814533 0.063503519 0.25751722 4294967295
0.013802323 0.063889518 0.25454217 4294967295
0.013790114 0.064275526 0.25156713 4294967295
0.013777904 0.064661525 0.24859211 4294967295
0.013765695 0.065047532 0.24561706 4294967295
0.013753485 0.065433539 0.24264202 4294967295
0.013741275 0.065819539 0.23966698 4294967295
0.013729066 0.066205546 0.23669194 4294967295
0.013716856 0.066591546 0.23371691 4294967295
0.013704645 0.066977546 0.23074187 4294967295
0.013692436 0.067363553 0.22776684 4294967295
0.013680226 0.06774956 0.2247918 4294967295
0.013668017 0.06813556 0.22181675 4294967295
0.013655807 0.068521567 0.2188417 4294967295
0.013643597 0.068907574 0.21586668 4294967295
0.013631388 0.069293573 0.21289164 4294967295
0.013619178 0.069679573 0.20991659 4294967295
0.013606968 0.07006558 0.20694155 4294967295
0.013594759 0.070451587 0.20396653 4294967295
