# .PCD v0.7 - Point Cloud Data file format
VERSION 0.7
FIELDS x y z rgb
SIZE 4 4 4 4
TYPE F F F U
COUNT 1 1 1 1
WIDTH 1061
HEIGHT 1
VIEWPOINT 0 0 0 1 0 0 0
POINTS 1061
DATA ascii
0.057203144 0.060714759 0.29300001 4283571218
0.059509929 0.061129197 0.29500002 4284901721
0.060673065 0.061336413 0.296 4284444770
0.061842706 0.061543632 0.29700002 4284708458
0.063018829 0.061750848 0.29800001 4284971630
0.064201459 0.061958067 0.29900002 4285037936
0.065172613 0.061958067 0.29900002 4284707688
0.067339376 0.062165283 0.30000001 4281679154
0.068313777 0.062165283 0.30000001 4281547568
0.070262581 0.062165283 0.30000001 4281744693
0.081250928 0.062372506 0.30100003 4286089081
0.082228571 0.062372506 0.30100003 4285628530
0.083206221 0.062372506 0.30100003 4285760116
0.084183872 0.062372506 0.30100003 4285365872
0.084878586 0.062165283 0.30000001 4285629044
0.085852988 0.062165283 0.30000001 4285497458
0.08682739 0.062165283 0.30000001 4285300077
0.087801784 0.062165283 0.30000001 4284968030
0.088776186 0.062165283 0.30000001 4283570196
0.089750588 0.062165283 0.30000001 4283635214
0.09072499 0.062165283 0.30000001 4283765771
0.091699392 0.062165283 0.30000001 4283896587
0.092673793 0.062165283 0.30000001 4283962380
0.093648195 0.062165283 0.30000001 4283962380
0.094938003 0.062372506 0.30100003 4284487952
0.095915653 0.062372506 0.30100003 4284750865
0.096893303 0.062372506 0.30100003 4284684302
0.097870953 0.062372506 0.30100003 4285144340
0.098848604 0.062372506 0.30100003 4285013269
0.099826254 0.062372506 0.30100003 4284422159
0.10113879 0.062579721 0.30200002 4283177227
0.057203144 0.061666749 0.29300001 4283833360
0.059509929 0.062087685 0.29500002 4284702030
0.060673065 0.062298149 0.296 4284445286
0.061842706 0.06250862 0.29700002 4284905837
0.063018829 0.062719084 0.29800001 4284971630
0.064201459 0.062929556 0.29900002 4284906350
0.065390579 0.06314002 0.30000001 4284972143
0.066364981 0.06314002 0.30000001 4284641895
0.080539964 0.063560948 0.30200002 4286154107
0.081520863 0.063560948 0.30200002 4285628530
0.082228571 0.063350484 0.30100003 4285694323
0.083206221 0.063350484 0.30100003 4285760116
0.084183872 0.063350484 0.30100003 4285629044
0.085161522 0.063350484 0.30100003 4285497458
0.086139172 0.063350484 0.30100003 4285365872
0.087116823 0.063350484 0.30100003 4286283890
0.088094465 0.063350484 0.30100003 4282131226
0.088776186 0.06314002 0.30000001 4283897616
0.089750588 0.06314002 0.30000001 4283896587
0.09072499 0.06314002 0.30000001 4284027403
0.091699392 0.06314002 0.30000001 4284158987
0.092673793 0.06314002 0.30000001 4283962378
0.093648195 0.06314002 0.30000001 4284028171
0.094938003 0.063350484 0.30100003 4284224782
0.095915653 0.063350484 0.30100003 4284422161
0.096893303 0.063350484 0.30100003 4284618511
0.097870953 0.063350484 0.30100003 4285013269
0.098848604 0.063350484 0.30100003 4284883480
0.099826254 0.063350484 0.30100003 4284160529
0.1008039 0.063350484 0.30100003 4283243536
0.051231481 0.063473605 0.29700002 4283373071
0.052196138 0.063473605 0.29700002 4281862660
0.053160798 0.063473605 0.29700002 4279504905
0.057203144 0.06261874 0.29300001 4283373839
0.05835329 0.062832452 0.294 4283176973
0.060673065 0.063259885 0.296 4284904807
0.061842706 0.063473605 0.29700002 4284971630
0.063018829 0.063687317 0.29800001 4285103216
0.064201459 0.063901037 0.29900002 4285103216
0.065390579 0.064114749 0.30000001 4285037936
0.066364981 0.064114749 0.30000001 4284972143
0.067339376 0.064114749 0.30000001 4285365618
0.080539964 0.064542182 0.30200002 4285496431
0.081520863 0.064542182 0.30200002 4285694323
0.082501754 0.064542182 0.30200002 4285760116
0.083206221 0.064328469 0.30100003 4285694321
0.084183872 0.064328469 0.30100003 4285760114
0.085161522 0.064328469 0.30100003 4285431149
0.086139172 0.064328469 0.30100003 4285760114
0.087116823 0.064328469 0.30100003 4284565054
0.088094465 0.064328469 0.30100003 4283636761
0.089072116 0.064328469 0.30100003 4283897103
0.090049759 0.064328469 0.30100003 4284356368
0.091027409 0.064328469 0.30100003 4284158987
0.092005059 0.064328469 0.30100003 4284421902
0.092982709 0.064328469 0.30100003 4284093964
0.09396036 0.064328469 0.30100003 4283962378
0.094938003 0.064328469 0.30100003 4284094736
0.095915653 0.064328469 0.30100003 4284094736
0.096893303 0.064328469 0.30100003 4284093966
0.097870953 0.064328469 0.30100003 4284291345
0.098848604 0.064328469 0.30100003 4284160529
0.099826254 0.064328469 0.30100003 4283897616
0.049302168 0.064438581 0.29700002 4282654742
0.050266825 0.064438581 0.29700002 4283046672
0.051231481 0.064438581 0.29700002 4283635214
0.052196138 0.064438581 0.29700002 4283701520
0.053160798 0.064438581 0.29700002 4281733902
0.054125451 0.064438581 0.29700002 4280290567
0.055090107 0.064438581 0.29700002 4279832585
0.057203144 0.063570723 0.29300001 4283242766
0.05835329 0.063787684 0.294 4283766800
0.060673065 0.064221613 0.296 4284966233
0.061842706 0.064438581 0.29700002 4285036393
0.063018829 0.06465555 0.29800001 4285037423
0.064201459 0.064872518 0.29900002 4285169009
0.065390579 0.065089479 0.30000001 4285103216
0.066364981 0.065089479 0.30000001 4285103216
0.067339376 0.065089479 0.30000001 4285103729
0.068313777 0.065089479 0.30000001 4285301108
0.069519147 0.065306447 0.30100003 4285825655
0.076870069 0.065740369 0.303 4280620304
0.077854216 0.065740369 0.303 4282129943
0.078838356 0.065740369 0.303 4282653461
0.079822503 0.065740369 0.303 4281737752
0.080539964 0.065523408 0.30200002 4286087283
0.081520863 0.065523408 0.30200002 4285628530
0.082501754 0.065523408 0.30200002 4285496944
0.083482653 0.065523408 0.30200002 4285628530
0.084463552 0.065523408 0.30200002 4285628528
0.085161522 0.065306447 0.30100003 4285431147
0.086139172 0.065306447 0.30100003 4284704085
0.087116823 0.065306447 0.30100003 4284094743
0.088094465 0.065306447 0.30100003 4284093712
0.089072116 0.065306447 0.30100003 4284224528
0.090049759 0.065306447 0.30100003 4284290318
0.091027409 0.065306447 0.30100003 4284421902
0.092005059 0.065306447 0.30100003 4284224780
0.092982709 0.065306447 0.30100003 4284093966
0.09396036 0.065306447 0.30100003 4283897870
0.094938003 0.065306447 0.30100003 4283438862
0.095915653 0.065306447 0.30100003 4283373069
0.096893303 0.065306447 0.30100003 4283833106
0.097870953 0.065306447 0.30100003 4283635727
0.098848604 0.065306447 0.30100003 4283833106
0.099826254 0.065306447 0.30100003 4283504657
0.048337512 0.065403573 0.29700002 4280687894
0.049302168 0.065403573 0.29700002 4282786326
0.050266825 0.065403573 0.29700002 4283177745
0.051231481 0.065403573 0.29700002 4283701007
0.052196138 0.065403573 0.29700002 4283766800
0.053160798 0.065403573 0.29700002 4284226835
0.054125451 0.065403573 0.29700002 4284227605
0.055090107 0.065403573 0.29700002 4283834390
0.056054767 0.065403573 0.29700002 4283834392
0.05701942 0.065403573 0.29700002 4283701520
0.057984076 0.065403573 0.29700002 4283701007
0.058948737 0.065403573 0.29700002 4283897616
0.059913389 0.065403573 0.29700002 4284160788
0.063018829 0.065623783 0.29800001 4285036907
0.064201459 0.065843999 0.29900002 4285365872
0.065390579 0.066064209 0.30000001 4285300079
0.066364981 0.066064209 0.30000001 4285300079
0.067339376 0.066064209 0.30000001 4285366642
0.068313777 0.066064209 0.30000001 4285366642
0.069519147 0.066284426 0.30100003 4285432435
0.070730999 0.066504642 0.30200002 4286220152
0.072933495 0.066724852 0.303 4280946954
0.073917635 0.066724852 0.303 4281733904
0.074901782 0.066724852 0.303 4282127633
0.075885922 0.066724852 0.303 4282323729
0.076870069 0.066724852 0.303 4283046936
0.077854216 0.066724852 0.303 4283440663
0.078838356 0.066724852 0.303 4283570966
0.079822503 0.066724852 0.303 4282456852
0.08080665 0.066724852 0.303 4286611058
0.081790797 0.066724852 0.303 4285496944
0.082501754 0.066504642 0.30200002 4285496944
0.083482653 0.066504642 0.30200002 4285760116
0.084463552 0.066504642 0.30200002 4285496942
0.085444443 0.066504642 0.30200002 4285883996
0.086425342 0.066504642 0.30200002 4283441692
0.08740624 0.066504642 0.30200002 4284291091
0.088387132 0.066504642 0.30200002 4284158989
0.08936803 0.066504642 0.30200002 4284224525
0.090348929 0.066504642 0.30200002 4284224523
0.091329828 0.066504642 0.30200002 4284356366
0.092310719 0.066504642 0.30200002 4284225550
0.093291618 0.066504642 0.30200002 4283766284
0.094272517 0.066504642 0.30200002 4283372555
0.094938003 0.066284426 0.30100003 4283045389
0.095915653 0.066284426 0.30100003 4283111182
0.096893303 0.066284426 0.30100003 4283308307
0.097870953 0.066284426 0.30100003 4283571479
0.098848604 0.066284426 0.30100003 4283441176
0.048500262 0.066592008 0.29800001 4281213722
0.049302168 0.06636855 0.29700002 4282654227
0.050266825 0.06636855 0.29700002 4283178258
0.051231481 0.06636855 0.29700002 4284096278
0.052196138 0.06636855 0.29700002 4284358421
0.053160798 0.06636855 0.29700002 4284357906
0.054125451 0.06636855 0.29700002 4284357136
0.055090107 0.06636855 0.29700002 4284815890
0.055866025 0.066145085 0.296 4285013269
0.056827433 0.066145085 0.296 4287450690
0.057788841 0.066145085 0.296 4284687384
0.058948737 0.06636855 0.29700002 4284422929
0.059913389 0.06636855 0.29700002 4284226320
0.060878046 0.06636855 0.29700002 4283899667
0.061842706 0.06636855 0.29700002 4284495402
0.063018829 0.066592008 0.29800001 4285559397
0.064201459 0.066815481 0.29900002 4285233770
0.065390579 0.067038938 0.30000001 4285300077
0.066364981 0.067038938 0.30000001 4285365870
0.067339376 0.067038938 0.30000001 4285563251
0.068313777 0.067038938 0.30000001 4285497458
0.069519147 0.067262404 0.30100003 4285365872
0.070965201 0.067709327 0.303 4285497458
0.071949348 0.067709327 0.303 4281080076
0.072933495 0.067709327 0.303 4282324494
0.074161589 0.067932792 0.30400002 4283110415
0.075148985 0.067932792 0.30400002 4283109899
0.076136373 0.067932792 0.30400002 4283240971
0.077123769 0.067932792 0.30400002 4283569936
0.078111164 0.067932792 0.30400002 4284095513
0.078838356 0.067709327 0.303 4284029974
0.079822503 0.067709327 0.303 4282717192
0.08080665 0.067709327 0.303 4287200367
0.081790797 0.067709327 0.303 4285496944
0.082774937 0.067709327 0.303 4285365872
0.083759077 0.067709327 0.303 4285694321
0.084463552 0.067485869 0.30200002 4284965202
0.085444443 0.067485869 0.30200002 4284029974
0.086425342 0.067485869 0.30200002 4284160277
0.08740624 0.067485869 0.30200002 4284422161
0.088387132 0.067485869 0.30200002 4284422161
0.08936803 0.067485869 0.30200002 4284487693
0.090648092 0.067709327 0.303 4284487693
0.09163224 0.067709327 0.303 4284421900
0.092616387 0.067709327 0.303 4283699974
0.093291618 0.067485869 0.30200002 4282718219
0.094272517 0.067485869 0.30200002 4282390026
0.095253408 0.067485869 0.30200002 4282652946
0.096234307 0.067485869 0.30200002 4282652946
0.097215205 0.067485869 0.30200002 4282850323
0.097870953 0.067262404 0.30100003 4283310874
0.048500262 0.067560248 0.29800001 4282069031
0.049468167 0.067560248 0.29800001 4282917653
0.050436068 0.067560248 0.29800001 4283375635
0.051403977 0.067560248 0.29800001 4284031253
0.052196138 0.067333534 0.29700002 4284227603
0.053160798 0.067333534 0.29700002 4284226320
0.054125451 0.067333534 0.29700002 4284553745
0.055090107 0.067333534 0.29700002 4284946963
0.055866025 0.067106821 0.296 4286130465
0.056827433 0.067106821 0.296 4289491554
0.057788841 0.067106821 0.296 4284422157
0.058948737 0.067333534 0.29700002 4284948244
0.059913389 0.067333534 0.29700002 4284685329
0.060878046 0.067333534 0.29700002 4284226318
0.061842706 0.067333534 0.29700002 4283897868
0.064201459 0.067786962 0.29900002 4285619279
0.065390579 0.068013668 0.30000001 4285694321
0.066364981 0.068013668 0.30000001 4285496942
0.067339376 0.068013668 0.30000001 4285365872
0.068313777 0.068013668 0.30000001 4285563251
0.069519147 0.068240389 0.30100003 4285365872
0.070965201 0.068693802 0.303 4285365872
0.071949348 0.068693802 0.303 4284306247
0.073174201 0.068920523 0.30400002 4282587664
0.074161589 0.068920523 0.30400002 4283569423
0.075148985 0.068920523 0.30400002 4283568651
0.076136373 0.068920523 0.30400002 4283633931
0.077123769 0.068920523 0.30400002 4283897103
0.078111164 0.068920523 0.30400002 4284226068
0.07909856 0.068920523 0.30400002 4284357654
0.079822503 0.068693802 0.303 4284424730
0.08080665 0.068693802 0.303 4287064155
0.081790797 0.068693802 0.303 4285562220
0.082774937 0.068693802 0.303 4285956980
0.083759077 0.068693802 0.303 4284234288
0.084743224 0.068693802 0.303 4284030487
0.085727371 0.068693802 0.303 4284356884
0.086711518 0.068693802 0.303 4284487954
0.087695666 0.068693802 0.303 4284487697
0.088679798 0.068693802 0.303 4284487695
0.089663945 0.068693802 0.303 4284487693
0.090648092 0.068693802 0.303 4284553486
0.09163224 0.068693802 0.303 4283832075
0.092616387 0.068693802 0.303 4282782215
0.093600526 0.068693802 0.303 4282127883
0.094584674 0.068693802 0.303 4283444772
0.095568813 0.068693802 0.303 4282920742
0.096234307 0.068467095 0.30200002 4283579956
0.097215205 0.068467095 0.30200002 4284635724
0.048500262 0.068528473 0.29800001 4282069031
0.049468167 0.068528473 0.29800001 4282720274
0.050436068 0.068528473 0.29800001 4283441944
0.051403977 0.068528473 0.29800001 4283702804
0.052371882 0.068528473 0.29800001 4284030739
0.053160798 0.068298519 0.29700002 4284357138
0.054125451 0.068298519 0.29700002 4284487697
0.054904617 0.068068549 0.296 4284815377
0.055866025 0.068068549 0.296 4285275410
0.056827433 0.068068549 0.296 4285736990
0.05759361 0.067838594 0.29500002 4285474590
0.05835329 0.067608625 0.294 4284881681
0.059308197 0.067608625 0.294 4284553740
0.060878046 0.068298519 0.29700002 4284356364
0.061842706 0.068298519 0.29700002 4284291341
0.063018829 0.068528473 0.29800001 4284160525
0.064201459 0.068758443 0.29900002 4284424984
0.066364981 0.068988398 0.30000001 4287200369
0.067339376 0.068988398 0.30000001 4285496427
0.068313777 0.068988398 0.30000001 4285694321
0.069519147 0.069218367 0.30100003 4285431149
0.070965201 0.069678284 0.303 4285300079
0.071949348 0.069678284 0.303 4286743414
0.073174201 0.069908246 0.30400002 4282194705
0.074161589 0.069908246 0.30400002 4283897616
0.075148985 0.069908246 0.30400002 4283699724
0.076136373 0.069908246 0.30400002 4283699724
0.077123769 0.069908246 0.30400002 4284093712
0.078111164 0.069908246 0.30400002 4284291861
0.07909856 0.069908246 0.30400002 4284620826
0.080085948 0.069908246 0.30400002 4284554515
0.081073344 0.069908246 0.30400002 4284819740
0.082060739 0.069908246 0.30400002 4286405455
0.082774937 0.069678284 0.303 4283047704
0.083759077 0.069678284 0.303 4284357908
0.084743224 0.069678284 0.303 4284553745
0.085727371 0.069678284 0.303 4284487952
0.086711518 0.069678284 0.303 4284553488
0.087985091 0.069908246 0.30400002 4284553488
0.088972479 0.069908246 0.30400002 4284815890
0.089959875 0.069908246 0.30400002 4284487693
0.090947263 0.069908246 0.30400002 4284421900
0.091934659 0.069908246 0.30400002 4282651401
0.092922054 0.069908246 0.30400002 4281995016
0.09390945 0.069908246 0.30400002 4281208580
0.094584674 0.069678284 0.303 4285226831
0.095568813 0.069678284 0.303 4285758316
0.096234307 0.069448322 0.30200002 4286021490
0.097215205 0.069448322 0.30200002 4285891185
0.048500262 0.069496706 0.29800001 4281937961
0.049468167 0.069496706 0.29800001 4282852121
0.050436068 0.069496706 0.29800001 4283179288
0.051403977 0.069496706 0.29800001 4283506710
0.052371882 0.069496706 0.29800001 4283571733
0.053160798 0.069263503 0.29700002 4284094736
0.054125451 0.069263503 0.29700002 4284422161
0.054904617 0.069030285 0.296 4284618511
0.055866025 0.069030285 0.296 4284815375
0.056635451 0.068797082 0.29500002 4285275156
0.05759361 0.068797082 0.29500002 4290014562
0.05835329 0.068563864 0.294 4285739041
0.059308197 0.068563864 0.294 4284816142
0.060263112 0.068563864 0.294 4284553486
0.061009806 0.06833066 0.29300001 4284487950
0.061961472 0.06833066 0.29300001 4284422159
0.064201459 0.069729924 0.29900002 4284487952
0.065390579 0.069963135 0.30000001 4284357138
0.066364981 0.069963135 0.30000001 4283897103
0.069519147 0.070196345 0.30100003 4286350455
0.070965201 0.070662759 0.303 4285562224
0.071949348 0.070662759 0.303 4286021490
0.073174201 0.070895977 0.30400002 4281738006
0.074161589 0.070895977 0.30400002 4285411879
0.07539618 0.07112918 0.30500001 4284621080
0.076136373 0.070895977 0.30400002 4284224782
0.077123769 0.070895977 0.30400002 4284487954
0.078111164 0.070895977 0.30400002 4284619538
0.07909856 0.070895977 0.30400002 4284948503
0.080085948 0.070895977 0.30400002 4284816915
0.081073344 0.070895977 0.30400002 4284685072
0.082060739 0.070895977 0.30400002 4284750865
0.08304812 0.070895977 0.30400002 4284685331
0.084035516 0.070895977 0.30400002 4284685331
0.085022911 0.070895977 0.30400002 4284816915
0.086010307 0.070895977 0.30400002 4284750865
0.086997695 0.070895977 0.30400002 4284685072
0.087985091 0.070895977 0.30400002 4284685072
0.088972479 0.070895977 0.30400002 4284553486
0.089959875 0.070895977 0.30400002 4284225548
0.090947263 0.070895977 0.30400002 4283372809
0.09223707 0.07112918 0.30500001 4282520590
0.092922054 0.070895977 0.30400002 4282261016
0.09390945 0.070895977 0.30400002 4286218351
0.094896838 0.070895977 0.30400002 4285824622
0.095568813 0.070662759 0.303 4285956208
0.048663016 0.070701405 0.29900002 4280228626
0.049468167 0.070464939 0.29800001 4282327574
0.050436068 0.070464939 0.29800001 4282917399
0.051403977 0.070464939 0.29800001 4283113495
0.052371882 0.070464939 0.29800001 4283178258
0.053160798 0.07022848 0.29700002 4283701520
0.054125451 0.07022848 0.29700002 4283897357
0.054904617 0.069992021 0.296 4284422159
0.055866025 0.069992021 0.296 4284553488
0.056635451 0.069755562 0.29500002 4284685072
0.05759361 0.069755562 0.29500002 4284357134
0.05835329 0.069519103 0.294 4284291343
0.059308197 0.069519103 0.294 4284158987
0.060263112 0.069519103 0.294 4284421902
0.061009806 0.069282643 0.29300001 4284224780
0.061961472 0.069282643 0.29300001 4284422159
0.064201459 0.070701405 0.29900002 4284487952
0.065390579 0.070937857 0.30000001 4284487952
0.066364981 0.070937857 0.30000001 4284487952
0.067339376 0.070937857 0.30000001 4284553745
0.068313777 0.070937857 0.30000001 4284553747
0.069519147 0.071174324 0.30100003 4283766802
0.070965201 0.071647234 0.303 4284953132
0.071949348 0.071647234 0.303 4285285951
0.073174201 0.071883701 0.30400002 4284822829
0.074161589 0.071883701 0.30400002 4284488724
0.07539618 0.07212016 0.30500001 4284685074
0.076136373 0.071883701 0.30400002 4284684304
0.077123769 0.071883701 0.30400002 4284618511
0.078111164 0.071883701 0.30400002 4284750095
0.07909856 0.071883701 0.30400002 4284815888
0.080085948 0.071883701 0.30400002 4284750095
0.081073344 0.071883701 0.30400002 4284750095
0.082060739 0.071883701 0.30400002 4284881681
0.08304812 0.071883701 0.30400002 4284881681
0.084035516 0.071883701 0.30400002 4285013269
0.085022911 0.071883701 0.30400002 4285013267
0.086010307 0.071883701 0.30400002 4284815888
0.086997695 0.071883701 0.30400002 4284948244
0.087985091 0.071883701 0.30400002 4284619279
0.088972479 0.071883701 0.30400002 4284225550
0.090255789 0.07212016 0.30500001 4282979081
0.091246434 0.07212016 0.30500001 4282914573
0.09223707 0.07212016 0.30500001 4284174143
0.093227714 0.07212016 0.30500001 4285954409
0.094218358 0.07212016 0.30500001 4285824622
0.047691863 0.071672887 0.29900002 4279704594
0.048663016 0.071672887 0.29900002 4279769615
0.04963417 0.071672887 0.29900002 4281671445
0.050436068 0.071433172 0.29800001 4282524953
0.051403977 0.071433172 0.29800001 4282851608
0.052371882 0.071433172 0.29800001 4282850325
0.053160798 0.071193472 0.29700002 4283176460
0.054125451 0.071193472 0.29700002 4283635468
0.054904617 0.070953757 0.296 4283831562
0.055866025 0.070953757 0.296 4283897355
0.056635451 0.070714049 0.29500002 4284226833
0.05759361 0.070714049 0.29500002 4284096017
0.05835329 0.070474342 0.294 4283897870
0.059308197 0.070474342 0.294 4283897357
0.060263112 0.070474342 0.294 4283831564
0.061009806 0.070234634 0.29300001 4283765771
0.061961472 0.070234634 0.29300001 4283897103
0.064201459 0.071672887 0.29900002 4284357654
0.065390579 0.071912594 0.30000001 4284554263
0.066364981 0.071912594 0.30000001 4284356884
0.067339376 0.071912594 0.30000001 4284619540
0.068313777 0.071912594 0.30000001 4284685076
0.069519147 0.072152302 0.30100003 4284750099
0.070965201 0.072631717 0.303 4284881172
0.071949348 0.072631717 0.303 4285144344
0.073174201 0.072871432 0.30400002 4284815892
0.074161589 0.072871432 0.30400002 4284815890
0.07539618 0.073111132 0.30500001 4284881170
0.076386817 0.073111132 0.30500001 4284946191
0.077123769 0.072871432 0.30400002 4284946191
0.077854216 0.072631717 0.303 4284946191
0.078838356 0.072631717 0.303 4284946191
0.079822503 0.072631717 0.303 4284881168
0.08080665 0.072631717 0.303 4284881168
0.082060739 0.072871432 0.30400002 4284946961
0.08304812 0.072871432 0.30400002 4285210646
0.084035516 0.072871432 0.30400002 4284553486
0.085022911 0.072871432 0.30400002 4285211416
0.086010307 0.072871432 0.30400002 4285342234
0.087283872 0.073111132 0.30500001 4284553488
0.088274516 0.073111132 0.30500001 4284095247
0.089265145 0.073111132 0.30500001 4282979081
0.090255789 0.073111132 0.30500001 4282521875
0.09223707 0.073111132 0.30500001 4285627245
0.047691863 0.072644368 0.29900002 4279507985
0.048663016 0.072644368 0.29900002 4279704594
0.04963417 0.072644368 0.29900002 4281015827
0.050436068 0.072401412 0.29800001 4282329375
0.051403977 0.072401412 0.29800001 4282590746
0.052371882 0.072401412 0.29800001 4282523156
0.053160798 0.072158456 0.29700002 4282718221
0.054125451 0.072158456 0.29700002 4283045387
0.054904617 0.071915492 0.296 4283307530
0.055866025 0.071915492 0.296 4283438602
0.056827433 0.071915492 0.296 4283701261
0.05759361 0.071672536 0.29500002 4283898640
0.058551773 0.071672536 0.29500002 4283832077
0.059308197 0.071429573 0.294 4284029456
0.060263112 0.071429573 0.294 4283701261
0.061009806 0.071186624 0.29300001 4283307530
0.061961472 0.071186624 0.29300001 4282323979
0.064201459 0.072644368 0.29900002 4282259471
0.065390579 0.072887324 0.30000001 4283899413
0.066364981 0.072887324 0.30000001 4284424730
0.067339376 0.072887324 0.30000001 4284686101
0.068313777 0.072887324 0.30000001 4284619538
0.069519147 0.073130287 0.30100003 4285013269
0.070965201 0.073616199 0.303 4284881168
0.071949348 0.073616199 0.303 4284881168
0.073174201 0.073859155 0.30400002 4284815375
0.074161589 0.073859155 0.30400002 4284946961
0.07539618 0.074102111 0.30500001 4285011984
0.076386817 0.074102111 0.30500001 4285275410
0.077377461 0.074102111 0.30500001 4285275410
0.077854216 0.073616199 0.303 4285012238
0.078838356 0.073616199 0.303 4285275410
0.079822503 0.073616199 0.303 4285209617
0.08080665 0.073616199 0.303 4285275410
0.082060739 0.073859155 0.30400002 4285605404
0.08304812 0.073859155 0.30400002 4289029974
0.084035516 0.073859155 0.30400002 4291337622
0.085022911 0.073859155 0.30400002 4284621857
0.086293228 0.074102111 0.30500001 4284291091
0.087283872 0.074102111 0.30500001 4283569421
0.088274516 0.074102111 0.30500001 4282454535
0.089265145 0.074102111 0.30500001 4282521873
0.047691863 0.073615849 0.29900002 4279639830
0.048663016 0.073615849 0.29900002 4279376658
0.04963417 0.073615849 0.29900002 4279835408
0.050436068 0.073369637 0.29800001 4281213974
0.051403977 0.073369637 0.29800001 4282395422
0.052371882 0.073369637 0.29800001 4282459932
0.053339787 0.073369637 0.29800001 4282456848
0.054125451 0.073123433 0.29700002 4282587405
0.055090107 0.073123433 0.29700002 4282980879
0.055866025 0.072877221 0.296 4282914573
0.056827433 0.072877221 0.296 4283439632
0.057788841 0.072877221 0.296 4283768081
0.058551773 0.072631024 0.29500002 4283964946
0.059509929 0.072631024 0.29500002 4283833360
0.060468093 0.072631024 0.29500002 4284098077
0.061426256 0.072631024 0.29500002 4282785043
0.062384415 0.072631024 0.29500002 4286349683
0.064201459 0.073615849 0.29900002 4285758318
0.065390579 0.073862053 0.30000001 4285360480
0.066364981 0.073862053 0.30000001 4282525471
0.067339376 0.073862053 0.30000001 4284359191
0.068313777 0.073862053 0.30000001 4284621591
0.069519147 0.074108265 0.30100003 4284948501
0.070965201 0.074600674 0.303 4284750865
0.071949348 0.074600674 0.303 4284815888
0.073174201 0.074846886 0.30400002 4284815888
0.074161589 0.074846886 0.30400002 4285077777
0.07539618 0.075093083 0.30500001 4285275410
0.076386817 0.075093083 0.30500001 4285209617
0.076108977 0.073862053 0.30000001 4285078031
0.077340335 0.074108265 0.30100003 4285209617
0.078578167 0.07435447 0.30200002 4285275410
0.079559065 0.07435447 0.30200002 4285406994
0.080539964 0.07435447 0.30200002 4285341971
0.081790797 0.074600674 0.303 4285539352
0.08304812 0.074846886 0.30400002 4284421132
0.084035516 0.074846886 0.30400002 4283897618
0.085022911 0.074846886 0.30400002 4283898647
0.086293228 0.075093083 0.30500001 4282125320
0.087283872 0.075093083 0.30500001 4281995018
0.088274516 0.075093083 0.30500001 4281538060
0.090255789 0.075093083 0.30500001 4285759601
0.047691863 0.07458733 0.29900002 4279639830
0.048663016 0.07458733 0.29900002 4279574037
0.04963417 0.07458733 0.29900002 4279639317
0.050436068 0.07433787 0.29800001 4279704594
0.051403977 0.07433787 0.29800001 4280556046
0.052371882 0.07433787 0.29800001 4281935898
0.053339787 0.07433787 0.29800001 4282261268
0.054125451 0.074088417 0.29700002 4282128398
0.055090107 0.074088417 0.29700002 4282324492
0.056054767 0.074088417 0.29700002 4282587151
0.056827433 0.073838957 0.296 4282587405
0.057788841 0.073838957 0.296 4282784784
0.058750253 0.073838957 0.296 4283309842
0.059711657 0.073838957 0.296 4283573014
0.060468093 0.073589511 0.29500002 4283377950
0.061634477 0.073838957 0.296 4284828478
0.062595889 0.073838957 0.296 4286022773
0.064201459 0.07458733 0.29900002 4285365356
0.065390579 0.074836783 0.30000001 4285496944
0.066364981 0.074836783 0.30000001 4285628530
0.067339376 0.074836783 0.30000001 4286084716
0.068313777 0.074836783 0.30000001 4282527522
0.069519147 0.075086243 0.30100003 4283242253
0.070965201 0.075585149 0.303 4284555800
0.071949348 0.075585149 0.303 4284817689
0.073174201 0.07583461 0.30400002 4284948503
0.074161589 0.07583461 0.30400002 4284948244
0.07539618 0.076084062 0.30500001 4284882451
0.074884132 0.07458733 0.29900002 4285013521
0.076108977 0.074836783 0.30000001 4285145107
0.077340335 0.075086243 0.30100003 4285276180
0.078317977 0.075086243 0.30100003 4286066725
0.079295628 0.075086243 0.30100003 4285145877
0.080539964 0.075335696 0.30200002 4285144594
0.081520863 0.075335696 0.30200002 4285275410
0.082774937 0.075585149 0.303 4284815629
0.084035516 0.07583461 0.30400002 4283897870
0.085022911 0.07583461 0.30400002 4283110928
0.086293228 0.076084062 0.30500001 4281995018
0.087283872 0.076084062 0.30500001 4281601543
0.047691863 0.075558811 0.29900002 4279310865
0.048663016 0.075558811 0.29900002 4279179279
0.04963417 0.075558811 0.29900002 4279244559
0.050436068 0.075306103 0.29800001 4279506961
0.051403977 0.075306103 0.29800001 4279638031
0.052371882 0.075306103 0.29800001 4279702793
0.053339787 0.075306103 0.29800001 4281081105
0.054307688 0.075306103 0.29800001 4281342994
0.055090107 0.075053401 0.29700002 4281735439
0.056054767 0.075053401 0.29700002 4281800719
0.05701942 0.075053401 0.29700002 4282193680
0.057984076 0.075053401 0.29700002 4282588438
0.058750253 0.074800692 0.296 4282457365
0.059711657 0.074800692 0.296 4284299569
0.060673065 0.074800692 0.296 4281536009
0.061634477 0.074800692 0.296 4281930767
0.062595889 0.074800692 0.296 4281078027
0.064201459 0.075558811 0.29900002 4283053875
0.065390579 0.075811513 0.30000001 4285757550
0.066364981 0.075811513 0.30000001 4285760116
0.067339376 0.075811513 0.30000001 4285300079
0.068313777 0.075811513 0.30000001 4285365870
0.069519147 0.076064222 0.30100003 4286482552
0.070965201 0.076569624 0.303 4285888616
0.071949348 0.076569624 0.303 4284501312
0.073174201 0.076822333 0.30400002 4282919709
0.074161589 0.076822333 0.30400002 4282847495
0.073912986 0.075558811 0.29900002 4283898640
0.074884132 0.075558811 0.29900002 4283963148
0.076108977 0.075811513 0.30000001 4284357136
0.077083379 0.075811513 0.30000001 4284882451
0.078317977 0.076064222 0.30100003 4286132520
0.079295628 0.076064222 0.30100003 4290678145
0.080273278 0.076064222 0.30100003 4284160529
0.081520863 0.076316923 0.30200002 4285078031
0.082774937 0.076569624 0.303 4285012238
0.083759077 0.076569624 0.303 4284225550
0.085022911 0.076822333 0.30400002 4283900183
0.086010307 0.076822333 0.30400002 4281667849
0.087985091 0.076822333 0.30400002 4285693036
0.047691863 0.076530293 0.29900002 4279442451
0.048663016 0.076530293 0.29900002 4279179279
0.049468167 0.076274335 0.29800001 4279442451
0.050436068 0.076274335 0.29800001 4279112973
0.051403977 0.076274335 0.29800001 4279244559
0.052371882 0.076274335 0.29800001 4279506961
0.053339787 0.076274335 0.29800001 4279769615
0.054307688 0.076274335 0.29800001 4279900944
0.055275593 0.076274335 0.29800001 4280293647
0.056243502 0.076274335 0.29800001 4281015827
0.05701942 0.076018386 0.29700002 4282266410
0.057984076 0.076018386 0.29700002 4285360480
0.058948737 0.076018386 0.29700002 4284639067
0.059913389 0.076018386 0.29700002 4283649860
0.060673065 0.075762428 0.296 4281606427
0.061634477 0.075762428 0.296 4281407505
0.062595889 0.075762428 0.296 4282392604
0.064201459 0.076530293 0.29900002 4281734674
0.065390579 0.07678625 0.30000001 4281734933
0.066364981 0.07678625 0.30000001 4281209874
0.067339376 0.07678625 0.30000001 4282859063
0.068313777 0.07678625 0.30000001 4285098591
0.069519147 0.077042207 0.30100003 4285956212
0.070965201 0.077554107 0.303 4285759603
0.071949348 0.077554107 0.303 4286154609
0.072211385 0.07678625 0.30000001 4285562472
0.073185779 0.07678625 0.30000001 4287003758
0.074160181 0.07678625 0.30000001 4281929736
0.075134575 0.07678625 0.30000001 4283570188
0.076108977 0.07678625 0.30000001 4284094734
0.077083379 0.07678625 0.30000001 4284685074
0.078057781 0.07678625 0.30000001 4285079062
0.079295628 0.077042207 0.30100003 4286265135
0.080273278 0.077042207 0.30100003 4284619283
0.081520863 0.077298157 0.30200002 4284881170
0.082501754 0.077298157 0.30200002 4284749584
0.083759077 0.077554107 0.303 4284487952
0.084743224 0.077554107 0.303 4284227605
0.086010307 0.077810064 0.30400002 4286807660
0.086997695 0.077810064 0.30400002 4285824874
0.087985091 0.077810064 0.30400002 4285760112
0.048663016 0.077501781 0.29900002 4279244559
0.049468167 0.077242576 0.29800001 4279178766
0.050436068 0.077242576 0.29800001 4279244559
0.051403977 0.077242576 0.29800001 4279375375
0.052371882 0.077242576 0.29800001 4279638547
0.053339787 0.077242576 0.29800001 4279638547
0.054307688 0.077242576 0.29800001 4279506961
0.055275593 0.077242576 0.29800001 4279375375
0.056243502 0.077242576 0.29800001 4280295707
0.057211403 0.077242576 0.29800001 4281414958
0.057984076 0.07698337 0.29700002 4284575075
0.058948737 0.07698337 0.29700002 4284707428
0.059913389 0.07698337 0.29700002 4284904553
0.060878046 0.07698337 0.29700002 4285365104
0.061842706 0.07698337 0.29700002 4285890935
0.062807359 0.07698337 0.29700002 4286416763
0.064201459 0.077501781 0.29900002 4285296225
0.065390579 0.07776098 0.30000001 4282594092
0.066364981 0.07776098 0.30000001 4281604117
0.067339376 0.07776098 0.30000001 4281866260
0.068313777 0.07776098 0.30000001 4281603088
0.069519147 0.078020185 0.30100003 4281209359
0.070965201 0.078538589 0.303 4280617737
0.071949348 0.078538589 0.303 4280487173
0.072211385 0.07776098 0.30000001 4281539861
0.073185779 0.07776098 0.30000001 4281405709
0.074160181 0.07776098 0.30000001 4282324496
0.075134575 0.07776098 0.30000001 4283504141
0.076108977 0.07776098 0.30000001 4284094734
0.077083379 0.07776098 0.30000001 4284356366
0.078057781 0.07776098 0.30000001 4284487695
0.079295628 0.078020185 0.30100003 4284750097
0.080273278 0.078020185 0.30100003 4285078549
0.081250928 0.078020185 0.30100003 4285079830
0.082501754 0.078279383 0.30200002 4284553486
0.083759077 0.078538589 0.303 4284093966
0.084743224 0.078538589 0.303 4283570448
0.085727371 0.078538589 0.303 4286020200
0.086997695 0.078797795 0.30400002 4285956978
0.049468167 0.078210801 0.29800001 4279441938
0.050436068 0.078210801 0.29800001 4279244559
0.051403977 0.078210801 0.29800001 4279376145
0.052371882 0.078210801 0.29800001 4279376145
0.053339787 0.078210801 0.29800001 4279507731
0.054307688 0.078210801 0.29800001 4279376145
0.055275593 0.078210801 0.29800001 4279441938
0.056243502 0.078210801 0.29800001 4280033307
0.057211403 0.078210801 0.29800001 4281876792
0.058179308 0.078210801 0.29800001 4284444002
0.059147213 0.078210801 0.29800001 4284839276
0.060115114 0.078210801 0.29800001 4285167727
0.061083019 0.078210801 0.29800001 4285365620
0.062050927 0.078210801 0.29800001 4285299827
0.063018829 0.078210801 0.29800001 4285694583
0.064201459 0.078473255 0.29900002 4285629044
0.065390579 0.078735702 0.30000001 4285563249
0.066364981 0.078735702 0.30000001 4286351738
0.067339376 0.078735702 0.30000001 4284437833
0.068313777 0.078735702 0.30000001 4282131996
0.069519147 0.078998163 0.30100003 4281997074
0.070965201 0.079523057 0.303 4281865488
0.07147444 0.078998163 0.30100003 4281865742
0.072211385 0.078735702 0.30000001 4282063121
0.073185779 0.078735702 0.30000001 4282457879
0.074160181 0.078735702 0.30000001 4282456852
0.075134575 0.078735702 0.30000001 4282978829
0.076108977 0.078735702 0.30000001 4283701007
0.077083379 0.078735702 0.30000001 4284094736
0.078057781 0.078735702 0.30000001 4284226322
0.079032183 0.078735702 0.30000001 4284291345
0.080273278 0.078998163 0.30100003 4284224782
0.081250928 0.078998163 0.30100003 4284685333
0.082501754 0.07926061 0.30200002 4284487952
0.083482653 0.07926061 0.30200002 4283897357
0.084743224 0.079523057 0.303 4284165413
0.085727371 0.079523057 0.303 4286022255
0.050436068 0.079179034 0.29800001 4279376145
0.051403977 0.079179034 0.29800001 4279376145
0.052371882 0.079179034 0.29800001 4279441938
0.053339787 0.079179034 0.29800001 4279376145
0.054489933 0.079444736 0.29900002 4279376145
0.055461086 0.079444736 0.29900002 4279441938
0.05643224 0.079444736 0.29900002 4279902491
0.057403389 0.079444736 0.29900002 4280824874
0.07147444 0.079976141 0.30100003 4282194705
0.072211385 0.079710439 0.30000001 4282655256
0.073185779 0.079710439 0.30000001 4282655256
0.074160181 0.079710439 0.30000001 4282391570
0.075134575 0.079710439 0.30000001 4282914573
0.076108977 0.079710439 0.30000001 4283308048
0.077083379 0.079710439 0.30000001 4283833106
0.078057781 0.079710439 0.30000001 4283833360
0.079032183 0.079710439 0.30000001 4283832077
0.080273278 0.079976141 0.30100003 4284095249
0.081250928 0.079976141 0.30100003 4283897870
0.082228571 0.079976141 0.30100003 4283766284
0.083482653 0.080241837 0.30200002 4283440663
0.084463552 0.080241837 0.30200002 4286802783
0.050605319 0.080416225 0.29900002 4279244559
0.051576477 0.080416225 0.29900002 4279244559
0.05254763 0.080416225 0.29900002 4279507731
0.053518783 0.080416225 0.29900002 4279441938
0.054489933 0.080416225 0.29900002 4279507731
0.055461086 0.080416225 0.29900002 4279507731
0.072211385 0.080685169 0.30000001 4281277201
0.073185779 0.080685169 0.30000001 4282655258
0.074160181 0.080685169 0.30000001 4282326291
0.075134575 0.080685169 0.30000001 4282652946
0.076108977 0.080685169 0.30000001 4283178004
0.077083379 0.080685169 0.30000001 4283177743
0.078057781 0.080685169 0.30000001 4283177743
0.079032183 0.080685169 0.30000001 4283374352
0.080273278 0.080954127 0.30100003 4283439632
0.081250928 0.080954127 0.30100003 4283439632
0.082228571 0.080954127 0.30100003 4283769110
0.05254763 0.081387706 0.29900002 4279506961
0.053518783 0.081387706 0.29900002 4279638547
0.054489933 0.081387706 0.29900002 4279506961
0.072211385 0.081659898 0.30000001 4286154359
0.073185779 0.081659898 0.30000001 4284241997
0.074160181 0.081659898 0.30000001 4282001439
0.075134575 0.081659898 0.30000001 4282654742
0.076108977 0.081659898 0.30000001 4282654229
0.077083379 0.081659898 0.30000001 4282718739
0.078057781 0.081659898 0.30000001 4282915348
0.079032183 0.081659898 0.30000001 4282915346
0.080273278 0.081932105 0.30100003 4283112465
0.081250928 0.081932105 0.30100003 4283638809
0.082228571 0.081932105 0.30100003 4283246879
0.074160181 0.082634635 0.30000001 4286351738
0.075134575 0.082634635 0.30000001 4285229659
0.076108977 0.082634635 0.30000001 4282660904
0.077083379 0.082634635 0.30000001 4282524955
0.078057781 0.082634635 0.30000001 4281734926
0.079032183 0.082634635 0.30000001 4282260498
0.080006585 0.082634635 0.30000001 4282590233
0.081250928 0.082910091 0.30100003 4284308042
0.082228571 0.082910091 0.30100003 4286218097
0.075134575 0.083609357 0.30000001 4285957495
0.076108977 0.083609357 0.30000001 4285957493
0.077083379 0.083609357 0.30000001 4286285173
0.078057781 0.083609357 0.30000001 4286351220
0.079032183 0.083609357 0.30000001 4286285427
0.080006585 0.083609357 0.30000001 4285891185
0.081250928 0.083888061 0.30100003 4286154872
0.082228571 0.083888061 0.30100003 4286154872
0.071435526 0.057508897 0.29691291 4294967295
0.071435526 0.057508897 0.29691291 4294901760
0.071435526 0.057017978 0.29681805 4294901760
0.071435526 0.056527056 0.29672322 4294901760
0.071435526 0.056036137 0.29662836 4294901760
0.071435526 0.055545215 0.2965335 4294901760
0.071435526 0.055054296 0.29643863 4294901760
0.071435526 0.054563373 0.2963438 4294901760
0.071435526 0.054072455 0.29624894 4294901760
0.071435526 0.053581532 0.29615408 4294901760
0.071435526 0.053090613 0.29605922 4294901760
0.071435526 0.052599691 0.29596439 4294901760
0.071435526 0.052108772 0.29586953 4294901760
0.071435526 0.051617853 0.29577467 4294901760
0.071435526 0.051126931 0.29567981 4294901760
0.071435526 0.050636008 0.29558498 4294901760
0.071435526 0.05014509 0.29549012 4294901760
0.071435526 0.049654171 0.29539526 4294901760
0.071435526 0.049163248 0.29530039 4294901760
0.071435526 0.04867233 0.29520556 4294901760
0.071435526 0.048181407 0.2951107 4294901760
0.071435526 0.047690488 0.29501584 4294901760
0.071435526 0.04719957 0.29492098 4294901760
0.071435526 0.046708647 0.29482615 4294901760
0.071435526 0.046217725 0.29473129 4294901760
0.071435526 0.045726806 0.29463643 4294901760
0.071435526 0.045235887 0.2945416 4294901760
0.071435526 0.044744965 0.29444674 4294901760
0.071435526 0.044254042 0.29435188 4294901760
0.071435526 0.043763123 0.29425701 4294901760
0.071435526 0.043272205 0.29416218 4294901760
0.071435526 0.042781282 0.29406732 4294901760
0.071435526 0.042290363 0.29397246 4294901760
0.071435526 0.041799441 0.2938776 4294901760
0.071435526 0.041308522 0.29378277 4294901760
0.071435526 0.040817603 0.29368791 4294901760
0.071435526 0.040326681 0.29359305 4294901760
0.071435526 0.039835759 0.29349819 4294901760
0.071435526 0.03934484 0.29340336 4294901760
0.071435526 0.038853921 0.2933085 4294901760
0.071435526 0.038362999 0.29321364 4294901760
0.071435526 0.037872076 0.29311877 4294901760
0.071435526 0.037381157 0.29302394 4294901760
0.071435526 0.036890239 0.29292908 4294901760
0.071435526 0.036399316 0.29283422 4294901760
0.071435526 0.035908397 0.29273936 4294901760
0.071435526 0.035417475 0.29264453 4294901760
0.071435526 0.034926556 0.29254967 4294901760
0.071435526 0.034435637 0.29245481 4294901760
0.071435526 0.033944715 0.29235995 4294901760
0.071435526 0.033453792 0.29226512 4294901760
0.071435526 0.032962874 0.29217026 4294901760
0.071435526 0.032471955 0.2920754 4294901760
0.071435526 0.031981036 0.29198056 4294901760
0.071435526 0.031490114 0.2918857 4294901760
0.071435526 0.030999191 0.29179084 4294901760
0.071435526 0.03050827 0.29169598 4294901760
0.071435526 0.03001735 0.29160115 4294901760
0.071435526 0.029526431 0.29150629 4294901760
0.071435526 0.02903551 0.29141143 4294901760
0.071435526 0.02854459 0.29131657 4294901760
0.071435526 0.028053667 0.29122174 4294901760
0.071435526 0.027562749 0.29112688 4294901760
0.071435526 0.027071828 0.29103202 4294901760
0.071435526 0.026580907 0.29093716 4294901760
0.071435526 0.026089989 0.29084232 4294901760
0.071435526 0.025599066 0.29074746 4294901760
0.071435526 0.025108144 0.2906526 4294901760
0.071435526 0.024617225 0.29055774 4294901760
0.071435526 0.024126306 0.29046291 4294901760
0.071435526 0.023635384 0.29036805 4294901760
0.071435526 0.023144465 0.29027319 4294901760
0.071435526 0.022653546 0.29017833 4294901760
0.071435526 0.022162624 0.2900835 4294901760
0.071435526 0.021671701 0.28998864 4294901760
0.071435526 0.021180782 0.28989378 4294901760
0.071435526 0.020689864 0.28979892 4294901760
0.071435526 0.020198941 0.28970408 4294901760
0.071435526 0.019708022 0.28960922 4294901760
0.071435526 0.0192171 0.28951436 4294901760
0.071435526 0.018726178 0.28941953 4294901760
0.071435526 0.018235259 0.28932467 4294901760
0.071435526 0.01774434 0.28922981 4294901760
0.071435526 0.017253418 0.28913495 4294901760
0.071435526 0.016762499 0.28904012 4294901760
0.071435526 0.01627158 0.28894526 4294901760
0.071435526 0.015780658 0.2888504 4294901760
0.071435526 0.015289735 0.28875554 4294901760
0.071435526 0.014798816 0.28866071 4294901760
0.071435526 0.014307898 0.28856584 4294901760
0.071435526 0.013816975 0.28847098 4294901760
0.071435526 0.013326056 0.28837612 4294901760
0.071435526 0.012835134 0.28828129 4294901760
0.071435526 0.012344211 0.28818643 4294901760
0.071435526 0.011853293 0.28809157 4294901760
0.071435526 0.011362374 0.28799671 4294901760
0.071435526 0.010871451 0.28790188 4294901760
0.071435526 0.010380533 0.28780702 4294901760
0.071435526 0.0098896101 0.28771216 4294901760
0.071435526 0.0093986914 0.2876173 4294901760
0.071435526 0.0089077689 0.28752246 4294901760
0.071435526 0.0084168501 0.2874276 4294901760
0.071435526 0.057508897 0.29691291 4278255360
0.071929254 0.057493918 0.29699042 4278255360
0.072422981 0.057478938 0.29706797 4278255360
0.072916701 0.057463959 0.29714549 4278255360
0.073410429 0.057448983 0.297223 4278255360
0.073904157 0.057434004 0.29730052 4278255360
0.074397884 0.057419024 0.29737806 4278255360
0.074891612 0.057404045 0.29745558 4278255360
0.07538534 0.057389066 0.29753309 4278255360
0.07587906 0.057374086 0.29761064 4278255360
0.076372787 0.057359107 0.29768816 4278255360
0.076866515 0.057344131 0.29776567 4278255360
0.077360243 0.057329152 0.29784319 4278255360
0.07785397 0.057314172 0.29792073 4278255360
0.078347698 0.057299193 0.29799825 4278255360
0.078841418 0.057284214 0.29807577 4278255360
0.079335146 0.057269234 0.29815328 4278255360
0.079828873 0.057254259 0.29823083 4278255360
0.080322601 0.057239279 0.29830834 4278255360
0.080816329 0.0572243 0.29838586 4278255360
0.081310049 0.05720932 0.2984634 4278255360
0.081803776 0.057194341 0.29854092 4278255360
0.082297504 0.057179362 0.29861844 4278255360
0.082791232 0.057164382 0.29869595 4278255360
0.083284959 0.057149407 0.2987735 4278255360
0.083778679 0.057134427 0.29885101 4278255360
0.084272407 0.057119448 0.29892853 4278255360
0.084766135 0.057104468 0.29900607 4278255360
0.085259862 0.057089489 0.29908359 4278255360
0.08575359 0.05707451 0.29916111 4278255360
0.086247317 0.05705953 0.29923862 4278255360
0.086741038 0.057044555 0.29931617 4278255360
0.087234765 0.057029575 0.29939368 4278255360
0.087728493 0.057014596 0.2994712 4278255360
0.088222221 0.056999616 0.29954875 4278255360
0.088715948 0.056984637 0.29962626 4278255360
0.089209676 0.056969658 0.29970378 4278255360
0.089703396 0.056954682 0.29978129 4278255360
0.090197124 0.056939702 0.29985884 4278255360
0.090690851 0.056924723 0.29993635 4278255360
0.091184579 0.056909744 0.30001387 4278255360
0.091678306 0.056894764 0.30009139 4278255360
0.092172027 0.056879785 0.30016893 4278255360
0.092665754 0.056864806 0.30024645 4278255360
0.093159482 0.05684983 0.30032396 4278255360
0.09365321 0.05683485 0.30040151 4278255360
0.094146937 0.056819871 0.30047902 4278255360
0.094640657 0.056804892 0.30055654 4278255360
0.095134385 0.056789912 0.30063406 4278255360
0.095628113 0.056774933 0.3007116 4278255360
0.09612184 0.056759953 0.30078912 4278255360
0.096615568 0.056744978 0.30086663 4278255360
0.097109288 0.056729998 0.30094418 4278255360
0.097603016 0.056715019 0.3010217 4278255360
0.098096743 0.05670004 0.30109921 4278255360
0.098590471 0.05668506 0.30117673 4278255360
0.099084198 0.056670081 0.30125427 4278255360
0.099577926 0.056655105 0.30133179 4278255360
0.10007165 0.056640126 0.3014093 4278255360
0.10056537 0.056625146 0.30148685 4278255360
0.1010591 0.056610167 0.30156437 4278255360
0.10155283 0.056595188 0.30164188 4278255360
0.10204656 0.056580208 0.3017194 4278255360
0.10254028 0.056565229 0.30179694 4278255360
0.103034 0.056550253 0.30187446 4278255360
0.10352773 0.056535274 0.30195197 4278255360
0.10402146 0.056520294 0.30202949 4278255360
0.10451519 0.056505315 0.30210704 4278255360
0.10500892 0.056490336 0.30218455 4278255360
0.10550264 0.056475356 0.30226207 4278255360
0.10599637 0.056460381 0.30233961 4278255360
0.10649009 0.056445401 0.30241713 4278255360
0.10698382 0.056430422 0.30249465 4278255360
0.10747755 0.056415442 0.30257216 4278255360
0.10797127 0.056400463 0.30264971 4278255360
0.108465 0.056385484 0.30272722 4278255360
0.10895872 0.056370504 0.30280474 4278255360
0.10945245 0.056355529 0.30288228 4278255360
0.10994618 0.056340549 0.3029598 4278255360
0.1104399 0.05632557 0.30303732 4278255360
0.11093363 0.05631059 0.30311483 4278255360
0.11142735 0.056295611 0.30319238 4278255360
0.11192108 0.056280632 0.30326989 4278255360
0.11241481 0.056265652 0.30334741 4278255360
0.11290853 0.056250677 0.30342495 4278255360
0.11340226 0.056235697 0.30350247 4278255360
0.11389598 0.056220718 0.30357999 4278255360
0.11438972 0.056205738 0.3036575 4278255360
0.11488344 0.056190759 0.30373505 4278255360
0.11537717 0.05617578 0.30381256 4278255360
0.11587089 0.0561608 0.30389008 4278255360
0.11636462 0.056145824 0.3039676 4278255360
0.11685835 0.056130845 0.30404514 4278255360
0.11735207 0.056115866 0.30412266 4278255360
0.1178458 0.056100886 0.30420017 4278255360
0.11833952 0.056085907 0.30427772 4278255360
0.11883324 0.056070928 0.30435523 4278255360
0.11932698 0.056055952 0.30443275 4278255360
0.1198207 0.056040972 0.30451027 4278255360
0.12031443 0.056025993 0.30458781 4278255360
0.12080815 0.056011014 0.30466533 4278255360
0.071435526 0.057508897 0.29691291 4278190335
0.071356565 0.057415236 0.29739767 4278190335
0.071277611 0.057321571 0.29788244 4278190335
0.07119865 0.05722791 0.2983672 4278190335
0.071119696 0.057134245 0.29885194 4278190335
0.071040735 0.057040583 0.2993367 4278190335
0.070961781 0.056946918 0.29982147 4278190335
0.07088282 0.056853257 0.30030623 4278190335
0.070803858 0.056759592 0.300791 4278190335
0.070724905 0.056665931 0.30127576 4278190335
0.070645943 0.056572266 0.30176052 4278190335
0.070566989 0.056478605 0.30224529 4278190335
0.070488028 0.056384943 0.30273002 4278190335
0.070409074 0.056291278 0.30321479 4278190335
0.070330113 0.056197617 0.30369955 4278190335
0.070251152 0.056103952 0.30418432 4278190335
0.070172198 0.056010291 0.30466908 4278190335
0.070093237 0.055916626 0.30515385 4278190335
0.070014283 0.055822965 0.30563861 4278190335
0.069935322 0.0557293 0.30612338 4278190335
0.069856368 0.055635639 0.30660811 4278190335
0.069777407 0.055541974 0.30709288 4278190335
0.069698445 0.055448312 0.30757764 4278190335
0.069619492 0.055354647 0.3080624 4278190335
0.06954053 0.055260986 0.30854717 4278190335
0.069461577 0.055167325 0.30903193 4278190335
0.069382615 0.05507366 0.3095167 4278190335
0.069303662 0.054979999 0.31000143 4278190335
0.0692247 0.054886334 0.3104862 4278190335
0.069145739 0.054792672 0.31097096 4278190335
0.069066785 0.054699007 0.31145573 4278190335
0.068987824 0.054605346 0.31194049 4278190335
0.06890887 0.054511681 0.31242526 4278190335
0.068829909 0.05441802 0.31291002 4278190335
0.068750955 0.054324355 0.31339478 4278190335
0.068671994 0.054230694 0.31387952 4278190335
