# .PCD v0.7 - Point Cloud Data file format
VERSION 0.7
FIELDS x y z rgb
SIZE 4 4 4 4
TYPE F F F U
COUNT 1 1 1 1
WIDTH 1041
HEIGHT 1
VIEWPOINT 0 0 0 1 0 0 0
POINTS 1041
DATA ascii
0.042103715 0.032399733 0.35900003 4278793752
0.043149218 0.03230948 0.35800001 4278464785
0.044312 0.03230948 0.35800001 4278530578
0.045347761 0.032219231 0.35700002 4278465039
0.046377026 0.032128979 0.35600001 4278794002
0.047533315 0.032128979 0.35600001 4278530830
0.048552833 0.03203873 0.35500002 4278794002
0.049705874 0.03203873 0.35500002 4278531343
0.050858919 0.03203873 0.35500002 4278531343
0.051865444 0.031948481 0.354 4278465550
0.053015232 0.031948481 0.354 4278201864
0.054165028 0.031948481 0.354 4278466833
0.05531482 0.031948481 0.354 4278335247
0.056464609 0.031948481 0.354 4278466833
0.058930203 0.03203873 0.35500002 4278532626
0.06008324 0.03203873 0.35500002 4278533396
0.063721359 0.032128979 0.35600001 4278797082
0.064877644 0.032128979 0.35600001 4278928668
0.06603393 0.032128979 0.35600001 4278928668
0.067190222 0.032128979 0.35600001 4278994463
0.068346508 0.032128979 0.35600001 4279191842
0.069502793 0.032128979 0.35600001 4279322914
-0.016455518 0.036745124 0.39300001 4279246096
-0.0035969564 0.035810135 0.38300002 4279250453
-0.0023406844 0.035623137 0.38100001 4279319578
-0.0011003002 0.03552964 0.38000003 4278860308
0.00013358794 0.035436139 0.37900001 4278992664
0.0013609801 0.035342641 0.37800002 4278729492
0.0025818762 0.03524914 0.377 4278729492
0.0037962764 0.035155643 0.37600002 4278532113
0.0050041811 0.035062142 0.37500003 4278532113
0.0061889961 0.034875143 0.37300003 4278532113
0.0073806606 0.034781646 0.37200001 4278597906
0.0085658291 0.034688145 0.37100002 4278597906
0.0097445007 0.034594648 0.37 4278860308
0.010916677 0.034501147 0.36900002 4278794515
0.01211519 0.034501147 0.36900002 4278531343
0.013277622 0.034407649 0.36800003 4278194176
0.014472887 0.034407649 0.36800003 4279381273
0.015625574 0.034314148 0.36700001 4278989845
0.016817592 0.034314148 0.36700001 4278988562
0.018009609 0.034314148 0.36700001 4278720265
0.019201623 0.034314148 0.36700001 4280233504
0.020338073 0.034220651 0.36600003 4278720011
0.021526841 0.034220651 0.36600003 4279838746
0.022715611 0.034220651 0.36600003 4279115537
0.023839064 0.03412715 0.36500001 4278852365
0.025024587 0.03412715 0.36500001 4278917644
0.026210107 0.03412715 0.36500001 4278522886
0.027320571 0.034033652 0.36400002 4278587912
0.028502844 0.034033652 0.36400002 4278654218
0.029685117 0.034033652 0.36400002 4278587912
0.03086739 0.034033652 0.36400002 4278587912
0.032049663 0.034033652 0.36400002 4278392584
0.033231933 0.034033652 0.36400002 4279250199
0.034319662 0.033940151 0.36300001 4279120918
0.035498686 0.033940151 0.36300001 4279515676
0.036677711 0.033940151 0.36300001 4279120920
0.03775245 0.033846654 0.36200002 4279186713
0.038820688 0.033753157 0.36100003 4278988051
0.039993219 0.033753157 0.36100003 4278987281
0.041051712 0.033659656 0.36000001 4278196226
0.042103715 0.033566158 0.35900003 4278195712
0.043269746 0.033566158 0.35900003 4278194944
0.044312 0.033472657 0.35800001 4278194432
0.045347761 0.03337916 0.35700002 4278195969
0.046507299 0.03337916 0.35700002 4278395660
0.047533315 0.033285659 0.35600001 4278462988
0.0486896 0.033285659 0.35600001 4278791953
0.049845889 0.033285659 0.35600001 4278792466
0.050858919 0.033192161 0.35500002 4278595855
0.052011959 0.033192161 0.35500002 4278465037
0.053164996 0.033192161 0.35500002 4278530830
0.054318037 0.033192161 0.35500002 4278532113
0.055471081 0.033192161 0.35500002 4278268943
0.056624118 0.033192161 0.35500002 4278400527
0.057939909 0.033285659 0.35600001 4278532113
0.059096199 0.033285659 0.35600001 4278400527
0.060252484 0.033285659 0.35600001 4278334734
0.061408777 0.033285659 0.35600001 4278532626
0.06274081 0.03337916 0.35700002 4278598419
0.063721359 0.033285659 0.35600001 4278533396
0.064877644 0.033285659 0.35600001 4278796568
0.06603393 0.033285659 0.35600001 4278533910
0.067190222 0.033285659 0.35600001 4278533910
0.068346508 0.033285659 0.35600001 4278533908
0.069502793 0.033285659 0.35600001 4278862873
0.07085757 0.03337916 0.35700002 4278928666
0.072218828 0.033472657 0.35800001 4279059740
0.073381618 0.033472657 0.35800001 4278990877
0.0745444 0.033472657 0.35800001 4284647028
-0.0035875649 0.036957793 0.38200003 4279317529
-0.0023345409 0.036764298 0.38000003 4279320348
-0.0010974046 0.036667548 0.37900001 4278663699
0.00013323547 0.036570799 0.37800002 4278795285
0.0013573796 0.036474049 0.377 4278795285
0.0025750278 0.036377303 0.37600002 4278663699
0.0037861799 0.036280558 0.37500003 4278400527
0.0049908361 0.036183808 0.37400001 4278532113
0.0061889961 0.036087058 0.37300003 4278532113
0.0073806606 0.035990309 0.37200001 4278532113
0.0085658291 0.035893563 0.37100002 4278532113
0.0097445007 0.035796814 0.37 4278663699
0.010916677 0.035700068 0.36900002 4278794515
0.012082358 0.035603318 0.36800003 4278728211
0.013277622 0.035603318 0.36800003 4278196488
0.014472887 0.035603318 0.36800003 4279381273
0.015625574 0.035506569 0.36700001 4279055638
0.016817592 0.035506569 0.36700001 4278330634
0.018009609 0.035506569 0.36700001 4278523398
0.019201623 0.035506569 0.36700001 4279445270
0.020338073 0.035409823 0.36600003 4279182098
0.021526841 0.035409823 0.36600003 4278392582
0.022715611 0.035409823 0.36600003 4279708957
0.023839064 0.035313074 0.36500001 4278195205
0.025024587 0.035313074 0.36500001 4278655754
0.026210107 0.035313074 0.36500001 4278919439
0.027395627 0.035313074 0.36500001 4278458375
0.028502844 0.035216328 0.36400002 4278918926
0.029685117 0.035216328 0.36400002 4279247121
0.03086739 0.035216328 0.36400002 4279443986
0.032049663 0.035216328 0.36400002 4278523146
0.033231933 0.035216328 0.36400002 4279053590
0.034319662 0.035119578 0.36300001 4279055638
0.035498686 0.035119578 0.36300001 4278726673
0.036677711 0.035119578 0.36300001 4278660882
0.03775245 0.035022829 0.36200002 4278726675
0.038928226 0.035022829 0.36200002 4278989845
0.039993219 0.034926083 0.36100003 4278989845
0.041165747 0.034926083 0.36100003 4278858259
0.042220995 0.034829333 0.36000001 4278858259
0.043269746 0.034732588 0.35900003 4278857746
0.044435777 0.034732588 0.35900003 4279186711
0.045474783 0.034635838 0.35800001 4279054357
0.046637569 0.034635838 0.35800001 4279317529
0.047666837 0.034539089 0.35700002 4279119637
0.04882637 0.034539089 0.35700002 4278527500
0.049845889 0.034442339 0.35600001 4278196740
0.051002178 0.034442339 0.35600001 4278195200
0.052158471 0.034442339 0.35600001 4278194432
0.053314753 0.034442339 0.35600001 4278195200
0.054471046 0.034442339 0.35600001 4278196482
0.055627335 0.034442339 0.35600001 4278198535
0.05678362 0.034442339 0.35600001 4278660367
0.057939909 0.034442339 0.35600001 4278660880
0.059096199 0.034442339 0.35600001 4279121685
0.060252484 0.034442339 0.35600001 4278661648
0.061581276 0.034539089 0.35700002 4278530832
0.06274081 0.034539089 0.35700002 4278530832
0.063900352 0.034539089 0.35700002 4278728724
0.065059885 0.034539089 0.35700002 4278663701
0.066219419 0.034539089 0.35700002 4278597906
0.067378961 0.034539089 0.35700002 4278597906
0.068538494 0.034539089 0.35700002 4278532626
0.069698036 0.034539089 0.35700002 4278664210
0.071056046 0.034635838 0.35800001 4278665234
0.072218828 0.034635838 0.35800001 4278862359
0.073381618 0.034635838 0.35800001 4279124763
0.074752629 0.034732588 0.35900003 4279450910
0.075918667 0.034732588 0.35900003 4285434491
-0.013937965 0.039398916 0.39400002 4279770119
-0.012626124 0.039298918 0.39300001 4279442953
-0.01132078 0.03919892 0.39200002 4279640586
-0.0086624296 0.038698938 0.38700002 4283128644
-0.0073671811 0.038498942 0.38500002 4283062853
-0.006084925 0.038298946 0.38300002 4282206779
-0.0035781732 0.03809895 0.38100001 4279712287
-0.0023283972 0.037898958 0.37900001 4279056922
-0.0010945091 0.03779896 0.37800002 4278729494
0.000132883 0.037698962 0.377 4278730007
0.0013573796 0.037698962 0.377 4278730005
0.0025750278 0.037598968 0.37600002 4278532626
0.0037861799 0.03749897 0.37500003 4278335247
0.0049908361 0.037398972 0.37400001 4278664212
0.0061724037 0.037198976 0.37200001 4278532113
0.0073608202 0.037098981 0.37100002 4278531343
0.0085427398 0.03699898 0.37 4278662929
0.0097181639 0.036898986 0.36900002 4278794515
0.010916677 0.036898986 0.36900002 4278728722
0.012082358 0.036798988 0.36800003 4278200329
0.013277622 0.036798988 0.36800003 4278392843
0.014433557 0.03669899 0.36700001 4279380762
0.015625574 0.03669899 0.36700001 4278726673
0.016817592 0.03669899 0.36700001 4278264841
0.018009609 0.03669899 0.36700001 4278589193
0.019149303 0.036598995 0.36600003 4279576088
0.020338073 0.036598995 0.36600003 4278260996
0.021526841 0.036598995 0.36600003 4279379990
0.022715611 0.036598995 0.36600003 4279314195
0.023839064 0.036498994 0.36500001 4278391812
0.025024587 0.036498994 0.36500001 4279314197
0.026210107 0.036498994 0.36500001 4278195205
0.027395627 0.036498994 0.36500001 4278654472
0.028502844 0.036398999 0.36400002 4279050512
0.029685117 0.036398999 0.36400002 4278853646
0.03086739 0.036398999 0.36400002 4278392580
0.032049663 0.036398999 0.36400002 4278194689
0.033231933 0.036398999 0.36400002 4279053590
0.034414209 0.036398999 0.36400002 4278661394
0.035498686 0.036299001 0.36300001 4278199047
0.036677711 0.036299001 0.36300001 4278524681
0.037856735 0.036299001 0.36300001 4278392582
0.038928226 0.036199003 0.36200002 4278397197
0.040104002 0.036199003 0.36200002 4278660880
0.041165747 0.036099009 0.36100003 4278198017
0.042338278 0.036099009 0.36100003 4278198019
0.043390274 0.035999011 0.36000001 4278791953
0.044559553 0.035999011 0.36000001 4278792466
0.045601811 0.035899013 0.35900003 4278660880
0.046767846 0.035899013 0.35900003 4278989845
0.047800355 0.035799015 0.35800001 4278989845
0.048963137 0.035799015 0.35800001 4278792466
0.049985908 0.035699017 0.35700002 4278989845
0.051145446 0.035699017 0.35700002 4278989845
0.052304983 0.035699017 0.35700002 4278923541
0.053464517 0.035699017 0.35700002 4278857494
0.054624055 0.035699017 0.35700002 4278988310
0.055783596 0.035699017 0.35700002 4279119383
0.056943126 0.035699017 0.35700002 4278593039
0.058102667 0.035699017 0.35700002 4278526476
0.059262205 0.035699017 0.35700002 4278196997
0.060421735 0.035699017 0.35700002 4278195970
0.061581276 0.035699017 0.35700002 4278195456
0.06274081 0.035699017 0.35700002 4278195456
0.063900352 0.035699017 0.35700002 4278792466
0.065059885 0.035699017 0.35700002 4278596625
0.066219419 0.035699017 0.35700002 4278728724
0.067567699 0.035799015 0.35800001 4278794515
0.068730474 0.035799015 0.35800001 4278728722
0.069893263 0.035799015 0.35800001 4278532111
0.071056046 0.035799015 0.35800001 4278532111
0.07242056 0.035899013 0.35900003 4278729490
0.073586598 0.035899013 0.35900003 4279190043
0.074752629 0.035899013 0.35900003 4279320861
0.076130137 0.035999011 0.36000001 4281028665
-0.01132078 0.040472571 0.39200002 4279901705
-0.0086400453 0.039853089 0.38600001 4279836430
-0.0073480452 0.039646596 0.384 4279375879
-0.0060690381 0.039440107 0.38200003 4279507211
-0.0048156618 0.03933686 0.38100001 4279179016
-0.0035687818 0.039233614 0.38000003 4280107813
-0.002322254 0.039027121 0.37800002 4279056922
-0.0010945091 0.039027121 0.37800002 4278794517
0.000132883 0.038923874 0.377 4278795287
0.0013537791 0.038820628 0.37600002 4278730005
0.0025681793 0.038717382 0.37500003 4278466833
0.0037760835 0.038614135 0.37400001 4278466835
0.0049774921 0.038510889 0.37300003 4278400529
0.0061724037 0.038407642 0.37200001 4278532115
0.0073608202 0.038304396 0.37100002 4278861080
0.0085427398 0.03820115 0.37 4278465550
0.0097181639 0.038097903 0.36900002 4278531343
0.010887093 0.037994657 0.36800003 4278531345
0.012082358 0.037994657 0.36800003 4278990359
0.013277622 0.037994657 0.36800003 4278393097
0.014433557 0.03789141 0.36700001 4279446551
0.015625574 0.03789141 0.36700001 4278858259
0.016817592 0.03789141 0.36700001 4278198534
0.017960537 0.037788164 0.36600003 4278523146
0.019149303 0.037788164 0.36600003 4278522632
0.020338073 0.037788164 0.36600003 4278785291
0.021526841 0.037788164 0.36600003 4278522119
0.022653546 0.037684917 0.36500001 4278587912
0.023839064 0.037684917 0.36500001 4278587912
0.025024587 0.037684917 0.36500001 4278654218
0.026210107 0.037684917 0.36500001 4278522632
0.027395627 0.037684917 0.36500001 4278917644
0.028502844 0.037581671 0.36400002 4279445783
0.029685117 0.037581671 0.36400002 4279710236
0.03086739 0.037581671 0.36400002 4278458373
0.032049663 0.037581671 0.36400002 4278656265
0.033231933 0.037581671 0.36400002 4278857494
0.034414209 0.037581671 0.36400002 4278396943
0.035498686 0.037478425 0.36300001 4278327300
0.036677711 0.037478425 0.36300001 4278589193
0.037856735 0.037478425 0.36300001 4278654986
0.038928226 0.037375178 0.36200002 4278657552
0.040104002 0.037375178 0.36200002 4278329869
0.041279778 0.037375178 0.36200002 4279120918
0.042338278 0.037271935 0.36100003 4279120918
0.043510806 0.037271935 0.36100003 4278791185
0.044559553 0.037168685 0.36000001 4278396427
0.045728832 0.037168685 0.36000001 4279251736
0.046898115 0.037168685 0.36000001 4278198277
0.04793388 0.037065443 0.35900003 4278858261
0.049099907 0.037065443 0.35900003 4278792466
0.050265942 0.037065443 0.35900003 4278661394
0.051288709 0.036962193 0.35800001 4278727187
0.052451495 0.036962193 0.35800001 4278530578
0.053614277 0.036962193 0.35800001 4278596371
0.054777063 0.036962193 0.35800001 4278596371
0.055939849 0.036962193 0.35800001 4278858773
0.057102628 0.036962193 0.35800001 4278990359
0.058265414 0.036962193 0.35800001 4278989845
0.059428204 0.036962193 0.35800001 4278989845
0.060590982 0.036962193 0.35800001 4279055125
0.061753768 0.036962193 0.35800001 4279252504
0.062916555 0.036962193 0.35800001 4279317527
0.064079344 0.036962193 0.35800001 4278196227
0.065242119 0.036962193 0.35800001 4278595603
0.066404909 0.036962193 0.35800001 4278531345
0.067567699 0.036962193 0.35800001 4278728724
0.068730474 0.036962193 0.35800001 4278662929
0.070088498 0.037065443 0.35900003 4278728722
0.071254529 0.037065443 0.35900003 4278531343
0.07242056 0.037065443 0.35900003 4278728209
0.073586598 0.037065443 0.35900003 4278926103
0.07496085 0.037168685 0.36000001 4278860310
0.076130137 0.037168685 0.36000001 4278594324
0.077299409 0.037168685 0.36000001 4285435515
-0.0099962996 0.041533228 0.39000002 4279901451
-0.0086176619 0.04100075 0.38500002 4279638797
-0.0073289103 0.040787756 0.38300002 4279244041
-0.0060531502 0.040574767 0.38100001 4279178248
-0.0048030224 0.040468272 0.38000003 4278981639
-0.0035593901 0.040361777 0.37900001 4279909664
-0.002322254 0.040255282 0.37800002 4278925336
-0.0010916137 0.040148783 0.377 4278795033
0.00013253052 0.040042289 0.37600002 4278795033
0.0013501787 0.039935797 0.37500003 4278664214
0.0025681793 0.039935797 0.37500003 4278532374
0.0037760835 0.039829299 0.37400001 4278466581
0.0049774921 0.039722804 0.37300003 4278335249
0.0061724037 0.039616309 0.37200001 4278532115
0.0073608202 0.039509814 0.37100002 4278532115
0.0085427398 0.039403316 0.37 4278531345
0.0097181639 0.039296821 0.36900002 4278465552
0.010887093 0.03919033 0.36800003 4278794517
0.012082358 0.03919033 0.36800003 4278199815
0.013241541 0.039083831 0.36700001 4278461453
0.014433557 0.039083831 0.36700001 4278856211
0.015625574 0.039083831 0.36700001 4278990359
0.016771767 0.038977336 0.36600003 4278792468
0.017960537 0.038977336 0.36600003 4278589709
0.019149303 0.038977336 0.36600003 4278654986
0.020338073 0.038977336 0.36600003 4278720011
0.021468025 0.038870838 0.36500001 4278654218
0.022653546 0.038870838 0.36500001 4278785291
0.023839064 0.038870838 0.36500001 4278587914
0.025024587 0.038870838 0.36500001 4278652937
0.026210107 0.038870838 0.36500001 4278850314
0.027320571 0.038764346 0.36400002 4278851084
0.028502844 0.038764346 0.36400002 4278719498
0.029685117 0.038764346 0.36400002 4278523146
0.03086739 0.038764346 0.36400002 4278391560
0.032049663 0.038764346 0.36400002 4278920207
0.033231933 0.038764346 0.36400002 4278923541
0.034414209 0.038764346 0.36400002 4278791185
0.035498686 0.038657848 0.36300001 4278524168
0.036677711 0.038657848 0.36300001 4278720265
0.037856735 0.038657848 0.36300001 4278785804
0.03903576 0.038657848 0.36300001 4278920724
0.040104002 0.038551353 0.36200002 4278330380
0.041279778 0.038551353 0.36200002 4278727187
0.042455558 0.038551353 0.36200002 4278398222
0.043510806 0.038444858 0.36100003 4278790931
0.044683333 0.038444858 0.36100003 4278528013
0.045855861 0.038444858 0.36100003 4278923539
0.046898115 0.038338363 0.36000001 4278858259
0.048067398 0.038338363 0.36000001 4278396427
0.049236674 0.038338363 0.36000001 4278198277
0.050265942 0.038231868 0.35900003 4278461453
0.051431976 0.038231868 0.35900003 4278197512
0.052598011 0.038231868 0.35900003 4278198275
0.053764038 0.038231868 0.35900003 4278529296
0.054777063 0.03812537 0.35800001 4278198018
0.055939849 0.03812537 0.35800001 4278397710
0.057102628 0.03812537 0.35800001 4278727441
0.058265414 0.03812537 0.35800001 4278661648
0.059428204 0.03812537 0.35800001 4278727441
0.060590982 0.03812537 0.35800001 4278727441
0.061926268 0.038231868 0.35900003 4278859027
0.063092306 0.038231868 0.35900003 4278859027
0.064258337 0.038231868 0.35900003 4278197769
0.065424368 0.038231868 0.35900003 4279055386
0.066590399 0.038231868 0.35900003 4278728211
0.067756437 0.038231868 0.35900003 4278596625
0.06892246 0.038231868 0.35900003 4278530832
0.070088498 0.038231868 0.35900003 4278728211
0.071254529 0.038231868 0.35900003 4278728211
0.072622284 0.038338363 0.36000001 4278596625
0.073791571 0.038338363 0.36000001 4278464785
0.07496085 0.038338363 0.36000001 4278596371
0.076130137 0.038338363 0.36000001 4278856726
0.077299409 0.038338363 0.36000001 4285697403
-0.0073097749 0.04192242 0.38200003 4279243271
-0.0060372627 0.04170293 0.38000003 4279178248
-0.0047903825 0.041593187 0.37900001 4279178248
-0.0035499986 0.041483443 0.37800002 4279711772
-0.0023161103 0.041373696 0.377 4279121945
-0.0010887182 0.041263953 0.37600002 4278794517
0.00013253052 0.041263953 0.37600002 4278663701
0.0013501787 0.04115421 0.37500003 4278663447
0.0025613308 0.041044462 0.37400001 4278597654
0.003765987 0.040934719 0.37300003 4278597654
0.0049641472 0.040824972 0.37200001 4278400275
0.0061558113 0.040715229 0.37100002 4278532115
0.0073409793 0.040605485 0.37 4278728724
0.0085196523 0.040495742 0.36900002 4278662931
0.0097181639 0.040495742 0.36900002 4278662931
0.010887093 0.040385999 0.36800003 4278728211
0.012049525 0.040276252 0.36700001 4278199301
0.013241541 0.040276252 0.36700001 4278658832
0.014433557 0.040276252 0.36700001 4278725138
0.015582998 0.040166508 0.36600003 4278596371
0.016771767 0.040166508 0.36600003 4278727957
0.017960537 0.040166508 0.36600003 4279055640
0.019149303 0.040166508 0.36600003 4279187226
0.020282503 0.040056761 0.36500001 4279054103
0.021468025 0.040056761 0.36500001 4279381785
0.022653546 0.040056761 0.36500001 4279380760
0.023839064 0.040056761 0.36500001 4278656267
0.025024587 0.040056761 0.36500001 4278260998
0.026138298 0.039947018 0.36400002 4278523400
0.027320571 0.039947018 0.36400002 4278456839
0.028502844 0.039947018 0.36400002 4278654218
0.029685117 0.039947018 0.36400002 4278719498
0.03086739 0.039947018 0.36400002 4278719498
0.032049663 0.039947018 0.36400002 4278394376
0.033231933 0.039947018 0.36400002 4279120920
0.034414209 0.039947018 0.36400002 4279186711
0.035498686 0.039837271 0.36300001 4278921488
0.036677711 0.039837271 0.36300001 4278852365
0.037856735 0.039837271 0.36300001 4278721549
0.03903576 0.039837271 0.36300001 4279054103
0.040104002 0.039727528 0.36200002 4278857748
0.041279778 0.039727528 0.36200002 4278198790
0.042455558 0.039727528 0.36200002 4278462990
0.04363133 0.039727528 0.36200002 4279055127
0.044683333 0.039617784 0.36100003 4278196992
0.045855861 0.039617784 0.36100003 4278922004
0.047028389 0.039617784 0.36100003 4278197764
0.04820092 0.039617784 0.36100003 4278988564
0.049236674 0.039508041 0.36000001 4278197764
0.050405957 0.039508041 0.36000001 4278657548
0.05157524 0.039508041 0.36000001 4278657550
0.052598011 0.039398298 0.35900003 4278658062
0.053764038 0.039398298 0.35900003 4278196740
0.054930072 0.039398298 0.35900003 4278856978
0.056096107 0.039398298 0.35900003 4278264841
0.057262138 0.039398298 0.35900003 4278922258
0.058428172 0.039398298 0.35900003 4278460937
0.059594207 0.039398298 0.35900003 4278198024
0.060760234 0.039398298 0.35900003 4278726162
0.061926268 0.039398298 0.35900003 4278727441
0.063092306 0.039398298 0.35900003 4279121431
0.064258337 0.039398298 0.35900003 4278329097
0.065424368 0.039398298 0.35900003 4278857748
0.066590399 0.039398298 0.35900003 4278924820
0.067756437 0.039398298 0.35900003 4278924820
0.06892246 0.039398298 0.35900003 4278859027
0.070283726 0.039508041 0.36000001 4278728211
0.071453013 0.039508041 0.36000001 4278728211
0.072622284 0.039508041 0.36000001 4278596625
0.073791571 0.039508041 0.36000001 4278596371
0.07496085 0.039508041 0.36000001 4278661394
0.076130137 0.039508041 0.36000001 4279251484
-0.0060372627 0.042937592 0.38000003 4279309062
-0.0047777435 0.042711601 0.37800002 4279309834
-0.0035406069 0.042598605 0.377 4278917640
-0.0023161103 0.042598605 0.377 4279447830
-0.0010887182 0.042485613 0.37600002 4278200840
0.00013217804 0.042372622 0.37500003 4279122199
0.0013501787 0.042372622 0.37500003 4278859797
0.0025613308 0.042259626 0.37400001 4278728724
0.003765987 0.042146634 0.37300003 4278728724
0.0049641472 0.042033639 0.37200001 4278794517
0.0061558113 0.041920647 0.37100002 4278531345
0.0073409793 0.041807652 0.37 4278728724
0.0085196523 0.04169466 0.36900002 4278662931
0.0096918279 0.041581668 0.36800003 4278531345
0.010887093 0.041581668 0.36800003 4278662931
0.012049525 0.041468672 0.36700001 4278991383
0.013241541 0.041468672 0.36700001 4278793750
0.014394229 0.041355681 0.36600003 4278596371
0.015582998 0.041355681 0.36600003 4278727957
0.016771767 0.041355681 0.36600003 4278793750
0.017960537 0.041355681 0.36600003 4278596371
0.019096982 0.041242685 0.36500001 4278727957
0.020282503 0.041242685 0.36500001 4278793750
0.021468025 0.041242685 0.36500001 4278596371
0.022653546 0.041242685 0.36500001 4278924566
0.023839064 0.041242685 0.36500001 4278990359
0.024956027 0.04112969 0.36400002 4278858773
0.026138298 0.04112969 0.36400002 4278858773
0.027320571 0.04112969 0.36400002 4278989847
0.028502844 0.04112969 0.36400002 4279120920
0.029685117 0.04112969 0.36400002 4279251223
0.03086739 0.04112969 0.36400002 4279250199
0.032049663 0.04112969 0.36400002 4279185943
0.033231933 0.04112969 0.36400002 4278197763
0.034319662 0.041016694 0.36300001 4278195712
0.035498686 0.041016694 0.36300001 4278194688
0.036677711 0.041016694 0.36300001 4278194944
0.037856735 0.041016694 0.36300001 4278196486
0.03903576 0.041016694 0.36300001 4278460685
0.040104002 0.040903702 0.36200002 4278593039
0.041279778 0.040903702 0.36200002 4278856976
0.042455558 0.040903702 0.36200002 4279055125
0.04363133 0.040903702 0.36200002 4278858513
0.044807106 0.040903702 0.36200002 4278989845
0.045855861 0.040790711 0.36100003 4278923539
0.047028389 0.040790711 0.36100003 4279120918
0.04820092 0.040790711 0.36100003 4279120918
0.049373444 0.040790711 0.36100003 4279252504
0.050405957 0.040677715 0.36000001 4278922769
0.05157524 0.040677715 0.36000001 4278922769
0.052744523 0.040677715 0.36000001 4279251223
0.053913798 0.040677715 0.36000001 4278790672
0.055083081 0.040677715 0.36000001 4278461707
0.056096107 0.040564723 0.35900003 4278196480
0.057262138 0.040564723 0.35900003 4279119637
0.058428172 0.040564723 0.35900003 4279184406
0.059594207 0.040564723 0.35900003 4278197512
0.060760234 0.040564723 0.35900003 4279054103
0.061926268 0.040564723 0.35900003 4278859027
0.063092306 0.040564723 0.35900003 4278726673
0.064258337 0.040564723 0.35900003 4278789902
0.065424368 0.040564723 0.35900003 4279121431
0.066590399 0.040564723 0.35900003 4278990613
0.067756437 0.040564723 0.35900003 4278924820
0.069114447 0.040677715 0.36000001 4278794004
0.070283726 0.040677715 0.36000001 4278728211
0.071453013 0.040677715 0.36000001 4278596625
0.072622284 0.040677715 0.36000001 4278728211
0.073791571 0.040677715 0.36000001 4278859027
0.07496085 0.040677715 0.36000001 4279056152
0.076130137 0.040677715 0.36000001 4279647777
0.077299409 0.040677715 0.36000001 4284974964
-0.0047651036 0.043823518 0.377 4279638029
-0.0035406069 0.043823518 0.377 4279244811
-0.0023099668 0.043707278 0.37600002 4279180299
-0.0010887182 0.043707278 0.37600002 4279116557
0.00013217804 0.043591034 0.37500003 4280039455
0.0013501787 0.043591034 0.37500003 4278527759
0.0025613308 0.04347479 0.37400001 4279317275
0.003765987 0.043358549 0.37300003 4279318558
0.0049641472 0.043242306 0.37200001 4279516191
0.0061558113 0.043126062 0.37100002 4279450912
0.0073409793 0.043009818 0.37 4279319326
0.0085196523 0.042893577 0.36900002 4279319324
0.0096918279 0.042777337 0.36800003 4279450910
0.010857509 0.042661093 0.36700001 4279320094
0.012049525 0.042661093 0.36700001 4279320094
0.01320546 0.042544849 0.36600003 4278793750
0.014394229 0.042544849 0.36600003 4278793750
0.015582998 0.042544849 0.36600003 4278727957
0.016725942 0.042428605 0.36500001 4278596371
0.017911464 0.042428605 0.36500001 4278596371
0.019096982 0.042428605 0.36500001 4278530578
0.020282503 0.042428605 0.36500001 4278596371
0.021468025 0.042428605 0.36500001 4278727957
0.022653546 0.042428605 0.36500001 4278794004
0.023773754 0.042312365 0.36400002 4278728211
0.024956027 0.042312365 0.36400002 4278662931
0.026138298 0.042312365 0.36400002 4278465552
0.027320571 0.042312365 0.36400002 4278531345
0.028502844 0.042312365 0.36400002 4278531345
0.029685117 0.042312365 0.36400002 4278596625
0.03086739 0.042312365 0.36400002 4278596371
0.032049663 0.042312365 0.36400002 4278794004
0.033140637 0.042196121 0.36300001 4278596625
0.034319662 0.042196121 0.36300001 4278859027
0.035498686 0.042196121 0.36300001 4278989845
0.036677711 0.042196121 0.36300001 4279120918
0.037856735 0.042196121 0.36300001 4279120920
0.03903576 0.042196121 0.36300001 4279316762
0.040104002 0.042079877 0.36200002 4278790420
0.041279778 0.042079877 0.36200002 4278263304
0.042455558 0.042079877 0.36200002 4278195712
0.04363133 0.042079877 0.36200002 4278195201
0.044807106 0.042079877 0.36200002 4278194944
0.045982882 0.042079877 0.36200002 4278196228
0.047028389 0.041963637 0.36100003 4278262792
0.04820092 0.041963637 0.36100003 4278527500
0.049373444 0.041963637 0.36100003 4278856465
0.050545976 0.041963637 0.36100003 4279251736
0.05157524 0.041847393 0.36000001 4278923541
0.052744523 0.041847393 0.36000001 4279121433
0.053913798 0.041847393 0.36000001 4278858261
0.055083081 0.041847393 0.36000001 4278858259
0.056252364 0.041847393 0.36000001 4278989845
0.05742164 0.041847393 0.36000001 4279253017
0.058590923 0.041847393 0.36000001 4278989845
0.059760205 0.041847393 0.36000001 4278988564
0.060929481 0.041847393 0.36000001 4279120920
0.062098764 0.041847393 0.36000001 4278924820
0.063268043 0.041847393 0.36000001 4278529294
0.06443733 0.041847393 0.36000001 4279119637
0.065606602 0.041847393 0.36000001 4278990359
0.066775888 0.041847393 0.36000001 4278859797
0.067945167 0.041847393 0.36000001 4278794004
0.069114447 0.041847393 0.36000001 4278596625
0.070283726 0.041847393 0.36000001 4278794004
0.071453013 0.041847393 0.36000001 4278794004
0.072622284 0.041847393 0.36000001 4278728211
0.073791571 0.041847393 0.36000001 4278728211
0.07496085 0.041847393 0.36000001 4278925336
0.076130137 0.041847393 0.36000001 4279187740
0.077299409 0.041847393 0.36000001 4284580206
0.0073211393 0.044092495 0.36900002 4280369452
0.0085196523 0.044092495 0.36900002 4279185689
0.0096918279 0.043973006 0.36800003 4279185689
0.010857509 0.04385351 0.36700001 4279252252
0.012049525 0.04385351 0.36700001 4279450144
0.01320546 0.043734021 0.36600003 4279515937
0.014394229 0.043734021 0.36600003 4279318558
0.015540421 0.043614529 0.36500001 4279516191
0.016725942 0.043614529 0.36500001 4279385119
0.017911464 0.043614529 0.36500001 4279319324
0.019096982 0.043614529 0.36500001 4279320094
0.020282503 0.043614529 0.36500001 4279254301
0.021468025 0.043614529 0.36500001 4279056922
0.022591481 0.043495037 0.36400002 4278859543
0.023773754 0.043495037 0.36400002 4278530578
0.024956027 0.043495037 0.36400002 4278662677
0.026138298 0.043495037 0.36400002 4278794517
0.027320571 0.043495037 0.36400002 4278662931
0.028502844 0.043495037 0.36400002 4278531345
0.029685117 0.043495037 0.36400002 4278728724
0.03086739 0.043495037 0.36400002 4278531091
0.031961612 0.043375544 0.36300001 4278531345
0.033140637 0.043375544 0.36300001 4278662931
0.034319662 0.043375544 0.36300001 4278662931
0.035498686 0.043375544 0.36300001 4278596625
0.036677711 0.043375544 0.36300001 4278596625
0.037856735 0.043375544 0.36300001 4278859027
0.03903576 0.043375544 0.36300001 4278727441
0.040104002 0.043256052 0.36200002 4278661648
0.041279778 0.043256052 0.36200002 4278727441
0.042455558 0.043256052 0.36200002 4278924820
0.04363133 0.043256052 0.36200002 4278989845
0.044807106 0.043256052 0.36200002 4279120920
0.045982882 0.043256052 0.36200002 4279251736
0.047028389 0.043136563 0.36100003 4279185943
0.04820092 0.043136563 0.36100003 4278790418
0.049373444 0.043136563 0.36100003 4279053590
0.050545976 0.043136563 0.36100003 4278329099
0.05157524 0.043017067 0.36000001 4278195459
0.052744523 0.043017067 0.36000001 4278195457
0.053913798 0.043017067 0.36000001 4278195200
0.055083081 0.043017067 0.36000001 4278196228
0.056252364 0.043017067 0.36000001 4278195969
0.05742164 0.043017067 0.36000001 4278264839
0.058590923 0.043017067 0.36000001 4279252504
0.059760205 0.043017067 0.36000001 4278857746
0.060929481 0.043017067 0.36000001 4278858259
0.062098764 0.043017067 0.36000001 4278661394
0.063268043 0.043017067 0.36000001 4278264841
0.06443733 0.043017067 0.36000001 4278988564
0.065606602 0.043017067 0.36000001 4278924566
0.066775888 0.043017067 0.36000001 4278728724
0.067945167 0.043017067 0.36000001 4278531345
0.069114447 0.043017067 0.36000001 4278465552
0.070283726 0.043017067 0.36000001 4278794517
0.071453013 0.043017067 0.36000001 4278794004
0.072824016 0.043136563 0.36100003 4278728211
0.073996551 0.043136563 0.36100003 4278530578
0.075169079 0.043136563 0.36100003 4278859543
0.076130137 0.043017067 0.36000001 4278725138
0.012016693 0.044923194 0.36600003 4284249953
0.01320546 0.044923194 0.36600003 4283854682
0.0143549 0.044800449 0.36500001 4282210370
0.015540421 0.044800449 0.36500001 4280566061
0.016725942 0.044800449 0.36500001 4279579166
0.017911464 0.044800449 0.36500001 4278922519
0.019096982 0.044800449 0.36500001 4278989595
0.020282503 0.044800449 0.36500001 4278858007
0.021409208 0.044677708 0.36400002 4279450144
0.022591481 0.044677708 0.36400002 4279384865
0.023773754 0.044677708 0.36400002 4279385635
0.024956027 0.044677708 0.36400002 4279254049
0.026138298 0.044677708 0.36400002 4279254303
0.027320571 0.044677708 0.36400002 4279385887
0.028502844 0.044677708 0.36400002 4279188762
0.029685117 0.044677708 0.36400002 4279188762
0.03078259 0.044554967 0.36300001 4279057176
0.031961612 0.044554967 0.36300001 4278794517
0.033140637 0.044554967 0.36300001 4278662931
0.034319662 0.044554967 0.36300001 4278662931
0.035498686 0.044554967 0.36300001 4278531345
0.036677711 0.044554967 0.36300001 4278662931
0.037856735 0.044554967 0.36300001 4278662931
0.03903576 0.044554967 0.36300001 4278662931
0.040104002 0.044432227 0.36200002 4278662931
0.041279778 0.044432227 0.36200002 4278531091
0.042455558 0.044432227 0.36200002 4278662931
0.04363133 0.044432227 0.36200002 4278728724
0.044807106 0.044432227 0.36200002 4278727957
0.045982882 0.044432227 0.36200002 4278727187
0.047028389 0.044309489 0.36100003 4278858773
0.04820092 0.044309489 0.36100003 4278727187
0.049373444 0.044309489 0.36100003 4278858773
0.050545976 0.044309489 0.36100003 4279121431
0.05157524 0.044186745 0.36000001 4278989845
0.052744523 0.044186745 0.36000001 4279055640
0.053913798 0.044186745 0.36000001 4279121433
0.055083081 0.044186745 0.36000001 4279186713
0.056252364 0.044186745 0.36000001 4279449115
0.05742164 0.044186745 0.36000001 4279053590
0.058590923 0.044186745 0.36000001 4279052820
0.059760205 0.044186745 0.36000001 4278195972
0.060929481 0.044186745 0.36000001 4278195457
0.062098764 0.044186745 0.36000001 4278195201
0.063268043 0.044186745 0.36000001 4278196742
0.06443733 0.044186745 0.36000001 4279120918
0.065606602 0.044186745 0.36000001 4278924566
0.066775888 0.044186745 0.36000001 4278662677
0.067945167 0.044186745 0.36000001 4278794517
0.069114447 0.044186745 0.36000001 4278728724
0.070478961 0.044309489 0.36100003 4278662931
0.071651496 0.044309489 0.36100003 4278531345
0.072824016 0.044309489 0.36100003 4278596625
0.073996551 0.044309489 0.36100003 4278727957
0.075169079 0.044309489 0.36100003 4278924568
0.076341607 0.044309489 0.36100003 4280435247
0.0143549 0.045986373 0.36500001 4283919707
0.015540421 0.045986373 0.36500001 4283919707
0.016725942 0.045986373 0.36500001 4283788891
0.017911464 0.045986373 0.36500001 4284052576
0.019096982 0.045986373 0.36500001 4284053090
0.020282503 0.045986373 0.36500001 4284579434
0.021409208 0.045860387 0.36400002 4284513641
0.022591481 0.045860387 0.36400002 4282999890
0.023773754 0.045860387 0.36400002 4280762928
0.024956027 0.045860387 0.36400002 4279318049
0.026138298 0.045860387 0.36400002 4278659865
0.027320571 0.045860387 0.36400002 4278660630
0.028502844 0.045860387 0.36400002 4279516191
0.029685117 0.045860387 0.36400002 4279385117
0.03086739 0.045860387 0.36400002 4279320096
0.031961612 0.045734394 0.36300001 4279320096
0.033140637 0.045734394 0.36300001 4279188510
0.034319662 0.045734394 0.36300001 4279254301
0.035498686 0.045734394 0.36300001 4279188508
0.036677711 0.045734394 0.36300001 4278991383
0.037856735 0.045734394 0.36300001 4278991383
0.03903576 0.045734394 0.36300001 4278794517
0.040104002 0.045608405 0.36200002 4278926103
0.041279778 0.045608405 0.36200002 4278728211
0.042455558 0.045608405 0.36200002 4278794004
0.04363133 0.045608405 0.36200002 4278530832
0.044807106 0.045608405 0.36200002 4278662931
0.045982882 0.045608405 0.36200002 4278662931
0.047158662 0.045608405 0.36200002 4278531345
0.04820092 0.045482416 0.36100003 4278531091
0.049373444 0.045482416 0.36100003 4278727957
0.050545976 0.045482416 0.36100003 4278859543
0.051718507 0.045482416 0.36100003 4278727957
0.052744523 0.045356423 0.36000001 4278793750
0.053913798 0.045356423 0.36000001 4278793750
0.055083081 0.045356423 0.36000001 4278727957
0.056252364 0.045356423 0.36000001 4278793750
0.05742164 0.045356423 0.36000001 4278859797
0.058590923 0.045356423 0.36000001 4278794004
0.059760205 0.045356423 0.36000001 4278858259
0.060929481 0.045356423 0.36000001 4279121431
0.062098764 0.045356423 0.36000001 4278989845
0.063268043 0.045356423 0.36000001 4278989847
0.06443733 0.045356423 0.36000001 4278924566
0.065606602 0.045356423 0.36000001 4278727957
0.066961378 0.045482416 0.36100003 4278794004
0.068133906 0.045482416 0.36100003 4278991383
0.069306433 0.045482416 0.36100003 4278794004
0.070478961 0.045482416 0.36100003 4278596625
0.071651496 0.045482416 0.36100003 4278794004
0.072824016 0.045482416 0.36100003 4278924820
0.073996551 0.045482416 0.36100003 4278989845
0.075169079 0.045482416 0.36100003 4279252252
0.076341607 0.045482416 0.36100003 4285105266
0.015540421 0.047172293 0.36500001 4283985500
0.016725942 0.047172293 0.36500001 4283985500
0.017911464 0.047172293 0.36500001 4284182879
0.019096982 0.047172293 0.36500001 4284117086
0.020282503 0.047172293 0.36500001 4284380258
0.021468025 0.047172293 0.36500001 4284577637
0.022591481 0.047043055 0.36400002 4284775788
0.023773754 0.047043055 0.36400002 4284776301
0.024956027 0.047043055 0.36400002 4284842608
0.026138298 0.047043055 0.36400002 4284973940
0.027320571 0.047043055 0.36400002 4285434491
0.028502844 0.047043055 0.36400002 4285500284
0.029685117 0.047043055 0.36400002 4285237112
0.03086739 0.047043055 0.36400002 4283658080
0.032049663 0.047043055 0.36400002 4281947462
0.033140637 0.046913814 0.36300001 4279777063
0.034319662 0.046913814 0.36300001 4278857498
0.035498686 0.046913814 0.36300001 4278660117
0.036677711 0.046913814 0.36300001 4279251482
0.037856735 0.046913814 0.36300001 4279318045
0.03903576 0.046913814 0.36300001 4279318812
0.040104002 0.046784576 0.36200002 4279516191
0.041279778 0.046784576 0.36200002 4279253271
0.042455558 0.046784576 0.36200002 4279319064
0.04363133 0.046784576 0.36200002 4279451164
0.044807106 0.046784576 0.36200002 4279122199
0.045982882 0.046784576 0.36200002 4279187992
0.047158662 0.046784576 0.36200002 4279319324
0.04820092 0.046655338 0.36100003 4279385117
0.049373444 0.046655338 0.36100003 4279319324
0.050545976 0.046655338 0.36100003 4279121945
0.051718507 0.046655338 0.36100003 4279187738
0.052744523 0.046526097 0.36000001 4279056922
0.053913798 0.046526097 0.36000001 4279056922
0.055083081 0.046526097 0.36000001 4278859543
0.056252364 0.046526097 0.36000001 4278991383
0.05742164 0.046526097 0.36000001 4278925590
0.058590923 0.046526097 0.36000001 4278794004
0.059760205 0.046526097 0.36000001 4278859797
0.060929481 0.046526097 0.36000001 4278728211
0.062098764 0.046526097 0.36000001 4278794004
0.063268043 0.046526097 0.36000001 4278728211
0.064616323 0.046655338 0.36100003 4278596371
0.06578885 0.046655338 0.36100003 4278859543
0.066961378 0.046655338 0.36100003 4278530832
0.068133906 0.046655338 0.36100003 4278728211
0.069306433 0.046655338 0.36100003 4278728211
0.070478961 0.046655338 0.36100003 4278794004
0.071651496 0.046655338 0.36100003 4278859027
0.072824016 0.046655338 0.36100003 4278990613
0.073996551 0.046655338 0.36100003 4279121431
0.075169079 0.046655338 0.36100003 4280237866
0.076341607 0.046655338 0.36100003 4285302391
0.020282503 0.048358217 0.36500001 4284248674
0.021468025 0.048358217 0.36500001 4284511846
0.022653546 0.048358217 0.36500001 4284709225
0.023773754 0.048225731 0.36400002 4284907374
0.024956027 0.048225731 0.36400002 4285038960
0.026138298 0.048225731 0.36400002 4285105012
0.027320571 0.048225731 0.36400002 4285105012
0.028502844 0.048225731 0.36400002 4285038706
0.029685117 0.048225731 0.36400002 4285170294
0.03086739 0.048225731 0.36400002 4285038706
0.032049663 0.048225731 0.36400002 4284907120
0.033231933 0.048225731 0.36400002 4284512362
0.034319662 0.048093241 0.36300001 4284841840
0.035498686 0.048093241 0.36300001 4284447082
0.036677711 0.048093241 0.36300001 4284315498
0.037856735 0.048093241 0.36300001 4283658082
0.03903576 0.048093241 0.36300001 4283724125
0.040104002 0.047960754 0.36200002 4282539851
0.041279778 0.047960754 0.36200002 4281290554
0.042455558 0.047960754 0.36200002 4279777317
0.04363133 0.047960754 0.36200002 4279316766
0.044807106 0.047960754 0.36200002 4278922008
0.045982882 0.047960754 0.36200002 4278987797
0.047158662 0.047960754 0.36200002 4279448348
0.04820092 0.047828268 0.36100003 4278987797
0.049373444 0.047828268 0.36100003 4279119383
0.050545976 0.047828268 0.36100003 4278922517
0.051718507 0.047828268 0.36100003 4279318045
0.052744523 0.047695778 0.36000001 4279318299
0.053913798 0.047695778 0.36000001 4279384092
0.055083081 0.047695778 0.36000001 4279515676
0.056252364 0.047695778 0.36000001 4279252504
0.05742164 0.047695778 0.36000001 4279647775
0.058590923 0.047695778 0.36000001 4279450396
0.059760205 0.047695778 0.36000001 4279253017
0.060929481 0.047695778 0.36000001 4279450396
0.062098764 0.047695778 0.36000001 4279253017
0.063443795 0.047828268 0.36100003 4279187740
0.064616323 0.047828268 0.36100003 4279056922
0.06578885 0.047828268 0.36100003 4278991129
0.066961378 0.047828268 0.36100003 4279121945
0.068133906 0.047828268 0.36100003 4279056152
0.069306433 0.047828268 0.36100003 4279056152
0.070674196 0.047960754 0.36200002 4278924566
0.071849972 0.047960754 0.36200002 4279319324
0.072824016 0.047828268 0.36100003 4279384090
0.073996551 0.047828268 0.36100003 4279579168
0.075169079 0.047828268 0.36100003 4285500286
0.076341607 0.047828268 0.36100003 4285105012
0.063443795 0.049001191 0.36100003 4279973922
0.064616323 0.049001191 0.36100003 4279448348
0.06578885 0.049001191 0.36100003 4279119383
0.066961378 0.049001191 0.36100003 4278856726
0.068133906 0.049001191 0.36100003 4278790933
0.069306433 0.049001191 0.36100003 4278790931
0.070674196 0.049136925 0.36200002 4278790418
0.071849972 0.049136925 0.36200002 4280171301
0.073025748 0.049136925 0.36200002 4284381541
0.074201524 0.049136925 0.36200002 4285499511
0.070674196 0.050313104 0.36200002 4285171571
0.071849972 0.050313104 0.36200002 4285105780
0.034093592 0.038606171 0.36608234 4294967295
0.034093592 0.038606171 0.36608234 4294901760
0.034136694 0.038108058 0.36607713 4294901760
0.034179792 0.037609946 0.36607191 4294901760
0.034222893 0.037111837 0.36606669 4294901760
0.034265991 0.036613725 0.36606148 4294901760
0.034309093 0.036115613 0.36605626 4294901760
0.034352191 0.035617501 0.36605102 4294901760
0.034395292 0.035119388 0.3660458 4294901760
0.03443839 0.034621276 0.36604059 4294901760
0.034481492 0.034123167 0.36603537 4294901760
0.03452459 0.033625055 0.36603016 4294901760
0.034567691 0.033126943 0.36602494 4294901760
0.034610789 0.032628831 0.36601973 4294901760
0.034653891 0.032130718 0.36601451 4294901760
0.034696989 0.03163261 0.36600929 4294901760
0.03474009 0.031134496 0.36600405 4294901760
0.034783188 0.030636385 0.36599883 4294901760
0.03482629 0.030138273 0.36599362 4294901760
0.034869388 0.029640161 0.3659884 4294901760
0.034912489 0.02914205 0.36598319 4294901760
0.034955587 0.028643938 0.36597797 4294901760
0.034998689 0.028145827 0.36597276 4294901760
0.035041787 0.027647715 0.36596754 4294901760
0.035084888 0.027149603 0.36596233 4294901760
0.035127986 0.026651492 0.36595711 4294901760
0.035171088 0.02615338 0.3659519 4294901760
0.035214186 0.02565527 0.36594665 4294901760
0.035257287 0.025157157 0.36594144 4294901760
0.035300389 0.024659045 0.36593622 4294901760
0.035343487 0.024160933 0.365931 4294901760
0.035386588 0.02366282 0.36592579 4294901760
0.035429686 0.02316471 0.36592057 4294901760
0.035472788 0.0226666 0.36591536 4294901760
0.035515886 0.022168487 0.36591014 4294901760
0.035558987 0.021670375 0.36590493 4294901760
0.035602085 0.021172265 0.36589968 4294901760
0.035645187 0.020674152 0.36589447 4294901760
0.035688285 0.02017604 0.36588925 4294901760
0.035731386 0.01967793 0.36588404 4294901760
0.035774484 0.019179817 0.36587882 4294901760
0.035817586 0.018681705 0.36587361 4294901760
0.035860684 0.018183595 0.36586839 4294901760
0.035903785 0.017685482 0.36586317 4294901760
0.035946883 0.01718737 0.36585796 4294901760
0.035989985 0.01668926 0.36585274 4294901760
0.036033083 0.016191149 0.36584753 4294901760
0.036076184 0.015693035 0.36584228 4294901760
0.036119282 0.015194925 0.36583707 4294901760
0.036162384 0.014696814 0.36583185 4294901760
0.036205485 0.0141987 0.36582664 4294901760
0.036248583 0.01370059 0.36582142 4294901760
0.036291681 0.013202479 0.36581621 4294901760
0.036334783 0.012704367 0.36581099 4294901760
0.036377884 0.012206256 0.36580577 4294901760
0.036420982 0.011708142 0.36580056 4294901760
0.036464084 0.01121003 0.36579531 4294901760
0.036507182 0.01071192 0.3657901 4294901760
0.036550283 0.010213809 0.36578488 4294901760
0.036593381 0.0097156968 0.36577967 4294901760
0.036636483 0.0092175864 0.36577445 4294901760
0.036679581 0.0087194722 0.36576924 4294901760
0.036722682 0.0082213618 0.36576402 4294901760
0.03676578 0.0077232495 0.36575881 4294901760
0.036808882 0.0072251372 0.36575359 4294901760
0.03685198 0.0067270286 0.36574838 4294901760
0.036895081 0.0062289163 0.36574316 4294901760
0.036938179 0.0057308041 0.36573792 4294901760
0.036981281 0.0052326918 0.3657327 4294901760
0.037024379 0.0047345795 0.36572748 4294901760
0.03706748 0.0042364672 0.36572227 4294901760
0.037110578 0.0037383586 0.36571705 4294901760
0.03715368 0.0032402463 0.36571184 4294901760
0.037196778 0.002742134 0.36570662 4294901760
0.037239879 0.0022440217 0.36570141 4294901760
0.037282981 0.0017459095 0.36569619 4294901760
0.037326079 0.0012477972 0.36569095 4294901760
0.037369177 0.0007496886 0.36568573 4294901760
0.037412278 0.0002515763 0.36568052 4294901760
0.03745538 -0.00024653599 0.3656753 4294901760
0.037498478 -0.00074464828 0.36567008 4294901760
0.037541579 -0.0012427606 0.36566487 4294901760
0.037584677 -0.0017408691 0.36565965 4294901760
0.037627779 -0.0022389814 0.36565444 4294901760
0.037670877 -0.0027370937 0.36564922 4294901760
0.037713978 -0.003235206 0.36564401 4294901760
0.037757076 -0.0037333183 0.36563879 4294901760
0.037800178 -0.0042314306 0.36563355 4294901760
0.037843276 -0.0047295392 0.36562833 4294901760
0.037886377 -0.0052276514 0.36562312 4294901760
0.037929475 -0.0057257637 0.3656179 4294901760
0.037972577 -0.0062238723 0.36561269 4294901760
0.038015675 -0.0067219883 0.36560747 4294901760
0.038058776 -0.0072201006 0.36560225 4294901760
0.038101874 -0.0077182092 0.36559704 4294901760
0.038144976 -0.0082163215 0.36559182 4294901760
0.038188074 -0.0087144338 0.36558658 4294901760
0.038231175 -0.0092125423 0.36558136 4294901760
0.038274273 -0.0097106583 0.36557615 4294901760
0.038317375 -0.010208771 0.36557093 4294901760
0.038360476 -0.010706879 0.36556572 4294901760
0.038403574 -0.011204991 0.3655605 4294901760
0.034093592 0.038606171 0.36608234 4278255360
0.034567393 0.03864878 0.36592841 4278255360
0.035041191 0.03869139 0.36577445 4278255360
0.035514992 0.038733996 0.36562052 4278255360
0.035988793 0.038776606 0.36546656 4278255360
0.036462594 0.038819216 0.36531264 4278255360
0.036936391 0.038861826 0.36515868 4278255360
0.037410192 0.038904432 0.36500475 4278255360
0.037883993 0.038947042 0.36485082 4278255360
0.038357794 0.038989652 0.36469686 4278255360
0.038831592 0.039032262 0.36454293 4278255360
0.039305393 0.039074868 0.36438897 4278255360
0.039779194 0.039117478 0.36423504 4278255360
0.040252991 0.039160088 0.36408111 4278255360
0.040726792 0.039202698 0.36392716 4278255360
0.041200593 0.039245307 0.36377323 4278255360
0.041674394 0.039287914 0.36361927 4278255360
0.042148195 0.039330523 0.36346534 4278255360
0.042621993 0.039373133 0.36331138 4278255360
0.043095794 0.039415743 0.36315745 4278255360
0.043569595 0.039458349 0.36300352 4278255360
0.044043392 0.039500959 0.36284956 4278255360
0.044517193 0.039543569 0.36269563 4278255360
0.044990994 0.039586179 0.36254168 4278255360
0.045464791 0.039628785 0.36238775 4278255360
0.045938592 0.039671395 0.36223382 4278255360
0.046412393 0.039714005 0.36207986 4278255360
0.046886194 0.039756615 0.36192593 4278255360
0.047359996 0.039799225 0.36177197 4278255360
0.047833793 0.039841831 0.36161804 4278255360
0.048307594 0.039884441 0.36146408 4278255360
0.048781395 0.03992705 0.36131015 4278255360
0.049255192 0.03996966 0.36115623 4278255360
0.049728997 0.040012266 0.36100227 4278255360
0.050202794 0.040054876 0.36084834 4278255360
0.050676592 0.040097486 0.36069438 4278255360
0.051150396 0.040140096 0.36054045 4278255360
0.051624194 0.040182702 0.36038649 4278255360
0.052097991 0.040225312 0.36023256 4278255360
0.052571796 0.040267922 0.36007863 4278255360
0.053045593 0.040310532 0.35992467 4278255360
0.053519394 0.040353142 0.35977075 4278255360
0.053993195 0.040395748 0.35961679 4278255360
0.054466993 0.040438358 0.35946286 4278255360
0.054940794 0.040480968 0.35930893 4278255360
0.055414595 0.040523577 0.35915497 4278255360
0.055888392 0.040566184 0.35900104 4278255360
0.056362197 0.040608793 0.35884708 4278255360
0.056835994 0.040651403 0.35869315 4278255360
0.057309795 0.040694013 0.35853919 4278255360
0.057783596 0.040736623 0.35838526 4278255360
0.058257394 0.040779229 0.35823134 4278255360
0.058731191 0.040821839 0.35807738 4278255360
0.059204996 0.040864449 0.35792345 4278255360
0.059678793 0.040907059 0.35776949 4278255360
