# .PCD v0.7 - Point Cloud Data file format
VERSION 0.7
FIELDS x y z rgb
SIZE 4 4 4 4
TYPE F F F U
COUNT 1 1 1 1
WIDTH 1063
HEIGHT 1
VIEWPOINT 0 0 0 1 0 0 0
POINTS 1063
DATA ascii
0.061090246 0.018388448 0.38300002 4278732570
0.062334232 0.018388448 0.38300002 4278732570
0.063578218 0.018388448 0.38300002 4278666777
0.064822197 0.018388448 0.38300002 4278666777
0.066066183 0.018388448 0.38300002 4278600986
0.067310169 0.018388448 0.38300002 4278666779
0.068554156 0.018388448 0.38300002 4278535193
0.069980375 0.01843646 0.384 4278666779
0.07122761 0.01843646 0.384 4278666777
0.072474845 0.01843646 0.384 4278535191
0.073722072 0.01843646 0.384 4278798363
0.074969307 0.01843646 0.384 4278666777
0.076216541 0.01843646 0.384 4278797595
0.077463768 0.01843646 0.384 4278797595
0.078711003 0.01843646 0.384 4278797595
0.079958238 0.01843646 0.384 4278929181
0.081205472 0.01843646 0.384 4278797595
0.0824527 0.01843646 0.384 4278863386
0.083699934 0.01843646 0.384 4278862873
0.084947169 0.01843646 0.384 4278928666
0.086194396 0.01843646 0.384 4278994459
0.087441631 0.01843646 0.384 4278928666
0.088688865 0.01843646 0.384 4279257117
0.0899361 0.01843646 0.384 4279125531
0.091183335 0.01843646 0.384 4279059738
0.092430569 0.01843646 0.384 4279059740
0.093677796 0.01843646 0.384 4278731289
0.095172234 0.018484471 0.38500002 4278928668
0.033496205 0.020247983 0.39500001 4279378195
0.034779165 0.020247983 0.39500001 4279639317
0.035970829 0.020196723 0.39400002 4279836696
0.037155997 0.020145461 0.39300001 4279836696
0.03843246 0.020145461 0.39300001 4279442451
0.039506849 0.020042941 0.39100003 4279377428
0.040672526 0.019991679 0.39000002 4279445272
0.041831709 0.019940419 0.38900003 4278921234
0.0429844 0.019889157 0.38800001 4278856978
0.04413059 0.019837897 0.38700002 4278727441
0.045270287 0.019786635 0.38600001 4278794004
0.046403486 0.019735375 0.38500002 4278597906
0.047653969 0.019735375 0.38500002 4278467603
0.04877742 0.019684114 0.384 4278205458
0.050024655 0.019684114 0.384 4278271251
0.051271889 0.019684114 0.384 4278271251
0.052519117 0.019684114 0.384 4278272021
0.053766351 0.019684114 0.384 4278206228
0.055013586 0.019684114 0.384 4278205457
0.05626082 0.019684114 0.384 4278272019
0.057508048 0.019684114 0.384 4278535445
0.058755282 0.019684114 0.384 4278403089
0.059846263 0.019632854 0.38300002 4278337042
0.061090246 0.019632854 0.38300002 4278468628
0.062334232 0.019632854 0.38300002 4278337042
0.063578218 0.019632854 0.38300002 4278468628
0.064822197 0.019632854 0.38300002 4278468628
0.066066183 0.019632854 0.38300002 4278600214
0.067485914 0.019684114 0.384 4278468628
0.068733148 0.019684114 0.384 4278600214
0.069980375 0.019684114 0.384 4278600214
0.07122761 0.019684114 0.384 4278666007
0.072474845 0.019684114 0.384 4278600214
0.073722072 0.019684114 0.384 4278731800
0.074969307 0.019684114 0.384 4278600214
0.076216541 0.019684114 0.384 4278731800
0.077463768 0.019684114 0.384 4278731800
0.078915983 0.019735375 0.38500002 4278666007
0.080166467 0.019735375 0.38500002 4278731800
0.08141695 0.019735375 0.38500002 4278863386
0.082667425 0.019735375 0.38500002 4278666007
0.083917908 0.019735375 0.38500002 4278797080
0.085168391 0.019735375 0.38500002 4278731287
0.086418867 0.019735375 0.38500002 4278204429
0.08766935 0.019735375 0.38500002 4278731287
0.088919833 0.019735375 0.38500002 4278797080
0.090170309 0.019735375 0.38500002 4278862873
0.091420792 0.019735375 0.38500002 4278797080
0.092671275 0.019735375 0.38500002 4278797593
0.093921751 0.019735375 0.38500002 4278797593
0.095419429 0.019786635 0.38600001 4278929179
0.096673153 0.019786635 0.38600001 4278994459
0.097926885 0.019786635 0.38600001 4279126045
0.033496205 0.021531377 0.39500001 4279640852
0.034779165 0.021531377 0.39500001 4279574291
0.035970829 0.021476869 0.39400002 4279902489
0.037155997 0.021422358 0.39300001 4279902743
0.038334671 0.021367848 0.39200002 4279640084
0.039506849 0.021313339 0.39100003 4279377682
0.040672526 0.021258829 0.39000002 4279312914
0.041831709 0.021204319 0.38900003 4279052820
0.042873617 0.0210953 0.38700002 4278922769
0.044016559 0.02104079 0.38600001 4278858513
0.045153007 0.020986279 0.38500002 4278596625
0.046403486 0.020986279 0.38500002 4278729494
0.047530189 0.020931769 0.384 4278532626
0.04877742 0.020931769 0.384 4278401810
0.050024655 0.020931769 0.384 4278204431
0.051271889 0.020931769 0.384 4278270738
0.052519117 0.020931769 0.384 4278270738
0.053766351 0.020931769 0.384 4278204431
0.055013586 0.020931769 0.384 4278270738
0.05626082 0.020931769 0.384 4278204174
0.057508048 0.020931769 0.384 4278204431
0.058755282 0.020931769 0.384 4278204431
0.059846263 0.020877261 0.38300002 4278204174
0.061090246 0.020877261 0.38300002 4278204174
0.062334232 0.020877261 0.38300002 4278203661
0.063578218 0.020877261 0.38300002 4278204431
0.064991444 0.020931769 0.384 4278204174
0.066238679 0.020931769 0.384 4278204429
0.067485914 0.020931769 0.384 4278467601
0.068733148 0.020931769 0.384 4278204429
0.069980375 0.020931769 0.384 4278204429
0.0714131 0.020986279 0.38500002 4278401808
0.072663583 0.020986279 0.38500002 4278204429
0.073914059 0.020986279 0.38500002 4278204429
0.075164542 0.020986279 0.38500002 4278204172
0.076415025 0.020986279 0.38500002 4278467601
0.0776655 0.020986279 0.38500002 4278401808
0.078915983 0.020986279 0.38500002 4278336015
0.080166467 0.020986279 0.38500002 4278467601
0.08141695 0.020986279 0.38500002 4278336017
0.082667425 0.020986279 0.38500002 4278336017
0.084135875 0.02104079 0.38600001 4278467601
0.085389607 0.02104079 0.38600001 4278401808
0.086643331 0.02104079 0.38600001 4278401808
0.087897062 0.02104079 0.38600001 4278204429
0.089150794 0.02104079 0.38600001 4278336015
0.090404518 0.02104079 0.38600001 4278401808
0.091658242 0.02104079 0.38600001 4278204943
0.092911974 0.02104079 0.38600001 4278336529
0.094165698 0.02104079 0.38600001 4278401810
0.095666632 0.0210953 0.38700002 4278467603
0.096923605 0.0210953 0.38700002 4278401810
0.098434277 0.021149809 0.38800001 4278599187
0.033496205 0.022814773 0.39500001 4279574289
0.034779165 0.022814773 0.39500001 4279902743
0.035970829 0.022757014 0.39400002 4279969049
0.037155997 0.022699254 0.39300001 4279969049
0.038334671 0.022641497 0.39200002 4279903256
0.039506849 0.022583738 0.39100003 4279904537
0.04056824 0.02246822 0.38900003 4279444498
0.041724171 0.02241046 0.38800001 4279053074
0.042873617 0.022352701 0.38700002 4278988564
0.044016559 0.022294942 0.38600001 4278792466
0.045153007 0.022237184 0.38500002 4278727441
0.046403486 0.022237184 0.38500002 4278663701
0.047530189 0.022179425 0.384 4278663701
0.04877742 0.022179425 0.384 4278269454
0.050024655 0.022179425 0.384 4278335247
0.051138371 0.022121666 0.38300002 4278466833
0.05238235 0.022121666 0.38300002 4278269454
0.053626336 0.022121666 0.38300002 4278336017
0.054870322 0.022121666 0.38300002 4278204431
0.056114309 0.022121666 0.38300002 4278467603
0.057358291 0.022121666 0.38300002 4278204431
0.058602277 0.022121666 0.38300002 4278204174
0.059846263 0.022121666 0.38300002 4278466833
0.061090246 0.022121666 0.38300002 4278200588
0.062496983 0.022179425 0.384 4278198278
0.063744217 0.022179425 0.384 4278465039
0.064991444 0.022179425 0.384 4278399759
0.066238679 0.022179425 0.384 4278335247
0.067485914 0.022179425 0.384 4278269454
0.068912141 0.022237184 0.38500002 4278532626
0.070162617 0.022237184 0.38500002 4278203661
0.0714131 0.022237184 0.38500002 4278335247
0.072663583 0.022237184 0.38500002 4278335247
0.073914059 0.022237184 0.38500002 4278335247
0.075359777 0.022294942 0.38600001 4278269454
0.076613501 0.022294942 0.38600001 4278335247
0.077867232 0.022294942 0.38600001 4278466833
0.079120956 0.022294942 0.38600001 4278466833
0.080374688 0.022294942 0.38600001 4278466833
0.081628419 0.022294942 0.38600001 4278335249
0.082882144 0.022294942 0.38600001 4278269456
0.084135875 0.022294942 0.38600001 4278466833
0.085610822 0.022352701 0.38700002 4278466831
0.086867794 0.022352701 0.38700002 4278466831
0.088124774 0.022352701 0.38700002 4278466831
0.089381754 0.022352701 0.38700002 4278598417
0.090638727 0.022352701 0.38700002 4278335247
0.091895707 0.022352701 0.38700002 4278532626
0.093393385 0.02241046 0.38800001 4278466833
0.094653606 0.02241046 0.38800001 4278400527
0.095913835 0.02241046 0.38800001 4278532113
0.097424507 0.02246822 0.38900003 4278532113
0.098687984 0.02246822 0.38900003 4278532113
0.10072229 0.022641497 0.39200002 4278597904
0.10225569 0.022699254 0.39300001 4278532111
0.1037956 0.022757014 0.39400002 4278663697
0.10507532 0.022757014 0.39400002 4278532111
0.10662497 0.022814773 0.39500001 4278466831
0.10790792 0.022814773 0.39500001 4278466831
0.10919088 0.022814773 0.39500001 4278466831
0.11047384 0.022814773 0.39500001 4278664210
0.11175681 0.022814773 0.39500001 4278269452
0.11332595 0.022872532 0.39600003 4278598419
0.11461216 0.022872532 0.39600003 4278730005
0.11589836 0.022872532 0.39600003 4278467603
0.11718457 0.022872532 0.39600003 4278796568
0.033496205 0.024098167 0.39500001 4279640080
0.034779165 0.024098167 0.39500001 4279836948
0.035970829 0.02403716 0.39400002 4280232219
0.037155997 0.023976151 0.39300001 4280034840
0.038334671 0.023915144 0.39200002 4279837461
0.039405808 0.023793127 0.39000002 4279641365
0.04056824 0.02373212 0.38900003 4279510293
0.041724171 0.023671111 0.38800001 4278659086
0.042873617 0.023610104 0.38700002 4278923541
0.044016559 0.023549095 0.38600001 4278595601
0.045153007 0.023488088 0.38500002 4278727187
0.046403486 0.023488088 0.38500002 4278992666
0.047530189 0.023427079 0.384 4278466835
0.04877742 0.023427079 0.384 4278598419
0.049894385 0.023366071 0.38300002 4278466833
0.051138371 0.023366071 0.38300002 4278335247
0.05238235 0.023366071 0.38300002 4278269454
0.053626336 0.023366071 0.38300002 4278466833
0.054870322 0.023366071 0.38300002 4278335247
0.056114309 0.023366071 0.38300002 4278335249
0.057358291 0.023366071 0.38300002 4278466835
0.058602277 0.023366071 0.38300002 4278335249
0.059846263 0.023366071 0.38300002 4278203150
0.061249748 0.023427079 0.384 4278198275
0.062496983 0.023427079 0.384 4278331404
0.063744217 0.023427079 0.384 4278727441
0.064991444 0.023427079 0.384 4278465039
0.066238679 0.023427079 0.384 4278595601
0.067661658 0.023488088 0.38500002 4278266636
0.068912141 0.023488088 0.38500002 4278200586
0.070162617 0.023488088 0.38500002 4278727441
0.0714131 0.023488088 0.38500002 4278530062
0.072852321 0.023549095 0.38600001 4278661648
0.074106045 0.023549095 0.38600001 4278464269
0.075359777 0.023549095 0.38600001 4278398476
0.076613501 0.023549095 0.38600001 4278201097
0.077867232 0.023549095 0.38600001 4278727441
0.079325937 0.023610104 0.38700002 4278596625
0.080582917 0.023610104 0.38700002 4278399759
0.081839897 0.023610104 0.38700002 4278465039
0.083096869 0.023610104 0.38700002 4278399246
0.084353849 0.023610104 0.38700002 4278465039
0.085832037 0.023671111 0.38800001 4278465039
0.087092258 0.023671111 0.38800001 4278990613
0.088352486 0.023671111 0.38800001 4278990613
0.089612715 0.023671111 0.38800001 4278859027
0.090872936 0.023671111 0.38800001 4279122199
0.092370622 0.02373212 0.38900003 4278398476
0.093634091 0.02373212 0.38900003 4279056406
0.094897561 0.02373212 0.38900003 4278727441
0.096408233 0.023793127 0.39000002 4279319578
0.097674951 0.023793127 0.39000002 4278859027
0.099195376 0.023854136 0.39100003 4279122199
0.10072229 0.023915144 0.39200002 4278859025
0.10225569 0.023976151 0.39300001 4278924818
0.1037956 0.02403716 0.39400002 4278727441
0.10534201 0.024098167 0.39500001 4279122199
0.10662497 0.024098167 0.39500001 4278200840
0.10790792 0.024098167 0.39500001 4278530062
0.10946732 0.024159176 0.39600003 4279187992
0.11075353 0.024159176 0.39600003 4278728209
0.11203974 0.024159176 0.39600003 4278662931
0.11332595 0.024159176 0.39600003 4278662931
0.11461216 0.024159176 0.39600003 4278465552
0.11589836 0.024159176 0.39600003 4278400529
0.11718457 0.024159176 0.39600003 4278400527
0.033496205 0.025381563 0.39500001 4279507983
0.034779165 0.025381563 0.39500001 4279836950
0.035970829 0.025317308 0.39400002 4280034840
0.037061453 0.025188792 0.39200002 4279640082
0.038236879 0.025124537 0.39100003 4279508496
0.039405808 0.025060279 0.39000002 4279312400
0.04056824 0.024996022 0.38900003 4279445268
0.041724171 0.024931764 0.38800001 4278922771
0.042873617 0.024867509 0.38700002 4278923539
0.044016559 0.024803249 0.38600001 4278595601
0.045153007 0.024738993 0.38500002 4278727441
0.046403486 0.024738993 0.38500002 4278597908
0.047530189 0.024674736 0.384 4278598419
0.04877742 0.024674736 0.384 4278598419
0.049894385 0.024610478 0.38300002 4278532626
0.051138371 0.024610478 0.38300002 4278335247
0.05238235 0.024610478 0.38300002 4278532626
0.053626336 0.024610478 0.38300002 4278532626
0.054870322 0.024610478 0.38300002 4278466833
0.056114309 0.024610478 0.38300002 4278466833
0.057358291 0.024610478 0.38300002 4278532626
0.058602277 0.024610478 0.38300002 4278532626
0.059846263 0.024610478 0.38300002 4278465550
0.061249748 0.024674736 0.384 4278196480
0.062496983 0.024674736 0.384 4278923541
0.063744217 0.024674736 0.384 4278661648
0.064991444 0.024674736 0.384 4278196224
0.066411175 0.024738993 0.38500002 4278326021
0.067661658 0.024738993 0.38500002 4278457093
0.068912141 0.024738993 0.38500002 4278260228
0.070344858 0.024803249 0.38600001 4278326021
0.071598589 0.024803249 0.38600001 4278326021
0.072852321 0.024803249 0.38600001 4278326021
0.074106045 0.024803249 0.38600001 4278325507
0.075555012 0.024867509 0.38700002 4278326021
0.076811984 0.024867509 0.38700002 4278326021
0.078068964 0.024867509 0.38700002 4278391814
0.079325937 0.024867509 0.38700002 4278262790
0.080582917 0.024867509 0.38700002 4278791955
0.082051367 0.024931764 0.38800001 4278660369
0.083311588 0.024931764 0.38800001 4279251736
0.084571816 0.024931764 0.38800001 4278988051
0.08605326 0.024996022 0.38900003 4278988051
0.087316729 0.024996022 0.38900003 4279514395
0.088580206 0.024996022 0.38900003 4279053844
0.089843675 0.024996022 0.38900003 4279382809
0.091341354 0.025060279 0.39000002 4279382809
0.092608072 0.025060279 0.39000002 4278922258
0.093874797 0.025060279 0.39000002 4279382809
0.095141515 0.025060279 0.39000002 4278922258
0.096655443 0.025124537 0.39100003 4279448602
0.097925402 0.025124537 0.39100003 4278922258
0.099449068 0.025188792 0.39200002 4279119637
0.10097923 0.02525305 0.39300001 4278922256
0.10251589 0.025317308 0.39400002 4279251221
0.10405904 0.025381563 0.39500001 4278527500
0.10534201 0.025381563 0.39500001 4279053074
0.10689491 0.025445823 0.39600003 4278593293
0.10818111 0.025445823 0.39600003 4278789902
0.10946732 0.025445823 0.39600003 4279184660
0.11075353 0.025445823 0.39600003 4278193152
0.11203974 0.025445823 0.39600003 4278924820
0.11332595 0.025445823 0.39600003 4278794004
0.11461216 0.025445823 0.39600003 4278728211
0.11589836 0.025445823 0.39600003 4278728211
0.11718457 0.025445823 0.39600003 4278728211
0.033496205 0.026664959 0.39500001 4279836178
0.034691118 0.026597453 0.39400002 4279573776
0.03587953 0.026529947 0.39300001 4279639569
0.037061453 0.026462441 0.39200002 4279573776
0.038236879 0.026394935 0.39100003 4279705362
0.039405808 0.026327427 0.39000002 4279378191
0.04046395 0.026192416 0.38800001 4279379988
0.041616637 0.02612491 0.38700002 4279186713
0.042873617 0.02612491 0.38700002 4279055638
0.044016559 0.026057404 0.38600001 4278596625
0.045153007 0.025989898 0.38500002 4278596625
0.046403486 0.025989898 0.38500002 4278334734
0.047530189 0.02592239 0.384 4278532626
0.04877742 0.02592239 0.384 4278598419
0.049894385 0.025854886 0.38300002 4278335247
0.051138371 0.025854886 0.38300002 4278466833
0.05238235 0.025854886 0.38300002 4278466833
0.053626336 0.025854886 0.38300002 4278269454
0.054870322 0.025854886 0.38300002 4278466833
0.056114309 0.025854886 0.38300002 4278269454
0.057358291 0.025854886 0.38300002 4278269454
0.058602277 0.025854886 0.38300002 4278334734
0.060002517 0.02592239 0.384 4278465037
0.061249748 0.02592239 0.384 4278393865
0.062496983 0.02592239 0.384 4278856465
0.063744217 0.02592239 0.384 4278660369
0.065160699 0.025989898 0.38500002 4278195456
0.066411175 0.025989898 0.38500002 4278457093
0.067661658 0.025989898 0.38500002 4278522119
0.068912141 0.025989898 0.38500002 4278522632
0.070344858 0.026057404 0.38600001 4278522632
0.071598589 0.026057404 0.38600001 4278259460
0.072852321 0.026057404 0.38600001 4278456839
0.074298032 0.02612491 0.38700002 4278522632
0.075555012 0.02612491 0.38700002 4278522632
0.076811984 0.02612491 0.38700002 4278325253
0.078068964 0.02612491 0.38700002 4278654218
0.07953091 0.026192416 0.38800001 4278262792
0.080791138 0.026192416 0.38800001 4278858261
0.082051367 0.026192416 0.38800001 4278858775
0.083526313 0.026259923 0.38900003 4278464017
0.084789783 0.026259923 0.38900003 4278792468
0.08605326 0.026259923 0.38900003 4278989845
0.087541193 0.026327427 0.39000002 4278858513
0.088807911 0.026327427 0.39000002 4278792466
0.090074636 0.026327427 0.39000002 4278990099
0.091341354 0.026327427 0.39000002 4279187478
0.092845537 0.026394935 0.39100003 4279055892
0.094115503 0.026394935 0.39100003 4279055892
0.095385469 0.026394935 0.39100003 4278990613
0.096902639 0.026462441 0.39200002 4278859797
0.098175853 0.026462441 0.39200002 4278794004
0.099702761 0.026529947 0.39300001 4278794004
0.10123618 0.026597453 0.39400002 4278990613
0.10277608 0.026664959 0.39500001 4278859027
0.10405904 0.026664959 0.39500001 4278924820
0.1056087 0.026732467 0.39600003 4278859027
0.10689491 0.026732467 0.39600003 4278727441
0.10818111 0.026732467 0.39600003 4278727441
0.10946732 0.026732467 0.39600003 4278858000
0.11103321 0.026799971 0.39700001 4278196224
0.11232267 0.026799971 0.39700001 4278727441
0.11361212 0.026799971 0.39700001 4279056406
0.11490158 0.026799971 0.39700001 4278728211
0.11589836 0.026732467 0.39600003 4278794004
0.11748049 0.026799971 0.39700001 4278728211
0.033496205 0.027948353 0.39500001 4279641367
0.034691118 0.027877599 0.39400002 4279638801
0.03587953 0.027806843 0.39300001 4279705364
0.036966912 0.027665334 0.39100003 4279705364
0.038139086 0.027594578 0.39000002 4279705362
0.039304767 0.027523823 0.38900003 4279443984
0.04046395 0.027453067 0.38800001 4279183379
0.041616637 0.027382312 0.38700002 4279055640
0.042762831 0.027311556 0.38600001 4278924566
0.044016559 0.027311556 0.38600001 4278662677
0.045153007 0.027240802 0.38500002 4278532115
0.046403486 0.027240802 0.38500002 4278664212
0.047530189 0.027170045 0.384 4278532626
0.04877742 0.027170045 0.384 4278335247
0.050024655 0.027170045 0.384 4278335247
0.051138371 0.027099291 0.38300002 4278532626
0.05238235 0.027099291 0.38300002 4278335247
0.053626336 0.027099291 0.38300002 4278466833
0.054870322 0.027099291 0.38300002 4278532626
0.056114309 0.027099291 0.38300002 4278269454
0.057358291 0.027099291 0.38300002 4278335249
0.058755282 0.027170045 0.384 4278335249
0.060002517 0.027170045 0.384 4278662931
0.061249748 0.027170045 0.384 4278196228
0.062496983 0.027170045 0.384 4279055125
0.063910216 0.027240802 0.38500002 4279054357
0.065160699 0.027240802 0.38500002 4278195716
0.066411175 0.027240802 0.38500002 4279181330
0.067661658 0.027240802 0.38500002 4278720779
0.069091134 0.027311556 0.38600001 4278458377
0.070344858 0.027311556 0.38600001 4279116307
0.071598589 0.027311556 0.38600001 4278655756
0.073041059 0.027382312 0.38700002 4279116307
0.074298032 0.027382312 0.38700002 4278524170
0.075555012 0.027382312 0.38700002 4278524170
0.077010468 0.027453067 0.38800001 4279116305
0.078270689 0.027453067 0.38800001 4278391814
0.07953091 0.027453067 0.38800001 4279119383
0.080999367 0.027523823 0.38900003 4278727189
0.082262844 0.027523823 0.38900003 4278199047
0.083526313 0.027523823 0.38900003 4278196997
0.085007749 0.027594578 0.39000002 4278195716
0.086274475 0.027594578 0.39000002 4279053074
0.087541193 0.027594578 0.39000002 4278396425
0.08903563 0.027665334 0.39100003 4279185941
0.090305597 0.027665334 0.39100003 4278791183
0.091575563 0.027665334 0.39100003 4278198274
0.092845537 0.027665334 0.39100003 4279647262
0.094356209 0.027736088 0.39200002 4278198017
0.095629416 0.027736088 0.39200002 4278200072
0.097149834 0.027806843 0.39300001 4279055638
0.098426297 0.027806843 0.39300001 4278661134
0.09995646 0.027877599 0.39400002 4278266376
0.10149312 0.027948353 0.39500001 4278199298
0.10277608 0.027948353 0.39500001 4278198272
0.10432249 0.028019112 0.39600003 4278857746
0.1056087 0.028019112 0.39600003 4278198531
0.10716484 0.028089866 0.39700001 4278198784
0.10845429 0.028089866 0.39700001 4278924820
0.10974374 0.028089866 0.39700001 4278858000
0.11103321 0.028089866 0.39700001 4278789388
0.11232267 0.028089866 0.39700001 4278924820
0.11389831 0.028160622 0.39800003 4278859027
0.11519101 0.028160622 0.39800003 4278859027
0.11619103 0.028089866 0.39700001 4278859797
0.11748049 0.028089866 0.39700001 4278728211
0.033496205 0.029231749 0.39500001 4284842094
0.03587953 0.02908374 0.39300001 4279507985
0.036966912 0.028935732 0.39100003 4279836950
0.038139086 0.028861728 0.39000002 4279640082
0.039304767 0.028787725 0.38900003 4279510291
0.04046395 0.028713718 0.38800001 4279446805
0.041616637 0.028639715 0.38700002 4279055638
0.042762831 0.028565709 0.38600001 4278793750
0.044016559 0.028565709 0.38600001 4278531091
0.045153007 0.028491706 0.38500002 4278663701
0.046403486 0.028491706 0.38500002 4278598421
0.047653969 0.028491706 0.38500002 4278532626
0.04877742 0.028417701 0.384 4278466833
0.050024655 0.028417701 0.384 4278466833
0.051271889 0.028417701 0.384 4278335247
0.05238235 0.028343696 0.38300002 4278269454
0.053626336 0.028343696 0.38300002 4278335247
0.054870322 0.028343696 0.38300002 4278466833
0.056114309 0.028343696 0.38300002 4278532626
0.057508048 0.028417701 0.384 4278466833
0.058755282 0.028417701 0.384 4278532113
0.060002517 0.028417701 0.384 4278530832
0.061249748 0.028417701 0.384 4278197512
0.062496983 0.028417701 0.384 4278858259
0.063910216 0.028491706 0.38500002 4279053844
0.065160699 0.028491706 0.38500002 4278194176
0.066411175 0.028491706 0.38500002 4278787855
0.067837402 0.028565709 0.38600001 4279249176
0.069091134 0.028565709 0.38600001 4278393865
0.070344858 0.028565709 0.38600001 4278788625
0.071784079 0.028639715 0.38700002 4278194948
0.073041059 0.028639715 0.38700002 4278195718
0.074298032 0.028639715 0.38700002 4278194946
0.075750239 0.028713718 0.38800001 4279577369
0.077010468 0.028713718 0.38800001 4278722828
0.078270689 0.028713718 0.38800001 4278260998
0.07973589 0.028787725 0.38900003 4278988564
0.080999367 0.028787725 0.38900003 4278660880
0.082262844 0.028787725 0.38900003 4278327302
0.083741032 0.028861728 0.39000002 4278654470
0.085007749 0.028861728 0.39000002 4278589193
0.086274475 0.028861728 0.39000002 4278525451
0.087765656 0.028935732 0.39100003 4279185941
0.08903563 0.028935732 0.39100003 4279251988
0.090305597 0.028935732 0.39100003 4278790670
0.091809772 0.029009737 0.39200002 4278856976
0.093082987 0.029009737 0.39200002 4279121685
0.094356209 0.029009737 0.39200002 4278195968
0.095873371 0.02908374 0.39300001 4278462220
0.097149834 0.02908374 0.39300001 4278198535
0.098676749 0.029157747 0.39400002 4278329351
0.09995646 0.029157747 0.39400002 4278922256
0.10149312 0.029231749 0.39500001 4278988562
0.10303628 0.029305754 0.39600003 4279054355
0.10432249 0.029305754 0.39600003 4279118613
0.10587539 0.029379759 0.39700001 4279184406
0.10716484 0.029379759 0.39700001 4278196736
0.10845429 0.029379759 0.39700001 4279055892
0.11002018 0.029453764 0.39800003 4278725390
0.11131289 0.029453764 0.39800003 4279712285
0.1126056 0.029453764 0.39800003 4278465039
0.11389831 0.029453764 0.39800003 4278794004
0.11548043 0.029527768 0.39900002 4278794004
0.11736172 0.029675776 0.40100002 4278794004
0.11896009 0.029749781 0.40200001 4278859797
0.034603067 0.030360637 0.39300001 4284710508
0.035788238 0.030283384 0.39200002 4284907887
0.036872365 0.030128878 0.39000002 4279180816
0.038041294 0.030051624 0.38900003 4279772438
0.039203726 0.029974369 0.38800001 4279248402
0.040359661 0.029897118 0.38700002 4279052820
0.041616637 0.029897118 0.38700002 4279121431
0.042762831 0.029819863 0.38600001 4278858773
0.044016559 0.029819863 0.38600001 4278727957
0.045270287 0.029819863 0.38600001 4278795033
0.046403486 0.02974261 0.38500002 4278664214
0.047653969 0.02974261 0.38500002 4278466835
0.04877742 0.029665355 0.384 4278532628
0.050024655 0.029665355 0.384 4278532628
0.051271889 0.029665355 0.384 4278466835
0.052519117 0.029665355 0.384 4278532628
0.053766351 0.029665355 0.384 4278532628
0.055013586 0.029665355 0.384 4278335249
0.05626082 0.029665355 0.384 4278335249
0.057508048 0.029665355 0.384 4278466835
0.058755282 0.029665355 0.384 4278531345
0.060002517 0.029665355 0.384 4278198023
0.061249748 0.029665355 0.384 4278593041
0.062659733 0.02974261 0.38500002 4278989845
0.063910216 0.02974261 0.38500002 4278197254
0.065160699 0.02974261 0.38500002 4278392584
0.066583671 0.029819863 0.38600001 4278391560
0.067837402 0.029819863 0.38600001 4278523146
0.069091134 0.029819863 0.38600001 4278260744
0.070527099 0.029897118 0.38700002 4278260744
0.071784079 0.029897118 0.38700002 4278391560
0.073041059 0.029897118 0.38700002 4278326021
0.074490011 0.029974369 0.38800001 4278522886
0.075750239 0.029974369 0.38800001 4278260226
0.077010468 0.029974369 0.38800001 4278194946
0.078472421 0.030051624 0.38900003 4278260744
0.07973589 0.030051624 0.38900003 4279120918
0.080999367 0.030051624 0.38900003 4278990099
0.082474314 0.030128878 0.39000002 4278391814
0.083741032 0.030128878 0.39000002 4278720265
0.085225724 0.030206133 0.39100003 4278655754
0.08649569 0.030206133 0.39100003 4279710750
0.087765656 0.030206133 0.39100003 4278330634
0.089263335 0.030283384 0.39200002 4278725390
0.090536557 0.030283384 0.39200002 4279121172
0.091809772 0.030283384 0.39200002 4278331656
0.093082987 0.030283384 0.39200002 4278199818
0.094596907 0.030360637 0.39300001 4279252504
0.095873371 0.030360637 0.39300001 4279055125
0.097397037 0.030437892 0.39400002 4279515678
0.098676749 0.030437892 0.39400002 4279514906
0.10021015 0.030515144 0.39500001 4279251734
0.10149312 0.030515144 0.39500001 4278725390
0.10303628 0.030592399 0.39600003 4279317527
0.10458592 0.030669652 0.39700001 4279054357
0.10587539 0.030669652 0.39700001 4278791185
0.10716484 0.030669652 0.39700001 4278923541
0.10872748 0.030746907 0.39800003 4278792466
0.11002018 0.030746907 0.39800003 4278196736
0.11131289 0.030746907 0.39800003 4278988564
0.11288852 0.030824158 0.39900002 4278794513
0.11418448 0.030824158 0.39900002 4278728720
0.11548043 0.030824158 0.39900002 4278728207
0.11736172 0.030978667 0.40100002 4278859795
0.11896009 0.03105592 0.40200001 4278991894
0.12056496 0.031133173 0.40300003 4278991896
0.03677782 0.031315524 0.38900003 4285631097
0.037943501 0.031235021 0.38800001 4279313684
0.039203726 0.031235021 0.38800001 4279249687
0.040359661 0.031154519 0.38700002 4279054103
0.041616637 0.031154519 0.38700002 4279121431
0.042762831 0.031074015 0.38600001 4278727187
0.044016559 0.031074015 0.38600001 4278793750
0.045270287 0.031074015 0.38600001 4278925849
0.046403486 0.030993514 0.38500002 4278664214
0.047653969 0.030993514 0.38500002 4278598421
0.048904449 0.030993514 0.38500002 4278466835
0.050024655 0.03091301 0.384 4278532628
0.051271889 0.03091301 0.384 4278466835
0.052519117 0.03091301 0.384 4278532628
0.053766351 0.03091301 0.384 4278269456
0.055013586 0.03091301 0.384 4278466835
0.05626082 0.03091301 0.384 4278466835
0.057508048 0.03091301 0.384 4278400529
0.058755282 0.03091301 0.384 4278728211
0.060158778 0.030993514 0.38500002 4278197766
0.061409254 0.030993514 0.38500002 4279317275
0.062659733 0.030993514 0.38500002 4278858773
0.063910216 0.030993514 0.38500002 4278195200
0.065160699 0.030993514 0.38500002 4278523400
0.066583671 0.031074015 0.38600001 4278588939
0.067837402 0.031074015 0.38600001 4278522632
0.069091134 0.031074015 0.38600001 4278587912
0.070527099 0.031154519 0.38700002 4278719498
0.071784079 0.031154519 0.38700002 4278456326
0.073041059 0.031154519 0.38700002 4278719498
0.074490011 0.031235021 0.38800001 4278719498
0.075750239 0.031235021 0.38800001 4278587912
0.077208951 0.031315524 0.38900003 4278522119
0.078472421 0.031315524 0.38900003 4278588939
0.07973589 0.031315524 0.38900003 4278856463
0.081207588 0.031396028 0.39000002 4278922769
0.082474314 0.031396028 0.39000002 4279643930
0.08395575 0.031476531 0.39100003 4279314965
0.085225724 0.031476531 0.39100003 4279578650
0.08649569 0.031476531 0.39100003 4278987281
0.087765656 0.031476531 0.39100003 4278790670
0.089263335 0.031557031 0.39200002 4278593291
0.090536557 0.031557031 0.39200002 4278594058
0.091809772 0.031557031 0.39200002 4279054609
0.093320444 0.031637534 0.39300001 4279251734
0.094596907 0.031637534 0.39300001 4278922769
0.096117325 0.031718038 0.39400002 4279185941
0.097397037 0.031718038 0.39400002 4278660621
0.098927192 0.031798538 0.39500001 4278923793
0.10021015 0.031798538 0.39500001 4278858000
0.10175007 0.031879045 0.39600003 4278726160
0.10303628 0.031879045 0.39600003 4278726160
0.10458592 0.031959545 0.39700001 4278857746
0.10587539 0.031959545 0.39700001 4278923539
0.10743479 0.032040048 0.39800003 4278725390
0.10872748 0.032040048 0.39800003 4278791183
0.11002018 0.032040048 0.39800003 4278194176
0.11159257 0.032120552 0.39900002 4279121172
0.11288852 0.032120552 0.39900002 4278728209
0.11447065 0.032201052 0.40000001 4278728722
0.11576986 0.032201052 0.40000001 4278794517
0.11736172 0.032281555 0.40100002 4278531345
0.11896009 0.032362059 0.40200001 4278991896
0.12026579 0.032362059 0.40200001 4278792468
0.036683276 0.032495674 0.38800001 4284842094
0.037845708 0.032411922 0.38700002 4284381030
0.039102685 0.032411922 0.38700002 4278591505
0.040359661 0.032411922 0.38700002 4279053592
0.041509099 0.03232817 0.38600001 4279055640
0.042762831 0.03232817 0.38600001 4278727187
0.044016559 0.03232817 0.38600001 4278662677
0.045270287 0.03232817 0.38600001 4278795033
0.046524014 0.03232817 0.38600001 4278598421
0.047653969 0.032244418 0.38500002 4278466835
0.048904449 0.032244418 0.38500002 4278664214
0.050154928 0.032244418 0.38500002 4278598421
0.051405411 0.032244418 0.38500002 4278532628
0.052519117 0.032160666 0.384 4278335249
0.053766351 0.032160666 0.384 4278598421
0.055013586 0.032160666 0.384 4278532628
0.05626082 0.032160666 0.384 4278466835
0.057508048 0.032160666 0.384 4278466835
0.058908295 0.032244418 0.38500002 4278201611
0.060158778 0.032244418 0.38500002 4278266636
0.061409254 0.032244418 0.38500002 4278397710
0.062659733 0.032244418 0.38500002 4278858773
0.063910216 0.032244418 0.38500002 4278858773
0.065329939 0.03232817 0.38600001 4279384092
0.066583671 0.03232817 0.38600001 4279448348
0.067837402 0.03232817 0.38600001 4279381785
0.069091134 0.03232817 0.38600001 4279579164
0.070527099 0.032411922 0.38700002 4279644957
0.071784079 0.032411922 0.38700002 4279710750
0.07322979 0.032495674 0.38800001 4279250199
0.074490011 0.032495674 0.38800001 4279448350
0.075750239 0.032495674 0.38800001 4279448350
0.077208951 0.032579426 0.38900003 4279382555
0.078472421 0.032579426 0.38900003 4279514141
0.07994087 0.032663178 0.39000002 4279514908
0.081207588 0.032663178 0.39000002 4279514908
0.082474314 0.032663178 0.39000002 4279382809
0.08395575 0.03274693 0.39100003 4279119637
0.085225724 0.03274693 0.39100003 4279317016
0.08649569 0.03274693 0.39100003 4279317016
0.08799012 0.032830682 0.39200002 4279382807
0.089263335 0.032830682 0.39200002 4279580186
0.090536557 0.032830682 0.39200002 4279580186
0.092043974 0.03291443 0.39300001 4279646492
0.093320444 0.03291443 0.39300001 4279778078
0.094596907 0.03291443 0.39300001 4279514906
0.096117325 0.032998186 0.39400002 4279909664
0.097397037 0.032998186 0.39400002 4279646492
0.098927192 0.033081934 0.39500001 4279909664
0.10021015 0.033081934 0.39500001 4279712285
0.10175007 0.033165686 0.39600003 4279778078
0.10303628 0.033165686 0.39600003 4279843871
0.10458592 0.033249438 0.39700001 4279449115
0.10587539 0.033249438 0.39700001 4279317529
0.10743479 0.03333319 0.39800003 4279712287
0.10872748 0.03333319 0.39800003 4279383322
0.11029661 0.033416942 0.39900002 4279384090
0.11159257 0.033416942 0.39900002 4279187478
0.11317145 0.033500694 0.40000001 4278859797
0.11447065 0.033500694 0.40000001 4278991383
0.11605928 0.033584446 0.40100002 4278926103
0.11736172 0.033584446 0.40100002 4279189275
0.11896009 0.033668198 0.40200001 4279121433
0.12026579 0.033668198 0.40200001 4285237362
0.035240456 0.033582322 0.38600001 4284644975
0.036588732 0.033669323 0.38700002 4284710768
0.037845708 0.033669323 0.38700002 4284776561
0.039102685 0.033669323 0.38700002 4285171319
0.040255371 0.033582322 0.38600001 4278922008
0.041509099 0.033582322 0.38600001 4279253019
0.042762831 0.033582322 0.38600001 4278991131
0.044016559 0.033582322 0.38600001 4279123228
0.045270287 0.033582322 0.38600001 4278992412
0.046524014 0.033582322 0.38600001 4278729753
0.047653969 0.033495322 0.38500002 4278598421
0.048904449 0.033495322 0.38500002 4278598421
0.050154928 0.033495322 0.38500002 4278466835
0.051405411 0.033495322 0.38500002 4278664214
0.052655887 0.033495322 0.38500002 4278532628
0.05390637 0.033495322 0.38500002 4278664214
0.055156853 0.033495322 0.38500002 4278335249
0.056407336 0.033495322 0.38500002 4278730007
0.057657812 0.033495322 0.38500002 4278795800
0.058908295 0.033495322 0.38500002 4278662677
0.060158778 0.033495322 0.38500002 4278727957
0.061409254 0.033495322 0.38500002 4278727187
0.062659733 0.033495322 0.38500002 4279320861
0.063910216 0.033495322 0.38500002 4278992666
0.065329939 0.033582322 0.38600001 4278795287
0.066583671 0.033582322 0.38600001 4278860310
0.067837402 0.033582322 0.38600001 4279057176
0.069270127 0.033669323 0.38700002 4279057176
0.070527099 0.033669323 0.38700002 4279057176
0.071784079 0.033669323 0.38700002 4278925590
0.07322979 0.033756323 0.38800001 4279254555
0.074490011 0.033756323 0.38800001 4278991383
0.075750239 0.033756323 0.38800001 4278926103
0.077208951 0.033843327 0.38900003 4278991383
0.078472421 0.033843327 0.38900003 4278991383
0.07994087 0.033930324 0.39000002 4279057176
0.081207588 0.033930324 0.39000002 4279057176
0.082685791 0.034017328 0.39100003 4278991383
0.08395575 0.034017328 0.39100003 4279057176
0.085225724 0.034017328 0.39100003 4278925590
0.086716905 0.034104329 0.39200002 4279057176
0.08799012 0.034104329 0.39200002 4279187992
0.089263335 0.034104329 0.39200002 4279187992
0.090536557 0.034104329 0.39200002 4278991383
0.092043974 0.034191329 0.39300001 4279057176
0.093320444 0.034191329 0.39300001 4279057174
0.094837613 0.034278329 0.39400002 4278991381
0.096117325 0.034278329 0.39400002 4279057174
0.097397037 0.034278329 0.39400002 4279057174
0.098927192 0.03436533 0.39500001 4279057174
0.10046386 0.03445233 0.39600003 4279188760
0.10175007 0.03445233 0.39600003 4279320346
0.10329647 0.034539331 0.39700001 4279057176
0.10458592 0.034539331 0.39700001 4279188762
0.10614207 0.034626335 0.39800003 4279188762
0.10743479 0.034626335 0.39800003 4279188762
0.10900066 0.034713335 0.39900002 4279188762
0.11029661 0.034713335 0.39900002 4279385371
0.11187225 0.034800332 0.40000001 4279319578
0.11317145 0.034800332 0.40000001 4279188762
0.11447065 0.034800332 0.40000001 4279254555
0.11605928 0.034887336 0.40100002 4279320094
0.11736172 0.034887336 0.40100002 4279647264
0.11896009 0.034974337 0.40200001 4285696888
0.036588732 0.034926727 0.38700002 4284710768
0.037845708 0.034926727 0.38700002 4284776561
0.039001644 0.034836479 0.38600001 4284776561
0.040255371 0.034836479 0.38600001 4285500538
0.041509099 0.034836479 0.38600001 4282803023
0.042762831 0.034836479 0.38600001 4278987799
0.044016559 0.034836479 0.38600001 4279056924
0.045270287 0.034836479 0.38600001 4279254814
0.046524014 0.034836479 0.38600001 4278927132
0.047653969 0.03474623 0.38500002 4279124511
0.048904449 0.03474623 0.38500002 4278927386
0.050154928 0.03474623 0.38500002 4279190558
0.051405411 0.03474623 0.38500002 4278795800
0.052655887 0.03474623 0.38500002 4278993179
0.05390637 0.03474623 0.38500002 4278993179
0.055156853 0.03474623 0.38500002 4279124765
0.056407336 0.03474623 0.38500002 4278993179
0.057657812 0.03474623 0.38500002 4278993179
0.058908295 0.03474623 0.38500002 4278992666
0.060158778 0.03474623 0.38500002 4278861080
0.061409254 0.03474623 0.38500002 4279058459
0.062659733 0.03474623 0.38500002 4278992666
0.063910216 0.03474623 0.38500002 4278992666
0.065329939 0.034836479 0.38600001 4279058459
0.066583671 0.034836479 0.38600001 4279058459
0.067837402 0.034836479 0.38600001 4278992666
0.069270127 0.034926727 0.38700002 4279058459
0.070527099 0.034926727 0.38700002 4278992666
0.071784079 0.034926727 0.38700002 4278992664
0.07322979 0.035016976 0.38800001 4279124250
0.074490011 0.035016976 0.38800001 4278991894
0.075945474 0.035107229 0.38900003 4279255066
0.077208951 0.035107229 0.38900003 4279189273
0.078472421 0.035107229 0.38900003 4278991894
0.07994087 0.035197478 0.39000002 4279123480
0.081207588 0.035197478 0.39000002 4279123480
0.082685791 0.03528773 0.39100003 4279255066
0.08395575 0.03528773 0.39100003 4279189273
0.085225724 0.03528773 0.39100003 4279189273
0.086716905 0.035377979 0.39200002 4279123480
0.08799012 0.035377979 0.39200002 4278991894
0.089263335 0.035377979 0.39200002 4279254553
0.090767518 0.035468228 0.39300001 4279320346
0.092043974 0.035468228 0.39300001 4279188760
0.093320444 0.035468228 0.39300001 4279188760
0.094837613 0.035558477 0.39400002 4279254553
0.096117325 0.035558477 0.39400002 4279254553
0.09764424 0.035648726 0.39500001 4279254553
0.098927192 0.035648726 0.39500001 4279451162
0.10046386 0.035738979 0.39600003 4279385369
0.10175007 0.035738979 0.39600003 4279385369
0.10329647 0.035829227 0.39700001 4279122199
0.10458592 0.035829227 0.39700001 4279385117
0.10614207 0.03591948 0.39800003 4279450396
0.10743479 0.03591948 0.39800003 4279120918
0.10900066 0.036009729 0.39900002 4279318297
0.11029661 0.036009729 0.39900002 4279777565
0.11187225 0.036099978 0.40000001 4279843360
0.11317145 0.036099978 0.40000001 4280961587
0.11475683 0.036190227 0.40100002 4282737998
0.11605928 0.036190227 0.40100002 4285696888
0.11736172 0.036190227 0.40100002 4285828476
0.11896009 0.036280476 0.40200001 4285630327
0.037747912 0.036090631 0.38600001 4284842354
0.039001644 0.036090631 0.38600001 4284710768
0.040255371 0.036090631 0.38600001 4284973940
0.041509099 0.036090631 0.38600001 4284645229
0.042762831 0.036090631 0.38600001 4285566331
0.044016559 0.036090631 0.38600001 4284054373
0.045270287 0.036090631 0.38600001 4280239149
0.046524014 0.036090631 0.38600001 4279054873
0.047777742 0.036090631 0.38600001 4279253019
0.048904449 0.035997134 0.38500002 4278991131
0.050154928 0.035997134 0.38500002 4279189023
0.051405411 0.035997134 0.38500002 4279254814
0.052655887 0.035997134 0.38500002 4279254814
0.05390637 0.035997134 0.38500002 4279254814
0.055156853 0.035997134 0.38500002 4278925849
0.056407336 0.035997134 0.38500002 4279123228
0.057657812 0.035997134 0.38500002 4279189023
0.058908295 0.035997134 0.38500002 4279254816
0.060158778 0.035997134 0.38500002 4279320607
0.061409254 0.035997134 0.38500002 4279254301
0.062659733 0.035997134 0.38500002 4279385887
0.063910216 0.035997134 0.38500002 4279056922
0.065329939 0.036090631 0.38600001 4279188508
0.066583671 0.036090631 0.38600001 4279189021
0.067837402 0.036090631 0.38600001 4279189021
0.069270127 0.036184132 0.38700002 4279189021
0.070527099 0.036184132 0.38700002 4279254814
0.071784079 0.036184132 0.38700002 4279121945
0.07322979 0.036277629 0.38800001 4279451164
0.074490011 0.036277629 0.38800001 4279254301
0.075945474 0.03637113 0.38900003 4279385887
0.077208951 0.03637113 0.38900003 4279188508
0.078472421 0.03637113 0.38900003 4279254301
0.07994087 0.036464628 0.39000002 4279320094
0.081207588 0.036464628 0.39000002 4279319324
0.082685791 0.036558129 0.39100003 4279516703
0.08395575 0.036558129 0.39100003 4279056152
0.085225724 0.036558129 0.39100003 4279319324
0.086716905 0.036651626 0.39200002 4279121947
0.08799012 0.036651626 0.39200002 4279516189
0.089263335 0.036651626 0.39200002 4279384090
0.090767518 0.036745124 0.39300001 4279186195
0.092043974 0.036745124 0.39300001 4279317268
0.093320444 0.036745124 0.39300001 4279712026
0.094837613 0.036838625 0.39400002 4280238118
0.096117325 0.036838625 0.39400002 4280830003
0.09764424 0.036932122 0.39500001 4282343242
0.098927192 0.036932122 0.39500001 4283461721
0.10046386 0.037025623 0.39600003 4284645479
0.10175007 0.037025623 0.39600003 4285040237
0.10329647 0.03711912 0.39700001 4285763706
0.10458592 0.03711912 0.39700001 4285106548
0.10614207 0.037212621 0.39800003 4285896066
0.10743479 0.037212621 0.39800003 4285500538
0.10900066 0.037306119 0.39900002 4285237366
0.11029661 0.037306119 0.39900002 4285828987
0.11187225 0.037399616 0.40000001 4285434229
0.11345438 0.037493117 0.40100002 4285433714
0.11475683 0.037493117 0.40100002 4285631093
0.11605928 0.037493117 0.40100002 4285631095
0.11736172 0.037493117 0.40100002 4285499509
0.07172846 0.026469398 0.38871852 4294967295
0.07172846 0.026469398 0.38871852 4294901760
0.07172846 0.026469398 0.38921851 4294901760
0.07172846 0.026469398 0.3897185 4294901760
0.07172846 0.026469398 0.39021853 4294901760
0.07172846 0.026469398 0.39071852 4294901760
0.07172846 0.026469398 0.39121851 4294901760
0.07172846 0.026469398 0.39171851 4294901760
0.07172846 0.026469398 0.39221853 4294901760
0.07172846 0.026469398 0.39271852 4294901760
0.07172846 0.026469398 0.39321852 4294901760
0.07172846 0.026469398 0.39371851 4294901760
0.07172846 0.026469398 0.3942185 4294901760
0.07172846 0.026469398 0.39471853 4294901760
0.07172846 0.026469398 0.39521852 4294901760
0.07172846 0.026469398 0.39571851 4294901760
0.07172846 0.026469398 0.39621851 4294901760
0.07172846 0.026469398 0.3967185 4294901760
0.07172846 0.026469398 0.39721853 4294901760
0.07172846 0.026469398 0.39771852 4294901760
0.07172846 0.026469398 0.39821851 4294901760
0.07172846 0.026469398 0.39871851 4294901760
0.07172846 0.026469398 0.39921853 4294901760
0.07172846 0.026469398 0.39971852 4294901760
0.07172846 0.026469398 0.40021852 4294901760
0.07172846 0.026469398 0.40071851 4294901760
0.07172846 0.026469398 0.40121853 4294901760
0.07172846 0.026469398 0.40171853 4294901760
0.07172846 0.026469398 0.40221852 4294901760
0.07172846 0.026469398 0.40271851 4294901760
0.07172846 0.026469398 0.40321851 4294901760
0.07172846 0.026469398 0.40371853 4294901760
0.07172846 0.026469398 0.40421852 4294901760
0.07172846 0.026469398 0.40471852 4294901760
0.07172846 0.026469398 0.40521851 4294901760
0.07172846 0.026469398 0.40571851 4294901760
0.07172846 0.026469398 0.40621853 4294901760
0.07172846 0.026469398 0.40671852 4294901760
0.07172846 0.026469398 0.40721852 4294901760
0.07172846 0.026469398 0.40771851 4294901760
0.07172846 0.026469398 0.40821853 4294901760
0.07172846 0.026469398 0.40871853 4294901760
0.07172846 0.026469398 0.40921852 4294901760
0.07172846 0.026469398 0.40971851 4294901760
0.07172846 0.026469398 0.41021854 4294901760
0.07172846 0.026469398 0.41071853 4294901760
0.07172846 0.026469398 0.41121852 4294901760
0.07172846 0.026469398 0.41171852 4294901760
0.07172846 0.026469398 0.41221851 4294901760
0.07172846 0.026469398 0.41271853 4294901760
0.07172846 0.026469398 0.41321853 4294901760
0.07172846 0.026469398 0.41371852 4294901760
0.07172846 0.026469398 0.41421852 4294901760
0.07172846 0.026469398 0.41471851 4294901760
0.07172846 0.026469398 0.41521853 4294901760
0.07172846 0.026469398 0.41571853 4294901760
0.07172846 0.026469398 0.41621852 4294901760
0.07172846 0.026469398 0.41671851 4294901760
0.07172846 0.026469398 0.41721851 4294901760
0.07172846 0.026469398 0.41771853 4294901760
0.07172846 0.026469398 0.41821852 4294901760
0.07172846 0.026469398 0.41871852 4294901760
0.07172846 0.026469398 0.41921851 4294901760
0.07172846 0.026469398 0.41971853 4294901760
0.07172846 0.026469398 0.42021853 4294901760
0.07172846 0.026469398 0.42071852 4294901760
0.07172846 0.026469398 0.42121851 4294901760
0.07172846 0.026469398 0.42171854 4294901760
0.07172846 0.026469398 0.42221853 4294901760
0.07172846 0.026469398 0.42271852 4294901760
0.07172846 0.026469398 0.42321852 4294901760
0.07172846 0.026469398 0.42371851 4294901760
0.07172846 0.026469398 0.42421854 4294901760
0.07172846 0.026469398 0.42471853 4294901760
0.07172846 0.026469398 0.42521852 4294901760
0.07172846 0.026469398 0.42571852 4294901760
0.07172846 0.026469398 0.42621851 4294901760
0.07172846 0.026469398 0.42671853 4294901760
0.07172846 0.026469398 0.42721853 4294901760
0.07172846 0.026469398 0.42771852 4294901760
0.07172846 0.026469398 0.42821851 4294901760
0.07172846 0.026469398 0.42871854 4294901760
0.07172846 0.026469398 0.42921853 4294901760
0.07172846 0.026469398 0.42971852 4294901760
0.07172846 0.026469398 0.43021852 4294901760
0.07172846 0.026469398 0.43071851 4294901760
0.07172846 0.026469398 0.43121853 4294901760
0.07172846 0.026469398 0.43171853 4294901760
0.07172846 0.026469398 0.43221852 4294901760
0.07172846 0.026469398 0.43271852 4294901760
0.07172846 0.026469398 0.43321854 4294901760
0.07172846 0.026469398 0.43371853 4294901760
0.07172846 0.026469398 0.43421853 4294901760
0.07172846 0.026469398 0.43471852 4294901760
0.07172846 0.026469398 0.43521851 4294901760
0.07172846 0.026469398 0.43571854 4294901760
0.07172846 0.026469398 0.43621853 4294901760
0.07172846 0.026469398 0.43671852 4294901760
0.07172846 0.026469398 0.43721852 4294901760
0.07172846 0.026469398 0.43771854 4294901760
0.07172846 0.026469398 0.43821853 4294901760
0.07172846 0.026469398 0.43871853 4294901760
0.07172846 0.026469398 0.38871852 4278255360
0.071615733 0.026306842 0.38917771 4278255360
0.071503006 0.026144287 0.38963693 4278255360
0.071390286 0.02598173 0.39009613 4278255360
0.071277559 0.025819175 0.39055532 4278255360
0.071164832 0.025656618 0.39101455 4278255360
0.071052104 0.025494063 0.39147374 4278255360
0.070939377 0.025331507 0.39193293 4278255360
0.070826657 0.02516895 0.39239216 4278255360
0.07071393 0.025006395 0.39285135 4278255360
0.070601203 0.024843838 0.39331055 4278255360
0.070488475 0.024681283 0.39376977 4278255360
0.070375748 0.024518726 0.39422897 4278255360
0.070263028 0.024356171 0.39468816 4278255360
0.070150301 0.024193615 0.39514738 4278255360
0.070037574 0.024031058 0.39560658 4278255360
0.069924846 0.023868503 0.39606577 4278255360
0.069812119 0.023705946 0.396525 4278255360
0.069699399 0.023543391 0.39698419 4278255360
0.069586672 0.023380835 0.39744338 4278255360
0.069473945 0.02321828 0.39790261 4278255360
0.069361217 0.023055723 0.3983618 4278255360
0.06924849 0.022893168 0.398821 4278255360
0.06913577 0.022730611 0.39928022 4278255360
0.069023043 0.022568054 0.39973941 4278255360
0.068910316 0.0224055 0.40019861 4278255360
0.068797588 0.022242943 0.40065783 4278255360
0.068684861 0.022080388 0.40111703 4278255360
0.068572141 0.021917831 0.40157622 4278255360
0.068459414 0.021755274 0.40203544 4278255360
0.068346687 0.021592719 0.40249464 4278255360
0.068233959 0.021430163 0.40295383 4278255360
0.068121232 0.021267608 0.40341306 4278255360
0.068008512 0.021105051 0.40387225 4278255360
0.067895785 0.020942494 0.40433145 4278255360
0.067783058 0.020779939 0.40479067 4278255360
0.06767033 0.020617383 0.40524986 4278255360
0.067557603 0.020454828 0.40570906 4278255360
0.067444883 0.020292271 0.40616828 4278255360
0.067332156 0.020129716 0.40662748 4278255360
0.067219429 0.019967159 0.40708667 4278255360
0.067106701 0.019804604 0.40754586 4278255360
0.066993974 0.019642048 0.40800509 4278255360
0.066881254 0.019479491 0.40846428 4278255360
0.066768527 0.019316936 0.40892351 4278255360
0.0666558 0.019154381 0.4093827 4278255360
0.066543072 0.018991824 0.4098419 4278255360
0.066430345 0.018829267 0.41030109 4278255360
0.066317625 0.018666713 0.41076031 4278255360
0.066204898 0.018504156 0.41121951 4278255360
