# .PCD v0.7 - Point Cloud Data file format
VERSION 0.7
FIELDS x y z rgb
SIZE 4 4 4 4
TYPE F F F U
COUNT 1 1 1 1
WIDTH 1049
HEIGHT 1
VIEWPOINT 0 0 0 1 0 0 0
POINTS 1049
DATA ascii
0.060891286 -0.004843629 0.35300002 4281550907
0.045220733 -0.0037281124 0.35600001 4282207290
0.046377026 -0.0037281124 0.35600001 4282141497
0.047533315 -0.0037281124 0.35600001 4281747253
0.051002178 -0.0037281124 0.35600001 4281878843
0.052158471 -0.0037281124 0.35600001 4282010427
0.053314753 -0.0037281124 0.35600001 4282405185
0.054471046 -0.0037281124 0.35600001 4282734150
0.055627335 -0.0037281124 0.35600001 4282734150
0.056624118 -0.0037176404 0.35500002 4282274369
0.057614405 -0.0037071679 0.354 4282274369
0.058764197 -0.0037071679 0.354 4282603336
0.059744742 -0.0036966959 0.35300002 4282669129
0.060891286 -0.0036966959 0.35300002 4281483831
0.044064447 -0.0025714322 0.35600001 4282011460
0.052304983 -0.0025786555 0.35700002 4282536771
0.053464517 -0.0025786555 0.35700002 4282076220
0.054471046 -0.0025714322 0.35600001 4281549876
0.055627335 -0.0025714322 0.35600001 4281813048
0.056624118 -0.0025642093 0.35500002 4281419062
0.057777159 -0.0025642093 0.35500002 4282274369
0.058764197 -0.0025569859 0.354 4282274369
0.059913989 -0.0025569859 0.354 4282339392
0.060891286 -0.0025497628 0.35300002 4282141499
0.062037833 -0.0025497628 0.35300002 4281483571
0.065477468 -0.0025497628 0.35300002 4281090875
0.041751873 -0.001414752 0.35600001 4282143046
0.042908158 -0.001414752 0.35600001 4283525469
0.044064447 -0.001414752 0.35600001 4282012230
0.045220733 -0.001414752 0.35600001 4282339910
0.046377026 -0.001414752 0.35600001 4281616187
0.047533315 -0.001414752 0.35600001 4281156919
0.052304983 -0.0014187261 0.35700002 4282471750
0.053464517 -0.0014187261 0.35700002 4281615671
0.054624055 -0.0014187261 0.35700002 4281484085
0.055783596 -0.0014187261 0.35700002 4281549878
0.05678362 -0.001414752 0.35600001 4281747257
0.057939909 -0.001414752 0.35600001 4281747255
0.058930203 -0.001410778 0.35500002 4282340160
0.059913989 -0.001406804 0.354 4281748023
0.061063781 -0.001406804 0.354 4281680946
0.039439294 -0.00025807158 0.35600001 4282012228
0.052304983 -0.00025879653 0.35700002 4281813050
0.053464517 -0.00025879653 0.35700002 4281549878
0.054624055 -0.00025879653 0.35700002 4281484085
0.055783596 -0.00025879653 0.35700002 4281615671
0.056943126 -0.00025879653 0.35700002 4281878843
0.057939909 -0.00025807158 0.35600001 4281813048
0.059096199 -0.00025807158 0.35600001 4281747253
0.06008324 -0.00025734669 0.35500002 4281878839
0.063363373 -0.00025662174 0.354 4281549362
0.038283002 0.00089860882 0.35600001 4282208837
0.041634593 0.00089608465 0.35500002 4282011977
0.043940671 0.00089608465 0.35500002 4281549110
0.045093711 0.00089608465 0.35500002 4281944636
0.046377026 0.00089860882 0.35600001 4282340675
0.047533315 0.00089860882 0.35600001 4282406468
0.0486896 0.00089860882 0.35600001 4282340675
0.049845889 0.00089860882 0.35600001 4282603849
0.051145446 0.000901133 0.35700002 4281419321
0.053464517 0.000901133 0.35700002 4281813050
0.054777063 0.00090365717 0.35800001 4282076222
0.055783596 0.000901133 0.35700002 4282010429
0.056943126 0.000901133 0.35700002 4281813820
0.058102667 0.000901133 0.35700002 4281748027
0.043940671 0.002049516 0.35500002 4282405452
0.045093711 0.002049516 0.35500002 4282274632
0.046246752 0.002049516 0.35500002 4282341708
0.047399797 0.002049516 0.35500002 4282012741
0.0486896 0.0020552892 0.35600001 4281946435
0.049845889 0.0020552892 0.35600001 4282275654
0.051002178 0.0020552892 0.35600001 4282144068
0.052304983 0.0020610625 0.35700002 4281287476
0.053464517 0.0020610625 0.35700002 4282470980
0.054777063 0.0020668358 0.35800001 4282536773
0.055939849 0.0020668358 0.35800001 4282207808
0.057102628 0.0020668358 0.35800001 4282142785
0.058265414 0.0020668358 0.35800001 4281616441
0.046246752 0.0032029471 0.35500002 4282275402
0.047399797 0.0032029471 0.35500002 4282143816
0.048552833 0.0032029471 0.35500002 4282603597
0.049845889 0.0032119695 0.35600001 4282274630
0.051002178 0.0032119695 0.35600001 4281420091
0.052158471 0.0032119695 0.35600001 4281749056
0.055939849 0.0032300141 0.35800001 4283525469
0.057102628 0.0032300141 0.35800001 4281617470
0.067962535 0.0031939247 0.354 4279644957
0.069112331 0.0031939247 0.354 4279054105
0.043816894 0.0043441067 0.354 4282275400
0.044966683 0.0043441067 0.354 4281484601
0.046116479 0.0043441067 0.354 4282734668
0.049705874 0.0043563787 0.35500002 4282735181
0.053464517 0.0043809214 0.35700002 4285302140
0.054777063 0.0043931929 0.35800001 4284710770
0.055939849 0.0043931929 0.35800001 4284841842
0.057102628 0.0043931929 0.35800001 4284842356
0.058428172 0.0044054645 0.35900003 4285236087
0.06566295 0.0043441067 0.354 4281878325
0.067962535 0.0043441067 0.354 4279578650
0.037126716 0.0055253301 0.35600001 4282538054
0.040481549 0.0055098101 0.35500002 4282211406
0.04151731 0.0054942891 0.354 4281815876
0.042667102 0.0054942891 0.354 4282537802
0.043816894 0.0054942891 0.354 4282076992
0.044966683 0.0054942891 0.354 4282470976
0.046116479 0.0054942891 0.354 4282733888
0.047266271 0.0054942891 0.354 4282536509
0.048552833 0.0055098101 0.35500002 4282273597
0.049705874 0.0055098101 0.35500002 4282867019
0.052158471 0.0055253301 0.35600001 4281353015
0.053464517 0.005540851 0.35700002 4284973175
0.054777063 0.0055563715 0.35800001 4284973689
0.055939849 0.0055563715 0.35800001 4284710517
0.057102628 0.0055563715 0.35800001 4284710770
0.058428172 0.0055718925 0.35900003 4284710770
0.059594207 0.0055718925 0.35900003 4283656285
0.067770556 0.0054787686 0.35300002 4279382039
0.068917103 0.0054787686 0.35300002 4278924568
0.070063643 0.0054787686 0.35300002 4279187488
0.038175467 0.0066632414 0.35500002 4282471748
0.039328512 0.0066632414 0.35500002 4282800715
0.040367514 0.0066444711 0.354 4282669129
0.053464517 0.0067007807 0.35700002 4284512364
0.054777063 0.0067195501 0.35800001 4285039735
0.055939849 0.0067195501 0.35800001 4285105528
0.057102628 0.0067195501 0.35800001 4285105014
0.058428172 0.00673832 0.35900003 4284973428
0.059594207 0.00673832 0.35900003 4285959808
0.060760234 0.00673832 0.35900003 4279773213
0.066624016 0.0066257017 0.35300002 4281682230
0.067770556 0.0066257017 0.35300002 4278988049
0.068917103 0.0066257017 0.35300002 4278858773
0.069865167 0.0066069323 0.35200003 4278925336
0.049565855 0.0077946531 0.354 4283260746
0.050858919 0.0078166723 0.35500002 4282998857
0.052158471 0.0078386907 0.35600001 4282801224
0.053464517 0.0078607099 0.35700002 4285366901
0.054777063 0.0078827282 0.35800001 4285433464
0.055939849 0.0078827282 0.35800001 4285236598
0.057102628 0.0078827282 0.35800001 4285170805
0.058428172 0.0079047475 0.35900003 4285105012
0.059594207 0.0079047475 0.35900003 4284973426
0.060929481 0.0079267658 0.36000001 4283590744
0.067578569 0.0077506159 0.35200003 4279383574
0.068721868 0.0077506159 0.35200003 4278726927
0.069865167 0.0077506159 0.35200003 4278661394
0.070806727 0.0077285971 0.35100001 4278989593
0.049565855 0.0089448346 0.354 4282800965
0.050858919 0.0089701032 0.35500002 4282604869
0.052158471 0.0089953709 0.35600001 4285630327
0.053464517 0.0090206396 0.35700002 4285630327
0.054777063 0.0090459064 0.35800001 4285498741
0.055939849 0.0090459064 0.35800001 4285498228
0.057102628 0.0090459064 0.35800001 4285629814
0.060929481 0.0090964427 0.36000001 4283130709
0.061581276 0.0090206396 0.35700002 4279575572
0.067578569 0.0088943001 0.35200003 4279119637
0.068721868 0.0088943001 0.35200003 4278792466
0.069865167 0.0088943001 0.35200003 4278596625
0.070806727 0.0088690314 0.35100001 4278793750
0.13655235 0.009071175 0.35900003 4286418810
0.13733476 0.0090459064 0.35800001 4286089843
0.13849755 0.0090459064 0.35800001 4285760878
0.13966034 0.0090459064 0.35800001 4285168741
0.14082313 0.0090459064 0.35800001 4285103718
0.14198591 0.0090459064 0.35800001 4284972132
0.14274883 0.0090206396 0.35700002 4284905569
0.055939849 0.010209085 0.35800001 4284971884
0.061581276 0.010180569 0.35700002 4282470978
0.066435277 0.010037985 0.35200003 4279511576
0.067578569 0.010037985 0.35200003 4279382809
0.068721868 0.010037985 0.35200003 4278858261
0.069666684 0.010009467 0.35100001 4278465298
0.070806727 0.010009467 0.35100001 4278465298
0.071946777 0.010009467 0.35100001 4279187226
0.13063879 0.010323154 0.36200002 4280104994
0.13145046 0.010294638 0.36100003 4280302627
0.13262299 0.010294638 0.36100003 4280039453
0.13379551 0.010294638 0.36100003 4280104733
0.13459417 0.01026612 0.36000001 4280170528
0.13576345 0.01026612 0.36000001 4280302114
0.13655235 0.010237603 0.35900003 4280236321
0.13771839 0.010237603 0.35900003 4280302112
0.13849755 0.010209085 0.35800001 4280302112
0.13966034 0.010209085 0.35800001 4280105246
0.14082313 0.010209085 0.35800001 4280105760
0.14198591 0.010209085 0.35800001 4279645463
0.14314869 0.010209085 0.35800001 4280368157
0.14431147 0.010209085 0.35800001 4279841813
0.14547426 0.010209085 0.35800001 4280302112
0.061581276 0.011340499 0.35700002 4284971882
0.066435277 0.011181668 0.35200003 4279314965
0.067578569 0.011181668 0.35200003 4279318812
0.068526633 0.011149902 0.35100001 4278595603
0.069666684 0.011149902 0.35100001 4279123228
0.070806727 0.011149902 0.35100001 4278399505
0.071946777 0.011149902 0.35100001 4278991129
0.073086828 0.011149902 0.35100001 4280042283
0.089733817 0.011531095 0.36300001 4281091904
0.090912841 0.011531095 0.36300001 4283064400
0.092091866 0.011531095 0.36300001 4284840807
0.093527839 0.011562862 0.36400002 4285301358
0.094710112 0.011562862 0.36400002 4285103979
0.095892385 0.011562862 0.36400002 4285038956
0.097074665 0.011562862 0.36400002 4284775786
0.098256938 0.011562862 0.36400002 4283854682
0.099439196 0.011562862 0.36400002 4282999627
0.10062148 0.011562862 0.36400002 4282275132
0.10180375 0.011562862 0.36400002 4281617202
0.10298602 0.011562862 0.36400002 4280762411
0.10388211 0.011531095 0.36300001 4280104994
0.10506114 0.011531095 0.36300001 4279579164
0.11144136 0.011340499 0.35700002 4280039455
0.11291629 0.011372264 0.35800001 4279776283
0.11407907 0.011372264 0.35800001 4279973662
0.11524186 0.011372264 0.35800001 4279842076
0.11640465 0.011372264 0.35800001 4279973660
0.11756743 0.011372264 0.35800001 4279973660
0.11873022 0.011372264 0.35800001 4279842074
0.11989299 0.011372264 0.35800001 4279711002
0.12105578 0.011372264 0.35800001 4279579418
0.12828726 0.011499329 0.36200002 4279449115
0.12946302 0.011499329 0.36200002 4279383322
0.13063879 0.011499329 0.36200002 4279251734
0.13181458 0.011499329 0.36200002 4279580186
0.13262299 0.011467564 0.36100003 4279383574
0.13379551 0.011467564 0.36100003 4279383574
0.13496804 0.011467564 0.36100003 4279251988
0.13576345 0.011435797 0.36000001 4279317527
0.13693272 0.011435797 0.36000001 4279382807
0.13771839 0.011404031 0.35900003 4279317014
0.13888443 0.011404031 0.35900003 4278988049
0.13966034 0.011372264 0.35800001 4279251221
0.14082313 0.011372264 0.35800001 4279251734
0.14198591 0.011372264 0.35800001 4279251988
0.14314869 0.011372264 0.35800001 4279317781
0.14431147 0.011372264 0.35800001 4279186193
0.14547426 0.011372264 0.35800001 4279515158
0.14663705 0.011372264 0.35800001 4279843612
0.065477468 0.012360367 0.35300002 4279380760
0.066435277 0.012325352 0.35200003 4279250199
0.067578569 0.012325352 0.35200003 4279187740
0.068721868 0.012325352 0.35200003 4278727959
0.069666684 0.012290337 0.35100001 4278662677
0.070806727 0.012290337 0.35100001 4278663447
0.071946777 0.012290337 0.35100001 4278399505
0.073086828 0.012290337 0.35100001 4279056922
0.074226879 0.012290337 0.35100001 4279779109
0.087375768 0.012710519 0.36300001 4280171821
0.088554792 0.012710519 0.36300001 4279448098
0.089733817 0.012710519 0.36300001 4279777063
0.090912841 0.012710519 0.36300001 4279250973
0.092091866 0.012710519 0.36300001 4279712033
0.093527839 0.012745535 0.36400002 4279317529
0.094710112 0.012745535 0.36400002 4279778080
0.095892385 0.012745535 0.36400002 4279711520
0.097074665 0.012745535 0.36400002 4279843108
0.098256938 0.012745535 0.36400002 4278922517
0.099439196 0.012745535 0.36400002 4279514654
0.10062148 0.012745535 0.36400002 4279448602
0.10180375 0.012745535 0.36400002 4279448602
0.10298602 0.012745535 0.36400002 4279449115
0.10388211 0.012710519 0.36300001 4279383322
0.10506114 0.012710519 0.36300001 4279120920
0.1099729 0.012465413 0.35600001 4279054355
0.11144136 0.012500429 0.35700002 4279054355
0.11291629 0.012535443 0.35800001 4279054355
0.11407907 0.012535443 0.35800001 4278922769
0.11524186 0.012535443 0.35800001 4278857746
0.11640465 0.012535443 0.35800001 4278857746
0.11756743 0.012535443 0.35800001 4279055379
0.11873022 0.012535443 0.35800001 4279055379
0.11989299 0.012535443 0.35800001 4278923793
0.12105578 0.012535443 0.35800001 4279055379
0.12828726 0.012675504 0.36200002 4278595087
0.12946302 0.012675504 0.36200002 4278661394
0.13063879 0.012675504 0.36200002 4278792720
0.13181458 0.012675504 0.36200002 4278463240
0.13299036 0.012675504 0.36200002 4278726412
0.13416614 0.012675504 0.36200002 4278923791
0.13496804 0.012640489 0.36100003 4278792205
0.13614057 0.012640489 0.36100003 4278923791
0.13693272 0.012605473 0.36000001 4279054607
0.13810199 0.012605473 0.36000001 4279186193
0.13888443 0.012570458 0.35900003 4279055379
0.14005046 0.012570458 0.35900003 4278858000
0.14121649 0.012570458 0.35900003 4278923539
0.14198591 0.012535443 0.35800001 4279055379
0.14314869 0.012535443 0.35800001 4278990097
0.14431147 0.012535443 0.35800001 4279187476
0.14547426 0.012535443 0.35800001 4279319062
0.14663705 0.012535443 0.35800001 4279252756
0.06274081 0.013660357 0.35700002 4280891944
0.064330921 0.0135073 0.35300002 4279511574
0.065477468 0.0135073 0.35300002 4279118613
0.066624016 0.0135073 0.35300002 4279054103
0.067578569 0.013469037 0.35200003 4279186713
0.068721868 0.013469037 0.35200003 4279055638
0.069865167 0.013469037 0.35200003 4278727957
0.070806727 0.013430771 0.35100001 4278860056
0.071946777 0.013430771 0.35100001 4278729240
0.073086828 0.013430771 0.35100001 4278663447
0.074226879 0.013430771 0.35100001 4278727957
0.075581647 0.013469037 0.35200003 4278925338
0.076724946 0.013469037 0.35200003 4279450398
0.077868246 0.013469037 0.35200003 4279252252
0.084549308 0.013813416 0.36100003 4279317275
0.085959293 0.013851679 0.36200002 4279317275
0.087135069 0.013851679 0.36200002 4279383068
0.088554792 0.013889942 0.36300001 4279120666
0.089733817 0.013889942 0.36300001 4279186459
0.090912841 0.013889942 0.36300001 4279055386
0.092091866 0.013889942 0.36300001 4279121433
0.09327089 0.013889942 0.36300001 4279055640
0.094710112 0.013928208 0.36400002 4278989847
0.095892385 0.013928208 0.36400002 4278858261
0.097074665 0.013928208 0.36400002 4278989847
0.098256938 0.013928208 0.36400002 4278858261
0.099439196 0.013928208 0.36400002 4278792468
0.10062148 0.013928208 0.36400002 4278792468
0.10180375 0.013928208 0.36400002 4278989847
0.10270309 0.013889942 0.36300001 4278792468
0.10388211 0.013889942 0.36300001 4279121433
0.10506114 0.013889942 0.36300001 4278792466
0.10705549 0.013545563 0.354 4278858259
0.11175352 0.013698622 0.35800001 4278661394
0.11291629 0.013698622 0.35800001 4279187738
0.11407907 0.013698622 0.35800001 4278727187
0.11556377 0.013736886 0.35900003 4278464015
0.1167298 0.013736886 0.35900003 4278661394
0.11789584 0.013736886 0.35900003 4279319578
0.11906187 0.013736886 0.35900003 4279056406
0.1202279 0.013736886 0.35900003 4278990613
0.12105578 0.013698622 0.35800001 4278924820
0.12828726 0.013851679 0.36200002 4279516957
0.12982064 0.013889942 0.36300001 4278991383
0.13099967 0.013889942 0.36300001 4279122197
0.13217871 0.013889942 0.36300001 4279319062
0.13335773 0.013889942 0.36300001 4279319062
0.13416614 0.013851679 0.36200002 4279516441
0.13534191 0.013851679 0.36200002 4279253271
0.13651769 0.013851679 0.36200002 4279450650
0.1373131 0.013813416 0.36100003 4279516441
0.13848563 0.013813416 0.36100003 4279582234
0.13927129 0.01377515 0.36000001 4279450648
0.14044057 0.01377515 0.36000001 4279516441
0.14121649 0.013736886 0.35900003 4279450648
0.14238253 0.013736886 0.35900003 4279450650
0.14354855 0.013736886 0.35900003 4279319064
0.14471458 0.013736886 0.35900003 4279648029
0.14588062 0.013736886 0.35900003 4279450650
0.14663705 0.013698622 0.35800001 4279582236
0.06274081 0.014820287 0.35700002 4282603332
0.063900352 0.014820287 0.35700002 4279446035
0.065242119 0.0148618 0.35800001 4279381271
0.06566295 0.014695746 0.354 4279251223
0.066812746 0.014695746 0.354 4279054357
0.067770556 0.014654233 0.35300002 4278857746
0.068917103 0.014654233 0.35300002 4279516443
0.069865167 0.01461272 0.35200003 4278794004
0.071008459 0.01461272 0.35200003 4278729494
0.072151758 0.01461272 0.35200003 4278664214
0.073295057 0.01461272 0.35200003 4279190558
0.074438356 0.01461272 0.35200003 4278399505
0.075581647 0.01461272 0.35200003 4278860056
0.076942913 0.014654233 0.35300002 4278794263
0.078089461 0.014654233 0.35300002 4278531091
0.079909392 0.014778772 0.35600001 4278530578
0.081293397 0.014820287 0.35700002 4278793750
0.082683891 0.0148618 0.35800001 4278727187
0.084315091 0.014944826 0.36000001 4278661394
0.085721835 0.014986341 0.36100003 4278398224
0.087135069 0.015027854 0.36200002 4278661394
0.088310838 0.015027854 0.36200002 4278858773
0.089486621 0.015027854 0.36200002 4278858773
0.09066239 0.015027854 0.36200002 4278858773
0.092091866 0.015069366 0.36300001 4278661394
0.09327089 0.015069366 0.36300001 4278727957
0.094449915 0.015069366 0.36300001 4278596371
0.09562894 0.015069366 0.36300001 4278859543
0.097074665 0.015110881 0.36400002 4278727957
0.098256938 0.015110881 0.36400002 4278531091
0.099439196 0.015110881 0.36400002 4278794263
0.10062148 0.015110881 0.36400002 4278728470
0.10180375 0.015110881 0.36400002 4278728470
0.10270309 0.015069366 0.36300001 4278794263
0.10388211 0.015069366 0.36300001 4278662677
0.10477172 0.015027854 0.36200002 4279056922
0.10594749 0.015027854 0.36200002 4279188762
0.10942794 0.0148618 0.35800001 4279254301
0.11059073 0.0148618 0.35800001 4279254301
0.11175352 0.0148618 0.35800001 4279517473
0.11291629 0.0148618 0.35800001 4279254814
0.11439773 0.014903313 0.35900003 4279320607
0.11556377 0.014903313 0.35900003 4279452193
0.1167298 0.014903313 0.35900003 4279254814
0.11789584 0.014903313 0.35900003 4279386141
0.11906187 0.014903313 0.35900003 4278794004
0.1202279 0.014903313 0.35900003 4279057176
0.12139393 0.014903313 0.35900003 4278991383
0.12982064 0.015069366 0.36300001 4279319578
0.13099967 0.015069366 0.36300001 4279516957
0.13217871 0.015069366 0.36300001 4279385371
0.13335773 0.015069366 0.36300001 4279581723
0.13453676 0.015069366 0.36300001 4279581723
0.13571578 0.015069366 0.36300001 4279515930
0.13651769 0.015027854 0.36200002 4280042274
0.13769346 0.015027854 0.36200002 4279844895
0.13848563 0.014986341 0.36100003 4279844895
0.13965815 0.014986341 0.36100003 4279976481
0.14044057 0.014944826 0.36000001 4280305444
0.14160985 0.014944826 0.36000001 4279581721
0.14277913 0.014944826 0.36000001 4280634409
0.14354855 0.014903313 0.35900003 4280370469
0.14471458 0.014903313 0.35900003 4280435749
0.14588062 0.014903313 0.35900003 4281356851
0.065242119 0.016024979 0.35800001 4279382039
0.06603393 0.015935453 0.35600001 4279054357
0.067001484 0.015890691 0.35500002 4279120920
0.067962535 0.015845928 0.354 4279056152
0.069112331 0.015845928 0.354 4279451164
0.070063643 0.015801165 0.35300002 4279451934
0.071210191 0.015801165 0.35300002 4279320861
0.072356731 0.015801165 0.35300002 4278664214
0.073503278 0.015801165 0.35300002 4279453730
0.074649826 0.015801165 0.35300002 4283532379
0.075796366 0.015801165 0.35300002 4279124250
0.07716088 0.015845928 0.354 4278663701
0.078310676 0.015845928 0.354 4278729494
0.079909392 0.015935453 0.35600001 4278663701
0.081293397 0.015980216 0.35700002 4279123482
0.082683891 0.016024979 0.35800001 4278728724
0.084315091 0.016114503 0.36000001 4278662931
0.085484378 0.016114503 0.36000001 4278729240
0.086894363 0.016159266 0.36100003 4278795033
0.088066891 0.016159266 0.36100003 4278991896
0.089239419 0.016159266 0.36100003 4278926103
0.090411946 0.016159266 0.36100003 4279255068
0.091838174 0.016204027 0.36200002 4279320861
0.09301395 0.016204027 0.36200002 4279254814
0.094189726 0.016204027 0.36200002 4279320607
0.09562894 0.016248791 0.36300001 4279320607
0.096807972 0.016248791 0.36300001 4279386654
0.097986996 0.016248791 0.36300001 4279124252
0.099166013 0.016248791 0.36300001 4279124252
0.10034504 0.016248791 0.36300001 4278861080
0.10152406 0.016248791 0.36300001 4278992666
0.10270309 0.016248791 0.36300001 4278860826
0.10359594 0.016204027 0.36200002 4279123998
0.10477172 0.016204027 0.36200002 4279255068
0.10565482 0.016159266 0.36100003 4279255068
0.10653143 0.016114503 0.36000001 4279123482
0.10740154 0.016069742 0.35900003 4279189275
0.10856757 0.016069742 0.35900003 4279189275
0.10942794 0.016024979 0.35800001 4279320348
0.11059073 0.016024979 0.35800001 4279451934
0.11175352 0.016024979 0.35800001 4279780899
0.1132317 0.016069742 0.35900003 4279978278
0.11439773 0.016069742 0.35900003 4279911715
0.11556377 0.016069742 0.35900003 4280175657
0.1167298 0.016069742 0.35900003 4279912231
0.11789584 0.016069742 0.35900003 4280109610
0.11906187 0.016069742 0.35900003 4280109864
0.1202279 0.016069742 0.35900003 4279978278
0.12139393 0.016069742 0.35900003 4280306473
0.13017829 0.016293554 0.36400002 4280503338
0.13136056 0.016293554 0.36400002 4280240166
0.13254283 0.016293554 0.36400002 4280502825
0.13372511 0.016293554 0.36400002 4280831020
0.13453676 0.016248791 0.36300001 4280831020
0.13571578 0.016248791 0.36300001 4280436262
0.13689481 0.016248791 0.36300001 4280699180
0.13807382 0.016248791 0.36300001 4280369956
0.13886924 0.016204027 0.36200002 4280830507
0.14004502 0.016204027 0.36200002 4280896300
0.14083068 0.016159266 0.36100003 4281488950
0.14200321 0.016159266 0.36100003 4281291058
0.14277913 0.016114503 0.36000001 4281291058
0.14394841 0.016114503 0.36000001 4281554230
0.14511769 0.016114503 0.36000001 4281553460
0.14588062 0.016069742 0.35900003 4283656526
0.063092306 0.017236169 0.35900003 4284248670
0.064258337 0.017236169 0.35900003 4281552181
0.065424368 0.017236169 0.35900003 4279578904
0.066219419 0.017140146 0.35700002 4278923541
0.067378961 0.017140146 0.35700002 4278858261
0.068346508 0.017092135 0.35600001 4279450910
0.069307566 0.017044123 0.35500002 4279845668
0.07046061 0.017044123 0.35500002 4279649826
0.071411915 0.016996112 0.354 4279650596
0.072561711 0.016996112 0.354 4279321631
0.0737115 0.016996112 0.354 4278795800
0.074861296 0.016996112 0.354 4278993177
0.076011084 0.016996112 0.354 4278598419
0.07716088 0.016996112 0.354 4278532626
0.078531891 0.017044123 0.35500002 4278730005
0.079909392 0.017092135 0.35600001 4278927384
0.081293397 0.017140146 0.35700002 4278993177
0.082683891 0.017188158 0.35800001 4279058970
0.08408089 0.017236169 0.35900003 4278993179
0.085246921 0.017236169 0.35900003 4278993179
0.086653657 0.017284181 0.36000001 4278927386
0.087822936 0.017284181 0.36000001 4278664212
0.088992216 0.017284181 0.36000001 4278993177
0.090411946 0.017332194 0.36100003 4279255836
0.091584474 0.017332194 0.36100003 4279519008
0.092757009 0.017332194 0.36100003 4279453217
0.094189726 0.017380204 0.36200002 4279584803
0.095365502 0.017380204 0.36200002 4279453217
0.096541286 0.017380204 0.36200002 4279453217
0.097717062 0.017380204 0.36200002 4279518756
0.09889283 0.017380204 0.36200002 4279584549
0.10006861 0.017380204 0.36200002 4279716389
0.10124438 0.017380204 0.36200002 4279716389
0.10242017 0.017380204 0.36200002 4279912998
0.10330977 0.017332194 0.36100003 4279847205
0.1044823 0.017332194 0.36100003 4279978278
0.10536214 0.017284181 0.36000001 4280109864
0.10653143 0.017284181 0.36000001 4280241963
0.10740154 0.017236169 0.35900003 4280044584
0.10856757 0.017236169 0.35900003 4280175657
0.10942794 0.017188158 0.35800001 4280306473
0.11059073 0.017188158 0.35800001 4280503338
0.11206568 0.017236169 0.35900003 4280569131
0.1132317 0.017236169 0.35900003 4280832303
0.11439773 0.017236169 0.35900003 4280765997
0.11556377 0.017236169 0.35900003 4281095475
0.11705495 0.017284181 0.36000001 4280437545
0.11822423 0.017284181 0.36000001 4280963889
0.11939352 0.017284181 0.36000001 4280898096
0.12056279 0.017284181 0.36000001 4279647516
0.12173207 0.017284181 0.36000001 4280108067
0.13017829 0.017476227 0.36400002 4281422390
0.13136056 0.017476227 0.36400002 4280698669
0.13254283 0.017476227 0.36400002 4280698669
0.13372511 0.017476227 0.36400002 4281684792
0.13490738 0.017476227 0.36400002 4281092655
0.13608965 0.017476227 0.36400002 4280896046
0.13689481 0.017428216 0.36300001 4281225265
0.13807382 0.017428216 0.36300001 4280368932
0.13925284 0.017428216 0.36300001 4281355313
0.14004502 0.017380204 0.36200002 4281356081
0.14122079 0.017380204 0.36200002 4281291058
0.14200321 0.017332194 0.36100003 4281291058
0.14317575 0.017332194 0.36100003 4281291058
0.14434826 0.017332194 0.36100003 4281749812
0.14511769 0.017284181 0.36000001 4284511835
0.063268043 0.018453857 0.36000001 4283985500
0.06443733 0.018453857 0.36000001 4283919705
0.065606602 0.018453857 0.36000001 4279644695
0.066590399 0.018402597 0.35900003 4279120918
0.067567699 0.018351335 0.35800001 4279647777
0.068730474 0.018351335 0.35800001 4279846438
0.069698036 0.018300075 0.35700002 4279846438
0.070659086 0.018248815 0.35600001 4279846951
0.071815372 0.018248815 0.35600001 4280044584
0.072971664 0.018248815 0.35600001 4279782182
0.073919728 0.018197555 0.35500002 4279914281
0.075072773 0.018197555 0.35500002 4280374578
0.07622581 0.018197555 0.35500002 4279716135
0.077378854 0.018197555 0.35500002 4279716387
0.078753106 0.018248815 0.35600001 4279649824
0.080133863 0.018300075 0.35700002 4279782180
0.081293397 0.018300075 0.35700002 4279584801
0.082683891 0.018351335 0.35800001 4279913768
0.083846673 0.018351335 0.35800001 4279716389
0.085246921 0.018402597 0.35900003 4279782182
0.086412959 0.018402597 0.35900003 4279716389
0.087578982 0.018402597 0.35900003 4279912998
0.08874502 0.018402597 0.35900003 4279781412
0.090161495 0.018453857 0.36000001 4280044584
0.091330774 0.018453857 0.36000001 4280373549
0.092500061 0.018453857 0.36000001 4280241450
0.093929537 0.018505119 0.36100003 4280175657
0.095102072 0.018505119 0.36100003 4280241450
0.096274599 0.018505119 0.36100003 4280241450
0.097717062 0.018556379 0.36200002 4280306989
0.09889283 0.018556379 0.36200002 4280372782
0.10006861 0.018556379 0.36200002 4280570161
0.10124438 0.018556379 0.36200002 4280832563
0.10213724 0.018505119 0.36100003 4280437543
0.10330977 0.018505119 0.36100003 4280240164
0.1044823 0.018505119 0.36100003 4280370469
0.10536214 0.018453857 0.36000001 4279712539
0.1062355 0.018402597 0.35900003 4279581469
0.10740154 0.018402597 0.35900003 4280963376
0.10856757 0.018402597 0.35900003 4280239399
0.10942794 0.018351335 0.35800001 4280567594
0.11059073 0.018351335 0.35800001 4280764460
0.11206568 0.018402597 0.35900003 4280830255
0.1132317 0.018402597 0.35900003 4280896046
0.11439773 0.018402597 0.35900003 4280896046
0.11556377 0.018402597 0.35900003 4280763690
0.11705495 0.018453857 0.36000001 4281290034
0.11822423 0.018453857 0.36000001 4281421874
0.11939352 0.018453857 0.36000001 4281092909
0.12056279 0.018453857 0.36000001 4280763944
0.12173207 0.018453857 0.36000001 4281750839
0.13136056 0.018658901 0.36400002 4280895278
0.13254283 0.018658901 0.36400002 4280829485
0.13372511 0.018658901 0.36400002 4280829485
0.13490738 0.018658901 0.36400002 4281684792
0.13608965 0.018658901 0.36400002 4281092655
0.13727194 0.018658901 0.36400002 4280236832
0.13807382 0.018607639 0.36300001 4281553208
0.13925284 0.018607639 0.36300001 4281421622
0.14004502 0.018556379 0.36200002 4281355827
0.14122079 0.018556379 0.36200002 4281618739
0.14200321 0.018505119 0.36100003 4281354284
0.14317575 0.018505119 0.36100003 4283656526
0.14434826 0.018505119 0.36100003 4286220915
0.063268043 0.019623535 0.36000001 4284051293
0.06443733 0.019623535 0.36000001 4283984987
0.066775888 0.019623535 0.36000001 4279449113
0.067945167 0.019623535 0.36000001 4279911463
0.06892246 0.019569024 0.35900003 4279781160
0.070088498 0.019569024 0.35900003 4279846951
0.071056046 0.019514514 0.35800001 4279846951
0.072017103 0.019460006 0.35700002 4280176686
0.073176645 0.019460006 0.35700002 4280110893
0.07412795 0.019405494 0.35600001 4280110893
0.075284243 0.019405494 0.35600001 4280110893
0.076440528 0.019405494 0.35600001 4280045100
0.077596813 0.019405494 0.35600001 4280044582
0.078974329 0.019460006 0.35700002 4280044582
0.080133863 0.019460006 0.35700002 4279847203
0.081293397 0.019460006 0.35700002 4279847203
0.082683891 0.019514514 0.35800001 4279912998
0.083846673 0.019514514 0.35800001 4280044584
0.085009463 0.019514514 0.35800001 4280044584
0.086412959 0.019569024 0.35900003 4280176170
0.087578982 0.019569024 0.35900003 4279713309
0.08874502 0.019569024 0.35900003 4280305446
0.089911051 0.019569024 0.35900003 4280701231
0.091077082 0.019569024 0.35900003 4280239912
0.092500061 0.019623535 0.36000001 4278920972
0.09366934 0.019623535 0.36000001 4279446035
0.094838627 0.019623535 0.36000001 4279379729
0.096274599 0.019678045 0.36100003 4279577621
0.097447127 0.019678045 0.36100003 4279380760
0.098619647 0.019678045 0.36100003 4279841311
0.099792175 0.019678045 0.36100003 4280038688
0.10096471 0.019678045 0.36100003 4279973408
0.10213724 0.019678045 0.36100003 4280038688
0.10302359 0.019623535 0.36000001 4280301860
0.10419287 0.019623535 0.36000001 4280826921
0.10536214 0.019623535 0.36000001 4279970842
0.1062355 0.019569024 0.35900003 4281159218
0.10740154 0.019569024 0.35900003 4280830766
0.10856757 0.019569024 0.35900003 4280303141
0.10942794 0.019514514 0.35800001 4280169504
0.11059073 0.019514514 0.35800001 4279446551
0.11175352 0.019514514 0.35800001 4281026096
0.1132317 0.019569024 0.35900003 4280829483
0.11439773 0.019569024 0.35900003 4281092909
0.11556377 0.019569024 0.35900003 4280961323
0.11705495 0.019623535 0.36000001 4281027116
0.11822423 0.019623535 0.36000001 4280961069
0.11939352 0.019623535 0.36000001 4280961069
0.12056279 0.019623535 0.36000001 4280961069
0.12173207 0.019623535 0.36000001 4281224241
0.13727194 0.019841574 0.36400002 4283130182
0.13807382 0.019787064 0.36300001 4283590992
0.13925284 0.019787064 0.36300001 4285038179
0.14043188 0.019787064 0.36300001 4285959027
0.14122079 0.019732554 0.36200002 4286616957
0.14239657 0.019732554 0.36200002 4285827443
0.14317575 0.019678045 0.36100003 4286155638
0.064616323 0.020850971 0.36100003 4283919707
0.06578885 0.020850971 0.36100003 4283985500
0.066961378 0.020850971 0.36100003 4280435497
0.067945167 0.020793211 0.36000001 4280174121
0.069114447 0.020793211 0.36000001 4279583779
0.070283726 0.020793211 0.36000001 4279584549
0.071254529 0.020735452 0.35900003 4279979307
0.07242056 0.020735452 0.35900003 4280110893
0.073381618 0.020677693 0.35800001 4280045100
0.0745444 0.020677693 0.35800001 4280110893
0.07549572 0.020619934 0.35700002 4280505651
0.076655254 0.020619934 0.35700002 4280110893
0.077814788 0.020619934 0.35700002 4280241963
0.078974329 0.020619934 0.35700002 4279912998
0.080133863 0.020619934 0.35700002 4279715619
0.081521109 0.020677693 0.35800001 4279715619
0.082683891 0.020677693 0.35800001 4279847205
0.083846673 0.020677693 0.35800001 4279847205
0.085009463 0.020677693 0.35800001 4280175657
0.086172245 0.020677693 0.35800001 4279186713
0.087335028 0.020677693 0.35800001 4280501288
0.08874502 0.020735452 0.35900003 4280831020
0.089911051 0.020735452 0.35900003 4280500520
0.091077082 0.020735452 0.35900003 4279248404
0.09224312 0.020735452 0.35900003 4280958509
0.09366934 0.020793211 0.36000001 4281089325
0.094838627 0.020793211 0.36000001 4280431395
0.096007906 0.020793211 0.36000001 4281287474
0.097177185 0.020793211 0.36000001 4279971614
0.098619647 0.020850971 0.36100003 4280432165
0.099792175 0.020850971 0.36100003 4279971614
0.10096471 0.020850971 0.36100003 4280761130
0.10185431 0.020793211 0.36000001 4280037407
0.10302359 0.020793211 0.36000001 4280498471
0.10419287 0.020793211 0.36000001 4279840539
0.10536214 0.020793211 0.36000001 4281749306
0.1062355 0.020735452 0.35900003 4281224243
0.10740154 0.020735452 0.35900003 4281157936
0.10856757 0.020735452 0.35900003 4280893481
0.10942794 0.020677693 0.35800001 4280893227
0.11059073 0.020677693 0.35800001 4281025583
0.11175352 0.020677693 0.35800001 4280697385
0.1132317 0.020735452 0.35900003 4280894762
0.11439773 0.020735452 0.35900003 4280631590
0.11556377 0.020735452 0.35900003 4281223214
0.11705495 0.020793211 0.36000001 4281749812
0.11822423 0.020793211 0.36000001 4281684532
0.11939352 0.020793211 0.36000001 4281684532
0.12056279 0.020793211 0.36000001 4282275902
0.12173207 0.020793211 0.36000001 4282275902
0.06578885 0.022023896 0.36100003 4283985500
0.066961378 0.022023896 0.36100003 4283590994
0.068133906 0.022023896 0.36100003 4280435497
0.069306433 0.022023896 0.36100003 4279846951
0.070478961 0.022023896 0.36100003 4280044330
0.071453013 0.021962887 0.36000001 4280242733
0.072622284 0.021962887 0.36000001 4280111147
0.073586598 0.021901879 0.35900003 4280242733
0.074752629 0.021901879 0.35900003 4280176940
0.07570719 0.02184087 0.35800001 4280110123
0.076869972 0.02184087 0.35800001 4280110123
0.078032754 0.02184087 0.35800001 4279912998
0.079195544 0.02184087 0.35800001 4279584803
0.080358319 0.02184087 0.35800001 4279124252
0.081521109 0.02184087 0.35800001 4279321631
0.082683891 0.02184087 0.35800001 4279321631
0.083846673 0.02184087 0.35800001 4279386654
0.085009463 0.02184087 0.35800001 4278726162
0.086172245 0.02184087 0.35800001 4279251223
0.087335028 0.02184087 0.35800001 4280173606
0.088497818 0.02184087 0.35800001 4280108326
0.089911051 0.021901879 0.35900003 4279052822
0.091077082 0.021901879 0.35900003 4279578141
0.09224312 0.021901879 0.35900003 4279511576
0.093409151 0.021901879 0.35900003 4280498469
0.094838627 0.021962887 0.36000001 4280498469
0.096007906 0.021962887 0.36000001 4281616950
0.097177185 0.021962887 0.36000001 4281157169
0.098346457 0.021962887 0.36000001 4281551927
0.099515744 0.021962887 0.36000001 4281683513
0.10068502 0.021962887 0.36000001 4282210111
0.10185431 0.021962887 0.36000001 4282144318
0.10302359 0.021962887 0.36000001 4282144318
0.10419287 0.021962887 0.36000001 4281486901
0.10506947 0.021901879 0.35900003 4282079038
0.1062355 0.021901879 0.35900003 4281947452
0.10740154 0.021901879 0.35900003 4281815866
0.10856757 0.021901879 0.35900003 4281617974
0.10942794 0.02184087 0.35800001 4282669890
0.11059073 0.02184087 0.35800001 4283327820
0.11175352 0.02184087 0.35800001 4283788373
0.1132317 0.021901879 0.35900003 4284710758
0.11439773 0.021901879 0.35900003 4285433714
0.11556377 0.021901879 0.35900003 4285827702
0.11705495 0.021962887 0.36000001 4285762163
0.11822423 0.021962887 0.36000001 4285499243
0.11939352 0.021962887 0.36000001 4285959794
0.12056279 0.021962887 0.36000001 4285630577
0.12173207 0.021962887 0.36000001 4285564271
0.067146868 0.02326108 0.36200002 4283722326
0.068133906 0.023196824 0.36100003 4283656533
0.069306433 0.023196824 0.36100003 4281028147
0.070478961 0.023196824 0.36100003 4280700979
0.071651496 0.023196824 0.36100003 4280175403
0.072622284 0.023132564 0.36000001 4280307756
0.073791571 0.023132564 0.36000001 4280307756
0.074752629 0.023068309 0.35900003 4280176170
0.075918667 0.023068309 0.35900003 4280176170
0.076869972 0.023004051 0.35800001 4279912998
0.078032754 0.023004051 0.35800001 4279649826
0.079195544 0.023004051 0.35800001 4279190045
0.080358319 0.023004051 0.35800001 4279189791
0.081521109 0.023004051 0.35800001 4279255584
0.082683891 0.023004051 0.35800001 4279320094
0.083846673 0.023004051 0.35800001 4278924566
0.085009463 0.023004051 0.35800001 4279712803
0.086172245 0.023004051 0.35800001 4279975459
0.087335028 0.023004051 0.35800001 4279844643
0.088497818 0.023004051 0.35800001 4279713057
0.089660592 0.023004051 0.35800001 4279844389
0.091077082 0.023068309 0.35900003 4279975207
0.09224312 0.023068309 0.35900003 4281026098
0.093409151 0.023068309 0.35900003 4281420854
0.094575189 0.023068309 0.35900003 4282079038
0.096007906 0.023132564 0.36000001 4283197006
0.097177185 0.023132564 0.36000001 4284248924
0.098346457 0.023132564 0.36000001 4284182877
0.099515744 0.023132564 0.36000001 4284709221
0.10068502 0.023132564 0.36000001 4284906600
0.10185431 0.023132564 0.36000001 4284972395
0.10302359 0.023132564 0.36000001 4284840807
0.10419287 0.023132564 0.36000001 4284972647
0.10506947 0.023068309 0.35900003 4285038440
0.1062355 0.023068309 0.35900003 4284972647
0.10740154 0.023068309 0.35900003 4285104233
0.10856757 0.023068309 0.35900003 4285038186
0.10973361 0.023068309 0.35900003 4285366638
0.11089964 0.023068309 0.35900003 4285432685
0.11206568 0.023068309 0.35900003 4285498224
0.1132317 0.023068309 0.35900003 4285498224
0.11439773 0.023068309 0.35900003 4285564017
0.11556377 0.023068309 0.35900003 4285629040
0.11705495 0.023132564 0.36000001 4285694833
0.11822423 0.023132564 0.36000001 4285760626
0.11939352 0.023132564 0.36000001 4285694833
0.12056279 0.023132564 0.36000001 4285958005
0.12173207 0.023132564 0.36000001 4285826419
0.069306433 0.024369748 0.36100003 4283196236
0.070478961 0.024369748 0.36100003 4283065420
0.071651496 0.024369748 0.36100003 4282408263
0.072824016 0.024369748 0.36100003 4281751357
0.073791571 0.024302242 0.36000001 4280042533
0.089660592 0.024167228 0.35800001 4280631602
0.091077082 0.024234736 0.35900003 4282210120
0.09224312 0.024234736 0.35900003 4283920477
0.093409151 0.024234736 0.35900003 4284248672
0.094575189 0.024234736 0.35900003 4284446051
0.096007906 0.024302242 0.36000001 4284577124
0.097177185 0.024302242 0.36000001 4284511331
0.098346457 0.024302242 0.36000001 4284774503
0.099515744 0.024302242 0.36000001 4284774501
0.10068502 0.024302242 0.36000001 4284906087
0.10185431 0.024302242 0.36000001 4284971882
0.10302359 0.024302242 0.36000001 4285037675
0.10419287 0.024302242 0.36000001 4284971880
0.10536214 0.024302242 0.36000001 4285300329
0.10653143 0.024302242 0.36000001 4285300329
0.10770071 0.024302242 0.36000001 4285497708
0.10886999 0.024302242 0.36000001 4285563501
0.11003927 0.024302242 0.36000001 4285694833
0.11120855 0.024302242 0.36000001 4285694319
0.11237784 0.024302242 0.36000001 4285628526
0.11354711 0.024302242 0.36000001 4285825905
0.11471639 0.024302242 0.36000001 4285957491
0.11588567 0.024302242 0.36000001 4285825905
0.11705495 0.024302242 0.36000001 4285891698
0.11822423 0.024302242 0.36000001 4286089077
0.11939352 0.024302242 0.36000001 4285826419
0.12056279 0.024302242 0.36000001 4286023798
0.12173207 0.024302242 0.36000001 4286155384
0.071651496 0.025542675 0.36100003 4283064398
0.093239173 0.014388136 0.35860312 4294967295
0.093239173 0.014388136 0.35860312 4294901760
0.093239173 0.014388136 0.35910311 4294901760
0.093239173 0.014388136 0.35960311 4294901760
0.093239173 0.014388136 0.36010313 4294901760
0.093239173 0.014388136 0.36060312 4294901760
0.093239173 0.014388136 0.36110312 4294901760
0.093239173 0.014388136 0.36160311 4294901760
0.093239173 0.014388136 0.36210313 4294901760
0.093239173 0.014388136 0.36260313 4294901760
0.093239173 0.014388136 0.36310312 4294901760
0.093239173 0.014388136 0.36360312 4294901760
0.093239173 0.014388136 0.36410311 4294901760
0.093239173 0.014388136 0.36460313 4294901760
0.093239173 0.014388136 0.36510313 4294901760
0.093239173 0.014388136 0.36560312 4294901760
0.093239173 0.014388136 0.36610311 4294901760
0.093239173 0.014388136 0.36660314 4294901760
0.093239173 0.014388136 0.36710313 4294901760
0.093239173 0.014388136 0.36760312 4294901760
0.093239173 0.014388136 0.36810312 4294901760
0.093239173 0.014388136 0.36860311 4294901760
0.093239173 0.014388136 0.36910313 4294901760
0.093239173 0.014388136 0.36960313 4294901760
0.093239173 0.014388136 0.37010312 4294901760
0.093239173 0.014388136 0.37060311 4294901760
0.093239173 0.014388136 0.37110311 4294901760
0.093239173 0.014388136 0.37160313 4294901760
0.093239173 0.014388136 0.37210312 4294901760
0.093239173 0.014388136 0.37260312 4294901760
0.093239173 0.014388136 0.37310311 4294901760
0.093239173 0.014388136 0.37360314 4294901760
0.093239173 0.014388136 0.37410313 4294901760
0.093239173 0.014388136 0.37460312 4294901760
0.093239173 0.014388136 0.37510312 4294901760
0.093239173 0.014388136 0.37560314 4294901760
0.093239173 0.014388136 0.37610313 4294901760
0.093239173 0.014388136 0.37660313 4294901760
0.093239173 0.014388136 0.37710312 4294901760
0.093239173 0.014388136 0.37760311 4294901760
0.093239173 0.014388136 0.37810314 4294901760
0.093239173 0.014388136 0.37860313 4294901760
0.093239173 0.014388136 0.37910312 4294901760
0.093239173 0.014388136 0.37960312 4294901760
0.093239173 0.014388136 0.38010311 4294901760
0.093239173 0.014388136 0.38060313 4294901760
0.093239173 0.014388136 0.38110313 4294901760
0.093239173 0.014388136 0.38160312 4294901760
0.093239173 0.014388136 0.38210312 4294901760
0.093239173 0.014388136 0.38260314 4294901760
0.093239173 0.014388136 0.38310313 4294901760
0.093239173 0.014388136 0.38360313 4294901760
0.093239173 0.014388136 0.38410312 4294901760
0.093239173 0.014388136 0.38460311 4294901760
0.093239173 0.014388136 0.38510314 4294901760
0.093239173 0.014388136 0.38560313 4294901760
0.093239173 0.014388136 0.38610312 4294901760
0.093239173 0.014388136 0.38660312 4294901760
0.093239173 0.014388136 0.38710314 4294901760
0.093239173 0.014388136 0.38760313 4294901760
0.093239173 0.014388136 0.38810313 4294901760
0.093239173 0.014388136 0.38860312 4294901760
0.093239173 0.014388136 0.38910311 4294901760
0.093239173 0.014388136 0.38960314 4294901760
0.093239173 0.014388136 0.39010313 4294901760
0.093239173 0.014388136 0.39060313 4294901760
0.093239173 0.014388136 0.39110312 4294901760
0.093239173 0.014388136 0.39160314 4294901760
0.093239173 0.014388136 0.39210314 4294901760
0.093239173 0.014388136 0.39260313 4294901760
0.093239173 0.014388136 0.39310312 4294901760
0.093239173 0.014388136 0.39360312 4294901760
0.093239173 0.014388136 0.39410314 4294901760
0.093239173 0.014388136 0.39460313 4294901760
0.093239173 0.014388136 0.39510313 4294901760
0.093239173 0.014388136 0.39560312 4294901760
0.093239173 0.014388136 0.39610314 4294901760
0.093239173 0.014388136 0.39660314 4294901760
0.093239173 0.014388136 0.39710313 4294901760
0.093239173 0.014388136 0.39760312 4294901760
0.093239173 0.014388136 0.39810312 4294901760
0.093239173 0.014388136 0.39860314 4294901760
0.093239173 0.014388136 0.39910313 4294901760
0.093239173 0.014388136 0.39960313 4294901760
0.093239173 0.014388136 0.40010312 4294901760
0.093239173 0.014388136 0.40060312 4294901760
0.093239173 0.014388136 0.40110314 4294901760
0.093239173 0.014388136 0.40160313 4294901760
0.093239173 0.014388136 0.40210313 4294901760
0.093239173 0.014388136 0.40260312 4294901760
0.093239173 0.014388136 0.40310311 4294901760
0.093239173 0.014388136 0.40360314 4294901760
0.093239173 0.014388136 0.40410313 4294901760
0.093239173 0.014388136 0.40460312 4294901760
0.093239173 0.014388136 0.40510315 4294901760
0.093239173 0.014388136 0.40560314 4294901760
0.093239173 0.014388136 0.40610313 4294901760
0.093239173 0.014388136 0.40660313 4294901760
0.093239173 0.014388136 0.40710312 4294901760
0.093239173 0.014388136 0.40760314 4294901760
0.093239173 0.014388136 0.40810314 4294901760
0.093239173 0.014388136 0.40860313 4294901760
0.093239173 0.014388136 0.35860312 4278255360
0.093230441 0.014325285 0.35909909 4278255360
0.093221709 0.014262434 0.35959503 4278255360
0.093212977 0.014199584 0.360091 4278255360
0.093204245 0.014136733 0.36058694 4278255360
0.09319552 0.014073882 0.36108291 4278255360
0.093186788 0.014011031 0.36157885 4278255360
0.093178056 0.013948181 0.36207482 4278255360
0.093169324 0.013885329 0.36257076 4278255360
0.093160592 0.013822479 0.36306673 4278255360
0.09315186 0.013759628 0.3635627 4278255360
0.093143128 0.013696778 0.36405864 4278255360
0.093134396 0.013633926 0.36455461 4278255360
0.093125664 0.013571076 0.36505055 4278255360
0.093116939 0.013508225 0.36554652 4278255360
0.093108207 0.013445375 0.36604246 4278255360
0.093099475 0.013382524 0.36653844 4278255360
0.093090743 0.013319673 0.36703441 4278255360
0.093082011 0.013256822 0.36753035 4278255360
0.093073279 0.013193971 0.36802632 4278255360
0.093064547 0.013131121 0.36852226 4278255360
0.093055815 0.01306827 0.36901823 4278255360
0.093047082 0.01300542 0.36951417 4278255360
0.093038358 0.012942568 0.37001014 4278255360
0.093029626 0.012879718 0.37050608 4278255360
0.093020894 0.012816867 0.37100205 4278255360
0.093012162 0.012754017 0.37149802 4278255360
0.093003429 0.012691165 0.37199396 4278255360
0.092994697 0.012628315 0.37248993 4278255360
0.092985965 0.012565464 0.37298587 4278255360
0.092977233 0.012502613 0.37348184 4278255360
0.092968501 0.012439762 0.37397778 4278255360
0.092959777 0.012376912 0.37447375 4278255360
0.092951044 0.012314061 0.37496972 4278255360
0.092942312 0.01225121 0.37546566 4278255360
0.09293358 0.01218836 0.37596163 4278255360
0.092924848 0.012125509 0.37645757 4278255360
0.092916116 0.012062658 0.37695354 4278255360
0.092907384 0.011999807 0.37744948 4278255360
0.092898652 0.011936957 0.37794545 4278255360
0.09288992 0.011874106 0.37844139 4278255360
0.092881195 0.011811255 0.37893736 4278255360
0.092872463 0.011748404 0.37943333 4278255360
0.092863731 0.011685554 0.37992927 4278255360
0.092854999 0.011622703 0.38042524 4278255360
0.092846267 0.011559852 0.38092119 4278255360
0.092837535 0.011497001 0.38141716 4278255360
0.092828803 0.011434151 0.3819131 4278255360
0.092820071 0.0113713 0.38240907 4278255360
0.092811339 0.011308449 0.38290501 4278255360
0.092802614 0.011245599 0.38340098 4278255360
0.092793882 0.011182748 0.38389695 4278255360
0.09278515 0.011119897 0.38439289 4278255360
0.092776418 0.011057046 0.38488886 4278255360
0.092767686 0.010994196 0.3853848 4278255360
0.092758954 0.010931345 0.38588077 4278255360
0.092750221 0.010868494 0.38637671 4278255360
0.092741489 0.010805643 0.38687268 4278255360
0.092732757 0.010742793 0.38736862 4278255360
0.092724025 0.010679942 0.38786459 4278255360
0.092715301 0.010617091 0.38836056 4278255360
0.092706569 0.01055424 0.3888565 4278255360
0.092697836 0.01049139 0.38935247 4278255360
0.092689104 0.010428539 0.38984841 4278255360
0.092680372 0.010365688 0.39034438 4278255360
0.09267164 0.010302838 0.39084032 4278255360
0.092662908 0.010239987 0.39133629 4278255360
0.092654176 0.010177135 0.39183223 4278255360
0.092645444 0.010114285 0.3923282 4278255360
0.092636719 0.010051435 0.39282417 4278255360
0.092627987 0.0099885836 0.39332011 4278255360
0.092619255 0.0099257333 0.39381608 4278255360
0.092610523 0.0098628821 0.39431202 4278255360
0.092601791 0.0098000318 0.39480799 4278255360
0.092593059 0.0097371805 0.39530396 4278255360
0.092584327 0.0096743302 0.39579991 4278255360
0.092575595 0.0096114799 0.39629585 4278255360
0.092566863 0.0095486287 0.39679182 4278255360
0.092558138 0.0094857775 0.39728779 4278255360
0.092549406 0.0094229262 0.39778373 4278255360
0.092540674 0.0093600769 0.3982797 4278255360
0.092531942 0.0092972256 0.39877564 4278255360
0.09252321 0.0092343744 0.39927161 4278255360
0.092514478 0.0091715241 0.39976758 4278255360
0.092505746 0.0091086738 0.40026352 4278255360
0.092497014 0.0090458225 0.40075949 4278255360
0.092488281 0.0089829713 0.40125543 4278255360
0.092479557 0.008920121 0.4017514 4278255360
0.092470825 0.0088572707 0.40224734 4278255360
0.092462093 0.0087944195 0.40274331 4278255360
0.092453361 0.0087315692 0.40323925 4278255360
0.092444628 0.0086687179 0.40373522 4278255360
0.092435896 0.0086058676 0.40423119 4278255360
0.092427164 0.0085430164 0.40472713 4278255360
0.092418432 0.0084801661 0.4052231 4278255360
0.0924097 0.0084173158 0.40571904 4278255360
0.092400976 0.0083544645 0.40621501 4278255360
0.092392243 0.0082916133 0.40671095 4278255360
