# .PCD v0.7 - Point Cloud Data file format
VERSION 0.7
FIELDS x y z rgb
SIZE 4 4 4 4
TYPE F F F U
COUNT 1 1 1 1
WIDTH 1022
HEIGHT 1
VIEWPOINT 0 0 0 1 0 0 0
POINTS 1022
DATA ascii
0.042692002 -0.0054473677 0.39700001 4279974694
0.08219292 -0.0057766796 0.42100003 4285895296
0.083758809 -0.0057904008 0.42200002 4286290824
0.085331187 -0.005804122 0.42300001 4285961859
0.086910069 -0.0058178436 0.42400002 4283988580
0.088287227 -0.0058178436 0.42400002 4281489214
0.089664385 -0.0058178436 0.42400002 4280767542
0.091256246 -0.0058315648 0.42500001 4280504881
0.092636652 -0.0058315648 0.42500001 4279980590
0.094017051 -0.0058315648 0.42500001 4279717934
0.095172986 -0.0058178436 0.42400002 4279323174
0.096550144 -0.0058178436 0.42400002 4279323174
0.098158255 -0.0058315648 0.42500001 4279060769
0.099538654 -0.0058315648 0.42500001 4279323941
0.10091905 -0.0058315648 0.42500001 4279389734
0.10229946 -0.0058315648 0.42500001 4279258148
0.10367985 -0.0058315648 0.42500001 4279323941
0.10506026 -0.0058315648 0.42500001 4279061537
0.10669111 -0.0058452864 0.42600003 4278798365
0.10807475 -0.0058452864 0.42600003 4279061535
0.10945841 -0.0058452864 0.42600003 4279061535
0.11084206 -0.0058452864 0.42600003 4278798363
0.1122257 -0.0058452864 0.42600003 4279061535
0.11360936 -0.0058452864 0.42600003 4278929949
0.11526294 -0.0058590076 0.42700002 4278732570
0.11664983 -0.0058590076 0.42700002 4278600984
0.11803672 -0.0058590076 0.42700002 4278995742
0.11942363 -0.0058590076 0.42700002 4279192351
0.12081052 -0.0058590076 0.42700002 4280110893
0.023467787 -0.0041784183 0.39900002 4279840030
0.027424205 -0.0041888906 0.40000001 4280300579
0.028651597 -0.0041784183 0.39900002 4279905823
0.029947549 -0.0041784183 0.39900002 4280300581
0.031243503 -0.0041784183 0.39900002 4280366887
0.036336016 -0.0041679461 0.39800003 4280101916
0.037628721 -0.0041679461 0.39800003 4279838746
0.038823631 -0.0041574738 0.39700001 4279706906
0.040113091 -0.0041574738 0.39700001 4279707160
0.043870676 -0.0041470015 0.39600003 4279514656
0.07660678 -0.0043250294 0.41300002 4285896577
0.078136951 -0.0043355017 0.41400003 4284646508
0.079673596 -0.004345974 0.41500002 4281752386
0.081607215 -0.0043773907 0.41800001 4280898104
0.083163366 -0.004387863 0.41900003 4280110895
0.08492773 -0.0044088075 0.42100003 4280045613
0.086500116 -0.0044192798 0.42200002 4279850031
0.087870777 -0.0044192798 0.42200002 4279258148
0.089452907 -0.0044297515 0.42300001 4279192353
0.090826809 -0.0044297515 0.42300001 4279126560
0.092200711 -0.0044297515 0.42300001 4278995744
0.093574621 -0.0044297515 0.42300001 4279127843
0.094948523 -0.0044297515 0.42300001 4278865441
0.096322425 -0.0044297515 0.42300001 4278865441
0.097696334 -0.0044297515 0.42300001 4278997027
0.099070236 -0.0044297515 0.42300001 4278733855
0.1006816 -0.0044402243 0.42400002 4278996257
0.10205875 -0.0044402243 0.42400002 4278733085
0.1034359 -0.0044402243 0.42400002 4278864671
0.10481305 -0.0044402243 0.42400002 4278601499
0.1061902 -0.0044402243 0.42400002 4278600984
0.10756736 -0.0044402243 0.42400002 4278206480
0.10920145 -0.0044506961 0.42500001 4278732824
0.11058186 -0.0044506961 0.42500001 4278601238
0.11196226 -0.0044506961 0.42500001 4278535445
0.11360936 -0.0044611688 0.42600003 4278797847
0.11499301 -0.0044611688 0.42600003 4278797847
0.11637665 -0.0044611688 0.42600003 4278732054
0.11803672 -0.0044716406 0.42700002 4279060767
0.11942363 -0.0044716406 0.42700002 4278929181
0.12081052 -0.0044716406 0.42700002 4279978024
0.035043314 -0.0028748037 0.39800003 4282865222
0.036336016 -0.0028748037 0.39800003 4280167709
0.037534177 -0.0028675804 0.39700001 4279641113
0.038823631 -0.0028675804 0.39700001 4279706906
0.04001205 -0.0028603573 0.39600003 4279706906
0.041298259 -0.0028603573 0.39600003 4279706906
0.042584468 -0.0028603573 0.39600003 4280234788
0.043870676 -0.0028603573 0.39600003 4280171303
0.04504285 -0.0028531342 0.39500001 4279847982
0.046325814 -0.0028531342 0.39500001 4280308787
0.072670989 -0.0029325886 0.40600002 4280438327
0.074354149 -0.0029470348 0.40800002 4280767290
0.076235801 -0.0029687041 0.41100001 4279914027
0.077759475 -0.0029759274 0.41200003 4279848486
0.07928963 -0.0029831503 0.41300002 4279388703
0.081216753 -0.0030048196 0.41600001 4279126045
0.082766406 -0.003012043 0.41700003 4279127328
0.084322542 -0.0030192661 0.41800001 4278995742
0.085885189 -0.0030264892 0.41900003 4278996257
0.087454326 -0.0030337123 0.42000002 4278996257
0.088818491 -0.0030337123 0.42000002 4279193634
0.090397373 -0.0030409356 0.42100003 4279062048
0.091764778 -0.0030409356 0.42100003 4279062048
0.09313219 -0.0030409356 0.42100003 4278996255
0.094499595 -0.0030409356 0.42100003 4278339097
0.096094713 -0.0030481585 0.42200002 4278667292
0.097465374 -0.0030481585 0.42200002 4278732570
0.098836027 -0.0030481585 0.42200002 4278337812
0.10020669 -0.0030481585 0.42200002 4278469398
0.10157734 -0.0030481585 0.42200002 4278666777
0.102948 -0.0030481585 0.42200002 4278535191
0.10456585 -0.0030553816 0.42300001 4278732570
0.10593975 -0.0030553816 0.42300001 4278731800
0.10731366 -0.0030553816 0.42300001 4279191838
0.10894451 -0.0030626049 0.42400002 4279257885
0.11032167 -0.0030626049 0.42400002 4279323164
0.11196226 -0.0030698278 0.42500001 4279913764
0.11334267 -0.0030698278 0.42500001 4279387933
0.11499301 -0.0030770511 0.42600003 4279519519
0.11637665 -0.0030770511 0.42600003 4279388703
0.1177603 -0.0030770511 0.42600003 4279126047
0.11942363 -0.0030842742 0.42700002 4278994463
0.12081052 -0.0030842742 0.42700002 4279319326
0.036244716 -0.001577687 0.39700001 4280101403
0.037534177 -0.001577687 0.39700001 4279706647
0.038725842 -0.0015737129 0.39600003 4279707160
0.04001205 -0.0015737129 0.39600003 4279838492
0.04119397 -0.0015697388 0.39500001 4279640600
0.04247693 -0.0015697388 0.39500001 4279838492
0.04375989 -0.0015697388 0.39500001 4279576856
0.044928819 -0.0015657649 0.39400002 4279451680
0.046208534 -0.0015657649 0.39400002 4279586600
0.047488246 -0.0015657649 0.39400002 4279718699
0.048644178 -0.0015617908 0.39300001 4279717680
0.051197108 -0.0015617908 0.39300001 4286094987
0.055306535 -0.0015697388 0.39500001 4286026628
0.056589499 -0.0015697388 0.39500001 4286092421
0.058018975 -0.0015737129 0.39600003 4286026628
0.05930518 -0.0015737129 0.39600003 4285895812
0.060744397 -0.001577687 0.39700001 4286356617
0.062190115 -0.0015816611 0.39800003 4286028165
0.063482814 -0.0015816611 0.39800003 4284317545
0.06493827 -0.001585635 0.39900002 4281489214
0.066400222 -0.001589609 0.40000001 4280307252
0.067699425 -0.001589609 0.40000001 4280044850
0.069171123 -0.001593583 0.40100002 4279783986
0.070825063 -0.0016015311 0.40300003 4279718447
0.072491996 -0.0016094792 0.40500003 4279389480
0.074171908 -0.0016174271 0.40700001 4279323941
0.075864829 -0.0016253751 0.40900001 4279061537
0.077381998 -0.0016293493 0.41000003 4279062050
0.078905657 -0.0016333233 0.41100001 4279062048
0.080631055 -0.0016412713 0.41300002 4279127841
0.082170963 -0.0016452454 0.41400003 4279193634
0.083919086 -0.0016531934 0.41600001 4279127841
0.085475236 -0.0016571674 0.41700003 4279127841
0.086829655 -0.0016571674 0.41700003 4278864669
0.088395543 -0.0016611414 0.41800001 4278996255
0.089967929 -0.0016651155 0.41900003 4278469911
0.091328844 -0.0016651155 0.41900003 4278272532
0.09268976 -0.0016651155 0.41900003 4278404118
0.094275124 -0.0016690894 0.42000002 4278733083
0.095639288 -0.0016690894 0.42000002 4278666777
0.097003452 -0.0016690894 0.42000002 4278929433
0.098367609 -0.0016690894 0.42000002 4279192605
0.099969231 -0.0016730635 0.42100003 4278994459
0.10133664 -0.0016730635 0.42100003 4278994459
0.10270405 -0.0016730635 0.42100003 4279191838
0.10431866 -0.0016770376 0.42200002 4279717668
0.10568931 -0.0016770376 0.42200002 4279716385
0.10705996 -0.0016770376 0.42200002 4278530828
0.10868756 -0.0016810115 0.42300001 4278198528
0.11006147 -0.0016810115 0.42300001 4278529548
0.11169882 -0.0016849856 0.42400002 4280568879
0.11307598 -0.0016849856 0.42400002 4279385371
0.11472306 -0.0016889595 0.42500001 4279453213
0.11637665 -0.0016929336 0.42600003 4279584799
0.1177603 -0.0016929336 0.42600003 4279388707
0.11914395 -0.0016929336 0.42600003 4279322660
0.12081052 -0.0016969076 0.42700002 4279647010
0.034955263 -0.00028779331 0.39700001 4280694055
0.036244716 -0.00028779331 0.39700001 4279969817
0.037439633 -0.00028706843 0.39600003 4279706645
0.038725842 -0.00028706843 0.39600003 4279509268
0.039911009 -0.00028634348 0.39500001 4280101151
0.04119397 -0.00028634348 0.39500001 4279837979
0.04247693 -0.00028634348 0.39500001 4279903772
0.04375989 -0.00028634348 0.39500001 4279772953
0.044928819 -0.00028561856 0.39400002 4279055125
0.046208534 -0.00028561856 0.39400002 4279125533
0.047488246 -0.00028561856 0.39400002 4278995744
0.048767958 -0.00028561856 0.39400002 4279062050
0.05004767 -0.00028561856 0.39400002 4279785521
0.051327381 -0.00028561856 0.39400002 4280375610
0.052607097 -0.00028561856 0.39400002 4284056172
0.053886805 -0.00028561856 0.39400002 4285897349
0.055306535 -0.00028634348 0.39500001 4285634177
0.056589499 -0.00028634348 0.39500001 4284713588
0.058018975 -0.00028706843 0.39600003 4283004254
0.05930518 -0.00028706843 0.39600003 4280767290
0.060744397 -0.00028779331 0.39700001 4280307756
0.062190115 -0.00028851826 0.39800003 4280571698
0.063482814 -0.00028851826 0.39800003 4280046637
0.06493827 -0.00028924318 0.39900002 4279783979
0.066400222 -0.00028996807 0.40000001 4278995746
0.067699425 -0.00028996807 0.40000001 4279062052
0.069171123 -0.00029069302 0.40100002 4278996257
0.070649318 -0.00029141793 0.40200001 4279325222
0.072313003 -0.00029286777 0.40400001 4279127843
0.073989674 -0.00029431761 0.40600002 4279325220
0.07549385 -0.00029504253 0.40700001 4278865953
0.07719326 -0.00029649236 0.40900001 4278800160
0.078713678 -0.00029721731 0.41000003 4278733853
0.080240592 -0.0002979422 0.41100001 4278733853
0.081774004 -0.00029866715 0.41200003 4278536474
0.083313905 -0.00029939206 0.41300002 4278470681
0.08486031 -0.00030011698 0.41400003 4278535704
0.086413205 -0.0003008419 0.41500002 4278667290
0.087972596 -0.00030156682 0.41600001 4278864669
0.089538485 -0.00030229174 0.41700003 4278995742
0.090892904 -0.00030229174 0.41700003 4279060765
0.092468537 -0.00030301666 0.41800001 4279060765
0.093826197 -0.00030301666 0.41800001 4278928666
0.095411584 -0.00030374157 0.41900003 4279126045
0.096772492 -0.00030374157 0.41900003 4279519519
0.0981334 -0.00030374157 0.41900003 4279387933
0.099731773 -0.00030446649 0.42000002 4278532115
0.10109594 -0.00030446649 0.42000002 4278199297
0.10270405 -0.00030519141 0.42100003 4278197504
0.10407146 -0.00030519141 0.42100003 4279187478
0.10543887 -0.00030519141 0.42100003 4279976994
0.10705996 -0.00030591633 0.42200002 4280240166
0.10843062 -0.00030591633 0.42200002 4279911715
0.11006147 -0.00030664125 0.42300001 4279715106
0.11143538 -0.00030664125 0.42300001 4279516703
0.11307598 -0.00030736616 0.42400002 4279779615
0.11472306 -0.00030809108 0.42500001 4279650592
0.11610346 -0.00030809108 0.42500001 4279650592
0.1177603 -0.00030881603 0.42600003 4279848488
0.11914395 -0.00030881603 0.42600003 4279123998
0.1205276 -0.00030881603 0.42600003 4285500538
0.036153425 0.00099957618 0.39600003 4280101918
0.037439633 0.00099957618 0.39600003 4279969047
0.038628045 0.00099705195 0.39500001 4280034840
0.04119397 0.00099705195 0.39500001 4280495391
0.04247693 0.00099705195 0.39500001 4280957225
0.043649107 0.00099452771 0.39400002 4280365088
0.044928819 0.00099452771 0.39400002 4279382039
0.046208534 0.00099452771 0.39400002 4278926103
0.047488246 0.00099452771 0.39400002 4278731802
0.048767958 0.00099452771 0.39400002 4278733085
0.05004767 0.00099452771 0.39400002 4278996257
0.051327381 0.00099452771 0.39400002 4279391015
0.052607097 0.00099452771 0.39400002 4279061539
0.054023571 0.00099705195 0.39500001 4279521066
0.055306535 0.00099705195 0.39500001 4279454762
0.056732766 0.00099957618 0.39600003 4279388969
0.058018975 0.00099957618 0.39600003 4279521066
0.05930518 0.00099957618 0.39600003 4279389734
0.060744397 0.0010021003 0.39700001 4279193634
0.062190115 0.0010046245 0.39800003 4279127841
0.063482814 0.0010046245 0.39800003 4278996255
0.06493827 0.0010071486 0.39900002 4279127841
0.066400222 0.0010096728 0.40000001 4279127841
0.067699425 0.0010096728 0.40000001 4279194404
0.069171123 0.001012197 0.40100002 4278997279
0.070649318 0.0010147212 0.40200001 4278997279
0.072313003 0.0010197696 0.40400001 4278405142
0.073807433 0.0010222938 0.40500003 4278602521
0.07530836 0.0010248179 0.40600002 4278536728
0.076815784 0.001027342 0.40700001 4278405142
0.078329705 0.0010298663 0.40800002 4278733337
0.080045357 0.0010349146 0.41000003 4278733337
0.08157552 0.0010374389 0.41100001 4278798617
0.083112173 0.0010399631 0.41200003 4278930203
0.08465533 0.0010424872 0.41300002 4279061019
0.085996754 0.0010424872 0.41300002 4278929433
0.087549657 0.0010450114 0.41400003 4278929179
0.089109041 0.0010475356 0.41500002 4279257631
0.090674929 0.0010500597 0.41600001 4279716898
0.0920261 0.0010500597 0.41600001 4278927384
0.093601733 0.0010525839 0.41700003 4278267660
0.094956152 0.0010525839 0.41700003 4278198273
0.096541531 0.0010551082 0.41800001 4278530062
0.097899191 0.0010551082 0.41800001 4280109094
0.099494316 0.0010576323 0.41900003 4280437543
0.10085523 0.0010576323 0.41900003 4280043297
0.10246009 0.0010601565 0.42000002 4279977504
0.10407146 0.0010626807 0.42100003 4280043297
0.10543887 0.0010626807 0.42100003 4280175655
0.10705996 0.0010652049 0.42200002 4279451932
0.10843062 0.0010652049 0.42200002 4278266886
0.11006147 0.001067729 0.42300001 4279386650
0.11143538 0.001067729 0.42300001 4278199554
0.11307598 0.0010702532 0.42400002 4279780897
0.11445314 0.0010702532 0.42400002 4279715615
0.11610346 0.0010727773 0.42500001 4279716385
0.1177603 0.0010753016 0.42600003 4279453217
0.11914395 0.0010753016 0.42600003 4280240174
0.1205276 0.0010753016 0.42600003 4286288773
0.034955263 0.0022919939 0.39700001 4280759333
0.036244716 0.0022919939 0.39700001 4280232989
0.037439633 0.0022862207 0.39600003 4280100633
0.038725842 0.0022862207 0.39600003 4280298012
0.04375989 0.0022804472 0.39500001 4281220395
0.04504285 0.0022804472 0.39500001 4279513111
0.046325814 0.0022804472 0.39500001 4278858259
0.04760877 0.0022804472 0.39500001 4278731291
0.048767958 0.0022746741 0.39400002 4278468630
0.050174691 0.0022804472 0.39500001 4278667290
0.051457655 0.0022804472 0.39500001 4278536474
0.052740615 0.0022804472 0.39500001 4282417493
0.054023571 0.0022804472 0.39500001 4281627466
0.055306535 0.0022804472 0.39500001 4279719469
0.056732766 0.0022862207 0.39600003 4279193636
0.058018975 0.0022862207 0.39600003 4278997027
0.059454937 0.0022919939 0.39700001 4279063332
0.060744397 0.0022919939 0.39700001 4278931746
0.062190115 0.0022977672 0.39800003 4279063332
0.063482814 0.0022977672 0.39800003 4278865953
0.06493827 0.0023035405 0.39900002 4278339609
0.066400222 0.0023093137 0.40000001 4278470681
0.067699425 0.0023093137 0.40000001 4278470681
0.069171123 0.002315087 0.40100002 4278536474
0.070649318 0.0023208603 0.40200001 4278602521
0.07213401 0.0023266335 0.40300003 4278864923
0.073807433 0.0023381801 0.40500003 4278272786
0.07530836 0.0023439534 0.40600002 4278732570
0.076815784 0.0023497266 0.40700001 4278929951
0.078329705 0.0023554999 0.40800002 4279127328
0.079850122 0.0023612732 0.40900001 4278732824
0.081178561 0.0023612732 0.40900001 4279126299
0.082708716 0.0023670467 0.41000003 4279454750
0.084245376 0.0023728197 0.41100001 4279519519
0.085788533 0.0023785932 0.41200003 4278664212
0.087338179 0.0023843665 0.41300002 4278200325
0.088679604 0.0023843665 0.41300002 4278199044
0.090239003 0.0023901397 0.41400003 4279648289
0.091804892 0.002395913 0.41500002 4280109610
0.09337727 0.0024016863 0.41600001 4279911461
0.09472844 0.0024016863 0.41600001 4279715106
0.096310571 0.0024074595 0.41700003 4279254555
0.097899191 0.0024132328 0.41800001 4279780897
0.099256858 0.0024132328 0.41800001 4279911711
0.10085523 0.0024190061 0.41900003 4279320346
0.10246009 0.0024247793 0.42000002 4278530830
0.10407146 0.0024305528 0.42100003 4279780897
0.10543887 0.0024305528 0.42100003 4278660621
0.10705996 0.0024363259 0.42200002 4279778848
0.10843062 0.0024363259 0.42200002 4278726927
0.10980128 0.0024363259 0.42200002 4280109094
0.11143538 0.0024420992 0.42300001 4279187992
0.11280929 0.0024420992 0.42300001 4279912996
0.11445314 0.0024478727 0.42400002 4279782180
0.11583027 0.0024478727 0.42400002 4279782180
0.11748386 0.0024536457 0.42500001 4280372014
0.11914395 0.0024594192 0.42600003 4286290822
0.034955263 0.0035818873 0.39700001 4279838744
0.036244716 0.0035818873 0.39700001 4280167198
0.037534177 0.0035818873 0.39700001 4280232221
0.038725842 0.0035728649 0.39600003 4280100122
0.046325814 0.0035638425 0.39500001 4279252504
0.04760877 0.0035638425 0.39500001 4278795800
0.048891731 0.0035638425 0.39500001 4278599189
0.050174691 0.0035638425 0.39500001 4278600214
0.051457655 0.0035638425 0.39500001 4278798363
0.052740615 0.0035638425 0.39500001 4278470681
0.054023571 0.0035638425 0.39500001 4278733855
0.055446554 0.0035728649 0.39600003 4278668576
0.056732766 0.0035728649 0.39600003 4278602783
0.058018975 0.0035728649 0.39600003 4278734367
0.059454937 0.0035818873 0.39700001 4278471195
0.060744397 0.0035818873 0.39700001 4278471195
0.062190115 0.0035909098 0.39800003 4278208023
0.063482814 0.0035909098 0.39800003 4278667290
0.06493827 0.0035999322 0.39900002 4278798363
0.066400222 0.0036089544 0.40000001 4278929949
0.067699425 0.0036089544 0.40000001 4278666777
0.069171123 0.003617977 0.40100002 4278929949
0.070649318 0.0036269992 0.40200001 4278798363
0.07213401 0.0036360216 0.40300003 4278863386
0.073625192 0.0036450441 0.40400001 4279258144
0.07530836 0.0036630889 0.40600002 4279191838
0.076627053 0.0036630889 0.40600002 4279586082
0.078137718 0.0036721111 0.40700001 4279453215
0.079654895 0.0036811335 0.40800002 4278333964
0.081178561 0.0036901559 0.40900001 4278196736
0.082506984 0.0036901559 0.40900001 4278460169
0.084040403 0.0036991783 0.41000003 4278595855
0.085580304 0.0037082008 0.41100001 4279780899
0.08712671 0.0037172232 0.41200003 4279780899
0.088464886 0.0037172232 0.41200003 4279845922
0.090021029 0.0037262456 0.41300002 4279715619
0.091583677 0.003735268 0.41400003 4278200841
0.093152806 0.0037442902 0.41500002 4278200842
0.09472844 0.0037533126 0.41600001 4279057176
0.09607961 0.0037533126 0.41600001 4279978024
0.097664982 0.0037623351 0.41700003 4279451680
0.099256858 0.0037713575 0.41800001 4278660880
0.10085523 0.0037803799 0.41900003 4278397197
0.10246009 0.0037894021 0.42000002 4279319324
0.10407146 0.0037984247 0.42100003 4278200586
0.10543887 0.0037984247 0.42100003 4280372266
0.10705996 0.0038074469 0.42200002 4280306473
0.10843062 0.0038074469 0.42200002 4280503852
0.10980128 0.0038074469 0.42200002 4279056406
0.11143538 0.0038164693 0.42300001 4279781160
0.11280929 0.0038164693 0.42300001 4279781930
0.11445314 0.0038254918 0.42400002 4279979307
0.11583027 0.0038254918 0.42400002 4280045100
0.034955263 0.004871781 0.39700001 4280561184
0.036244716 0.004871781 0.39700001 4280429598
0.037534177 0.004871781 0.39700001 4280429085
0.038823631 0.004871781 0.39700001 4279902741
0.043870676 0.0048595094 0.39600003 4283064137
0.045156885 0.0048595094 0.39600003 4279317016
0.046443094 0.0048595094 0.39600003 4279253017
0.047729302 0.0048595094 0.39600003 4278926103
0.049015511 0.0048595094 0.39600003 4278730007
0.050301719 0.0048595094 0.39600003 4278664982
0.051587928 0.0048595094 0.39600003 4279257633
0.05287414 0.0048595094 0.39600003 4278798363
0.054160345 0.0048595094 0.39600003 4278666777
0.055446554 0.0048595094 0.39600003 4278601497
0.056732766 0.0048595094 0.39600003 4278864669
0.058165487 0.004871781 0.39700001 4278733083
0.059454937 0.004871781 0.39700001 4278930462
0.060897406 0.0048840526 0.39800003 4278733083
0.062190115 0.0048840526 0.39800003 4278930462
0.063642316 0.0048963241 0.39900002 4278929179
0.06493827 0.0048963241 0.39900002 4278928666
0.066400222 0.0049085952 0.40000001 4278532113
0.067868672 0.0049208668 0.40100002 4278202122
0.069171123 0.0049208668 0.40100002 4278862359
0.070649318 0.0049331384 0.40200001 4279453726
0.07213401 0.0049454099 0.40300003 4278727439
0.073625192 0.0049576815 0.40400001 4278198528
0.075122878 0.0049699531 0.40500003 4278330121
0.076627053 0.0049822242 0.40600002 4278787851
0.078137718 0.0049944958 0.40700001 4278787853
0.079654895 0.0050067673 0.40800002 4278787853
0.080980077 0.0050067673 0.40800002 4278589709
0.082506984 0.0050190389 0.40900001 4278918928
0.084040403 0.0050313105 0.41000003 4280043301
0.085372083 0.0050313105 0.41000003 4279517727
0.086915232 0.0050435816 0.41100001 4278790672
0.088464886 0.0050558536 0.41200003 4278460683
0.089803062 0.0050558536 0.41200003 4278858775
0.091362454 0.0050681247 0.41300002 4279780129
0.092928343 0.0050803963 0.41400003 4279121685
0.094500728 0.0050926679 0.41500002 4279647775
0.09607961 0.005104939 0.41600001 4278267660
0.097664982 0.005117211 0.41700003 4279846692
0.099256858 0.0051294821 0.41800001 4280306473
0.10085523 0.0051417537 0.41900003 4280109094
0.10246009 0.0051540253 0.42000002 4279780129
0.10407146 0.0051662968 0.42100003 4278595601
0.10543887 0.0051662968 0.42100003 4278198273
0.10705996 0.0051785684 0.42200002 4278726160
0.10843062 0.0051785684 0.42200002 4280371498
0.11006147 0.0051908395 0.42300001 4280437805
0.11143538 0.0051908395 0.42300001 4279979309
0.11280929 0.0051908395 0.42300001 4280307504
0.035043314 0.0061771953 0.39800003 4280824356
0.036336016 0.0061771953 0.39800003 4280758563
0.037628721 0.0061771953 0.39800003 4280494878
0.038921427 0.0061771953 0.39800003 4280692770
0.045270916 0.0061616744 0.39700001 4279448602
0.046560373 0.0061616744 0.39700001 4279253017
0.04784983 0.0061616744 0.39700001 4278926103
0.049015511 0.0061461544 0.39600003 4278466835
0.050301719 0.0061461544 0.39600003 4278927386
0.051587928 0.0061461544 0.39600003 4279059740
0.05287414 0.0061461544 0.39600003 4279126047
0.054160345 0.0061461544 0.39600003 4279060765
0.055446554 0.0061461544 0.39600003 4278929949
0.056876026 0.0061616744 0.39700001 4279061535
0.058165487 0.0061616744 0.39700001 4278995742
0.059454937 0.0061616744 0.39700001 4279061535
0.060897406 0.0061771953 0.39800003 4278929179
0.062190115 0.0061771953 0.39800003 4279060765
0.063642316 0.0061927158 0.39900002 4279191838
0.06493827 0.0061927158 0.39900002 4279257117
0.066400222 0.0062082363 0.40000001 4279452193
0.067868672 0.0062237573 0.40100002 4279583779
0.069171123 0.0062237573 0.40100002 4279847203
0.070649318 0.0062392773 0.40200001 4278198277
0.07213401 0.0062547983 0.40300003 4278721547
0.073625192 0.0062703188 0.40400001 4278721547
0.075122878 0.0062858397 0.40500003 4278721549
0.076627053 0.0063013597 0.40600002 4279116820
0.078137718 0.0063168802 0.40700001 4279841313
0.07945966 0.0063168802 0.40700001 4279446555
0.080980077 0.0063324012 0.40800002 4280367657
0.082506984 0.0063479217 0.40900001 4278262281
0.083835423 0.0063479217 0.40900001 4279976994
0.085372083 0.0063634426 0.41000003 4278200069
0.086703762 0.0063634426 0.41000003 4278985232
0.08825016 0.0063789627 0.41100001 4279183381
0.089803062 0.0063944836 0.41200003 4278397710
0.091362454 0.0064100041 0.41300002 4278397962
0.092928343 0.0064255251 0.41400003 4279845920
0.094500728 0.0064410456 0.41500002 4280306471
0.09607961 0.0064565656 0.41600001 4280503338
0.097664982 0.0064720865 0.41700003 4278529548
0.099256858 0.006487607 0.41800001 4278198787
0.10085523 0.006503128 0.41900003 4278464269
0.10246009 0.006518648 0.42000002 4280240426
0.10407146 0.006534169 0.42100003 4280569391
0.10568931 0.0065496895 0.42200002 4280240426
0.10705996 0.0065496895 0.42200002 4280371498
0.10843062 0.0065496895 0.42200002 4280765743
0.11006147 0.0065652099 0.42300001 4280107561
0.033750609 0.0074703381 0.39800003 4280364577
0.036427312 0.0074891075 0.39900002 4280758048
0.037723266 0.0074891075 0.39900002 4280560669
0.044092245 0.0074703381 0.39800003 4279841822
0.045384951 0.0074703381 0.39800003 4279515678
0.046677656 0.0074703381 0.39800003 4279121947
0.04784983 0.0074515683 0.39700001 4278925849
0.049139284 0.0074515683 0.39700001 4278664214
0.050428741 0.0074515683 0.39700001 4279058972
0.051718198 0.0074515683 0.39700001 4279125533
0.053007659 0.0074515683 0.39700001 4278862875
0.054297112 0.0074515683 0.39700001 4279257633
0.055586569 0.0074515683 0.39700001 4278994459
0.056876026 0.0074515683 0.39700001 4279060765
0.058165487 0.0074515683 0.39700001 4279521318
0.059604701 0.0074703381 0.39800003 4279060767
0.060897406 0.0074703381 0.39800003 4279258144
0.062346369 0.0074891075 0.39900002 4278863386
0.063642316 0.0074891075 0.39900002 4278994459
0.06510102 0.007507877 0.40000001 4278993177
0.066400222 0.007507877 0.40000001 4278196480
0.067868672 0.0075266473 0.40100002 4279254301
0.069343619 0.0075454167 0.40200001 4278791955
0.070825063 0.0075641866 0.40300003 4279249685
0.072313003 0.007582956 0.40400001 4279182098
0.073807433 0.0076017259 0.40500003 4279642651
0.075122878 0.0076017259 0.40500003 4278986004
0.076627053 0.0076204957 0.40600002 4279841826
0.078137718 0.0076392652 0.40700001 4278262794
0.07945966 0.0076392652 0.40700001 4280894512
0.080980077 0.007658035 0.40800002 4280236071
0.08230526 0.007658035 0.40800002 4279512859
0.083835423 0.0076768044 0.40900001 4280371750
0.085163854 0.0076768044 0.40900001 4278265093
0.086703762 0.0076955743 0.41000003 4279710236
0.08825016 0.0077143437 0.41100001 4280698928
0.089803062 0.0077331141 0.41200003 4279253019
0.091362454 0.0077518835 0.41300002 4278199303
0.092928343 0.0077706533 0.41400003 4278397708
0.094500728 0.0077894228 0.41500002 4279647775
0.09607961 0.0078081922 0.41600001 4280174119
0.097664982 0.0078269625 0.41700003 4279977254
0.099256858 0.0078457315 0.41800001 4279978278
0.10085523 0.0078645013 0.41900003 4279912996
0.10246009 0.0078832712 0.42000002 4279781412
0.10407146 0.0079020411 0.42100003 4279715365
0.035131361 0.0087854993 0.39900002 4280693540
0.036427312 0.0087854993 0.39900002 4280494878
0.037723266 0.0087854993 0.39900002 4280890149
0.045384951 0.0087634809 0.39800003 4279450398
0.046677656 0.0087634809 0.39800003 4279187740
0.047970362 0.0087634809 0.39800003 4278729240
0.049263064 0.0087634809 0.39800003 4278730007
0.050428741 0.0087414617 0.39700001 4279124763
0.051718198 0.0087414617 0.39700001 4279125533
0.053007659 0.0087414617 0.39700001 4279125533
0.054297112 0.0087414617 0.39700001 4279520291
0.055586569 0.0087414617 0.39700001 4279257633
0.056876026 0.0087414617 0.39700001 4279126047
0.058312003 0.0087634809 0.39800003 4278994461
0.059604701 0.0087634809 0.39800003 4279191838
0.061050415 0.0087854993 0.39900002 4279060765
0.062346369 0.0087854993 0.39900002 4279126558
0.063801818 0.0088075176 0.40000001 4279257631
0.06510102 0.0088075176 0.40000001 4279584801
0.066400222 0.0088075176 0.40000001 4278858513
0.067868672 0.0088295368 0.40100002 4279846692
0.069343619 0.0088515552 0.40200001 4278196228
0.070825063 0.0088735744 0.40300003 4280104994
0.072313003 0.0088955928 0.40400001 4280960303
0.073807433 0.008917612 0.40500003 4279710236
0.075122878 0.008917612 0.40500003 4278722832
0.076627053 0.0089396304 0.40600002 4279248406
0.078137718 0.0089616496 0.40700001 4278853135
0.07945966 0.0089616496 0.40700001 4278853648
0.080980077 0.0089836689 0.40800002 4278919187
0.08230526 0.0089836689 0.40800002 4280172073
0.083835423 0.0090056872 0.40900001 4278200331
0.085163854 0.0090056872 0.40900001 4278198022
0.086703762 0.0090277065 0.41000003 4278790931
0.088035442 0.0090277065 0.41000003 4280503086
0.089585088 0.0090497248 0.41100001 4280503084
0.091141239 0.009071744 0.41200003 4279845668
0.092928343 0.0091157816 0.41400003 4279912231
0.094500728 0.0091378 0.41500002 4280109610
0.09607961 0.0091598183 0.41600001 4279912744
0.097664982 0.0091818376 0.41700003 4279781158
0.099256858 0.0092038559 0.41800001 4279648291
0.10085523 0.0092258751 0.41900003 4281752386
0.10407146 0.0092699127 0.42100003 4286619017
0.036518607 0.010107159 0.40000001 4283786838
0.03781781 0.010107159 0.40000001 4280167196
0.042907074 0.010081891 0.39900002 4283459406
0.044203028 0.010081891 0.39900002 4279776281
0.045498982 0.010081891 0.39900002 4279450396
0.046794936 0.010081891 0.39900002 4279319324
0.048090886 0.010081891 0.39900002 4278597908
0.049263064 0.010056623 0.39800003 4278730007
0.050555769 0.010056623 0.39800003 4279059740
0.051848475 0.010056623 0.39800003 4279257119
0.05314118 0.010056623 0.39800003 4279454498
0.054433882 0.010056623 0.39800003 4279454498
0.055726588 0.010056623 0.39800003 4279126047
0.057019293 0.010056623 0.39800003 4278994461
0.058312003 0.010056623 0.39800003 4279126045
0.059754461 0.010081891 0.39900002 4279126045
0.061050415 0.010081891 0.39900002 4279191838
0.062502623 0.010107159 0.40000001 4279191838
0.063801818 0.010107159 0.40000001 4278994459
0.06510102 0.010107159 0.40000001 4278728724
0.066566229 0.010132426 0.40100002 4280437543
0.067868672 0.010132426 0.40100002 4280109862
0.069343619 0.010157694 0.40200001 4278591757
0.070825063 0.010182963 0.40300003 4278919441
0.072313003 0.01020823 0.40400001 4278853135
0.073807433 0.010233498 0.40500003 4278721549
0.075122878 0.010233498 0.40500003 4278852111
0.076627053 0.010258766 0.40600002 4278983697
0.078137718 0.010284034 0.40700001 4278721295
0.07945966 0.010284034 0.40700001 4278853394
0.080980077 0.010309302 0.40800002 4279579936
0.08230526 0.010309302 0.40800002 4280107815
0.08363045 0.010309302 0.40800002 4279911461
0.085163854 0.010334569 0.40900001 4280043047
0.086492293 0.010334569 0.40900001 4279846692
0.088035442 0.010359838 0.41000003 4279912485
0.089585088 0.010385105 0.41100001 4279978278
0.091141239 0.010410374 0.41200003 4279846692
0.092703879 0.010435641 0.41300002 4279648543
0.094500728 0.010486177 0.41500002 4280371498
0.09607961 0.010511445 0.41600001 4282935892
0.044313814 0.0114068 0.40000001 4279842588
0.045613013 0.0114068 0.40000001 4279187224
0.046912216 0.0114068 0.40000001 4278990359
0.048090886 0.011378283 0.39900002 4278597908
0.04938684 0.011378283 0.39900002 4278927386
0.050682791 0.011378283 0.39900002 4278928670
0.051848475 0.011349767 0.39800003 4278928670
0.05314118 0.011349767 0.39800003 4279192353
0.054433882 0.011349767 0.39800003 4279192351
0.055726588 0.011349767 0.39800003 4279126558
0.057162557 0.011378283 0.39900002 4279192353
0.058458511 0.011378283 0.39900002 4279060767
0.059754461 0.011378283 0.39900002 4279126560
0.06120342 0.0114068 0.40000001 4279060765
0.062502623 0.0114068 0.40000001 4279060765
0.063801818 0.0114068 0.40000001 4278862875
0.065263778 0.011435317 0.40100002 4278199817
0.066566229 0.011435317 0.40100002 4279385371
0.06803792 0.011463834 0.40200001 4279451932
0.069343619 0.011463834 0.40200001 4278722578
0.070825063 0.011492351 0.40300003 4278918674
0.072313003 0.011520868 0.40400001 4278393097
0.073807433 0.011549385 0.40500003 4278986002
0.075122878 0.011549385 0.40500003 4280171555
0.076627053 0.011577902 0.40600002 4280502573
0.078137718 0.011606419 0.40700001 4280109612
0.07945966 0.011606419 0.40700001 4279846440
0.080781594 0.011606419 0.40700001 4280109610
0.08230526 0.011634936 0.40800002 4279847205
0.08363045 0.011634936 0.40800002 4279847205
0.084955633 0.011634936 0.40800002 4279913766
0.086492293 0.011663453 0.40900001 4279847203
0.087820716 0.011663453 0.40900001 4279386139
0.089367121 0.01169197 0.41000003 4281226042
0.091141239 0.011749004 0.41200003 4284449131
0.04171541 0.012706441 0.40000001 4283063885
0.043014612 0.012706441 0.40000001 4279578902
0.044313814 0.012706441 0.40000001 4279514906
0.045613013 0.012706441 0.40000001 4279319578
0.046912216 0.012706441 0.40000001 4279057176
0.048211414 0.012706441 0.40000001 4278729494
0.04938684 0.012674675 0.39900002 4278993179
0.050682791 0.012674675 0.39900002 4279322912
0.051978745 0.012674675 0.39900002 4279059740
0.053274699 0.012674675 0.39900002 4279323426
0.054570649 0.012674675 0.39900002 4279257633
0.055866603 0.012674675 0.39900002 4279323426
0.057162557 0.012674675 0.39900002 4279323426
0.058458511 0.012674675 0.39900002 4279126560
0.059904218 0.012706441 0.40000001 4279126560
0.06120342 0.012706441 0.40000001 4278929179
0.062658884 0.012738207 0.40100002 4279060765
0.063961327 0.012738207 0.40100002 4279257119
0.065263778 0.012738207 0.40100002 4278859543
0.066566229 0.012738207 0.40100002 4279847203
0.06803792 0.012769973 0.40200001 4279781410
0.069516115 0.012801739 0.40300003 4279978026
0.070825063 0.012801739 0.40300003 4279911979
0.072313003 0.012833506 0.40400001 4279714854
0.073807433 0.012865272 0.40500003 4279912231
0.075122878 0.012865272 0.40500003 4279847203
0.076627053 0.012897038 0.40600002 4279781410
0.077945739 0.012897038 0.40600002 4279651109
0.07945966 0.012928803 0.40700001 4279716902
0.080781594 0.012928803 0.40700001 4280045354
0.082103528 0.012928803 0.40700001 4279452447
0.08342547 0.012928803 0.40700001 4281028663
0.084955633 0.01296057 0.40800002 4283593822
0.04312215 0.014041097 0.40100002 4279382809
0.044313814 0.014006081 0.40000001 4279450396
0.045613013 0.014006081 0.40000001 4279385371
0.046912216 0.014006081 0.40000001 4279057176
0.048211414 0.014006081 0.40000001 4278795287
0.049510613 0.014006081 0.40000001 4279124763
0.050682791 0.013971067 0.39900002 4279125533
0.051978745 0.013971067 0.39900002 4279257119
0.053274699 0.013971067 0.39900002 4279323426
0.054570649 0.013971067 0.39900002 4279257633
0.055866603 0.013971067 0.39900002 4279258146
0.05730582 0.014006081 0.40000001 4279126560
0.058605023 0.014006081 0.40000001 4279126560
0.059904218 0.014006081 0.40000001 4279323939
0.061356433 0.014041097 0.40100002 4279192353
0.062658884 0.014041097 0.40100002 4279060767
0.063961327 0.014041097 0.40100002 4278795798
0.065263778 0.014041097 0.40100002 4279123480
0.066732228 0.014076112 0.40200001 4280044582
0.06803792 0.014076112 0.40200001 4279584799
0.069516115 0.014111128 0.40300003 4279585316
0.071000807 0.014146143 0.40400001 4279716902
0.072313003 0.014146143 0.40400001 4279585062
0.073807433 0.014181159 0.40500003 4279519269
0.075122878 0.014181159 0.40500003 4279650596
0.076627053 0.014216173 0.40600002 4279255584
0.077945739 0.014216173 0.40600002 4280699698
0.079264425 0.014216173 0.40600002 4283988578
0.044424601 0.015343987 0.40100002 4279514654
0.045613013 0.015305722 0.40000001 4279385371
0.046912216 0.015305722 0.40000001 4278794004
0.048211414 0.015305722 0.40000001 4278927386
0.049510613 0.015305722 0.40000001 4279520291
0.050809812 0.015305722 0.40000001 4279125531
0.051978745 0.015267458 0.39900002 4279454496
0.053274699 0.015267458 0.39900002 4279126045
0.054707415 0.015305722 0.40000001 4279257631
0.056006618 0.015305722 0.40000001 4279652389
0.05730582 0.015305722 0.40000001 4279323424
0.058605023 0.015305722 0.40000001 4279323424
0.060053982 0.015343987 0.40100002 4279323424
0.061356433 0.015343987 0.40100002 4279455012
0.062658884 0.015343987 0.40100002 4279389219
0.064120829 0.015382251 0.40200001 4279519523
0.065426528 0.015382251 0.40200001 4279716902
0.066732228 0.015382251 0.40200001 4279782182
0.068207167 0.015420516 0.40300003 4279650596
0.069516115 0.015420516 0.40300003 4279583781
0.071000807 0.015458779 0.40400001 4279846186
0.072313003 0.015458779 0.40400001 4282410318
0.044424601 0.016646877 0.40100002 4284053090
0.045727048 0.016646877 0.40100002 4279251734
0.046912216 0.016605362 0.40000001 4279385371
0.048211414 0.016605362 0.40000001 4279058972
0.049510613 0.016605362 0.40000001 4279059740
0.050809812 0.016605362 0.40000001 4279257117
0.052109014 0.016605362 0.40000001 4279323424
0.053408217 0.016605362 0.40000001 4279389471
0.054707415 0.016605362 0.40000001 4279323424
0.056006618 0.016605362 0.40000001 4279389219
0.05730582 0.016605362 0.40000001 4279389219
0.058751538 0.016646877 0.40100002 4279586598
0.060053982 0.016646877 0.40100002 4279389219
0.061356433 0.016646877 0.40100002 4279586084
0.062815137 0.01668839 0.40200001 4279783463
0.064120829 0.01668839 0.40200001 4279649572
0.046912216 0.017905002 0.40000001 4281160251
0.048211414 0.017905002 0.40000001 4278859545
0.049510613 0.017905002 0.40000001 4279452963
0.050809812 0.017905002 0.40000001 4279257121
0.052109014 0.017905002 0.40000001 4279586600
0.053408217 0.017905002 0.40000001 4279389221
0.054707415 0.017905002 0.40000001 4279586600
0.056006618 0.017905002 0.40000001 4279454500
0.057449088 0.017949766 0.40100002 4279519523
0.052109014 0.019204644 0.40000001 4280831797
0.053408217 0.019204644 0.40000001 4281227069
0.054707415 0.019204644 0.40000001 4283660900
0.075078286 0.0038457534 0.40830272 4294967295
0.075078286 0.0038457534 0.40830272 4294901760
0.075018883 0.0033492949 0.40830222 4294901760
0.074959479 0.0028528366 0.40830174 4294901760
0.074900076 0.0023563781 0.40830123 4294901760
0.074840672 0.0018599199 0.40830076 4294901760
0.074781269 0.0013634614 0.40830025 4294901760
0.074721865 0.00086700288 0.40829977 4294901760
0.074662462 0.00037054438 0.40829927 4294901760
0.074603058 -0.00012591365 0.40829879 4294901760
0.074543655 -0.00062237238 0.40829828 4294901760
0.074484251 -0.0011188306 0.40829781 4294901760
0.074424848 -0.0016152889 0.4082973 4294901760
0.074365444 -0.0021117476 0.40829682 4294901760
0.074306041 -0.0026082059 0.40829632 4294901760
0.074246638 -0.0031046646 0.40829581 4294901760
0.074187234 -0.0036011229 0.40829533 4294901760
0.074127831 -0.0040975809 0.40829483 4294901760
0.07406842 -0.0045940401 0.40829435 4294901760
0.074009016 -0.0050904984 0.40829384 4294901760
0.073949613 -0.0055869566 0.40829337 4294901760
0.073890209 -0.0060834149 0.40829286 4294901760
0.073830806 -0.0065798732 0.40829238 4294901760
0.073771402 -0.0070763314 0.40829188 4294901760
0.073711999 -0.0075727906 0.4082914 4294901760
0.073652595 -0.0080692489 0.40829089 4294901760
0.073593192 -0.0085657071 0.40829039 4294901760
0.073533788 -0.0090621654 0.40828991 4294901760
0.073474385 -0.0095586246 0.4082894 4294901760
0.073414981 -0.010055083 0.40828893 4294901760
0.073355578 -0.01055154 0.40828842 4294901760
0.073296174 -0.011047999 0.40828794 4294901760
0.073236771 -0.011544458 0.40828744 4294901760
0.073177367 -0.012040915 0.40828696 4294901760
0.073117964 -0.012537375 0.40828645 4294901760
0.07305856 -0.013033833 0.40828598 4294901760
0.072999157 -0.013530292 0.40828547 4294901760
0.072939754 -0.01402675 0.40828499 4294901760
0.07288035 -0.014523208 0.40828449 4294901760
0.072820947 -0.015019666 0.40828398 4294901760
0.072761543 -0.015516125 0.4082835 4294901760
0.07270214 -0.016012583 0.408283 4294901760
0.072642736 -0.016509041 0.40828252 4294901760
0.072583333 -0.017005499 0.40828201 4294901760
0.072523929 -0.01750196 0.40828153 4294901760
0.072464526 -0.017998416 0.40828103 4294901760
0.072405122 -0.018494874 0.40828055 4294901760
0.072345719 -0.018991334 0.40828004 4294901760
0.072286315 -0.019487793 0.40827957 4294901760
0.072226912 -0.019984251 0.40827906 4294901760
0.072167508 -0.020480709 0.40827858 4294901760
0.072108105 -0.020977167 0.40827808 4294901760
0.072048694 -0.021473626 0.40827757 4294901760
0.07198929 -0.021970084 0.40827709 4294901760
0.071929887 -0.02246654 0.40827659 4294901760
0.071870483 -0.022963002 0.40827611 4294901760
0.07181108 -0.023459461 0.4082756 4294901760
0.071751676 -0.023955919 0.40827513 4294901760
0.071692273 -0.024452375 0.40827462 4294901760
0.07163287 -0.024948834 0.40827414 4294901760
0.071573466 -0.025445292 0.40827364 4294901760
0.071514063 -0.025941752 0.40827316 4294901760
0.071454659 -0.02643821 0.40827265 4294901760
0.071395256 -0.026934668 0.40827218 4294901760
0.071335852 -0.027431125 0.40827167 4294901760
0.071276449 -0.027927583 0.40827116 4294901760
0.071217045 -0.028424041 0.40827069 4294901760
0.071157642 -0.028920503 0.40827018 4294901760
0.071098238 -0.029416962 0.4082697 4294901760
0.071038835 -0.02991342 0.4082692 4294901760
0.070979431 -0.030409878 0.40826872 4294901760
0.070920028 -0.030906336 0.40826821 4294901760
0.070860624 -0.031402793 0.40826774 4294901760
0.070801221 -0.031899251 0.40826723 4294901760
0.070741817 -0.032395709 0.40826675 4294901760
0.070682414 -0.032892168 0.40826625 4294901760
0.07062301 -0.033388626 0.40826577 4294901760
0.070563607 -0.033885084 0.40826526 4294901760
0.070504203 -0.034381542 0.40826476 4294901760
0.0704448 -0.034878001 0.40826428 4294901760
0.070385396 -0.035374459 0.40826377 4294901760
0.070325993 -0.035870917 0.4082633 4294901760
0.07026659 -0.036367375 0.40826279 4294901760
0.070207186 -0.036863834 0.40826231 4294901760
0.070147783 -0.037360292 0.40826181 4294901760
0.070088372 -0.03785675 0.40826133 4294901760
0.070028968 -0.038353212 0.40826082 4294901760
0.069969565 -0.03884967 0.40826035 4294901760
0.069910161 -0.039346129 0.40825984 4294901760
0.069850758 -0.039842583 0.40825933 4294901760
0.069791354 -0.040339042 0.40825886 4294901760
0.069731951 -0.0408355 0.40825835 4294901760
0.069672547 -0.041331962 0.40825787 4294901760
0.069613144 -0.04182842 0.40825737 4294901760
0.06955374 -0.042324878 0.40825689 4294901760
0.069494337 -0.042821337 0.40825638 4294901760
0.069434933 -0.043317795 0.4082559 4294901760
0.06937553 -0.043814253 0.4082554 4294901760
0.069316126 -0.044310711 0.40825492 4294901760
0.069256723 -0.04480717 0.40825441 4294901760
0.069197319 -0.045303628 0.40825394 4294901760
0.069137916 -0.045800086 0.40825343 4294901760
0.075078286 0.0038457534 0.40830272 4278255360
0.075533576 0.0037910778 0.40850201 4278255360
0.075988866 0.0037364021 0.40870133 4278255360
0.076444156 0.0036817263 0.40890062 4278255360
0.076899447 0.0036270507 0.40909994 4278255360
0.077354737 0.003572375 0.40929922 4278255360
0.077810027 0.0035176994 0.40949854 4278255360
0.078265317 0.0034630238 0.40969783 4278255360
0.078720607 0.0034083482 0.40989715 4278255360
0.079175897 0.0033536723 0.41009644 4278255360
0.079631187 0.0032989967 0.41029575 4278255360
0.080086477 0.0032443211 0.41049504 4278255360
0.080541767 0.0031896455 0.41069436 4278255360
0.080997057 0.0031349696 0.41089365 4278255360
0.081452347 0.003080294 0.41109297 4278255360
0.081907645 0.0030256184 0.41129225 4278255360
0.082362927 0.0029709428 0.41149157 4278255360
0.082818225 0.0029162671 0.41169086 4278255360
0.083273515 0.0028615913 0.41189018 4278255360
0.083728805 0.0028069159 0.41208947 4278255360
0.084184095 0.00275224 0.41228878 4278255360
0.084639385 0.0026975644 0.41248807 4278255360
0.085094675 0.0026428886 0.41268739 4278255360
0.085549966 0.002588213 0.41288668 4278255360
0.086005256 0.0025335373 0.413086 4278255360
0.086460546 0.0024788617 0.41328529 4278255360
0.086915836 0.0024241861 0.41348457 4278255360
0.087371126 0.0023695105 0.41368389 4278255360
0.087826416 0.0023148349 0.41388318 4278255360
0.088281706 0.0022601592 0.4140825 4278255360
0.088736996 0.0022054831 0.41428179 4278255360
0.089192286 0.0021508075 0.4144811 4278255360
0.089647576 0.0020961321 0.41468039 4278255360
0.090102866 0.0020414563 0.41487971 4278255360
0.090558156 0.0019867807 0.415079 4278255360
0.091013446 0.001932105 0.41527832 4278255360
0.091468737 0.0018774292 0.4154776 4278255360
0.091924027 0.0018227536 0.41567692 4278255360
0.092379317 0.0017680782 0.41587621 4278255360
0.092834607 0.0017134026 0.41607553 4278255360
0.093289897 0.0016587267 0.41627482 4278255360
0.093745187 0.0016040511 0.41647413 4278255360
0.094200477 0.0015493755 0.41667342 4278255360
0.094655767 0.0014946996 0.41687274 4278255360
0.095111057 0.001440024 0.41707203 4278255360
0.095566347 0.0013853484 0.41727135 4278255360
0.096021637 0.0013306728 0.41747063 4278255360
0.096476927 0.0012759971 0.41766995 4278255360
0.096932217 0.0012213215 0.41786924 4278255360
0.097387508 0.0011666457 0.41806856 4278255360
0.097842798 0.0011119701 0.41826785 4278255360
0.098298088 0.0010572944 0.41846713 4278255360
0.098753378 0.0010026188 0.41866645 4278255360
0.099208668 0.00094794319 0.41886574 4278255360
0.099663965 0.00089326734 0.41906506 4278255360
0.10011926 0.00083859172 0.41926435 4278255360
0.10057455 0.0007839161 0.41946366 4278255360
0.10102984 0.00072924048 0.41966295 4278255360
0.10148513 0.00067456486 0.41986227 4278255360
0.10194041 0.00061988924 0.42006156 4278255360
0.10239571 0.00056521315 0.42026088 4278255360
0.102851 0.00051053753 0.42046016 4278255360
0.10330629 0.00045586191 0.42065948 4278255360
0.10376158 0.00040118652 0.42085877 4278255360
0.10421687 0.0003465109 0.42105809 4278255360
0.10467216 0.00029183528 0.42125738 4278255360
0.10512745 0.0002371592 0.42145669 4278255360
0.10558274 0.00018248358 0.42165598 4278255360
0.10603803 0.00012780796 0.4218553 4278255360
0.10649332 7.3132338e-05 0.42205459 4278255360
0.10694861 1.8456718e-05 0.42225391 4278255360
0.1074039 -3.6218902e-05 0.42245319 4278255360
0.10785919 -9.0894988e-05 0.42265251 4278255360
0.10831448 -0.00014557061 0.4228518 4278255360
0.10876977 -0.00020024623 0.42305112 4278255360
0.10922506 -0.00025492138 0.42325041 4278255360
0.10968035 -0.000309597 0.4234497 4278255360
0.11013564 -0.00036427262 0.42364901 4278255360
0.11059093 -0.00041894824 0.4238483 4278255360
0.11104622 -0.00047362433 0.42404762 4278255360
0.11150151 -0.00052829995 0.42424691 4278255360
0.1119568 -0.00058297557 0.42444623 4278255360
0.1124121 -0.00063765119 0.42464551 4278255360
0.11286739 -0.00069232681 0.42484483 4278255360
0.11332268 -0.00074700243 0.42504412 4278255360
0.11377797 -0.00080167851 0.42524344 4278255360
0.11423326 -0.00085635413 0.42544273 4278255360
0.11468855 -0.00091102975 0.42564204 4278255360
0.11514384 -0.00096570537 0.42584133 4278255360
0.11559913 -0.001020381 0.42604065 4278255360
0.11605442 -0.0010750566 0.42623994 4278255360
0.11650971 -0.0011297322 0.42643926 4278255360
0.116965 -0.0011844079 0.42663854 4278255360
0.11742029 -0.0012390835 0.42683786 4278255360
0.11787558 -0.0012937591 0.42703715 4278255360
0.11833087 -0.0013484347 0.42723647 4278255360
0.11878616 -0.0014031103 0.42743576 4278255360
0.11924145 -0.0014577864 0.42763507 4278255360
0.11969674 -0.001512462 0.42783436 4278255360
0.12015203 -0.0015671377 0.42803365 4278255360
0.12060732 -0.0016218133 0.42823297 4278255360
0.075078286 0.0038457534 0.40830272 4278190335
0.074848883 0.0038727622 0.40874618 4278190335
0.074619479 0.0038997708 0.40918961 4278190335
0.074390084 0.0039267796 0.40963307 4278190335
0.07416068 0.0039537884 0.4100765 4278190335
0.073931277 0.0039807968 0.41051996 4278190335
0.073701873 0.0040078056 0.41096342 4278190335
0.07347247 0.0040348144 0.41140684 4278190335
0.073243067 0.0040618232 0.4118503 4278190335
0.073013671 0.0040888321 0.41229373 4278190335
0.072784267 0.0041158404 0.41273719 4278190335
0.072554864 0.0041428492 0.41318065 4278190335
0.072325461 0.0041698581 0.41362408 4278190335
0.072096057 0.0041968669 0.41406754 4278190335
0.071866661 0.0042238752 0.414511 4278190335
0.071637258 0.0042508841 0.41495442 4278190335
0.071407855 0.0042778929 0.41539788 4278190335
0.071178451 0.0043049017 0.41584131 4278190335
0.070949048 0.0043319101 0.41628477 4278190335
0.070719644 0.0043589189 0.41672823 4278190335
0.070490249 0.0043859277 0.41717166 4278190335
0.070260845 0.0044129365 0.41761512 4278190335
0.070031442 0.0044399453 0.41805854 4278190335
0.069802038 0.0044669537 0.418502 4278190335
0.069572635 0.0044939625 0.41894546 4278190335
0.069343239 0.0045209713 0.41938889 4278190335
0.069113836 0.0045479801 0.41983235 4278190335
0.068884432 0.004574989 0.42027581 4278190335
0.068655029 0.0046019973 0.42071924 4278190335
0.068425626 0.0046290061 0.42116269 4278190335
0.068196222 0.004656015 0.42160612 4278190335
0.067966826 0.0046830233 0.42204958 4278190335
0.067737423 0.0047100321 0.42249304 4278190335
0.06750802 0.004737041 0.42293647 4278190335
0.067278616 0.0047640498 0.42337993 4278190335
0.067049213 0.0047910586 0.42382336 4278190335
0.066819809 0.004818067 0.42426682 4278190335
0.066590413 0.0048450758 0.42471027 4278190335
0.06636101 0.0048720846 0.4251537 4278190335
