# .PCD v0.7 - Point Cloud Data file format
VERSION 0.7
FIELDS x y z rgb
SIZE 4 4 4 4
TYPE F F F U
COUNT 1 1 1 1
WIDTH 1008
HEIGHT 1
VIEWPOINT 0 0 0 1 0 0 0
POINTS 1008
DATA ascii
-0.003380951 -0.006109355 0.36000001 4286590495
-0.0022178141 -0.0061263256 0.36100003 4287050274
-0.0010452853 -0.0061263256 0.36100003 4287312933
0.00012759588 -0.0061432957 0.36200002 4287049763
0.0013033724 -0.0061432957 0.36200002 4287445557
0.0024859975 -0.0061602662 0.36300001 4290805102
0.0036549256 -0.0061432957 0.36200002 4287446059
0.0050041811 -0.0063639116 0.37500003 4288037171
0.0062553659 -0.0063978522 0.377 4286790450
0.0075195436 -0.0064317929 0.37900001 4287184175
0.0087505365 -0.0064317929 0.37900001 4287972144
0.010007866 -0.0064487639 0.38000003 4287775022
0.011242107 -0.0064487639 0.38000003 4286196764
0.01250918 -0.006465734 0.38100001 4286264610
0.013746668 -0.006465734 0.38100001 4285806885
-0.0092017232 -0.0049259574 0.35900003 4286949265
-0.0080356905 -0.0049259574 0.35900003 4287271807
-0.0068696574 -0.0049259574 0.35900003 4284103470
-0.0057036243 -0.0049259574 0.35900003 4285082910
-0.0045375922 -0.0049259574 0.35900003 4285804062
-0.003380951 -0.0049396786 0.36000001 4286197280
-0.0022116704 -0.0049396786 0.36000001 4286328350
-0.0010423897 -0.0049396786 0.36000001 4286722338
0.0001272434 -0.0049533998 0.36100003 4286853667
0.0012997721 -0.0049533998 0.36100003 4287443751
0.002479149 -0.0049671209 0.36200002 4287312681
0.0036448294 -0.0049533998 0.36100003 4288761410
0.0050175255 -0.0051592197 0.37600002 4288431675
0.0062719584 -0.0051866625 0.37800002 4287840562
0.0075195436 -0.0052003837 0.37900001 4287840560
0.0087736258 -0.0052141049 0.38000003 4286130971
0.010034202 -0.0052278261 0.38100001 4285146132
0.011301276 -0.0052415477 0.38200003 4285411105
0.012542013 -0.0052415477 0.38200003 4284360214
0.013782749 -0.0052415477 0.38200003 4285348392
-0.0091760904 -0.003749057 0.35800001 4286686863
-0.0080133062 -0.003749057 0.35800001 4283781698
-0.0068505215 -0.003749057 0.35800001 4284628784
-0.0056877369 -0.003749057 0.35800001 4285017371
-0.0045375922 -0.0037595294 0.35900003 4285212697
-0.0033715598 -0.0037595294 0.35900003 4285475097
-0.0022116704 -0.0037700015 0.36000001 4285539863
-0.0010423897 -0.0037700015 0.36000001 4285933592
0.00012689093 -0.0037700015 0.36000001 4286064408
0.0012997721 -0.003780474 0.36100003 4286918690
0.0024723008 -0.003780474 0.36100003 4287443751
0.0036448294 -0.003780474 0.36100003 4287574313
0.0050175255 -0.0039375573 0.37600002 4288431162
0.0062719584 -0.0039585019 0.37800002 4287511597
0.0075393845 -0.0039794459 0.38000003 4286130201
0.0087967133 -0.0039899182 0.38100001 4284688152
0.010060539 -0.0040003904 0.38200003 4283768851
0.01133086 -0.0040108627 0.38300002 4283570702
0.012574845 -0.0040108627 0.38300002 4284427294
0.013818828 -0.0040108627 0.38300002 4285283369
-0.01150166 -0.0025858786 0.35800001 4286884242
-0.010338875 -0.0025858786 0.35800001 4286686865
-0.0091760904 -0.0025858786 0.35800001 4286686095
-0.0080133062 -0.0025858786 0.35800001 4283385911
-0.0068505215 -0.0025858786 0.35800001 4284561706
-0.0056877369 -0.0025858786 0.35800001 4285477922
-0.0045249527 -0.0025858786 0.35800001 4285016088
-0.0033715598 -0.0025931017 0.35900003 4284884502
-0.0022055269 -0.0025931017 0.35900003 4285015318
-0.0010423897 -0.0026003248 0.36000001 4285343002
0.00012689093 -0.0026003248 0.36000001 4285737244
0.0012997721 -0.0026075481 0.36100003 4286262557
0.0024723008 -0.0026075481 0.36100003 4286722338
0.0036549256 -0.002614771 0.36200002 4287378726
0.0048307027 -0.002614771 0.36200002 4287313446
0.0063051437 -0.0027447874 0.38000003 4287250222
0.007559225 -0.0027520105 0.38100001 4285672219
0.0088198027 -0.0027592336 0.38200003 4285090369
0.010086875 -0.0027664567 0.38300002 4285487955
0.011360444 -0.0027736798 0.384 4283834903
0.012607677 -0.0027736798 0.384 4284163609
0.01389099 -0.0027809029 0.38500002 4284493087
0.015180798 -0.002788126 0.38600001 4284822822
0.016434528 -0.002788126 0.38600001 4287597176
-0.011469533 -0.0014187261 0.35700002 4286947466
-0.010309996 -0.0014187261 0.35700002 4287869084
-0.0091504594 -0.0014187261 0.35700002 4287605398
-0.0079909237 -0.0014187261 0.35700002 4283710512
-0.0068313861 -0.0014187261 0.35700002 4284954667
-0.0056718495 -0.0014187261 0.35700002 4285477152
-0.0045249527 -0.0014227 0.35800001 4285805604
-0.0033715598 -0.0014266741 0.35900003 4284358417
-0.0022055269 -0.0014266741 0.35900003 4284555798
-0.0010423897 -0.0014306481 0.36000001 4285213980
0.00012689093 -0.0014306481 0.36000001 4285213980
0.0012997721 -0.0014346222 0.36100003 4285475869
0.002479149 -0.0014385962 0.36200002 4285869855
0.0036549256 -0.0014385962 0.36200002 4286263327
0.0048307027 -0.0014385962 0.36200002 4286131741
0.0063217357 -0.0015141026 0.38100001 4286001184
0.0075790659 -0.0015180766 0.38200003 4284029454
0.0088428911 -0.0015220506 0.38300002 4288787358
0.010113211 -0.0015260245 0.384 4288525985
0.011390029 -0.0015299987 0.38500002 4282587664
0.01264051 -0.0015299987 0.38500002 4283769110
0.013927069 -0.0015339727 0.38600001 4284296478
0.015180798 -0.0015339727 0.38600001 4284559650
0.016477104 -0.0015379468 0.38700002 4283839782
0.017734082 -0.0015379468 0.38700002 4288456083
-0.011469533 -0.00025879653 0.35700002 4282798650
-0.010309996 -0.00025879653 0.35700002 4282535478
-0.0091504594 -0.00025879653 0.35700002 4281942058
-0.0079685394 -0.00025807158 0.35600001 4284495915
-0.0068313861 -0.00025879653 0.35700002 4284888615
-0.0056718495 -0.00025879653 0.35700002 4285476639
-0.0045249527 -0.00025952145 0.35800001 4285674018
-0.0033621681 -0.00025952145 0.35800001 4284818968
-0.0022055269 -0.00026024636 0.35900003 4284227603
-0.0010423897 -0.00026097128 0.36000001 4284424982
0.0001272434 -0.0002616962 0.36100003 4284622359
0.0012997721 -0.0002616962 0.36100003 4285280543
0.002479149 -0.00026242112 0.36200002 4286070059
0.0036650221 -0.00026314604 0.36300001 4285806887
0.0048440467 -0.00026314604 0.36300001 4285542945
0.0060230712 -0.00026314604 0.36300001 4285542945
0.0075989058 -0.00027764443 0.38300002 4288049505
0.0088659786 -0.00027836935 0.384 4287409301
0.010139548 -0.0002790943 0.38500002 4287278228
0.011390029 -0.0002790943 0.38500002 4283909686
0.012673343 -0.00027981919 0.38600001 4283770393
0.013927069 -0.00027981919 0.38600001 4284691495
0.015220128 -0.00028054413 0.38700002 4284757288
0.016477104 -0.00028054413 0.38700002 4285611314
0.017734082 -0.00028054413 0.38700002 4286466112
-0.011469533 0.000901133 0.35700002 4282337834
-0.010309996 0.000901133 0.35700002 4282534445
-0.0091248276 0.00089860882 0.35600001 4282203429
-0.0079685394 0.00089860882 0.35600001 4284429859
-0.0068122507 0.00089860882 0.35600001 4284953121
-0.0056559616 0.00089860882 0.35600001 4285803807
-0.0045249527 0.00090365717 0.35800001 4286330408
-0.0033621681 0.00090365717 0.35800001 4283571731
-0.0022055269 0.00090618141 0.35900003 4282850577
-0.0010452853 0.00091122976 0.36100003 4283176973
0.0001272434 0.00091122976 0.36100003 4284228632
0.0013033724 0.00091375393 0.36200002 4285017630
0.0024859975 0.00091627805 0.36300001 4285412902
0.0036751186 0.00091880228 0.36400002 4285413672
0.0048440467 0.00091627805 0.36300001 4283637776
0.0060396637 0.00091880228 0.36400002 4280945410
0.0075989058 0.00096676173 0.38300002 4289571230
0.0088659786 0.0009692859 0.384 4287344023
0.010139548 0.00097181014 0.38500002 4287278230
0.011419613 0.00097433425 0.38600001 4286545519
0.012706175 0.00097685843 0.38700002 4282851606
0.013963151 0.00097685843 0.38700002 4284297251
0.015259456 0.00097938266 0.38800001 4284428837
0.016519681 0.00097938266 0.38800001 4285741871
0.017734082 0.00097685843 0.38700002 4287316792
0.018991059 0.00097685843 0.38700002 4286004529
-0.0090991966 0.002049516 0.35500002 4282659869
-0.007946156 0.002049516 0.35500002 4284757025
-0.0067931153 0.002049516 0.35500002 4285215777
-0.0056400741 0.002049516 0.35500002 4286460965
-0.0045249527 0.0020668358 0.35800001 4285606683
-0.0033621681 0.0020668358 0.35800001 4287733904
-0.0022055269 0.002072609 0.35900003 4287275920
-0.0010452853 0.0020841558 0.36100003 4286081627
0.00012759588 0.0020899288 0.36200002 4283969056
0.0013069729 0.0020957021 0.36300001 4284294423
0.002492846 0.0021014756 0.36400002 4284951837
0.0036953117 0.0021130221 0.36600003 4283638544
0.0048573916 0.0021014756 0.36400002 4284299819
0.0063217357 0.0021996212 0.38100001 4281347107
0.0075989058 0.0022111679 0.38300002 4281414958
0.0088659786 0.002216941 0.384 4287540889
0.010165884 0.0022284877 0.38600001 4287343510
0.011449198 0.002234261 0.38700002 4288653723
0.012706175 0.002234261 0.38700002 4282591516
0.013999231 0.0022400343 0.38800001 4283837470
0.015259456 0.0022400343 0.38800001 4284363298
0.016519681 0.0022400343 0.38800001 4286003242
0.017734082 0.002234261 0.38700002 4287644726
-0.0090991966 0.0032029471 0.35500002 4283776807
-0.007946156 0.0032029471 0.35500002 4285216293
-0.0067931153 0.0032029471 0.35500002 4285411357
-0.0056400741 0.0032029471 0.35500002 4286592805
-0.004461755 0.0031849022 0.35300002 4289163873
-0.0033621681 0.0032300141 0.35800001 4288062354
-0.0022055269 0.0032390368 0.35900003 4285558109
-0.0010481807 0.0032661038 0.36200002 4283643173
0.00012794834 0.003275126 0.36300001 4283773473
0.0013105734 0.0032841486 0.36400002 4284820251
0.002506543 0.0033021935 0.36600003 4286531123
0.003705408 0.0033112157 0.36700001 4281929728
0.0050308695 0.0034014394 0.377 4283053866
0.0063051437 0.0034285069 0.38000003 4283783758
0.0075790659 0.0034465517 0.38200003 4280494626
0.0088659786 0.0034645961 0.384 4288461223
0.010165884 0.003482641 0.38600001 4287475098
0.011449198 0.0034916636 0.38700002 4288918690
0.012739007 0.0035006858 0.38800001 4281672211
0.014035312 0.0035097084 0.38900003 4283705114
0.015298785 0.0035097084 0.38900003 4284296991
0.016562259 0.0035097084 0.38900003 4285936938
-0.0090991966 0.0043563787 0.35500002 4283839520
-0.007946156 0.0043563787 0.35500002 4285280543
-0.0067931153 0.0043563787 0.35500002 4285738269
-0.0056400741 0.0043563787 0.35500002 4286856750
-0.004461755 0.0043318355 0.35300002 4290287234
-0.0033621681 0.0043931929 0.35800001 4284431405
-0.0022055269 0.0044054645 0.35900003 4285744437
-0.0010481807 0.0044422788 0.36200002 4284362532
0.00012794834 0.0044545503 0.36300001 4284098845
0.0013141739 0.0044790935 0.36500001 4285148185
0.0025133914 0.0045036362 0.36700001 4286663221
0.0037356974 0.0045404509 0.37 4282063119
0.0050175255 0.0046140798 0.37600002 4279898378
0.0062885508 0.0046508941 0.37900001 4279637777
0.007559225 0.0046754372 0.38100001 4282467646
0.0088890679 0.0047245231 0.38500002 4287210642
0.010165884 0.0047367946 0.38600001 4287343771
0.011478783 0.0047613373 0.38800001 4288722081
0.01277184 0.0047736093 0.38900003 4281672722
0.014035312 0.0047736093 0.38900003 4284032536
0.015338113 0.0047858804 0.39000002 4284558880
0.016604833 0.0047858804 0.39000002 4285476898
0.017963205 0.0048104236 0.39200002 4286986026
0.019236421 0.0048104236 0.39200002 4286788129
0.020509636 0.0048104236 0.39200002 4289751639
-0.012593693 0.0055253301 0.35600001 4281612568
-0.011437405 0.0055253301 0.35600001 4281415189
-0.010252237 0.0055098101 0.35500002 4282462744
-0.0090991966 0.0055098101 0.35500002 4284627753
-0.007946156 0.0055098101 0.35500002 4285411357
-0.0067931153 0.0055098101 0.35500002 4285869852
-0.0056400741 0.0055098101 0.35500002 4286659114
-0.0045123133 0.005540851 0.35700002 4286070059
-0.0033715598 0.0055718925 0.35900003 4285874990
-0.0022116704 0.005587413 0.36000001 4285085990
-0.0010481807 0.005618454 0.36200002 4284428062
0.00012830083 0.0056494954 0.36400002 4284755744
0.0013177744 0.0056805364 0.36600003 4285607453
0.0025202399 0.0057115778 0.36800003 4284820505
0.0037457941 0.0057581393 0.37100002 4285952869
0.0050041811 0.0058202217 0.37500003 4284114774
0.0062719584 0.0058667837 0.37800002 4282995014
0.007559225 0.0059133451 0.38100001 4281942072
0.0088890679 0.0059754276 0.38500002 4285433464
0.010192221 0.006006469 0.38700002 4287277978
0.011508367 0.00603751 0.38900003 4286482806
0.012804672 0.0060530305 0.39000002 4281998609
0.014071392 0.0060530305 0.39000002 4283768597
0.015377442 0.0060685514 0.39100003 4285149480
0.016647412 0.0060685514 0.39100003 4286134828
0.017963205 0.0060840719 0.39200002 4286263586
0.019236421 0.0060840719 0.39200002 4286591522
0.020509636 0.0060840719 0.39200002 4286920233
-0.013749982 0.0066820108 0.35600001 4282336289
-0.012593693 0.0066820108 0.35600001 4281085200
-0.011437405 0.0066820108 0.35600001 4281084689
-0.010252237 0.0066632414 0.35500002 4284170282
-0.0090991966 0.0066632414 0.35500002 4285020710
-0.007946156 0.0066632414 0.35500002 4285738269
-0.0067931153 0.0066632414 0.35500002 4286396196
-0.0056559616 0.0066820108 0.35600001 4286462762
-0.0045123133 0.0067007807 0.35700002 4285475869
-0.0033715598 0.00673832 0.35900003 4285543974
-0.0022116704 0.0067570894 0.36000001 4284229400
-0.0010481807 0.0067946292 0.36200002 4284558363
0.00012830083 0.0068321684 0.36400002 4285148187
0.0013177744 0.0068697082 0.36600003 4286529325
0.0025202399 0.0069072475 0.36800003 4284757027
0.0037457941 0.0069635562 0.37100002 4285761911
0.0050041811 0.0070386352 0.37500003 4281813050
0.0062719584 0.0070949444 0.37800002 4281745458
0.0075393845 0.0071324836 0.38000003 4283587662
0.0089121563 0.0072451015 0.38600001 4284577126
0.010218557 0.0072826408 0.38800001 4287409305
0.011508367 0.0073014111 0.38900003 4282398762
0.012837506 0.0073389504 0.39100003 4283377950
0.014107473 0.0073389504 0.39100003 4284163355
0.01541677 0.0073577198 0.39200002 4284885794
0.016689988 0.0073577198 0.39200002 4285409822
0.017963205 0.0073577198 0.39200002 4286001186
0.019236421 0.0073577198 0.39200002 4286199592
0.020509636 0.0073577198 0.39200002 4285216297
-0.013749982 0.0078386907 0.35600001 4281152013
-0.012593693 0.0078386907 0.35600001 4280624399
-0.011437405 0.0078386907 0.35600001 4280492302
-0.010281117 0.0078386907 0.35600001 4285154097
-0.0090991966 0.0078166723 0.35500002 4285085474
-0.0079685394 0.0078386907 0.35600001 4286132000
-0.0068122507 0.0078386907 0.35600001 4286790954
-0.0056559616 0.0078386907 0.35600001 4285739809
-0.0045249527 0.0078827282 0.35800001 4285083164
-0.0033715598 0.0079047475 0.35900003 4285150500
-0.0022116704 0.0079267658 0.36000001 4283834644
-0.0010481807 0.0079708034 0.36200002 4284820255
0.00012830083 0.0080148419 0.36400002 4285409824
0.0013177744 0.0080588795 0.36600003 4286727989
0.0025202399 0.0081029171 0.36800003 4284366896
0.0037457941 0.008168973 0.37100002 4282009661
0.0049908361 0.0082350289 0.37400001 4281482553
0.0062387735 0.0082790665 0.37600002 4285167725
0.0074997037 0.0083231041 0.37800002 4281350700
0.0089583332 0.0085432921 0.38800001 4283524951
0.010244895 0.0085653113 0.38900003 4288396200
0.011537951 0.0085873296 0.39000002 4282263066
0.012870338 0.0086313672 0.39200002 4283507221
0.014143554 0.0086313672 0.39200002 4284556570
0.01541677 0.0086313672 0.39200002 4284753179
0.016732562 0.0086533865 0.39300001 4285935141
0.018009027 0.0086533865 0.39300001 4286265131
0.019285493 0.0086533865 0.39300001 4283971884
-0.014948144 0.0090206396 0.35700002 4281809945
-0.013749982 0.0089953709 0.35600001 4280691212
-0.012593693 0.0089953709 0.35600001 4280361227
-0.011437405 0.0089953709 0.35600001 4279965956
-0.010281117 0.0089953709 0.35600001 4284691749
-0.0091248276 0.0089953709 0.35600001 4285807400
-0.0079685394 0.0089953709 0.35600001 4286263586
-0.0068122507 0.0089953709 0.35600001 4286659114
-0.0056718495 0.0090206396 0.35700002 4284819222
-0.0045249527 0.0090459064 0.35800001 4285676328
-0.0033715598 0.009071175 0.35900003 4286007859
-0.0022116704 0.0090964427 0.36000001 4284032534
-0.0010452853 0.0091217114 0.36100003 4284689181
0.00012794834 0.0091722459 0.36300001 4285280289
0.0013177744 0.0092480499 0.36600003 4285085224
0.0025202399 0.0092985863 0.36800003 4282656539
0.0037457941 0.0093743894 0.37100002 4281941302
0.0049774921 0.0094249258 0.37300003 4292732637
0.0062221815 0.0094754612 0.37500003 4284244288
0.0074798628 0.0095259966 0.377 4282729764
0.0089814216 0.009829212 0.38900003 4281020704
0.010271231 0.0098544797 0.39000002 4286350453
0.011567537 0.0098797483 0.39100003 4283378463
0.01290317 0.0099302828 0.39300001 4284295708
0.014179633 0.0099302828 0.39300001 4285015834
0.015456098 0.0099302828 0.39300001 4285475615
0.016732562 0.0099302828 0.39300001 4285935396
0.018009027 0.0099302828 0.39300001 4286402113
0.019285493 0.0099302828 0.39300001 4287538322
-0.014948144 0.010180569 0.35700002 4282401314
-0.013749982 0.010152051 0.35600001 4280822030
-0.012593693 0.010152051 0.35600001 4280492813
-0.011437405 0.010152051 0.35600001 4281081868
-0.010281117 0.010152051 0.35600001 4285216293
-0.0091248276 0.010152051 0.35600001 4285937703
-0.0079685394 0.010152051 0.35600001 4286920233
-0.0068122507 0.010152051 0.35600001 4286459682
-0.0056718495 0.010180569 0.35700002 4284752146
-0.0045249527 0.010209085 0.35800001 4285940016
-0.0033621681 0.010209085 0.35800001 4284560673
-0.0022116704 0.01026612 0.36000001 4283902747
-0.0010452853 0.010294638 0.36100003 4284689181
0.00012830083 0.010380188 0.36400002 4285411875
0.0013177744 0.010437222 0.36600003 4283967772
0.0025202399 0.010494256 0.36800003 4282263582
0.0037457941 0.010579807 0.37100002 4281873449
0.0049774921 0.010636841 0.37300003 4287006068
0.0062055886 0.010665358 0.37400001 4286151500
0.0074401824 0.010693875 0.37500003 4287795292
0.00900451 0.01112163 0.39000002 4284835142
0.010297568 0.011150148 0.39100003 4281674775
0.01159712 0.011178664 0.39200002 4283311387
0.012936003 0.011235698 0.39400002 4284624160
0.014215714 0.011235698 0.39400002 4285476385
0.015495427 0.011235698 0.39400002 4285278236
0.016775141 0.011235698 0.39400002 4284688152
0.018009027 0.011207181 0.39300001 4289830027
-0.013749982 0.011308732 0.35600001 4280822028
-0.012593693 0.011308732 0.35600001 4280556808
-0.011437405 0.011308732 0.35600001 4282919963
-0.010281117 0.011308732 0.35600001 4285740840
-0.0091248276 0.011308732 0.35600001 4286132772
-0.0079685394 0.011308732 0.35600001 4287576366
-0.0068122507 0.011308732 0.35600001 4287510573
-0.0056718495 0.011340499 0.35700002 4285343002
-0.0045249527 0.011372264 0.35800001 4285807664
-0.0033621681 0.011372264 0.35800001 4284496167
-0.0022116704 0.011435797 0.36000001 4283771931
-0.0010452853 0.011467564 0.36100003 4284754974
0.00012830083 0.011562862 0.36400002 4285082910
0.0013177744 0.011626394 0.36600003 4282653711
0.0025202399 0.011689926 0.36800003 4282001691
0.0037356974 0.011753458 0.37 4281609246
0.0049641472 0.011816991 0.37200001 4284833866
0.0061889961 0.011848757 0.37300003 4281412107
0.0074203415 0.011880523 0.37400001 4281740554
0.00900451 0.01238878 0.39000002 4282334236
0.010297568 0.012420547 0.39100003 4281477650
0.012968834 0.01254761 0.39500001 4285344799
0.014251795 0.01254761 0.39500001 4285474588
0.015534755 0.01254761 0.39500001 4285934369
0.016817717 0.01254761 0.39500001 4284953638
-0.014906271 0.012465413 0.35600001 4280691471
-0.013749982 0.012465413 0.35600001 4280756753
-0.012593693 0.012465413 0.35600001 4281344527
-0.011437405 0.012465413 0.35600001 4284299558
-0.010281117 0.012465413 0.35600001 4286068776
-0.0091248276 0.012465413 0.35600001 4286328868
-0.0079685394 0.012465413 0.35600001 4291064424
-0.0068122507 0.012465413 0.35600001 4287774769
-0.0056718495 0.012500429 0.35700002 4287641130
-0.0045249527 0.012535443 0.35800001 4287708206
-0.0033621681 0.012535443 0.35800001 4286002983
-0.0022055269 0.012570458 0.35900003 4284556820
-0.0010452853 0.012640489 0.36100003 4285344283
0.00012830083 0.012745535 0.36400002 4286068006
0.0013177744 0.012815565 0.36600003 4282786580
0.0025270884 0.012920611 0.36900002 4282001691
0.0037457941 0.012990641 0.37100002 4281541656
0.0049641472 0.013025655 0.37200001 4283781180
0.0061889961 0.013060671 0.37300003 4281544207
0.0074203415 0.013095686 0.37400001 4282596893
0.011745043 0.013901036 0.39700001 4284951328
0.012968834 0.013831005 0.39500001 4285869600
0.014251795 0.013831005 0.39500001 4286065696
0.015534755 0.013831005 0.39500001 4286460200
0.016817717 0.013831005 0.39500001 4285152560
-0.014906271 0.013622093 0.35600001 4281745445
-0.013749982 0.013622093 0.35600001 4281152538
-0.012593693 0.013622093 0.35600001 4281539593
-0.011437405 0.013622093 0.35600001 4285218089
-0.010281117 0.013622093 0.35600001 4286593575
-0.0091248276 0.013622093 0.35600001 4287250222
-0.0079685394 0.013622093 0.35600001 4287641896
-0.0068122507 0.013622093 0.35600001 4287047962
-0.0056718495 0.013660357 0.35700002 4288099882
-0.0045123133 0.013660357 0.35700002 4288429872
-0.0033621681 0.013698622 0.35800001 4288364849
-0.0022055269 0.013736886 0.35900003 4288891193
-0.0010423897 0.01377515 0.36000001 4288828732
0.00012865329 0.013966472 0.36500001 4287448880
0.0013213749 0.014043001 0.36700001 4282192906
0.0025270884 0.014119529 0.36900002 4282132510
0.0037457941 0.014196058 0.37100002 4281213974
0.0049641472 0.014234321 0.37200001 4284835919
0.0061889961 0.014272586 0.37300003 4283651379
0.0077774702 0.014999609 0.39200002 4284638011
0.013001667 0.015152666 0.39600003 4286066207
0.014287875 0.015152666 0.39600003 4286524705
0.015574085 0.015152666 0.39600003 4286064154
0.016817717 0.015114401 0.39500001 4287262301
-0.014906271 0.014778772 0.35600001 4281745447
-0.013749982 0.014778772 0.35600001 4281284894
-0.012593693 0.014778772 0.35600001 4283709731
-0.011437405 0.014778772 0.35600001 4285020451
-0.010281117 0.014778772 0.35600001 4286527012
-0.0091248276 0.014778772 0.35600001 4286919715
-0.0079685394 0.014778772 0.35600001 4287247392
-0.0068122507 0.014778772 0.35600001 4287444001
-0.0056718495 0.014820287 0.35700002 4287903782
-0.0045123133 0.014820287 0.35700002 4293300094
-0.0033621681 0.0148618 0.35800001 4290081377
-0.0022055269 0.014903313 0.35900003 4288234035
-0.0010394942 0.014903313 0.35900003 4288035114
0.00012900577 0.015193908 0.36600003 4288432697
0.0013249754 0.015276935 0.36800003 4282324492
0.0025339369 0.01535996 0.37 4282396967
0.0037457941 0.015401474 0.37100002 4281084437
0.0049641472 0.015442987 0.37200001 4285888607
0.006487661 0.016231744 0.39100003 4281876265
0.0077774702 0.016273256 0.39200002 4286151788
0.010481923 0.016522337 0.39800003 4283505940
0.013001667 0.016439309 0.39600003 4286722338
0.014287875 0.016439309 0.39600003 4286853667
0.015574085 0.016439309 0.39600003 4286788131
-0.016107678 0.015980216 0.35700002 4282669892
-0.014906271 0.015935453 0.35600001 4281023270
-0.013749982 0.015935453 0.35600001 4281154089
-0.012593693 0.015935453 0.35600001 4284301614
-0.011437405 0.015935453 0.35600001 4284889126
-0.010281117 0.015935453 0.35600001 4285935648
-0.0091248276 0.015935453 0.35600001 4286328350
-0.0079685394 0.015935453 0.35600001 4286787100
-0.0068313861 0.015980216 0.35700002 4286655514
-0.0056718495 0.015980216 0.35700002 4287181345
-0.0045123133 0.015980216 0.35700002 4286983966
-0.0033621681 0.016024979 0.35800001 4288700507
-0.0021993832 0.016024979 0.35800001 4289360754
-0.0010394942 0.016069742 0.35900003 4288298290
0.00012935825 0.016427841 0.36700001 4287971378
0.0013249754 0.016472604 0.36800003 4281601541
0.0025407854 0.016606892 0.37100002 4280883728
0.0037558903 0.016651653 0.37200001 4280819478
0.0049641472 0.016651653 0.37200001 4281544736
0.006487661 0.017502142 0.39100003 4284172858
0.0077774702 0.017546903 0.39200002 4288052335
0.01042925 0.017725954 0.39600003 4284883230
0.011715459 0.017725954 0.39600003 4286788647
0.013001667 0.017725954 0.39600003 4287380011
0.014287875 0.017725954 0.39600003 4287181860
0.015574085 0.017725954 0.39600003 4286920487
-0.016107678 0.017140146 0.35700002 4287146644
-0.014906271 0.017092135 0.35600001 4287080336
-0.013749982 0.017092135 0.35600001 4287934877
-0.012593693 0.017092135 0.35600001 4282658594
-0.011437405 0.017092135 0.35600001 4284166437
-0.010281117 0.017092135 0.35600001 4285804062
-0.0091248276 0.017092135 0.35600001 4286000155
-0.0079909237 0.017140146 0.35700002 4286458909
-0.0068313861 0.017140146 0.35700002 4286656288
-0.0056718495 0.017140146 0.35700002 4287116067
-0.0045249527 0.017188158 0.35800001 4286983968
-0.0033621681 0.017188158 0.35800001 4287049257
-0.0022055269 0.017236169 0.35900003 4289749082
-0.0010394942 0.017236169 0.35900003 4288101681
0.00012935825 0.017620262 0.36700001 4288037171
0.0013249754 0.017668275 0.36800003 4282980112
0.0025544823 0.017908333 0.37300003 4280486919
0.0037558903 0.017860319 0.37200001 4281413665
0.005177659 0.018628506 0.38800001 4283321149
0.0064710681 0.018724529 0.39000002 4285676594
0.0077576302 0.018772542 0.39100003 4287120442
0.0090737753 0.018868564 0.39300001 4287710782
0.010402913 0.018964587 0.39500001 4286592301
0.011685873 0.018964587 0.39500001 4287051303
0.012968834 0.018964587 0.39500001 4287445802
0.014251795 0.018964587 0.39500001 4287445800
0.015574085 0.0190126 0.39600003 4286592553
-0.014906271 0.018248815 0.35600001 4286883472
-0.013749982 0.018248815 0.35600001 4288000670
-0.012593693 0.018248815 0.35600001 4282987567
-0.011437405 0.018248815 0.35600001 4284035112
-0.010309996 0.018300075 0.35700002 4285213215
-0.0091504594 0.018300075 0.35700002 4285343513
-0.0079909237 0.018300075 0.35700002 4285736983
-0.0068313861 0.018300075 0.35700002 4285999385
-0.0056718495 0.018300075 0.35700002 4286393371
-0.0045249527 0.018351335 0.35800001 4286524700
-0.0033621681 0.018351335 0.35800001 4287312163
-0.0022055269 0.018402597 0.35900003 4287772716
-0.0010423897 0.018453857 0.36000001 4287904300
0.00012900577 0.018761422 0.36600003 4288826685
0.0013213749 0.018812682 0.36700001 4284951589
0.0025681793 0.01922277 0.37500003 4281734674
0.003765987 0.019120248 0.37300003 4281939244
0.005177659 0.019889157 0.38800001 4283249707
0.0064544762 0.019940419 0.38900003 4287187255
0.0077576302 0.020042941 0.39100003 4287711286
0.0090506868 0.020094201 0.39200002 4289750363
0.010376576 0.020196723 0.39400002 4286657833
0.01165629 0.020196723 0.39400002 4287445804
0.012936003 0.020196723 0.39400002 4287510825
0.014215714 0.020196723 0.39400002 4287907382
-0.014906271 0.019405494 0.35600001 4287146646
-0.013749982 0.019405494 0.35600001 4288065951
-0.012629069 0.019460006 0.35700002 4282264357
-0.011469533 0.019460006 0.35700002 4283773223
-0.010309996 0.019460006 0.35700002 4284754462
-0.0091504594 0.019460006 0.35700002 4284818970
-0.0079909237 0.019460006 0.35700002 4285278490
-0.0068505215 0.019514514 0.35800001 4284882960
-0.0056877369 0.019514514 0.35800001 4285671701
-0.0045249527 0.019514514 0.35800001 4286065946
-0.0033715598 0.019569024 0.35900003 4286722336
-0.0022116704 0.019623535 0.36000001 4286853665
-0.0010452853 0.019678045 0.36100003 4287378724
0.00012830083 0.019841574 0.36400002 4287510823
0.0013141739 0.019896083 0.36500001 4283705634
0.0025887247 0.020604711 0.37800002 4281013263
0.0038669517 0.020877261 0.38300002 4282261016
0.0051643145 0.0210953 0.38700002 4285479217
0.0064378832 0.021149809 0.38800001 4287380784
0.0077377893 0.021258829 0.39000002 4288102712
0.0090275994 0.021313339 0.39100003 4291858306
0.010323904 0.021367848 0.39200002 4287053104
0.011626705 0.021422358 0.39300001 4288103482
0.01290317 0.021422358 0.39300001 4287510575
0.014215714 0.021476869 0.39400002 4287980116
-0.014906271 0.020562174 0.35600001 4287015576
-0.013788607 0.020619934 0.35700002 4288133287
-0.012629069 0.020619934 0.35700002 4282660652
-0.011469533 0.020619934 0.35700002 4283642921
-0.010309996 0.020619934 0.35700002 4284228632
-0.0091760904 0.020677693 0.35800001 4284425497
-0.0080133062 0.020677693 0.35800001 4284490005
-0.0068505215 0.020677693 0.35800001 4284555283
-0.0057036243 0.020735452 0.35900003 4285212443
-0.0045375922 0.020735452 0.35900003 4285739041
-0.003380951 0.020793211 0.36000001 4286001184
-0.0022178141 0.020850971 0.36100003 4286132770
-0.0010481807 0.020908728 0.36200002 4286987563
0.00012830083 0.021024248 0.36400002 4286264610
0.0013141739 0.021082005 0.36500001 4289899677
0.0026024217 0.02194839 0.38000003 4283717193
0.0038770481 0.022179425 0.384 4284495150
0.0051509701 0.022294942 0.38600001 4285477418
0.0064378832 0.02241046 0.38800001 4287577395
0.0077179489 0.02246822 0.38900003 4287906103
0.00900451 0.022525977 0.39000002 4289815897
0.010297568 0.022583738 0.39100003 4290738282
0.01159712 0.022641497 0.39200002 4293050800
0.01290317 0.022699254 0.39300001 4291336588
0.014179633 0.022699254 0.39300001 4288242523
-0.014906271 0.021718854 0.35600001 4286884244
-0.013788607 0.021779863 0.35700002 4287804576
-0.012629069 0.021779863 0.35700002 4282857264
-0.01150166 0.02184087 0.35800001 4284299052
-0.010338875 0.02184087 0.35800001 4284296739
-0.0091760904 0.02184087 0.35800001 4284493603
-0.0080133062 0.02184087 0.35800001 4284427040
-0.0068696574 0.021901879 0.35900003 4284754974
-0.0057036243 0.021901879 0.35900003 4284820253
-0.0045502316 0.021962887 0.36000001 4285280802
-0.0033903427 0.022023896 0.36100003 4285675560
-0.0022239573 0.022084903 0.36200002 4285807146
-0.0010510762 0.02214591 0.36300001 4286267184
0.00012830083 0.022206919 0.36400002 4285609508
0.0013141739 0.022267926 0.36500001 4289967773
0.0026161186 0.023305064 0.38200003 4288788639
0.0038770481 0.023427079 0.384 4283778620
0.0051509701 0.023549095 0.38600001 4286006074
0.0064212908 0.023610104 0.38700002 4288171583
0.0077179489 0.02373212 0.38900003 4287906612
0.00900451 0.023793127 0.39000002 4288037169
0.010297568 0.023854136 0.39100003 4288036917
0.011567537 0.023854136 0.39100003 4291069823
0.012870338 0.023915144 0.39200002 4288632911
0.014143554 0.023915144 0.39200002 4288496955
0.01541677 0.023915144 0.39200002 4287448637
-0.014948144 0.022939794 0.35700002 4287146392
-0.013788607 0.022939794 0.35700002 4287343771
-0.012664445 0.023004051 0.35800001 4286876799
-0.01150166 0.023004051 0.35800001 4283775538
-0.010367756 0.023068309 0.35900003 4284627499
-0.0092017232 0.023068309 0.35900003 4284626216
-0.0080356905 0.023068309 0.35900003 4284625443
-0.0068887929 0.023132564 0.36000001 4284888615
-0.0057195118 0.023132564 0.36000001 4284625443
-0.0045628715 0.023196824 0.36100003 4284164890
-0.0033997342 0.02326108 0.36200002 4285349164
-0.0022301008 0.023325335 0.36300001 4285414957
-0.0010510762 0.023325335 0.36300001 4284360986
0.00012865329 0.02345385 0.36500001 4286399797
0.0013141739 0.02345385 0.36500001 4289769624
0.0026229671 0.024610478 0.38300002 4287868055
0.0038871446 0.024738993 0.38500002 4288723114
0.0051509701 0.024803249 0.38600001 4282664250
0.0064212908 0.024867509 0.38700002 4288106044
0.007698108 0.024931764 0.38800001 4287970861
0.0089814216 0.024996022 0.38900003 4288495662
0.010271231 0.025060279 0.39000002 4288627248
0.011567537 0.025124537 0.39100003 4288429615
0.012870338 0.025188792 0.39200002 4289022011
0.014143554 0.025188792 0.39200002 4288562232
0.01541677 0.025188792 0.39200002 4288366652
-0.01382723 0.024167228 0.35800001 4287409564
-0.012664445 0.024167228 0.35800001 4288264614
-0.011533787 0.024234736 0.35900003 4284837214
-0.010367756 0.024234736 0.35900003 4285352767
-0.0092273541 0.024302242 0.36000001 4284166696
-0.0080580739 0.024302242 0.36000001 4285877053
-0.0069079287 0.024369748 0.36100003 4284626986
-0.0057353997 0.024369748 0.36100003 4284698175
-0.004575511 0.024437254 0.36200002 4286281062
-0.0034091256 0.02450476 0.36300001 4288255622
-0.0022362445 0.024572266 0.36400002 4283709997
-0.0010539718 0.024572266 0.36400002 4284494116
0.00012865329 0.024639772 0.36500001 4285151017
0.0013177744 0.02470728 0.36600003 4287724905
0.0026298154 0.02592239 0.384 4288260498
0.0038871446 0.025989898 0.38500002 4287671705
0.0051509701 0.026057404 0.38600001 4289047448
0.0064212908 0.02612491 0.38700002 4287840562
0.007698108 0.026192416 0.38800001 4288100909
0.0089814216 0.026259923 0.38900003 4288494638
0.010271231 0.026327427 0.39000002 4288626224
0.011567537 0.026394935 0.39100003 4288561455
0.012837506 0.026394935 0.39100003 4288561455
0.014143554 0.026462441 0.39200002 4288100909
0.01541677 0.026462441 0.39200002 4288431416
-0.01382723 0.025330408 0.35800001 4287475357
-0.012699821 0.025401164 0.35900003 4287607197
-0.011565915 0.025471918 0.36000001 4288658086
-0.010396635 0.025471918 0.36000001 4283907378
-0.0092529859 0.025542675 0.36100003 4284760116
-0.0080804573 0.025542675 0.36100003 4284495913
-0.0069270642 0.025613429 0.36200002 4283245333
-0.0057671745 0.025684183 0.36300001 4289901987
-0.00458815 0.025684183 0.36300001 4288065947
-0.0034185173 0.02575494 0.36400002 4288131742
-0.002242388 0.025825694 0.36500001 4283521869
-0.0010568673 0.025825694 0.36500001 4283771938
0.00012900577 0.025896451 0.36600003 4284362019
0.0013177744 0.025896451 0.36600003 4284692263
0.0026435126 0.027311556 0.38600001 4290883483
0.0038972411 0.027311556 0.38600001 4289039743
0.0051643145 0.027382312 0.38700002 4286858553
0.0064378832 0.027453067 0.38800001 4288168755
0.007698108 0.027453067 0.38800001 4288693816
0.0089814216 0.027523823 0.38900003 4288166443
0.010271231 0.027594578 0.39000002 4288561201
0.011537951 0.027594578 0.39000002 4288429872
0.012837506 0.027665334 0.39100003 4287508770
0.014143554 0.027736088 0.39200002 4287312163
0.01541677 0.027736088 0.39200002 4287445804
-0.012699821 0.026567591 0.35900003 4287870369
-0.011598043 0.026715601 0.36100003 4287870369
-0.010454394 0.026789604 0.36200002 4285491548
-0.0092786169 0.026789604 0.36200002 4284694837
-0.0081252242 0.026863607 0.36300001 4284430120
-0.0069461991 0.026863607 0.36300001 4284626986
-0.005783062 0.026937613 0.36400002 4289044109
-0.0046007899 0.026937613 0.36400002 4288328088
-0.0034279088 0.027011616 0.36500001 4288066463
-0.002242388 0.027011616 0.36500001 4288000156
-0.0010597629 0.027085623 0.36600003 4285487693
0.00012935825 0.027159626 0.36700001 4284560425
0.0013213749 0.027159626 0.36700001 4285873455
0.0026435126 0.028565709 0.38600001 4286660922
0.0039073378 0.028639715 0.38700002 4287184177
0.0051643145 0.028639715 0.38700002 4288696896
0.0064378832 0.028713718 0.38800001 4289550147
0.007698108 0.028713718 0.38800001 4288168494
0.0089814216 0.028787725 0.38900003 4288364076
0.010244895 0.028787725 0.38900003 4288561712
0.011537951 0.028861728 0.39000002 4287380266
0.012837506 0.028935732 0.39100003 4286329120
0.014107473 0.028935732 0.39100003 4286592299
0.01541677 0.029009737 0.39200002 4285806896
-0.01163017 0.027965778 0.36200002 4287935908
-0.010483273 0.028043032 0.36300001 4289510829
-0.0093042487 0.028043032 0.36300001 4283778872
-0.0081476076 0.028120287 0.36400002 4284365099
-0.006965335 0.028120287 0.36400002 4285217841
-0.0057989494 0.028197538 0.36500001 4283775788
-0.0046134293 0.028197538 0.36500001 4288720790
-0.0034373004 0.028274793 0.36600003 4287934877
-0.0022485317 0.028274793 0.36600003 4287869086
-0.0010626584 0.028352046 0.36700001 4285760116
0.00012935825 0.028352046 0.36700001 4283054897
0.0013249754 0.028429301 0.36800003 4285082914
0.0025681793 0.028970076 0.37500003 4286593330
0.0039073378 0.029897118 0.38700002 4288432445
0.0051643145 0.029897118 0.38700002 4288695869
0.0064378832 0.029974369 0.38800001 4288365103
0.007698108 0.029974369 0.38800001 4288430126
0.0089814216 0.030051624 0.38900003 4288299826
0.010244895 0.030051624 0.38900003 4286262557
0.011537951 0.030128878 0.39000002 4285871656
0.012837506 0.030206133 0.39100003 4286134830
0.014107473 0.030206133 0.39100003 4284956212
-0.011662297 0.029222455 0.36300001 4288199080
-0.010512154 0.029302958 0.36400002 4288592043
-0.0093298806 0.029302958 0.36400002 4283454025
-0.008169991 0.02938346 0.36500001 4284561454
-0.0069844704 0.02938346 0.36500001 4284626218
-0.0058148373 0.029463964 0.36600003 4284756775
-0.0046260692 0.029463964 0.36600003 4290620570
-0.0034466919 0.029544465 0.36700001 4288066461
-0.0022546751 0.029544465 0.36700001 4287803291
-0.001065554 0.029624971 0.36800003 4287934879
0.00012971072 0.029624971 0.36800003 4287932567
0.0013285758 0.029705472 0.36900002 4284556829
0.0025613308 0.030107984 0.37400001 4285869348
0.0039073378 0.031154519 0.38700002 4287643183
0.0051643145 0.031154519 0.38700002 4288168242
0.0064378832 0.031235021 0.38800001 4288233263
0.007698108 0.031235021 0.38800001 4287970865
0.0089814216 0.031315524 0.38900003 4286198572
0.010244895 0.031315524 0.38900003 4285412138
0.011537951 0.031396028 0.39000002 4285021494
0.012804672 0.031396028 0.39000002 4285422160
-0.011694426 0.030485632 0.36400002 4287935908
-0.010541032 0.030569382 0.36500001 4287935908
-0.0093555115 0.030569382 0.36500001 4287274639
-0.0081923753 0.030653136 0.36600003 4284167981
-0.0070036063 0.030653136 0.36600003 4284429609
-0.0058307247 0.030736886 0.36700001 4285676848
-0.0046387082 0.030736886 0.36700001 4285874486
-0.0034466919 0.030736886 0.36700001 4289311905
-0.0022608186 0.03082064 0.36800003 4288787874
-0.001065554 0.03082064 0.36800003 4289181089
0.0001300632 0.03090439 0.36900002 4286080340
0.0013321763 0.03098814 0.37 4285804580
0.0025544823 0.031239398 0.37300003 4289554258
0.003765987 0.031239398 0.37300003 4288497207
0.0051643145 0.032411922 0.38700002 4288299058
0.0064212908 0.032411922 0.38700002 4287384899
0.007698108 0.032495674 0.38800001 4288185720
0.0089583332 0.032495674 0.38800001 4287600774
0.010244895 0.032579426 0.38900003 4287733643
0.011508367 0.032579426 0.38900003 4287472529
-0.010569912 0.031842306 0.36600003 4287935908
-0.0093811434 0.031842306 0.36600003 4289053876
-0.0082147587 0.031929307 0.36700001 4283839278
-0.0070227417 0.031929307 0.36700001 4284166183
-0.0058307247 0.031929307 0.36700001 4285479982
-0.0046513481 0.032016307 0.36800003 4285610283
-0.0034560836 0.032016307 0.36800003 4285147170
-0.0022669621 0.032103308 0.36900002 4284359450
-0.0010684495 0.032103308 0.36900002 4284752925
0.00013041566 0.032190308 0.37 4286527280
0.0013321763 0.032190308 0.37 4286985251
0.0025544823 0.032451313 0.37300003 4292512372
0.003765987 0.032451313 0.37300003 4287509794
0.0049774921 0.032451313 0.37300003 4291721577
0.0064212908 0.033669323 0.38700002 4285743670
0.007698108 0.033756323 0.38800001 4288059526
0.0089583332 0.033756323 0.38800001 4287210640
-0.010569912 0.033031482 0.36600003 4287935908
-0.0094067743 0.033121731 0.36700001 4288528045
-0.0082147587 0.033121731 0.36700001 4283645751
-0.0070418776 0.03321198 0.36800003 4284760118
-0.0058466126 0.03321198 0.36800003 4285085994
-0.0046513481 0.03321198 0.36800003 4285216808
-0.0034654748 0.033302229 0.36900002 4285081629
-0.0022669621 0.033302229 0.36900002 4285344031
-0.0010713449 0.033392478 0.37 4286197541
0.00013041566 0.033392478 0.37 4285999903
0.0013357768 0.03348273 0.37100002 4287116837
0.0025476338 0.033572979 0.37200001 4287510825
0.003765987 0.033663232 0.37300003 4288036656
0.0049774921 0.033663232 0.37300003 4287313446
-0.010598792 0.034314148 0.36700001 4288002473
-0.0094067743 0.034314148 0.36700001 4287805092
-0.0082371421 0.034407649 0.36800003 4284504401
-0.0070418776 0.034407649 0.36800003 4284234806
-0.0058624996 0.034501147 0.36900002 4284626986
-0.0046639876 0.034501147 0.36900002 4285217326
-0.0034654748 0.034501147 0.36900002 4285082142
-0.0022731056 0.034594648 0.37 4285015836
-0.0010713449 0.034594648 0.37 4285475869
0.00013076815 0.034688145 0.37100002 4286067236
0.0013357768 0.034688145 0.37100002 4286263586
0.0025476338 0.034781646 0.37200001 4286657061
0.003765987 0.034875143 0.37300003 4287051303
0.0049774921 0.034875143 0.37300003 4287446061
-0.0094324071 0.035603318 0.36800003 4288067496
-0.0082595255 0.035700068 0.36900002 4287402891
-0.0070610126 0.035700068 0.36900002 4283512368
-0.0058624996 0.035700068 0.36900002 4284626734
-0.004676627 0.035796814 0.37 4284560171
-0.0034748663 0.035796814 0.37 4284360734
-0.0022731056 0.035796814 0.37 4284622622
-0.0010742405 0.035893563 0.37100002 4284556568
0.00013076815 0.035893563 0.37100002 4285476898
0.0013393773 0.035990309 0.37200001 4286069035
0.0025476338 0.035990309 0.37200001 4286989624
0.003765987 0.036087058 0.37300003 4286068522
0.0049774921 0.036087058 0.37300003 4286200112
-0.0094324071 0.036798988 0.36800003 4288264873
-0.0082595255 0.036898986 0.36900002 4289511860
-0.007080148 0.03699898 0.37 4282727477
-0.005878387 0.03699898 0.37 4284429870
-0.004676627 0.03699898 0.37 4284627249
-0.003484258 0.037098981 0.37100002 4284626734
-0.0022792493 0.037098981 0.37100002 4285020974
-0.0010742405 0.037098981 0.37100002 4285349425
0.00013112061 0.037198976 0.37200001 4285546545
0.0013393773 0.037198976 0.37200001 4285743924
0.0025476338 0.037198976 0.37200001 4285875510
0.003765987 0.037298974 0.37300003 4284694839
0.0049774921 0.037298974 0.37300003 4288124036
-0.0082819089 0.03820115 0.37 4288199080
-0.007080148 0.03820115 0.37 4285960062
-0.0058942749 0.038304396 0.37100002 4283645497
-0.0046892664 0.038304396 0.37100002 4284103733
-0.003484258 0.038304396 0.37100002 4284235060
-0.0022792493 0.038304396 0.37100002 4285090369
-0.001077136 0.038407642 0.37200001 4285090367
0.00013112061 0.038407642 0.37200001 4284498230
0.0013393773 0.038407642 0.37200001 4283973171
0.0025544823 0.038510889 0.37300003 4286016865
0.003765987 0.038510889 0.37300003 4287801496
0.0049774921 0.038510889 0.37300003 4287342228
-0.0082819089 0.039403316 0.37 4288133289
-0.0070992839 0.039509814 0.37100002 4287935908
-0.0058942749 0.039509814 0.37100002 4288592555
-0.0046892664 0.039509814 0.37100002 4288196772
-0.0034936494 0.039616309 0.37200001 4288656290
-0.0022853927 0.039616309 0.37200001 4288589725
-0.001077136 0.039616309 0.37200001 4288327838
0.00013112061 0.039616309 0.37200001 4288262815
0.0013429777 0.039722804 0.37300003 4287605914
0.0025544823 0.039722804 0.37300003 4287409305
0.003765987 0.039722804 0.37300003 4287079570
0.0049774921 0.039722804 0.37300003 4287079570
-0.0070992839 0.040715229 0.37100002 4287870117
-0.0058942749 0.040715229 0.37100002 4287738531
-0.0047019059 0.040824972 0.37200001 4287672738
-0.0034936494 0.040824972 0.37200001 4287409313
-0.0022853927 0.040824972 0.37200001 4287343773
-0.001077136 0.040824972 0.37200001 4287277465
0.00013147311 0.040934719 0.37300003 4287277465
0.0013429777 0.040934719 0.37300003 4287211672
0.0025544823 0.040934719 0.37300003 4287211672
0.003765987 0.040934719 0.37300003 4286948500
0.0036665946 0.012834746 0.37475255 4294967295
0.0036665946 0.012834746 0.37475255 4294901760
0.0036665946 0.012348322 0.37463683 4294901760
0.0036665946 0.011861898 0.37452111 4294901760
0.0036665946 0.011375474 0.37440538 4294901760
0.0036665946 0.01088905 0.37428966 4294901760
0.0036665946 0.010402625 0.37417394 4294901760
0.0036665946 0.0099162022 0.37405822 4294901760
0.0036665946 0.009429778 0.37394249 4294901760
0.0036665946 0.0089433538 0.37382677 4294901760
0.0036665946 0.0084569296 0.37371105 4294901760
0.0036665946 0.0079705054 0.37359533 4294901760
0.0036665946 0.0074840817 0.3734796 4294901760
0.0036665946 0.0069976575 0.37336388 4294901760
0.0036665946 0.0065112337 0.37324816 4294901760
0.0036665946 0.0060248091 0.37313244 4294901760
0.0036665946 0.0055383849 0.37301672 4294901760
0.0036665946 0.0050519612 0.37290099 4294901760
0.0036665946 0.004565537 0.37278527 4294901760
0.0036665946 0.0040791128 0.37266955 4294901760
0.0036665946 0.0035926886 0.37255383 4294901760
0.0036665946 0.0031062644 0.3724381 4294901760
0.0036665946 0.0026198411 0.37232238 4294901760
0.0036665946 0.0021334169 0.37220666 4294901760
0.0036665946 0.0016469928 0.37209094 4294901760
0.0036665946 0.0011605686 0.37197521 4294901760
0.0036665946 0.00067414436 0.37185949 4294901760
0.0036665946 0.0001877211 0.37174377 4294901760
0.0036665946 -0.00029870402 0.37162805 4294901760
0.0036665946 -0.00078512821 0.37151232 4294901760
0.0036665946 -0.0012715515 0.3713966 4294901760
0.0036665946 -0.0017579766 0.37128088 4294901760
0.0036665946 -0.0022443999 0.37116516 4294901760
0.0036665946 -0.0027308241 0.37104943 4294901760
0.0036665946 -0.0032172482 0.37093371 4294901760
0.0036665946 -0.0037036724 0.37081799 4294901760
0.0036665946 -0.0041900966 0.37070227 4294901760
0.0036665946 -0.0046765208 0.37058654 4294901760
0.0036665946 -0.005162945 0.37047082 4294901760
0.0036665946 -0.0056493692 0.3703551 4294901760
0.0036665946 -0.0061357915 0.37023938 4294901760
0.0036665946 -0.0066222176 0.37012365 4294901760
0.0036665946 -0.0071086399 0.37000793 4294901760
0.0036665946 -0.0075950641 0.36989221 4294901760
0.0036665946 -0.0080814902 0.36977649 4294901760
0.0036665946 -0.0085679125 0.36966076 4294901760
0.0036665946 -0.0090543367 0.36954504 4294901760
0.0036665946 -0.0095407609 0.36942932 4294901760
0.0036665946 -0.010027185 0.3693136 4294901760
0.0036665946 -0.010513609 0.36919788 4294901760
0.0036665946 -0.011000033 0.36908215 4294901760
0.0036665946 -0.011486458 0.36896646 4294901760
0.0036665946 -0.011972882 0.36885074 4294901760
0.0036665946 -0.012459304 0.36873502 4294901760
0.0036665946 -0.012945728 0.36861929 4294901760
0.0036665946 -0.013432154 0.36850357 4294901760
0.0036665946 -0.013918579 0.36838785 4294901760
0.0036665946 -0.014405003 0.36827213 4294901760
0.0036665946 -0.014891425 0.3681564 4294901760
0.0036665946 -0.015377849 0.36804068 4294901760
0.0036665946 -0.015864274 0.36792496 4294901760
0.0036665946 -0.0163507 0.36780924 4294901760
0.0036665946 -0.016837124 0.36769351 4294901760
0.0036665946 -0.017323546 0.36757779 4294901760
0.0036665946 -0.01780997 0.36746207 4294901760
0.0036665946 -0.018296394 0.36734635 4294901760
0.0036665946 -0.018782817 0.36723062 4294901760
0.0036665946 -0.019269243 0.3671149 4294901760
0.0036665946 -0.019755669 0.36699918 4294901760
0.0036665946 -0.020242091 0.36688346 4294901760
0.0036665946 -0.020728514 0.36676773 4294901760
0.0036665946 -0.02121494 0.36665201 4294901760
0.0036665946 -0.021701362 0.36653629 4294901760
0.0036665946 -0.022187788 0.36642057 4294901760
0.0036665946 -0.022674214 0.36630484 4294901760
0.0036665946 -0.023160636 0.36618912 4294901760
0.0036665946 -0.023647059 0.3660734 4294901760
0.0036665946 -0.024133485 0.36595768 4294901760
0.0036665946 -0.024619907 0.36584195 4294901760
0.0036665946 -0.025106329 0.36572623 4294901760
0.0036665946 -0.025592756 0.36561051 4294901760
0.0036665946 -0.026079182 0.36549479 4294901760
0.0036665946 -0.026565604 0.36537907 4294901760
0.0036665946 -0.027052026 0.36526334 4294901760
0.0036665946 -0.027538452 0.36514762 4294901760
0.0036665946 -0.028024875 0.3650319 4294901760
0.0036665946 -0.028511301 0.36491618 4294901760
0.0036665946 -0.028997727 0.36480045 4294901760
0.0036665946 -0.029484149 0.36468473 4294901760
0.0036665946 -0.029970571 0.36456901 4294901760
0.0036665946 -0.030456997 0.36445329 4294901760
0.0036665946 -0.03094342 0.36433756 4294901760
0.0036665946 -0.031429846 0.36422184 4294901760
0.0036665946 -0.031916268 0.36410612 4294901760
0.0036665946 -0.032402694 0.3639904 4294901760
0.0036665946 -0.032889117 0.36387467 4294901760
0.0036665946 -0.033375539 0.36375895 4294901760
0.0036665946 -0.033861965 0.36364323 4294901760
0.0036665946 -0.034348391 0.36352751 4294901760
0.0036665946 -0.034834813 0.36341178 4294901760
0.0036665946 -0.035321239 0.36329606 4294901760
0.0036665946 -0.035807662 0.36318034 4294901760
0.0036665946 0.012834746 0.37475255 4278255360
0.0039632497 0.012741593 0.37514412 4278255360
0.0042599048 0.01264844 0.37553567 4278255360
0.00455656 0.012555286 0.37592724 4278255360
0.0048532151 0.012462133 0.37631878 4278255360
0.0051498702 0.012368979 0.37671036 4278255360
0.0054465253 0.012275826 0.3771019 4278255360
0.0057431804 0.012182673 0.37749347 4278255360
0.006039835 0.012089519 0.37788501 4278255360
0.0063364906 0.011996366 0.37827659 4278255360
0.0066331457 0.011903212 0.37866813 4278255360
0.0069298004 0.011810059 0.3790597 4278255360
0.0072264555 0.011716905 0.37945125 4278255360
0.0075231101 0.011623752 0.37984282 4278255360
0.0078197662 0.011530599 0.38023436 4278255360
0.0081164204 0.011437445 0.38062593 4278255360
0.0084130755 0.011344291 0.38101748 4278255360
0.0087097306 0.011251139 0.38140905 4278255360
0.0090063866 0.011157985 0.38180062 4278255360
