# .PCD v0.7 - Point Cloud Data file format
VERSION 0.7
FIELDS x y z rgb
SIZE 4 4 4 4
TYPE F F F U
COUNT 1 1 1 1
WIDTH 1060
HEIGHT 1
VIEWPOINT 0 0 0 1 0 0 0
POINTS 1060
DATA ascii
0.068686165 0.061420143 0.30600002 4278989845
0.069452338 0.06121942 0.30500001 4278858259
0.070442982 0.06121942 0.30500001 4278792466
0.071199417 0.061018702 0.30400002 4278792466
0.072186805 0.061018702 0.30400002 4278791953
0.072933495 0.060817979 0.303 4278791953
0.073917635 0.060817979 0.303 4279185941
0.074654587 0.060617261 0.30200002 4279184658
0.075635478 0.060617261 0.30200002 4278328324
0.076616377 0.060617261 0.30200002 4278195456
0.077340335 0.060416546 0.30100003 4278196997
0.078317977 0.060416546 0.30100003 4278725392
0.079295628 0.060416546 0.30100003 4278726673
0.080273278 0.060416546 0.30100003 4278859027
0.081250928 0.060416546 0.30100003 4278465039
0.082228571 0.060416546 0.30100003 4278530832
0.083206221 0.060416546 0.30100003 4278465037
0.084183872 0.060416546 0.30100003 4278465037
0.085161522 0.060416546 0.30100003 4278596623
0.086139172 0.060416546 0.30100003 4278530830
0.08682739 0.060215823 0.30000001 4278991379
0.087801784 0.060215823 0.30000001 4278794000
0.088776186 0.060215823 0.30000001 4278860306
0.089750588 0.060215823 0.30000001 4278795285
0.090422578 0.060015105 0.29900002 4278795798
0.091393732 0.060015105 0.29900002 4280374830
0.092055969 0.059814382 0.29800001 4280111660
0.093023874 0.059814382 0.29800001 4279979820
0.093676366 0.059613667 0.29700002 4279453217
0.094641022 0.059613667 0.29700002 4279584031
0.038585298 0.067105643 0.32900003 4279440645
0.03965389 0.067105643 0.32900003 4279440648
0.040598705 0.066901676 0.32800001 4279374855
0.041537024 0.066697709 0.32700002 4279112455
0.04246885 0.066493735 0.32600001 4279178246
0.043394178 0.066289768 0.32500002 4278917127
0.044313006 0.066085801 0.324 4278523396
0.045225345 0.065881833 0.32300001 4278789648
0.046131186 0.065677866 0.32200003 4279514908
0.047030531 0.065473892 0.32100001 4279056406
0.047923379 0.065269925 0.32000002 4279122199
0.04880973 0.065065958 0.31900001 4278859797
0.049689587 0.064861991 0.31800002 4278794004
0.05072245 0.064861991 0.31800002 4278990613
0.051592559 0.064658016 0.317 4278990613
0.052456178 0.064454049 0.31600001 4278990613
0.053482544 0.064454049 0.31600001 4278727441
0.054336421 0.064250089 0.31500003 4278727441
0.055183794 0.064046115 0.31400001 4279055892
0.056024678 0.063842148 0.31300002 4279251734
0.056859057 0.063638173 0.31200001 4279382809
0.057872433 0.063638173 0.31200001 4278720525
0.058697078 0.063434213 0.31100002 4278851338
0.059707202 0.063434213 0.31100002 4278587912
0.060522098 0.063230239 0.31 4278587912
0.061528981 0.063230239 0.31 4278850314
0.062334131 0.063026272 0.30900002 4278850314
0.063337766 0.063026272 0.30900002 4278391300
0.064341396 0.063026272 0.30900002 4278194432
0.065133564 0.062822305 0.30800003 4278986002
0.066133946 0.062822305 0.30800003 4278523400
0.066916354 0.062618338 0.30700001 4278193408
0.067913495 0.062618338 0.30700001 4279053590
0.068686165 0.06241437 0.30600002 4278726673
0.069680057 0.06241437 0.30600002 4278199559
0.070442982 0.062210396 0.30500001 4278196486
0.071199417 0.062006433 0.30400002 4278393865
0.072186805 0.062006433 0.30400002 4278196486
0.072933495 0.061802458 0.303 4278987281
0.073917635 0.061802458 0.303 4279251734
0.074654587 0.061598495 0.30200002 4278988562
0.075635478 0.061598495 0.30200002 4279054355
0.076362684 0.061394528 0.30100003 4278988562
0.077340335 0.061394528 0.30100003 4278921488
0.078317977 0.061394528 0.30100003 4278459656
0.079295628 0.061394528 0.30100003 4278195713
0.080273278 0.061394528 0.30100003 4278328583
0.080980986 0.061190557 0.30000001 4278397197
0.081955381 0.061190557 0.30000001 4278397708
0.082929783 0.061190557 0.30000001 4278661646
0.083904184 0.061190557 0.30000001 4278595853
0.084878586 0.061190557 0.30000001 4278333451
0.085852988 0.061190557 0.30000001 4278465037
0.086537972 0.06098659 0.29900002 4278728209
0.087509118 0.06098659 0.29900002 4278530830
0.088480271 0.06098659 0.29900002 4278728209
0.089451425 0.06098659 0.29900002 4278794515
0.090120159 0.060782619 0.29800001 4278861076
0.091088064 0.060782619 0.29800001 4278927636
0.09174706 0.060578652 0.29700002 4278993175
0.092711717 0.060578652 0.29700002 4278993177
0.093676366 0.060578652 0.29700002 4281098553
0.094322361 0.060374681 0.296 4279651107
0.094961874 0.060170714 0.29500002 4279256347
0.095920034 0.060170714 0.29500002 4279321627
0.096878193 0.060170714 0.29500002 4279715615
0.038585298 0.068174601 0.32900003 4279506438
0.03965389 0.068174601 0.32900003 4279309316
0.040598705 0.067967378 0.32800001 4279244039
0.04246885 0.067552939 0.32600001 4279244039
0.043394178 0.067345724 0.32500002 4279244039
0.044313006 0.067138501 0.324 4279179016
0.045225345 0.066931292 0.32300001 4279047943
0.046131186 0.066724077 0.32200003 4278917127
0.047030531 0.066516854 0.32100001 4278524679
0.047923379 0.066309638 0.32000002 4279249685
0.04880973 0.066102415 0.31900001 4279120920
0.049845841 0.066102415 0.31900001 4279253017
0.05072245 0.0658952 0.31800002 4279253017
0.051592559 0.065687984 0.317 4279121431
0.052456178 0.065480769 0.31600001 4279056406
0.053482544 0.065480769 0.31600001 4279056406
0.054336421 0.065273553 0.31500003 4278859027
0.055183794 0.06506633 0.31400001 4278990613
0.056024678 0.064859115 0.31300002 4278859027
0.056859057 0.064651892 0.31200001 4278924820
0.057872433 0.064651892 0.31200001 4279055640
0.058697078 0.064444676 0.31100002 4278989847
0.059515215 0.06423746 0.31 4279315478
0.060522098 0.06423746 0.31 4278392584
0.061528981 0.06423746 0.31 4278785545
0.062334131 0.064030245 0.30900002 4278587912
0.063337766 0.064030245 0.30900002 4278587912
0.064341396 0.064030245 0.30900002 4278718728
0.065133564 0.063823029 0.30800003 4278587142
0.066133946 0.063823029 0.30800003 4278718728
0.066916354 0.063615806 0.30700001 4278458888
0.067913495 0.063615806 0.30700001 4278988564
0.068686165 0.063408591 0.30600002 4278660880
0.069680057 0.063408591 0.30600002 4278196480
0.070442982 0.063201368 0.30500001 4278522886
0.071433619 0.063201368 0.30500001 4278654218
0.072186805 0.062994152 0.30400002 4278522632
0.072933495 0.062786937 0.303 4279116818
0.073917635 0.062786937 0.303 4279053844
0.074654587 0.062579721 0.30200002 4278198021
0.075635478 0.062579721 0.30200002 4278330121
0.076362684 0.062372506 0.30100003 4279119637
0.077340335 0.062372506 0.30100003 4279185941
0.078317977 0.062372506 0.30100003 4279185941
0.079032183 0.062165283 0.30000001 4279382807
0.080006585 0.062165283 0.30000001 4279184660
0.080980986 0.062165283 0.30000001 4278459658
0.081955381 0.062165283 0.30000001 4278195458
0.082653359 0.061958067 0.29900002 4278197763
0.083624512 0.061958067 0.29900002 4278922256
0.084595665 0.061958067 0.29900002 4278792207
0.085566819 0.061958067 0.29900002 4278792720
0.086248539 0.061750848 0.29800001 4278661648
0.087216437 0.061750848 0.29800001 4278596625
0.088184342 0.061750848 0.29800001 4278596623
0.088853084 0.061543632 0.29700002 4278596623
0.08981774 0.061543632 0.29700002 4278530828
0.090782404 0.061543632 0.29700002 4278662927
0.091438144 0.061336413 0.296 4278794767
0.092399552 0.061336413 0.296 4278794767
0.093360953 0.061336413 0.296 4278991892
0.094003707 0.061129197 0.29500002 4279190041
0.094961874 0.061129197 0.29500002 4279585314
0.095594876 0.060921974 0.294 4279585314
0.096549787 0.060921974 0.294 4279387935
0.097504705 0.060921974 0.294 4279650594
0.098124713 0.060714759 0.29300001 4279649822
0.099076383 0.060714759 0.29300001 4279715615
0.053482544 0.066507481 0.31600001 4279450396
0.054336421 0.066297017 0.31500003 4279319324
0.055359542 0.066297017 0.31500003 4279056152
0.056024678 0.065876089 0.31300002 4278990359
0.056859057 0.065665618 0.31200001 4279056152
0.057872433 0.065665618 0.31200001 4279056152
0.058697078 0.065455154 0.31100002 4279056152
0.059515215 0.065244682 0.31 4279055638
0.060522098 0.065244682 0.31 4278989845
0.061528981 0.065244682 0.31 4279251223
0.062334131 0.065034218 0.30900002 4279052308
0.063337766 0.065034218 0.30900002 4278720779
0.064341396 0.065034218 0.30900002 4278719498
0.065133564 0.064823754 0.30800003 4278652935
0.066133946 0.064823754 0.30800003 4278718728
0.066916354 0.064613283 0.30700001 4279643930
0.067913495 0.064613283 0.30700001 4279318297
0.068686165 0.064402819 0.30600002 4278792466
0.069680057 0.064402819 0.30600002 4278328070
0.070442982 0.064192347 0.30500001 4278719752
0.071433619 0.064192347 0.30500001 4279048717
0.072186805 0.063981883 0.30400002 4278785545
0.072933495 0.063771412 0.303 4278391814
0.073917635 0.063771412 0.303 4278263304
0.074654587 0.063560948 0.30200002 4279119383
0.075635478 0.063560948 0.30200002 4279054357
0.076362684 0.063350484 0.30100003 4278462220
0.077340335 0.063350484 0.30100003 4278857746
0.078317977 0.063350484 0.30100003 4278989845
0.079032183 0.06314002 0.30000001 4279120918
0.080006585 0.06314002 0.30000001 4278923539
0.080980986 0.06314002 0.30000001 4279120918
0.081682198 0.062929556 0.29900002 4279252504
0.082653359 0.062929556 0.29900002 4279843106
0.083624512 0.062929556 0.29900002 4278788621
0.08431273 0.062719084 0.29800001 4278193664
0.085280634 0.062719084 0.29800001 4278394117
0.086248539 0.062719084 0.29800001 4278395912
0.086923771 0.06250862 0.29700002 4278791953
0.087888427 0.06250862 0.29700002 4278859027
0.088853084 0.06250862 0.29700002 4278530832
0.089515321 0.062298149 0.296 4278596621
0.090476729 0.062298149 0.296 4278530828
0.091129236 0.062087685 0.29500002 4278465035
0.092087395 0.062087685 0.29500002 4278728207
0.093045548 0.062087685 0.29500002 4278860306
0.093685046 0.061877213 0.294 4278728720
0.094639964 0.061877213 0.294 4278663699
0.095594876 0.061877213 0.294 4278992664
0.096549787 0.061877213 0.294 4279519008
0.097173057 0.061666749 0.29300001 4279651107
0.098124713 0.061666749 0.29300001 4279585314
0.099076383 0.061666749 0.29300001 4279453728
0.10002805 0.061666749 0.29300001 4279453215
0.10097972 0.061666749 0.29300001 4279386652
0.059515215 0.066251904 0.31 4278990613
0.060522098 0.066251904 0.31 4278990613
0.061528981 0.066251904 0.31 4278858773
0.062334131 0.066038191 0.30900002 4279121431
0.063337766 0.066038191 0.30900002 4279120918
0.064341396 0.066038191 0.30900002 4279317529
0.065133564 0.065824479 0.30800003 4279249174
0.066133946 0.065824479 0.30800003 4278720777
0.067134328 0.065824479 0.30800003 4279118353
0.067913495 0.065610759 0.30700001 4278922256
0.068910629 0.065610759 0.30700001 4278857230
0.069680057 0.065397047 0.30600002 4278988049
0.070442982 0.065183327 0.30500001 4278719752
0.071433619 0.065183327 0.30500001 4278916361
0.072186805 0.064969614 0.30400002 4278719752
0.073174201 0.064969614 0.30400002 4279511576
0.073917635 0.064755894 0.303 4278329097
0.074654587 0.064542182 0.30200002 4278988310
0.075635478 0.064542182 0.30200002 4279055125
0.076616377 0.064542182 0.30200002 4278462988
0.077340335 0.064328469 0.30100003 4279184660
0.078317977 0.064328469 0.30100003 4278328837
0.079032183 0.064114749 0.30000001 4279052558
0.080006585 0.064114749 0.30000001 4278460421
0.080711059 0.063901037 0.29900002 4278726160
0.081682198 0.063901037 0.29900002 4279055638
0.082653359 0.063901037 0.29900002 4279121685
0.083344825 0.063687317 0.29800001 4279252758
0.08431273 0.063687317 0.29800001 4279251988
0.084994465 0.063473605 0.29700002 4278922256
0.085959122 0.063473605 0.29700002 4278723341
0.086923771 0.063473605 0.29700002 4278196486
0.087592505 0.063259885 0.296 4278196226
0.088553913 0.063259885 0.296 4278658316
0.089212909 0.063046172 0.29500002 4278726414
0.090171069 0.063046172 0.29500002 4278923793
0.091129236 0.063046172 0.29500002 4278990099
0.091775231 0.062832452 0.294 4278858513
0.092730135 0.062832452 0.294 4278990611
0.093685046 0.062832452 0.294 4278727439
0.094318062 0.06261874 0.29300001 4278859795
0.095269725 0.06261874 0.29300001 4278926101
0.096221395 0.06261874 0.29300001 4278860308
0.097173057 0.06261874 0.29300001 4278860308
0.098124713 0.06261874 0.29300001 4279124252
0.099076383 0.06261874 0.29300001 4279453730
0.09968666 0.062405024 0.29200003 4279519523
0.10063507 0.062405024 0.29200003 4279387937
0.1015835 0.062405024 0.29200003 4279387937
0.062334131 0.067042165 0.30900002 4279056406
0.063337766 0.067042165 0.30900002 4278990613
0.064341396 0.067042165 0.30900002 4278859027
0.065133564 0.066825204 0.30800003 4278924820
0.066133946 0.066825204 0.30800003 4279055638
0.066916354 0.066608228 0.30700001 4279055125
0.067913495 0.066608228 0.30700001 4278988562
0.068686165 0.066391267 0.30600002 4278193664
0.069680057 0.066391267 0.30600002 4278194432
0.070442982 0.066174299 0.30500001 4279774235
0.071433619 0.066174299 0.30500001 4279642649
0.072186805 0.065957338 0.30400002 4279577367
0.073174201 0.065957338 0.30400002 4279447832
0.073917635 0.065740369 0.303 4279449115
0.074901782 0.065740369 0.303 4278197763
0.075635478 0.065523408 0.30200002 4278856465
0.076616377 0.065523408 0.30200002 4278460937
0.077340335 0.065306447 0.30100003 4279381271
0.078317977 0.065306447 0.30100003 4279118099
0.079032183 0.065089479 0.30000001 4279119635
0.080006585 0.065089479 0.30000001 4279317014
0.080711059 0.064872518 0.29900002 4278198533
0.081682198 0.064872518 0.29900002 4279186965
0.08237692 0.06465555 0.29800001 4279186965
0.083344825 0.06465555 0.29800001 4279055892
0.084029801 0.064438581 0.29700002 4279253271
0.084994465 0.064438581 0.29700002 4279121685
0.085959122 0.064438581 0.29700002 4279055379
0.086631089 0.064221613 0.296 4279186965
0.087592505 0.064221613 0.296 4278724109
0.08825475 0.064004652 0.29500002 4279052560
0.089212909 0.064004652 0.29500002 4278195714
0.089865401 0.063787684 0.294 4278195458
0.090820312 0.063787684 0.294 4278395660
0.091775231 0.063787684 0.294 4278922771
0.092414729 0.063570723 0.29300001 4278726927
0.093366392 0.063570723 0.29300001 4278661648
0.094318062 0.063570723 0.29300001 4278661646
0.095269725 0.063570723 0.29300001 4278727439
0.096221395 0.063570723 0.29300001 4278465037
0.096841417 0.063353762 0.29200003 4278859795
0.097789824 0.063353762 0.29200003 4278991381
0.098738238 0.063353762 0.29200003 4278991381
0.09968666 0.063353762 0.29200003 4279123480
0.10063507 0.063353762 0.29200003 4279453215
0.1015835 0.063353762 0.29200003 4279584799
0.10218077 0.063136794 0.29100001 4279321629
0.10312594 0.063136794 0.29100001 4279386652
0.1040711 0.063136794 0.29100001 4279451932
0.064341396 0.068046138 0.30900002 4279319578
0.065133564 0.067825928 0.30800003 4279122199
0.066133946 0.067825928 0.30800003 4278924820
0.066916354 0.067605712 0.30700001 4279122199
0.067913495 0.067605712 0.30700001 4278924820
0.068686165 0.067385495 0.30600002 4278858259
0.069680057 0.067385495 0.30600002 4279120918
0.070442982 0.067165278 0.30500001 4278920461
0.071433619 0.067165278 0.30500001 4278589959
0.072186805 0.066945069 0.30400002 4278458888
0.073174201 0.066945069 0.30400002 4278920209
0.073917635 0.066724852 0.303 4279448600
0.074901782 0.066724852 0.303 4279449113
0.075635478 0.066504642 0.30200002 4279185941
0.076616377 0.066504642 0.30200002 4279185941
0.077340335 0.066284426 0.30100003 4279119637
0.078317977 0.066284426 0.30100003 4278592269
0.079032183 0.066064209 0.30000001 4278988564
0.080006585 0.066064209 0.30000001 4279054355
0.080711059 0.065843999 0.29900002 4278195200
0.081682198 0.065843999 0.29900002 4279119635
0.08237692 0.065623783 0.29800001 4278198019
0.083344825 0.065623783 0.29800001 4279185941
0.084029801 0.065403573 0.29700002 4278660621
0.084994465 0.065403573 0.29700002 4279186965
0.085669689 0.065183349 0.296 4279187478
0.086631089 0.065183349 0.296 4279187478
0.087296583 0.06496314 0.29500002 4279121685
0.08825475 0.06496314 0.29500002 4279318551
0.08891049 0.064742923 0.294 4279054096
0.089865401 0.064742923 0.294 4279053842
0.090820312 0.064742923 0.294 4278920722
0.091463074 0.064522713 0.29300001 4278328074
0.092414729 0.064522713 0.29300001 4278195972
0.093366392 0.064522713 0.29300001 4278591755
0.09399616 0.064302504 0.29200003 4278791437
0.094944581 0.064302504 0.29200003 4278792207
0.095892996 0.064302504 0.29200003 4278726925
0.096841417 0.064302504 0.29200003 4278990611
0.097789824 0.064302504 0.29200003 4278859025
0.098738238 0.064302504 0.29200003 4278727439
0.09968666 0.064302504 0.29200003 4278924816
0.10063507 0.064302504 0.29200003 4278925586
0.1012356 0.06408228 0.29100001 4278991892
0.10218077 0.06408228 0.29100001 4278861076
0.10312594 0.06408228 0.29100001 4279190041
0.1040711 0.06408228 0.29100001 4279255064
0.10465539 0.06386207 0.29000002 4279582746
0.06591922 0.06860318 0.30700001 4279319578
0.066916354 0.06860318 0.30700001 4279187992
0.06769228 0.068379723 0.30600002 4278991383
0.068686165 0.068379723 0.30600002 4278991383
0.069452338 0.06815625 0.30500001 4278859797
0.070442982 0.06815625 0.30500001 4278924820
0.071199417 0.067932792 0.30400002 4279055892
0.072186805 0.067932792 0.30400002 4279449115
0.072933495 0.067709327 0.303 4278789648
0.073917635 0.067709327 0.303 4278262277
0.074654587 0.067485869 0.30200002 4278260994
0.075635478 0.067485869 0.30200002 4278789386
0.076362684 0.067262404 0.30100003 4279053842
0.077340335 0.067262404 0.30100003 4278923539
0.078317977 0.067262404 0.30100003 4279252504
0.079032183 0.067038938 0.30000001 4278196480
0.080006585 0.067038938 0.30000001 4278197510
0.080711059 0.066815481 0.29900002 4279251736
0.081682198 0.066815481 0.29900002 4279449113
0.08237692 0.066592008 0.29800001 4278658314
0.083344825 0.066592008 0.29800001 4278723082
0.084029801 0.06636855 0.29700002 4278592009
0.084994465 0.06636855 0.29700002 4278592523
0.085669689 0.066145085 0.296 4278856976
0.086631089 0.066145085 0.296 4279515676
0.087296583 0.065921627 0.29500002 4278791953
0.08825475 0.065921627 0.29500002 4278990099
0.08891049 0.065698154 0.294 4279121685
0.089865401 0.065698154 0.294 4279187478
0.090511404 0.065474696 0.29300001 4279318551
0.091463074 0.065474696 0.29300001 4279449367
0.092414729 0.065474696 0.29300001 4279447832
0.093047746 0.065251239 0.29200003 4279184406
0.09399616 0.065251239 0.29200003 4278655754
0.094944581 0.065251239 0.29200003 4278524681
0.095892996 0.065251239 0.29200003 4278792207
0.096841417 0.065251239 0.29200003 4278924820
0.097789824 0.065251239 0.29200003 4278727439
0.098738238 0.065251239 0.29200003 4278990611
0.099345259 0.065027766 0.29100001 4278727439
0.10029043 0.065027766 0.29100001 4278924818
0.1012356 0.065027766 0.29100001 4278794002
0.10218077 0.065027766 0.29100001 4278794000
0.10312594 0.065027766 0.29100001 4278991892
0.10371348 0.064804308 0.29000002 4278926099
0.10465539 0.064804308 0.29000002 4279188758
0.10559732 0.064804308 0.29000002 4278991379
0.064922087 0.069600657 0.30700001 4279515676
0.06591922 0.069600657 0.30700001 4279516189
0.066698395 0.06937395 0.30600002 4279450396
0.06769228 0.06937395 0.30600002 4279516189
0.068686165 0.06937395 0.30600002 4279385371
0.069452338 0.069147229 0.30500001 4279319578
0.070442982 0.069147229 0.30500001 4279187992
0.071199417 0.068920523 0.30400002 4279056406
0.072186805 0.068920523 0.30400002 4278990613
0.072933495 0.068693802 0.303 4279187224
0.073917635 0.068693802 0.303 4279317014
0.074654587 0.068467095 0.30200002 4279645209
0.075635478 0.068467095 0.30200002 4279183633
0.076362684 0.068240389 0.30100003 4278196486
0.077340335 0.068240389 0.30100003 4278328585
0.078057781 0.068013668 0.30000001 4279052820
0.079032183 0.068013668 0.30000001 4279185943
0.079739906 0.067786962 0.29900002 4279251734
0.080711059 0.067786962 0.29900002 4279318551
0.081409015 0.067560248 0.29800001 4279384342
0.08237692 0.067560248 0.29800001 4278658314
0.083065145 0.067333534 0.29700002 4279710488
0.084029801 0.067333534 0.29700002 4278525449
0.084994465 0.067333534 0.29700002 4278393863
0.085669689 0.067106821 0.296 4279513111
0.086631089 0.067106821 0.296 4278788875
0.087296583 0.066880114 0.29500002 4279119383
0.08825475 0.066880114 0.29500002 4278527246
0.08891049 0.066653393 0.294 4279055125
0.089865401 0.066653393 0.294 4279186711
0.090511404 0.066426687 0.29300001 4279121431
0.091463074 0.066426687 0.29300001 4279186711
0.092414729 0.066426687 0.29300001 4279252504
0.093047746 0.066199973 0.29200003 4279186711
0.09399616 0.066199973 0.29200003 4279316762
0.094944581 0.066199973 0.29200003 4279052308
0.095892996 0.066199973 0.29200003 4278657802
0.096841417 0.066199973 0.29200003 4279186965
0.097789824 0.066199973 0.29200003 4278924818
0.098400094 0.06597326 0.29100001 4278990611
0.099345259 0.06597326 0.29100001 4278990613
0.10029043 0.06597326 0.29100001 4278859027
0.1012356 0.06597326 0.29100001 4278727441
0.10218077 0.06597326 0.29100001 4278595853
0.10277156 0.065746553 0.29000002 4278859025
0.10371348 0.065746553 0.29000002 4279056404
0.10465539 0.065746553 0.29000002 4279187990
0.10559732 0.065746553 0.29000002 4278990611
0.10653923 0.065746553 0.29000002 4279121685
0.064922087 0.070598125 0.30700001 4283457871
0.06591922 0.070598125 0.30700001 4281090860
0.066698395 0.070368171 0.30600002 4280105760
0.06769228 0.070368171 0.30600002 4279843871
0.068461701 0.070138201 0.30500001 4279648029
0.069452338 0.070138201 0.30500001 4279582236
0.070212021 0.069908246 0.30400002 4279451164
0.071199417 0.069908246 0.30400002 4279319578
0.071949348 0.069678284 0.303 4279187992
0.072933495 0.069678284 0.303 4279187992
0.073673688 0.069448322 0.30200002 4279252504
0.074654587 0.069448322 0.30200002 4279252504
0.075635478 0.069448322 0.30200002 4279384344
0.076362684 0.069218367 0.30100003 4279318551
0.077340335 0.069218367 0.30100003 4279514393
0.078057781 0.068988398 0.30000001 4279315732
0.079032183 0.068988398 0.30000001 4278459656
0.079739906 0.068758443 0.29900002 4278195200
0.080711059 0.068758443 0.29900002 4278921486
0.081409015 0.068528473 0.29800001 4279448852
0.08237692 0.068528473 0.29800001 4279646744
0.083065145 0.068298519 0.29700002 4279778330
0.084029801 0.068298519 0.29700002 4279448854
0.084708281 0.068068549 0.296 4279382807
0.085669689 0.068068549 0.296 4279579416
0.086631089 0.068068549 0.296 4279117840
0.087296583 0.067838594 0.29500002 4279317529
0.08825475 0.067838594 0.29500002 4279119383
0.08891049 0.067608625 0.294 4278987279
0.089865401 0.067608625 0.294 4278197251
0.090511404 0.06737867 0.29300001 4278526730
0.091463074 0.06737867 0.29300001 4278987279
0.092414729 0.06737867 0.29300001 4279251734
0.093047746 0.067148708 0.29200003 4279384090
0.09399616 0.067148708 0.29200003 4279252504
0.094944581 0.067148708 0.29200003 4278987281
0.095892996 0.067148708 0.29200003 4278721545
0.096841417 0.067148708 0.29200003 4279251988
0.09745492 0.066918746 0.29100001 4279056404
0.098400094 0.066918746 0.29100001 4278990613
0.099345259 0.066918746 0.29100001 4278990613
0.10029043 0.066918746 0.29100001 4278859027
0.1012356 0.066918746 0.29100001 4278924820
0.10218077 0.066918746 0.29100001 4278924820
0.10277156 0.066688791 0.29000002 4278925588
0.10371348 0.066688791 0.29000002 4278859795
0.10465539 0.066688791 0.29000002 4279122197
0.10559732 0.066688791 0.29000002 4278990611
0.10653923 0.066688791 0.29000002 4278990099
0.065704502 0.071362399 0.30600002 4283918676
0.066698395 0.071362399 0.30600002 4284181848
0.06769228 0.071362399 0.30600002 4283326539
0.068461701 0.07112918 0.30500001 4279776283
0.069224633 0.070895977 0.30400002 4279909151
0.070212021 0.070895977 0.30400002 4279778332
0.070965201 0.070662759 0.303 4279581723
0.071949348 0.070662759 0.303 4279582236
0.072933495 0.070662759 0.303 4279648029
0.073673688 0.070429556 0.30200002 4279582236
0.074654587 0.070429556 0.30200002 4279582236
0.075635478 0.070429556 0.30200002 4279319064
0.076362684 0.070196345 0.30100003 4279450650
0.077340335 0.070196345 0.30100003 4279450650
0.078057781 0.069963135 0.30000001 4279516443
0.079032183 0.069963135 0.30000001 4279515930
0.079739906 0.069729924 0.29900002 4279186711
0.080711059 0.069729924 0.29900002 4278855181
0.081409015 0.069496706 0.29800001 4278195968
0.08237692 0.069496706 0.29800001 4278590726
0.083065145 0.069263503 0.29700002 4279249424
0.084029801 0.069263503 0.29700002 4279777565
0.084708281 0.069030285 0.296 4279514906
0.085669689 0.069030285 0.296 4279383320
0.086338423 0.068797082 0.29500002 4279514393
0.087296583 0.068797082 0.29500002 4278723595
0.08825475 0.068797082 0.29500002 4278789388
0.08891049 0.068563864 0.294 4280500006
0.089865401 0.068563864 0.294 4278789388
0.090511404 0.06833066 0.29300001 4279447578
0.091463074 0.06833066 0.29300001 4278921488
0.092414729 0.06833066 0.29300001 4279185941
0.093366392 0.06833066 0.29300001 4279186965
0.09399616 0.06809745 0.29200003 4279121172
0.094944581 0.06809745 0.29200003 4278789386
0.095892996 0.06809745 0.29200003 4279314965
0.096841417 0.06809745 0.29200003 4279317529
0.097789824 0.06809745 0.29200003 4279187478
0.098400094 0.067864239 0.29100001 4279055892
0.099345259 0.067864239 0.29100001 4279055892
0.10029043 0.067864239 0.29100001 4279121685
0.1012356 0.067864239 0.29100001 4279121685
0.10218077 0.067864239 0.29100001 4278661648
0.10277156 0.067631029 0.29000002 4278661646
0.10371348 0.067631029 0.29000002 4278859023
0.10465539 0.067631029 0.29000002 4278792716
0.10559732 0.067631029 0.29000002 4278990097
0.10653923 0.067631029 0.29000002 4278923793
0.068461701 0.07212016 0.30500001 4283655252
0.069224633 0.071883701 0.30400002 4284182366
0.070212021 0.071883701 0.30400002 4282011708
0.070965201 0.071647234 0.303 4279973408
0.071949348 0.071647234 0.303 4279843612
0.072692789 0.071410783 0.30200002 4279713309
0.073673688 0.071410783 0.30200002 4279516443
0.074654587 0.071410783 0.30200002 4279582236
0.075635478 0.071410783 0.30200002 4279713822
0.076362684 0.071174324 0.30100003 4279713822
0.077340335 0.071174324 0.30100003 4279648029
0.078057781 0.070937857 0.30000001 4279516443
0.079032183 0.070937857 0.30000001 4279450650
0.079739906 0.070701405 0.29900002 4279516443
0.080711059 0.070701405 0.29900002 4279647516
0.081409015 0.070464939 0.29800001 4279778332
0.082100488 0.07022848 0.29700002 4280369186
0.083065145 0.07022848 0.29700002 4279315730
0.083746873 0.069992021 0.296 4278195972
0.084708281 0.069992021 0.296 4278262279
0.085669689 0.069992021 0.296 4279118613
0.086338423 0.069755562 0.29500002 4279382809
0.087296583 0.069755562 0.29500002 4279580186
0.087955572 0.069519103 0.294 4279777819
0.08891049 0.069519103 0.294 4279712026
0.089865401 0.069519103 0.294 4279184658
0.090511404 0.069282643 0.29300001 4279052560
0.091463074 0.069282643 0.29300001 4278986000
0.092414729 0.069282643 0.29300001 4279053842
0.093366392 0.069282643 0.29300001 4279449367
0.094318062 0.069282643 0.29300001 4279054609
0.094944581 0.069046184 0.29200003 4278657289
0.095892996 0.069046184 0.29200003 4279511828
0.096841417 0.069046184 0.29200003 4279580186
0.097789824 0.069046184 0.29200003 4279251988
0.098738238 0.069046184 0.29200003 4279383574
0.09968666 0.069046184 0.29200003 4278988816
0.10029043 0.068809725 0.29100001 4279253271
0.1012356 0.068809725 0.29100001 4278990099
0.10182964 0.068573266 0.29000002 4278727441
0.10277156 0.068573266 0.29000002 4278990611
0.10371348 0.068573266 0.29000002 4278990611
0.10465539 0.068573266 0.29000002 4279318547
0.10559732 0.068573266 0.29000002 4279055375
0.10653923 0.068573266 0.29000002 4278792205
0.070965201 0.072631717 0.303 4283852117
0.071949348 0.072631717 0.303 4283984985
0.072692789 0.072392009 0.30200002 4282735172
0.073673688 0.072392009 0.30200002 4279842074
0.074654587 0.072392009 0.30200002 4279842588
0.075635478 0.072392009 0.30200002 4279778078
0.076362684 0.072152302 0.30100003 4279647262
0.077340335 0.072152302 0.30100003 4279450396
0.078057781 0.071912594 0.30000001 4279713568
0.079032183 0.071912594 0.30000001 4279648029
0.079739906 0.071672887 0.29900002 4279648029
0.080711059 0.071672887 0.29900002 4279713820
0.081409015 0.071433172 0.29800001 4279648027
0.082100488 0.071193472 0.29700002 4279582234
0.083065145 0.071193472 0.29700002 4279581721
0.083746873 0.070953757 0.296 4279646746
0.084708281 0.070953757 0.296 4279580186
0.085380271 0.070714049 0.29500002 4279183379
0.086338423 0.070714049 0.29500002 4278590474
0.087296583 0.070714049 0.29500002 4278787851
0.087955572 0.070474342 0.294 4279380758
0.08891049 0.070474342 0.294 4279579416
0.089865401 0.070474342 0.294 4279711772
0.090511404 0.070234634 0.29300001 4279712285
0.091463074 0.070234634 0.29300001 4279383320
0.092414729 0.070234634 0.29300001 4279449113
0.093366392 0.070234634 0.29300001 4279449367
0.094318062 0.070234634 0.29300001 4279186195
0.095269725 0.070234634 0.29300001 4278524679
0.095892996 0.069994926 0.29200003 4279250199
0.096841417 0.069994926 0.29200003 4279449115
0.097789824 0.069994926 0.29200003 4279449367
0.098738238 0.069994926 0.29200003 4279186965
0.09968666 0.069994926 0.29200003 4278595855
0.10063507 0.069994926 0.29200003 4278990613
0.1015835 0.069994926 0.29200003 4278990613
0.10253191 0.069994926 0.29200003 4278859027
0.10348033 0.069994926 0.29200003 4278727441
0.10371348 0.069515511 0.29000002 4279121685
0.10465539 0.069515511 0.29000002 4279515926
0.10559732 0.069515511 0.29000002 4279121168
0.10653923 0.069515511 0.29000002 4279054607
0.073673688 0.073373243 0.30200002 4283983955
0.074654587 0.073373243 0.30200002 4284378713
0.075635478 0.073373243 0.30200002 4283392848
0.076362684 0.073130287 0.30100003 4280301344
0.077340335 0.073130287 0.30100003 4280236832
0.078057781 0.072887324 0.30000001 4279974174
0.079032183 0.072887324 0.30000001 4279712285
0.079739906 0.072644368 0.29900002 4279844895
0.080711059 0.072644368 0.29900002 4279779100
0.081409015 0.072401412 0.29800001 4279779100
0.082100488 0.072158456 0.29700002 4279844893
0.083065145 0.072158456 0.29700002 4279779098
0.083746873 0.071915492 0.296 4279713307
0.084708281 0.071915492 0.296 4279779100
0.085380271 0.071672536 0.29500002 4279778332
0.086338423 0.071672536 0.29500002 4279712026
0.087296583 0.071672536 0.29500002 4279908381
0.087955572 0.071429573 0.294 4279381523
0.08891049 0.071429573 0.294 4278788875
0.089865401 0.071429573 0.294 4278657035
0.090511404 0.071186624 0.29300001 4279446805
0.091463074 0.071186624 0.29300001 4279514393
0.092414729 0.071186624 0.29300001 4279515160
0.093366392 0.071186624 0.29300001 4279383572
0.094318062 0.071186624 0.29300001 4279317268
0.095269725 0.071186624 0.29300001 4278590474
0.096221395 0.071186624 0.29300001 4279316762
0.097173057 0.071186624 0.29300001 4279252506
0.098124713 0.071186624 0.29300001 4279186965
0.099076383 0.071186624 0.29300001 4279253271
0.10002805 0.071186624 0.29300001 4278990613
0.10097972 0.071186624 0.29300001 4279056404
0.10193138 0.071186624 0.29300001 4278924818
0.10288304 0.071186624 0.29300001 4278727439
0.10383471 0.071186624 0.29300001 4278990099
0.10478637 0.071186624 0.29300001 4279450648
0.10465539 0.070457749 0.29000002 4279449363
0.10559732 0.070457749 0.29000002 4279449363
0.10653923 0.070457749 0.29000002 4279251473
0.074654587 0.07435447 0.30200002 4283983442
0.075635478 0.07435447 0.30200002 4283917908
0.076362684 0.074108265 0.30100003 4283917908
0.077340335 0.074108265 0.30100003 4284181848
0.078057781 0.073862053 0.30000001 4284248411
0.079032183 0.073862053 0.30000001 4282077501
0.079739906 0.073615849 0.29900002 4280366624
0.080711059 0.073615849 0.29900002 4280236573
0.081409015 0.073369637 0.29800001 4280106012
0.082100488 0.073123433 0.29700002 4279712537
0.083065145 0.073123433 0.29700002 4279779100
0.083746873 0.072877221 0.296 4279713820
0.084708281 0.072877221 0.296 4279713820
0.085380271 0.072631024 0.29500002 4279844893
0.086338423 0.072631024 0.29500002 4279713307
0.087000661 0.072384812 0.294 4279713307
0.087955572 0.072384812 0.294 4279779100
0.08891049 0.072384812 0.294 4279712539
0.089865401 0.072384812 0.294 4279843612
0.090511404 0.072138608 0.29300001 4279578389
0.091463074 0.072138608 0.29300001 4278590213
0.092414729 0.072138608 0.29300001 4278788103
0.093366392 0.072138608 0.29300001 4278986506
0.094318062 0.072138608 0.29300001 4279249426
0.095269725 0.072138608 0.29300001 4278655754
0.096221395 0.072138608 0.29300001 4279382807
0.097173057 0.072138608 0.29300001 4279515930
0.098124713 0.072138608 0.29300001 4279186965
0.099076383 0.072138608 0.29300001 4279252758
0.10002805 0.072138608 0.29300001 4279187478
0.10097972 0.072138608 0.29300001 4279055892
0.10193138 0.072138608 0.29300001 4278859027
0.10288304 0.072138608 0.29300001 4278924820
0.10383471 0.072138608 0.29300001 4279055890
0.10478637 0.072138608 0.29300001 4279187476
0.10573804 0.072138608 0.29300001 4278990097
0.1066897 0.072138608 0.29300001 4279121683
0.10764136 0.072138608 0.29300001 4279186963
0.076362684 0.075086243 0.30100003 4284049235
0.077340335 0.075086243 0.30100003 4284312407
0.078057781 0.074836783 0.30000001 4284378200
0.079032183 0.074836783 0.30000001 4284444252
0.079739906 0.07458733 0.29900002 4284378975
0.080711059 0.07458733 0.29900002 4284905319
0.081409015 0.07433787 0.29800001 4284444768
0.082100488 0.074088417 0.29700002 4281025585
0.082785465 0.073838957 0.296 4280498469
0.083746873 0.073838957 0.296 4279974428
0.084422112 0.073589511 0.29500002 4279777817
0.085380271 0.073589511 0.29500002 4279975709
0.086338423 0.073589511 0.29500002 4279975709
0.087000661 0.073340051 0.294 4280107295
0.087955572 0.073340051 0.294 4280107295
0.08891049 0.073340051 0.294 4280107295
0.089559741 0.073090598 0.29300001 4279909916
0.090511404 0.073090598 0.29300001 4279778330
0.091463074 0.073090598 0.29300001 4279975196
0.092414729 0.073090598 0.29300001 4279973912
0.093366392 0.073090598 0.29300001 4279710229
0.09399616 0.072841145 0.29200003 4279117070
0.094944581 0.072841145 0.29200003 4279775770
0.095892996 0.072841145 0.29200003 4279646746
0.097173057 0.073090598 0.29300001 4279318551
0.098124713 0.073090598 0.29300001 4279384344
0.099076383 0.073090598 0.29300001 4279318549
0.10002805 0.073090598 0.29300001 4278923793
0.10097972 0.073090598 0.29300001 4279055892
0.10193138 0.073090598 0.29300001 4278990613
0.10288304 0.073090598 0.29300001 4278859027
0.10383471 0.073090598 0.29300001 4279253271
0.10478637 0.073090598 0.29300001 4279186963
0.10573804 0.073090598 0.29300001 4279252758
0.1066897 0.073090598 0.29300001 4279252758
0.10764136 0.073090598 0.29300001 4279253271
0.080006585 0.075811513 0.30000001 4284772706
0.080980986 0.075811513 0.30000001 4285101671
0.081409015 0.075306103 0.29800001 4285101671
0.082100488 0.075053401 0.29700002 4285102700
0.082785465 0.074800692 0.296 4285300079
0.083746873 0.074800692 0.296 4285234286
0.084422112 0.074547991 0.29500002 4283062601
0.085380271 0.074547991 0.29500002 4280300831
0.086045742 0.074295282 0.294 4279973660
0.087000661 0.074295282 0.294 4279908635
0.087955572 0.074295282 0.294 4279909405
0.088608071 0.074042581 0.29300001 4280040989
0.089559741 0.074042581 0.29300001 4279909916
0.090511404 0.074042581 0.29300001 4279844123
0.091463074 0.074042581 0.29300001 4279844123
0.092414729 0.074042581 0.29300001 4279909403
0.093047746 0.07378988 0.29200003 4279712024
0.09399616 0.07378988 0.29200003 4279580438
0.094944581 0.07378988 0.29200003 4279712024
0.095892996 0.07378988 0.29200003 4279712537
0.097173057 0.074042581 0.29300001 4279581721
0.098124713 0.074042581 0.29300001 4279252756
0.099076383 0.074042581 0.29300001 4279318549
0.10002805 0.074042581 0.29300001 4279121172
0.10097972 0.074042581 0.29300001 4279121172
0.10193138 0.074042581 0.29300001 4278859027
0.10288304 0.074042581 0.29300001 4278924820
0.10383471 0.074042581 0.29300001 4279055892
0.10478637 0.074042581 0.29300001 4279187478
0.10573804 0.074042581 0.29300001 4279186965
0.1066897 0.074042581 0.29300001 4279186965
0.10764136 0.074042581 0.29300001 4279121172
0.085380271 0.075506479 0.29500002 4285167979
0.086045742 0.075250521 0.294 4285497458
0.087000661 0.075250521 0.294 4284578407
0.087656409 0.074994572 0.29300001 4281157169
0.088608071 0.074994572 0.29300001 4279775768
0.089559741 0.074994572 0.29300001 4280171293
0.090511404 0.074994572 0.29300001 4279975198
0.091463074 0.074994572 0.29300001 4279844125
0.092099324 0.074738614 0.29200003 4279909916
0.093047746 0.074738614 0.29200003 4279909916
0.09399616 0.074738614 0.29200003 4279778330
0.094944581 0.074738614 0.29200003 4279844123
0.095892996 0.074738614 0.29200003 4279778328
0.096841417 0.074738614 0.29200003 4279909914
0.098124713 0.074994572 0.29300001 4279515926
0.099076383 0.074994572 0.29300001 4279515928
0.10002805 0.074994572 0.29300001 4279384344
0.10097972 0.074994572 0.29300001 4279121172
0.10193138 0.074994572 0.29300001 4278858513
0.10288304 0.074994572 0.29300001 4278858513
0.10383471 0.074994572 0.29300001 4279055892
0.10478637 0.074994572 0.29300001 4279187478
0.10573804 0.074994572 0.29300001 4279253271
0.1066897 0.074994572 0.29300001 4279187478
0.10764136 0.074994572 0.29300001 4279382037
0.086045742 0.07620576 0.294 4285233005
0.087000661 0.07620576 0.294 4285233518
0.087656409 0.075946555 0.29300001 4284772967
0.088608071 0.075946555 0.29300001 4284444256
0.089559741 0.075946555 0.29300001 4284378977
0.090202495 0.075687356 0.29200003 4282866506
0.091150917 0.075687356 0.29200003 4280827434
0.092099324 0.075687356 0.29200003 4280039194
0.093047746 0.075687356 0.29200003 4280105500
0.09399616 0.075687356 0.29200003 4279843612
0.094944581 0.075687356 0.29200003 4279777819
0.095892996 0.075687356 0.29200003 4279844121
0.096841417 0.075687356 0.29200003 4279909914
0.098124713 0.075946555 0.29300001 4279844123
0.099076383 0.075946555 0.29300001 4279844123
0.10002805 0.075946555 0.29300001 4279384342
0.10097972 0.075946555 0.29300001 4279384342
0.10193138 0.075946555 0.29300001 4279186963
0.10288304 0.075946555 0.29300001 4279186963
0.10383471 0.075946555 0.29300001 4279384342
0.10478637 0.075946555 0.29300001 4279384342
0.10573804 0.075946555 0.29300001 4279186965
0.1066897 0.075946555 0.29300001 4279121172
0.10764136 0.075946555 0.29300001 4279971866
0.087656409 0.076898538 0.29300001 4285035626
0.088608071 0.076898538 0.29300001 4284772454
0.089559741 0.076898538 0.29300001 4284377696
0.090202495 0.076636091 0.29200003 4284114778
0.091150917 0.076636091 0.29200003 4283786326
0.092099324 0.076636091 0.29200003 4283391564
0.093047746 0.076636091 0.29200003 4282733888
0.09399616 0.076636091 0.29200003 4280103450
0.094944581 0.076636091 0.29200003 4279907354
0.095892996 0.076636091 0.29200003 4279973914
0.096841417 0.076636091 0.29200003 4280105500
0.097789824 0.076636091 0.29200003 4280040221
0.099076383 0.076898538 0.29300001 4280040991
0.10002805 0.076898538 0.29300001 4279647514
0.10097972 0.076898538 0.29300001 4279779100
0.10193138 0.076898538 0.29300001 4279384344
0.10288304 0.076898538 0.29300001 4279318551
0.10383471 0.076898538 0.29300001 4279252758
0.10478637 0.076898538 0.29300001 4279317781
0.10573804 0.076898538 0.29300001 4279448854
0.1066897 0.076898538 0.29300001 4279118092
0.10764136 0.076898538 0.29300001 4286088048
0.090202495 0.077584825 0.29200003 4284180317
0.091150917 0.077584825 0.29200003 4283917145
0.092099324 0.077584825 0.29200003 4283654227
0.093047746 0.077584825 0.29200003 4282206527
0.09399616 0.077584825 0.29200003 4281021735
0.094944581 0.077584825 0.29200003 4281088296
0.095892996 0.077584825 0.29200003 4281220395
0.096841417 0.077584825 0.29200003 4281549360
0.097789824 0.077584825 0.29200003 4281813816
0.099076383 0.077850528 0.29300001 4280235038
0.10002805 0.077850528 0.29300001 4280170526
0.10097972 0.077850528 0.29300001 4280236573
0.10193138 0.077850528 0.29300001 4279973914
0.10288304 0.077850528 0.29300001 4279776281
0.10383471 0.077850528 0.29300001 4280039194
0.10478637 0.077850528 0.29300001 4279512080
0.10573804 0.077850528 0.29300001 4281549099
0.1066897 0.077850528 0.29300001 4286153841
0.10764136 0.077850528 0.29300001 4285890415
0.073247001 0.063697487 0.30543286 4294967295
0.073247001 0.063697487 0.30543286 4294901760
0.073356524 0.063209735 0.3054229 4294901760
0.073466048 0.062721975 0.30541295 4294901760
0.073575571 0.062234219 0.30540299 4294901760
0.073685095 0.061746463 0.30539304 4294901760
0.073794618 0.061258707 0.30538312 4294901760
0.073904134 0.060770951 0.30537316 4294901760
0.074013658 0.060283195 0.30536321 4294901760
0.074123181 0.059795439 0.30535325 4294901760
0.074232705 0.059307683 0.3053433 4294901760
0.074342228 0.058819927 0.30533335 4294901760
0.074451752 0.058332175 0.30532339 4294901760
0.074561276 0.057844419 0.30531344 4294901760
0.074670799 0.057356663 0.30530348 4294901760
0.074780323 0.056868907 0.30529356 4294901760
0.074889846 0.056381151 0.30528361 4294901760
0.07499937 0.055893395 0.30527365 4294901760
0.075108886 0.055405639 0.3052637 4294901760
0.075218409 0.054917883 0.30525374 4294901760
0.075327933 0.054430127 0.30524379 4294901760
0.075437456 0.053942371 0.30523384 4294901760
0.07554698 0.053454615 0.30522388 4294901760
0.075656503 0.052966859 0.30521393 4294901760
0.075766027 0.052479103 0.305204 4294901760
0.075875551 0.051991347 0.30519405 4294901760
0.075985074 0.051503591 0.3051841 4294901760
0.076094598 0.051015839 0.30517414 4294901760
0.076204121 0.050528079 0.30516419 4294901760
0.076313637 0.050040327 0.30515423 4294901760
0.076423161 0.049552567 0.30514428 4294901760
0.076532684 0.049064811 0.30513433 4294901760
0.076642208 0.048577055 0.30512437 4294901760
0.076751731 0.048089303 0.30511445 4294901760
0.076861255 0.047601543 0.30510449 4294901760
0.076970778 0.047113791 0.30509454 4294901760
0.077080302 0.046626035 0.30508459 4294901760
0.077189825 0.046138279 0.30507463 4294901760
0.077299349 0.045650523 0.30506468 4294901760
0.077408873 0.045162767 0.30505472 4294901760
0.077518389 0.044675011 0.30504477 4294901760
0.077627912 0.044187255 0.30503482 4294901760
0.077737436 0.043699499 0.30502489 4294901760
0.077846959 0.043211743 0.30501494 4294901760
0.077956483 0.042723987 0.30500498 4294901760
0.078066006 0.042236231 0.30499503 4294901760
0.07817553 0.041748479 0.30498508 4294901760
0.078285053 0.041260719 0.30497512 4294901760
0.078394577 0.040772967 0.30496517 4294901760
0.0785041 0.040285207 0.30495521 4294901760
0.078613624 0.039797455 0.30494526 4294901760
0.078723148 0.039309695 0.30493534 4294901760
0.078832664 0.038821943 0.30492538 4294901760
0.078942187 0.038334187 0.30491543 4294901760
0.079051711 0.037846431 0.30490547 4294901760
0.079161234 0.037358671 0.30489552 4294901760
0.079270758 0.036870919 0.30488557 4294901760
0.079380281 0.036383163 0.30487561 4294901760
0.079489805 0.035895407 0.30486566 4294901760
0.079599328 0.035407651 0.3048557 4294901760
0.079708852 0.034919895 0.30484575 4294901760
0.079818375 0.034432136 0.30483583 4294901760
0.079927891 0.033944383 0.30482587 4294901760
0.080037415 0.033456627 0.30481592 4294901760
0.080146939 0.032968871 0.30480596 4294901760
0.080256462 0.032481119 0.30479601 4294901760
0.080365986 0.031993363 0.30478606 4294901760
0.080475509 0.031505603 0.3047761 4294901760
0.080585033 0.031017847 0.30476615 4294901760
0.080694556 0.030530091 0.30475619 4294901760
0.08080408 0.030042335 0.30474627 4294901760
0.080913603 0.029554583 0.30473632 4294901760
0.081023127 0.029066827 0.30472636 4294901760
0.08113265 0.028579067 0.30471641 4294901760
0.081242174 0.028091311 0.30470645 4294901760
0.08135169 0.027603559 0.3046965 4294901760
0.081461214 0.027115803 0.30468655 4294901760
0.081570737 0.026628047 0.30467659 4294901760
0.081680261 0.026140291 0.30466664 4294901760
0.081789784 0.025652535 0.30465671 4294901760
0.081899308 0.025164779 0.30464676 4294901760
0.082008831 0.024677023 0.30463681 4294901760
0.082118355 0.024189267 0.30462685 4294901760
0.082227878 0.023701511 0.3046169 4294901760
0.082337394 0.023213755 0.30460694 4294901760
0.082446918 0.022726003 0.30459699 4294901760
0.082556441 0.022238243 0.30458704 4294901760
0.082665965 0.021750487 0.30457708 4294901760
0.082775488 0.021262731 0.30456716 4294901760
0.082885012 0.020774975 0.3045572 4294901760
0.082994536 0.020287223 0.30454725 4294901760
0.083104059 0.019799467 0.3045373 4294901760
0.083213583 0.019311707 0.30452734 4294901760
0.083323106 0.018823951 0.30451739 4294901760
0.08343263 0.018336199 0.30450743 4294901760
0.083542153 0.017848443 0.30449748 4294901760
0.083651669 0.017360687 0.30448753 4294901760
0.083761193 0.016872931 0.3044776 4294901760
0.083870716 0.016385172 0.30446765 4294901760
0.08398024 0.015897419 0.30445769 4294901760
0.084089763 0.015409663 0.30444774 4294901760
0.084199287 0.014921907 0.30443779 4294901760
0.073247001 0.063697487 0.30543286 4278255360
0.07366918 0.063797355 0.30518427 4278255360
0.07409136 0.063897222 0.30493569 4278255360
0.07451354 0.063997097 0.30468711 4278255360
0.074935719 0.064096965 0.30443856 4278255360
0.075357899 0.064196832 0.30418998 4278255360
0.075780079 0.0642967 0.3039414 4278255360
0.076202258 0.064396575 0.30369282 4278255360
0.076624438 0.064496443 0.30344424 4278255360
0.077046618 0.06459631 0.30319566 4278255360
0.077468798 0.064696178 0.3029471 4278255360
0.077890977 0.064796053 0.30269852 4278255360
0.078313157 0.06489592 0.30244994 4278255360
0.078735337 0.064995788 0.30220136 4278255360
0.079157516 0.065095656 0.30195278 4278255360
0.079579696 0.065195523 0.3017042 4278255360
0.080001876 0.065295398 0.30145565 4278255360
0.080424055 0.065395266 0.30120707 4278255360
0.080846243 0.065495133 0.30095848 4278255360
0.081268415 0.065595001 0.3007099 4278255360
0.081690602 0.065694876 0.30046132 4278255360
0.082112782 0.065794744 0.30021274 4278255360
0.082534961 0.065894611 0.29996419 4278255360
0.082957141 0.065994479 0.29971561 4278255360
0.083379321 0.066094354 0.29946703 4278255360
0.0838015 0.066194221 0.29921845 4278255360
0.08422368 0.066294089 0.29896986 4278255360
0.08464586 0.066393957 0.29872128 4278255360
0.08506804 0.066493824 0.2984727 4278255360
0.085490219 0.066593699 0.29822415 4278255360
0.085912399 0.066693567 0.29797557 4278255360
0.086334579 0.066793434 0.29772699 4278255360
0.086756758 0.066893302 0.29747841 4278255360
0.087178938 0.066993177 0.29722983 4278255360
0.087601118 0.067093045 0.29698125 4278255360
0.088023297 0.067192912 0.29673269 4278255360
0.088445477 0.06729278 0.29648411 4278255360
0.088867657 0.067392655 0.29623553 4278255360
0.089289837 0.067492522 0.29598695 4278255360
0.089712016 0.06759239 0.29573837 4278255360
0.090134196 0.067692257 0.29548979 4278255360
0.090556376 0.067792125 0.29524124 4278255360
0.090978555 0.067892 0.29499266 4278255360
0.091400735 0.067991868 0.29474407 4278255360
0.091822915 0.068091735 0.29449549 4278255360
0.092245094 0.068191603 0.29424691 4278255360
0.092667282 0.068291478 0.29399833 4278255360
0.093089461 0.068391345 0.29374978 4278255360
0.093511641 0.068491213 0.2935012 4278255360
0.093933821 0.068591081 0.29325262 4278255360
0.094356 0.068690956 0.29300404 4278255360
0.09477818 0.068790823 0.29275545 4278255360
0.09520036 0.068890691 0.29250687 4278255360
0.09562254 0.068990558 0.29225832 4278255360
0.096044719 0.069090426 0.29200974 4278255360
0.096466899 0.069190301 0.29176116 4278255360
0.096889079 0.069290169 0.29151258 4278255360
0.097311258 0.069390036 0.291264 4278255360
0.097733438 0.069489904 0.29101542 4278255360
0.098155618 0.069589779 0.29076684 4278255360
0.098577797 0.069689646 0.29051828 4278255360
0.098999977 0.069789514 0.2902697 4278255360
0.099422157 0.069889382 0.29002112 4278255360
0.099844337 0.069989249 0.28977254 4278255360
0.10026652 0.070089124 0.28952396 4278255360
0.1006887 0.070188992 0.28927538 4278255360
0.10111088 0.070288859 0.28902683 4278255360
0.10153306 0.070388727 0.28877825 4278255360
0.10195524 0.070488602 0.28852966 4278255360
0.10237741 0.07058847 0.28828108 4278255360
0.10279959 0.070688337 0.2880325 4278255360
0.10322177 0.070788205 0.28778392 4278255360
0.10364395 0.07088808 0.28753537 4278255360
0.10406613 0.070987947 0.28728679 4278255360
0.10448831 0.071087815 0.28703821 4278255360
0.10491049 0.071187682 0.28678963 4278255360
0.10533267 0.07128755 0.28654104 4278255360
0.10575485 0.071387425 0.28629246 4278255360
