# .PCD v0.7 - Point Cloud Data file format
VERSION 0.7
FIELDS x y z rgb
SIZE 4 4 4 4
TYPE F F F U
COUNT 1 1 1 1
WIDTH 1034
HEIGHT 1
VIEWPOINT 0 0 0 1 0 0 0
POINTS 1034
DATA ascii
-0.014324252 0.033483088 0.49600002 4278797082
-0.012738874 0.033550594 0.49700001 4278600216
-0.018964162 0.034740865 0.49100003 4279713822
-0.017404767 0.03481162 0.49200001 4278795796
-0.015838878 0.034882378 0.49300003 4278928152
-0.014266494 0.034953132 0.49400002 4278797080
-0.01266198 0.034953132 0.49400002 4278731287
-0.0073877033 0.032901227 0.46500003 4278797082
-0.0058647431 0.032830473 0.46400002 4278731289
-0.004348279 0.032759719 0.46300003 4278402839
-0.0028444538 0.032759719 0.46300003 4278600218
-0.0013377335 0.03268896 0.46200001 4278665498
0.00016284335 0.03268896 0.46200001 4278731291
0.0016598196 0.032618206 0.46100003 4278796830
0.0031502999 0.032547452 0.46000001 4278862623
0.0046443804 0.032547452 0.46000001 4278665757
-0.018886914 0.036188167 0.48900002 4279516703
-0.017334016 0.036262169 0.49000001 4278927384
-0.015774623 0.036336176 0.49100003 4278731289
-0.014179855 0.036336176 0.49100003 4278665496
-0.012610717 0.036410179 0.49200001 4278665496
-0.0089362953 0.034560069 0.46700001 4278993945
-0.0073877033 0.03441206 0.46500003 4278928152
-0.0058647431 0.034338053 0.46400002 4278796566
-0.004348279 0.03426405 0.46300003 4278993947
-0.0028444538 0.03426405 0.46300003 4278268689
-0.0013377335 0.034190048 0.46200001 4278199299
0.00016284335 0.034190048 0.46200001 4278927386
0.0016598196 0.034116041 0.46100003 4278664984
0.0031502999 0.034042038 0.46000001 4278796570
0.0046443804 0.034042038 0.46000001 4278731289
0.0061251172 0.033968035 0.45900002 4278665496
0.0075993575 0.033894029 0.45800003 4278731802
0.0090671014 0.033820026 0.45700002 4278600216
-0.020391444 0.03762247 0.48700002 4279777315
-0.018809667 0.03762247 0.48700002 4279320094
-0.017263265 0.037699725 0.48800004 4278862361
-0.015710369 0.037776977 0.48900002 4278796568
-0.014122096 0.037776977 0.48900002 4278533910
-0.012533822 0.037776977 0.48900002 4278731289
-0.0089362953 0.036077399 0.46700001 4278796566
-0.0073877033 0.035922892 0.46500003 4278928154
-0.0058647431 0.035845637 0.46400002 4278928154
-0.004348279 0.035768386 0.46300003 4279058970
-0.0028444538 0.035768386 0.46300003 4278729240
-0.0013377335 0.035691131 0.46200001 4278398992
0.00016249088 0.03561388 0.46100003 4278992666
0.0016598196 0.03561388 0.46100003 4278993179
0.0031502999 0.035536624 0.46000001 4279124765
0.0046443804 0.035536624 0.46000001 4278795796
0.0061251172 0.035459369 0.45900002 4278927382
0.0075993575 0.035382118 0.45800003 4278664980
0.0090671014 0.035304863 0.45700002 4278664980
0.01052835 0.035227612 0.45600003 4278862359
0.011983102 0.035150357 0.45500001 4278796566
0.013460943 0.035150357 0.45500001 4278862359
-0.020307701 0.039043777 0.48500001 4279515426
-0.018771045 0.03912428 0.48600003 4279189793
-0.017192515 0.03912428 0.48600003 4278862361
-0.015646113 0.039204784 0.48700002 4278928154
-0.014035458 0.03912428 0.48600003 4278862361
-0.012508191 0.039285287 0.48800004 4278731289
-0.0089171594 0.037514228 0.46600002 4278665496
-0.0073877033 0.037433725 0.46500003 4278665496
-0.0058647431 0.037353221 0.46400002 4278862875
-0.004348279 0.037272722 0.46300003 4278862363
-0.0028444538 0.037272722 0.46300003 4278198277
-0.0013377335 0.037192214 0.46200001 4278266636
0.00016249088 0.037111714 0.46100003 4279123228
0.0016598196 0.037111714 0.46100003 4278197253
0.0031502999 0.037031211 0.46000001 4278394378
0.0046443804 0.037031211 0.46000001 4278262792
0.0061251172 0.036950707 0.45900002 4278195200
0.0075993575 0.036870208 0.45800003 4278196992
0.0090671014 0.036789704 0.45700002 4278528011
0.010551439 0.036789704 0.45700002 4279055638
0.012009439 0.036709201 0.45600003 4279516957
0.013490528 0.036709201 0.45600003 4279386139
0.026232161 0.035904173 0.44600001 4278533394
0.02768077 0.035904173 0.44600001 4278599189
-0.020265831 0.040535841 0.48400003 4279647523
-0.018732419 0.040619589 0.48500001 4279189791
-0.017157139 0.040619589 0.48500001 4278796568
-0.015581857 0.040619589 0.48500001 4278862361
-0.013977698 0.040535841 0.48400003 4278796568
-0.012482559 0.040787093 0.48700002 4278664982
-0.010430729 0.039028309 0.46600002 4278928154
-0.0089171594 0.039028309 0.46600002 4278796568
-0.0073877033 0.038944557 0.46500003 4278993949
-0.0058647431 0.038860805 0.46400002 4278862363
-0.004348279 0.038777053 0.46300003 4278796570
-0.0028383103 0.038693301 0.46200001 4278196737
-0.0013377335 0.038693301 0.46200001 4279648289
0.00016249088 0.038609549 0.46100003 4278926103
0.0016598196 0.038609549 0.46100003 4278590474
0.0031502999 0.038525797 0.46000001 4278589193
0.0046443804 0.038525797 0.46000001 4278851597
0.0061251172 0.038442045 0.45900002 4278785804
0.0075993575 0.038358297 0.45800003 4278851597
0.0090869423 0.038358297 0.45800003 4278720011
0.010551439 0.038274541 0.45700002 4278654732
0.012035775 0.038274541 0.45700002 4278523916
0.013520112 0.038274541 0.45700002 4278524170
0.01500445 0.038274541 0.45700002 4278458890
0.016488785 0.038274541 0.45700002 4278660369
0.017973121 0.038274541 0.45700002 4278196480
0.019457459 0.038274541 0.45700002 4278198017
0.020895973 0.038190793 0.45600003 4278331402
0.02198448 0.037520777 0.44800001 4278990099
0.023387264 0.037437025 0.44700003 4278925590
0.024839122 0.037437025 0.44700003 4278926103
0.026290979 0.037437025 0.44700003 4278991896
0.027742837 0.037437025 0.44700003 4278729494
0.029260004 0.037520777 0.44800001 4278598419
0.03071511 0.037520777 0.44800001 4278467603
0.032170214 0.037520777 0.44800001 4278664982
0.033625316 0.037520777 0.44800001 4278599189
0.03500212 0.037437025 0.44700003 4278599189
0.036372423 0.037353273 0.44600001 4278468117
0.037651435 0.03718577 0.44400004 4278533910
0.039005496 0.037102018 0.44300002 4278468117
0.040444359 0.037102018 0.44300002 4278665496
0.041788682 0.037018269 0.44200003 4278666779
0.04332209 0.037102018 0.44300002 4278732574
0.044963036 0.037269522 0.44500002 4278535708
0.046408396 0.037269522 0.44500002 4278864673
0.047961291 0.037353273 0.44600001 4278996259
0.04952069 0.037437025 0.44700003 4279325224
0.051086575 0.037520777 0.44800001 4279258664
0.052541681 0.037520777 0.44800001 4279192101
0.054117315 0.037604529 0.44900003 4279255845
-0.020223958 0.042021401 0.48300001 4279647777
-0.018655173 0.042021401 0.48300001 4279058459
-0.017086387 0.042021401 0.48300001 4278862361
-0.015517603 0.042021401 0.48300001 4278797082
-0.013919939 0.041934405 0.48200002 4278533910
-0.012482559 0.042369407 0.48700002 4278533910
-0.010453112 0.040629391 0.46700001 4278731289
-0.0089171594 0.04054239 0.46600002 4278731289
-0.0073877033 0.04045539 0.46500003 4278796568
-0.0058647431 0.040368386 0.46400002 4278796568
-0.004348279 0.040281389 0.46300003 4278993179
-0.0028383103 0.040194385 0.46200001 4278195456
-0.0013377335 0.040194385 0.46200001 4279582750
0.00016284335 0.040194385 0.46200001 4279188762
0.0016598196 0.040107384 0.46100003 4278656269
0.0031571484 0.040107384 0.46100003 4279511578
0.0046443804 0.040020384 0.46000001 4279313686
0.0061251172 0.039933383 0.45900002 4279116307
0.0076159495 0.039933383 0.45900002 4279707674
0.0090869423 0.039846383 0.45800003 4279312916
0.010574528 0.039846383 0.45800003 4278853135
0.012062112 0.039846383 0.45800003 4278786572
0.013520112 0.039759383 0.45700002 4278523146
0.015037282 0.039846383 0.45800003 4278720525
0.016488785 0.039759383 0.45700002 4279580188
0.017973121 0.039759383 0.45700002 4279581982
0.019414883 0.039672382 0.45600003 4279385371
0.020895973 0.039672382 0.45600003 4279187224
0.0221317 0.03923738 0.45100003 4279910947
0.023544226 0.039150376 0.45000002 4279187224
0.024950258 0.039063375 0.44900003 4278726162
0.026408613 0.039063375 0.44900003 4278197762
0.027866965 0.039063375 0.44900003 4278195712
0.029325316 0.039063375 0.44900003 4278196481
0.030783672 0.039063375 0.44900003 4278197765
0.032242022 0.039063375 0.44900003 4278200074
0.033700373 0.039063375 0.44900003 4278530578
0.035080422 0.038976375 0.44800001 4278662677
0.036453977 0.038889375 0.44700003 4279189275
0.037736233 0.038715374 0.44500002 4278860310
0.039181594 0.038715374 0.44500002 4278532628
0.040535655 0.038628373 0.44400004 4278795800
0.041977771 0.038628373 0.44400004 4278599191
0.043517675 0.038715374 0.44500002 4278533912
0.045064077 0.03880237 0.44600001 4278468630
0.046616975 0.038889375 0.44700003 4278402837
0.048068829 0.038889375 0.44700003 4278600216
0.049631473 0.038976375 0.44800001 4278600986
0.05120061 0.039063375 0.44900003 4278666779
0.052658964 0.039063375 0.44900003 4278798365
0.054237843 0.039150376 0.45000002 4279192353
0.055823222 0.03923738 0.45100003 4279191842
-0.020182086 0.043500472 0.48200002 4279648289
-0.01861655 0.043500472 0.48200002 4279058459
-0.017015638 0.043410223 0.48100004 4278665498
-0.015453348 0.043410223 0.48100004 4278731291
-0.01386218 0.043319974 0.48000002 4278533912
-0.010453112 0.042146724 0.46700001 4278731289
-0.0089171594 0.042056475 0.46600002 4278731289
-0.0073877033 0.041966226 0.46500003 4278731291
-0.0058647431 0.041875973 0.46400002 4278731291
-0.004348279 0.041785724 0.46300003 4279188510
-0.0028383103 0.041695476 0.46200001 4278195456
-0.0013377335 0.041695476 0.46200001 4279516443
0.00016284335 0.041695476 0.46200001 4279780127
0.0016598196 0.041605227 0.46100003 4278458890
0.0031571484 0.041605227 0.46100003 4279116820
0.0046443804 0.041514974 0.46000001 4280301862
0.0061384616 0.041514974 0.46000001 4278788623
0.0076159495 0.041424725 0.45900002 4278458888
0.0091067832 0.041424725 0.45900002 4280366885
0.010574528 0.041334476 0.45800003 4278393865
0.012062112 0.041334476 0.45800003 4278393097
0.013549698 0.041334476 0.45800003 4279511576
0.015037282 0.041334476 0.45800003 4278656269
0.016524866 0.041334476 0.45800003 4279778080
0.017973121 0.041244224 0.45700002 4279056922
0.019457459 0.041244224 0.45700002 4278595855
0.020895973 0.041153975 0.45600003 4278198788
0.022229843 0.040883224 0.45300001 4278792468
0.023648867 0.040792976 0.45200002 4279121945
0.025061397 0.040702727 0.45100003 4278924566
0.026526244 0.040702727 0.45100003 4279056152
0.027929028 0.040612474 0.45000002 4279319324
0.029455941 0.040702727 0.45100003 4279582496
0.03085223 0.040612474 0.45000002 4279319324
0.032313831 0.040612474 0.45000002 4278858259
0.033700373 0.040522225 0.44900003 4279450398
0.035158731 0.040522225 0.44900003 4279187226
0.036535528 0.040431976 0.44800001 4278792468
0.037905835 0.040341727 0.44700003 4278265611
0.039357688 0.040341727 0.44700003 4278196224
0.040809546 0.040341727 0.44700003 4278195712
0.042261403 0.040341727 0.44700003 4278196994
0.04371326 0.040341727 0.44700003 4278198535
0.045266159 0.040431976 0.44800001 4278596373
0.046721261 0.040431976 0.44800001 4278794263
0.048283901 0.040522225 0.44900003 4278533910
0.049742259 0.040522225 0.44900003 4278468117
0.051314641 0.040612474 0.45000002 4278665496
0.052776244 0.040612474 0.45000002 4278468117
0.054358374 0.040702727 0.45100003 4278665496
0.055823222 0.040702727 0.45100003 4279126047
0.057415091 0.040792976 0.45200002 4279257121
0.05901346 0.040883224 0.45300001 4280110643
-0.020140216 0.044973042 0.48100004 4280108840
-0.018577926 0.044973042 0.48100004 4279123998
-0.016980261 0.044879541 0.48000002 4278862363
-0.015356964 0.044692542 0.47800002 4278665498
-0.013775541 0.044599045 0.47700003 4278665498
-0.012072454 0.04403805 0.47100002 4278862877
-0.010475496 0.043757554 0.46800002 4278533910
-0.0089171594 0.043570556 0.46600002 4278665496
-0.0073877033 0.043477058 0.46500003 4278731291
-0.0058647431 0.043383557 0.46400002 4278665498
-0.004348279 0.04329006 0.46300003 4279450658
-0.0028444538 0.04329006 0.46300003 4278198026
-0.0013377335 0.043196559 0.46200001 4279976740
0.00016284335 0.043196559 0.46200001 4279516957
0.0016598196 0.043103062 0.46100003 4278589963
0.0031571484 0.043103062 0.46100003 4278720525
0.0046443804 0.043009561 0.46000001 4278655756
0.0061384616 0.043009561 0.46000001 4278589963
0.0076325419 0.043009561 0.46000001 4278654986
0.0091067832 0.042916063 0.45900002 4279313686
0.010597616 0.042916063 0.45900002 4278589963
0.012062112 0.042822566 0.45800003 4280169506
0.013549698 0.042822566 0.45800003 4279841822
0.015037282 0.042822566 0.45800003 4278195461
0.016524866 0.042822566 0.45800003 4279779363
0.017973121 0.042729065 0.45700002 4279189021
0.019457459 0.042729065 0.45700002 4278657289
0.020895973 0.042635567 0.45600003 4278589963
0.022278916 0.042448569 0.45400003 4278194432
0.023701187 0.042355068 0.45300001 4278462736
0.025172532 0.042355068 0.45300001 4278924568
0.026585061 0.042261571 0.45200002 4278199301
0.028053159 0.042261571 0.45200002 4278726673
0.029521253 0.042261571 0.45200002 4278595089
0.030920792 0.04216807 0.45100003 4278266638
0.03238564 0.04216807 0.45100003 4279056924
0.03377543 0.042074572 0.45000002 4278860826
0.035237033 0.042074572 0.45000002 4278729240
0.036617082 0.041981071 0.44900003 4278860826
0.038075436 0.041981071 0.44900003 4278729240
0.039445736 0.041887574 0.44800001 4278860056
0.040900841 0.041887574 0.44800001 4278925336
0.042355947 0.041887574 0.44800001 4278991129
0.043908846 0.041981071 0.44900003 4279517473
0.0453672 0.041981071 0.44900003 4279187740
0.04692984 0.042074572 0.45000002 4278199307
0.048391439 0.042074572 0.45000002 4279452963
0.049853042 0.042074572 0.45000002 4278664982
0.051428676 0.04216807 0.45100003 4278533910
0.052893527 0.04216807 0.45100003 4278468117
0.054478899 0.042261571 0.45200002 4278402324
0.055946995 0.042261571 0.45200002 4278796568
0.057542115 0.042355068 0.45300001 4278993949
0.05901346 0.042355068 0.45300001 4278533144
-0.020140216 0.046535861 0.48100004 4279779875
-0.018577926 0.046535861 0.48100004 4278992412
-0.016944887 0.046342365 0.47900003 4278796316
-0.015324838 0.046148866 0.47700003 4278664730
-0.012072454 0.045568377 0.47100002 4278731037
-0.010475496 0.045278132 0.46800002 4278731037
-0.0089171594 0.045084637 0.46600002 4278665244
-0.0073877033 0.044987891 0.46500003 4278402072
-0.0058647431 0.044891141 0.46400002 4278665244
-0.004348279 0.044794392 0.46300003 4278398994
-0.0028444538 0.044794392 0.46300003 4278397710
-0.0013377335 0.044697642 0.46200001 4279385887
0.00016284335 0.044697642 0.46200001 4279123228
0.0016598196 0.044600897 0.46100003 4278524683
0.0031571484 0.044600897 0.46100003 4278786572
0.0046443804 0.044504147 0.46000001 4278720525
0.0061384616 0.044504147 0.46000001 4278851597
0.0076325419 0.044504147 0.46000001 4278785806
0.0091067832 0.044407401 0.45900002 4278785806
0.010597616 0.044407401 0.45900002 4278851597
0.012088448 0.044407401 0.45900002 4278851597
0.013549698 0.044310652 0.45800003 4278195205
0.015037282 0.044310652 0.45800003 4278524683
0.016524866 0.044310652 0.45800003 4279253019
0.017973121 0.044213902 0.45700002 4279320607
0.019457459 0.044213902 0.45700002 4278589961
0.020895973 0.044117156 0.45600003 4278853135
0.022327987 0.044020407 0.45500001 4278195971
0.023753507 0.043923661 0.45400003 4278197509
0.025228102 0.043923661 0.45400003 4279385119
0.026643876 0.043826912 0.45300001 4278199046
0.028115222 0.043826912 0.45300001 4278594576
0.029521253 0.043730162 0.45200002 4279450398
0.030989353 0.043730162 0.45200002 4278200077
0.032457449 0.043730162 0.45200002 4278529042
0.033850487 0.043633416 0.45100003 4278660628
0.035315339 0.043633416 0.45100003 4278660628
0.036698632 0.043536667 0.45000002 4278397970
0.038160235 0.043536667 0.45000002 4278200077
0.039621834 0.043536667 0.45000002 4278529808
0.041083433 0.043536667 0.45000002 4278596371
0.042545035 0.043536667 0.45000002 4278794263
0.044006635 0.043536667 0.45000002 4278860826
0.045569282 0.043633416 0.45100003 4278860826
0.04703413 0.043633416 0.45100003 4278200588
0.048498977 0.043633416 0.45100003 4279385887
0.049963828 0.043633416 0.45100003 4278664214
0.051542707 0.043730162 0.45200002 4278533910
0.053010803 0.043730162 0.45200002 4278533910
0.054478899 0.043730162 0.45200002 4278533910
0.055946995 0.043730162 0.45200002 4278468117
0.057542115 0.043826912 0.45300001 4278468119
0.05901346 0.043826912 0.45300001 4278992925
-0.020182086 0.048198674 0.48200002 4280634157
-0.018577926 0.04809868 0.48100004 4278991129
-0.016944887 0.047898684 0.47900003 4279058972
-0.01529271 0.04759869 0.47600001 4278730007
-0.012072454 0.047098704 0.47100002 4278862109
-0.010475496 0.046798714 0.46800002 4278796316
-0.0089171594 0.046598718 0.46600002 4278664730
-0.0073877033 0.046498723 0.46500003 4278598937
-0.0058647431 0.046398722 0.46400002 4278533144
-0.004348279 0.046298727 0.46300003 4278662677
-0.0028383103 0.046198729 0.46200001 4278595601
-0.0013377335 0.046198729 0.46200001 4279254301
0.00016284335 0.046198729 0.46200001 4278992412
0.0016598196 0.046098731 0.46100003 4278991642
0.0031571484 0.046098731 0.46100003 4279188510
0.0046443804 0.045998733 0.46000001 4279647523
0.0061384616 0.045998733 0.46000001 4279318558
0.0076325419 0.045998733 0.46000001 4279250971
0.0091067832 0.045898739 0.45900002 4278921236
0.010597616 0.045898739 0.45900002 4278393867
0.012088448 0.045898739 0.45900002 4278524683
0.013549698 0.045798741 0.45800003 4278524170
0.015037282 0.045798741 0.45800003 4278393097
0.016488785 0.045698743 0.45700002 4279186459
0.017973121 0.045698743 0.45700002 4279121947
0.019457459 0.045698743 0.45700002 4279776283
0.020895973 0.045598745 0.45600003 4279445781
0.022327987 0.045498747 0.45500001 4279711520
0.023805827 0.045498747 0.45500001 4279318045
0.025228102 0.045398753 0.45400003 4278924314
0.026702695 0.045398753 0.45400003 4279188510
0.028115222 0.045298751 0.45300001 4278859545
0.029586565 0.045298751 0.45300001 4278198275
0.031057913 0.045298751 0.45300001 4278660628
0.032457449 0.045198757 0.45200002 4279055386
0.033925544 0.045198757 0.45200002 4278331150
0.03539364 0.045198757 0.45200002 4278198793
0.036780186 0.045098759 0.45100003 4279448861
0.038245037 0.045098759 0.45100003 4279252252
0.039709885 0.045098759 0.45100003 4278199818
0.041174732 0.045098759 0.45100003 4278199818
0.042639583 0.045098759 0.45100003 4279384092
0.044104431 0.045098759 0.45100003 4278858521
0.045670319 0.045198757 0.45200002 4278729494
0.047138415 0.045198757 0.45200002 4278197760
0.048606511 0.045198757 0.45200002 4278924566
0.050074611 0.045198757 0.45200002 4278729240
0.051542707 0.045198757 0.45200002 4278468119
0.053010803 0.045198757 0.45200002 4278402324
0.054478899 0.045198757 0.45200002 4278468117
0.055946995 0.045198757 0.45200002 4278468119
0.057415091 0.045198757 0.45200002 4278533144
0.05888319 0.045198757 0.45200002 4279255584
0.06035129 0.045198757 0.45200002 4284778098
-0.020265831 0.049971234 0.48400003 4278919691
-0.018655173 0.049867988 0.48300001 4279382807
-0.016980261 0.049558248 0.48000002 4278793750
-0.012046823 0.048525784 0.47000003 4279123998
-0.010475496 0.048319291 0.46800002 4279058718
-0.0089171594 0.048112798 0.46600002 4278927132
-0.0073877033 0.048009556 0.46500003 4279058718
-0.0058647431 0.047906306 0.46400002 4278992925
-0.004348279 0.047803063 0.46300003 4278927132
-0.0028383103 0.047699813 0.46200001 4279123998
-0.0013377335 0.047699813 0.46200001 4278992412
0.00016249088 0.047596566 0.46100003 4278795033
0.0016598196 0.047596566 0.46100003 4278992925
0.0031571484 0.047596566 0.46100003 4278927132
0.0046443804 0.04749332 0.46000001 4278729753
0.0061384616 0.04749332 0.46000001 4278927132
0.0076325419 0.04749332 0.46000001 4278992412
0.0091067832 0.047390074 0.45900002 4279123228
0.010597616 0.047390074 0.45900002 4279123228
0.012062112 0.047286831 0.45800003 4278794263
0.013549698 0.047286831 0.45800003 4279451680
0.015037282 0.047286831 0.45800003 4279320094
0.016488785 0.047183581 0.45700002 4279187738
0.017973121 0.047183581 0.45700002 4279121947
0.019414883 0.047080338 0.45600003 4278791955
0.020895973 0.047080338 0.45600003 4278395914
0.022327987 0.046977088 0.45500001 4278196738
0.023805827 0.046977088 0.45500001 4278195712
0.025228102 0.046873845 0.45400003 4278195968
0.026702695 0.046873845 0.45400003 4278198536
0.028115222 0.046770595 0.45300001 4278529296
0.029586565 0.046770595 0.45300001 4279187226
0.031057913 0.046770595 0.45300001 4279318812
0.032457449 0.046667352 0.45200002 4279450396
0.033925544 0.046667352 0.45200002 4278990359
0.03539364 0.046667352 0.45200002 4279056152
0.036861736 0.046667352 0.45200002 4278990359
0.038329836 0.046667352 0.45200002 4278858773
0.039797932 0.046667352 0.45200002 4279055638
0.041266028 0.046667352 0.45200002 4278726673
0.042734127 0.046667352 0.45200002 4278397197
0.044202223 0.046667352 0.45200002 4278726675
0.045670319 0.046667352 0.45200002 4278795287
0.047138415 0.046667352 0.45200002 4278197248
0.048606511 0.046667352 0.45200002 4279057176
0.050074611 0.046667352 0.45200002 4278992664
0.051542707 0.046667352 0.45200002 4278796568
0.053010803 0.046667352 0.45200002 4278599189
0.054478899 0.046667352 0.45200002 4278468117
0.055946995 0.046667352 0.45200002 4278468117
0.057415091 0.046667352 0.45200002 4278796570
0.05888319 0.046667352 0.45200002 4279321377
0.06035129 0.046667352 0.45200002 4283726180
-0.010475496 0.049839873 0.46800002 4278989595
-0.0089171594 0.049626879 0.46600002 4279252765
-0.0073877033 0.049520388 0.46500003 4279319842
-0.0058647431 0.04941389 0.46400002 4279451428
-0.004348279 0.049307395 0.46300003 4279649572
-0.0028383103 0.0492009 0.46200001 4279649572
-0.0013377335 0.0492009 0.46200001 4279583779
0.00016249088 0.049094405 0.46100003 4279386400
0.0016598196 0.049094405 0.46100003 4279190304
0.0031571484 0.049094405 0.46100003 4278795546
0.0046443804 0.048987906 0.46000001 4278795546
0.0061384616 0.048987906 0.46000001 4278729753
0.0076325419 0.048987906 0.46000001 4278269202
0.0091067832 0.048881412 0.45900002 4278729753
0.010597616 0.048881412 0.45900002 4278729753
0.012062112 0.04877492 0.45800003 4278795546
0.013549698 0.04877492 0.45800003 4279190558
0.01500445 0.048668422 0.45700002 4278927386
0.016488785 0.048668422 0.45700002 4278598421
0.017933793 0.048561927 0.45600003 4278730007
0.019414883 0.048561927 0.45600003 4279058459
0.020850148 0.048455428 0.45500001 4279189275
0.022327987 0.048455428 0.45500001 4279189275
0.023753507 0.048348937 0.45400003 4278728724
0.025228102 0.048348937 0.45400003 4278925336
0.026702695 0.048348937 0.45400003 4278991129
0.028115222 0.048242439 0.45300001 4279648289
0.029586565 0.048242439 0.45300001 4279516703
0.031057913 0.048242439 0.45300001 4278726160
0.032457449 0.048135944 0.45200002 4278397197
0.033925544 0.048135944 0.45200002 4278196480
0.03539364 0.048135944 0.45200002 4278195200
0.036861736 0.048135944 0.45200002 4278196224
0.038329836 0.048135944 0.45200002 4278198533
0.039797932 0.048135944 0.45200002 4278858261
0.041266028 0.048135944 0.45200002 4279581982
0.042828668 0.048242439 0.45300001 4279253017
0.044300012 0.048242439 0.45300001 4279450396
0.04577136 0.048242439 0.45300001 4279121945
0.047242705 0.048242439 0.45300001 4278197248
0.048714045 0.048242439 0.45300001 4279123482
0.050074611 0.048135944 0.45200002 4278730005
0.051542707 0.048135944 0.45200002 4278795798
0.053010803 0.048135944 0.45200002 4278795798
0.054478899 0.048135944 0.45200002 4278862361
0.055946995 0.048135944 0.45200002 4278402326
0.057415091 0.048135944 0.45200002 4278795800
0.05875292 0.048029449 0.45100003 4278926103
0.060217768 0.048029449 0.45100003 4285303675
-0.0073718154 0.050921474 0.46400002 4285039987
-0.0058647431 0.050921474 0.46400002 4284580206
-0.004348279 0.05081173 0.46300003 4283724895
-0.0028383103 0.050701983 0.46200001 4282080583
-0.0013377335 0.050701983 0.46200001 4280173356
0.00016249088 0.05059224 0.46100003 4279252252
0.0016598196 0.05059224 0.46100003 4279055900
0.0031571484 0.05059224 0.46100003 4279056672
0.0046443804 0.050482493 0.46000001 4279648807
0.0061384616 0.050482493 0.46000001 4279517221
0.0076325419 0.050482493 0.46000001 4279648807
0.0091067832 0.05037275 0.45900002 4279714854
0.010574528 0.050263006 0.45800003 4279255586
0.012062112 0.050263006 0.45800003 4279255586
0.013520112 0.050153259 0.45700002 4279058207
0.01500445 0.050153259 0.45700002 4278992414
0.016452705 0.050043516 0.45600003 4278992927
0.017933793 0.050043516 0.45600003 4278795548
0.019372307 0.049933773 0.45500001 4278992925
0.020850148 0.049933773 0.45500001 4278730007
0.022327987 0.049933773 0.45500001 4278730007
0.023753507 0.049824029 0.45400003 4278598421
0.025228102 0.049824029 0.45400003 4278664214
0.026643876 0.049714282 0.45300001 4278730007
0.028115222 0.049714282 0.45300001 4278664214
0.029586565 0.049714282 0.45300001 4278730007
0.031057913 0.049714282 0.45300001 4278861080
0.032457449 0.049604539 0.45200002 4278926103
0.033925544 0.049604539 0.45200002 4278991383
0.03539364 0.049604539 0.45200002 4279057176
0.036861736 0.049604539 0.45200002 4279057176
0.038414635 0.049714282 0.45300001 4279451164
0.039885979 0.049714282 0.45300001 4279516189
0.041357324 0.049714282 0.45300001 4279187226
0.042828668 0.049714282 0.45300001 4278462736
0.044300012 0.049714282 0.45300001 4278198279
0.04577136 0.049714282 0.45300001 4278197252
0.047242705 0.049714282 0.45300001 4279120920
0.048714045 0.049714282 0.45300001 4278992666
0.050074611 0.049604539 0.45200002 4278795800
0.051542707 0.049604539 0.45200002 4278664984
0.053010803 0.049604539 0.45200002 4278862363
0.054358374 0.049494796 0.45100003 4278928156
0.055823222 0.049494796 0.45100003 4278796570
0.057288069 0.049494796 0.45100003 4278795033
0.05875292 0.049494796 0.45100003 4278397970
0.060217768 0.049494796 0.45100003 4285370751
-0.0013377335 0.052203067 0.46200001 4284184676
0.00016284335 0.052203067 0.46200001 4284118883
0.0016634201 0.052203067 0.46200001 4284513641
0.0031639969 0.052203067 0.46200001 4284842606
0.0046645734 0.052203067 0.46200001 4284909682
0.0061651506 0.052203067 0.46200001 4284055145
0.0076657268 0.052203067 0.46200001 4282870871
0.0091067832 0.051864088 0.45900002 4281356862
0.010574528 0.051751096 0.45800003 4279514658
0.012062112 0.051751096 0.45800003 4279055390
0.013520112 0.0516381 0.45700002 4278990881
0.014971618 0.051525109 0.45600003 4279648811
0.016452705 0.051525109 0.45600003 4279451430
0.017894465 0.051412113 0.45500001 4279846701
0.019372307 0.051412113 0.45500001 4279321125
0.020850148 0.051412113 0.45500001 4279452965
0.022278916 0.051299121 0.45400003 4279452963
0.023753507 0.051299121 0.45400003 4279716648
0.025172532 0.051186126 0.45300001 4278663960
0.026643876 0.051186126 0.45300001 4278795546
0.028115222 0.051186126 0.45300001 4278795287
0.029586565 0.051186126 0.45300001 4278861080
0.030989353 0.051073134 0.45200002 4278729494
0.032457449 0.051073134 0.45200002 4278795287
0.033925544 0.051073134 0.45200002 4278795287
0.03539364 0.051073134 0.45200002 4278992666
0.03694329 0.051186126 0.45300001 4278663701
0.038414635 0.051186126 0.45300001 4278861080
0.039885979 0.051186126 0.45300001 4278795287
0.041357324 0.051186126 0.45300001 4278861080
0.042828668 0.051186126 0.45300001 4278795287
0.044300012 0.051186126 0.45300001 4278860826
0.04577136 0.051186126 0.45300001 4279123230
0.047242705 0.051186126 0.45300001 4278991642
0.048714045 0.051186126 0.45300001 4279123998
0.050074611 0.051073134 0.45200002 4278927386
0.051542707 0.051073134 0.45200002 4278862363
0.053010803 0.051073134 0.45200002 4278796570
0.054358374 0.050960138 0.45100003 4278796570
0.055823222 0.050960138 0.45100003 4278796316
0.057288069 0.050960138 0.45100003 4279254564
0.05875292 0.050960138 0.45100003 4282936923
0.060217768 0.050960138 0.45100003 4285369981
0.014971618 0.053006697 0.45600003 4285895296
0.016452705 0.053006697 0.45600003 4285631872
0.017894465 0.052890453 0.45500001 4284381803
0.019372307 0.052890453 0.45500001 4282476113
0.020804323 0.052774213 0.45400003 4280370996
0.022278916 0.052774213 0.45400003 4279187238
0.023753507 0.052774213 0.45400003 4278726685
0.025172532 0.052657969 0.45300001 4278990109
0.026643876 0.052657969 0.45300001 4279121695
0.028115222 0.052657969 0.45300001 4279384865
0.029521253 0.052541725 0.45200002 4279319072
0.030989353 0.052541725 0.45200002 4279320609
0.032457449 0.052541725 0.45200002 4279189023
0.033925544 0.052541725 0.45200002 4279386148
0.035471946 0.052657969 0.45300001 4279386148
0.03694329 0.052657969 0.45300001 4279452195
0.038414635 0.052657969 0.45300001 4279452195
0.039885979 0.052657969 0.45300001 4279386402
0.041357324 0.052657969 0.45300001 4279386402
0.042828668 0.052657969 0.45300001 4279452195
0.044300012 0.052657969 0.45300001 4279386402
0.04577136 0.052657969 0.45300001 4279320609
0.047242705 0.052657969 0.45300001 4279386402
0.048714045 0.052657969 0.45300001 4279650344
0.050074611 0.052541725 0.45200002 4279058720
0.051542707 0.052541725 0.45200002 4278992925
0.053010803 0.052541725 0.45200002 4278992925
0.054358374 0.052425485 0.45100003 4279190306
0.055823222 0.052425485 0.45100003 4279124000
0.057288069 0.052425485 0.45100003 4279778346
0.05875292 0.052425485 0.45100003 4285501567
0.030989353 0.05401032 0.45200002 4283396191
0.032457449 0.05401032 0.45200002 4282146378
0.033925544 0.05401032 0.45200002 4283460955
0.035471946 0.054129809 0.45300001 4283855713
0.03694329 0.054129809 0.45300001 4282739544
0.038414635 0.054129809 0.45300001 4282081614
0.039885979 0.054129809 0.45300001 4281949515
0.041357324 0.054129809 0.45300001 4280436276
0.042828668 0.054129809 0.45300001 4280041518
0.044300012 0.054129809 0.45300001 4279844139
0.04577136 0.054129809 0.45300001 4279252256
0.047242705 0.054129809 0.45300001 4279121183
0.048714045 0.054129809 0.45300001 4279186974
0.050074611 0.05401032 0.45200002 4279055388
0.051542707 0.05401032 0.45200002 4279055388
0.053010803 0.05401032 0.45200002 4279186461
0.054358374 0.053890828 0.45100003 4279581221
0.055823222 0.053890828 0.45100003 4283528031
0.057288069 0.053890828 0.45100003 4286026628
0.019296879 0.043988734 0.45908353 4294967295
0.019296879 0.043988734 0.45908353 4294901760
0.019331275 0.043490879 0.45905259 4294901760
0.019365668 0.042993024 0.45902169 4294901760
0.019400064 0.042495165 0.45899075 4294901760
0.01943446 0.04199731 0.45895982 4294901760
0.019468855 0.041499455 0.45892891 4294901760
0.019503249 0.041001599 0.45889798 4294901760
0.019537644 0.04050374 0.45886707 4294901760
0.01957204 0.040005885 0.45883614 4294901760
0.019606436 0.03950803 0.4588052 4294901760
0.019640829 0.039010175 0.4587743 4294901760
0.019675225 0.038512319 0.45874336 4294901760
0.019709621 0.03801446 0.45871243 4294901760
0.019744016 0.037516605 0.45868152 4294901760
0.01977841 0.03701875 0.45865059 4294901760
0.019812806 0.036520895 0.45861965 4294901760
0.019847201 0.036023036 0.45858875 4294901760
0.019881597 0.03552518 0.45855781 4294901760
0.019915991 0.035027325 0.45852688 4294901760
0.019950386 0.03452947 0.45849597 4294901760
0.019984782 0.034031615 0.45846504 4294901760
0.020019177 0.033533759 0.45843413 4294901760
0.020053571 0.0330359 0.4584032 4294901760
0.020087967 0.032538045 0.45837227 4294901760
0.020122362 0.03204019 0.45834136 4294901760
0.020156756 0.031542331 0.45831043 4294901760
0.020191152 0.031044478 0.45827949 4294901760
0.020225547 0.03054662 0.45824859 4294901760
0.020259943 0.030048765 0.45821765 4294901760
0.020294337 0.02955091 0.45818672 4294901760
0.020328732 0.029053051 0.45815581 4294901760
0.020363128 0.028555196 0.45812488 4294901760
0.020397523 0.028057341 0.45809397 4294901760
0.020431917 0.027559483 0.45806304 4294901760
0.020466313 0.027061628 0.4580321 4294901760
0.020500708 0.026563773 0.4580012 4294901760
0.020535104 0.026065916 0.45797026 4294901760
0.020569498 0.025568061 0.45793933 4294901760
0.020603893 0.025070203 0.45790842 4294901760
0.020638289 0.024572348 0.45787749 4294901760
0.020672685 0.024074491 0.45784655 4294901760
0.020707078 0.023576636 0.45781565 4294901760
0.020741474 0.023078781 0.45778471 4294901760
0.020775869 0.022580924 0.45775378 4294901760
0.020810265 0.022083068 0.45772287 4294901760
0.020844659 0.021585213 0.45769194 4294901760
0.020879054 0.021087356 0.45766103 4294901760
0.02091345 0.020589499 0.4576301 4294901760
0.020947844 0.020091644 0.45759916 4294901760
0.020982239 0.019593786 0.45756826 4294901760
0.021016635 0.019095931 0.45753732 4294901760
0.021051031 0.018598076 0.45750639 4294901760
0.021085424 0.018100221 0.45747548 4294901760
0.02111982 0.017602364 0.45744455 4294901760
0.021154216 0.017104506 0.45741361 4294901760
0.021188611 0.016606649 0.45738271 4294901760
0.021223005 0.016108794 0.45735177 4294901760
0.021257401 0.015610939 0.45732087 4294901760
0.021291796 0.015113084 0.45728993 4294901760
0.021326192 0.014615228 0.457259 4294901760
0.021360587 0.014117369 0.45722809 4294901760
0.021394981 0.013619514 0.45719716 4294901760
0.021429377 0.013121659 0.45716622 4294901760
0.021463772 0.012623802 0.45713532 4294901760
0.021498166 0.012125947 0.45710438 4294901760
0.021532562 0.011628091 0.45707345 4294901760
0.021566957 0.011130232 0.45704255 4294901760
0.021601353 0.010632377 0.45701161 4294901760
0.021635747 0.010134522 0.45698068 4294901760
0.021670142 0.0096366666 0.45694977 4294901760
0.021704538 0.0091388114 0.45691884 4294901760
0.021738932 0.0086409561 0.45688793 4294901760
0.021773327 0.0081430972 0.456857 4294901760
0.021807723 0.0076452419 0.45682606 4294901760
0.021842118 0.0071473867 0.45679516 4294901760
0.021876514 0.0066495314 0.45676422 4294901760
0.021910908 0.0061516725 0.45673329 4294901760
0.021945303 0.0056538172 0.45670238 4294901760
0.021979699 0.005155962 0.45667145 4294901760
0.022014093 0.004658103 0.45664051 4294901760
0.022048488 0.0041602477 0.45660961 4294901760
0.022082884 0.0036623925 0.45657867 4294901760
0.022117279 0.0031645373 0.45654777 4294901760
0.022151673 0.002666682 0.45651683 4294901760
0.022186069 0.0021688268 0.4564859 4294901760
0.022220464 0.0016709678 0.45645499 4294901760
0.02225486 0.0011731125 0.45642406 4294901760
0.022289254 0.0006752573 0.45639312 4294901760
0.022323649 0.00017740205 0.45636222 4294901760
0.022358045 -0.0003204532 0.45633128 4294901760
0.022392441 -0.00081830844 0.45630035 4294901760
0.022426834 -0.0013161674 0.45626944 4294901760
0.02246123 -0.0018140227 0.45623851 4294901760
0.022495626 -0.0023118816 0.45620757 4294901760
0.022530019 -0.0028097369 0.45617667 4294901760
0.022564415 -0.0033075921 0.45614573 4294901760
0.02259881 -0.0038054474 0.45611483 4294901760
0.022633206 -0.0043033063 0.45608389 4294901760
0.022667602 -0.0048011616 0.45605296 4294901760
0.022701995 -0.0052990168 0.45602205 4294901760
0.022736391 -0.0057968721 0.45599112 4294901760
0.019296879 0.043988734 0.45908353 4278255360
0.019753961 0.044032604 0.45888567 4278255360
0.020211045 0.044076473 0.45868778 4278255360
0.020668127 0.044120342 0.45848992 4278255360
0.021125209 0.044164211 0.45829207 4278255360
0.021582291 0.044208076 0.45809418 4278255360
0.022039374 0.044251945 0.45789632 4278255360
0.022496456 0.044295814 0.45769846 4278255360
0.022953538 0.044339683 0.45750061 4278255360
0.023410622 0.044383552 0.45730272 4278255360
0.023867704 0.044427421 0.45710486 4278255360
0.024324786 0.04447129 0.456907 4278255360
0.024781868 0.044515159 0.45670912 4278255360
0.02523895 0.044559028 0.45651126 4278255360
0.025696034 0.044602893 0.4563134 4278255360
0.026153116 0.044646762 0.45611551 4278255360
0.026610199 0.044690631 0.45591766 4278255360
0.027067281 0.0447345 0.4557198 4278255360
0.027524363 0.044778369 0.45552194 4278255360
0.027981445 0.044822238 0.45532405 4278255360
0.028438527 0.044866107 0.4551262 4278255360
0.028895609 0.044909976 0.45492834 4278255360
0.029352693 0.044953845 0.45473045 4278255360
0.029809777 0.044997711 0.45453259 4278255360
0.030266859 0.04504158 0.45433474 4278255360
0.030723941 0.045085449 0.45413685 4278255360
0.031181023 0.045129318 0.45393899 4278255360
0.031638108 0.045173187 0.45374113 4278255360
0.032095186 0.045217056 0.45354328 4278255360
0.032552272 0.045260925 0.45334539 4278255360
0.033009354 0.045304794 0.45314753 4278255360
0.033466436 0.045348663 0.45294967 4278255360
0.033923518 0.045392528 0.45275179 4278255360
0.0343806 0.045436397 0.45255393 4278255360
0.034837682 0.045480266 0.45235607 4278255360
0.035294764 0.045524135 0.45215821 4278255360
0.035751849 0.045568004 0.45196033 4278255360
0.036208928 0.045611873 0.45176247 4278255360
0.036666013 0.045655742 0.45156461 4278255360
0.037123095 0.045699611 0.45136672 4278255360
0.037580177 0.04574348 0.45116886 4278255360
0.038037259 0.045787349 0.45097101 4278255360
0.038494341 0.045831215 0.45077312 4278255360
0.038951427 0.045875084 0.45057526 4278255360
0.039408505 0.045918953 0.4503774 4278255360
0.039865591 0.045962822 0.45017952 4278255360
0.040322673 0.046006691 0.44998166 4278255360
0.040779755 0.04605056 0.4497838 4278255360
0.041236836 0.046094429 0.44958594 4278255360
0.041693918 0.046138298 0.44938806 4278255360
0.042151004 0.046182163 0.4491902 4278255360
0.042608082 0.046226032 0.44899234 4278255360
0.043065168 0.046269901 0.44879445 4278255360
0.043522246 0.04631377 0.4485966 4278255360
0.043979332 0.046357639 0.44839874 4278255360
0.044436418 0.046401508 0.44820088 4278255360
0.044893496 0.046445377 0.44800299 4278255360
0.045350581 0.046489246 0.44780514 4278255360
0.04580766 0.046533115 0.44760728 4278255360
0.046264745 0.046576984 0.44740939 4278255360
0.046721827 0.04662085 0.44721153 4278255360
0.047178909 0.046664719 0.44701368 4278255360
0.047635991 0.046708588 0.44681579 4278255360
0.048093073 0.046752457 0.44661793 4278255360
0.048550159 0.046796326 0.44642007 4278255360
0.049007237 0.046840195 0.44622222 4278255360
0.049464323 0.046884064 0.44602433 4278255360
0.049921405 0.046927933 0.44582647 4278255360
0.050378487 0.046971798 0.44562861 4278255360
0.050835572 0.047015667 0.44543073 4278255360
0.05129265 0.047059536 0.44523287 4278255360
0.051749736 0.047103405 0.44503501 4278255360
0.052206814 0.047147274 0.44483712 4278255360
0.0526639 0.047191143 0.44463927 4278255360
0.053120978 0.047235012 0.44444141 4278255360
0.053578064 0.047278881 0.44424355 4278255360
0.05403515 0.04732275 0.44404566 4278255360
0.054492228 0.047366619 0.44384781 4278255360
0.054949313 0.047410484 0.44364995 4278255360
0.055406392 0.047454353 0.44345206 4278255360
0.055863477 0.047498222 0.4432542 4278255360
0.056320556 0.047542091 0.44305634 4278255360
0.056777641 0.04758596 0.44285846 4278255360
0.057234719 0.047629829 0.4426606 4278255360
0.057691805 0.047673699 0.44246274 4278255360
0.058148891 0.047717568 0.44226485 4278255360
0.058605969 0.047761437 0.442067 4278255360
0.059063055 0.047805302 0.44186914 4278255360
0.059520133 0.047849171 0.44167128 4278255360
0.059977219 0.04789304 0.44147339 4278255360
0.060434297 0.047936909 0.44127554 4278255360
0.060891382 0.047980778 0.44107768 4278255360
0.061348468 0.048024647 0.44087979 4278255360
0.061805546 0.048068516 0.44068193 4278255360
0.062262632 0.048112385 0.44048408 4278255360
0.06271971 0.048156254 0.44028622 4278255360
0.063176796 0.048200119 0.44008833 4278255360
0.063633882 0.048243988 0.43989047 4278255360
0.06409096 0.048287857 0.43969262 4278255360
0.064548045 0.048331726 0.43949473 4278255360
0.065005124 0.048375595 0.43929687 4278255360
0.019296879 0.043988734 0.45908353 4278190335
0.019438531 0.043968763 0.45956263 4278190335
0.019580185 0.043948788 0.46004173 4278190335
0.019721838 0.043928817 0.46052083 4278190335
0.019863492 0.043908846 0.46099994 4278190335
0.020005144 0.043888871 0.46147901 4278190335
0.020146798 0.043868899 0.46195811 4278190335
0.020288451 0.043848924 0.46243721 4278190335
0.020430105 0.043828953 0.46291631 4278190335
0.020571757 0.043808982 0.46339542 4278190335
0.020713411 0.043789007 0.46387452 4278190335
0.020855064 0.043769035 0.46435362 4278190335
0.020996716 0.043749064 0.46483272 4278190335
0.02113837 0.043729089 0.46531183 4278190335
0.021280022 0.043709118 0.4657909 4278190335
0.021421677 0.043689143 0.46627 4278190335
0.021563329 0.043669172 0.4667491 4278190335
0.021704983 0.0436492 0.4672282 4278190335
0.021846635 0.043629225 0.46770731 4278190335
0.021988288 0.043609254 0.46818641 4278190335
0.022129942 0.043589283 0.46866551 4278190335
0.022271594 0.043569308 0.46914461 4278190335
0.022413248 0.043549336 0.46962371 4278190335
0.0225549 0.043529361 0.47010279 4278190335
0.022696555 0.04350939 0.47058189 4278190335
0.022838207 0.043489419 0.47106099 4278190335
0.022979861 0.043469444 0.47154009 4278190335
0.023121513 0.043449473 0.4720192 4278190335
0.023263168 0.043429501 0.4724983 4278190335
0.02340482 0.043409526 0.4729774 4278190335
0.023546472 0.043389555 0.4734565 4278190335
0.023688126 0.043369584 0.4739356 4278190335
0.023829779 0.043349609 0.47441468 4278190335
0.023971433 0.043329637 0.47489378 4278190335
0.024113085 0.043309662 0.47537288 4278190335
0.024254739 0.043289691 0.47585198 4278190335
0.024396392 0.04326972 0.47633108 4278190335
0.024538046 0.043249745 0.47681019 4278190335
0.024679698 0.043229774 0.47728929 4278190335
0.024821352 0.043209802 0.47776839 4278190335
0.024963005 0.043189827 0.47824749 4278190335
0.025104657 0.043169856 0.47872657 4278190335
0.025246311 0.043149881 0.47920567 4278190335
0.025387965 0.04312991 0.47968477 4278190335
0.025529617 0.043109939 0.48016387 4278190335
0.02567127 0.043089963 0.48064297 4278190335
0.025812924 0.043069992 0.48112208 4278190335
0.025954576 0.043050021 0.48160118 4278190335
0.026096229 0.043030046 0.48208028 4278190335
0.026237883 0.043010075 0.48255938 4278190335
0.026379537 0.042990103 0.48303849 4278190335
0.026521189 0.042970128 0.48351756 4278190335
0.026662841 0.042950157 0.48399666 4278190335
0.026804496 0.042930182 0.48447576 4278190335
0.02694615 0.042910211 0.48495486 4278190335
0.027087802 0.04289024 0.48543397 4278190335
0.027229454 0.042870265 0.48591307 4278190335
0.027371109 0.042850293 0.48639217 4278190335
0.027512761 0.042830322 0.48687127 4278190335
0.027654413 0.042810347 0.48735034 4278190335
0.027796067 0.042790376 0.48782945 4278190335
0.027937721 0.042770401 0.48830855 4278190335
0.028079374 0.042750429 0.48878765 4278190335
0.028221026 0.042730458 0.48926675 4278190335
0.02836268 0.042710483 0.48974586 4278190335
0.028504333 0.042690512 0.49022496 4278190335
0.028645987 0.042670541 0.49070406 4278190335
0.028787639 0.042650566 0.49118316 4278190335
0.028929293 0.042630594 0.49166226 4278190335
0.029070945 0.042610619 0.49214134 4278190335
0.029212598 0.042590648 0.49262044 4278190335
0.029354252 0.042570677 0.49309954 4278190335
0.029495906 0.042550702 0.49357864 4278190335
0.029637558 0.04253073 0.49405774 4278190335
0.029779211 0.042510759 0.49453685 4278190335
0.029920865 0.042490784 0.49501595 4278190335
0.030062517 0.042470813 0.49549505 4278190335
0.030204169 0.042450842 0.49597412 4278190335
0.030345824 0.042430867 0.49645323 4278190335
0.030487478 0.042410895 0.49693233 4278190335
0.03062913 0.04239092 0.49741143 4278190335
0.030770782 0.042370949 0.49789053 4278190335
0.030912437 0.042350978 0.49836963 4278190335
0.031054089 0.042331003 0.49884874 4278190335
0.031195741 0.042311031 0.49932784 4278190335
0.031337395 0.04229106 0.49980694 4278190335
0.031479049 0.042271085 0.50028604 4278190335
0.031620704 0.042251114 0.50076514 4278190335
0.031762354 0.042231139 0.50124425 4278190335
0.031904008 0.042211168 0.50172335 4278190335
0.032045662 0.042191196 0.50220239 4278190335
0.032187313 0.042171221 0.50268149 4278190335
0.032328967 0.04215125 0.5031606 4278190335
0.032470621 0.042131279 0.5036397 4278190335
0.032612275 0.042111304 0.5041188 4278190335
0.032753926 0.042091332 0.5045979 4278190335
0.03289558 0.042071357 0.505077 4278190335
0.033037234 0.042051386 0.50555611 4278190335
0.033178888 0.042031415 0.50603521 4278190335
0.033320539 0.04201144 0.50651431 4278190335
0.033462193 0.041991469 0.50699341 4278190335
0.019296879 0.043988734 0.45908353 4294967295
0.01844696 0.04410857 0.45620894 4294967295
0.017597042 0.044228405 0.45333433 4294967295
0.016747123 0.044348244 0.45045975 4294967295
0.015897203 0.044468079 0.44758517 4294967295
0.015047284 0.044587914 0.44471055 4294967295
0.014197365 0.044707749 0.44183597 4294967295
0.013347447 0.044827584 0.43896139 4294967295
0.012497528 0.044947423 0.4360868 4294967295
0.011647608 0.045067258 0.43321219 4294967295
0.01079769 0.045187093 0.43033761 4294967295
0.0099477703 0.045306928 0.42746302 4294967295
0.0090978518 0.045426764 0.42458841 4294967295
0.0082479334 0.045546602 0.42171383 4294967295
0.007398014 0.045666438 0.41883925 4294967295
0.0065480946 0.045786273 0.41596466 4294967295
0.0056981761 0.045906108 0.41309005 4294967295
0.0048482567 0.046025947 0.41021547 4294967295
0.0039983373 0.046145782 0.40734088 4294967295
0.0031484198 0.046265617 0.40446627 4294967295
0.0022985004 0.046385452 0.40159169 4294967295
0.001448581 0.046505287 0.39871711 4294967295
0.0005986616 0.046625126 0.39584249 4294967295
-0.00025125779 0.046744961 0.39296791 4294967295
-0.0011011753 0.046864796 0.39009333 4294967295
-0.0019510947 0.046984632 0.38721871 4294967295
-0.0028010122 0.047104467 0.38434413 4294967295
-0.0036509335 0.047224306 0.38146955 4294967295
-0.004500851 0.047344141 0.37859493 4294967295
-0.0053507704 0.047463976 0.37572038 4294967295
-0.0062006898 0.047583811 0.37284577 4294967295
-0.0070506092 0.047703646 0.36997119 4294967295
-0.0079005267 0.047823485 0.3670966 4294967295
-0.008750448 0.04794332 0.36422199 4294967295
-0.0096003655 0.048063155 0.36134741 4294967295
-0.010450283 0.04818299 0.35847282 4294967295
-0.011300204 0.048302829 0.35559821 4294967295
-0.012150122 0.048422664 0.35272363 4294967295
-0.013000039 0.0485425 0.34984905 4294967295
-0.013849957 0.048662335 0.34697443 4294967295
-0.014699878 0.04878217 0.34409985 4294967295
-0.015549796 0.048902009 0.34122527 4294967295
-0.016399717 0.049021844 0.33835065 4294967295
-0.017249638 0.049141679 0.33547607 4294967295
-0.018099556 0.049261514 0.33260149 4294967295
-0.018949473 0.049381349 0.32972687 4294967295
-0.019799395 0.049501188 0.32685229 4294967295
-0.020649312 0.049621023 0.32397771 4294967295
-0.02149923 0.049740858 0.3211031 4294967295
-0.022349151 0.049860694 0.31822851 4294967295
-0.023199068 0.049980529 0.31535393 4294967295
-0.024048986 0.050100368 0.31247935 4294967295
-0.024898903 0.050220203 0.30960476 4294967295
-0.025748821 0.050340038 0.30673015 4294967295
-0.026598746 0.050459873 0.30385554 4294967295
-0.027448663 0.050579712 0.30098099 4294967295
-0.028298581 0.050699547 0.29810637 4294967295
-0.029148499 0.050819382 0.29523179 4294967295
-0.02999842 0.050939217 0.29235721 4294967295
-0.030848337 0.051059052 0.28948259 4294967295
-0.031698257 0.051178891 0.28660801 4294967295
-0.032548182 0.051298726 0.28373343 4294967295
-0.033398099 0.051418561 0.28085881 4294967295
-0.034248017 0.051538397 0.27798423 4294967295
-0.035097934 0.051658232 0.27510965 4294967295
-0.035947852 0.051778071 0.27223504 4294967295
-0.036797777 0.051897906 0.26936045 4294967295
-0.037647694 0.052017741 0.26648587 4294967295
-0.038497612 0.052137576 0.26361126 4294967295
-0.039347529 0.052257411 0.2607367 4294967295
-0.040197447 0.05237725 0.25786209 4294967295
-0.041047364 0.052497085 0.25498751 4294967295
-0.041897289 0.05261692 0.2521129 4294967295
-0.042747207 0.052736759 0.24923831 4294967295
-0.043597125 0.052856594 0.24636371 4294967295
-0.044447042 0.052976429 0.24348913 4294967295
-0.04529696 0.053096265 0.24061455 4294967295
-0.046146877 0.0532161 0.23773995 4294967295
-0.046996795 0.053335935 0.23486537 4294967295
-0.04784672 0.053455774 0.23199075 4294967295
-0.048696637 0.053575609 0.22911617 4294967295
-0.049546555 0.053695444 0.22624157 4294967295
-0.050396472 0.053815279 0.22336699 4294967295
-0.051246397 0.053935118 0.22049241 4294967295
-0.052096315 0.054054953 0.21761781 4294967295
-0.052946232 0.054174788 0.21474321 4294967295
-0.053796157 0.054294623 0.21186861 4294967295
-0.054646075 0.054414459 0.20899403 4294967295
-0.055495992 0.054534294 0.20611945 4294967295
-0.05634591 0.054654133 0.20324484 4294967295
-0.057195827 0.054773968 0.20037025 4294967295
