# .PCD v0.7 - Point Cloud Data file format
VERSION 0.7
FIELDS x y z rgb
SIZE 4 4 4 4
TYPE F F F U
COUNT 1 1 1 1
WIDTH 1024
HEIGHT 1
VIEWPOINT 0 0 0 1 0 0 0
POINTS 1024
DATA ascii
-0.09233705 0.027309278 0.42500001 4278200324
-0.090956643 0.027309278 0.42500001 4279255834
-0.11055735 0.02950022 0.43700001 4280694315
-0.10888824 0.029432716 0.43600002 4280432167
-0.10722561 0.02936521 0.43500003 4281290804
-0.10556948 0.029297702 0.43400002 4279387935
-0.10367984 0.02916269 0.43200001 4279387935
-0.10203996 0.029095184 0.43100002 4279256349
-0.10017306 0.028960172 0.42900002 4279059740
-0.098549418 0.028892666 0.42800003 4279125531
-0.09693227 0.028825158 0.42700002 4278993945
-0.095321611 0.028757654 0.42600003 4279190554
-0.093937963 0.028757654 0.42600003 4280109862
-0.09233705 0.028690146 0.42500001 4279188762
-0.090956643 0.028690146 0.42500001 4279190041
-0.089365482 0.02862264 0.42400002 4279189273
-0.087988324 0.02862264 0.42400002 4279715619
-0.068101794 0.027812567 0.41200003 4278928666
-0.064949036 0.027610047 0.40900001 4278928668
-0.063620605 0.027610047 0.40900001 4278994461
-0.11081035 0.030990833 0.43800002 4281746743
-0.10888824 0.030849323 0.43600002 4280235299
-0.10722561 0.030778568 0.43500003 4280698667
-0.10556948 0.030707812 0.43400002 4279321629
-0.10367984 0.030566301 0.43200001 4279453728
-0.10203996 0.030495547 0.43100002 4279256349
-0.10017306 0.030354036 0.42900002 4279387935
-0.098549418 0.030283282 0.42800003 4279059740
-0.09693227 0.030212525 0.42700002 4278928154
-0.095321611 0.030141771 0.42600003 4279058457
-0.093717448 0.030071015 0.42500001 4278199044
-0.09233705 0.030071015 0.42500001 4279056922
-0.090742633 0.03000026 0.42400002 4279057176
-0.089365482 0.03000026 0.42400002 4278721547
-0.087780803 0.029929504 0.42300001 4278655756
-0.085998364 0.029787995 0.42100003 4278656269
-0.084429927 0.029717239 0.42000002 4278459660
-0.083065763 0.029717239 0.42000002 4278262794
-0.081507079 0.029646484 0.41900003 4278263306
-0.079954885 0.029575726 0.41800001 4278461707
-0.06943997 0.029151196 0.41200003 4278928154
-0.068101794 0.029151196 0.41200003 4278862361
-0.066439524 0.029009685 0.41000003 4278928154
-0.064949036 0.028938929 0.40900001 4278862875
-0.063465059 0.028868174 0.40800002 4278928668
-0.061835267 0.028726663 0.40600002 4278928668
-0.060367521 0.028655909 0.40500003 4278994459
-0.058906268 0.028585153 0.40400001 4278994461
-0.057451516 0.028514398 0.40300003 4279126049
-0.056142576 0.028514398 0.40300003 4278929183
-0.054833632 0.028514398 0.40300003 4278863390
-0.053391866 0.028443642 0.40200001 4278929183
-0.052086174 0.028443642 0.40200001 4278863390
-0.050780475 0.028443642 0.40200001 4279126562
-0.04947478 0.028443642 0.40200001 4278995746
-0.04816908 0.028443642 0.40200001 4279587883
-0.11081035 0.032413941 0.43800002 4280890147
-0.10888824 0.032265931 0.43600002 4280169758
-0.10722561 0.032191928 0.43500003 4280699432
-0.10556948 0.032117922 0.43400002 4279321629
-0.10367984 0.031969912 0.43200001 4279256349
-0.10203996 0.031895909 0.43100002 4279651107
-0.10017306 0.0317479 0.42900002 4279453728
-0.098549418 0.031673897 0.42800003 4279125533
-0.09693227 0.03159989 0.42700002 4278993947
-0.095321611 0.031525888 0.42600003 4279190043
-0.093717448 0.031451881 0.42500001 4278196992
-0.09233705 0.031451881 0.42500001 4279385887
-0.090742633 0.031377878 0.42400002 4278595601
-0.089154705 0.031303871 0.42300001 4278983697
-0.087780803 0.031303871 0.42300001 4278786318
-0.085998364 0.031155866 0.42100003 4278917390
-0.084429927 0.031081861 0.42000002 4278983183
-0.082867987 0.031007856 0.41900003 4278983183
-0.081507079 0.031007856 0.41900003 4278917392
-0.079954885 0.030933851 0.41800001 4278851597
-0.078409187 0.030859848 0.41700003 4278983183
-0.076869987 0.030785842 0.41600001 4278853133
-0.075337283 0.030711839 0.41500002 4279844389
-0.073811077 0.030637836 0.41400003 4278858773
-0.072466403 0.030637836 0.41400003 4278199044
-0.070949942 0.030563829 0.41300002 4278198018
-0.06943997 0.030489827 0.41200003 4278196736
-0.067936495 0.03041582 0.41100001 4278198274
-0.066439524 0.030341817 0.41000003 4278529294
-0.064949036 0.03026781 0.40900001 4279845668
-0.063465059 0.030193808 0.40800002 4279649826
-0.061835267 0.030045798 0.40600002 4279321631
-0.060367521 0.029971795 0.40500003 4279256349
-0.058906268 0.029897789 0.40400001 4278993949
-0.057451516 0.029823786 0.40300003 4278993949
-0.056142576 0.029823786 0.40300003 4279059742
-0.054833632 0.029823786 0.40300003 4278993949
-0.053391866 0.029749781 0.40200001 4278928670
-0.052086174 0.029749781 0.40200001 4278994463
-0.050780475 0.029749781 0.40200001 4279126049
-0.04947478 0.029749781 0.40200001 4278994463
-0.04816908 0.029749781 0.40200001 4279192355
-0.046979964 0.029823786 0.40300003 4279060769
-0.045671016 0.029823786 0.40300003 4278798367
-0.044362072 0.029823786 0.40300003 4278929953
-0.043053132 0.029823786 0.40300003 4279193125
-0.041744184 0.029823786 0.40300003 4279323687
-0.040535573 0.029897789 0.40400001 4285703559
-0.03922338 0.029897789 0.40400001 4279979570
-0.11081035 0.033837046 0.43800002 4281021733
-0.10888824 0.03368254 0.43600002 4281156390
-0.10722561 0.033605289 0.43500003 4280436258
-0.10532624 0.033450779 0.43300003 4279452697
-0.10367984 0.033373524 0.43200001 4279453467
-0.10203996 0.033296272 0.43100002 4279256347
-0.10017306 0.033141766 0.42900002 4279256347
-0.098319158 0.032987259 0.42700002 4279190554
-0.09693227 0.032987259 0.42700002 4279256347
-0.095321611 0.032910004 0.42600003 4279255836
-0.093717448 0.032832749 0.42500001 4278196992
-0.092119791 0.032755498 0.42400002 4279320348
-0.090742633 0.032755498 0.42400002 4278660880
-0.089154705 0.032678243 0.42300001 4279314199
-0.087573282 0.032600991 0.42200002 4278919441
-0.085998364 0.032523736 0.42100003 4279839776
-0.084429927 0.032446481 0.42000002 4279576604
-0.082867987 0.03236923 0.41900003 4279773983
-0.081312552 0.032291975 0.41800001 4279905823
-0.079954885 0.032291975 0.41800001 4279445272
-0.078409187 0.032214724 0.41700003 4279115537
-0.076869987 0.032137468 0.41600001 4278721549
-0.075337283 0.032060217 0.41500002 4280172584
-0.073811077 0.031982962 0.41400003 4279189791
-0.072466403 0.031982962 0.41400003 4279452963
-0.070949942 0.031905707 0.41300002 4279320607
-0.06943997 0.031828456 0.41200003 4279385887
-0.067936495 0.031751201 0.41100001 4279779875
-0.066439524 0.031673949 0.41000003 4279910947
-0.064949036 0.031596694 0.40900001 4279713055
-0.063465059 0.031519443 0.40800002 4279844641
-0.061835267 0.031364933 0.40600002 4278923541
-0.060367521 0.031287681 0.40500003 4278198791
-0.058906268 0.031210426 0.40400001 4278197248
-0.057594076 0.031210426 0.40400001 4278199303
-0.056142576 0.031133173 0.40300003 4278199046
-0.054833632 0.031133173 0.40300003 4278200588
-0.053524684 0.031133173 0.40300003 4279187740
-0.052215744 0.031133173 0.40300003 4279517473
-0.050780475 0.03105592 0.40200001 4279518756
-0.04947478 0.03105592 0.40200001 4279190304
-0.04816908 0.03105592 0.40200001 4278993695
-0.046979964 0.031133173 0.40300003 4278993949
-0.045671016 0.031133173 0.40300003 4278928670
-0.044362072 0.031133173 0.40300003 4278928670
-0.043053132 0.031133173 0.40300003 4278994463
-0.041744184 0.031133173 0.40300003 4279389734
-0.040535573 0.031210426 0.40400001 4279060515
-0.03922338 0.031210426 0.40400001 4279257894
-0.037911188 0.031210426 0.40400001 4279322662
-0.036598995 0.031210426 0.40400001 4279321125
-0.1086385 0.035018645 0.43500003 4279971096
-0.10697912 0.034938142 0.43400002 4280369956
-0.10532624 0.034857642 0.43300003 4279584283
-0.10367984 0.034777138 0.43200001 4279453980
-0.10227671 0.034777138 0.43200001 4279256601
-0.099939562 0.034455128 0.42800003 4279190808
-0.098319158 0.034374624 0.42700002 4279125531
-0.096705265 0.034294121 0.42600003 4279125531
-0.095321611 0.034294121 0.42600003 4279320859
-0.093717448 0.034213617 0.42500001 4278198274
-0.092119791 0.034133118 0.42400002 4279386141
-0.090742633 0.034133118 0.42400002 4278200329
-0.089154705 0.034052614 0.42300001 4278986002
-0.087573282 0.033972111 0.42200002 4279249174
-0.085998364 0.033891611 0.42100003 4278262279
-0.084429927 0.033811107 0.42000002 4278722830
-0.082867987 0.033730604 0.41900003 4279249176
-0.081312552 0.0336501 0.41800001 4278262281
-0.079954885 0.0336501 0.41800001 4278590474
-0.078409187 0.033569597 0.41700003 4280038688
-0.076869987 0.033489093 0.41600001 4278525453
-0.075337283 0.033408593 0.41500002 4279712803
-0.073811077 0.03332809 0.41400003 4278860826
-0.072466403 0.03332809 0.41400003 4278200586
-0.070949942 0.033247586 0.41300002 4278198789
-0.06943997 0.033167087 0.41200003 4279911461
-0.067936495 0.033086583 0.41100001 4278200326
-0.066439524 0.033006079 0.41000003 4278991383
-0.064949036 0.032925576 0.40900001 4279123482
-0.063465059 0.032845076 0.40800002 4279189275
-0.061987568 0.032764569 0.40700001 4279189275
-0.060516577 0.032684069 0.40600002 4279320861
-0.05905208 0.032603566 0.40500003 4279189275
-0.057594076 0.032523062 0.40400001 4279189275
-0.056142576 0.032442562 0.40300003 4279255068
-0.054833632 0.032442562 0.40300003 4279451934
-0.053524684 0.032442562 0.40300003 4279056152
-0.052215744 0.032442562 0.40300003 4279581982
-0.050906796 0.032442562 0.40300003 4278660882
-0.049597852 0.032442562 0.40300003 4278331663
-0.048288908 0.032442562 0.40300003 4278198021
-0.046979964 0.032442562 0.40300003 4279188510
-0.045671016 0.032442562 0.40300003 4278928156
-0.044362072 0.032442562 0.40300003 4278731291
-0.043053132 0.032442562 0.40300003 4278797084
-0.041744184 0.032442562 0.40300003 4278797084
-0.040535573 0.032523062 0.40400001 4278797084
-0.03922338 0.032523062 0.40400001 4278862877
-0.037911188 0.032523062 0.40400001 4278994463
-0.036598995 0.032523062 0.40400001 4278927132
-0.10838875 0.036348253 0.43400002 4281156392
-0.10697912 0.036348253 0.43400002 4280304161
-0.10532624 0.036264502 0.43300003 4279255834
-0.10367984 0.03618075 0.43200001 4279124761
-0.10180321 0.036013246 0.43000001 4279190554
-0.099939562 0.035845742 0.42800003 4279190554
-0.098319158 0.03576199 0.42700002 4278993945
-0.09693227 0.03576199 0.42700002 4278993945
-0.095321611 0.035678241 0.42600003 4279187992
-0.093717448 0.035594486 0.42500001 4278264841
-0.092119791 0.035510737 0.42400002 4279122199
-0.090742633 0.035510737 0.42400002 4278200072
-0.089154705 0.035426982 0.42300001 4278853648
-0.087573282 0.035343233 0.42200002 4278589963
-0.085998364 0.035259482 0.42100003 4278590476
-0.084429927 0.03517573 0.42000002 4278656269
-0.082867987 0.035091978 0.41900003 4279314199
-0.081312552 0.035008226 0.41800001 4278590476
-0.079763606 0.034924474 0.41700003 4280433959
-0.078409187 0.034924474 0.41700003 4280105762
-0.076869987 0.034840722 0.41600001 4278525453
-0.075337283 0.03475697 0.41500002 4279318045
-0.073811077 0.034673218 0.41400003 4278791955
-0.072466403 0.034673218 0.41400003 4278591757
-0.070949942 0.034589466 0.41300002 4278788623
-0.06943997 0.034505714 0.41200003 4280171301
-0.067936495 0.034421962 0.41100001 4279582236
-0.066439524 0.034338214 0.41000003 4279055892
-0.064949036 0.034254458 0.40900001 4278661394
-0.063465059 0.03417071 0.40800002 4278990359
-0.061987568 0.034086954 0.40700001 4278201096
-0.060516577 0.034003206 0.40600002 4279189275
-0.05905208 0.033919454 0.40500003 4279386654
-0.057594076 0.033835702 0.40400001 4279190045
-0.056281887 0.033835702 0.40400001 4279124252
-0.054833632 0.03375195 0.40300003 4279255838
-0.053524684 0.03375195 0.40300003 4279190045
-0.052215744 0.03375195 0.40300003 4279255838
-0.050906796 0.03375195 0.40300003 4279321631
-0.049597852 0.03375195 0.40300003 4279321631
-0.048288908 0.03375195 0.40300003 4279517473
-0.046979964 0.03375195 0.40300003 4278398222
-0.045671016 0.03375195 0.40300003 4279058972
-0.044362072 0.03375195 0.40300003 4278993949
-0.043053132 0.03375195 0.40300003 4278928156
-0.041744184 0.03375195 0.40300003 4278928156
-0.04043524 0.03375195 0.40300003 4278928156
-0.03922338 0.033835702 0.40400001 4278796570
-0.037911188 0.033835702 0.40400001 4278664984
-0.036598995 0.033835702 0.40400001 4278730007
-0.10838875 0.037758362 0.43400002 4278722049
-0.10673262 0.037671361 0.43300003 4279909916
-0.10508298 0.037584361 0.43200001 4279124250
-0.10343985 0.03749736 0.43100002 4279256349
-0.10180321 0.03741036 0.43000001 4279387935
-0.099939562 0.037236359 0.42800003 4279256349
-0.098549418 0.037236359 0.42800003 4279190556
-0.09693227 0.037149355 0.42700002 4279124763
-0.095321611 0.037062358 0.42600003 4279584031
-0.093717448 0.036975354 0.42500001 4279319062
-0.09233705 0.036975354 0.42500001 4279451162
-0.090742633 0.036888354 0.42400002 4279055379
-0.089154705 0.036801353 0.42300001 4278918928
-0.087573282 0.036714353 0.42200002 4278655756
-0.085998364 0.036627352 0.42100003 4278851851
-0.084429927 0.036540352 0.42000002 4278917644
-0.082867987 0.036453351 0.41900003 4278983183
-0.081312552 0.036366347 0.41800001 4278917390
-0.079763606 0.036279351 0.41700003 4278786318
-0.078409187 0.036279351 0.41700003 4278655756
-0.076869987 0.036192346 0.41600001 4278194688
-0.075337283 0.036105346 0.41500002 4279647262
-0.073811077 0.036018349 0.41400003 4278199818
-0.072466403 0.036018349 0.41400003 4278788623
-0.070949942 0.035931345 0.41300002 4278787853
-0.06943997 0.035844345 0.41200003 4279381785
-0.067936495 0.035757344 0.41100001 4279779361
-0.066439524 0.035670344 0.41000003 4278200843
-0.064949036 0.03558334 0.40900001 4278858259
-0.063465059 0.035496343 0.40800002 4279385117
-0.061987568 0.035409339 0.40700001 4278464015
-0.060516577 0.035322338 0.40600002 4278858259
-0.059197884 0.035322338 0.40600002 4278660880
-0.057736639 0.035235338 0.40500003 4279450396
-0.056281887 0.035148337 0.40400001 4279319578
-0.054969691 0.035148337 0.40400001 4278199043
-0.053657498 0.035148337 0.40400001 4278794263
-0.052215744 0.035061337 0.40300003 4278531091
-0.050906796 0.035061337 0.40300003 4279189021
-0.049597852 0.035061337 0.40300003 4279124511
-0.048288908 0.035061337 0.40300003 4279321377
-0.046979964 0.035061337 0.40300003 4278465298
-0.045671016 0.035061337 0.40300003 4279124252
-0.044362072 0.035061337 0.40300003 4279124765
-0.043053132 0.035061337 0.40300003 4279190556
-0.041744184 0.035061337 0.40300003 4278993177
-0.04043524 0.035061337 0.40300003 4279124763
-0.039126292 0.035061337 0.40300003 4278927384
-0.037817348 0.035061337 0.40300003 4278927384
-0.036508407 0.035061337 0.40300003 4278992666
-0.10813901 0.039078228 0.43300003 4280102932
-0.10673262 0.039078228 0.43300003 4279975709
-0.10508298 0.038987976 0.43200001 4279453213
-0.10343985 0.038897727 0.43100002 4279059740
-0.10180321 0.038807474 0.43000001 4279059740
-0.10017306 0.038717225 0.42900002 4278993947
-0.098549418 0.038626976 0.42800003 4279125533
-0.09693227 0.038536727 0.42700002 4279059740
-0.095545366 0.038536727 0.42700002 4278398992
-0.093937963 0.038446479 0.42600003 4278858513
-0.09233705 0.038356226 0.42500001 4279320346
-0.090742633 0.038265977 0.42400002 4279189273
-0.089365482 0.038265977 0.42400002 4279779361
-0.087780803 0.038175724 0.42300001 4279778850
-0.086202629 0.038085476 0.42200002 4279382809
-0.084429927 0.037904978 0.42000002 4278854414
-0.082867987 0.037814729 0.41900003 4278524683
-0.081312552 0.037724476 0.41800001 4278721549
-0.079954885 0.037724476 0.41800001 4278852365
-0.078409187 0.037634227 0.41700003 4278983437
-0.076869987 0.037543975 0.41600001 4278194688
-0.075337283 0.037453726 0.41500002 4279515678
-0.073811077 0.037363477 0.41400003 4279910949
-0.072466403 0.037363477 0.41400003 4279119385
-0.070949942 0.037273228 0.41300002 4279711520
-0.06943997 0.037182979 0.41200003 4279647775
-0.067936495 0.037092727 0.41100001 4279056152
-0.066601567 0.037092727 0.41100001 4279385117
-0.065107845 0.037002478 0.41000003 4279385117
-0.063620605 0.036912225 0.40900001 4278200072
-0.062139876 0.036821976 0.40800002 4278727187
-0.06066563 0.036731727 0.40700001 4279649059
-0.059197884 0.036641479 0.40600002 4278858007
-0.057736639 0.03655123 0.40500003 4278198536
-0.056421202 0.03655123 0.40500003 4278857746
-0.054969691 0.036460977 0.40400001 4279779875
-0.053657498 0.036460977 0.40400001 4278199303
-0.052345309 0.036460977 0.40400001 4278397456
-0.050906796 0.036370728 0.40300003 4279252252
-0.049597852 0.036370728 0.40300003 4279386400
-0.048288908 0.036370728 0.40300003 4279584549
-0.046979964 0.036370728 0.40300003 4278201612
-0.045671016 0.036370728 0.40300003 4279124252
-0.044362072 0.036370728 0.40300003 4279255838
-0.043053132 0.036370728 0.40300003 4279190556
-0.041744184 0.036370728 0.40300003 4278927384
-0.04043524 0.036370728 0.40300003 4278795798
-0.039126292 0.036370728 0.40300003 4279058970
-0.037817348 0.036370728 0.40300003 4278730005
-0.036508407 0.036370728 0.40300003 4279190045
-0.10813901 0.040485088 0.43300003 4280232721
-0.10673262 0.040485088 0.43300003 4279908885
-0.10508298 0.040391587 0.43200001 4279452697
-0.10343985 0.040298089 0.43100002 4279125015
-0.10180321 0.040204588 0.43000001 4279125531
-0.10017306 0.040111091 0.42900002 4278993945
-0.098549418 0.040017594 0.42800003 4279059738
-0.097159281 0.040017594 0.42800003 4279059738
-0.095545366 0.039924093 0.42700002 4279255836
-0.094158471 0.039924093 0.42700002 4279255066
-0.092554316 0.039830595 0.42600003 4279386650
-0.090956643 0.039737094 0.42500001 4279190041
-0.089365482 0.039643597 0.42400002 4279124250
-0.087780803 0.039550096 0.42300001 4279190043
-0.086202629 0.039456598 0.42200002 4279190043
-0.084630951 0.039363101 0.42100003 4279386652
-0.083065763 0.0392696 0.42000002 4279255066
-0.081507079 0.039176103 0.41900003 4279386652
-0.079954885 0.039082602 0.41800001 4279516955
-0.078409187 0.038989104 0.41700003 4279450650
-0.076869987 0.038895603 0.41600001 4279976740
-0.075337283 0.038802106 0.41500002 4279121431
-0.073989362 0.038802106 0.41500002 4278198280
-0.072466403 0.038708605 0.41400003 4278196483
-0.070949942 0.038615108 0.41300002 4278196738
-0.06943997 0.038521606 0.41200003 4278196224
-0.067936495 0.038428109 0.41100001 4278330634
-0.066601567 0.038428109 0.41100001 4279253019
-0.065107845 0.038334608 0.41000003 4279516703
-0.063620605 0.038241111 0.40900001 4280043301
-0.062139876 0.03814761 0.40800002 4280109092
-0.06066563 0.038054112 0.40700001 4279320348
-0.059197884 0.037960611 0.40600002 4279320607
-0.057736639 0.037867114 0.40500003 4279386400
-0.056421202 0.037867114 0.40500003 4279714852
-0.054969691 0.037773613 0.40400001 4279254301
-0.053657498 0.037773613 0.40400001 4279517473
-0.052345309 0.037773613 0.40400001 4278333201
-0.050906796 0.037680116 0.40300003 4278200331
-0.049597852 0.037680116 0.40300003 4279714852
-0.048288908 0.037680116 0.40300003 4279912744
-0.046979964 0.037680116 0.40300003 4278925849
-0.045671016 0.037680116 0.40300003 4279190556
-0.044362072 0.037680116 0.40300003 4279124763
-0.043053132 0.037680116 0.40300003 4279058970
-0.041744184 0.037680116 0.40300003 4279058970
-0.04043524 0.037680116 0.40300003 4279058970
-0.039126292 0.037680116 0.40300003 4278993177
-0.037817348 0.037680116 0.40300003 4278730005
-0.036508407 0.037680116 0.40300003 4279058457
-0.03519946 0.037680116 0.40300003 4279317275
-0.10648613 0.041795198 0.43200001 4281548068
-0.10508298 0.041795198 0.43200001 4279580436
-0.10343985 0.041698452 0.43100002 4279647512
-0.10180321 0.041601703 0.43000001 4279254551
-0.10017306 0.041504957 0.42900002 4279320344
-0.098779671 0.041504957 0.42900002 4279058457
-0.097159281 0.041408207 0.42800003 4279124250
-0.09576913 0.041408207 0.42800003 4279058457
-0.094158471 0.041311458 0.42700002 4279058457
-0.092771575 0.041311458 0.42700002 4279124250
-0.091170669 0.041214712 0.42600003 4279058457
-0.089576244 0.041117962 0.42500001 4279124763
-0.087988324 0.041021217 0.42400002 4279058970
-0.086406901 0.040924467 0.42300001 4278927382
-0.084831975 0.040827718 0.42200002 4279058968
-0.083065763 0.040634222 0.42000002 4278927382
-0.081507079 0.040537477 0.41900003 4278993175
-0.079954885 0.040440727 0.41800001 4278927382
-0.078409187 0.040343978 0.41700003 4279190554
-0.076869987 0.040247228 0.41600001 4279124763
-0.075518817 0.040247228 0.41600001 4279190556
-0.073989362 0.040150482 0.41500002 4279255838
-0.072466403 0.040053736 0.41400003 4279386400
-0.070949942 0.039956983 0.41300002 4279386400
-0.06943997 0.039860237 0.41200003 4279452193
-0.068101794 0.039860237 0.41200003 4279714852
-0.066601567 0.039763488 0.41100001 4279779877
-0.065107845 0.039666742 0.41000003 4279581984
-0.063620605 0.039569993 0.40900001 4278792468
-0.062139876 0.039473243 0.40800002 4278331404
-0.06066563 0.039376494 0.40700001 4278197762
-0.059197884 0.039279748 0.40600002 4278196736
-0.057736639 0.039183002 0.40500003 4278396427
-0.056421202 0.039183002 0.40500003 4278791955
-0.054969691 0.039086252 0.40400001 4279055125
-0.053657498 0.039086252 0.40400001 4279451164
-0.052345309 0.039086252 0.40400001 4279649313
-0.051033117 0.039086252 0.40400001 4279189275
-0.049597852 0.038989503 0.40300003 4279320859
-0.048288908 0.038989503 0.40300003 4279780899
-0.046979964 0.038989503 0.40300003 4279582498
-0.045671016 0.038989503 0.40300003 4279124763
-0.044362072 0.038989503 0.40300003 4279190556
-0.043053132 0.038989503 0.40300003 4279058970
-0.041744184 0.038989503 0.40300003 4279058970
-0.04043524 0.038989503 0.40300003 4279058970
-0.039126292 0.038989503 0.40300003 4278993177
-0.037817348 0.038989503 0.40300003 4278795798
-0.036508407 0.038989503 0.40300003 4278861078
-0.10180321 0.042998817 0.43000001 4279708172
-0.10017306 0.042898819 0.42900002 4279775250
-0.098779671 0.042898819 0.42900002 4279909405
-0.097386286 0.042898819 0.42900002 4280173088
-0.095992886 0.042898819 0.42900002 4279516441
-0.094378985 0.042798825 0.42800003 4279254553
-0.092988841 0.042798825 0.42800003 4279057174
-0.091384679 0.042698827 0.42700002 4279255066
-0.089787014 0.042598829 0.42600003 4279189273
-0.088195838 0.042498831 0.42500001 4279123480
-0.086406901 0.042298835 0.42300001 4279058455
-0.084831975 0.042198841 0.42200002 4279058455
-0.083263539 0.042098843 0.42100003 4278861076
-0.081701607 0.041998845 0.42000002 4278992662
-0.080146164 0.04189885 0.41900003 4278993175
-0.078597218 0.041798849 0.41800001 4279058968
-0.077054776 0.041698854 0.41700003 4279058968
-0.075518817 0.041598856 0.41600001 4279124763
-0.073989362 0.041498858 0.41500002 4279387935
-0.072466403 0.041398864 0.41400003 4279190556
-0.070949942 0.041298863 0.41300002 4279256349
-0.06960851 0.041298863 0.41300002 4279058970
-0.068101794 0.041198868 0.41200003 4279190556
-0.066601567 0.04109887 0.41100001 4279256349
-0.065107845 0.040998872 0.41000003 4279256351
-0.063620605 0.040898874 0.40900001 4279190558
-0.062139876 0.040798876 0.40800002 4279189791
-0.06066563 0.040698878 0.40700001 4279321377
-0.059197884 0.040598884 0.40600002 4279714852
-0.057736639 0.040498886 0.40500003 4279780645
-0.056421202 0.040498886 0.40500003 4279976740
-0.054969691 0.040398888 0.40400001 4279910947
-0.053657498 0.040398888 0.40400001 4279120920
-0.052345309 0.040398888 0.40400001 4278265611
-0.051033117 0.040398888 0.40400001 4278198020
-0.049597852 0.040298894 0.40300003 4278330634
-0.048288908 0.040298894 0.40300003 4278198790
-0.046979964 0.040298894 0.40300003 4279517473
-0.045671016 0.040298894 0.40300003 4279124511
-0.044362072 0.040298894 0.40300003 4278992925
-0.043053132 0.040298894 0.40300003 4279256097
-0.041744184 0.040298894 0.40300003 4278927902
-0.04043524 0.040298894 0.40300003 4278993695
-0.039126292 0.040298894 0.40300003 4278796316
-0.037817348 0.040298894 0.40300003 4278860826
-0.036508407 0.040298894 0.40300003 4278794263
-0.098779671 0.044292685 0.42900002 4280231438
-0.097386286 0.044292685 0.42900002 4279903243
-0.096216649 0.044395931 0.43000001 4279312391
-0.094599493 0.044292685 0.42900002 4279048965
-0.093206108 0.044292685 0.42900002 4278984199
-0.091384679 0.044086192 0.42700002 4278985736
-0.089787014 0.043982945 0.42600003 4279184910
-0.088195838 0.043879699 0.42500001 4279579668
-0.086611174 0.043776453 0.42400002 4279647512
-0.085032992 0.043673206 0.42300001 4279779611
-0.083461314 0.04356996 0.42200002 4279385367
-0.081896134 0.043466717 0.42100003 4279319574
-0.080337442 0.043363467 0.42000002 4279386139
-0.078597218 0.043156974 0.41800001 4279255066
-0.077054776 0.043053728 0.41700003 4279255066
-0.075518817 0.042950481 0.41600001 4279386652
-0.073989362 0.042847235 0.41500002 4279320859
-0.07264144 0.042847235 0.41500002 4279386652
-0.071121737 0.042743992 0.41400003 4279386652
-0.06960851 0.042640742 0.41300002 4279255836
-0.068101794 0.042537499 0.41200003 4279124763
-0.066601567 0.042434249 0.41100001 4279256349
-0.065107845 0.042331006 0.41000003 4279124765
-0.063620605 0.042227756 0.40900001 4279256351
-0.062139876 0.04212451 0.40800002 4279190304
-0.06066563 0.042021263 0.40700001 4279256351
-0.059197884 0.041918017 0.40600002 4279124765
-0.057736639 0.041814774 0.40500003 4279321631
-0.056421202 0.041814774 0.40500003 4279453217
-0.054969691 0.041711524 0.40400001 4279321631
-0.053657498 0.041711524 0.40400001 4279190045
-0.052345309 0.041711524 0.40400001 4279190045
-0.051033117 0.041711524 0.40400001 4279452447
-0.049597852 0.041608281 0.40300003 4279649313
-0.048288908 0.041608281 0.40300003 4279517473
-0.046979964 0.041608281 0.40300003 4279386400
-0.045671016 0.041608281 0.40300003 4279190304
-0.044362072 0.041608281 0.40300003 4279124511
-0.043053132 0.041608281 0.40300003 4279059488
-0.041744184 0.041608281 0.40300003 4278927902
-0.04043524 0.041608281 0.40300003 4278927902
-0.039126292 0.041608281 0.40300003 4278664730
-0.037817348 0.041608281 0.40300003 4278729240
-0.036508407 0.041608281 0.40300003 4278398224
-0.096440412 0.04589954 0.43100002 4280098830
-0.09482 0.045793042 0.43000001 4279967244
-0.093206108 0.04568655 0.42900002 4279507465
-0.091598697 0.045580056 0.42800003 4279245061
-0.089997783 0.045473557 0.42700002 4279311369
-0.088403367 0.045367062 0.42600003 4279179783
-0.086815447 0.045260567 0.42500001 4279246346
-0.085032992 0.045047574 0.42300001 4279312650
-0.083461314 0.044941083 0.42200002 4279445004
-0.081896134 0.044834588 0.42100003 4279905553
-0.080337442 0.044728089 0.42000002 4279447055
-0.078785248 0.044621594 0.41900003 4279710742
-0.077239558 0.044515099 0.41800001 4279513623
-0.075700358 0.044408605 0.41700003 4279580186
-0.074167646 0.044302106 0.41600001 4279844389
-0.07264144 0.044195615 0.41500002 4280042281
-0.071121737 0.04408912 0.41400003 4280108842
-0.06960851 0.043982621 0.41300002 4279846440
-0.068101794 0.043876126 0.41200003 4279649572
-0.066601567 0.043769632 0.41100001 4279584033
-0.065107845 0.043663137 0.41000003 4279649826
-0.063620605 0.043556638 0.40900001 4279649572
-0.061987568 0.043343648 0.40700001 4279649572
-0.06066563 0.043343648 0.40700001 4279452963
-0.059197884 0.043237153 0.40600002 4279321377
-0.057736639 0.043130659 0.40500003 4279321377
-0.056281887 0.043024164 0.40400001 4279452963
-0.054969691 0.043024164 0.40400001 4279518756
-0.053657498 0.043024164 0.40400001 4279518756
-0.052345309 0.043024164 0.40400001 4279452963
-0.050906796 0.042917669 0.40300003 4279321631
-0.049597852 0.042917669 0.40300003 4279321631
-0.048288908 0.042917669 0.40300003 4279321631
-0.046979964 0.042917669 0.40300003 4279190045
-0.045671016 0.042917669 0.40300003 4279124765
-0.044362072 0.042917669 0.40300003 4279190558
-0.043159962 0.043024164 0.40400001 4279124765
-0.041847765 0.043024164 0.40400001 4279124765
-0.040535573 0.043024164 0.40400001 4279058972
-0.03922338 0.043024164 0.40400001 4278927386
-0.037817348 0.042917669 0.40300003 4278990361
-0.036508407 0.042917669 0.40300003 4281026610
-0.071121737 0.045434248 0.41400003 4285631608
-0.06960851 0.045324501 0.41300002 4283789918
-0.068101794 0.045214757 0.41200003 4282606927
-0.066601567 0.04510501 0.41100001 4281093688
-0.065107845 0.044995267 0.41000003 4280172584
-0.063620605 0.04488552 0.40900001 4279579934
-0.061987568 0.044666033 0.40700001 4279646240
-0.060516577 0.04455629 0.40600002 4279777826
-0.059197884 0.04455629 0.40600002 4279712803
-0.057736639 0.044446547 0.40500003 4279713318
-0.056281887 0.0443368 0.40400001 4279977004
-0.054969691 0.0443368 0.40400001 4279582244
-0.053657498 0.0443368 0.40400001 4279779623
-0.052215744 0.044227056 0.40300003 4279976742
-0.050906796 0.044227056 0.40300003 4280043047
-0.049597852 0.044227056 0.40300003 4279846438
-0.048288908 0.044227056 0.40300003 4279714852
-0.046979964 0.044227056 0.40300003 4279714854
-0.045671016 0.044227056 0.40300003 4279780647
-0.044472151 0.0443368 0.40400001 4279517475
-0.043159962 0.0443368 0.40400001 4279649061
-0.041847765 0.0443368 0.40400001 4279780647
-0.040535573 0.0443368 0.40400001 4279649061
-0.03922338 0.0443368 0.40400001 4278991131
-0.037911188 0.0443368 0.40400001 4279842338
-0.061987568 0.045988414 0.40700001 4286157441
-0.060516577 0.045875423 0.40600002 4285894782
-0.05905208 0.045762431 0.40500003 4286289540
-0.057736639 0.045762431 0.40500003 4286026368
-0.056281887 0.045649435 0.40400001 4286355333
-0.054969691 0.045649435 0.40400001 4286157954
-0.053657498 0.045649435 0.40400001 4286092675
-0.052215744 0.045536444 0.40300003 4285697917
-0.050906796 0.045536444 0.40300003 4285171571
-0.049597852 0.045536444 0.40300003 4284579434
-0.048288908 0.045536444 0.40300003 4284185446
-0.046979964 0.045536444 0.40300003 4283527516
-0.045671016 0.045536444 0.40300003 4282277447
-0.044472151 0.045649435 0.40400001 4282211654
-0.043159962 0.045649435 0.40400001 4281356345
-0.041847765 0.045649435 0.40400001 4280895794
-0.040535573 0.045649435 0.40400001 4281289784
-0.03922338 0.045649435 0.40400001 4284513643
-0.056281887 0.046962075 0.40400001 4285894269
-0.054969691 0.046962075 0.40400001 4285894269
-0.053524684 0.046845831 0.40300003 4285696890
-0.052215744 0.046845831 0.40300003 4285631097
-0.070896029 0.036757525 0.41429541 4294967295
-0.070896029 0.036757525 0.41429541 4294901760
-0.070892304 0.036258824 0.41425958 4294901760
-0.070888586 0.03576012 0.41422379 4294901760
-0.070884861 0.035261419 0.41418797 4294901760
-0.070881143 0.034762718 0.41415215 4294901760
-0.070877418 0.034264017 0.41411635 4294901760
-0.070873693 0.033765312 0.41408053 4294901760
-0.070869975 0.033266611 0.41404471 4294901760
-0.07086625 0.032767911 0.41400892 4294901760
-0.070862524 0.032269206 0.41397309 4294901760
-0.070858806 0.031770505 0.41393727 4294901760
-0.070855081 0.031271804 0.41390148 4294901760
-0.070851363 0.030773101 0.41386566 4294901760
-0.070847638 0.0302744 0.41382986 4294901760
-0.070843913 0.029775698 0.41379404 4294901760
-0.070840195 0.029276997 0.41375822 4294901760
-0.07083647 0.028778294 0.41372243 4294901760
-0.070832744 0.028279591 0.4136866 4294901760
-0.070829026 0.02778089 0.41365078 4294901760
-0.070825301 0.02728219 0.41361499 4294901760
-0.070821583 0.026783485 0.41357917 4294901760
-0.070817858 0.026284784 0.41354334 4294901760
-0.070814133 0.025786083 0.41350755 4294901760
-0.070810415 0.02528738 0.41347173 4294901760
-0.07080669 0.024788678 0.41343591 4294901760
-0.070802972 0.024289977 0.41340011 4294901760
-0.070799246 0.023791276 0.41336429 4294901760
-0.070795521 0.023292571 0.41332847 4294901760
-0.070791803 0.02279387 0.41329268 4294901760
-0.070788078 0.02229517 0.41325685 4294901760
-0.070784353 0.021796467 0.41322106 4294901760
-0.070780635 0.021297764 0.41318524 4294901760
-0.07077691 0.020799063 0.41314942 4294901760
-0.070773192 0.02030036 0.41311362 4294901760
-0.070769466 0.01980166 0.4130778 4294901760
-0.070765741 0.019302959 0.41304198 4294901760
-0.070762023 0.018804254 0.41300619 4294901760
-0.070758298 0.018305553 0.41297036 4294901760
-0.070754573 0.017806852 0.41293454 4294901760
-0.070750855 0.017308151 0.41289875 4294901760
-0.07074713 0.016809447 0.41286293 4294901760
-0.070743412 0.016310746 0.4128271 4294901760
-0.070739686 0.015812045 0.41279131 4294901760
-0.070735961 0.015313342 0.41275549 4294901760
-0.070732243 0.014814639 0.41271967 4294901760
-0.070728518 0.014315939 0.41268387 4294901760
-0.070724793 0.013817236 0.41264805 4294901760
-0.070721075 0.013318535 0.41261223 4294901760
-0.07071735 0.012819832 0.41257644 4294901760
-0.070713632 0.012321129 0.41254061 4294901760
-0.070709907 0.011822429 0.41250479 4294901760
-0.070706181 0.011323728 0.412469 4294901760
-0.070702463 0.010825025 0.41243318 4294901760
-0.070698738 0.010326324 0.41239738 4294901760
-0.07069502 0.0098276194 0.41236156 4294901760
-0.070691295 0.0093289185 0.41232574 4294901760
-0.07068757 0.0088302176 0.41228995 4294901760
-0.070683852 0.0083315149 0.41225412 4294901760
-0.070680127 0.007832814 0.4122183 4294901760
-0.070676401 0.0073341131 0.41218251 4294901760
-0.070672683 0.0068354085 0.41214669 4294901760
-0.070668958 0.0063367058 0.41211087 4294901760
-0.07066524 0.0058380049 0.41207507 4294901760
-0.070661515 0.0053393021 0.41203925 4294901760
-0.07065779 0.0048406012 0.41200343 4294901760
-0.070654072 0.0043419003 0.41196764 4294901760
-0.070650347 0.0038431957 0.41193181 4294901760
-0.070646621 0.0033444948 0.41189599 4294901760
-0.070642903 0.002845794 0.4118602 4294901760
-0.070639178 0.0023470931 0.41182438 4294901760
-0.07063546 0.0018483922 0.41178858 4294901760
-0.070631735 0.0013496876 0.41175276 4294901760
-0.07062801 0.00085098296 0.41171694 4294901760
-0.070624292 0.00035228208 0.41168115 4294901760
-0.070620567 -0.00014641881 0.41164532 4294901760
-0.070616841 -0.0006451197 0.4116095 4294901760
-0.070613123 -0.0011438206 0.41157371 4294901760
-0.070609398 -0.0016425215 0.41153789 4294901760
-0.07060568 -0.0021412224 0.41150206 4294901760
-0.070601955 -0.002639927 0.41146627 4294901760
-0.07059823 -0.0031386316 0.41143045 4294901760
-0.070594512 -0.0036373325 0.41139463 4294901760
-0.070590787 -0.0041360334 0.41135883 4294901760
-0.070587069 -0.0046347342 0.41132301 4294901760
-0.070583344 -0.0051334351 0.41128719 4294901760
-0.070579618 -0.0056321397 0.4112514 4294901760
-0.0705759 -0.0061308406 0.41121557 4294901760
-0.070572175 -0.0066295415 0.41117975 4294901760
-0.07056845 -0.0071282461 0.41114396 4294901760
-0.070564732 -0.007626947 0.41110814 4294901760
-0.070561007 -0.0081256479 0.41107231 4294901760
-0.070557289 -0.0086243525 0.41103652 4294901760
-0.070553564 -0.0091230534 0.4110007 4294901760
-0.070549838 -0.0096217543 0.41096491 4294901760
-0.07054612 -0.010120455 0.41092908 4294901760
-0.070542395 -0.010619156 0.41089326 4294901760
-0.07053867 -0.011117861 0.41085747 4294901760
-0.070534952 -0.011616565 0.41082165 4294901760
-0.070531227 -0.012115266 0.41078582 4294901760
-0.070527509 -0.012613967 0.41075003 4294901760
-0.070523784 -0.013112668 0.41071421 4294901760
-0.070896029 0.036757525 0.41429541 4278255360
-0.070448555 0.036776826 0.41407317 4278255360
-0.070001081 0.036796127 0.4138509 4278255360
-0.069553606 0.036815424 0.41362867 4278255360
-0.069106139 0.036834724 0.4134064 4278255360
-0.068658665 0.036854025 0.41318417 4278255360
-0.06821119 0.036873326 0.4129619 4278255360
-0.067763716 0.036892626 0.41273966 4278255360
-0.067316242 0.036911923 0.4125174 4278255360
-0.066868767 0.036931224 0.41229516 4278255360
-0.066421293 0.036950525 0.4120729 4278255360
-0.065973826 0.036969826 0.41185066 4278255360
-0.065526351 0.036989123 0.4116284 4278255360
-0.065078877 0.037008423 0.41140616 4278255360
-0.064631402 0.037027724 0.41118389 4278255360
-0.064183928 0.037047025 0.41096166 4278255360
-0.063736454 0.037066326 0.41073939 4278255360
-0.063288979 0.037085623 0.41051716 4278255360
-0.062841512 0.037104923 0.41029489 4278255360
-0.062394038 0.037124224 0.41007265 4278255360
-0.061946563 0.037143525 0.40985039 4278255360
-0.061499089 0.037162825 0.40962815 4278255360
-0.061051615 0.037182122 0.40940589 4278255360
-0.06060414 0.037201423 0.40918365 4278255360
-0.060156669 0.037220724 0.40896139 4278255360
-0.059709195 0.037240025 0.40873915 4278255360
-0.059261724 0.037259325 0.40851691 4278255360
-0.05881425 0.037278622 0.40829465 4278255360
-0.058366776 0.037297923 0.40807241 4278255360
-0.057919301 0.037317224 0.40785015 4278255360
-0.057471827 0.037336525 0.40762791 4278255360
-0.057024356 0.037355822 0.40740564 4278255360
-0.056576882 0.037375122 0.40718341 4278255360
-0.056129411 0.037394423 0.40696114 4278255360
-0.055681936 0.037413724 0.40673891 4278255360
-0.055234462 0.037433024 0.40651664 4278255360
-0.054786988 0.037452321 0.40629441 4278255360
-0.054339513 0.037471622 0.40607214 4278255360
-0.053892042 0.037490923 0.4058499 4278255360
-0.053444572 0.037510224 0.40562764 4278255360
-0.052997097 0.037529524 0.4054054 4278255360
-0.052549623 0.037548821 0.40518314 4278255360
-0.052102149 0.037568122 0.4049609 4278255360
-0.051654674 0.037587423 0.40473863 4278255360
-0.051207203 0.037606724 0.4045164 4278255360
-0.050759729 0.037626024 0.40429413 4278255360
-0.050312255 0.037645321 0.4040719 4278255360
-0.049864784 0.037664622 0.40384963 4278255360
-0.049417309 0.037683923 0.4036274 4278255360
-0.048969835 0.037703224 0.40340513 4278255360
-0.048522361 0.037722521 0.40318289 4278255360
-0.04807489 0.037741821 0.40296066 4278255360
-0.047627419 0.037761122 0.40273839 4278255360
-0.047179945 0.037780423 0.40251616 4278255360
-0.04673247 0.037799723 0.40229389 4278255360
-0.046284996 0.03781902 0.40207165 4278255360
-0.045837522 0.037838321 0.40184939 4278255360
-0.045390047 0.037857622 0.40162715 4278255360
-0.044942576 0.037876923 0.40140489 4278255360
-0.044495106 0.037896223 0.40118265 4278255360
-0.044047628 0.03791552 0.40096039 4278255360
-0.043600157 0.037934821 0.40073815 4278255360
-0.043152682 0.037954122 0.40051588 4278255360
-0.042705208 0.037973423 0.40029365 4278255360
-0.042257734 0.037992723 0.40007138 4278255360
-0.041810263 0.03801202 0.39984915 4278255360
-0.041362789 0.038031321 0.39962688 4278255360
-0.040915314 0.038050622 0.39940464 4278255360
-0.040467843 0.038069922 0.39918238 4278255360
-0.040020369 0.038089223 0.39896014 4278255360
-0.039572895 0.03810852 0.39873788 4278255360
-0.039125424 0.038127821 0.39851564 4278255360
-0.038677949 0.038147122 0.39829338 4278255360
-0.038230475 0.038166422 0.39807114 4278255360
-0.037783001 0.038185719 0.3978489 4278255360
-0.03733553 0.03820502 0.39762664 4278255360
-0.036888056 0.038224321 0.39740437 4278255360
-0.036440585 0.038243622 0.39718214 4278255360
-0.03599311 0.038262922 0.3969599 4278255360
-0.035545636 0.038282219 0.39673764 4278255360
-0.035098162 0.03830152 0.3965154 4278255360
-0.034650687 0.038320821 0.39629313 4278255360
-0.034203216 0.038340122 0.3960709 4278255360
-0.033755742 0.038359422 0.39584863 4278255360
-0.033308271 0.038378719 0.3956264 4278255360
-0.032860793 0.03839802 0.39540413 4278255360
-0.032413322 0.038417321 0.39518189 4278255360
-0.031965848 0.038436621 0.39495963 4278255360
-0.031518377 0.038455922 0.39473739 4278255360
-0.031070903 0.038475219 0.39451513 4278255360
-0.030623429 0.03849452 0.39429289 4278255360
-0.030175954 0.038513821 0.39407063 4278255360
-0.02972848 0.038533121 0.39384839 4278255360
-0.029281009 0.038552418 0.39362612 4278255360
-0.028833535 0.038571719 0.39340389 4278255360
-0.028386064 0.03859102 0.39318162 4278255360
-0.027938589 0.038610321 0.39295939 4278255360
-0.027491115 0.038629621 0.39273712 4278255360
-0.027043641 0.038648918 0.39251488 4278255360
-0.02659617 0.038668219 0.39229262 4278255360
-0.026148695 0.03868752 0.39207038 4278255360
-0.070896029 0.036757525 0.41429541 4278190335
-0.07065066 0.036728144 0.41473007 4278190335
-0.070405297 0.036698762 0.41516474 4278190335
-0.070159927 0.036669381 0.41559941 4278190335
-0.069914564 0.03664 0.41603404 4278190335
-0.069669195 0.036610615 0.41646871 4278190335
-0.069423832 0.036581233 0.41690338 4278190335
-0.069178462 0.036551852 0.41733804 4278190335
-0.068933092 0.03652247 0.41777271 4278190335
-0.06868773 0.036493089 0.41820738 4278190335
-0.06844236 0.036463708 0.41864204 4278190335
-0.068196997 0.036434326 0.41907671 4278190335
-0.067951627 0.036404945 0.41951135 4278190335
-0.067706265 0.03637556 0.41994601 4278190335
-0.067460895 0.036346179 0.42038068 4278190335
-0.067215525 0.036316797 0.42081535 4278190335
-0.066970162 0.036287416 0.42125002 4278190335
-0.066724792 0.036258034 0.42168468 4278190335
-0.06647943 0.036228653 0.42211935 4278190335
-0.06623406 0.036199272 0.42255402 4278190335
-0.065988697 0.03616989 0.42298865 4278190335
-0.065743327 0.036140505 0.42342332 4278190335
-0.065497957 0.036111124 0.42385799 4278190335
-0.065252595 0.036081742 0.42429265 4278190335
-0.065007225 0.036052361 0.42472732 4278190335
-0.064761862 0.03602298 0.42516199 4278190335
-0.064516492 0.035993598 0.42559665 4278190335
-0.06427113 0.035964217 0.42603129 4278190335
-0.06402576 0.035934836 0.42646596 4278190335
-0.063780397 0.035905454 0.42690063 4278190335
-0.063535027 0.035876069 0.42733529 4278190335
-0.063289657 0.035846688 0.42776996 4278190335
-0.063044295 0.035817306 0.42820463 4278190335
-0.062798925 0.035787925 0.42863929 4278190335
-0.062553562 0.035758544 0.42907396 4278190335
-0.062308192 0.035729162 0.4295086 4278190335
-0.062062826 0.035699781 0.42994326 4278190335
-0.06181746 0.0356704 0.43037793 4278190335
-0.061572094 0.035641015 0.4308126 4278190335
-0.061326727 0.035611633 0.43124726 4278190335
-0.061081357 0.035582252 0.43168193 4278190335
-0.060835991 0.03555287 0.4321166 4278190335
-0.060590625 0.035523489 0.43255126 4278190335
-0.060345259 0.035494108 0.4329859 4278190335
-0.060099892 0.035464726 0.43342057 4278190335
-0.059854526 0.035435345 0.43385524 4278190335
-0.05960916 0.03540596 0.4342899 4278190335
-0.05936379 0.035376579 0.43472457 4278190335
-0.059118424 0.035347197 0.43515924 4278190335
-0.058873057 0.035317816 0.4355939 4278190335
-0.058627691 0.035288434 0.43602854 4278190335
-0.058382325 0.035259053 0.43646321 4278190335
-0.058136959 0.035229672 0.43689787 4278190335
-0.057891592 0.03520029 0.43733254 4278190335
-0.057646222 0.035170905 0.43776721 4278190335
-0.057400856 0.035141524 0.43820187 4278190335
-0.05715549 0.035112143 0.43863654 4278190335
-0.056910124 0.035082761 0.43907121 4278190335
-0.056664757 0.03505338 0.43950585 4278190335
-0.056419391 0.035023998 0.43994051 4278190335
-0.056174025 0.034994617 0.44037518 4278190335
-0.055928655 0.034965236 0.44080985 4278190335
-0.055683289 0.034935854 0.44124451 4278190335
-0.055437922 0.034906469 0.44167918 4278190335
-0.055192556 0.034877088 0.44211385 4278190335
-0.05494719 0.034847707 0.44254851 4278190335
-0.05470182 0.034818325 0.44298315 4278190335
-0.054456457 0.034788944 0.44341782 4278190335
-0.054211088 0.034759562 0.44385248 4278190335
-0.053965725 0.034730181 0.44428715 4278190335
-0.053720355 0.0347008 0.44472182 4278190335
-0.053474989 0.034671418 0.44515648 4278190335
-0.053229623 0.034642033 0.44559115 4278190335
-0.052984253 0.034612652 0.44602579 4278190335
-0.05273889 0.034583271 0.44646046 4278190335
-0.05249352 0.034553889 0.44689512 4278190335
-0.052248158 0.034524508 0.44732979 4278190335
-0.052002788 0.034495126 0.44776446 4278190335
-0.051757425 0.034465745 0.44819912 4278190335
-0.051512055 0.03443636 0.44863379 4278190335
-0.051266685 0.034406979 0.44906846 4278190335
-0.051021323 0.034377597 0.44950312 4278190335
-0.050775953 0.034348216 0.44993776 4278190335
-0.05053059 0.034318835 0.45037243 4278190335
-0.05028522 0.034289453 0.45080709 4278190335
-0.050039854 0.034260072 0.45124176 4278190335
-0.049794488 0.03423069 0.45167643 4278190335
-0.049549121 0.034201309 0.4521111 4278190335
-0.049303755 0.034171924 0.45254576 4278190335
-0.049058385 0.034142543 0.4529804 4278190335
-0.048813023 0.034113161 0.45341507 4278190335
-0.048567653 0.03408378 0.45384973 4278190335
-0.048322286 0.034054399 0.4542844 4278190335
-0.04807692 0.034025017 0.45471907 4278190335
-0.047831554 0.033995636 0.45515373 4278190335
-0.047586188 0.033966254 0.4555884 4278190335
-0.047340818 0.033936873 0.45602304 4278190335
-0.047095452 0.033907488 0.4564577 4278190335
-0.046850085 0.033878107 0.45689237 4278190335
-0.046604719 0.033848725 0.45732704 4278190335
-0.046359353 0.033819344 0.4577617 4278190335
-0.070896029 0.036757525 0.41429541 4294967295
-0.072368227 0.036933817 0.41168743 4294967295
-0.073840432 0.037110105 0.40907946 4294967295
-0.075312629 0.037286397 0.40647146 4294967295
-0.076784834 0.037462689 0.40386349 4294967295
-0.078257032 0.037638981 0.40125552 4294967295
-0.079729229 0.037815273 0.39864755 4294967295
-0.081201434 0.037991561 0.39603955 4294967295
-0.082673632 0.038167853 0.39343157 4294967295
-0.084145837 0.038344145 0.3908236 4294967295
-0.085618034 0.038520433 0.38821563 4294967295
-0.087090239 0.038696725 0.38560766 4294967295
-0.088562436 0.038873017 0.38299966 4294967295
-0.090034634 0.039049309 0.38039169 4294967295
-0.091506839 0.039225601 0.37778372 4294967295
-0.092979036 0.039401889 0.37517574 4294967295
-0.094451234 0.039578181 0.37256777 4294967295
-0.095923439 0.039754473 0.36995977 4294967295
-0.097395636 0.039930765 0.3673518 4294967295
-0.098867834 0.040107053 0.36474383 4294967295
-0.10034004 0.040283345 0.36213586 4294967295
-0.10181224 0.040459637 0.35952786 4294967295
-0.10328444 0.040635929 0.35691988 4294967295
-0.10475664 0.040812217 0.35431191 4294967295
-0.10622884 0.040988509 0.35170394 4294967295
-0.10770104 0.041164801 0.34909594 4294967295
-0.10917324 0.041341089 0.34648797 4294967295
-0.11064544 0.041517381 0.34388 4294967295
-0.11211764 0.041693673 0.34127203 4294967295
-0.11358984 0.041869964 0.33866405 4294967295
-0.11506204 0.042046256 0.33605605 4294967295
-0.11653425 0.042222545 0.33344808 4294967295
-0.11800644 0.042398836 0.33084011 4294967295
-0.11947864 0.042575128 0.32823214 4294967295
-0.12095085 0.042751417 0.32562417 4294967295
-0.12242305 0.042927708 0.32301617 4294967295
-0.12389524 0.043104 0.3204082 4294967295
-0.12536745 0.043280292 0.31780022 4294967295
-0.12683964 0.043456584 0.31519225 4294967295
-0.12831184 0.043632872 0.31258428 4294967295
-0.12978405 0.043809164 0.30997628 4294967295
-0.13125625 0.043985456 0.30736831 4294967295
-0.13272844 0.044161744 0.30476034 4294967295
-0.13420065 0.044338036 0.30215234 4294967295
-0.13567285 0.044514328 0.29954436 4294967295
-0.13714504 0.04469062 0.29693639 4294967295
-0.13861725 0.044866912 0.29432842 4294967295
-0.14008945 0.0450432 0.29172045 4294967295
-0.14156166 0.045219492 0.28911245 4294967295
-0.14303386 0.045395784 0.28650448 4294967295
-0.14450605 0.045572072 0.28389651 4294967295
-0.14597824 0.045748364 0.28128853 4294967295
-0.14745045 0.045924656 0.27868056 4294967295
-0.14892265 0.046100944 0.27607256 4294967295
-0.15039486 0.04627724 0.27346459 4294967295
-0.15186706 0.046453528 0.27085662 4294967295
-0.15333925 0.04662982 0.26824862 4294967295
-0.15481146 0.046806112 0.26564068 4294967295
-0.15628365 0.0469824 0.26303267 4294967295
-0.15775585 0.047158692 0.2604247 4294967295
-0.15922806 0.047334984 0.25781673 4294967295
-0.16070026 0.047511276 0.25520873 4294967295
-0.16217247 0.047687568 0.25260079 4294967295
-0.16364466 0.047863856 0.24999279 4294967295
-0.16511685 0.048040148 0.24738482 4294967295
-0.16658905 0.04821644 0.24477684 4294967295
-0.16806126 0.048392728 0.24216886 4294967295
-0.16953346 0.04856902 0.23956087 4294967295
-0.17100567 0.048745312 0.2369529 4294967295
-0.17247787 0.048921604 0.23434493 4294967295
-0.17395006 0.049097896 0.23173694 4294967295
-0.17542225 0.049274184 0.22912897 4294967295
-0.17689446 0.049450476 0.22652099 4294967295
-0.17836666 0.049626768 0.22391301 4294967295
-0.17983887 0.049803056 0.22130503 4294967295
-0.18131107 0.049979348 0.21869706 4294967295
-0.18278326 0.05015564 0.21608908 4294967295
-0.18425545 0.050331932 0.2134811 4294967295
-0.18572766 0.05050822 0.21087313 4294967295
-0.18719986 0.050684512 0.20826514 4294967295
-0.18867207 0.050860804 0.20565717 4294967295
-0.19014427 0.051037095 0.20304918 4294967295
-0.19161648 0.051213384 0.20044121 4294967295
-0.19308867 0.051389676 0.19783324 4294967295
-0.19456086 0.051565968 0.19522525 4294967295
