# .PCD v0.7 - Point Cloud Data file format
VERSION 0.7
FIELDS x y z rgb
SIZE 4 4 4 4
TYPE F F F U
COUNT 1 1 1 1
WIDTH 1021
HEIGHT 1
VIEWPOINT 0 0 0 1 0 0 0
POINTS 1021
DATA ascii
0.024825802 -0.0067881718 0.40000001 4280825378
0.038725842 -0.0067202905 0.39600003 4281748027
0.039911009 -0.00670332 0.39500001 4281616189
0.04119397 -0.00670332 0.39500001 4284051560
0.04247693 -0.00670332 0.39500001 4286553742
0.081411988 -0.0070766695 0.41700003 4285764226
0.082964882 -0.0070936396 0.41800001 4285830019
0.084322542 -0.0070936396 0.41800001 4285764226
0.085680209 -0.0070936396 0.41800001 4285566847
0.087246105 -0.0071106106 0.41900003 4285632640
0.088607021 -0.0071106106 0.41900003 4285632640
0.090182647 -0.0071275807 0.42000002 4286355593
0.091546811 -0.0071275807 0.42000002 4285896066
0.09313219 -0.0071445513 0.42100003 4284449903
0.094499595 -0.0071445513 0.42100003 4282805074
0.096094713 -0.0071615218 0.42200002 4281555007
0.097465374 -0.0071615218 0.42200002 4279979057
0.099070236 -0.0071784919 0.42300001 4280439610
0.10044414 -0.0071784919 0.42300001 4280505399
0.10181805 -0.0071784919 0.42300001 4279913516
0.10319195 -0.0071784919 0.42300001 4280177199
0.10481305 -0.0071954625 0.42400002 4280045613
0.1061902 -0.0071954625 0.42400002 4279783461
0.10756736 -0.0071954625 0.42400002 4279652389
0.10920145 -0.0072124326 0.42500001 4279126560
0.11058186 -0.0072124326 0.42500001 4279258146
0.11196226 -0.0072124326 0.42500001 4278666779
0.11334267 -0.0072124326 0.42500001 4278995744
0.11472306 -0.0072124326 0.42500001 4279193123
0.11610346 -0.0072124326 0.42500001 4279127330
0.11748386 -0.0072124326 0.42500001 4279193121
0.11914395 -0.0072294036 0.42600003 4279389984
0.1205276 -0.0072294036 0.42600003 4279388707
0.024763739 -0.00547481 0.39900002 4280563751
0.028795214 -0.0055022528 0.40100002 4280563751
0.037439633 -0.0054336465 0.39600003 4280167457
0.038628045 -0.0054199249 0.39500001 4279904285
0.042369392 -0.0054062037 0.39400002 4280631602
0.043649107 -0.0054062037 0.39400002 4280632887
0.07660678 -0.0056669088 0.41300002 4285895814
0.078136951 -0.0056806304 0.41400003 4285830021
0.079481617 -0.0056806304 0.41400003 4285764226
0.081216753 -0.0057080728 0.41600001 4285764226
0.082567923 -0.0057080728 0.41600001 4285896066
0.083919086 -0.0057080728 0.41600001 4285961859
0.085475236 -0.0057217944 0.41700003 4284119914
0.087037876 -0.0057355152 0.41800001 4282016075
0.088395543 -0.0057355152 0.41800001 4281029690
0.089967929 -0.0057492368 0.41900003 4280240944
0.091328844 -0.0057492368 0.41900003 4280374067
0.092910968 -0.005762958 0.42000002 4280111406
0.094499595 -0.0057766796 0.42100003 4279586084
0.095867008 -0.0057766796 0.42100003 4279454496
0.09723442 -0.0057766796 0.42100003 4279126560
0.098836027 -0.0057904008 0.42200002 4279323941
0.10020669 -0.0057904008 0.42200002 4279323941
0.10157734 -0.0057904008 0.42200002 4279258918
0.10319195 -0.005804122 0.42300001 4279193125
0.10456585 -0.005804122 0.42300001 4278996257
0.10593975 -0.005804122 0.42300001 4278930462
0.10756736 -0.0058178436 0.42400002 4278930716
0.10894451 -0.0058178436 0.42400002 4278930716
0.11032167 -0.0058178436 0.42400002 4278733337
0.11169882 -0.0058178436 0.42400002 4278601751
0.11334267 -0.0058315648 0.42500001 4278733083
0.11472306 -0.0058315648 0.42500001 4278667290
0.11610346 -0.0058315648 0.42500001 4278732570
0.11748386 -0.0058315648 0.42500001 4278798363
0.11886426 -0.0058315648 0.42500001 4278930203
0.12024467 -0.0058315648 0.42500001 4279389730
0.12162507 -0.0058315648 0.42500001 4279451941
0.019432712 -0.0041470015 0.39600003 4280695589
0.024763739 -0.0041784183 0.39900002 4280366372
0.028723404 -0.0041888906 0.40000001 4280432680
0.036153425 -0.0041470015 0.39600003 4280563753
0.037345089 -0.0041365293 0.39500001 4280036125
0.038628045 -0.0041365293 0.39500001 4279706906
0.039809968 -0.0041260575 0.39400002 4279904285
0.04108968 -0.0041260575 0.39400002 4279707420
0.044700753 -0.004105113 0.39200002 4280306741
0.045973971 -0.004105113 0.39200002 4282017870
0.07338696 -0.0042936131 0.41000003 4285895814
0.074900873 -0.0043040849 0.41100001 4285698946
0.076421298 -0.0043145572 0.41200003 4286225290
0.077759475 -0.0043145572 0.41200003 4284778868
0.07928963 -0.0043250294 0.41300002 4282213966
0.08082629 -0.0043355017 0.41400003 4280898876
0.082170963 -0.0043355017 0.41400003 4280438323
0.083717361 -0.004345974 0.41500002 4280504883
0.085065283 -0.004345974 0.41500002 4279652393
0.086621426 -0.0043564462 0.41600001 4279521320
0.088184074 -0.0043669185 0.41700003 4279258918
0.089753203 -0.0043773907 0.41800001 4279127330
0.09111087 -0.0043773907 0.41800001 4279193121
0.09268976 -0.004387863 0.41900003 4279061535
0.094050668 -0.004387863 0.41900003 4279193375
0.095639288 -0.0043983352 0.42000002 4279127582
0.097003452 -0.0043983352 0.42000002 4278733337
0.098601818 -0.0044088075 0.42100003 4278930716
0.099969231 -0.0044088075 0.42100003 4278864923
0.10157734 -0.0044192798 0.42200002 4278667544
0.102948 -0.0044192798 0.42200002 4278470935
0.10431866 -0.0044192798 0.42200002 4278536728
0.10593975 -0.0044297515 0.42300001 4278470935
0.10731366 -0.0044297515 0.42300001 4279062302
0.10868756 -0.0044297515 0.42300001 4278601497
0.11032167 -0.0044402243 0.42400002 4278601497
0.11169882 -0.0044402243 0.42400002 4278535958
0.11307598 -0.0044402243 0.42400002 4278470165
0.11445314 -0.0044402243 0.42400002 4278797847
0.11583027 -0.0044402243 0.42400002 4278863386
0.11748386 -0.0044506961 0.42500001 4278731287
0.11886426 -0.0044506961 0.42500001 4279126047
0.12024467 -0.0044506961 0.42500001 4279453730
0.12162507 -0.0044506961 0.42500001 4281556806
0.029872492 -0.0028748037 0.39800003 4280498471
0.036062125 -0.0028531342 0.39500001 4280234016
0.037345089 -0.0028531342 0.39500001 4279772186
0.038530257 -0.0028459111 0.39400002 4279706393
0.039809968 -0.0028459111 0.39400002 4279641113
0.04108968 -0.0028459111 0.39400002 4279706906
0.044700753 -0.0028314649 0.39200002 4279516703
0.045973971 -0.0028314649 0.39200002 4280374578
0.047126662 -0.0028242418 0.39100003 4279847984
0.048396628 -0.0028242418 0.39100003 4284517239
0.049666595 -0.0028242418 0.39100003 4286226062
0.069861114 -0.0029253655 0.40500003 4285501819
0.071352296 -0.0029325886 0.40600002 4283331933
0.073028974 -0.0029470348 0.40800002 4281030462
0.074536391 -0.0029542579 0.40900001 4280241711
0.076235801 -0.0029687041 0.41100001 4279849004
0.077570736 -0.0029687041 0.41100001 4279586348
0.078905657 -0.0029687041 0.41100001 4279456043
0.080435827 -0.0029759274 0.41200003 4279258918
0.08197248 -0.0029831503 0.41300002 4279127330
0.083313905 -0.0029831503 0.41300002 4279127330
0.08486031 -0.0029903736 0.41400003 4278996255
0.086204983 -0.0029903736 0.41400003 4278997025
0.087761126 -0.0029975967 0.41500002 4278931232
0.089323759 -0.0030048196 0.41600001 4278931232
0.090892904 -0.003012043 0.41700003 4278865439
0.092468537 -0.0030192661 0.41800001 4278799646
0.093826197 -0.0030192661 0.41800001 4278733853
0.095411584 -0.0030264892 0.41900003 4278733337
0.096772492 -0.0030264892 0.41900003 4278601751
0.098367609 -0.0030337123 0.42000002 4278601751
0.099731773 -0.0030337123 0.42000002 4278535958
0.10133664 -0.0030409356 0.42100003 4278470165
0.10270405 -0.0030409356 0.42100003 4278272273
0.10431866 -0.0030481585 0.42200002 4278535445
0.10568931 -0.0030481585 0.42200002 4278666777
0.10705996 -0.0030481585 0.42200002 4278929949
0.10868756 -0.0030553816 0.42300001 4279192351
0.11006147 -0.0030553816 0.42300001 4278929179
0.11143538 -0.0030553816 0.42300001 4279387933
0.11280929 -0.0030553816 0.42300001 4279387935
0.11445314 -0.0030626049 0.42400002 4279257635
0.11583027 -0.0030626049 0.42400002 4279126047
0.11720743 -0.0030626049 0.42400002 4279322912
0.11858459 -0.0030626049 0.42400002 4279388707
0.12024467 -0.0030698278 0.42500001 4279387685
0.12162507 -0.0030698278 0.42500001 4283463519
0.036062125 -0.0015697388 0.39500001 4279312916
0.037345089 -0.0015697388 0.39500001 4279772186
0.038530257 -0.0015657649 0.39400002 4279509014
0.039809968 -0.0015657649 0.39400002 4279838233
0.040985391 -0.0015617908 0.39300001 4280167711
0.042261854 -0.0015617908 0.39300001 4279838233
0.043427538 -0.0015578169 0.39200002 4279904537
0.044700753 -0.0015578169 0.39200002 4279909151
0.045973971 -0.0015578169 0.39200002 4279979559
0.047247186 -0.0015578169 0.39200002 4279587883
0.048520405 -0.0015578169 0.39200002 4280048182
0.04979362 -0.0015578169 0.39200002 4280965700
0.051066838 -0.0015578169 0.39200002 4286423954
0.052473575 -0.0015617908 0.39300001 4285764741
0.053886805 -0.0015657649 0.39400002 4285962120
0.05516652 -0.0015657649 0.39400002 4285896327
0.056589499 -0.0015697388 0.39500001 4285764741
0.058018975 -0.0015737129 0.39600003 4285895814
0.05930518 -0.0015737129 0.39600003 4285895812
0.060591388 -0.0015737129 0.39600003 4285896325
0.063642316 -0.001585635 0.39900002 4284582002
0.06493827 -0.001585635 0.39900002 4281885003
0.066400222 -0.001589609 0.40000001 4280109875
0.067868672 -0.001593583 0.40100002 4280439606
0.069688611 -0.0016055051 0.40400001 4279717932
0.071176551 -0.0016094792 0.40500003 4279323687
0.072849974 -0.0016174271 0.40700001 4278995492
0.074354149 -0.0016214012 0.40800002 4279193125
0.075864829 -0.0016253751 0.40900001 4278601501
0.077381998 -0.0016293493 0.41000003 4278930464
0.078713678 -0.0016293493 0.41000003 4278931234
0.080240592 -0.0016333233 0.41100001 4278997025
0.08157552 -0.0016333233 0.41100001 4279062818
0.083112173 -0.0016372973 0.41200003 4278997025
0.084450357 -0.0016372973 0.41200003 4279194404
0.085996754 -0.0016412713 0.41300002 4278865439
0.087549657 -0.0016452454 0.41400003 4278733853
0.089109041 -0.0016492193 0.41500002 4278864669
0.090674929 -0.0016531934 0.41600001 4278733083
0.0920261 -0.0016531934 0.41600001 4278601497
0.093601733 -0.0016571674 0.41700003 4278600984
0.095183864 -0.0016611414 0.41800001 4278798363
0.096541531 -0.0016611414 0.41800001 4279127330
0.0981334 -0.0016651155 0.41900003 4278929951
0.099494316 -0.0016651155 0.41900003 4278797593
0.10109594 -0.0016690894 0.42000002 4278863386
0.10246009 -0.0016690894 0.42000002 4279060765
0.10407146 -0.0016730635 0.42100003 4279191838
0.10543887 -0.0016730635 0.42100003 4279257119
0.10705996 -0.0016770376 0.42200002 4278466833
0.10843062 -0.0016770376 0.42200002 4278199555
0.10980128 -0.0016770376 0.42200002 4278199298
0.11143538 -0.0016810115 0.42300001 4279976740
0.11280929 -0.0016810115 0.42300001 4278199045
0.11418319 -0.0016810115 0.42300001 4279519523
0.11555709 -0.0016810115 0.42300001 4279322914
0.11720743 -0.0016849856 0.42400002 4279388707
0.11858459 -0.0016849856 0.42400002 4279519523
0.11996174 -0.0016849856 0.42400002 4279714600
0.12162507 -0.0016889595 0.42500001 4285567614
0.012936003 -0.00028561856 0.39400002 4280695085
0.036062125 -0.00028634348 0.39500001 4279969819
0.037345089 -0.00028634348 0.39500001 4279838233
0.038530257 -0.00028561856 0.39400002 4279640854
0.039809968 -0.00028561856 0.39400002 4279904026
0.040985391 -0.00028489364 0.39300001 4280232991
0.042261854 -0.00028489364 0.39300001 4279772953
0.043427538 -0.00028416872 0.39200002 4279904539
0.044700753 -0.00028416872 0.39200002 4279577367
0.045973971 -0.00028416872 0.39200002 4279385371
0.047247186 -0.00028416872 0.39200002 4278666779
0.048520405 -0.00028416872 0.39200002 4278864673
0.04979362 -0.00028416872 0.39200002 4278798113
0.051197108 -0.00028489364 0.39300001 4280112438
0.052473575 -0.00028489364 0.39300001 4281228872
0.053886805 -0.00028561856 0.39400002 4284451959
0.05516652 -0.00028561856 0.39400002 4285043583
0.056589499 -0.00028634348 0.39500001 4284319344
0.058018975 -0.00028706843 0.39600003 4283266140
0.05930518 -0.00028706843 0.39600003 4280767290
0.060744397 -0.00028779331 0.39700001 4279782961
0.062033854 -0.00028779331 0.39700001 4279323176
0.063482814 -0.00028851826 0.39800003 4279783725
0.06493827 -0.00028924318 0.39900002 4279652139
0.066400222 -0.00028996807 0.40000001 4278797597
0.067868672 -0.00029069302 0.40100002 4279389732
0.069343619 -0.00029141793 0.40200001 4279062050
0.071000807 -0.00029286777 0.40400001 4279127843
0.072491996 -0.00029359269 0.40500003 4279193636
0.074171908 -0.00029504253 0.40700001 4279325992
0.075679339 -0.00029576744 0.40800002 4278865955
0.07719326 -0.00029649236 0.40900001 4278865955
0.078521691 -0.00029649236 0.40900001 4278668574
0.080045357 -0.00029721731 0.41000003 4278602781
0.081377044 -0.00029721731 0.41000003 4278602521
0.082910441 -0.0002979422 0.41100001 4278601751
0.084245376 -0.0002979422 0.41100001 4278667290
0.085788533 -0.00029866715 0.41200003 4278733083
0.087338179 -0.00029939206 0.41300002 4278930462
0.088679604 -0.00029939206 0.41300002 4279061535
0.090239003 -0.00030011698 0.41400003 4278798363
0.091804892 -0.0003008419 0.41500002 4279192351
0.09337727 -0.00030156682 0.41600001 4278994459
0.094956152 -0.00030229174 0.41700003 4279191838
0.096310571 -0.00030229174 0.41700003 4279191838
0.097899191 -0.00030301666 0.41800001 4279849254
0.099494316 -0.00030374157 0.41900003 4279190043
0.10085523 -0.00030374157 0.41900003 4278201607
0.10246009 -0.00030446649 0.42000002 4278199300
0.10382425 -0.00030446649 0.42000002 4278924820
0.10543887 -0.00030519141 0.42100003 4280042787
0.10680627 -0.00030519141 0.42100003 4280372266
0.10843062 -0.00030591633 0.42200002 4279911715
0.10980128 -0.00030591633 0.42200002 4279780899
0.11117195 -0.00030591633 0.42200002 4279846692
0.1125426 -0.00030591633 0.42200002 4279187224
0.11418319 -0.00030664125 0.42300001 4279584803
0.11555709 -0.00030664125 0.42300001 4279453730
0.11693099 -0.00030664125 0.42300001 4279519523
0.1183049 -0.00030664125 0.42300001 4279519010
0.11996174 -0.00030736616 0.42400002 4280239149
0.011685873 0.00099705195 0.39500001 4280695085
0.036062125 0.00099705195 0.39500001 4279904024
0.037345089 0.00099705195 0.39500001 4279969819
0.038530257 0.00099452771 0.39400002 4279903256
0.039809968 0.00099452771 0.39400002 4280298782
0.040985391 0.00099200348 0.39300001 4281022505
0.042261854 0.00099200348 0.39300001 4280101916
0.043427538 0.00098947936 0.39200002 4280365088
0.044814784 0.00099200348 0.39300001 4280958761
0.046091251 0.00099200348 0.39300001 4278922256
0.047367714 0.00099200348 0.39300001 4278797082
0.048644178 0.00099200348 0.39300001 4278666779
0.049920641 0.00099200348 0.39300001 4278733085
0.051197108 0.00099200348 0.39300001 4279127843
0.052607097 0.00099452771 0.39400002 4279061539
0.053886805 0.00099452771 0.39400002 4279784238
0.055306535 0.00099705195 0.39500001 4279915313
0.056589499 0.00099705195 0.39500001 4279126310
0.058018975 0.00099957618 0.39600003 4279192871
0.05930518 0.00099957618 0.39600003 4279390250
0.060744397 0.0010021003 0.39700001 4278930982
0.062033854 0.0010021003 0.39700001 4278931236
0.063482814 0.0010046245 0.39800003 4278865439
0.06493827 0.0010071486 0.39900002 4278865439
0.066234224 0.0010071486 0.39900002 4279325220
0.067699425 0.0010096728 0.40000001 4279522599
0.069171123 0.001012197 0.40100002 4279260451
0.070825063 0.0010172453 0.40300003 4278997279
0.072313003 0.0010197696 0.40400001 4278799900
0.073989674 0.0010248179 0.40600002 4278405656
0.07549385 0.001027342 0.40700001 4278602521
0.07700453 0.0010298663 0.40800002 4278207249
0.078329705 0.0010298663 0.40800002 4278734107
0.079850122 0.0010323904 0.40900001 4278602521
0.081178561 0.0010323904 0.40900001 4278601751
0.082708716 0.0010349146 0.41000003 4278929949
0.084040403 0.0010349146 0.41000003 4278929179
0.085580304 0.0010374389 0.41100001 4278929179
0.08712671 0.0010399631 0.41200003 4278929179
0.088679604 0.0010424872 0.41300002 4279060765
0.090021029 0.0010424872 0.41300002 4279257631
0.091583677 0.0010450114 0.41400003 4279257631
0.093152806 0.0010475356 0.41500002 4278532113
0.09472844 0.0010500597 0.41600001 4278198784
0.096310571 0.0010525839 0.41700003 4278200839
0.097664982 0.0010525839 0.41700003 4279582750
0.099256858 0.0010551082 0.41800001 4280240426
0.10085523 0.0010576323 0.41900003 4279911715
0.10246009 0.0010601565 0.42000002 4279846690
0.10382425 0.0010601565 0.42000002 4279780897
0.10543887 0.0010626807 0.42100003 4279386137
0.10680627 0.0010626807 0.42100003 4279386139
0.10817368 0.0010626807 0.42100003 4278333451
0.10980128 0.0010652049 0.42200002 4279846690
0.11117195 0.0010652049 0.42200002 4279517727
0.1125426 0.0010652049 0.42200002 4280241196
0.11391326 0.0010652049 0.42200002 4279453730
0.11555709 0.001067729 0.42300001 4279651109
0.11693099 0.001067729 0.42300001 4279651109
0.1183049 0.001067729 0.42300001 4279452963
0.034867216 0.0022862207 0.39600003 4281023018
0.036153425 0.0022862207 0.39600003 4280101403
0.037345089 0.0022804472 0.39500001 4280165915
0.038628045 0.0022804472 0.39500001 4280100122
0.039809968 0.0022746741 0.39400002 4279904024
0.04108968 0.0022746741 0.39400002 4282338876
0.042369392 0.0022746741 0.39400002 4282076218
0.043427538 0.0022631274 0.39200002 4282274367
0.044814784 0.0022689006 0.39300001 4280432930
0.046091251 0.0022689006 0.39300001 4279447830
0.047367714 0.0022689006 0.39300001 4278926103
0.048767958 0.0022746741 0.39400002 4278795798
0.05004767 0.0022746741 0.39400002 4278666777
0.051327381 0.0022746741 0.39400002 4278930462
0.052607097 0.0022746741 0.39400002 4278865953
0.054023571 0.0022804472 0.39500001 4282550361
0.055306535 0.0022804472 0.39500001 4280312119
0.056732766 0.0022862207 0.39600003 4279194408
0.058018975 0.0022862207 0.39600003 4278800162
0.059454937 0.0022919939 0.39700001 4278931748
0.060744397 0.0022919939 0.39700001 4278998054
0.062033854 0.0022919939 0.39700001 4279129640
0.063482814 0.0022977672 0.39800003 4278602781
0.064775519 0.0022977672 0.39800003 4278800160
0.066234224 0.0023035405 0.39900002 4278931746
0.067699425 0.0023093137 0.40000001 4278471449
0.069171123 0.002315087 0.40100002 4278208277
0.070649318 0.0023208603 0.40200001 4278536474
0.07213401 0.0023266335 0.40300003 4278667290
0.073807433 0.0023381801 0.40500003 4278733083
0.07530836 0.0023439534 0.40600002 4278929949
0.076815784 0.0023497266 0.40700001 4279060765
0.078329705 0.0023554999 0.40800002 4279060765
0.079654895 0.0023554999 0.40800002 4278929179
0.081178561 0.0023612732 0.40900001 4279389730
0.082506984 0.0023612732 0.40900001 4279126045
0.084040403 0.0023670467 0.41000003 4278862875
0.085372083 0.0023670467 0.41000003 4278862875
0.086915232 0.0023728197 0.41100001 4278201095
0.088464886 0.0023785932 0.41200003 4278198784
0.090021029 0.0023843665 0.41300002 4278990613
0.091583677 0.0023901397 0.41400003 4279780645
0.092928343 0.0023901397 0.41400003 4280109864
0.094500728 0.002395913 0.41500002 4280175657
0.09607961 0.0024016863 0.41600001 4279451934
0.097664982 0.0024074595 0.41700003 4278991383
0.099256858 0.0024132328 0.41800001 4279517727
0.10085523 0.0024190061 0.41900003 4279386141
0.10221614 0.0024190061 0.41900003 4278728211
0.10382425 0.0024247793 0.42000002 4278595855
0.10543887 0.0024305528 0.42100003 4279976994
0.10680627 0.0024305528 0.42100003 4279055638
0.10817368 0.0024305528 0.42100003 4279317781
0.10980128 0.0024363259 0.42200002 4280174371
0.11117195 0.0024363259 0.42200002 4278198784
0.1125426 0.0024363259 0.42200002 4280044584
0.11391326 0.0024363259 0.42200002 4279585316
0.11528391 0.0024363259 0.42200002 4279716900
0.11693099 0.0024420992 0.42300001 4279848488
0.1183049 0.0024420992 0.42300001 4281688392
0.014179633 0.0035457977 0.39300001 4280498989
0.034955263 0.0035818873 0.39700001 4280759331
0.036244716 0.0035818873 0.39700001 4280298780
0.037439633 0.0035728649 0.39600003 4280100120
0.038725842 0.0035728649 0.39600003 4280297501
0.04119397 0.0035638425 0.39500001 4282536257
0.04247693 0.0035638425 0.39500001 4282734918
0.043870676 0.0035728649 0.39600003 4283064396
0.044928819 0.0035548203 0.39400002 4280105248
0.046208534 0.0035548203 0.39400002 4279251221
0.047488246 0.0035548203 0.39400002 4278991381
0.048767958 0.0035548203 0.39400002 4278861078
0.050174691 0.0035638425 0.39500001 4278533910
0.051457655 0.0035638425 0.39500001 4278666009
0.052740615 0.0035638425 0.39500001 4278733853
0.054023571 0.0035638425 0.39500001 4278471449
0.055446554 0.0035728649 0.39600003 4278734367
0.056732766 0.0035728649 0.39600003 4278273816
0.058165487 0.0035818873 0.39700001 4278602781
0.059454937 0.0035818873 0.39700001 4278800160
0.060744397 0.0035818873 0.39700001 4278471195
0.062190115 0.0035909098 0.39800003 4278405402
0.063482814 0.0035909098 0.39800003 4278733853
0.064775519 0.0035909098 0.39800003 4278536474
0.066234224 0.0035999322 0.39900002 4278930462
0.067530178 0.0035999322 0.39900002 4278601497
0.068998627 0.0036089544 0.40000001 4278995742
0.070473574 0.003617977 0.40100002 4278929949
0.07213401 0.0036360216 0.40300003 4279126558
0.073625192 0.0036450441 0.40400001 4279126045
0.075122878 0.0036540665 0.40500003 4279126045
0.076627053 0.0036630889 0.40600002 4279454496
0.078137718 0.0036721111 0.40700001 4279190041
0.079654895 0.0036811335 0.40800002 4278333964
0.080980077 0.0036811335 0.40800002 4278197248
0.082506984 0.0036901559 0.40900001 4278198021
0.083835423 0.0036901559 0.40900001 4278197760
0.085372083 0.0036991783 0.41000003 4279453217
0.086915232 0.0037082008 0.41100001 4279453215
0.08825016 0.0037082008 0.41100001 4279649824
0.089803062 0.0037172232 0.41200003 4279452445
0.091362454 0.0037262456 0.41300002 4279123482
0.092928343 0.003735268 0.41400003 4278200582
0.094500728 0.0037442902 0.41500002 4279385117
0.09607961 0.0037533126 0.41600001 4279715365
0.097664982 0.0037623351 0.41700003 4278201356
0.099256858 0.0037713575 0.41800001 4278923541
0.10061453 0.0037713575 0.41800001 4279778850
0.10221614 0.0037803799 0.41900003 4279516189
0.10382425 0.0037894021 0.42000002 4278200329
0.10543887 0.0037984247 0.42100003 4279582496
0.10680627 0.0037984247 0.42100003 4280306471
0.10817368 0.0037984247 0.42100003 4280700715
0.10980128 0.0038074469 0.42200002 4278858513
0.11117195 0.0038074469 0.42200002 4278727959
0.1125426 0.0038074469 0.42200002 4279912998
0.11391326 0.0038074469 0.42200002 4279716902
0.11528391 0.0038074469 0.42200002 4279651109
0.014179633 0.0048226947 0.39300001 4280499241
0.034955263 0.004871781 0.39700001 4280365086
0.036244716 0.004871781 0.39700001 4280364573
0.037534177 0.004871781 0.39700001 4280298010
0.038823631 0.004871781 0.39700001 4280363803
0.041298259 0.0048595094 0.39600003 4282470464
0.042584468 0.0048595094 0.39600003 4282602562
0.044092245 0.0048840526 0.39800003 4282669125
0.04504285 0.0048472378 0.39500001 4279513109
0.046325814 0.0048472378 0.39500001 4279712026
0.04760877 0.0048472378 0.39500001 4278991383
0.048891731 0.0048472378 0.39500001 4278926103
0.050174691 0.0048472378 0.39500001 4278599191
0.051587928 0.0048595094 0.39600003 4278731291
0.05287414 0.0048595094 0.39600003 4278798365
0.054160345 0.0048595094 0.39600003 4278601499
0.055446554 0.0048595094 0.39600003 4278733085
0.056876026 0.004871781 0.39700001 4278733085
0.058165487 0.004871781 0.39700001 4278864669
0.059454937 0.004871781 0.39700001 4278667290
0.060897406 0.0048840526 0.39800003 4278864669
0.062190115 0.0048840526 0.39800003 4278930462
0.063482814 0.0048840526 0.39800003 4278798365
0.064775519 0.0048840526 0.39800003 4278732572
0.066234224 0.0048963241 0.39900002 4278468117
0.067530178 0.0048963241 0.39900002 4279190043
0.068998627 0.0049085952 0.40000001 4279585316
0.070473574 0.0049208668 0.40100002 4279453728
0.071955018 0.0049331384 0.40200001 4278662929
0.073625192 0.0049576815 0.40400001 4278200326
0.075122878 0.0049699531 0.40500003 4278197764
0.076627053 0.0049822242 0.40600002 4278394376
0.078137718 0.0049944958 0.40700001 4278656269
0.07945966 0.0049944958 0.40700001 4278655502
0.080980077 0.0050067673 0.40800002 4278853648
0.082506984 0.0050190389 0.40900001 4278853648
0.083835423 0.0050190389 0.40900001 4278988049
0.085372083 0.0050313105 0.41000003 4279584031
0.086703762 0.0050313105 0.41000003 4278660880
0.08825016 0.0050435816 0.41100001 4278593291
0.089803062 0.0050558536 0.41200003 4279384092
0.091362454 0.0050681247 0.41300002 4279911715
0.092928343 0.0050803963 0.41400003 4279254555
0.094500728 0.0050926679 0.41500002 4278727187
0.09607961 0.005104939 0.41600001 4278925338
0.097664982 0.005117211 0.41700003 4279781160
0.099019401 0.005117211 0.41700003 4279846438
0.10061453 0.0051294821 0.41800001 4279780645
0.10221614 0.0051417537 0.41900003 4280108840
0.10382425 0.0051540253 0.42000002 4278990359
0.10543887 0.0051662968 0.42100003 4278198787
0.10680627 0.0051662968 0.42100003 4278266122
0.10817368 0.0051662968 0.42100003 4279779363
0.10980128 0.0051785684 0.42200002 4280503600
0.11117195 0.0051785684 0.42200002 4279649061
0.1125426 0.0051785684 0.42200002 4280241198
0.11391326 0.0051785684 0.42200002 4280042795
0.035043314 0.0061771953 0.39800003 4280101401
0.036336016 0.0061771953 0.39800003 4280693538
0.037628721 0.0061771953 0.39800003 4279969045
0.038921427 0.0061771953 0.39800003 4280363805
0.040214133 0.0061771953 0.39800003 4282207292
0.041402545 0.0061616744 0.39700001 4282667843
0.042692002 0.0061616744 0.39700001 4282931013
0.044092245 0.0061771953 0.39800003 4282931781
0.045156885 0.0061461544 0.39600003 4279184660
0.046443094 0.0061461544 0.39600003 4279515676
0.047729302 0.0061461544 0.39600003 4279254555
0.049015511 0.0061461544 0.39600003 4278729494
0.050301719 0.0061461544 0.39600003 4278664984
0.051587928 0.0061461544 0.39600003 4278862877
0.05287414 0.0061461544 0.39600003 4278600986
0.054160345 0.0061461544 0.39600003 4278666779
0.055586569 0.0061616744 0.39700001 4278929951
0.056876026 0.0061616744 0.39700001 4279126560
0.058165487 0.0061616744 0.39700001 4279192351
0.059604701 0.0061771953 0.39800003 4279126558
0.060897406 0.0061771953 0.39800003 4279060765
0.062190115 0.0061771953 0.39800003 4279060765
0.063482814 0.0061771953 0.39800003 4278929179
0.06493827 0.0061927158 0.39900002 4279060765
0.066234224 0.0061927158 0.39900002 4279190045
0.067699425 0.0062082363 0.40000001 4279649826
0.068998627 0.0062082363 0.40000001 4279519523
0.070473574 0.0062237573 0.40100002 4278199300
0.071955018 0.0062392773 0.40200001 4278525451
0.073625192 0.0062703188 0.40400001 4278590476
0.075122878 0.0062858397 0.40500003 4278853135
0.076627053 0.0063013597 0.40600002 4278853135
0.078137718 0.0063168802 0.40700001 4280037920
0.07945966 0.0063168802 0.40700001 4279445783
0.080980077 0.0063324012 0.40800002 4279249174
0.082506984 0.0063479217 0.40900001 4278985232
0.083835423 0.0063479217 0.40900001 4280634157
0.085372083 0.0063634426 0.41000003 4278530830
0.086703762 0.0063634426 0.41000003 4278657548
0.08825016 0.0063789627 0.41100001 4278657037
0.089803062 0.0063944836 0.41200003 4280304424
0.091362454 0.0064100041 0.41300002 4278200329
0.092928343 0.0064255251 0.41400003 4279977508
0.094500728 0.0064410456 0.41500002 4279977508
0.09607961 0.0064565656 0.41600001 4280043047
0.097664982 0.0064720865 0.41700003 4278661394
0.099019401 0.0064720865 0.41700003 4278199561
0.10061453 0.006487607 0.41800001 4278726162
0.10221614 0.006503128 0.41900003 4280042535
0.10382425 0.006518648 0.42000002 4280239914
0.10543887 0.006534169 0.42100003 4279846438
0.10680627 0.006534169 0.42100003 4280175403
0.10817368 0.006534169 0.42100003 4280175657
0.10980128 0.0065496895 0.42200002 4279649059
0.035131361 0.0074891075 0.39900002 4280759333
0.036427312 0.0074891075 0.39900002 4281219112
0.037723266 0.0074891075 0.39900002 4280429083
0.03901922 0.0074891075 0.39900002 4280758563
0.040214133 0.0074703381 0.39800003 4281878327
0.041506838 0.0074703381 0.39800003 4282339392
0.04279954 0.0074703381 0.39800003 4282865734
0.044092245 0.0074703381 0.39800003 4283459408
0.045270916 0.0074515683 0.39700001 4279317275
0.046560373 0.0074515683 0.39700001 4279318812
0.04784983 0.0074515683 0.39700001 4278925336
0.049139284 0.0074515683 0.39700001 4278663701
0.050428741 0.0074515683 0.39700001 4278664982
0.051718198 0.0074515683 0.39700001 4278862875
0.053007659 0.0074515683 0.39700001 4278797595
0.054297112 0.0074515683 0.39700001 4279126560
0.055586569 0.0074515683 0.39700001 4279060765
0.056876026 0.0074515683 0.39700001 4279191838
0.058312003 0.0074703381 0.39800003 4278994459
0.059604701 0.0074703381 0.39800003 4279126558
0.060897406 0.0074703381 0.39800003 4279258144
0.062190115 0.0074703381 0.39800003 4279060765
0.063642316 0.0074891075 0.39900002 4279126558
0.06493827 0.0074891075 0.39900002 4278863386
0.066234224 0.0074891075 0.39900002 4278199303
0.067699425 0.007507877 0.40000001 4278660628
0.069171123 0.0075266473 0.40100002 4279320861
0.070473574 0.0075266473 0.40100002 4278197764
0.071955018 0.0075454167 0.40200001 4279051025
0.073625192 0.007582956 0.40400001 4279577371
0.075122878 0.0076017259 0.40500003 4279971875
0.076627053 0.0076204957 0.40600002 4279051027
0.077945739 0.0076204957 0.40600002 4278788625
0.07945966 0.0076392652 0.40700001 4279775518
0.080980077 0.007658035 0.40800002 4280631852
0.082506984 0.0076768044 0.40900001 4278393865
0.083835423 0.0076768044 0.40900001 4279911461
0.085372083 0.0076955743 0.41000003 4279254301
0.086703762 0.0076955743 0.41000003 4278526730
0.08825016 0.0077143437 0.41100001 4280829485
0.089803062 0.0077331141 0.41200003 4279713055
0.091362454 0.0077518835 0.41300002 4278331404
0.092928343 0.0077706533 0.41400003 4278198018
0.094500728 0.0077894228 0.41500002 4279318812
0.09607961 0.0078081922 0.41600001 4280569391
0.097664982 0.0078269625 0.41700003 4280108840
0.099019401 0.0078269625 0.41700003 4280108840
0.10061453 0.0078457315 0.41800001 4280175403
0.10221614 0.0078645013 0.41900003 4280109610
0.10382425 0.0078832712 0.42000002 4279912231
0.10518841 0.0078832712 0.42000002 4280239401
0.033835407 0.0087854993 0.39900002 4286157954
0.035131361 0.0087854993 0.39900002 4283261266
0.036427312 0.0087854993 0.39900002 4279904024
0.037723266 0.0087854993 0.39900002 4280691485
0.03901922 0.0087854993 0.39900002 4280955942
0.040315174 0.0087854993 0.39900002 4282734150
0.041611124 0.0087854993 0.39900002 4282799941
0.042907074 0.0087854993 0.39900002 4282800965
0.044203028 0.0087854993 0.39900002 4281552181
0.045384951 0.0087634809 0.39800003 4279318297
0.046677656 0.0087634809 0.39800003 4279187224
0.047970362 0.0087634809 0.39800003 4278991129
0.049263064 0.0087634809 0.39800003 4278729240
0.050428741 0.0087414617 0.39700001 4278862363
0.051718198 0.0087414617 0.39700001 4278993949
0.053007659 0.0087414617 0.39700001 4278928668
0.054297112 0.0087414617 0.39700001 4279258146
0.055586569 0.0087414617 0.39700001 4279192351
0.056876026 0.0087414617 0.39700001 4279060765
0.058312003 0.0087634809 0.39800003 4279060765
0.059604701 0.0087634809 0.39800003 4279192351
0.060897406 0.0087634809 0.39800003 4279126558
0.062346369 0.0087854993 0.39900002 4279060765
0.063642316 0.0087854993 0.39900002 4278929179
0.06493827 0.0087854993 0.39900002 4278994459
0.066400222 0.0088075176 0.40000001 4278198019
0.067699425 0.0088075176 0.40000001 4279648291
0.069171123 0.0088295368 0.40100002 4279318810
0.070649318 0.0088515552 0.40200001 4278920722
0.07213401 0.0088735744 0.40300003 4279512857
0.073625192 0.0088955928 0.40400001 4279446551
0.075122878 0.008917612 0.40500003 4279774496
0.076627053 0.0089396304 0.40600002 4278985234
0.077945739 0.0089396304 0.40600002 4278721549
0.07945966 0.0089616496 0.40700001 4278721549
0.080980077 0.0089836689 0.40800002 4278853135
0.082506984 0.0090056872 0.40900001 4278195972
0.083835423 0.0090056872 0.40900001 4279318299
0.085372083 0.0090277065 0.41000003 4278198790
0.086703762 0.0090277065 0.41000003 4278198791
0.08825016 0.0090497248 0.41100001 4280304422
0.089803062 0.009071744 0.41200003 4280437291
0.091362454 0.0090937624 0.41300002 4280043047
0.092928343 0.0091157816 0.41400003 4279714852
0.094273016 0.0091157816 0.41400003 4279781158
0.09607961 0.0091598183 0.41600001 4279847205
0.097664982 0.0091818376 0.41700003 4279912998
0.099019401 0.0091818376 0.41700003 4280372266
0.10061453 0.0092038559 0.41800001 4280698928
0.036518607 0.010107159 0.40000001 4286223232
0.03781781 0.010107159 0.40000001 4280364575
0.039117008 0.010107159 0.40000001 4280890149
0.040416211 0.010107159 0.40000001 4282800713
0.04171541 0.010107159 0.40000001 4282471748
0.042907074 0.010081891 0.39900002 4282669379
0.044203028 0.010081891 0.39900002 4279774998
0.045498982 0.010081891 0.39900002 4279515676
0.046794936 0.010081891 0.39900002 4279121945
0.047970362 0.010056623 0.39800003 4278860056
0.049263064 0.010056623 0.39800003 4278795800
0.050555769 0.010056623 0.39800003 4278731291
0.051848475 0.010056623 0.39800003 4278994463
0.05314118 0.010056623 0.39800003 4278731802
0.054297112 0.010031355 0.39700001 4279126560
0.055726588 0.010056623 0.39800003 4279126558
0.057019293 0.010056623 0.39800003 4279126558
0.058312003 0.010056623 0.39800003 4279060765
0.059604701 0.010056623 0.39800003 4279060765
0.061050415 0.010081891 0.39900002 4279060765
0.062346369 0.010081891 0.39900002 4279060765
0.063642316 0.010081891 0.39900002 4279126045
0.06510102 0.010107159 0.40000001 4279257117
0.066400222 0.010107159 0.40000001 4278199815
0.067868672 0.010132426 0.40100002 4279517473
0.069171123 0.010132426 0.40100002 4278198537
0.070649318 0.010157694 0.40200001 4278919441
0.07213401 0.010182963 0.40300003 4278918928
0.073625192 0.01020823 0.40400001 4278983951
0.075122878 0.010233498 0.40500003 4278983951
0.076627053 0.010258766 0.40600002 4278983951
0.078137718 0.010284034 0.40700001 4278786572
0.07945966 0.010284034 0.40700001 4278853135
0.080980077 0.010309302 0.40800002 4280039203
0.082506984 0.010334569 0.40900001 4280369963
0.083835423 0.010334569 0.40900001 4280042533
0.085372083 0.010359838 0.41000003 4280109094
0.086703762 0.010359838 0.41000003 4279781412
0.08825016 0.010385105 0.41100001 4280044584
0.089803062 0.010410374 0.41200003 4279847205
0.091141239 0.010410374 0.41200003 4279912998
0.092703879 0.010435641 0.41300002 4280110123
0.094273016 0.010460909 0.41400003 4279649059
0.09607961 0.010511445 0.41600001 4282147146
0.03781781 0.0114068 0.40000001 4286157954
0.039117008 0.0114068 0.40000001 4282669642
0.04171541 0.0114068 0.40000001 4282602566
0.043014612 0.0114068 0.40000001 4282735172
0.044313814 0.0114068 0.40000001 4279709977
0.045498982 0.011378283 0.39900002 4279187478
0.046794936 0.011378283 0.39900002 4278794004
0.048090886 0.011378283 0.39900002 4278663960
0.04938684 0.011378283 0.39900002 4278730007
0.050555769 0.011349767 0.39800003 4278731291
0.051848475 0.011349767 0.39800003 4278928670
0.05314118 0.011349767 0.39800003 4279191842
0.054433882 0.011349767 0.39800003 4279191840
0.055726588 0.011349767 0.39800003 4279258144
0.057019293 0.011349767 0.39800003 4278863386
0.058312003 0.011349767 0.39800003 4279126558
0.059604701 0.011349767 0.39800003 4279192351
0.061050415 0.011378283 0.39900002 4279126558
0.062346369 0.011378283 0.39900002 4279060765
0.063801818 0.0114068 0.40000001 4279455010
0.06510102 0.0114068 0.40000001 4279650594
0.066400222 0.0114068 0.40000001 4278199301
0.067868672 0.011435317 0.40100002 4279517727
0.069171123 0.011435317 0.40100002 4278197254
0.070649318 0.011463834 0.40200001 4278853648
0.07213401 0.011492351 0.40300003 4278589963
0.073625192 0.011520868 0.40400001 4279314199
0.075122878 0.011549385 0.40500003 4280895024
0.076627053 0.011577902 0.40600002 4280107815
0.077945739 0.011577902 0.40600002 4279780647
0.07945966 0.011606419 0.40700001 4279912746
0.080980077 0.011634936 0.40800002 4279650342
0.082506984 0.011663453 0.40900001 4279519269
0.083835423 0.011663453 0.40900001 4279650596
0.085372083 0.01169197 0.41000003 4279782182
0.086703762 0.01169197 0.41000003 4279913768
0.08825016 0.011720487 0.41100001 4279124252
0.089803062 0.011749004 0.41200003 4279780395
0.091141239 0.011749004 0.41200003 4283068761
0.043014612 0.012706441 0.40000001 4282144577
0.044313814 0.012706441 0.40000001 4279711774
0.045613013 0.012706441 0.40000001 4279187738
0.046912216 0.012706441 0.40000001 4279056922
0.048090886 0.012674675 0.39900002 4278531861
0.04938684 0.012674675 0.39900002 4278795800
0.050682791 0.012674675 0.39900002 4278862877
0.051848475 0.01264291 0.39800003 4279126049
0.05314118 0.01264291 0.39800003 4279191842
0.054433882 0.01264291 0.39800003 4279323426
0.055726588 0.01264291 0.39800003 4279126047
0.057019293 0.01264291 0.39800003 4279192351
0.058312003 0.01264291 0.39800003 4279126558
0.059754461 0.012674675 0.39900002 4279192351
0.061050415 0.012674675 0.39900002 4279257631
0.062346369 0.012674675 0.39900002 4279257631
0.063801818 0.012706441 0.40000001 4279257117
0.06510102 0.012706441 0.40000001 4279123480
0.066566229 0.012738207 0.40100002 4279978278
0.067868672 0.012738207 0.40100002 4279715619
0.069343619 0.012769973 0.40200001 4279847205
0.070649318 0.012769973 0.40200001 4279846438
0.07213401 0.012801739 0.40300003 4279714854
0.073625192 0.012833506 0.40400001 4279781160
0.075122878 0.012865272 0.40500003 4279650596
0.076627053 0.012897038 0.40600002 4279650596
0.077945739 0.012897038 0.40600002 4279651109
0.079654895 0.01296057 0.40800002 4279651109
0.080980077 0.01296057 0.40800002 4279585316
0.082506984 0.012992335 0.40900001 4279255584
0.084040403 0.013024103 0.41000003 4280700725
0.085372083 0.013024103 0.41000003 4282212937
0.043014612 0.014006081 0.40000001 4278922004
0.044313814 0.014006081 0.40000001 4279778080
0.045613013 0.014006081 0.40000001 4279385117
0.046912216 0.014006081 0.40000001 4279319324
0.048211414 0.014006081 0.40000001 4278795033
0.04938684 0.013971067 0.39900002 4278730007
0.050682791 0.013971067 0.39900002 4278862877
0.051978745 0.013971067 0.39900002 4278994463
0.053274699 0.013971067 0.39900002 4279257633
0.054570649 0.013971067 0.39900002 4279389219
0.055726588 0.013936052 0.39800003 4279389217
0.057162557 0.013971067 0.39900002 4279126558
0.058458511 0.013971067 0.39900002 4279060765
0.059754461 0.013971067 0.39900002 4279126560
0.061050415 0.013971067 0.39900002 4279126560
0.062502623 0.014006081 0.40000001 4279191840
0.063801818 0.014006081 0.40000001 4279058968
0.06510102 0.014006081 0.40000001 4278794263
0.066566229 0.014041097 0.40100002 4279189275
0.067868672 0.014041097 0.40100002 4279519523
0.069343619 0.014076112 0.40200001 4279520293
0.070649318 0.014076112 0.40200001 4279454500
0.07213401 0.014111128 0.40300003 4279520293
0.073625192 0.014146143 0.40400001 4279586086
0.074937381 0.014146143 0.40400001 4279716648
0.076438315 0.014181159 0.40500003 4279190304
0.077945739 0.014216173 0.40600002 4280437039
0.04312215 0.015343987 0.40100002 4284776815
0.044313814 0.015305722 0.40000001 4278922008
0.045613013 0.015305722 0.40000001 4279516189
0.046912216 0.015305722 0.40000001 4279385117
0.048211414 0.015305722 0.40000001 4278795287
0.049510613 0.015305722 0.40000001 4278928156
0.050682791 0.015267458 0.39900002 4278994461
0.051978745 0.015267458 0.39900002 4279126047
0.053274699 0.015267458 0.39900002 4279455012
0.054570649 0.015267458 0.39900002 4279389217
0.055866603 0.015267458 0.39900002 4279192351
0.057162557 0.015267458 0.39900002 4279192351
0.058458511 0.015267458 0.39900002 4279323939
0.059754461 0.015267458 0.39900002 4279258146
0.06120342 0.015305722 0.40000001 4279257633
0.062502623 0.015305722 0.40000001 4279586598
0.063801818 0.015305722 0.40000001 4279651109
0.065263778 0.015343987 0.40100002 4279979561
0.066566229 0.015343987 0.40100002 4279716389
0.067868672 0.015343987 0.40100002 4279716389
0.069343619 0.015382251 0.40200001 4280045100
0.070649318 0.015382251 0.40200001 4279781160
0.07213401 0.015420516 0.40300003 4281489981
0.044313814 0.016605362 0.40000001 4286421640
0.045613013 0.016605362 0.40000001 4280237864
0.046912216 0.016605362 0.40000001 4279120920
0.048211414 0.016605362 0.40000001 4279123482
0.049510613 0.016605362 0.40000001 4278993177
0.050809812 0.016605362 0.40000001 4279126047
0.051978745 0.01656385 0.39900002 4279257633
0.053274699 0.01656385 0.39900002 4279652904
0.054570649 0.01656385 0.39900002 4279323939
0.055866603 0.01656385 0.39900002 4279258144
0.057162557 0.01656385 0.39900002 4279258144
0.058458511 0.01656385 0.39900002 4279126562
0.059904218 0.016605362 0.40000001 4279192355
0.06120342 0.016605362 0.40000001 4279586600
0.062502623 0.016605362 0.40000001 4279586086
0.063961327 0.016646877 0.40100002 4279715365
0.065263778 0.016646877 0.40100002 4280503346
0.066566229 0.016646877 0.40100002 4282607445
0.046912216 0.017905002 0.40000001 4284711022
0.048211414 0.017905002 0.40000001 4279581219
0.049510613 0.017905002 0.40000001 4279516705
0.050809812 0.017905002 0.40000001 4279585062
0.052109014 0.017905002 0.40000001 4279717418
0.053274699 0.017860241 0.39900002 4279783465
0.054570649 0.017860241 0.39900002 4279257635
0.055866603 0.017860241 0.39900002 4279652393
0.05730582 0.017905002 0.40000001 4279125795
0.058605023 0.017905002 0.40000001 4279650603
0.059904218 0.017905002 0.40000001 4280504631
0.073125757 0.0038672201 0.40663007 4294967295
0.073125757 0.0038672201 0.40663007 4294901760
0.073125757 0.0038672201 0.40713006 4294901760
0.073125757 0.0038672201 0.40763006 4294901760
0.073125757 0.0038672201 0.40813008 4294901760
0.073125757 0.0038672201 0.40863007 4294901760
0.073125757 0.0038672201 0.40913007 4294901760
0.073125757 0.0038672201 0.40963006 4294901760
0.073125757 0.0038672201 0.41013008 4294901760
0.073125757 0.0038672201 0.41063008 4294901760
0.073125757 0.0038672201 0.41113007 4294901760
0.073125757 0.0038672201 0.41163006 4294901760
0.073125757 0.0038672201 0.41213006 4294901760
0.073125757 0.0038672201 0.41263008 4294901760
0.073125757 0.0038672201 0.41313007 4294901760
0.073125757 0.0038672201 0.41363007 4294901760
0.073125757 0.0038672201 0.41413006 4294901760
0.073125757 0.0038672201 0.41463006 4294901760
0.073125757 0.0038672201 0.41513008 4294901760
0.073125757 0.0038672201 0.41563007 4294901760
0.073125757 0.0038672201 0.41613007 4294901760
0.073125757 0.0038672201 0.41663006 4294901760
0.073125757 0.0038672201 0.41713008 4294901760
0.073125757 0.0038672201 0.41763008 4294901760
0.073125757 0.0038672201 0.41813007 4294901760
0.073125757 0.0038672201 0.41863006 4294901760
0.073125757 0.0038672201 0.41913009 4294901760
0.073125757 0.0038672201 0.41963008 4294901760
0.073125757 0.0038672201 0.42013007 4294901760
0.073125757 0.0038672201 0.42063007 4294901760
0.073125757 0.0038672201 0.42113006 4294901760
0.073125757 0.0038672201 0.42163008 4294901760
0.073125757 0.0038672201 0.42213008 4294901760
0.073125757 0.0038672201 0.42263007 4294901760
0.073125757 0.0038672201 0.42313007 4294901760
0.073125757 0.0038672201 0.42363006 4294901760
0.073125757 0.0038672201 0.42413008 4294901760
0.073125757 0.0038672201 0.42463008 4294901760
0.073125757 0.0038672201 0.42513007 4294901760
0.073125757 0.0038672201 0.42563006 4294901760
0.073125757 0.0038672201 0.42613009 4294901760
0.073125757 0.0038672201 0.42663008 4294901760
0.073125757 0.0038672201 0.42713007 4294901760
0.073125757 0.0038672201 0.42763007 4294901760
0.073125757 0.0038672201 0.42813009 4294901760
0.073125757 0.0038672201 0.42863008 4294901760
0.073125757 0.0038672201 0.42913008 4294901760
0.073125757 0.0038672201 0.42963007 4294901760
0.073125757 0.0038672201 0.43013006 4294901760
0.073125757 0.0038672201 0.43063009 4294901760
0.073125757 0.0038672201 0.43113008 4294901760
0.073125757 0.0038672201 0.43163007 4294901760
0.073125757 0.0038672201 0.43213007 4294901760
0.073125757 0.0038672201 0.43263006 4294901760
0.073125757 0.0038672201 0.43313009 4294901760
0.073125757 0.0038672201 0.43363008 4294901760
0.073125757 0.0038672201 0.43413007 4294901760
0.073125757 0.0038672201 0.43463007 4294901760
0.073125757 0.0038672201 0.43513006 4294901760
0.073125757 0.0038672201 0.43563008 4294901760
0.073125757 0.0038672201 0.43613008 4294901760
0.073125757 0.0038672201 0.43663007 4294901760
0.073125757 0.0038672201 0.43713006 4294901760
0.073125757 0.0038672201 0.43763009 4294901760
0.073125757 0.0038672201 0.43813008 4294901760
0.073125757 0.0038672201 0.43863007 4294901760
0.073125757 0.0038672201 0.43913007 4294901760
0.073125757 0.0038672201 0.43963009 4294901760
0.073125757 0.0038672201 0.44013008 4294901760
0.073125757 0.0038672201 0.44063008 4294901760
0.073125757 0.0038672201 0.44113007 4294901760
0.073125757 0.0038672201 0.44163007 4294901760
0.073125757 0.0038672201 0.44213009 4294901760
0.073125757 0.0038672201 0.44263008 4294901760
0.073125757 0.0038672201 0.44313008 4294901760
0.073125757 0.0038672201 0.44363007 4294901760
0.073125757 0.0038672201 0.44413006 4294901760
0.073125757 0.0038672201 0.44463009 4294901760
0.073125757 0.0038672201 0.44513008 4294901760
0.073125757 0.0038672201 0.44563007 4294901760
0.073125757 0.0038672201 0.44613007 4294901760
0.073125757 0.0038672201 0.44663009 4294901760
0.073125757 0.0038672201 0.44713008 4294901760
0.073125757 0.0038672201 0.44763008 4294901760
0.073125757 0.0038672201 0.44813007 4294901760
0.073125757 0.0038672201 0.44863006 4294901760
0.073125757 0.0038672201 0.44913009 4294901760
0.073125757 0.0038672201 0.44963008 4294901760
0.073125757 0.0038672201 0.45013008 4294901760
0.073125757 0.0038672201 0.45063007 4294901760
0.073125757 0.0038672201 0.45113009 4294901760
0.073125757 0.0038672201 0.45163009 4294901760
0.073125757 0.0038672201 0.45213008 4294901760
0.073125757 0.0038672201 0.45263007 4294901760
0.073125757 0.0038672201 0.45313007 4294901760
0.073125757 0.0038672201 0.45363009 4294901760
0.073125757 0.0038672201 0.45413008 4294901760
0.073125757 0.0038672201 0.45463008 4294901760
0.073125757 0.0038672201 0.45513007 4294901760
0.073125757 0.0038672201 0.45563009 4294901760
0.073125757 0.0038672201 0.45613009 4294901760
0.073125757 0.0038672201 0.45663008 4294901760
0.073125757 0.0038672201 0.40663007 4278255360
0.072917998 0.0039724382 0.40707251 4278255360
0.072710238 0.0040776567 0.40751499 4278255360
0.072502479 0.0041828747 0.40795743 4278255360
0.072294727 0.0042880932 0.40839988 4278255360
0.072086968 0.0043933112 0.40884233 4278255360
0.071879208 0.0044985292 0.4092848 4278255360
0.071671449 0.0046037477 0.40972725 4278255360
0.071463689 0.0047089658 0.41016969 4278255360
0.07125593 0.0048141843 0.41061217 4278255360
0.07104817 0.0049194023 0.41105461 4278255360
0.070840418 0.0050246203 0.41149706 4278255360
0.070632659 0.0051298388 0.4119395 4278255360
0.070424899 0.0052350569 0.41238198 4278255360
0.07021714 0.0053402754 0.41282442 4278255360
0.070009381 0.0054454934 0.41326687 4278255360
0.069801621 0.0055507119 0.41370934 4278255360
0.069593862 0.0056559299 0.41415179 4278255360
0.06938611 0.0057611484 0.41459423 4278255360
0.06917835 0.0058663664 0.41503668 4278255360
0.068970591 0.0059715845 0.41547915 4278255360
0.068762831 0.0060768025 0.4159216 4278255360
0.068555072 0.006182021 0.41636404 4278255360
0.068347313 0.0062872395 0.41680652 4278255360
0.068139553 0.0063924575 0.41724896 4278255360
0.067931801 0.0064976756 0.41769141 4278255360
0.067724042 0.0066028936 0.41813388 4278255360
0.067516282 0.0067081125 0.41857633 4278255360
0.067308523 0.0068133306 0.41901878 4278255360
0.067100763 0.0069185486 0.41946122 4278255360
0.066893004 0.0070237671 0.4199037 4278255360
0.066685244 0.0071289851 0.42034614 4278255360
0.066477492 0.0072342036 0.42078859 4278255360
0.066269733 0.0073394217 0.42123106 4278255360
0.066061974 0.0074446397 0.42167351 4278255360
0.065854214 0.0075498577 0.42211595 4278255360
0.065646455 0.0076550767 0.4225584 4278255360
0.065438695 0.0077602947 0.42300087 4278255360
0.065230936 0.0078655127 0.42344332 4278255360
0.065023184 0.0079707308 0.42388576 4278255360
0.064815424 0.0080759488 0.42432824 4278255360
0.064607665 0.0081811678 0.42477068 4278255360
0.064399906 0.0082863849 0.42521313 4278255360
0.064192146 0.0083916038 0.4256556 4278255360
0.063984387 0.0084968219 0.42609805 4278255360
0.063776627 0.0086020399 0.42654049 4278255360
0.063568868 0.0087072589 0.42698294 4278255360
0.063361116 0.0088124769 0.42742541 4278255360
0.063153356 0.0089176949 0.42786786 4278255360
0.062945597 0.0090229139 0.4283103 4278255360
0.062737837 0.009128131 0.42875278 4278255360
0.062530078 0.0092333499 0.42919523 4278255360
0.062322322 0.009338567 0.42963767 4278255360
