# .PCD v0.7 - Point Cloud Data file format
VERSION 0.7
FIELDS x y z rgb
SIZE 4 4 4 4
TYPE F F F U
COUNT 1 1 1 1
WIDTH 1034
HEIGHT 1
VIEWPOINT 0 0 0 1 0 0 0
POINTS 1034
DATA ascii
-0.010676947 0.022901541 0.47700003 4278402324
-0.0091276504 0.022901541 0.47700003 4278533910
-0.0075624655 0.022853527 0.47600001 4278468117
-0.0060164174 0.022853527 0.47600001 4278731289
-0.0044609774 0.022805518 0.47500002 4278797082
-0.0029181761 0.022805518 0.47500002 4278665496
-0.0013753753 0.022805518 0.47500002 4278533910
-0.023409896 0.024810188 0.48400003 4279054873
-0.021792741 0.024758926 0.48300001 4278925336
-0.020182086 0.024707666 0.48200002 4278597906
-0.018577926 0.024656406 0.48100004 4278664212
-0.016980261 0.024605144 0.48000002 4278730005
-0.015389093 0.024553884 0.47900003 4278664212
-0.0138333 0.024553884 0.47900003 4278598419
-0.012251875 0.024502622 0.47800002 4278664212
-0.010676947 0.024451362 0.47700003 4278467603
-0.0091085145 0.0244001 0.47600001 4278401810
-0.0075624655 0.0244001 0.47600001 4278401810
-0.0060164174 0.0244001 0.47600001 4278533396
-0.0044609774 0.02434884 0.47500002 4278203147
-0.0029181761 0.02434884 0.47500002 4278598419
-0.0013753753 0.02434884 0.47500002 4278598419
0.00016742553 0.02434884 0.47500002 4278598419
0.0017138268 0.0244001 0.47600001 4278533396
0.0032598756 0.0244001 0.47600001 4278599189
0.0048059244 0.0244001 0.47600001 4278468117
-0.023409896 0.026382752 0.48400003 4279053844
-0.021792741 0.026328241 0.48300001 4278924566
-0.020182086 0.026273731 0.48200002 4278663701
-0.018577926 0.026219223 0.48100004 4278730007
-0.016980261 0.026164712 0.48000002 4278730005
-0.015389093 0.026110204 0.47900003 4278269454
-0.013804421 0.026055692 0.47800002 4278598419
-0.012226244 0.026001183 0.47700003 4278664212
-0.010676947 0.026001183 0.47700003 4278335247
-0.0091085145 0.025946673 0.47600001 4278532626
-0.0075624655 0.025946673 0.47600001 4278532626
-0.006003778 0.025892163 0.47500002 4278400527
-0.0044609774 0.025892163 0.47500002 4279187226
-0.0029181761 0.025892163 0.47500002 4278199303
-0.0013753753 0.025892163 0.47500002 4278532115
0.00016742553 0.025892163 0.47500002 4278598421
0.0017138268 0.025946673 0.47600001 4278335247
0.0032598756 0.025946673 0.47600001 4278598419
0.0048059244 0.025946673 0.47600001 4278335247
0.024642956 0.025674123 0.47100002 4278797082
0.026172765 0.025674123 0.47100002 4278533910
-0.023409896 0.027955318 0.48400003 4279251736
-0.021792741 0.027897557 0.48300001 4278924566
-0.020140216 0.027782042 0.48100004 4278729494
-0.018539302 0.027724281 0.48000002 4278795800
-0.016980261 0.027724281 0.48000002 4278730005
-0.015389093 0.027666522 0.47900003 4278532626
-0.013804421 0.027608763 0.47800002 4278598419
-0.012226244 0.027551005 0.47700003 4278598419
-0.010676947 0.027551005 0.47700003 4278532626
-0.0091085145 0.027493244 0.47600001 4278532113
-0.0075624655 0.027493244 0.47600001 4278663699
-0.006003778 0.027435487 0.47500002 4278597906
-0.0044609774 0.027435487 0.47500002 4279186711
-0.0029181761 0.027435487 0.47500002 4278792466
-0.0013753753 0.027435487 0.47500002 4278991129
0.00016777799 0.027493244 0.47600001 4278333199
0.0017138268 0.027493244 0.47600001 4278398992
0.0032598756 0.027493244 0.47600001 4278793750
0.0048059244 0.027493244 0.47600001 4278596625
0.0063519734 0.027493244 0.47600001 4278728724
0.0079146149 0.027551005 0.47700003 4278531345
0.0094639119 0.027551005 0.47700003 4278531345
0.011013209 0.027551005 0.47700003 4278794517
0.012562505 0.027551005 0.47700003 4278728724
0.014111802 0.027551005 0.47700003 4278663701
0.0156611 0.027551005 0.47700003 4278532115
0.017174315 0.027493244 0.47600001 4278663701
0.018720362 0.027493244 0.47600001 4278532626
0.020223835 0.027435487 0.47500002 4278335247
0.021766638 0.027435487 0.47500002 4278466833
0.023260366 0.027377728 0.47400004 4278466833
0.024695277 0.027262211 0.47200003 4278598419
0.026228335 0.027262211 0.47200003 4278401810
0.027761392 0.027262211 0.47200003 4278204174
0.02929445 0.027262211 0.47200003 4278533908
0.030827504 0.027262211 0.47200003 4278533908
0.032360565 0.027262211 0.47200003 4278665494
0.033893619 0.027262211 0.47200003 4278665494
0.035426673 0.027262211 0.47200003 4278797080
0.036959734 0.027262211 0.47200003 4278797080
0.038492788 0.027262211 0.47200003 4278862875
0.040025849 0.027262211 0.47200003 4279126049
-0.023409896 0.029527882 0.48400003 4279054355
-0.021747623 0.029405866 0.48200002 4278859797
-0.020140216 0.029344859 0.48100004 4278795287
-0.018539302 0.02928385 0.48000002 4278795287
-0.016944887 0.029222842 0.47900003 4278664210
-0.015389093 0.029222842 0.47900003 4278664210
-0.013804421 0.029161833 0.47800002 4278335247
-0.012226244 0.029100826 0.47700003 4278335247
-0.010676947 0.029100826 0.47700003 4278598419
-0.0091085145 0.029039817 0.47600001 4278532626
-0.0075624655 0.029039817 0.47600001 4278532113
-0.0060164174 0.029039817 0.47600001 4278201607
-0.0044609774 0.02897881 0.47500002 4278196486
-0.0029181761 0.02897881 0.47500002 4278659086
-0.0013753753 0.02897881 0.47500002 4278200331
0.00016777799 0.029039817 0.47600001 4278196742
0.0017138268 0.029039817 0.47600001 4278458890
0.0032598756 0.029039817 0.47600001 4278392584
0.0048059244 0.029039817 0.47600001 4278392584
0.0063519734 0.029039817 0.47600001 4278458375
0.0079146149 0.029100826 0.47700003 4278262279
0.0094639119 0.029100826 0.47700003 4278195200
0.011013209 0.029100826 0.47700003 4278195969
0.012562505 0.029100826 0.47700003 4278197511
0.014111802 0.029100826 0.47700003 4278397708
0.0156611 0.029100826 0.47700003 4278661394
0.017174315 0.029039817 0.47600001 4278464785
0.018720362 0.029039817 0.47600001 4278727957
0.020266412 0.029039817 0.47600001 4278728211
0.021766638 0.02897881 0.47500002 4279123482
0.023260366 0.028917802 0.47400004 4278662931
0.024747597 0.028856793 0.47300002 4278662931
0.026283903 0.028856793 0.47300002 4278268943
0.027761392 0.028795786 0.47200003 4278268943
0.02929445 0.028795786 0.47200003 4278466835
0.030827504 0.028795786 0.47200003 4278532626
0.032360565 0.028795786 0.47200003 4278664210
0.033893619 0.028795786 0.47200003 4278532624
0.035426673 0.028795786 0.47200003 4278335245
0.037038036 0.028856793 0.47300002 4278796566
0.038574342 0.028856793 0.47300002 4278599187
0.040110648 0.028856793 0.47300002 4278664982
0.041823048 0.02897881 0.47500002 4278797082
0.043365847 0.02897881 0.47500002 4278797082
0.045003194 0.029039817 0.47600001 4278797082
0.046647035 0.029100826 0.47700003 4278797084
0.048196334 0.029100826 0.47700003 4278928670
0.049849916 0.029161833 0.47800002 4278731037
0.051402461 0.029161833 0.47800002 4278993443
0.052955009 0.029161833 0.47800002 4279255849
-0.023361526 0.031036191 0.48300001 4279055379
-0.021747623 0.030971935 0.48200002 4278794515
-0.020140216 0.030907677 0.48100004 4278664212
-0.018539302 0.03084342 0.48000002 4278795798
-0.016944887 0.030779164 0.47900003 4278664210
-0.015389093 0.030779164 0.47900003 4278598417
-0.013804421 0.030714905 0.47800002 4278598417
-0.012226244 0.030650649 0.47700003 4278466831
-0.010676947 0.030650649 0.47700003 4278664212
-0.0091085145 0.030586392 0.47600001 4278466833
-0.0075624655 0.030586392 0.47600001 4278532626
-0.0060164174 0.030586392 0.47600001 4278531345
-0.0044703684 0.030586392 0.47600001 4278328583
-0.0029243196 0.030586392 0.47600001 4279055125
-0.0013782708 0.030586392 0.47600001 4278198024
0.00016777799 0.030586392 0.47600001 4278588939
0.0017138268 0.030586392 0.47600001 4278720011
0.0032598756 0.030586392 0.47600001 4278785804
0.0048059244 0.030586392 0.47600001 4278720011
0.0063519734 0.030586392 0.47600001 4278720011
0.0078980215 0.030586392 0.47600001 4278720011
0.0094639119 0.030650649 0.47700003 4278720011
0.011013209 0.030650649 0.47700003 4278588939
0.012562505 0.030650649 0.47700003 4278523146
0.014111802 0.030650649 0.47700003 4278195459
0.0156611 0.030650649 0.47700003 4279185943
0.017174315 0.030586392 0.47600001 4279120920
0.018720362 0.030586392 0.47600001 4278923287
0.020266412 0.030586392 0.47600001 4278725138
0.021766638 0.030522134 0.47500002 4278197252
0.023309439 0.030522134 0.47500002 4278195968
0.024799919 0.030457878 0.47400004 4278195968
0.026283903 0.030393621 0.47300002 4278196994
0.027820207 0.030393621 0.47300002 4278197765
0.029356513 0.030393621 0.47300002 4278397456
0.030892815 0.030393621 0.47300002 4279121433
0.032429121 0.030393621 0.47300002 4279056152
0.033965427 0.030393621 0.47300002 4278990613
0.03550173 0.030393621 0.47300002 4278596371
0.037038036 0.030393621 0.47300002 4278925590
0.038655896 0.030457878 0.47400004 4278530830
0.04019545 0.030457878 0.47400004 4278728209
0.041823048 0.030522134 0.47500002 4278663699
0.043457143 0.030586392 0.47600001 4278597906
0.045097739 0.030650649 0.47700003 4278664212
0.046647035 0.030650649 0.47700003 4278730005
0.048297372 0.030714905 0.47800002 4278533912
0.049849916 0.030714905 0.47800002 4278797084
0.051509999 0.030779164 0.47900003 4278994463
0.053065795 0.030779164 0.47900003 4278994463
0.054621585 0.030779164 0.47900003 4279190052
-0.023361526 0.032605506 0.48300001 4279252758
-0.021747623 0.032538 0.48200002 4278926101
-0.020140216 0.032470495 0.48100004 4278664212
-0.018539302 0.032402989 0.48000002 4278795798
-0.016944887 0.032335483 0.47900003 4278664210
-0.015389093 0.032335483 0.47900003 4278598417
-0.013804421 0.032267977 0.47800002 4278598417
-0.012226244 0.032200471 0.47700003 4278664212
-0.010676947 0.032200471 0.47700003 4278730005
-0.0091085145 0.032132965 0.47600001 4278664212
-0.0075624655 0.032132965 0.47600001 4278598419
-0.0060164174 0.032132965 0.47600001 4278860310
-0.0044703684 0.032132965 0.47600001 4278198281
-0.0029243196 0.032132965 0.47600001 4278990099
-0.0013782708 0.032132965 0.47600001 4278197511
0.00016777799 0.032132965 0.47600001 4278853135
0.0017138268 0.032132965 0.47600001 4279313686
0.0032598756 0.032132965 0.47600001 4278524170
0.0048059244 0.032132965 0.47600001 4279773983
0.0063519734 0.032132965 0.47600001 4278721295
0.0078980215 0.032132965 0.47600001 4279840541
0.009444071 0.032132965 0.47600001 4278918926
0.01099012 0.032132965 0.47600001 4278984719
0.012562505 0.032200471 0.47700003 4279116307
0.014111802 0.032200471 0.47700003 4278525453
0.0156611 0.032200471 0.47700003 4278857494
0.017210396 0.032200471 0.47700003 4278989847
0.018720362 0.032132965 0.47600001 4278397710
0.020266412 0.032132965 0.47600001 4279121433
0.021812461 0.032132965 0.47600001 4278989847
0.023309439 0.032065459 0.47500002 4279055640
0.024852239 0.032065459 0.47500002 4278989847
0.026339471 0.031997953 0.47400004 4278727189
0.027879026 0.031997953 0.47400004 4279187740
0.029418578 0.031997953 0.47400004 4279318812
0.030958129 0.031997953 0.47400004 4279120920
0.032497685 0.031997953 0.47400004 4278791955
0.034037236 0.031997953 0.47400004 4279055127
0.035576787 0.031997953 0.47400004 4278265357
0.037116341 0.031997953 0.47400004 4278195712
0.038737446 0.032065459 0.47500002 4278194688
0.040365048 0.032132965 0.47600001 4278194688
0.041911095 0.032132965 0.47600001 4278196224
0.043548442 0.032200471 0.47700003 4278197761
0.045192283 0.032267977 0.47800002 4278595601
0.046744827 0.032267977 0.47800002 4278531345
0.048398416 0.032335483 0.47900003 4278532628
0.049954206 0.032335483 0.47900003 4278336019
0.051509999 0.032335483 0.47900003 4278599191
0.053065795 0.032335483 0.47900003 4278862363
0.054735616 0.032402989 0.48000002 4279058972
0.056294661 0.032402989 0.48000002 4278925084
-0.023361526 0.034174822 0.48300001 4279318299
-0.021747623 0.034104068 0.48200002 4278859797
-0.020140216 0.034033313 0.48100004 4278794515
-0.018539302 0.033962559 0.48000002 4278861078
-0.016944887 0.033891805 0.47900003 4278795798
-0.015389093 0.033891805 0.47900003 4278664210
-0.013804421 0.033821046 0.47800002 4278598417
-0.012226244 0.033750292 0.47700003 4278466831
-0.010676947 0.033750292 0.47700003 4278466833
-0.0091085145 0.033679534 0.47600001 4278598419
-0.0075624655 0.033679534 0.47600001 4278466835
-0.0060164174 0.033679534 0.47600001 4278464017
-0.0044703684 0.033679534 0.47600001 4278197511
-0.0029243196 0.033679534 0.47600001 4278858259
-0.0013782708 0.033679534 0.47600001 4278196484
0.00016777799 0.033679534 0.47600001 4278655756
0.0017138268 0.033679534 0.47600001 4278194691
0.0032598756 0.033679534 0.47600001 4279116820
0.0048059244 0.033679534 0.47600001 4279313686
0.0063519734 0.033679534 0.47600001 4278260998
0.0078980215 0.033679534 0.47600001 4278260226
0.009444071 0.033679534 0.47600001 4279115535
0.01099012 0.033679534 0.47600001 4278919437
0.012536168 0.033679534 0.47600001 4278195714
0.014111802 0.033750292 0.47700003 4278723343
0.0156611 0.033750292 0.47700003 4278857748
0.017210396 0.033750292 0.47700003 4278197510
0.018720362 0.033679534 0.47600001 4278262281
0.020266412 0.033679534 0.47600001 4278195200
0.021812461 0.033679534 0.47600001 4278330380
0.023358511 0.033679534 0.47600001 4278792468
0.024852239 0.033608783 0.47500002 4278200074
0.02639504 0.033608783 0.47500002 4278199817
0.027937841 0.033608783 0.47500002 4278198789
0.029480642 0.033608783 0.47500002 4278727189
0.031023441 0.033608783 0.47500002 4278858773
0.032566246 0.033608783 0.47500002 4278924566
0.034109045 0.033608783 0.47500002 4278924820
0.035651844 0.033608783 0.47500002 4278859027
0.037194647 0.033608783 0.47500002 4278924820
0.038818996 0.033679534 0.47600001 4278989845
0.04044985 0.033750292 0.47700003 4279055125
0.041999146 0.033750292 0.47700003 4279055125
0.043639734 0.033821046 0.47800002 4279186711
0.045192283 0.033821046 0.47800002 4278330380
0.04684262 0.033891805 0.47900003 4279252252
0.048398416 0.033891805 0.47900003 4278466581
0.050058495 0.033962559 0.48000002 4278334995
0.051617533 0.033962559 0.48000002 4278334995
0.053176578 0.033962559 0.48000002 4278466581
0.054735616 0.033962559 0.48000002 4278531861
0.056294661 0.033962559 0.48000002 4278399505
-0.023409896 0.035818145 0.48400003 4279516705
-0.021747623 0.035670135 0.48200002 4278926103
-0.020140216 0.035596132 0.48100004 4278729492
-0.018539302 0.035522126 0.48000002 4278729492
-0.016944887 0.035448123 0.47900003 4278795285
-0.015389093 0.035448123 0.47900003 4278532113
-0.013804421 0.035374116 0.47800002 4278400527
-0.012251875 0.035374116 0.47800002 4278663699
-0.010676947 0.035300113 0.47700003 4278729492
-0.0091276504 0.035300113 0.47700003 4278664212
-0.0075624655 0.035226107 0.47600001 4278532113
-0.0060164174 0.035226107 0.47600001 4278859027
-0.0044703684 0.035226107 0.47600001 4278790418
-0.0029243196 0.035226107 0.47600001 4278726673
-0.0013782708 0.035226107 0.47600001 4278196486
0.00016742553 0.035152104 0.47500002 4278654732
0.0017102263 0.035152104 0.47500002 4278588939
0.0032530271 0.035152104 0.47500002 4278720011
0.0047958279 0.035152104 0.47500002 4278720011
0.0063386289 0.035152104 0.47500002 4278654218
0.0078980215 0.035226107 0.47600001 4278720011
0.009444071 0.035226107 0.47600001 4278523146
0.01099012 0.035226107 0.47600001 4278327304
0.012536168 0.035226107 0.47600001 4278458890
0.014082218 0.035226107 0.47600001 4279381785
0.015628267 0.035226107 0.47600001 4279779363
0.017174315 0.035226107 0.47600001 4278458377
0.018759692 0.035300113 0.47700003 4278786318
0.020266412 0.035226107 0.47600001 4278393097
0.021812461 0.035226107 0.47600001 4278197254
0.023358511 0.035226107 0.47600001 4279055640
0.024904558 0.035226107 0.47600001 4278199817
0.026450608 0.035226107 0.47600001 4278265357
0.027996656 0.035226107 0.47600001 4279318812
0.029480642 0.035152104 0.47500002 4278196736
0.031023441 0.035152104 0.47500002 4278198278
0.032566246 0.035152104 0.47500002 4278196992
0.034109045 0.035152104 0.47500002 4278265611
0.035726897 0.035226107 0.47600001 4278462988
0.037272949 0.035226107 0.47600001 4278197248
0.03890055 0.035300113 0.47700003 4278858259
0.04044985 0.035300113 0.47700003 4278529294
0.042087194 0.035374116 0.47800002 4278924566
0.043731034 0.035448123 0.47900003 4278661648
0.045286831 0.035448123 0.47900003 4278198024
0.046940412 0.035522126 0.48000002 4279251736
0.048499454 0.035522126 0.48000002 4278334482
0.050058495 0.035522126 0.48000002 4278663447
0.051617533 0.035522126 0.48000002 4278532374
0.053176578 0.035522126 0.48000002 4278531861
0.054735616 0.035522126 0.48000002 4278597654
0.056294661 0.035522126 0.48000002 4278465298
0.057853699 0.035522126 0.48000002 4284909171
-0.028532773 0.037931483 0.49100003 4285038188
-0.026773416 0.037699725 0.48800004 4282208837
-0.023458261 0.037467964 0.48500001 4279320096
-0.021792741 0.037313454 0.48300001 4279189021
-0.020182086 0.037236203 0.48200002 4278991892
-0.018577926 0.037158951 0.48100004 4278795283
-0.016980261 0.037081696 0.48000002 4278729490
-0.015389093 0.037004441 0.47900003 4278597906
-0.013804421 0.036927186 0.47800002 4278729492
-0.012251875 0.036927186 0.47800002 4278597906
-0.010676947 0.036849935 0.47700003 4278597906
-0.0091276504 0.036849935 0.47700003 4278597906
-0.0075624655 0.03677268 0.47600001 4278794517
-0.0060164174 0.03677268 0.47600001 4278201097
-0.0044703684 0.03677268 0.47600001 4278199561
-0.0029243196 0.03677268 0.47600001 4278595601
-0.0013753753 0.036695428 0.47500002 4278990361
0.00016742553 0.036695428 0.47500002 4279119383
0.0017102263 0.036695428 0.47500002 4278723345
0.0032530271 0.036695428 0.47500002 4278722832
0.0047958279 0.036695428 0.47500002 4278195205
0.0063386289 0.036695428 0.47500002 4278259974
0.007881429 0.036695428 0.47500002 4278523146
0.009424231 0.036695428 0.47500002 4278523146
0.01099012 0.03677268 0.47600001 4278720011
0.012536168 0.03677268 0.47600001 4278588939
0.014082218 0.03677268 0.47600001 4279777313
0.015628267 0.03677268 0.47600001 4278858261
0.017174315 0.03677268 0.47600001 4279249685
0.018720362 0.03677268 0.47600001 4278853646
0.020266412 0.03677268 0.47600001 4279513371
0.021812461 0.03677268 0.47600001 4279318045
0.023358511 0.03677268 0.47600001 4278462990
0.024904558 0.03677268 0.47600001 4278923539
0.026450608 0.03677268 0.47600001 4278857746
0.027996656 0.03677268 0.47600001 4278198533
0.029542705 0.03677268 0.47600001 4278858261
0.031088753 0.03677268 0.47600001 4278198536
0.032634802 0.03677268 0.47600001 4279514141
0.03418085 0.03677268 0.47600001 4278658832
0.035726897 0.03677268 0.47600001 4278197510
0.037351254 0.036849935 0.47700003 4279251736
0.038982101 0.036927186 0.47800002 4278922517
0.040534649 0.036927186 0.47800002 4278988310
0.042175245 0.037004441 0.47900003 4278266122
0.043731034 0.037004441 0.47900003 4278859027
0.045381371 0.037081696 0.48000002 4278196992
0.046940412 0.037081696 0.48000002 4279383320
0.048600499 0.037158951 0.48100004 4278991642
0.050162785 0.037158951 0.48100004 4278728470
0.051725071 0.037158951 0.48100004 4278400275
0.053287365 0.037158951 0.48100004 4278597654
0.054849651 0.037158951 0.48100004 4278794263
0.056294661 0.037081696 0.48000002 4279188510
0.057853699 0.037081696 0.48000002 4284119916
-0.02350663 0.03912428 0.48600003 4279515939
-0.021837862 0.038963273 0.48400003 4279056924
-0.020223958 0.03888277 0.48300001 4279320607
-0.018577926 0.038721766 0.48100004 4278663447
-0.016980261 0.038641263 0.48000002 4278992666
-0.015389093 0.038560763 0.47900003 4278795287
-0.0138333 0.038560763 0.47900003 4278663701
-0.012251875 0.038480259 0.47800002 4278532115
-0.010676947 0.038399756 0.47700003 4278532115
-0.0091276504 0.038399756 0.47700003 4278597908
-0.0075783534 0.038399756 0.47700003 4278663701
-0.0060164174 0.038319252 0.47600001 4278662931
-0.0044703684 0.038319252 0.47600001 4278794004
-0.0029243196 0.038319252 0.47600001 4278794004
-0.0013753753 0.038238753 0.47500002 4278925849
0.00016742553 0.038238753 0.47500002 4278794263
0.0017102263 0.038238753 0.47500002 4278860056
0.0032530271 0.038238753 0.47500002 4278794004
0.0047958279 0.038238753 0.47500002 4278924820
0.0063386289 0.038238753 0.47500002 4278924820
0.007881429 0.038238753 0.47500002 4279055638
0.009424231 0.038238753 0.47500002 4279581469
0.010967032 0.038238753 0.47500002 4279384092
0.012509832 0.038238753 0.47500002 4279449115
0.014082218 0.038319252 0.47600001 4279384092
0.015628267 0.038319252 0.47600001 4278397710
0.017174315 0.038319252 0.47600001 4278197766
0.018720362 0.038319252 0.47600001 4278195712
0.020266412 0.038319252 0.47600001 4278194432
0.021812461 0.038319252 0.47600001 4278195968
0.023358511 0.038319252 0.47600001 4278196482
0.024904558 0.038319252 0.47600001 4278197766
0.026450608 0.038319252 0.47600001 4278198791
0.027996656 0.038319252 0.47600001 4279054357
0.029542705 0.038319252 0.47600001 4279120918
0.031088753 0.038319252 0.47600001 4279384090
0.032634802 0.038319252 0.47600001 4279318297
0.034252662 0.038399756 0.47700003 4279055125
0.035801958 0.038399756 0.47700003 4279384090
0.03742956 0.038480259 0.47800002 4279252504
0.038982101 0.038480259 0.47800002 4279120918
0.040619452 0.038560763 0.47900003 4278726162
0.042263292 0.038641263 0.48000002 4278397708
0.043822329 0.038641263 0.48000002 4278859027
0.045475919 0.038721766 0.48100004 4278196480
0.047038205 0.038721766 0.48100004 4278923539
0.048600499 0.038721766 0.48100004 4278727957
0.050162785 0.038721766 0.48100004 4278662677
0.051725071 0.038721766 0.48100004 4278662677
0.053287365 0.038721766 0.48100004 4278925849
0.054849651 0.038721766 0.48100004 4278728470
0.056411941 0.038721766 0.48100004 4278991131
0.057853699 0.038641263 0.48000002 4284185709
-0.023603365 0.040870849 0.48800004 4284776815
-0.021882981 0.040619589 0.48500001 4281816900
-0.020265831 0.040535841 0.48400003 4279120670
-0.01861655 0.040368337 0.48200002 4278989595
-0.017015638 0.040284585 0.48100004 4278990879
-0.01542122 0.040200833 0.48000002 4279056670
-0.0138333 0.040117081 0.47900003 4278990877
-0.012251875 0.040033329 0.47800002 4278991390
-0.010699331 0.040033329 0.47800002 4278925597
-0.0091276504 0.039949577 0.47700003 4278925597
-0.0075783534 0.039949577 0.47700003 4278991644
-0.0060164174 0.039865825 0.47600001 4278860058
-0.0044703684 0.039865825 0.47600001 4278860056
-0.0029243196 0.039865825 0.47600001 4278860056
-0.0013753753 0.039782073 0.47500002 4278860056
0.00016742553 0.039782073 0.47500002 4278728470
0.0017102263 0.039782073 0.47500002 4278860310
0.0032461786 0.039698325 0.47400004 4278662931
0.0047857314 0.039698325 0.47400004 4278794517
0.006325285 0.039698325 0.47400004 4278662931
0.0078648375 0.039698325 0.47400004 4278926103
0.009424231 0.039782073 0.47500002 4278662931
0.010967032 0.039782073 0.47500002 4278596625
0.012509832 0.039782073 0.47500002 4278859797
0.014052633 0.039782073 0.47500002 4278925590
0.015628267 0.039865825 0.47600001 4279188762
0.017174315 0.039865825 0.47600001 4278794004
0.018720362 0.039865825 0.47600001 4278859797
0.020266412 0.039865825 0.47600001 4278858773
0.021812461 0.039865825 0.47600001 4278924566
0.023358511 0.039865825 0.47600001 4279121431
0.024904558 0.039865825 0.47600001 4279450396
0.026450608 0.039865825 0.47600001 4279318299
0.027996656 0.039865825 0.47600001 4279251736
0.02960477 0.039949577 0.47700003 4279251736
0.031154066 0.039949577 0.47700003 4279054103
0.032703366 0.039949577 0.47700003 4278461966
0.034252662 0.039949577 0.47700003 4278196996
0.035877012 0.040033329 0.47800002 4278194688
0.03742956 0.040033329 0.47800002 4278195456
0.039063655 0.040117081 0.47900003 4278196224
0.04070425 0.040200833 0.48000002 4278197508
0.042263292 0.040200833 0.48000002 4278461707
0.043913629 0.040284585 0.48100004 4278725392
0.045475919 0.040284585 0.48100004 4278198019
0.047135998 0.040368337 0.48200002 4278924568
0.048701536 0.040368337 0.48200002 4278728470
0.050267071 0.040368337 0.48200002 4278925849
0.051832609 0.040368337 0.48200002 4278860056
0.053398147 0.040368337 0.48200002 4278991642
0.054849651 0.040284585 0.48100004 4278860056
0.056411941 0.040284585 0.48100004 4278200077
0.05797423 0.040284585 0.48100004 4284579954
-0.018655173 0.042021401 0.48300001 4284514413
-0.017015638 0.041847404 0.48100004 4285303927
-0.01542122 0.0417604 0.48000002 4285172341
-0.01386218 0.0417604 0.48000002 4284579952
-0.012251875 0.041586399 0.47800002 4283461986
-0.010699331 0.041586399 0.47800002 4281160514
-0.0091276504 0.041499399 0.47700003 4279779113
-0.0075783534 0.041499399 0.47700003 4278726425
-0.0060164174 0.041412398 0.47600001 4278397720
-0.0044703684 0.041412398 0.47600001 4278726685
-0.0029181761 0.041325398 0.47500002 4278529558
-0.0013753753 0.041325398 0.47500002 4278991131
0.00016742553 0.041325398 0.47500002 4278859545
0.0017066259 0.041238397 0.47400004 4278859545
0.0032461786 0.041238397 0.47400004 4278991131
0.0047857314 0.041238397 0.47400004 4279056924
0.006325285 0.041238397 0.47400004 4278925849
0.0078648375 0.041238397 0.47400004 4278925849
0.0094043901 0.041238397 0.47400004 4278860056
0.010967032 0.041325398 0.47500002 4278728470
0.012509832 0.041325398 0.47500002 4278662677
0.014052633 0.041325398 0.47500002 4278531345
0.015595434 0.041325398 0.47500002 4278728211
0.017174315 0.041412398 0.47600001 4278728211
0.018720362 0.041412398 0.47600001 4278794517
0.020266412 0.041412398 0.47600001 4278662677
0.021812461 0.041412398 0.47600001 4278728470
0.023358511 0.041412398 0.47600001 4278794263
0.024904558 0.041412398 0.47600001 4278728470
0.026450608 0.041412398 0.47600001 4278794004
0.028055474 0.041499399 0.47700003 4278398992
0.02960477 0.041499399 0.47700003 4278924566
0.031154066 0.041499399 0.47700003 4278924566
0.032703366 0.041499399 0.47700003 4279056152
0.034324467 0.041586399 0.47800002 4278924566
0.035877012 0.041586399 0.47800002 4278727187
0.037507866 0.0416734 0.47900003 4279253017
0.039063655 0.0416734 0.47900003 4279121431
0.04070425 0.0417604 0.48000002 4279252504
0.042351339 0.041847404 0.48100004 4279778848
0.044004925 0.041934405 0.48200002 4279186711
0.045570463 0.041934405 0.48200002 4279055638
0.047135998 0.041934405 0.48200002 4278859543
0.048701536 0.041934405 0.48200002 4278795033
0.050267071 0.041934405 0.48200002 4278663447
0.051832609 0.041934405 0.48200002 4278663447
0.053398147 0.041934405 0.48200002 4278795033
0.054963682 0.041934405 0.48200002 4278859545
0.056411941 0.041847404 0.48100004 4281949769
0.05797423 0.041847404 0.48100004 4284382573
-0.020391444 0.043951724 0.48700002 4284644715
-0.018655173 0.043590721 0.48300001 4284776301
-0.017051013 0.043500472 0.48200002 4284711022
-0.015453348 0.043410223 0.48100004 4284776561
-0.01386218 0.043319974 0.48000002 4284776561
-0.0013753753 0.042868722 0.47500002 4283790436
0.00016742553 0.042868722 0.47500002 4283132758
0.0017066259 0.042778477 0.47400004 4281685310
0.0032461786 0.042778477 0.47400004 4281619519
0.0047857314 0.042778477 0.47400004 4280173358
0.006325285 0.042778477 0.47400004 4279121183
0.0078648375 0.042778477 0.47400004 4278595353
0.0094043901 0.042778477 0.47400004 4278529560
0.010943944 0.042778477 0.47400004 4279121181
0.012509832 0.042868722 0.47500002 4278989595
0.014052633 0.042868722 0.47500002 4279121693
0.015595434 0.042868722 0.47500002 4279121693
0.017174315 0.042958971 0.47600001 4279121947
0.018720362 0.042958971 0.47600001 4279187740
0.020266412 0.042958971 0.47600001 4279056924
0.021812461 0.042958971 0.47600001 4278859545
0.023358511 0.042958971 0.47600001 4279188510
0.024904558 0.042958971 0.47600001 4278859545
0.026450608 0.042958971 0.47600001 4278794265
0.028055474 0.043049224 0.47700003 4278794265
0.02960477 0.043049224 0.47700003 4278860056
0.031154066 0.043049224 0.47700003 4278860056
0.032703366 0.043049224 0.47700003 4278728470
0.034324467 0.043139473 0.47800002 4278860056
0.035877012 0.043139473 0.47800002 4278925849
0.037507866 0.043229725 0.47900003 4278794263
0.039145209 0.043319974 0.48000002 4278859543
0.040789053 0.043410223 0.48100004 4278991129
0.042351339 0.043410223 0.48100004 4278793750
0.044004925 0.043500472 0.48200002 4278859543
0.045570463 0.043500472 0.48200002 4278794263
0.04723379 0.043590721 0.48300001 4278465298
0.048802577 0.043590721 0.48300001 4278794263
0.05037136 0.043590721 0.48300001 4278925849
0.051940143 0.043590721 0.48300001 4278795033
0.05350893 0.043590721 0.48300001 4279123228
0.055077713 0.043590721 0.48300001 4279054107
0.05652922 0.043500472 0.48200002 4284711538
0.017174315 0.044505544 0.47600001 4283264344
0.018720362 0.044505544 0.47600001 4281948486
0.020266412 0.044505544 0.47600001 4280107565
0.021812461 0.044505544 0.47600001 4279647527
0.023358511 0.044505544 0.47600001 4279186976
0.024904558 0.044505544 0.47600001 4278726425
0.026506176 0.044599045 0.47700003 4278660632
0.028055474 0.044599045 0.47700003 4278594839
0.02960477 0.044599045 0.47700003 4278529044
0.031154066 0.044599045 0.47700003 4278857494
0.032771926 0.044692542 0.47800002 4279252252
0.034324467 0.044692542 0.47800002 4278857494
0.035952069 0.044786043 0.47900003 4278791701
0.037507866 0.044786043 0.47900003 4279055386
0.039145209 0.044879541 0.48000002 4278463763
0.040789053 0.044973042 0.48100004 4278924314
0.042439386 0.045066539 0.48200002 4278595349
0.044004925 0.045066539 0.48200002 4278858521
0.045570463 0.045066539 0.48200002 4279319072
0.04723379 0.045160037 0.48300001 4279121693
0.048802577 0.045160037 0.48300001 4279187486
0.05037136 0.045160037 0.48300001 4279187740
0.051940143 0.045160037 0.48300001 4278792468
0.05350893 0.045160037 0.48300001 4281225274
0.055077713 0.045160037 0.48300001 4285105526
0.026506176 0.046148866 0.47700003 4284843378
0.028055474 0.046148866 0.47700003 4284711792
0.02960477 0.046148866 0.47700003 4284514413
0.031154066 0.046148866 0.47700003 4284711792
0.032771926 0.046245612 0.47800002 4284843378
0.034324467 0.046245612 0.47800002 4284843378
0.035952069 0.046342365 0.47900003 4284645999
0.037507866 0.046342365 0.47900003 4284843378
0.039145209 0.046439111 0.48000002 4284909171
0.040789053 0.046535861 0.48100004 4284909171
0.042439386 0.046632607 0.48200002 4285106550
0.044004925 0.046632607 0.48200002 4285106550
0.045570463 0.046632607 0.48200002 4285106550
0.04723379 0.046729356 0.48300001 4284909171
0.048802577 0.046729356 0.48300001 4284909171
0.05037136 0.046729356 0.48300001 4284909171
0.052047681 0.046826106 0.48400003 4285106550
0.053619716 0.046826106 0.48400003 4284448620
0.055191748 0.046826106 0.48400003 4284514159
0.045570463 0.048198674 0.48200002 4284710768
0.047135998 0.048198674 0.48200002 4284842354
0.048701536 0.048198674 0.48200002 4284644975
0.05037136 0.048298672 0.48300001 4284710768
0.052047681 0.04839867 0.48400003 4284710768
0.053619716 0.04839867 0.48400003 4284644975
0.055191748 0.04839867 0.48400003 4284710768
0.015094343 0.034795415 0.47765148 4294967295
0.015094343 0.034795415 0.47765148 4294901760
0.015153198 0.034306724 0.47756365 4294901760
0.015212053 0.033818029 0.47747579 4294901760
0.015270907 0.033329338 0.47738796 4294901760
0.015329762 0.032840643 0.47730011 4294901760
0.015388617 0.032351952 0.47721228 4294901760
0.015447472 0.031863261 0.47712445 4294901760
0.015506327 0.031374566 0.4770366 4294901760
0.015565182 0.030885875 0.47694877 4294901760
0.015624037 0.030397182 0.47686091 4294901760
0.015682891 0.029908489 0.47677308 4294901760
0.015741747 0.029419798 0.47668526 4294901760
0.015800601 0.028931106 0.4765974 4294901760
0.015859457 0.028442413 0.47650957 4294901760
0.015918311 0.02795372 0.47642171 4294901760
0.015977167 0.027465027 0.47633389 4294901760
0.016036021 0.026976336 0.47624606 4294901760
0.016094876 0.026487641 0.4761582 4294901760
0.01615373 0.02599895 0.47607037 4294901760
0.016212586 0.025510257 0.47598252 4294901760
0.01627144 0.025021564 0.47589469 4294901760
0.016330296 0.024532873 0.47580686 4294901760
0.01638915 0.02404418 0.475719 4294901760
0.016448006 0.023555487 0.47563118 4294901760
0.01650686 0.023066796 0.47554332 4294901760
0.016565716 0.022578102 0.47545549 4294901760
0.01662457 0.022089411 0.47536767 4294901760
0.016683426 0.021600716 0.47527981 4294901760
0.01674228 0.021112025 0.47519198 4294901760
0.016801136 0.020623334 0.47510412 4294901760
0.01685999 0.020134639 0.4750163 4294901760
0.016918845 0.019645948 0.47492847 4294901760
0.016977699 0.019157255 0.47484061 4294901760
0.017036555 0.018668562 0.47475278 4294901760
0.017095409 0.018179869 0.47466493 4294901760
0.017154265 0.017691178 0.4745771 4294901760
0.017213119 0.017202485 0.47448927 4294901760
0.017271973 0.016713792 0.47440141 4294901760
0.017330829 0.0162251 0.47431359 4294901760
0.017389683 0.015736409 0.47422573 4294901760
0.017448539 0.015247716 0.4741379 4294901760
0.017507393 0.014759023 0.47405007 4294901760
0.017566249 0.014270332 0.47396222 4294901760
0.017625103 0.013781637 0.47387439 4294901760
0.017683959 0.013292946 0.47378653 4294901760
0.017742813 0.012804253 0.47369871 4294901760
0.017801668 0.01231556 0.47361088 4294901760
0.017860522 0.011826867 0.47352302 4294901760
0.017919378 0.011338176 0.47343519 4294901760
0.017978232 0.010849483 0.47334734 4294901760
0.018037088 0.01036079 0.47325951 4294901760
0.018095942 0.0098720975 0.47317168 4294901760
0.018154798 0.0093834065 0.47308382 4294901760
0.018213652 0.0088947136 0.472996 4294901760
0.018272508 0.0084060188 0.47290814 4294901760
0.018331362 0.0079173278 0.47282031 4294901760
0.018390218 0.0074286349 0.47273248 4294901760
0.018449072 0.0069399439 0.47264463 4294901760
0.018507928 0.006451251 0.4725568 4294901760
0.018566782 0.00596256 0.47246894 4294901760
0.018625638 0.0054738652 0.47238111 4294901760
0.018684492 0.0049851723 0.47229329 4294901760
0.018743347 0.0044964813 0.47220543 4294901760
0.018802201 0.0040077884 0.4721176 4294901760
0.018861055 0.0035190955 0.47202975 4294901760
0.018919911 0.0030304044 0.47194192 4294901760
0.018978767 0.0025417097 0.47185409 4294901760
0.019037621 0.0020530187 0.47176623 4294901760
0.019096475 0.0015643239 0.47167841 4294901760
0.019155331 0.0010756329 0.47159055 4294901760
0.019214187 0.00058694184 0.47150272 4294901760
0.019273041 9.8250806e-05 0.47141489 4294901760
0.019331895 -0.00039044395 0.47132704 4294901760
0.019390751 -0.00087913871 0.47123921 4294901760
0.019449607 -0.0013678297 0.47115135 4294901760
0.019508461 -0.0018565208 0.47106352 4294901760
0.019567315 -0.0023452155 0.4709757 4294901760
0.01962617 -0.0028339066 0.47088784 4294901760
0.019685024 -0.0033225976 0.47080001 4294901760
0.01974388 -0.0038112924 0.47071216 4294901760
0.019802734 -0.0042999834 0.47062433 4294901760
0.01986159 -0.0047886781 0.4705365 4294901760
0.019920444 -0.0052773692 0.47044864 4294901760
0.0199793 -0.0057660602 0.47036082 4294901760
0.020038154 -0.0062547512 0.47027296 4294901760
0.02009701 -0.006743446 0.47018513 4294901760
0.020155864 -0.0072321407 0.4700973 4294901760
0.02021472 -0.0077208318 0.47000945 4294901760
0.020273574 -0.0082095228 0.46992162 4294901760
0.02033243 -0.0086982176 0.46983376 4294901760
0.020391284 -0.0091869086 0.46974593 4294901760
0.020450139 -0.0096756034 0.46965811 4294901760
0.020508993 -0.010164294 0.46957025 4294901760
0.020567849 -0.010652985 0.46948242 4294901760
0.020626703 -0.01114168 0.46939456 4294901760
0.020685557 -0.011630371 0.46930674 4294901760
0.020744413 -0.012119062 0.46921891 4294901760
0.020803269 -0.012607757 0.46913105 4294901760
0.020862123 -0.013096448 0.46904323 4294901760
0.020920977 -0.013585143 0.46895537 4294901760
0.020979833 -0.014073834 0.46886754 4294901760
0.015094343 0.034795415 0.47765148 4278255360
0.015590705 0.034855578 0.47764933 4278255360
0.016087068 0.034915742 0.47764719 4278255360
0.01658343 0.034975909 0.47764504 4278255360
0.017079793 0.035036072 0.47764289 4278255360
0.017576154 0.035096236 0.47764075 4278255360
0.018072518 0.035156399 0.4776386 4278255360
0.018568879 0.035216562 0.47763646 4278255360
0.019065242 0.03527673 0.47763431 4278255360
0.019561604 0.035336893 0.47763216 4278255360
0.020057967 0.035397056 0.47763002 4278255360
0.02055433 0.03545722 0.47762787 4278255360
0.021050692 0.035517383 0.47762573 4278255360
0.021547053 0.035577547 0.47762358 4278255360
0.022043416 0.035637714 0.47762144 4278255360
0.02253978 0.035697877 0.47761929 4278255360
0.023036141 0.035758041 0.47761714 4278255360
0.023532502 0.035818204 0.47761503 4278255360
0.024028867 0.035878368 0.47761288 4278255360
0.024525229 0.035938535 0.47761074 4278255360
0.02502159 0.035998698 0.47760859 4278255360
0.025517952 0.036058862 0.47760645 4278255360
0.026014317 0.036119025 0.4776043 4278255360
0.026510678 0.036179189 0.47760215 4278255360
0.02700704 0.036239356 0.47760001 4278255360
0.027503403 0.036299519 0.47759786 4278255360
0.027999766 0.036359683 0.47759572 4278255360
0.028496128 0.036419846 0.47759357 4278255360
0.028992489 0.03648001 0.47759143 4278255360
0.029488852 0.036540173 0.47758928 4278255360
0.029985216 0.03660034 0.47758713 4278255360
0.030481577 0.036660504 0.47758499 4278255360
0.030977938 0.036720667 0.47758284 4278255360
0.031474303 0.03678083 0.4775807 4278255360
0.031970665 0.036840994 0.47757855 4278255360
0.032467026 0.036901161 0.4775764 4278255360
0.032963391 0.036961325 0.47757426 4278255360
0.033459753 0.037021488 0.47757211 4278255360
0.033956114 0.037081651 0.47756997 4278255360
0.034452476 0.037141815 0.47756782 4278255360
0.034948841 0.037201982 0.47756568 4278255360
0.035445202 0.037262145 0.47756353 4278255360
0.035941564 0.037322309 0.47756138 4278255360
0.036437925 0.037382472 0.47755924 4278255360
0.03693429 0.037442636 0.47755709 4278255360
0.037430651 0.037502803 0.47755495 4278255360
0.037927013 0.037562966 0.4775528 4278255360
0.038423374 0.03762313 0.47755066 4278255360
0.038919739 0.037683293 0.47754851 4278255360
0.039416101 0.037743457 0.47754636 4278255360
0.039912462 0.03780362 0.47754425 4278255360
0.040408824 0.037863787 0.4775421 4278255360
0.040905189 0.037923951 0.47753996 4278255360
0.04140155 0.037984114 0.47753781 4278255360
0.041897915 0.038044278 0.47753567 4278255360
0.042394277 0.038104445 0.47753352 4278255360
0.042890638 0.038164608 0.47753137 4278255360
0.043387 0.038224772 0.47752923 4278255360
0.043883361 0.038284935 0.47752708 4278255360
0.044379722 0.038345098 0.47752494 4278255360
0.044876087 0.038405262 0.47752279 4278255360
0.045372449 0.038465429 0.47752064 4278255360
0.045868814 0.038525593 0.4775185 4278255360
0.046365175 0.038585756 0.47751635 4278255360
0.046861537 0.038645919 0.47751421 4278255360
0.047357898 0.038706083 0.47751206 4278255360
0.047854263 0.03876625 0.47750992 4278255360
0.048350625 0.038826413 0.47750777 4278255360
0.048846986 0.038886577 0.47750562 4278255360
0.049343351 0.03894674 0.47750348 4278255360
0.049839713 0.039006904 0.47750133 4278255360
0.050336074 0.039067067 0.47749919 4278255360
0.050832439 0.039127234 0.47749704 4278255360
0.051328801 0.039187398 0.4774949 4278255360
0.051825162 0.039247561 0.47749275 4278255360
0.052321523 0.039307725 0.4774906 4278255360
0.052817885 0.039367888 0.47748846 4278255360
0.05331425 0.039428055 0.47748631 4278255360
0.053810611 0.039488219 0.47748417 4278255360
0.054306976 0.039548382 0.47748202 4278255360
0.054803338 0.039608546 0.47747988 4278255360
0.055299699 0.039668709 0.47747773 4278255360
0.055796061 0.039728876 0.47747558 4278255360
0.056292422 0.03978904 0.47747344 4278255360
0.056788784 0.039849203 0.47747132 4278255360
0.057285149 0.039909367 0.47746918 4278255360
0.05778151 0.03996953 0.47746703 4278255360
0.058277875 0.040029697 0.47746488 4278255360
0.058774237 0.040089861 0.47746274 4278255360
0.059270598 0.040150024 0.47746059 4278255360
0.059766959 0.040210187 0.47745845 4278255360
0.060263325 0.040270351 0.4774563 4278255360
0.060759686 0.040330514 0.47745416 4278255360
0.061256047 0.040390681 0.47745201 4278255360
0.061752409 0.040450845 0.47744986 4278255360
0.06224877 0.040511008 0.47744772 4278255360
0.062745132 0.040571172 0.47744557 4278255360
0.063241497 0.040631339 0.47744343 4278255360
0.063737862 0.040691502 0.47744128 4278255360
0.064234219 0.040751666 0.47743914 4278255360
0.064730585 0.040811829 0.47743699 4278255360
0.015094343 0.034795415 0.47765148 4278190335
0.015124571 0.034710649 0.4781433 4278190335
0.015154799 0.034625888 0.47863513 4278190335
0.015185026 0.034541123 0.47912699 4278190335
0.015215255 0.034456361 0.47961882 4278190335
0.015245483 0.034371596 0.48011065 4278190335
0.015275711 0.034286831 0.48060247 4278190335
0.015305939 0.034202069 0.48109433 4278190335
0.015336167 0.034117304 0.48158616 4278190335
0.015366395 0.034032542 0.48207799 4278190335
0.015396623 0.033947777 0.48256981 4278190335
0.015426852 0.033863012 0.48306167 4278190335
0.01545708 0.03377825 0.4835535 4278190335
0.015487308 0.033693485 0.48404533 4278190335
0.015517536 0.033608723 0.48453715 4278190335
0.015547764 0.033523958 0.48502901 4278190335
0.015577991 0.033439193 0.48552084 4278190335
0.01560822 0.033354431 0.48601267 4278190335
0.015638448 0.033269666 0.4865045 4278190335
0.015668675 0.033184901 0.48699635 4278190335
0.015698904 0.033100139 0.48748818 4278190335
0.015729133 0.033015374 0.48798001 4278190335
0.01575936 0.032930613 0.48847184 4278190335
0.015789589 0.032845847 0.48896369 4278190335
0.015819816 0.032761082 0.48945552 4278190335
0.015850045 0.032676321 0.48994735 4278190335
0.015880272 0.032591555 0.49043918 4278190335
0.015910501 0.032506794 0.49093103 4278190335
0.01594073 0.032422028 0.49142286 4278190335
0.015970957 0.032337263 0.49191469 4278190335
0.016001185 0.032252502 0.49240652 4278190335
0.016031412 0.032167736 0.49289834 4278190335
0.016061641 0.032082975 0.4933902 4278190335
0.016091868 0.03199821 0.49388203 4278190335
0.016122097 0.031913444 0.49437386 4278190335
0.016152326 0.031828683 0.49486569 4278190335
0.016182553 0.031743918 0.49535754 4278190335
0.016212782 0.031659156 0.49584937 4278190335
0.016243009 0.031574391 0.4963412 4278190335
0.016273238 0.031489626 0.49683303 4278190335
0.016303465 0.031404864 0.49732488 4278190335
0.016333694 0.031320099 0.49781671 4278190335
0.016363923 0.031235335 0.49830854 4278190335
0.01639415 0.031150572 0.49880037 4278190335
0.016424378 0.031065809 0.49929222 4278190335
0.016454605 0.030981045 0.49978405 4278190335
0.016484834 0.03089628 0.50027591 4278190335
0.016515061 0.030811517 0.50076771 4278190335
0.01654529 0.030726753 0.50125957 4278190335
0.016575519 0.03064199 0.50175136 4278190335
0.016605746 0.030557226 0.50224322 4278190335
0.016635975 0.030472461 0.50273508 4278190335
0.016666202 0.030387698 0.50322688 4278190335
0.016696431 0.030302934 0.50371873 4278190335
0.01672666 0.030218169 0.50421059 4278190335
0.016756887 0.030133408 0.50470239 4278190335
0.016787115 0.030048642 0.50519425 4278190335
0.016817342 0.029963879 0.50568604 4278190335
0.016847571 0.029879116 0.5061779 4278190335
0.016877798 0.029794352 0.50666976 4278190335
0.016908027 0.029709587 0.50716156 4278190335
0.016938256 0.029624823 0.50765342 4278190335
0.016968483 0.02954006 0.50814521 4278190335
0.016998712 0.029455297 0.50863707 4278190335
0.017028939 0.029370533 0.50912893 4278190335
0.017059168 0.02928577 0.50962073 4278190335
0.017089397 0.029201005 0.51011258 4278190335
0.017119624 0.029116241 0.51060444 4278190335
0.017149853 0.029031478 0.51109624 4278190335
0.01718008 0.028946713 0.5115881 4278190335
0.017210308 0.028861949 0.51207989 4278190335
0.017240535 0.028777186 0.51257175 4278190335
0.017270764 0.028692422 0.51306361 4278190335
0.017300993 0.028607659 0.51355541 4278190335
0.01733122 0.028522894 0.51404727 4278190335
0.017361449 0.02843813 0.51453912 4278190335
0.017391676 0.028353367 0.51503092 4278190335
0.017421905 0.028268604 0.51552278 4278190335
0.017452132 0.02818384 0.51601458 4278190335
0.017482361 0.028099075 0.51650643 4278190335
0.01751259 0.028014312 0.51699829 4278190335
0.017542817 0.027929548 0.51749009 4278190335
0.017573046 0.027844785 0.51798195 4278190335
0.017603273 0.027760021 0.51847374 4278190335
0.017633501 0.027675256 0.5189656 4278190335
0.017663728 0.027590493 0.51945746 4278190335
0.017693957 0.027505729 0.51994926 4278190335
0.017724186 0.027420966 0.52044111 4278190335
0.017754413 0.027336203 0.52093297 4278190335
0.017784642 0.027251437 0.52142477 4278190335
0.017814869 0.027166674 0.52191663 4278190335
0.017845098 0.027081911 0.52240843 4278190335
0.017875325 0.026997145 0.52290028 4278190335
0.017905554 0.026912384 0.52339214 4278190335
0.017935783 0.026827618 0.52388394 4278190335
0.01796601 0.026742855 0.5243758 4278190335
0.017996239 0.026658092 0.52486765 4278190335
0.018026466 0.026573326 0.52535945 4278190335
0.018056694 0.026488565 0.52585131 4278190335
0.018086921 0.0264038 0.52634311 4278190335
0.01811715 0.026319036 0.52683496 4278190335
0.015094343 0.034795415 0.47765148 4294967295
0.014912974 0.035303999 0.47470048 4294967295
0.014731606 0.035812579 0.47174945 4294967295
0.014550237 0.036321163 0.46879846 4294967295
0.014368869 0.036829747 0.46584743 4294967295
0.014187501 0.037338328 0.46289644 4294967295
0.014006132 0.037846912 0.45994544 4294967295
0.013824764 0.038355492 0.45699441 4294967295
0.013643395 0.038864076 0.45404342 4294967295
0.013462027 0.03937266 0.45109239 4294967295
0.013280658 0.039881241 0.4481414 4294967295
0.01309929 0.040389825 0.44519037 4294967295
0.012917922 0.040898405 0.44223937 4294967295
0.012736553 0.041406989 0.43928838 4294967295
0.012555185 0.041915573 0.43633735 4294967295
0.012373816 0.042424157 0.43338636 4294967295
0.012192448 0.042932738 0.43043536 4294967295
0.012011079 0.043441322 0.42748433 4294967295
0.011829711 0.043949902 0.42453331 4294967295
0.011648343 0.044458486 0.42158231 4294967295
0.011466974 0.04496707 0.41863132 4294967295
0.011285606 0.045475651 0.41568029 4294967295
0.011104237 0.045984235 0.41272929 4294967295
0.010922869 0.046492815 0.4097783 4294967295
0.0107415 0.047001399 0.40682727 4294967295
0.010560133 0.047509983 0.40387627 4294967295
0.010378764 0.048018564 0.40092528 4294967295
0.010197395 0.048527148 0.39797425 4294967295
0.010016027 0.049035732 0.39502323 4294967295
0.0098346584 0.049544312 0.39207223 4294967295
0.0096532898 0.050052896 0.38912123 4294967295
0.0094719213 0.05056148 0.38617021 4294967295
0.0092905536 0.051070061 0.38321921 4294967295
0.0091091841 0.051578645 0.38026819 4294967295
0.0089278165 0.052087225 0.37731719 4294967295
0.008746448 0.052595809 0.37436619 4294967295
0.0085650794 0.053104393 0.37141517 4294967295
0.0083837109 0.053612977 0.36846417 4294967295
0.0082023423 0.054121558 0.36551315 4294967295
0.0080209747 0.054630138 0.36256215 4294967295
0.0078396052 0.055138722 0.35961115 4294967295
0.0076582376 0.055647306 0.35666013 4294967295
0.007476869 0.05615589 0.35370913 4294967295
0.0072955005 0.056664471 0.35075814 4294967295
0.0071141319 0.057173051 0.34780711 4294967295
0.0069327643 0.057681635 0.34485608 4294967295
0.0067513948 0.058190219 0.34190509 4294967295
0.0065700272 0.058698803 0.33895409 4294967295
0.0063886587 0.059207384 0.33600307 4294967295
0.0062072901 0.059715968 0.33305207 4294967295
0.0060259216 0.060224548 0.33010107 4294967295
0.005844553 0.060733132 0.32715005 4294967295
0.0056631854 0.061241716 0.32419905 4294967295
0.0054818168 0.061750297 0.32124805 4294967295
0.0053004473 0.062258884 0.31829703 4294967295
0.0051190788 0.062767461 0.315346 4294967295
0.0049377112 0.063276045 0.31239501 4294967295
0.0047563426 0.063784629 0.30944401 4294967295
0.0045749741 0.064293213 0.30649298 4294967295
0.0043936064 0.064801797 0.30354199 4294967295
0.004212237 0.065310374 0.30059096 4294967295
0.0040308684 0.065818958 0.29763997 4294967295
0.0038495008 0.066327542 0.29468894 4294967295
0.0036681322 0.066836126 0.29173794 4294967295
0.0034867637 0.06734471 0.28878695 4294967295
0.0033053961 0.067853287 0.28583592 4294967295
0.0031240266 0.068361878 0.2828849 4294967295
0.002942658 0.068870455 0.27993393 4294967295
0.0027612895 0.069379039 0.2769829 4294967295
0.0025799219 0.069887623 0.27403188 4294967295
0.0023985533 0.0703962 0.27108091 4294967295
0.0022171848 0.070904784 0.26812989 4294967295
0.0020358162 0.071413368 0.26517886 4294967295
0.0018544476 0.071921952 0.26222786 4294967295
0.0016730791 0.072430536 0.25927687 4294967295
0.0014917115 0.072939113 0.25632584 4294967295
0.0013103429 0.073447704 0.25337484 4294967295
0.0011289744 0.073956281 0.25042385 4294967295
