# .PCD v0.7 - Point Cloud Data file format
VERSION 0.7
FIELDS x y z rgb
SIZE 4 4 4 4
TYPE F F F U
COUNT 1 1 1 1
WIDTH 1049
HEIGHT 1
VIEWPOINT 0 0 0 1 0 0 0
POINTS 1049
DATA ascii
0.046168651 0.04820621 0.37300003 4285670938
0.047380153 0.04820621 0.37300003 4285276180
0.048591658 0.04820621 0.37300003 4284618763
0.049803168 0.04820621 0.37300003 4284487947
0.050877895 0.048076969 0.37200001 4284225548
0.052086156 0.048076969 0.37200001 4283701774
0.0039578201 0.051935405 0.39200002 4287005816
0.0052310373 0.051935405 0.39200002 4286273869
0.0065042535 0.051935405 0.39200002 4285872689
0.0077576302 0.051802915 0.39100003 4286927174
0.0090275994 0.051802915 0.39100003 4283439380
0.010297568 0.051802915 0.39100003 4282847243
0.011567537 0.051802915 0.39100003 4282061322
0.012804672 0.051670425 0.39000002 4280812800
0.014071392 0.051670425 0.39000002 4286876797
0.015338113 0.051670425 0.39000002 4286878595
0.016562259 0.051537938 0.38900003 4286216041
0.01782573 0.051537938 0.38900003 4284239171
0.01904013 0.051405448 0.38800001 4283382065
0.020248035 0.051272962 0.38700002 4280095757
0.021449441 0.051140472 0.38600001 4279113235
0.022703171 0.051140472 0.38600001 4279113235
0.023894835 0.051007986 0.38500002 4281680435
0.025080003 0.050875496 0.384 4280890919
0.026327236 0.050875496 0.384 4281678114
0.02750266 0.050743006 0.38300002 4284771153
0.028746644 0.050743006 0.38300002 4281284646
0.029912326 0.05061052 0.38200003 4283193676
0.031153062 0.05061052 0.38200003 4284840809
0.032308999 0.05047803 0.38100001 4285235052
0.033546485 0.05047803 0.38100001 4282206781
0.034692679 0.050345544 0.38000003 4281285425
0.035832375 0.050213054 0.37900001 4279838492
0.037063368 0.050213054 0.37900001 4278915848
0.038193323 0.050080568 0.37800002 4279637002
0.039316773 0.049948078 0.377 4279505414
0.040433735 0.049815591 0.37600002 4279570948
0.041544203 0.049683105 0.37500003 4281079822
0.042648166 0.049550612 0.37400001 4284161810
0.04386292 0.049550612 0.37400001 4284685331
0.044957146 0.049418125 0.37300003 4284815890
0.046168651 0.049418125 0.37300003 4285013267
0.047380153 0.049418125 0.37300003 4284685072
0.048461385 0.049285635 0.37200001 4284158985
0.049669642 0.049285635 0.37200001 4283700489
0.050877895 0.049285635 0.37200001 4283240710
0.052086156 0.049285635 0.37200001 4282651914
0.0026846034 0.053209048 0.39200002 4286946187
0.0039578201 0.053209048 0.39200002 4285878599
0.0052310373 0.053209048 0.39200002 4285741617
0.0065042535 0.053209048 0.39200002 4285803814
0.0077576302 0.053073313 0.39100003 4285672998
0.0090275994 0.053073313 0.39100003 4284490525
0.010297568 0.053073313 0.39100003 4283176462
0.011567537 0.053073313 0.39100003 4282192395
0.012804672 0.052937571 0.39000002 4281929738
0.014071392 0.052937571 0.39000002 4282784541
0.015338113 0.052937571 0.39000002 4284363827
0.016562259 0.052801836 0.38900003 4284295202
0.017779905 0.052666098 0.38800001 4284294943
0.01904013 0.052666098 0.38800001 4283969319
0.020248035 0.052530363 0.38700002 4279764224
0.021449441 0.052394621 0.38600001 4281548597
0.022644356 0.052258886 0.38500002 4280627497
0.02383277 0.052123148 0.384 4281614642
0.025080003 0.052123148 0.384 4280758554
0.026258677 0.05198741 0.38300002 4286610256
0.02750266 0.05198741 0.38300002 4284372776
0.028671589 0.051851675 0.38200003 4282203683
0.029912326 0.051851675 0.38200003 4281547816
0.031153062 0.051851675 0.38200003 4282865736
0.032308999 0.051715937 0.38100001 4279838231
0.033546485 0.051715937 0.38100001 4282535746
0.034692679 0.051580202 0.38000003 4280101405
0.035832375 0.05144446 0.37900001 4281482804
0.037063368 0.05144446 0.37900001 4278652935
0.038193323 0.051308725 0.37800002 4279440652
0.039316773 0.051172987 0.377 4279308807
0.040433735 0.051037248 0.37600002 4279505414
0.041544203 0.050901514 0.37500003 4280620556
0.042648166 0.050765775 0.37400001 4283242253
0.043745644 0.050630037 0.37300003 4284226835
0.044957146 0.050630037 0.37300003 4284948246
0.046168651 0.050630037 0.37300003 4284750867
0.047253128 0.050494298 0.37200001 4284357136
0.048461385 0.050494298 0.37200001 4283438089
0.049669642 0.050494298 0.37200001 4282848008
0.050877895 0.050494298 0.37200001 4282585608
0.052086156 0.050494298 0.37200001 4282193678
0.0014113868 0.054482698 0.39200002 4286157441
0.0026846034 0.054482698 0.39200002 4285165409
0.0039578201 0.054482698 0.39200002 4285543211
0.0052176928 0.054343715 0.39100003 4285014298
0.006487661 0.054343715 0.39100003 4286990139
0.0077576302 0.054343715 0.39100003 4287911243
0.0090275994 0.054343715 0.39100003 4284291861
0.010271231 0.054204725 0.39000002 4283240969
0.011537951 0.054204725 0.39000002 4282323979
0.012804672 0.054204725 0.39000002 4282258188
0.014071392 0.054204725 0.39000002 4284492583
0.015298785 0.054065742 0.38900003 4284294173
0.016562259 0.054065742 0.38900003 4284687386
0.017779905 0.053926751 0.38800001 4284621593
0.018991059 0.053787768 0.38700002 4284098593
0.020248035 0.053787768 0.38700002 4279828992
0.021449441 0.053648777 0.38600001 4281483058
0.022644356 0.053509794 0.38500002 4281154093
0.02383277 0.053370804 0.384 4281219366
0.025014691 0.05323182 0.38300002 4280757784
0.026258677 0.05323182 0.38300002 4282400281
0.02750266 0.05323182 0.38300002 4281676045
0.028671589 0.053092834 0.38200003 4282597410
0.029912326 0.053092834 0.38200003 4281020184
0.031071508 0.052953847 0.38100001 4281483054
0.032308999 0.052953847 0.38100001 4279705362
0.033546485 0.052953847 0.38100001 4281943355
0.034692679 0.05281486 0.38000003 4278258179
0.035832375 0.052675873 0.37900001 4280561704
0.037063368 0.052675873 0.37900001 4278652937
0.038193323 0.052536886 0.37800002 4279374857
0.039316773 0.052397899 0.377 4279505414
0.040433735 0.052258916 0.37600002 4279636487
0.041544203 0.052119929 0.37500003 4280687632
0.042648166 0.051980942 0.37400001 4282981393
0.04386292 0.051980942 0.37400001 4283373069
0.044957146 0.051841956 0.37300003 4284030224
0.046168651 0.051841956 0.37300003 4285346597
0.047380153 0.051841956 0.37300003 4282848008
0.048461385 0.051702969 0.37200001 4282782987
0.049669642 0.051702969 0.37200001 4282717707
0.050877895 0.051702969 0.37200001 4282323979
0.052086156 0.051702969 0.37200001 4282194191
0.0014113868 0.055756349 0.39200002 4287076490
0.0026846034 0.055756349 0.39200002 4284238140
0.0039477237 0.055614114 0.39100003 4285803814
0.0052176928 0.055614114 0.39100003 4285014039
0.006487661 0.055614114 0.39100003 4285543715
0.0077576302 0.055614114 0.39100003 4285409052
0.00900451 0.055471878 0.39000002 4285015838
0.010271231 0.055471878 0.39000002 4283438348
0.011537951 0.055471878 0.39000002 4282455049
0.012804672 0.055471878 0.39000002 4282389772
0.014071392 0.055471878 0.39000002 4283900183
0.015298785 0.055329643 0.38900003 4284359191
0.016562259 0.055329643 0.38900003 4284686103
0.017779905 0.055187404 0.38800001 4284554517
0.018991059 0.055045173 0.38700002 4283045905
0.020195713 0.054902934 0.38600001 4280485890
0.021393875 0.054760698 0.38500002 4281481773
0.022644356 0.054760698 0.38500002 4281285679
0.02383277 0.054618463 0.384 4280955681
0.025014691 0.054476228 0.38300002 4281020184
0.026258677 0.054476228 0.38300002 4281413652
0.027430853 0.054333996 0.38200003 4281150480
0.028671589 0.054333996 0.38200003 4280689159
0.029912326 0.054333996 0.38200003 4281019155
0.031071508 0.054191757 0.38100001 4281416491
0.032308999 0.054191757 0.38100001 4279968534
0.033546485 0.054191757 0.38100001 4281943357
0.034692679 0.054049522 0.38000003 4278455045
0.035832375 0.053907286 0.37900001 4281351472
0.037063368 0.053907286 0.37900001 4279047693
0.038193323 0.053765051 0.37800002 4279440650
0.039316773 0.053622812 0.377 4279570694
0.040433735 0.05348058 0.37600002 4279636487
0.041544203 0.053338345 0.37500003 4280556044
0.042648166 0.053196106 0.37400001 4283441430
0.04386292 0.053196106 0.37400001 4283570448
0.044957146 0.053053875 0.37300003 4283241483
0.046168651 0.053053875 0.37300003 4283242766
0.047380153 0.053053875 0.37300003 4282717707
0.048591658 0.053053875 0.37300003 4282586635
0.049803168 0.053053875 0.37300003 4282323979
0.050877895 0.052911635 0.37200001 4282521873
0.052086156 0.052911635 0.37200001 4282196758
0.00013817011 0.057029992 0.39200002 4286157700
0.0014077864 0.056884512 0.39100003 4287666828
0.002677755 0.056884512 0.39100003 4283839528
0.0039477237 0.056884512 0.39100003 4285671971
0.0052176928 0.056884512 0.39100003 4285079832
0.0064710681 0.056739025 0.39000002 4285014296
0.0077377893 0.056739025 0.39000002 4284948244
0.00900451 0.056739025 0.39000002 4284357906
0.010271231 0.056739025 0.39000002 4283569675
0.011537951 0.056739025 0.39000002 4282782987
0.01277184 0.056593541 0.38900003 4282651401
0.014035312 0.056593541 0.38900003 4283767054
0.015298785 0.056593541 0.38900003 4284292628
0.016519681 0.056448054 0.38800001 4284357138
0.017779905 0.056448054 0.38800001 4284422931
0.018991059 0.05630257 0.38700002 4283702806
0.020195713 0.056157082 0.38600001 4281406990
0.021393875 0.056011602 0.38500002 4282600254
0.022585537 0.055866115 0.384 4279574291
0.02383277 0.055866115 0.384 4281416745
0.025014691 0.055720631 0.38300002 4281415712
0.026258677 0.055720631 0.38300002 4281347861
0.027430853 0.055575147 0.38200003 4281282066
0.028671589 0.055575147 0.38200003 4281940511
0.029912326 0.055575147 0.38200003 4281546528
0.031071508 0.05542966 0.38100001 4280955940
0.032308999 0.05542966 0.38100001 4280296731
0.033546485 0.05542966 0.38100001 4281284142
0.034692679 0.05528418 0.38000003 4278586629
0.035926919 0.05528418 0.38000003 4278192384
0.037063368 0.055138692 0.37900001 4278784262
0.038193323 0.054993208 0.37800002 4279374600
0.039316773 0.054847721 0.377 4279636487
0.040433735 0.054702237 0.37600002 4279504901
0.041544203 0.054556757 0.37500003 4280688144
0.042648166 0.05441127 0.37400001 4283637524
0.04386292 0.05441127 0.37400001 4283833106
0.044957146 0.054265786 0.37300003 4282913801
0.046168651 0.054265786 0.37300003 4282520842
0.047380153 0.054265786 0.37300003 4282455565
0.048591658 0.054265786 0.37300003 4282389772
0.049803168 0.054265786 0.37300003 4282391055
0.051014666 0.054265786 0.37300003 4282852119
0.052086156 0.054120298 0.37200001 4282590744
0.00013817011 0.058303643 0.39200002 4286289286
0.0014077864 0.058154915 0.39100003 4287731338
0.002677755 0.058154915 0.39100003 4283707692
0.0039477237 0.058154915 0.39100003 4285409572
0.0052043479 0.058006175 0.39000002 4285409056
0.0064710681 0.058006175 0.39000002 4284948503
0.0077377893 0.058006175 0.39000002 4284817687
0.00900451 0.058006175 0.39000002 4284095247
0.010244895 0.057857446 0.38900003 4283897870
0.011508367 0.057857446 0.38900003 4283176460
0.01277184 0.057857446 0.38900003 4283045387
0.014035312 0.057857446 0.38900003 4283570448
0.015298785 0.057857446 0.38900003 4284161812
0.016519681 0.057708707 0.38800001 4284161812
0.017779905 0.057708707 0.38800001 4284490523
0.018991059 0.057559978 0.38700002 4284097562
0.020195713 0.057411239 0.38600001 4281997328
0.021393875 0.05726251 0.38500002 4279045642
0.022585537 0.05711377 0.384 4278981389
0.02383277 0.05711377 0.384 4282271800
0.025014691 0.056965042 0.38300002 4281219364
0.026258677 0.056965042 0.38300002 4280757012
0.027430853 0.05681631 0.38200003 4280822546
0.028671589 0.05681631 0.38200003 4281020186
0.029912326 0.05681631 0.38200003 4281877296
0.031071508 0.056667574 0.38100001 4282533689
0.032308999 0.056667574 0.38100001 4281020452
0.033546485 0.056667574 0.38100001 4279507731
0.034692679 0.056518842 0.38000003 4280758311
0.035926919 0.056518842 0.38000003 4281482288
0.037063368 0.056370106 0.37900001 4279047434
0.038193323 0.056221373 0.37800002 4279637002
0.039316773 0.056072637 0.377 4279834379
0.040433735 0.055923905 0.37600002 4280032012
0.041544203 0.055775173 0.37500003 4280754191
0.042762201 0.055775173 0.37500003 4283702804
0.04386292 0.055626437 0.37400001 4283109383
0.045077674 0.055626437 0.37400001 4282195727
0.046292424 0.055626437 0.37400001 4281737742
0.047380153 0.055477705 0.37300003 4281670412
0.048591658 0.055477705 0.37300003 4281734922
0.049803168 0.055477705 0.37300003 4282062603
0.051014666 0.055477705 0.37300003 4282194189
0.052226175 0.055477705 0.37300003 4282064402
0.00013781765 0.059425309 0.39100003 4286223493
0.0014077864 0.059425309 0.39100003 4287206795
0.002677755 0.059425309 0.39100003 4282659115
0.0039376272 0.059273325 0.39000002 4285018412
0.0052043479 0.059273325 0.39000002 4284425245
0.0064710681 0.059273325 0.39000002 4284358937
0.0077179489 0.059121341 0.38900003 4283898899
0.0089814216 0.059121341 0.38900003 4283964433
0.010244895 0.059121341 0.38900003 4283964433
0.011508367 0.059121341 0.38900003 4283570188
0.01277184 0.059121341 0.38900003 4283307530
0.014035312 0.059121341 0.38900003 4283570448
0.015259456 0.058969356 0.38800001 4283899413
0.016519681 0.058969356 0.38800001 4284229663
0.017734082 0.058817375 0.38700002 4284624937
0.018991059 0.058817375 0.38700002 4284100392
0.020195713 0.058665391 0.38600001 4282919459
0.021393875 0.05851341 0.38500002 4279440147
0.022585537 0.058361422 0.384 4279243538
0.02383277 0.058361422 0.384 4278718730
0.025014691 0.058209442 0.38300002 4281153323
0.026258677 0.058209442 0.38300002 4281153573
0.027430853 0.058057461 0.38200003 4281284646
0.028671589 0.058057461 0.38200003 4282008369
0.029912326 0.058057461 0.38200003 4281218853
0.031153062 0.058057461 0.38200003 4281810736
0.032308999 0.057905477 0.38100001 4280626464
0.033546485 0.057905477 0.38100001 4281219116
0.034783974 0.057905477 0.38100001 4279969565
0.035926919 0.057753496 0.38000003 4279047434
0.037063368 0.057601511 0.37900001 4279571979
0.038193323 0.057449531 0.37800002 4280491026
0.039316773 0.057297543 0.377 4280162315
0.040433735 0.057145562 0.37600002 4280623636
0.041654985 0.057145562 0.37600002 4281279251
0.042762201 0.056993581 0.37500003 4284359704
0.04386292 0.056841597 0.37400001 4283241483
0.045077674 0.056841597 0.37400001 4281276939
0.046292424 0.056841597 0.37400001 4280687884
0.047507178 0.056841597 0.37400001 4281214226
0.048721932 0.056841597 0.37400001 4281147150
0.049936686 0.056841597 0.37400001 4281603338
0.051151432 0.056841597 0.37400001 4281734154
0.00013781765 0.060695712 0.39100003 4286289288
0.0014077864 0.060695712 0.39100003 4286683531
0.0026709065 0.060540475 0.39000002 4284508253
0.0039376272 0.060540475 0.39000002 4283705895
0.0051910039 0.060385246 0.38900003 4283968036
0.0064544762 0.060385246 0.38900003 4283835675
0.0077179489 0.060385246 0.38900003 4283440917
0.0089814216 0.060385246 0.38900003 4283834390
0.010244895 0.060385246 0.38900003 4284754462
0.011478783 0.060230009 0.38800001 4283767054
0.012739007 0.060230009 0.38800001 4283701774
0.013999231 0.060230009 0.38800001 4283504657
0.015259456 0.060230009 0.38800001 4286930772
0.016519681 0.060230009 0.38800001 4286877051
0.017734082 0.06007478 0.38700002 4287075459
0.018991059 0.06007478 0.38700002 4287010181
0.020195713 0.059919547 0.38600001 4286879109
0.021393875 0.059764318 0.38500002 4284838247
0.022644356 0.059764318 0.38500002 4279179028
0.02383277 0.059609082 0.384 4279112722
0.025014691 0.059453852 0.38300002 4279046929
0.026258677 0.059453852 0.38300002 4278783492
0.02750266 0.059453852 0.38300002 4279309062
0.028671589 0.059298623 0.38200003 4278650880
0.029912326 0.059298623 0.38200003 4278848513
0.031153062 0.059298623 0.38200003 4279244043
0.032393802 0.059298623 0.38200003 4279178248
0.033546485 0.059143387 0.38100001 4281679665
0.034783974 0.059143387 0.38100001 4279574289
0.035926919 0.058988158 0.38000003 4279571981
0.037063368 0.058832921 0.37900001 4280555022
0.03829436 0.058832921 0.37900001 4281540373
0.039421067 0.058677692 0.37800002 4281016595
0.040541269 0.058522459 0.377 4281478427
0.041654985 0.058367226 0.37600002 4282132246
0.042762201 0.058211997 0.37500003 4284096278
0.04386292 0.058056764 0.37400001 4282913803
0.045077674 0.058056764 0.37400001 4281015564
0.046292424 0.058056764 0.37400001 4281017361
0.047507178 0.058056764 0.37400001 4281017874
0.048721932 0.058056764 0.37400001 4280687882
0.049936686 0.058056764 0.37400001 4281799947
0.051288206 0.058211997 0.37500003 4282063889
0.0014077864 0.061966106 0.39100003 4286355079
0.0026709065 0.061807621 0.39000002 4286683531
0.0039376272 0.061807621 0.39000002 4283911753
0.0051910039 0.061649144 0.38900003 4283511598
0.0064544762 0.061649144 0.38900003 4283574563
0.0077179489 0.061649144 0.38900003 4283245083
0.0089814216 0.061649144 0.38900003 4283770395
0.010218557 0.061490659 0.38800001 4284294941
0.011478783 0.061490659 0.38800001 4283767054
0.012739007 0.061490659 0.38800001 4283898386
0.013999231 0.061490659 0.38800001 4283701522
0.015259456 0.061490659 0.38800001 4288510317
0.016477104 0.061332181 0.38700002 4286024568
0.017734082 0.061332181 0.38700002 4286222462
0.018991059 0.061332181 0.38700002 4285960060
0.020195713 0.061173696 0.38600001 4286025083
0.021393875 0.061015218 0.38500002 4285959292
0.022644356 0.061015218 0.38500002 4281616189
0.02383277 0.060856733 0.384 4279442202
0.025080003 0.060856733 0.384 4279244308
0.026258677 0.060698256 0.38300002 4279112722
0.02750266 0.060698256 0.38300002 4281612591
0.028746644 0.060698256 0.38300002 4279967766
0.02999063 0.060698256 0.38300002 4279046410
0.031153062 0.060539775 0.38200003 4282930504
0.032393802 0.060539775 0.38200003 4281350702
0.033634536 0.060539775 0.38200003 4279967766
0.034783974 0.060381293 0.38100001 4279243273
0.035926919 0.060222812 0.38000003 4280749062
0.03716116 0.060222812 0.38000003 4287391323
0.03829436 0.060064331 0.37900001 4284560423
0.039421067 0.059905849 0.37800002 4282326289
0.040541269 0.059747368 0.377 4281541136
0.041654985 0.059588887 0.37600002 4282983446
0.042762201 0.059430409 0.37500003 4284096278
0.043980204 0.059430409 0.37500003 4282717705
0.045077674 0.059271924 0.37400001 4281477650
0.046292424 0.059271924 0.37400001 4281017872
0.047634203 0.059430409 0.37500003 4281017872
0.048852205 0.059430409 0.37500003 4281147148
0.050070208 0.059430409 0.37500003 4282193678
0.051288206 0.059430409 0.37500003 4282327061
0.0026709065 0.063074775 0.39000002 4286289286
0.0039275307 0.062913045 0.38900003 4286748554
0.0051910039 0.062913045 0.38900003 4285824626
0.0064544762 0.062913045 0.38900003 4283776569
0.0077179489 0.062913045 0.38900003 4283445803
0.0089583332 0.062751316 0.38800001 4282983707
0.010218557 0.062751316 0.38800001 4285153332
0.011478783 0.062751316 0.38800001 4284556316
0.012739007 0.062751316 0.38800001 4284226581
0.013999231 0.062751316 0.38800001 4284357654
0.015220128 0.062589586 0.38700002 4283438350
0.016477104 0.062589586 0.38700002 4286615423
0.017734082 0.062589586 0.38700002 4286222464
0.018941985 0.062427852 0.38600001 4286090878
0.020195713 0.062427852 0.38600001 4286288257
0.021449441 0.062427852 0.38600001 4286090878
0.022644356 0.062266126 0.38500002 4286025085
0.023894835 0.062266126 0.38500002 4284050277
0.025080003 0.062104393 0.384 4278916628
0.026327236 0.062104393 0.384 4279441687
0.02750266 0.061942663 0.38300002 4282139453
0.028746644 0.061942663 0.38300002 4282272320
0.02999063 0.061942663 0.38300002 4278652935
0.031234615 0.061942663 0.38300002 4281350189
0.032393802 0.061780937 0.38200003 4278915078
0.033634536 0.061780937 0.38200003 4279505418
0.034783974 0.061619204 0.38100001 4280684812
0.036021464 0.061619204 0.38100001 4284425243
0.03716116 0.061457474 0.38000003 4286199340
0.03829436 0.06129574 0.37900001 4285147420
0.039421067 0.061134014 0.37800002 4283506190
0.040541269 0.060972281 0.377 4283574552
0.041654985 0.060810551 0.37600002 4283900437
0.042762201 0.060648825 0.37500003 4283242507
0.043980204 0.060648825 0.37500003 4282391307
0.045198202 0.060648825 0.37500003 4281411857
0.046416204 0.060648825 0.37500003 4281280785
0.047634203 0.060648825 0.37500003 4281346064
0.048852205 0.060648825 0.37500003 4282195727
0.050070208 0.060648825 0.37500003 4282522641
0.051288206 0.060648825 0.37500003 4282261779
0.0039275307 0.064176947 0.38900003 4286289286
0.0051910039 0.064176947 0.38900003 4286223493
0.0064544762 0.064176947 0.38900003 4287798414
0.007698108 0.064011961 0.38800001 4281740066
0.0089583332 0.064011961 0.38800001 4282326809
0.010218557 0.064011961 0.38800001 4284892990
0.011478783 0.064011961 0.38800001 4284622622
0.012739007 0.064011961 0.38800001 4284752412
0.013963151 0.063846983 0.38700002 4284554517
0.015220128 0.063846983 0.38700002 4284686103
0.016477104 0.063846983 0.38700002 4284368958
0.017734082 0.063846983 0.38700002 4286614910
0.018941985 0.063682005 0.38600001 4286288257
0.020195713 0.063682005 0.38600001 4286025085
0.021449441 0.063682005 0.38600001 4286222464
0.022644356 0.063517027 0.38500002 4286222464
0.023894835 0.063517027 0.38500002 4286090624
0.025080003 0.063352041 0.384 4286879629
0.026327236 0.063352041 0.384 4283260244
0.027574468 0.063352041 0.384 4279442970
0.028746644 0.06318707 0.38300002 4279179800
0.02999063 0.06318707 0.38300002 4278719249
0.031234615 0.06318707 0.38300002 4279112722
0.032393802 0.063022092 0.38200003 4280097301
0.033634536 0.063022092 0.38200003 4283047965
0.034783974 0.062857106 0.38100001 4284425505
0.036021464 0.062857106 0.38100001 4284948246
0.03716116 0.062692128 0.38000003 4285144342
0.03829436 0.06252715 0.37900001 4285539098
0.039421067 0.062362172 0.37800002 4286659116
0.040541269 0.06219719 0.377 4284884248
0.041654985 0.062032212 0.37600002 4284488722
0.042876232 0.062032212 0.37600002 4283112204
0.043980204 0.061867233 0.37500003 4282197010
0.045198202 0.061867233 0.37500003 4281214992
0.046416204 0.061867233 0.37500003 4281149199
0.047634203 0.061867233 0.37500003 4281869328
0.048852205 0.061867233 0.37500003 4282653711
0.050070208 0.061867233 0.37500003 4282523154
0.051288206 0.061867233 0.37500003 4282130965
0.0064544762 0.065440848 0.38900003 4286354050
0.007698108 0.065272614 0.38800001 4287010697
0.0089583332 0.065272614 0.38800001 4281933597
0.010218557 0.065272614 0.38800001 4282129945
0.011478783 0.065272614 0.38800001 4284362017
0.012739007 0.065272614 0.38800001 4284885533
0.013963151 0.065104388 0.38700002 4284882710
0.015220128 0.065104388 0.38700002 4284685333
0.016477104 0.065104388 0.38700002 4284555035
0.017734082 0.065104388 0.38700002 4287523686
0.018941985 0.064936161 0.38600001 4286287742
0.020195713 0.064936161 0.38600001 4286222462
0.021449441 0.064936161 0.38600001 4286222464
0.022644356 0.064767934 0.38500002 4286090878
0.023894835 0.064767934 0.38500002 4286090878
0.025145316 0.064767934 0.38500002 4286222464
0.026327236 0.0645997 0.384 4286090624
0.027574468 0.0645997 0.384 4286353796
0.028821699 0.0645997 0.384 4286485382
0.02999063 0.064431474 0.38300002 4286289027
0.031234615 0.064431474 0.38300002 4287142283
0.032393802 0.064263247 0.38200003 4281677355
0.033634536 0.064263247 0.38200003 4284097310
0.034783974 0.06409502 0.38100001 4284555033
0.035926919 0.063926794 0.38000003 4284948246
0.03716116 0.063926794 0.38000003 4285473820
0.03829436 0.06375856 0.37900001 4285801754
0.039421067 0.063590333 0.37800002 4285735961
0.040541269 0.063422106 0.377 4285210900
0.041654985 0.06325388 0.37600002 4284291341
0.042876232 0.06325388 0.37600002 4282655508
0.043980204 0.063085653 0.37500003 4281738769
0.045198202 0.063085653 0.37500003 4281215251
0.046416204 0.063085653 0.37500003 4281148945
0.047634203 0.063085653 0.37500003 4282458129
0.048852205 0.063085653 0.37500003 4282915086
0.050203726 0.06325388 0.37600002 4282327059
0.051424973 0.06325388 0.37600002 4281804310
0.0077179489 0.066704743 0.38900003 4286288773
0.0089583332 0.066533267 0.38800001 4286611062
0.010218557 0.066533267 0.38800001 4282459426
0.011478783 0.066533267 0.38800001 4283836452
0.012706175 0.066361792 0.38700002 4284295972
0.013963151 0.066361792 0.38700002 4284949273
0.015220128 0.066361792 0.38700002 4285145882
0.016477104 0.066361792 0.38700002 4285014039
0.017734082 0.066361792 0.38700002 4284487954
0.018941985 0.06619031 0.38600001 4287464309
0.020195713 0.06619031 0.38600001 4286418556
0.021449441 0.06619031 0.38600001 4286419841
0.022644356 0.066018835 0.38500002 4286288257
0.023894835 0.066018835 0.38500002 4286288257
0.025145316 0.066018835 0.38500002 4286222464
0.026327236 0.065847352 0.384 4286288257
0.027574468 0.065847352 0.384 4286354050
0.028821699 0.065847352 0.384 4286222464
0.02999063 0.065675877 0.38300002 4286090878
0.031234615 0.065675877 0.38300002 4286090878
0.032393802 0.065504402 0.38200003 4286747009
0.033634536 0.065504402 0.38200003 4282520590
0.034783974 0.065332919 0.38100001 4284161560
0.035926919 0.065161444 0.38000003 4285014298
0.03716116 0.065161444 0.38000003 4285539100
0.03829436 0.064989969 0.37900001 4285669144
0.039421067 0.064818494 0.37800002 4285603351
0.040541269 0.064647011 0.377 4285473818
0.041765768 0.064647011 0.377 4283766030
0.042876232 0.064475536 0.37600002 4282001174
0.044097483 0.064475536 0.37600002 4281280017
0.045198202 0.064304061 0.37500003 4281214992
0.046416204 0.064304061 0.37500003 4281411087
0.047761224 0.064475536 0.37600002 4282849807
0.048982475 0.064475536 0.37600002 4282915086
0.050203726 0.064475536 0.37600002 4281999377
0.051424973 0.064475536 0.37600002 4280950284
0.0077179489 0.067968652 0.38900003 4286354566
0.0089583332 0.067793921 0.38800001 4286485123
0.010218557 0.067793921 0.38800001 4284638297
0.011478783 0.067793921 0.38800001 4283180321
0.012706175 0.067619197 0.38700002 4283968808
0.013963151 0.067619197 0.38700002 4284688156
0.015220128 0.067619197 0.38700002 4285145882
0.016477104 0.067619197 0.38700002 4285211418
0.017688256 0.067444466 0.38600001 4285211418
0.018941985 0.067444466 0.38600001 4284949023
0.020195713 0.067444466 0.38600001 4286731342
0.021449441 0.067444466 0.38600001 4286220663
0.022644356 0.067269742 0.38500002 4286286972
0.023894835 0.067269742 0.38500002 4286090363
0.025145316 0.067269742 0.38500002 4286222464
0.026327236 0.067095011 0.384 4286222464
0.027574468 0.067095011 0.384 4286222464
0.028821699 0.067095011 0.384 4286222464
0.02999063 0.066920288 0.38300002 4286222464
0.031234615 0.066920288 0.38300002 4286222464
0.032393802 0.066745564 0.38200003 4286156158
0.033546485 0.066570833 0.38100001 4286673771
0.034783974 0.066570833 0.38100001 4284426788
0.035926919 0.06639611 0.38000003 4285539100
0.037063368 0.066221379 0.37900001 4285866525
0.038193323 0.066046655 0.37800002 4285734934
0.039421067 0.066046655 0.37800002 4285800984
0.040541269 0.065871924 0.377 4284487954
0.041654985 0.065697201 0.37600002 4283240969
0.042876232 0.065697201 0.37600002 4282000144
0.044097483 0.065697201 0.37600002 4281476367
0.04531873 0.065697201 0.37600002 4281279501
0.046539977 0.065697201 0.37600002 4282065424
0.047761224 0.065697201 0.37600002 4283242768
0.048982475 0.065697201 0.37600002 4283112465
0.050203726 0.065697201 0.37600002 4281869592
0.051424973 0.065697201 0.37600002 4280556558
0.0089583332 0.069054574 0.38800001 4286485382
0.010218557 0.069054574 0.38800001 4286813834
0.011478783 0.069054574 0.38800001 4283974462
0.012706175 0.068876602 0.38700002 4283574563
0.013963151 0.068876602 0.38700002 4284099360
0.015220128 0.068876602 0.38700002 4284623390
0.016434528 0.068698622 0.38600001 4285540383
0.017688256 0.068698622 0.38600001 4285408797
0.018941985 0.068698622 0.38600001 4285540383
0.020143393 0.06852065 0.38500002 4284685074
0.021393875 0.06852065 0.38500002 4285020724
0.022644356 0.06852065 0.38500002 4288384641
0.023894835 0.06852065 0.38500002 4286286970
0.025080003 0.068342671 0.384 4286089591
0.026327236 0.068342671 0.384 4286090363
0.027574468 0.068342671 0.384 4286353535
0.028746644 0.068164699 0.38300002 4286156158
0.02999063 0.068164699 0.38300002 4286156158
0.031153062 0.067986719 0.38200003 4286156158
0.032393802 0.067986719 0.38200003 4286024572
0.033546485 0.067808747 0.38100001 4287073406
0.034692679 0.067630768 0.38000003 4284563253
0.035832375 0.067452788 0.37900001 4285669146
0.037063368 0.067452788 0.37900001 4285734934
0.038193323 0.067274816 0.37800002 4285669139
0.039316773 0.067096837 0.377 4287117614
0.040541269 0.067096837 0.377 4284882458
0.041654985 0.066918865 0.37600002 4284816919
0.042876232 0.066918865 0.37600002 4283635979
0.044097483 0.066918865 0.37600002 4283374604
0.04531873 0.066918865 0.37600002 4282785036
0.046539977 0.066918865 0.37600002 4283112717
0.047761224 0.066918865 0.37600002 4283242766
0.048982475 0.066918865 0.37600002 4282915598
0.050203726 0.066918865 0.37600002 4280819218
0.051424973 0.066918865 0.37600002 4280031245
0.010218557 0.070315219 0.38800001 4286419589
0.011449198 0.070133999 0.38700002 4287403145
0.012706175 0.070133999 0.38700002 4282724395
0.013927069 0.069952771 0.38600001 4284165413
0.015180798 0.069952771 0.38600001 4286665801
0.016434528 0.069952771 0.38600001 4284950558
0.017688256 0.069952771 0.38600001 4285343261
0.018892914 0.069771551 0.38500002 4285605406
0.020143393 0.069771551 0.38500002 4285671199
0.021393875 0.069771551 0.38500002 4285802785
0.022585537 0.069590323 0.384 4285211420
0.02383277 0.069590323 0.384 4285019695
0.025080003 0.069590323 0.384 4286011469
0.026258677 0.069409102 0.38300002 4287399284
0.02750266 0.069409102 0.38300002 4287531899
0.028746644 0.069409102 0.38300002 4287533441
0.029912326 0.069227874 0.38200003 4287401855
0.031153062 0.069227874 0.38200003 4287598205
0.032308999 0.069046646 0.38100001 4286016863
0.033458438 0.068865426 0.38000003 4285548603
0.034692679 0.068865426 0.38000003 4286333492
0.035832375 0.068684198 0.37900001 4286196258
0.036965575 0.068502977 0.37800002 4285866520
0.038193323 0.068502977 0.37800002 4286195483
0.039316773 0.06832175 0.377 4289816156
0.040433735 0.068140522 0.37600002 4286857270
0.041654985 0.068140522 0.37600002 4285342486
0.042876232 0.068140522 0.37600002 4285013521
0.044097483 0.068140522 0.37600002 4284423181
0.045198202 0.067959301 0.37500003 4283703058
0.046416204 0.067959301 0.37500003 4283243020
0.047761224 0.068140522 0.37600002 4283046157
0.048982475 0.068140522 0.37600002 4282654481
0.050203726 0.068140522 0.37600002 4279767305
0.051424973 0.068140522 0.37600002 4279111430
0.010218557 0.071575873 0.38800001 4286551947
0.011449198 0.071391404 0.38700002 4286485382
0.012706175 0.071391404 0.38700002 4286482556
0.013927069 0.071206927 0.38600001 4284034599
0.015180798 0.071206927 0.38600001 4283375385
0.016391952 0.071022458 0.38500002 4284359450
0.017642433 0.071022458 0.38500002 4285015068
0.018892914 0.071022458 0.38500002 4289753447
0.020091072 0.070837982 0.384 4285278240
0.021338305 0.070837982 0.384 4285604891
0.022585537 0.070837982 0.384 4289093457
0.023770707 0.070653506 0.38300002 4287056702
0.025014691 0.070653506 0.38300002 4285279008
0.026258677 0.070653506 0.38300002 4285145625
0.02750266 0.070653506 0.38300002 4285935916
0.028671589 0.070469037 0.38200003 4286266164
0.029912326 0.070469037 0.38200003 4286069557
0.031071508 0.07028456 0.38100001 4286004016
0.032308999 0.07028456 0.38100001 4286003246
0.033458438 0.070100084 0.38000003 4286264104
0.034601379 0.069915608 0.37900001 4285604891
0.035737831 0.069731139 0.37800002 4285866266
0.036965575 0.069731139 0.37800002 4286062875
0.038092278 0.069546662 0.377 4285932313
0.039316773 0.069546662 0.377 4290211938
0.040433735 0.069362193 0.37600002 4284749836
0.041654985 0.069362193 0.37600002 4285275410
0.042876232 0.069362193 0.37600002 4284684302
0.043980204 0.069177717 0.37500003 4284224521
0.045198202 0.069177717 0.37500003 4283570186
0.046416204 0.069177717 0.37500003 4283243020
0.047634203 0.069177717 0.37500003 4282586635
0.048852205 0.069177717 0.37500003 4282590746
0.050203726 0.069362193 0.37600002 4279569928
0.051424973 0.069362193 0.37600002 4279111176
0.011449198 0.072648801 0.38700002 4286288773
0.012706175 0.072648801 0.38700002 4286485382
0.01389099 0.072273359 0.38500002 4283973432
0.01514147 0.072273359 0.38500002 4285218103
0.016391952 0.072273359 0.38500002 4285542441
0.017596608 0.072085634 0.384 4285737767
0.018843841 0.072085634 0.384 4285868063
0.020091072 0.072085634 0.384 4285669398
0.021282736 0.071897909 0.38300002 4285341203
0.022526722 0.071897909 0.38300002 4291200630
0.023770707 0.071897909 0.38300002 4286001189
0.025014691 0.071897909 0.38300002 4285935139
0.026258677 0.071897909 0.38300002 4286065442
0.027430853 0.071710192 0.38200003 4285868063
0.028671589 0.071710192 0.38200003 4285802274
0.029912326 0.071710192 0.38200003 4286065446
0.031071508 0.071522467 0.38100001 4286065444
0.032224201 0.071334742 0.38000003 4285934371
0.033458438 0.071334742 0.38000003 4285605406
0.034601379 0.071147017 0.37900001 4285276441
0.035737831 0.0709593 0.37800002 4285406742
0.036867782 0.070771568 0.377 4285603351
0.038092278 0.070771568 0.377 4285669141
0.039212488 0.07058385 0.37600002 4285668371
0.040433735 0.07058385 0.37600002 4285472019
0.041654985 0.07058385 0.37600002 4285078801
0.042762201 0.070396133 0.37500003 4284224521
0.043980204 0.070396133 0.37500003 4283830792
0.045198202 0.070396133 0.37500003 4283242507
0.046416204 0.070396133 0.37500003 4282915084
0.047634203 0.070396133 0.37500003 4282391055
0.048852205 0.070396133 0.37500003 4282261783
0.01389099 0.073524266 0.38500002 4287598984
0.015102142 0.073333286 0.384 4285419082
0.016349375 0.073333286 0.384 4285672744
0.017596608 0.073333286 0.384 4285473568
0.018794768 0.07314232 0.38300002 4287973439
0.020038752 0.07314232 0.38300002 4285801500
0.021282736 0.07314232 0.38300002 4285669914
0.022526722 0.07314232 0.38300002 4285210133
0.023708643 0.072951347 0.38200003 4285409049
0.024949379 0.072951347 0.38200003 4285606685
0.026190117 0.072951347 0.38200003 4285869603
0.027430853 0.072951347 0.38200003 4285869603
0.028671589 0.072951347 0.38200003 4285869605
0.029834021 0.072760373 0.38100001 4285803814
0.031071508 0.072760373 0.38100001 4285411109
0.032224201 0.072569408 0.38000003 4284623136
0.033370391 0.072378427 0.37900001 4283378213
0.034510083 0.072187461 0.37800002 4284036911
0.035737831 0.072187461 0.37800002 4284358419
0.036867782 0.071996488 0.377 4284882708
0.037991241 0.071805514 0.37600002 4285275926
0.039212488 0.071805514 0.37600002 4285077777
0.040433735 0.071805514 0.37600002 4284617996
0.041544203 0.071614549 0.37500003 4284289546
0.042762201 0.071614549 0.37500003 4283830792
0.043980204 0.071614549 0.37500003 4283174915
0.045198202 0.071614549 0.37500003 4282389256
0.046416204 0.071614549 0.37500003 4282521873
0.047634203 0.071614549 0.37500003 4282129684
0.048852205 0.071614549 0.37500003 4282460191
0.013854909 0.074580938 0.384 4286943877
0.015102142 0.074580938 0.384 4283777596
0.016349375 0.074580938 0.384 4285674027
0.017550783 0.074386723 0.38300002 4285870377
0.018794768 0.074386723 0.38300002 4285343004
0.020038752 0.074386723 0.38300002 4285144853
0.02122717 0.074192502 0.38200003 4284881683
0.022467906 0.074192502 0.38200003 4284750097
0.023708643 0.074192502 0.38200003 4284357136
0.024949379 0.074192502 0.38200003 4285741619
0.026190117 0.074192502 0.38200003 4286344799
0.027430853 0.074192502 0.38200003 4285357904
0.028671589 0.074192502 0.38200003 4286082140
0.029834021 0.07399828 0.38100001 4286807147
0.031071508 0.07399828 0.38100001 4287402373
0.032224201 0.073804058 0.38000003 4286877314
0.033370391 0.073609836 0.37900001 4287074693
0.034510083 0.073415615 0.37800002 4281743150
0.035737831 0.073415615 0.37800002 4284034851
0.036867782 0.073221393 0.377 4284227605
0.037991241 0.073027171 0.37600002 4284555287
0.039212488 0.073027171 0.37600002 4284488724
0.040433735 0.073027171 0.37600002 4284161042
0.041544203 0.072832957 0.37500003 4283766284
0.042762201 0.072832957 0.37500003 4283044104
0.043980204 0.072832957 0.37500003 4282716424
0.045198202 0.072832957 0.37500003 4282324492
0.046416204 0.072832957 0.37500003 4282325777
0.047634203 0.072832957 0.37500003 4282263066
0.013854909 0.075828597 0.384 4286615685
0.015062814 0.075631134 0.38300002 4283847241
0.016306799 0.075631134 0.38300002 4284558115
0.017550783 0.075631134 0.38300002 4285016097
0.018794768 0.075631134 0.38300002 4285145882
0.019986432 0.075433664 0.38200003 4284553745
0.02122717 0.075433664 0.38200003 4284422161
0.022467906 0.075433664 0.38200003 4284093966
0.023708643 0.075433664 0.38200003 4283438862
0.024949379 0.075433664 0.38200003 4285022777
0.026190117 0.075433664 0.38200003 4286483576
0.027430853 0.075433664 0.38200003 4286286970
0.028671589 0.075433664 0.38200003 4286221179
0.029834021 0.075236186 0.38100001 4286221179
0.031071508 0.075236186 0.38100001 4286286972
0.032224201 0.075038724 0.38000003 4286024572
0.033370391 0.074841246 0.37900001 4286614912
0.034510083 0.074643783 0.37800002 4282006577
0.035643287 0.074446306 0.377 4283446827
0.036867782 0.074446306 0.377 4283245848
0.037991241 0.074248835 0.37600002 4283834390
0.039212488 0.074248835 0.37600002 4283637011
0.040433735 0.074248835 0.37600002 4283570448
0.041544203 0.074051373 0.37500003 4283176460
0.042762201 0.074051373 0.37500003 4282717453
0.043980204 0.074051373 0.37500003 4282520588
0.045198202 0.074051373 0.37500003 4282457361
0.046416204 0.074051373 0.37500003 4282524953
0.047634203 0.074051373 0.37500003 4282199070
0.013818828 0.076875538 0.38300002 4286419589
0.015062814 0.076875538 0.38300002 4286285693
0.016306799 0.076875538 0.38300002 4284495663
0.017550783 0.076875538 0.38300002 4284754724
0.018745696 0.076674819 0.38200003 4284490525
0.019986432 0.076674819 0.38200003 4284161558
0.02122717 0.076674819 0.38200003 4284030485
0.022467906 0.076674819 0.38200003 4283504655
0.023708643 0.076674819 0.38200003 4282849807
0.024949379 0.076674819 0.38200003 4282523154
0.026190117 0.076674819 0.38200003 4281013265
0.027430853 0.076674819 0.38200003 4282198314
0.028671589 0.076674819 0.38200003 4283252537
0.029834021 0.076474093 0.38100001 4283581500
0.031071508 0.076474093 0.38100001 4283647293
0.032224201 0.076273374 0.38000003 4282726191
0.033370391 0.076072656 0.37900001 4281276949
0.034510083 0.075871937 0.37800002 4281670423
0.035737831 0.075871937 0.37800002 4282128146
0.036867782 0.075671218 0.377 4283509538
0.037991241 0.0754705 0.37600002 4283179801
0.039212488 0.0754705 0.37600002 4283113495
0.040433735 0.0754705 0.37600002 4283178004
0.041654985 0.0754705 0.37600002 4282849039
0.042762201 0.075269781 0.37500003 4282324492
0.043980204 0.075269781 0.37500003 4282588436
0.045198202 0.075269781 0.37500003 4282590746
0.046416204 0.075269781 0.37500003 4282460443
0.013818828 0.078119941 0.38300002 4286682761
0.015062814 0.078119941 0.38300002 4286748554
0.016306799 0.078119941 0.38300002 4284042823
0.01750496 0.077915974 0.38200003 4284167983
0.018745696 0.077915974 0.38200003 4283835936
0.019986432 0.077915974 0.38200003 4283506971
0.02122717 0.077915974 0.38200003 4283375383
0.022467906 0.077915974 0.38200003 4283047702
0.023708643 0.077915974 0.38200003 4282851608
0.024949379 0.077915974 0.38200003 4282852637
0.026190117 0.077915974 0.38200003 4282524701
0.027430853 0.077915974 0.38200003 4282458910
0.028671589 0.077915974 0.38200003 4282654752
0.029834021 0.077712007 0.38100001 4282852131
0.031071508 0.077712007 0.38100001 4283314735
0.032224201 0.07750804 0.38000003 4282920490
0.033458438 0.07750804 0.38000003 4282855469
0.034510083 0.077100098 0.37800002 4282658088
0.035737831 0.077100098 0.37800002 4282723363
0.036867782 0.076896131 0.377 4282525471
0.037991241 0.076692164 0.37600002 4282263066
0.039212488 0.076692164 0.37600002 4284500028
0.040433735 0.076692164 0.37600002 4282721051
0.041654985 0.076692164 0.37600002 4282063119
0.042876232 0.076692164 0.37600002 4282130195
0.043980204 0.076488197 0.37500003 4282130195
0.045198202 0.076488197 0.37500003 4281473550
0.013782749 0.079157129 0.38200003 4286682761
0.015023486 0.079157129 0.38200003 4286551175
0.016264223 0.079157129 0.38200003 4287339146
0.01750496 0.079157129 0.38200003 4283256642
0.018745696 0.079157129 0.38200003 4283312934
0.019986432 0.079157129 0.38200003 4283707178
0.02122717 0.079157129 0.38200003 4283443493
0.022467906 0.079157129 0.38200003 4283312420
0.023708643 0.079157129 0.38200003 4283247911
0.024949379 0.079157129 0.38200003 4283182631
0.026190117 0.079157129 0.38200003 4282658090
0.027430853 0.079157129 0.38200003 4283646784
0.02859653 0.078949906 0.38100001 4285493351
0.029834021 0.078949906 0.38100001 4286877060
0.031071508 0.078949906 0.38100001 4286878343
0.032224201 0.078742698 0.38000003 4286680964
0.033458438 0.078742698 0.38000003 4284048733
0.034692679 0.078742698 0.38000003 4281218351
0.036867782 0.078121036 0.377 4281743148
0.037991241 0.077913821 0.37600002 4281281827
0.039212488 0.077913821 0.37600002 4280887069
0.040433735 0.077913821 0.37600002 4280623382
0.041654985 0.077913821 0.37600002 4280688405
0.012542013 0.080398291 0.38200003 4286682761
0.013782749 0.080398291 0.38200003 4286353796
0.015023486 0.080398291 0.38200003 4286485382
0.016264223 0.080398291 0.38200003 4286748295
0.01750496 0.080398291 0.38200003 4286616709
0.018745696 0.080398291 0.38200003 4287141256
0.019986432 0.080398291 0.38200003 4284835676
0.02122717 0.080398291 0.38200003 4284307022
0.022467906 0.080398291 0.38200003 4284307022
0.023708643 0.080398291 0.38200003 4283846469
0.024949379 0.080398291 0.38200003 4285822314
0.026190117 0.080398291 0.38200003 4287273101
0.027359042 0.08018782 0.38100001 4286681478
0.02859653 0.08018782 0.38100001 4286353283
0.029834021 0.08018782 0.38100001 4286287490
0.030989956 0.079977356 0.38000003 4286353283
0.032224201 0.079977356 0.38000003 4286353283
0.033458438 0.079977356 0.38000003 4286287490
0.034692679 0.079977356 0.38000003 4287011213
0.013782749 0.081639446 0.38200003 4286485384
0.015023486 0.081639446 0.38200003 4286682763
0.016264223 0.081639446 0.38200003 4286682763
0.017459134 0.081425734 0.38100001 4286419591
0.018696623 0.081425734 0.38100001 4286484869
0.01993411 0.081425734 0.38100001 4286616455
0.0211716 0.081425734 0.38100001 4286616455
0.022409089 0.081425734 0.38100001 4286484869
0.023646578 0.081425734 0.38100001 4286484869
0.024884066 0.081425734 0.38100001 4286419076
0.026121555 0.081425734 0.38100001 4286353796
0.027359042 0.081425734 0.38100001 4286419076
0.02859653 0.081425734 0.38100001 4286484869
0.029755717 0.081212014 0.38000003 4286484869
0.030989956 0.081212014 0.38000003 4286419076
0.032224201 0.081212014 0.38000003 4286353283
0.033458438 0.081212014 0.38000003 4286353283
0.013782749 0.082880601 0.38200003 4286419591
0.014984156 0.082663633 0.38100001 4286551175
0.016221646 0.082663633 0.38100001 4286550662
0.017459134 0.082663633 0.38100001 4286616455
0.018696623 0.082663633 0.38100001 4286551175
0.01993411 0.082663633 0.38100001 4286682761
0.0211716 0.082663633 0.38100001 4286682761
0.022409089 0.082663633 0.38100001 4286222210
0.023646578 0.082663633 0.38100001 4286748554
0.024884066 0.082663633 0.38100001 4286682761
0.026121555 0.082663633 0.38100001 4286485382
0.027359042 0.082663633 0.38100001 4286419589
0.028521474 0.082446672 0.38000003 4286484869
0.029755717 0.082446672 0.38000003 4286616455
0.030989956 0.082446672 0.38000003 4286550662
0.032139398 0.082229704 0.37900001 4286419076
0.033370391 0.082229704 0.37900001 4286155904
0.014984156 0.083901547 0.38100001 4286484869
0.016221646 0.083901547 0.38100001 4286550662
0.017459134 0.083901547 0.38100001 4286550662
0.018696623 0.083901547 0.38100001 4286616455
0.01993411 0.083901547 0.38100001 4286616455
0.0211716 0.083901547 0.38100001 4286879627
0.022409089 0.083901547 0.38100001 4286616455
0.023646578 0.083901547 0.38100001 4286550662
0.024884066 0.083901547 0.38100001 4286550662
0.026121555 0.083901547 0.38100001 4286748041
0.027359042 0.083901547 0.38100001 4286616455
0.028521474 0.083681338 0.38000003 4286419589
0.029755717 0.083681338 0.38000003 4286419589
0.030908404 0.083461113 0.37900001 4286485382
0.032139398 0.083461113 0.37900001 4286485382
0.033370391 0.083461113 0.37900001 4286485382
0.026375361 0.055295959 0.38227466 4294967295
0.026375361 0.055295959 0.38227466 4294901760
0.026375361 0.055295959 0.38277465 4294901760
0.026375361 0.055295959 0.38327464 4294901760
0.026375361 0.055295959 0.38377467 4294901760
0.026375361 0.055295959 0.38427466 4294901760
0.026375361 0.055295959 0.38477466 4294901760
0.026375361 0.055295959 0.38527465 4294901760
0.026375361 0.055295959 0.38577467 4294901760
0.026375361 0.055295959 0.38627467 4294901760
0.026375361 0.055295959 0.38677466 4294901760
0.026375361 0.055295959 0.38727465 4294901760
0.026375361 0.055295959 0.38777465 4294901760
0.026375361 0.055295959 0.38827467 4294901760
0.026375361 0.055295959 0.38877466 4294901760
0.026375361 0.055295959 0.38927466 4294901760
0.026375361 0.055295959 0.38977465 4294901760
0.026375361 0.055295959 0.39027464 4294901760
0.026375361 0.055295959 0.39077467 4294901760
0.026375361 0.055295959 0.39127466 4294901760
0.026375361 0.055295959 0.39177465 4294901760
0.026375361 0.055295959 0.39227465 4294901760
0.026375361 0.055295959 0.39277467 4294901760
0.026375361 0.055295959 0.39327466 4294901760
0.026375361 0.055295959 0.39377466 4294901760
0.026375361 0.055295959 0.39427465 4294901760
0.026375361 0.055295959 0.39477468 4294901760
0.026375361 0.055295959 0.39527467 4294901760
0.026375361 0.055295959 0.39577466 4294901760
0.026375361 0.055295959 0.39627466 4294901760
0.026375361 0.055295959 0.39677465 4294901760
0.026375361 0.055295959 0.39727467 4294901760
0.026375361 0.055295959 0.39777467 4294901760
0.026375361 0.055295959 0.39827466 4294901760
0.026375361 0.055295959 0.39877465 4294901760
0.026375361 0.055295959 0.39927465 4294901760
0.026375361 0.055295959 0.39977467 4294901760
0.026375361 0.055295959 0.40027466 4294901760
0.026375361 0.055295959 0.40077466 4294901760
0.026375361 0.055295959 0.40127465 4294901760
0.026375361 0.055295959 0.40177467 4294901760
0.026375361 0.055295959 0.40227467 4294901760
0.026375361 0.055295959 0.40277466 4294901760
0.026375361 0.055295959 0.40327466 4294901760
0.026375361 0.055295959 0.40377468 4294901760
0.026375361 0.055295959 0.40427467 4294901760
0.026375361 0.055295959 0.40477467 4294901760
0.026375361 0.055295959 0.40527466 4294901760
0.026375361 0.055295959 0.40577465 4294901760
0.026375361 0.055295959 0.40627468 4294901760
0.026375361 0.055295959 0.40677467 4294901760
0.026375361 0.055295959 0.40727466 4294901760
0.026375361 0.055295959 0.40777466 4294901760
0.026375361 0.055295959 0.40827465 4294901760
0.026375361 0.055295959 0.40877467 4294901760
0.026375361 0.055295959 0.40927467 4294901760
0.026375361 0.055295959 0.40977466 4294901760
0.026375361 0.055295959 0.41027465 4294901760
0.026375361 0.055295959 0.41077465 4294901760
0.026375361 0.055295959 0.41127467 4294901760
0.026375361 0.055295959 0.41177467 4294901760
0.026375361 0.055295959 0.41227466 4294901760
0.026375361 0.055295959 0.41277465 4294901760
0.026375361 0.055295959 0.41327468 4294901760
0.026375361 0.055295959 0.41377467 4294901760
0.026375361 0.055295959 0.41427466 4294901760
0.026375361 0.055295959 0.41477466 4294901760
0.026375361 0.055295959 0.41527468 4294901760
0.026375361 0.055295959 0.41577467 4294901760
0.026375361 0.055295959 0.41627467 4294901760
0.026375361 0.055295959 0.41677466 4294901760
0.026375361 0.055295959 0.41727465 4294901760
0.026375361 0.055295959 0.41777468 4294901760
0.026375361 0.055295959 0.41827467 4294901760
0.026375361 0.055295959 0.41877466 4294901760
0.026375361 0.055295959 0.41927466 4294901760
0.026375361 0.055295959 0.41977465 4294901760
0.026375361 0.055295959 0.42027467 4294901760
0.026375361 0.055295959 0.42077467 4294901760
0.026375361 0.055295959 0.42127466 4294901760
0.026375361 0.055295959 0.42177466 4294901760
0.026375361 0.055295959 0.42227468 4294901760
0.026375361 0.055295959 0.42277467 4294901760
0.026375361 0.055295959 0.42327467 4294901760
0.026375361 0.055295959 0.42377466 4294901760
0.026375361 0.055295959 0.42427465 4294901760
0.026375361 0.055295959 0.42477468 4294901760
0.026375361 0.055295959 0.42527467 4294901760
0.026375361 0.055295959 0.42577466 4294901760
0.026375361 0.055295959 0.42627466 4294901760
0.026375361 0.055295959 0.42677468 4294901760
0.026375361 0.055295959 0.42727467 4294901760
