# .PCD v0.7 - Point Cloud Data file format
VERSION 0.7
FIELDS x y z rgb
SIZE 4 4 4 4
TYPE F F F U
COUNT 1 1 1 1
WIDTH 888
HEIGHT 1
VIEWPOINT 0 0 0 1 0 0 0
POINTS 888
DATA ascii
-0.02350663 0.018596454 0.48600003 4280499756
-0.02350663 0.020175517 0.48600003 4279908129
-0.021882981 0.020134002 0.48500001 4279648289
-0.023458261 0.021709817 0.48500001 4279251482
-0.021837862 0.021665055 0.48400003 4279385887
-0.020223958 0.021620292 0.48300001 4278665498
-0.01861655 0.021575529 0.48200002 4278468632
-0.017015638 0.021530768 0.48100004 4278666781
-0.01542122 0.021486005 0.48000002 4279257894
-0.01386218 0.021486005 0.48000002 4278928418
-0.023458261 0.023285633 0.48500001 4279381785
-0.021837862 0.023237621 0.48400003 4279187224
-0.020182086 0.023141598 0.48200002 4278664214
-0.018577926 0.023093587 0.48100004 4278664984
-0.016980261 0.023045575 0.48000002 4278468119
-0.01542122 0.023045575 0.48000002 4278468119
-0.0138333 0.022997564 0.47900003 4278402326
-0.012251875 0.022949552 0.47800002 4278402326
-0.010676947 0.022901541 0.47700003 4278468119
-0.0091276504 0.022901541 0.47700003 4278533912
-0.023409896 0.024810188 0.48400003 4279118613
-0.021792741 0.024758926 0.48300001 4279516189
-0.020182086 0.024707666 0.48200002 4278663701
-0.018577926 0.024656406 0.48100004 4278664214
-0.016980261 0.024605144 0.48000002 4278730005
-0.015389093 0.024553884 0.47900003 4278664212
-0.013804421 0.024502622 0.47800002 4278598419
-0.012226244 0.024451362 0.47700003 4278466833
-0.010676947 0.024451362 0.47700003 4278598419
-0.0091085145 0.0244001 0.47600001 4278532626
-0.0075465781 0.02434884 0.47500002 4278598421
-0.006003778 0.02434884 0.47500002 4278532626
-0.0044515859 0.02429758 0.47400004 4278335247
-0.0029120327 0.02429758 0.47400004 4278533396
-0.0013695842 0.024246318 0.47300002 4278467603
0.0001663681 0.024195058 0.47200003 4278467603
0.0016958244 0.024143796 0.47100002 4278401810
0.0032187847 0.024092536 0.47000003 4278468117
0.0047352491 0.024041275 0.46900001 4278468117
0.0062452178 0.023990015 0.46800002 4278533910
0.0077652819 0.023990015 0.46800002 4278533910
-0.023409896 0.026382752 0.48400003 4279119383
-0.021747623 0.026273731 0.48200002 4279121431
-0.020140216 0.026219223 0.48100004 4278860310
-0.018539302 0.026164712 0.48000002 4278729494
-0.016944887 0.026110204 0.47900003 4278795798
-0.015356964 0.026055692 0.47800002 4278664212
-0.013804421 0.026055692 0.47800002 4278532626
-0.012226244 0.026001183 0.47700003 4278598419
-0.010654564 0.025946673 0.47600001 4278598419
-0.0091085145 0.025946673 0.47600001 4278598419
-0.0075465781 0.025892163 0.47500002 4278269454
-0.006003778 0.025892163 0.47500002 4278400527
-0.0044515859 0.025837654 0.47400004 4278595601
-0.0029120327 0.025837654 0.47400004 4278199044
-0.0013695842 0.025783144 0.47300002 4278400527
0.00016672058 0.025783144 0.47300002 4278400527
0.0016994249 0.025728634 0.47200003 4278466833
0.0032256332 0.025674123 0.47100002 4278532626
0.0047453456 0.025619615 0.47000003 4278269454
0.0062585622 0.025565105 0.46900001 4278335247
0.0077652819 0.025510594 0.46800002 4278533396
0.0092853475 0.025510594 0.46800002 4278467603
0.010805412 0.025510594 0.46800002 4278336017
-0.023361526 0.027897557 0.48300001 4279251223
-0.021747623 0.027839798 0.48200002 4278989845
-0.020140216 0.027782042 0.48100004 4278926103
-0.01850068 0.027666522 0.47900003 4278795285
-0.016944887 0.027666522 0.47900003 4278730005
-0.015356964 0.027608763 0.47800002 4278730005
-0.013775541 0.027551005 0.47700003 4278532626
-0.012200613 0.027493244 0.47600001 4278466833
-0.010654564 0.027493244 0.47600001 4278532626
-0.0090893796 0.027435487 0.47500002 4278532626
-0.0075465781 0.027435487 0.47500002 4278598419
-0.006003778 0.027435487 0.47500002 4278532626
-0.0044515859 0.027377728 0.47400004 4278397197
-0.0029120327 0.027377728 0.47400004 4279055127
-0.0013724798 0.027377728 0.47400004 4278596625
0.00016672058 0.027319968 0.47300002 4278859797
0.0016994249 0.027262211 0.47200003 4278267660
0.0032324817 0.027262211 0.47200003 4278662931
0.004755442 0.02720445 0.47100002 4278465552
0.0062719067 0.027146691 0.47000003 4278597908
0.0077984668 0.027146691 0.47000003 4278203150
0.0093250284 0.027146691 0.47000003 4278532115
0.010851589 0.027146691 0.47000003 4278532115
0.012430822 0.027262211 0.47200003 4278597908
0.013993464 0.027319968 0.47300002 4278597908
0.015529769 0.027319968 0.47300002 4278597908
0.017102154 0.027377728 0.47400004 4278466835
0.018641707 0.027377728 0.47400004 4278466833
0.020181261 0.027377728 0.47400004 4278532626
0.021720814 0.027377728 0.47400004 4278664210
0.023260366 0.027377728 0.47400004 4278532624
0.029356513 0.027319968 0.47300002 4278533396
0.030892815 0.027319968 0.47300002 4278599189
0.032429121 0.027319968 0.47300002 4278862361
0.034037236 0.027377728 0.47400004 4278993947
0.040280249 0.027435487 0.47500002 4279125281
0.041823048 0.027435487 0.47500002 4279322662
0.043365847 0.027435487 0.47500002 4278795548
0.045003194 0.027493244 0.47600001 4279058466
-0.023361526 0.029466873 0.48300001 4279251223
-0.021702504 0.029344859 0.48100004 4279055638
-0.020098343 0.02928385 0.48000002 4278794004
-0.01850068 0.029222842 0.47900003 4278991894
-0.01690951 0.029161833 0.47800002 4278795798
-0.015324838 0.029100826 0.47700003 4278532626
-0.013775541 0.029100826 0.47700003 4278466835
-0.012200613 0.029039817 0.47600001 4278598421
-0.010654564 0.029039817 0.47600001 4278532626
-0.0090893796 0.02897881 0.47500002 4278466833
-0.0075465781 0.02897881 0.47500002 4278269454
-0.006003778 0.02897881 0.47500002 4278268943
-0.0044515859 0.028917802 0.47400004 4278194946
-0.0029120327 0.028917802 0.47400004 4278856724
-0.0013724798 0.028917802 0.47400004 4279121433
0.00016707306 0.028917802 0.47400004 4278196736
0.0017030254 0.028856793 0.47300002 4278196486
0.0032324817 0.028795786 0.47200003 4278327302
0.0047655385 0.028795786 0.47200003 4278393095
0.0062852511 0.028734777 0.47100002 4278328072
0.0078150593 0.028734777 0.47100002 4278195969
0.0093448684 0.028734777 0.47100002 4278196480
0.010874677 0.028734777 0.47100002 4278197250
0.012457159 0.028856793 0.47300002 4279054357
0.013993464 0.028856793 0.47300002 4278464015
0.015562602 0.028917802 0.47400004 4278727957
0.017102154 0.028917802 0.47400004 4278793750
0.018641707 0.028917802 0.47400004 4278859797
0.020181261 0.028917802 0.47400004 4278532115
0.021720814 0.028917802 0.47400004 4278597908
0.023260366 0.028917802 0.47400004 4278532115
0.024799919 0.028917802 0.47400004 4278597908
0.026339471 0.028917802 0.47400004 4278532113
0.027937841 0.02897881 0.47500002 4278597908
0.029418578 0.028917802 0.47400004 4278663701
0.030958129 0.028917802 0.47400004 4278598421
0.032497685 0.028917802 0.47400004 4278401812
0.034037236 0.028917802 0.47400004 4278401812
0.035651844 0.02897881 0.47500002 4278467603
0.037194647 0.02897881 0.47500002 4278599189
0.038737446 0.02897881 0.47500002 4278599189
0.040365048 0.029039817 0.47600001 4278664982
0.041911095 0.029039817 0.47600001 4278664982
0.043457143 0.029039817 0.47600001 4278862361
0.045003194 0.029039817 0.47600001 4278993947
0.046647035 0.029100826 0.47700003 4278862877
0.048297372 0.029161833 0.47800002 4278994209
0.049849916 0.029161833 0.47800002 4279191590
0.051402461 0.029161833 0.47800002 4279123746
-0.023313159 0.030971935 0.48200002 4278923541
-0.021702504 0.030907677 0.48100004 4279056406
-0.020098343 0.03084342 0.48000002 4278728724
-0.01850068 0.030779164 0.47900003 4278795285
-0.01690951 0.030714905 0.47800002 4278730005
-0.015324838 0.030650649 0.47700003 4278532626
-0.013775541 0.030650649 0.47700003 4278532626
-0.012200613 0.030586392 0.47600001 4278532113
-0.010654564 0.030586392 0.47600001 4278400527
-0.0090893796 0.030522134 0.47500002 4278532113
-0.0075465781 0.030522134 0.47500002 4278532113
-0.006003778 0.030522134 0.47500002 4278991896
-0.0044609774 0.030522134 0.47500002 4278193664
-0.0029120327 0.030457878 0.47400004 4279054103
-0.0013724798 0.030457878 0.47400004 4279054103
0.00016707306 0.030457878 0.47400004 4278393097
0.0017066259 0.030457878 0.47400004 4278588939
0.0032393301 0.030393621 0.47300002 4278654732
0.004775635 0.030393621 0.47300002 4278720011
0.00631194 0.030393621 0.47300002 4278588939
0.0078316517 0.030329363 0.47200003 4278785804
0.0093647093 0.030329363 0.47200003 4278720011
0.010920854 0.030393621 0.47300002 4278654218
0.012483496 0.030457878 0.47400004 4278720011
0.014023049 0.030457878 0.47400004 4278195971
0.015562602 0.030457878 0.47400004 4278791955
0.017138233 0.030522134 0.47500002 4278397197
0.018681034 0.030522134 0.47500002 4278264841
0.020223835 0.030522134 0.47500002 4278196738
0.021766638 0.030522134 0.47500002 4278196224
0.023309439 0.030522134 0.47500002 4278194688
0.024852239 0.030522134 0.47500002 4278198023
0.02639504 0.030522134 0.47500002 4278198793
0.027937841 0.030522134 0.47500002 4278397456
0.029480642 0.030522134 0.47500002 4278661394
0.031023441 0.030522134 0.47500002 4278858773
0.032566246 0.030522134 0.47500002 4278728470
0.034109045 0.030522134 0.47500002 4278860056
0.035651844 0.030522134 0.47500002 4278532115
0.037272949 0.030586392 0.47600001 4278400529
0.038818996 0.030586392 0.47600001 4278400529
0.040365048 0.030586392 0.47600001 4278334736
0.041911095 0.030586392 0.47600001 4278729494
0.043548442 0.030650649 0.47700003 4278532115
0.045097739 0.030650649 0.47700003 4278599191
0.046744827 0.030714905 0.47800002 4278599191
0.048297372 0.030714905 0.47800002 4278665498
0.049954206 0.030779164 0.47900003 4278665498
0.051509999 0.030779164 0.47900003 4278862877
0.053176578 0.03084342 0.48000002 4278993949
0.054735616 0.03084342 0.48000002 4278663708
-0.023313159 0.032538 0.48200002 4279449113
-0.021702504 0.032470495 0.48100004 4278859797
-0.020098343 0.032402989 0.48000002 4278729494
-0.01850068 0.032335483 0.47900003 4278730005
-0.01690951 0.032267977 0.47800002 4278730005
-0.015324838 0.032200471 0.47700003 4278664212
-0.013775541 0.032200471 0.47700003 4278466833
-0.012200613 0.032132965 0.47600001 4278466833
-0.010654564 0.032132965 0.47600001 4278532626
-0.0090893796 0.032065459 0.47500002 4278400527
-0.0075465781 0.032065459 0.47500002 4278532115
-0.006003778 0.032065459 0.47500002 4278728724
-0.0044609774 0.032065459 0.47500002 4278195971
-0.0029181761 0.032065459 0.47500002 4278923541
-0.0013753753 0.032065459 0.47500002 4278460685
0.00016742553 0.032065459 0.47500002 4278393095
0.0017066259 0.031997953 0.47400004 4278984721
0.0032461786 0.031997953 0.47400004 4278721295
0.0047857314 0.031997953 0.47400004 4279971362
0.006325285 0.031997953 0.47400004 4278589709
0.0078648375 0.031997953 0.47400004 4279971616
0.0094043901 0.031997953 0.47400004 4278918928
0.010943944 0.031997953 0.47400004 4279115537
0.012483496 0.031997953 0.47400004 4279049744
0.014052633 0.032065459 0.47500002 4278196486
0.015595434 0.032065459 0.47500002 4278857748
0.017138233 0.032065459 0.47500002 4278924568
0.018681034 0.032065459 0.47500002 4278661396
0.020223835 0.032065459 0.47500002 4279186713
0.021766638 0.032065459 0.47500002 4279055127
0.023309439 0.032065459 0.47500002 4278989847
0.024852239 0.032065459 0.47500002 4278989847
0.02639504 0.032065459 0.47500002 4279450398
0.027937841 0.032065459 0.47500002 4279055640
0.029480642 0.032065459 0.47500002 4279186713
0.031023441 0.032065459 0.47500002 4279120920
0.032566246 0.032065459 0.47500002 4278397197
0.03418085 0.032132965 0.47600001 4278196480
0.035726897 0.032132965 0.47600001 4278195968
0.037272949 0.032132965 0.47600001 4278194176
0.03890055 0.032200471 0.47700003 4278193920
0.04044985 0.032200471 0.47700003 4278197510
0.041999146 0.032200471 0.47700003 4278200077
0.043639734 0.032267977 0.47800002 4278397456
0.045192283 0.032267977 0.47800002 4278595601
0.046744827 0.032267977 0.47800002 4278465552
0.048398416 0.032335483 0.47900003 4278532628
0.049954206 0.032335483 0.47900003 4278466835
0.051617533 0.032402989 0.48000002 4278467605
0.053176578 0.032402989 0.48000002 4278862877
0.054849651 0.032470495 0.48100004 4278862109
0.056411941 0.032470495 0.48100004 4278202641
-0.023313159 0.034104068 0.48200002 4279778848
-0.021702504 0.034033313 0.48100004 4278925590
-0.020098343 0.033962559 0.48000002 4278663701
-0.01850068 0.033891805 0.47900003 4278861080
-0.01690951 0.033821046 0.47800002 4278730005
-0.015324838 0.033750292 0.47700003 4278532626
-0.013775541 0.033750292 0.47700003 4278532626
-0.012200613 0.033679534 0.47600001 4278730007
-0.010654564 0.033679534 0.47600001 4278795800
-0.0090893796 0.033608783 0.47500002 4278598421
-0.0075465781 0.033608783 0.47500002 4278597908
-0.006003778 0.033608783 0.47500002 4278398992
-0.0044609774 0.033608783 0.47500002 4278197256
-0.0029181761 0.033608783 0.47500002 4278923287
-0.0013753753 0.033608783 0.47500002 4278526478
0.00016742553 0.033608783 0.47500002 4278590476
0.0017102263 0.033608783 0.47500002 4278195461
0.0032530271 0.033608783 0.47500002 4279313686
0.0047958279 0.033608783 0.47500002 4279510811
0.006325285 0.033538029 0.47400004 4278193924
0.0078648375 0.033538029 0.47400004 4278194691
0.009424231 0.033608783 0.47500002 4278458377
0.010967032 0.033608783 0.47500002 4279708957
0.012509832 0.033608783 0.47500002 4278393097
0.014052633 0.033608783 0.47500002 4278196488
0.015628267 0.033679534 0.47600001 4278792468
0.017174315 0.033679534 0.47600001 4278198536
0.018720362 0.033679534 0.47600001 4278197256
0.020266412 0.033679534 0.47600001 4278196486
0.021812461 0.033679534 0.47600001 4278527761
0.023358511 0.033679534 0.47600001 4278331917
0.024904558 0.033679534 0.47600001 4278266124
0.026450608 0.033679534 0.47600001 4278726675
0.027996656 0.033679534 0.47600001 4278198275
0.029542705 0.033679534 0.47600001 4278924568
0.031088753 0.033679534 0.47600001 4278924568
0.032634802 0.033679534 0.47600001 4278727189
0.03418085 0.033679534 0.47600001 4278858775
0.035801958 0.033750292 0.47700003 4278924568
0.037351254 0.033750292 0.47700003 4279055640
0.03890055 0.033750292 0.47700003 4279055127
0.040534649 0.033821046 0.47800002 4279121433
0.042087194 0.033821046 0.47800002 4279121433
0.043639734 0.033821046 0.47800002 4279121433
0.045286831 0.033891805 0.47900003 4278593293
0.04684262 0.033891805 0.47900003 4278857746
0.048499454 0.033962559 0.48000002 4278662677
0.050058495 0.033962559 0.48000002 4278728470
0.051617533 0.033962559 0.48000002 4278532628
0.053287365 0.034033313 0.48100004 4278532628
0.054849651 0.034033313 0.48100004 4278729753
0.05652922 0.034104068 0.48200002 4278269204
-0.023313159 0.035670135 0.48200002 4279581469
-0.021702504 0.035596132 0.48100004 4279122197
-0.020098343 0.035522126 0.48000002 4278795285
-0.01850068 0.035448123 0.47900003 4278992664
-0.01690951 0.035374116 0.47800002 4278598419
-0.015324838 0.035300113 0.47700003 4278664212
-0.013775541 0.035300113 0.47700003 4278532626
-0.012200613 0.035226107 0.47600001 4278269454
-0.010654564 0.035226107 0.47600001 4278466833
-0.0090893796 0.035152104 0.47500002 4278532626
-0.0075465781 0.035152104 0.47500002 4278400527
-0.006003778 0.035152104 0.47500002 4278595087
-0.0044609774 0.035152104 0.47500002 4278723343
-0.0029181761 0.035152104 0.47500002 4279186713
-0.0013753753 0.035152104 0.47500002 4278195457
0.00016742553 0.035152104 0.47500002 4278523916
0.0017102263 0.035152104 0.47500002 4278588939
0.0032530271 0.035152104 0.47500002 4278588939
0.0047958279 0.035152104 0.47500002 4278523146
0.0063386289 0.035152104 0.47500002 4278654218
0.007881429 0.035152104 0.47500002 4278720011
0.009424231 0.035152104 0.47500002 4278589709
0.010967032 0.035152104 0.47500002 4278393865
0.012536168 0.035226107 0.47600001 4278459658
0.014082218 0.035226107 0.47600001 4278723855
0.015628267 0.035226107 0.47600001 4279318810
0.017174315 0.035226107 0.47600001 4278195974
0.018720362 0.035226107 0.47600001 4278523916
0.020266412 0.035226107 0.47600001 4278392843
0.021812461 0.035226107 0.47600001 4278526478
0.023358511 0.035226107 0.47600001 4278858261
0.024904558 0.035226107 0.47600001 4278200074
0.026450608 0.035226107 0.47600001 4278198533
0.027996656 0.035226107 0.47600001 4278923287
0.029542705 0.035226107 0.47600001 4278196736
0.031088753 0.035226107 0.47600001 4278198532
0.032703366 0.035300113 0.47700003 4278197248
0.034252662 0.035300113 0.47700003 4278529296
0.035801958 0.035300113 0.47700003 4278989845
0.03742956 0.035374116 0.47800002 4278199044
0.038982101 0.035374116 0.47800002 4278595601
0.040534649 0.035374116 0.47800002 4278530578
0.042175245 0.035448123 0.47900003 4278793750
0.043731034 0.035448123 0.47900003 4278464785
0.045286831 0.035448123 0.47900003 4278528013
0.046940412 0.035522126 0.48000002 4279318299
0.048499454 0.035522126 0.48000002 4278793752
0.050162785 0.035596132 0.48100004 4278596373
0.051725071 0.035596132 0.48100004 4278662677
0.053398147 0.035670135 0.48200002 4278597908
0.054963682 0.035670135 0.48200002 4278531861
0.05652922 0.035670135 0.48200002 4278728470
0.058215283 0.035744138 0.48300001 4284514672
-0.023361526 0.037313454 0.48300001 4279385117
-0.021702504 0.037158951 0.48100004 4278926103
-0.020098343 0.037081696 0.48000002 4278992664
-0.01850068 0.037004441 0.47900003 4278598419
-0.01690951 0.036927186 0.47800002 4278730005
-0.015324838 0.036849935 0.47700003 4278598419
-0.013775541 0.036849935 0.47700003 4278466833
-0.012200613 0.03677268 0.47600001 4278532626
-0.010654564 0.03677268 0.47600001 4278532113
-0.0091085145 0.03677268 0.47600001 4278400527
-0.0075465781 0.036695428 0.47500002 4278991894
-0.006003778 0.036695428 0.47500002 4278200840
-0.0044609774 0.036695428 0.47500002 4278461966
-0.0029181761 0.036695428 0.47500002 4279121431
-0.0013753753 0.036695428 0.47500002 4279055640
0.00016742553 0.036695428 0.47500002 4278526476
0.0017102263 0.036695428 0.47500002 4278524170
0.0032530271 0.036695428 0.47500002 4278194948
0.0047958279 0.036695428 0.47500002 4278720779
0.0063386289 0.036695428 0.47500002 4278391560
0.007881429 0.036695428 0.47500002 4278720011
0.009424231 0.036695428 0.47500002 4278720011
0.01099012 0.03677268 0.47600001 4278654218
0.012536168 0.03677268 0.47600001 4278589193
0.014082218 0.03677268 0.47600001 4279580188
0.015628267 0.03677268 0.47600001 4278858259
0.017174315 0.03677268 0.47600001 4278722832
0.018720362 0.03677268 0.47600001 4278589963
0.020266412 0.03677268 0.47600001 4279052310
0.021812461 0.03677268 0.47600001 4279383068
0.023358511 0.03677268 0.47600001 4278198536
0.024904558 0.03677268 0.47600001 4278923287
0.026450608 0.03677268 0.47600001 4278199564
0.028055474 0.036849935 0.47700003 4278396943
0.02960477 0.036849935 0.47700003 4278594322
0.031154066 0.036849935 0.47700003 4278331150
0.032703366 0.036849935 0.47700003 4279119383
0.034252662 0.036849935 0.47700003 4278197767
0.035877012 0.036927186 0.47800002 4278197766
0.03742956 0.036927186 0.47800002 4279449115
0.039063655 0.037004441 0.47900003 4278791185
0.040619452 0.037004441 0.47900003 4278856978
0.042175245 0.037004441 0.47900003 4278397708
0.043731034 0.037004441 0.47900003 4278924566
0.045381371 0.037081696 0.48000002 4278198023
0.046940412 0.037081696 0.48000002 4279120920
0.048600499 0.037158951 0.48100004 4278793750
0.050162785 0.037158951 0.48100004 4278793750
0.051832609 0.037236203 0.48200002 4278728724
0.053398147 0.037236203 0.48200002 4278597908
0.055077713 0.037313454 0.48300001 4278531345
0.0566465 0.037313454 0.48300001 4278860056
0.058215283 0.037313454 0.48300001 4284317547
-0.030618418 0.040170815 0.49900001 4282734918
-0.028997665 0.040170815 0.49900001 4284117854
-0.026773416 0.039285287 0.48800004 4284578407
-0.023409896 0.038963273 0.48400003 4279252765
-0.021747623 0.03880227 0.48200002 4278991131
-0.020098343 0.038641263 0.48000002 4279058459
-0.01850068 0.038560763 0.47900003 4278729494
-0.01690951 0.038480259 0.47800002 4278795287
-0.015324838 0.038399756 0.47700003 4278597908
-0.013775541 0.038399756 0.47700003 4278729492
-0.012200613 0.038319252 0.47600001 4278729492
-0.010654564 0.038319252 0.47600001 4278795285
-0.0091085145 0.038319252 0.47600001 4278992664
-0.0075624655 0.038319252 0.47600001 4278662929
-0.006003778 0.038238753 0.47500002 4278728209
-0.0044609774 0.038238753 0.47500002 4279121431
-0.0029181761 0.038238753 0.47500002 4278727187
-0.0013753753 0.038238753 0.47500002 4278925336
0.00016742553 0.038238753 0.47500002 4278662677
0.0017102263 0.038238753 0.47500002 4278793750
0.0032530271 0.038238753 0.47500002 4278925336
0.0047958279 0.038238753 0.47500002 4279187224
0.0063386289 0.038238753 0.47500002 4278989847
0.007881429 0.038238753 0.47500002 4279317529
0.009444071 0.038319252 0.47600001 4279646240
0.01099012 0.038319252 0.47600001 4279316762
0.012536168 0.038319252 0.47600001 4279710750
0.014082218 0.038319252 0.47600001 4279317529
0.015628267 0.038319252 0.47600001 4278198276
0.017174315 0.038319252 0.47600001 4278195968
0.018720362 0.038319252 0.47600001 4278194944
0.020266412 0.038319252 0.47600001 4278194176
0.021812461 0.038319252 0.47600001 4278196484
0.023358511 0.038319252 0.47600001 4278264841
0.024904558 0.038319252 0.47600001 4278988564
0.026506176 0.038399756 0.47700003 4279251736
0.028055474 0.038399756 0.47700003 4279514908
0.02960477 0.038399756 0.47700003 4279055127
0.031154066 0.038399756 0.47700003 4279120920
0.032703366 0.038399756 0.47700003 4279186713
0.034324467 0.038480259 0.47800002 4279120920
0.035877012 0.038480259 0.47800002 4279120920
0.037507866 0.038560763 0.47900003 4278660369
0.039063655 0.038560763 0.47900003 4278923287
0.040619452 0.038560763 0.47900003 4278198536
0.042263292 0.038641263 0.48000002 4278199046
0.043822329 0.038641263 0.48000002 4278727957
0.045381371 0.038641263 0.48000002 4278195968
0.046940412 0.038641263 0.48000002 4279121433
0.048600499 0.038721766 0.48100004 4278793752
0.050162785 0.038721766 0.48100004 4278859545
0.051832609 0.03880227 0.48200002 4278662931
0.053398147 0.03880227 0.48200002 4278531345
0.055077713 0.03888277 0.48300001 4278794517
0.0566465 0.03888277 0.48300001 4278991896
0.058215283 0.03888277 0.48300001 4283330139
-0.030618418 0.041792113 0.49900001 4284446053
-0.028823331 0.041540861 0.49600002 4284052065
-0.026938006 0.041122101 0.49100003 4284117858
-0.02518839 0.040870849 0.48800004 4284249444
-0.023458261 0.040619589 0.48500001 4284053092
-0.021747623 0.040368337 0.48200002 4279908649
-0.020140216 0.040284585 0.48100004 4278595353
-0.01850068 0.040117081 0.47900003 4278990879
-0.01690951 0.040033329 0.47800002 4279319842
-0.015356964 0.040033329 0.47800002 4279319842
-0.013775541 0.039949577 0.47700003 4279122976
-0.012200613 0.039865825 0.47600001 4279123230
-0.010654564 0.039865825 0.47600001 4279123228
-0.0091085145 0.039865825 0.47600001 4278925849
-0.0075624655 0.039865825 0.47600001 4278860056
-0.006003778 0.039782073 0.47500002 4278925336
-0.0044609774 0.039782073 0.47500002 4278991129
-0.0029181761 0.039782073 0.47500002 4278794263
-0.0013753753 0.039782073 0.47500002 4278728470
0.00016742553 0.039782073 0.47500002 4278728470
0.0017102263 0.039782073 0.47500002 4278662677
0.0032530271 0.039782073 0.47500002 4278662677
0.0047958279 0.039782073 0.47500002 4278728470
0.0063386289 0.039782073 0.47500002 4278662677
0.007881429 0.039782073 0.47500002 4278728470
0.009444071 0.039865825 0.47600001 4278793750
0.01099012 0.039865825 0.47600001 4279056922
0.012536168 0.039865825 0.47600001 4278925336
0.014082218 0.039865825 0.47600001 4278727957
0.015628267 0.039865825 0.47600001 4278793750
0.017174315 0.039865825 0.47600001 4278858773
0.018720362 0.039865825 0.47600001 4278924566
0.020266412 0.039865825 0.47600001 4279318810
0.021812461 0.039865825 0.47600001 4279186711
0.023358511 0.039865825 0.47600001 4279120918
0.02495688 0.039949577 0.47700003 4279186711
0.026506176 0.039949577 0.47700003 4279055127
0.028055474 0.039949577 0.47700003 4278856724
0.02960477 0.039949577 0.47700003 4278396173
0.031154066 0.039949577 0.47700003 4278197253
0.032771926 0.040033329 0.47800002 4278195456
0.034324467 0.040033329 0.47800002 4278193920
0.035952069 0.040117081 0.47900003 4278195968
0.037507866 0.040117081 0.47900003 4278197252
0.039063655 0.040117081 0.47900003 4278264587
0.04070425 0.040200833 0.48000002 4278922519
0.042263292 0.040200833 0.48000002 4278923287
0.043822329 0.040200833 0.48000002 4278989847
0.045381371 0.040200833 0.48000002 4278197762
0.047038205 0.040284585 0.48100004 4278858775
0.048600499 0.040284585 0.48100004 4278728472
0.050267071 0.040368337 0.48200002 4278794265
0.051832609 0.040368337 0.48200002 4278860056
0.05350893 0.040452085 0.48300001 4278925849
0.055077713 0.040452085 0.48300001 4278860056
0.0566465 0.040452085 0.48300001 4278333201
0.058215283 0.040452085 0.48300001 4285106296
-0.030679777 0.043500416 0.5 4284511331
-0.028939554 0.043326415 0.49800003 4283920479
-0.027047733 0.042891413 0.49300003 4283986272
-0.02529162 0.042630408 0.49000001 4284249444
-0.02350663 0.042282406 0.48600003 4284249957
-0.021792741 0.042021401 0.48300001 4284315750
-0.020182086 0.041934405 0.48200002 4284448620
-0.01850068 0.0416734 0.47900003 4284843378
-0.01690951 0.041586399 0.47800002 4285040755
-0.015356964 0.041586399 0.47800002 4284449133
-0.013775541 0.041499399 0.47700003 4282081614
-0.012200613 0.041412398 0.47600001 4280567862
-0.010654564 0.041412398 0.47600001 4279514658
-0.0091085145 0.041412398 0.47600001 4278726425
-0.0075624655 0.041412398 0.47600001 4278267158
-0.006003778 0.041325398 0.47500002 4278267158
-0.0044609774 0.041325398 0.47500002 4278990107
-0.0029181761 0.041325398 0.47500002 4279056154
-0.0013753753 0.041325398 0.47500002 4278924568
0.00016742553 0.041325398 0.47500002 4279121945
0.0017102263 0.041325398 0.47500002 4278793750
0.0032530271 0.041325398 0.47500002 4278793750
0.0047958279 0.041325398 0.47500002 4278925849
0.0063386289 0.041325398 0.47500002 4278794263
0.007881429 0.041325398 0.47500002 4278728470
0.009444071 0.041412398 0.47600001 4278728470
0.01099012 0.041412398 0.47600001 4278794263
0.012536168 0.041412398 0.47600001 4278860056
0.014082218 0.041412398 0.47600001 4278729240
0.015628267 0.041412398 0.47600001 4278597654
0.017174315 0.041412398 0.47600001 4278662677
0.018720362 0.041412398 0.47600001 4278794263
0.020266412 0.041412398 0.47600001 4278925336
0.021812461 0.041412398 0.47600001 4278859543
0.023358511 0.041412398 0.47600001 4278859543
0.02495688 0.041499399 0.47700003 4278727957
0.026506176 0.041499399 0.47700003 4278727957
0.028055474 0.041499399 0.47700003 4278924566
0.02960477 0.041499399 0.47700003 4278990359
0.031219378 0.041586399 0.47800002 4278924566
0.032771926 0.041586399 0.47800002 4278990359
0.034324467 0.041586399 0.47800002 4278858773
0.035952069 0.0416734 0.47900003 4278924568
0.037507866 0.0416734 0.47900003 4278858775
0.039145209 0.0417604 0.48000002 4279121433
0.04070425 0.0417604 0.48000002 4279976742
0.042263292 0.0417604 0.48000002 4279318558
0.043822329 0.0417604 0.48000002 4278726421
0.045475919 0.041847404 0.48100004 4279121179
0.047038205 0.041847404 0.48100004 4278925338
0.048701536 0.041934405 0.48200002 4278794265
0.050267071 0.041934405 0.48200002 4278728472
0.051940143 0.042021401 0.48300001 4278794265
0.05350893 0.042021401 0.48300001 4278991642
0.055077713 0.042021401 0.48300001 4278530580
0.0566465 0.042021401 0.48300001 4280436528
0.058335815 0.042108405 0.48400003 4284448366
-0.029055776 0.04512497 0.5 4284248159
-0.027157461 0.044673722 0.49500003 4284117088
-0.023554998 0.043951724 0.48700002 4284117858
-0.021837862 0.043680973 0.48400003 4284446823
-0.020182086 0.043500472 0.48200002 4284447336
-0.0091085145 0.042958971 0.47600001 4284842354
-0.0075624655 0.042958971 0.47600001 4284579182
-0.006003778 0.042868722 0.47500002 4284514159
-0.0044609774 0.042868722 0.47500002 4284185196
-0.0029181761 0.042868722 0.47500002 4283527264
-0.0013753753 0.042868722 0.47500002 4282540623
0.00016742553 0.042868722 0.47500002 4281619519
0.0017102263 0.042868722 0.47500002 4279975207
0.0032530271 0.042868722 0.47500002 4279383070
0.0047958279 0.042868722 0.47500002 4278529046
0.0063386289 0.042868722 0.47500002 4278397974
0.007881429 0.042868722 0.47500002 4278661144
0.009444071 0.042958971 0.47600001 4278595351
0.01099012 0.042958971 0.47600001 4278858523
0.012536168 0.042958971 0.47600001 4278925086
0.014082218 0.042958971 0.47600001 4278859291
0.015628267 0.042958971 0.47600001 4278859291
0.017174315 0.042958971 0.47600001 4279056154
0.018720362 0.042958971 0.47600001 4278990361
0.020266412 0.042958971 0.47600001 4278925338
0.021812461 0.042958971 0.47600001 4278925338
0.023358511 0.042958971 0.47600001 4278859545
0.02495688 0.043049224 0.47700003 4278925338
0.026506176 0.043049224 0.47700003 4278793750
0.028055474 0.043049224 0.47700003 4278991129
0.02960477 0.043049224 0.47700003 4278793750
0.031219378 0.043139473 0.47800002 4278793752
0.032771926 0.043139473 0.47800002 4278925338
0.03439628 0.043229725 0.47900003 4278727957
0.035952069 0.043229725 0.47900003 4278859543
0.037586167 0.043319974 0.48000002 4278925336
0.039145209 0.043319974 0.48000002 4278859543
0.04070425 0.043319974 0.48000002 4278925336
0.042263292 0.043319974 0.48000002 4278925336
0.043913629 0.043410223 0.48100004 4278793750
0.045475919 0.043410223 0.48100004 4278859545
0.047038205 0.043410223 0.48100004 4278793752
0.048701536 0.043500472 0.48200002 4278728472
0.050267071 0.043500472 0.48200002 4278794265
0.051940143 0.043590721 0.48300001 4278860058
0.05350893 0.043590721 0.48300001 4278860058
0.055191748 0.043680973 0.48400003 4278462738
0.056763783 0.043680973 0.48400003 4284777846
0.058335815 0.043680973 0.48400003 4284448368
0.012536168 0.044505544 0.47600001 4284580206
0.014082218 0.044505544 0.47600001 4283461725
0.015628267 0.044505544 0.47600001 4281817413
0.017174315 0.044505544 0.47600001 4280567862
0.018720362 0.044505544 0.47600001 4279646760
0.020266412 0.044505544 0.47600001 4278792216
0.021812461 0.044505544 0.47600001 4278397458
0.023358511 0.044505544 0.47600001 4278462736
0.02495688 0.044599045 0.47700003 4278462736
0.026506176 0.044599045 0.47700003 4278923287
0.028055474 0.044599045 0.47700003 4278858007
0.029666835 0.044692542 0.47800002 4279121693
0.031219378 0.044692542 0.47800002 4279187486
0.032771926 0.044692542 0.47800002 4279121179
0.03439628 0.044786043 0.47900003 4279318560
0.036027126 0.044879541 0.48000002 4278595351
0.037586167 0.044879541 0.48000002 4278595351
0.039145209 0.044879541 0.48000002 4279055902
0.04070425 0.044879541 0.48000002 4278859293
0.042351339 0.044973042 0.48100004 4278925084
0.043913629 0.044973042 0.48100004 4278596119
0.045570463 0.045066539 0.48200002 4278990877
0.047135998 0.045066539 0.48200002 4279188256
0.048701536 0.045066539 0.48200002 4279187740
0.05037136 0.045160037 0.48300001 4279319326
0.051940143 0.045160037 0.48300001 4279056154
0.053619716 0.045253538 0.48400003 4279383840
0.055191748 0.045253538 0.48400003 4284382573
0.056763783 0.045253538 0.48400003 4284448366
0.058335815 0.045253538 0.48400003 4284513391
-0.029346334 0.048857812 0.505 4284312670
0.036027126 0.046439111 0.48000002 4285369722
0.037586167 0.046439111 0.48000002 4285237366
0.039145209 0.046439111 0.48000002 4284646512
0.040789053 0.046535861 0.48100004 4284843891
0.042351339 0.046535861 0.48100004 4284646510
0.044004925 0.046632607 0.48200002 4284974962
0.045570463 0.046632607 0.48200002 4284646510
0.047135998 0.046632607 0.48200002 4284514924
0.048802577 0.046729356 0.48300001 4284514924
0.05037136 0.046729356 0.48300001 4284646510
0.052047681 0.046826106 0.48400003 4284909684
0.053619716 0.046826106 0.48400003 4284383086
0.055191748 0.046826106 0.48400003 4284513643
-0.029404448 0.05059861 0.50600004 4284378977
0.044004925 0.048198674 0.48200002 4284514159
0.045570463 0.048198674 0.48200002 4284645745
0.04723379 0.048298672 0.48300001 4284514159
0.048802577 0.048298672 0.48300001 4284710768
0.05037136 0.048298672 0.48300001 4284710768
0.052047681 0.04839867 0.48400003 4284644975
0.053619716 0.04839867 0.48400003 4284644975
0.055191748 0.04839867 0.48400003 4284644975
0.014664916 0.035369083 0.47767103 4294967295
0.014664916 0.035369083 0.47767103 4294901760
0.014664916 0.035369083 0.47817102 4294901760
0.014664916 0.035369083 0.47867101 4294901760
0.014664916 0.035369083 0.47917104 4294901760
0.014664916 0.035369083 0.47967103 4294901760
0.014664916 0.035369083 0.48017102 4294901760
0.014664916 0.035369083 0.48067102 4294901760
0.014664916 0.035369083 0.48117104 4294901760
0.014664916 0.035369083 0.48167104 4294901760
0.014664916 0.035369083 0.48217103 4294901760
0.014664916 0.035369083 0.48267102 4294901760
0.014664916 0.035369083 0.48317102 4294901760
0.014664916 0.035369083 0.48367104 4294901760
0.014664916 0.035369083 0.48417103 4294901760
0.014664916 0.035369083 0.48467103 4294901760
0.014664916 0.035369083 0.48517102 4294901760
0.014664916 0.035369083 0.48567104 4294901760
0.014664916 0.035369083 0.48617104 4294901760
0.014664916 0.035369083 0.48667103 4294901760
0.014664916 0.035369083 0.48717102 4294901760
0.014664916 0.035369083 0.48767102 4294901760
0.014664916 0.035369083 0.48817104 4294901760
0.014664916 0.035369083 0.48867103 4294901760
0.014664916 0.035369083 0.48917103 4294901760
0.014664916 0.035369083 0.48967102 4294901760
0.014664916 0.035369083 0.49017102 4294901760
0.014664916 0.035369083 0.49067104 4294901760
0.014664916 0.035369083 0.49117103 4294901760
0.014664916 0.035369083 0.49167103 4294901760
0.014664916 0.035369083 0.49217102 4294901760
0.014664916 0.035369083 0.49267104 4294901760
0.014664916 0.035369083 0.49317104 4294901760
0.014664916 0.035369083 0.49367103 4294901760
0.014664916 0.035369083 0.49417102 4294901760
0.014664916 0.035369083 0.49467105 4294901760
0.014664916 0.035369083 0.49517104 4294901760
0.014664916 0.035369083 0.49567103 4294901760
0.014664916 0.035369083 0.49617103 4294901760
0.014664916 0.035369083 0.49667102 4294901760
0.014664916 0.035369083 0.49717104 4294901760
0.014664916 0.035369083 0.49767104 4294901760
0.014664916 0.035369083 0.49817103 4294901760
0.014664916 0.035369083 0.49867103 4294901760
0.014664916 0.035369083 0.49917102 4294901760
0.014664916 0.035369083 0.49967104 4294901760
0.014664916 0.035369083 0.50017101 4294901760
0.014664916 0.035369083 0.50067103 4294901760
0.014664916 0.035369083 0.50117105 4294901760
0.014664916 0.035369083 0.50167102 4294901760
0.014664916 0.035369083 0.50217104 4294901760
0.014664916 0.035369083 0.502671 4294901760
0.014664916 0.035369083 0.50317103 4294901760
0.014664916 0.035369083 0.50367105 4294901760
0.014664916 0.035369083 0.50417101 4294901760
0.014664916 0.035369083 0.50467104 4294901760
0.014664916 0.035369083 0.50517106 4294901760
0.014664916 0.035369083 0.50567102 4294901760
0.014664916 0.035369083 0.50617105 4294901760
0.014664916 0.035369083 0.50667101 4294901760
0.014664916 0.035369083 0.50717103 4294901760
0.014664916 0.035369083 0.50767106 4294901760
0.014664916 0.035369083 0.50817102 4294901760
0.014664916 0.035369083 0.50867105 4294901760
0.014664916 0.035369083 0.50917101 4294901760
0.014664916 0.035369083 0.50967103 4294901760
0.014664916 0.035369083 0.51017106 4294901760
0.014664916 0.035369083 0.51067102 4294901760
0.014664916 0.035369083 0.51117104 4294901760
0.014664916 0.035369083 0.51167107 4294901760
0.014664916 0.035369083 0.51217103 4294901760
0.014664916 0.035369083 0.51267105 4294901760
0.014664916 0.035369083 0.51317102 4294901760
0.014664916 0.035369083 0.51367104 4294901760
0.014664916 0.035369083 0.51417106 4294901760
0.014664916 0.035369083 0.51467103 4294901760
0.014664916 0.035369083 0.51517105 4294901760
0.014664916 0.035369083 0.51567101 4294901760
0.014664916 0.035369083 0.51617104 4294901760
0.014664916 0.035369083 0.51667106 4294901760
0.014664916 0.035369083 0.51717103 4294901760
0.014664916 0.035369083 0.51767105 4294901760
0.014664916 0.035369083 0.51817101 4294901760
0.014664916 0.035369083 0.51867104 4294901760
0.014664916 0.035369083 0.51917106 4294901760
0.014664916 0.035369083 0.51967102 4294901760
0.014664916 0.035369083 0.52017105 4294901760
0.014664916 0.035369083 0.52067101 4294901760
0.014664916 0.035369083 0.52117103 4294901760
0.014664916 0.035369083 0.52167106 4294901760
0.014664916 0.035369083 0.52217102 4294901760
0.014664916 0.035369083 0.52267104 4294901760
0.014664916 0.035369083 0.52317107 4294901760
0.014664916 0.035369083 0.52367103 4294901760
0.014664916 0.035369083 0.52417105 4294901760
0.014664916 0.035369083 0.52467102 4294901760
0.014664916 0.035369083 0.52517104 4294901760
0.014664916 0.035369083 0.52567106 4294901760
0.014664916 0.035369083 0.52617103 4294901760
0.014664916 0.035369083 0.52667105 4294901760
0.014664916 0.035369083 0.52717102 4294901760
0.014664916 0.035369083 0.52767104 4294901760
0.014664916 0.035369083 0.47767103 4278255360
0.014603668 0.035240527 0.47815031 4278255360
0.014542419 0.035111971 0.47862962 4278255360
0.014481172 0.034983415 0.4791089 4278255360
0.014419924 0.034854859 0.47958821 4278255360
0.014358675 0.034726303 0.48006749 4278255360
0.014297427 0.034597747 0.48054677 4278255360
0.014236178 0.034469187 0.48102608 4278255360
0.01417493 0.034340631 0.48150536 4278255360
0.014113682 0.034212075 0.48198467 4278255360
0.014052434 0.034083519 0.48246396 4278255360
0.013991185 0.033954963 0.48294324 4278255360
0.013929937 0.033826407 0.48342255 4278255360
0.013868689 0.033697851 0.48390183 4278255360
0.01380744 0.033569295 0.48438114 4278255360
0.013746193 0.033440739 0.48486042 4278255360
0.013684944 0.033312183 0.4853397 4278255360
0.013623696 0.033183627 0.48581901 4278255360
0.013562447 0.033055067 0.48629829 4278255360
0.013501199 0.032926511 0.4867776 4278255360
0.013439951 0.032797955 0.48725688 4278255360
0.013378703 0.032669399 0.48773617 4278255360
0.013317455 0.032540843 0.48821548 4278255360
0.013256206 0.032412287 0.48869476 4278255360
0.013194958 0.032283731 0.48917407 4278255360
0.01313371 0.032155175 0.48965335 4278255360
0.013072462 0.032026619 0.49013263 4278255360
0.013011213 0.031898063 0.49061194 4278255360
0.012949965 0.031769507 0.49109122 4278255360
0.012888717 0.031640951 0.49157053 4278255360
0.012827468 0.031512391 0.49204981 4278255360
0.012766221 0.031383835 0.49252909 4278255360
0.012704972 0.031255279 0.4930084 4278255360
0.012643724 0.031126723 0.49348769 4278255360
0.012582475 0.030998167 0.493967 4278255360
0.012521227 0.030869611 0.49444628 4278255360
0.012459978 0.030741055 0.49492556 4278255360
0.012398731 0.030612499 0.49540487 4278255360
0.012337483 0.030483942 0.49588415 4278255360
0.012276234 0.030355386 0.49636346 4278255360
0.012214986 0.030226829 0.49684274 4278255360
0.012153737 0.030098272 0.49732202 4278255360
0.01209249 0.029969716 0.49780133 4278255360
0.012031241 0.02984116 0.49828061 4278255360
0.011969993 0.029712602 0.49875993 4278255360
0.011908744 0.029584046 0.49923921 4278255360
0.011847496 0.02945549 0.49971849 4278255360
0.011786249 0.029326934 0.50019777 4278255360
0.011725 0.029198378 0.50067711 4278255360
0.011663752 0.029069822 0.50115639 4278255360
0.011602503 0.028941266 0.50163567 4278255360
0.011541255 0.02881271 0.50211495 4278255360
0.011480007 0.028684152 0.50259423 4278255360
0.011418759 0.028555596 0.50307357 4278255360
0.01135751 0.02842704 0.50355285 4278255360
0.011296262 0.028298482 0.50403214 4278255360
0.011235014 0.028169926 0.50451142 4278255360
0.011173765 0.02804137 0.5049907 4278255360
0.011112517 0.027912814 0.50547004 4278255360
0.011051269 0.027784258 0.50594932 4278255360
0.010990021 0.027655702 0.5064286 4278255360
0.010928772 0.027527146 0.50690788 4278255360
0.010867524 0.02739859 0.50738716 4278255360
0.010806276 0.027270034 0.5078665 4278255360
0.010745028 0.027141476 0.50834578 4278255360
0.01068378 0.02701292 0.50882506 4278255360
0.010622531 0.026884362 0.50930434 4278255360
0.010561283 0.026755806 0.50978363 4278255360
0.010500034 0.02662725 0.51026297 4278255360
0.010438787 0.026498694 0.51074225 4278255360
0.010377537 0.026370138 0.51122153 4278255360
0.01031629 0.026241582 0.51170081 4278255360
0.010255042 0.026113026 0.51218009 4278255360
0.010193793 0.02598447 0.51265943 4278255360
0.010132546 0.025855914 0.51313871 4278255360
0.010071296 0.025727356 0.51361799 4278255360
0.010010049 0.0255988 0.51409727 4278255360
0.0099488003 0.025470244 0.51457655 4278255360
0.0098875519 0.025341688 0.51505589 4278255360
0.0098263035 0.02521313 0.51553518 4278255360
0.009765055 0.025084574 0.51601446 4278255360
0.0097038075 0.024956018 0.51649374 4278255360
0.0096425591 0.024827462 0.51697302 4278255360
0.0095813107 0.024698906 0.51745236 4278255360
0.0095200632 0.02457035 0.51793164 4278255360
0.0094588138 0.024441794 0.51841092 4278255360
0.0093975663 0.024313238 0.5188902 4278255360
0.009336317 0.02418468 0.51936948 4278255360
0.0092750695 0.024056124 0.51984882 4278255360
0.009213821 0.023927568 0.5203281 4278255360
0.0091525726 0.023799011 0.52080739 4278255360
0.0090913242 0.023670454 0.52128667 4278255360
0.0090300757 0.023541898 0.52176595 4278255360
0.0089688282 0.023413341 0.52224529 4278255360
0.0089075798 0.023284785 0.52272457 4278255360
0.0088463314 0.023156229 0.52320385 4278255360
0.0087850839 0.023027673 0.52368313 4278255360
0.0087238345 0.022899117 0.52416241 4278255360
0.008662587 0.022770559 0.52464175 4278255360
0.0086013386 0.022642003 0.52512103 4278255360
0.0085400902 0.022513447 0.52560031 4278255360
