# .PCD v0.7 - Point Cloud Data file format
VERSION 0.7
FIELDS x y z rgb
SIZE 4 4 4 4
TYPE F F F U
COUNT 1 1 1 1
WIDTH 1058
HEIGHT 1
VIEWPOINT 0 0 0 1 0 0 0
POINTS 1058
DATA ascii
0.061582208 0.059087936 0.33200002 4280955942
0.062660545 0.059087936 0.33200002 4280364577
0.063738875 0.059087936 0.33200002 4281023530
0.06481722 0.059087936 0.33200002 4281156651
0.065895557 0.059087936 0.33200002 4279911461
0.06050387 0.060166635 0.33200002 4280825387
0.061582208 0.060166635 0.33200002 4281220399
0.062660545 0.060166635 0.33200002 4280890921
0.063738875 0.060166635 0.33200002 4281024300
0.06481722 0.060166635 0.33200002 4280698669
0.065895557 0.060166635 0.33200002 4279846951
0.067175612 0.060347855 0.333 4279517473
0.06050387 0.061245337 0.33200002 4280825387
0.061582208 0.061245337 0.33200002 4281088559
0.062660545 0.061245337 0.33200002 4280957741
0.063738875 0.061245337 0.33200002 4280238118
0.06481722 0.061245337 0.33200002 4279451932
0.065895557 0.061245337 0.33200002 4279649822
0.06050387 0.06232404 0.33200002 4281154606
0.061582208 0.06232404 0.33200002 4281155120
0.062660545 0.06232404 0.33200002 4280827436
0.063738875 0.06232404 0.33200002 4279386141
0.06481722 0.06232404 0.33200002 4279453215
0.065895557 0.06232404 0.33200002 4279453213
0.066973887 0.06232404 0.33200002 4279452447
0.060321633 0.063211769 0.33100003 4281154606
0.061396722 0.063211769 0.33100003 4280893229
0.062471811 0.063211769 0.33100003 4280302373
0.063546896 0.063211769 0.33100003 4279190556
0.064621985 0.063211769 0.33100003 4279059740
0.065895557 0.063402742 0.33200002 4279322910
0.066973887 0.063402742 0.33200002 4279649059
0.060321633 0.064287223 0.33100003 4281352499
0.061396722 0.064287223 0.33100003 4280631338
0.062471811 0.064287223 0.33100003 4279975457
0.063546896 0.064287223 0.33100003 4279058970
0.064621985 0.064287223 0.33100003 4278862873
0.065895557 0.064481445 0.33200002 4278994459
0.066973887 0.064481445 0.33200002 4279451934
0.060321633 0.065362677 0.33100003 4280892716
0.061396722 0.065362677 0.33100003 4280632876
0.062283073 0.065165207 0.33000001 4279976994
0.063354909 0.065165207 0.33000001 4278928152
0.06442675 0.065165207 0.33000001 4279191838
0.060139388 0.066237405 0.33000001 4281026098
0.061211228 0.066237405 0.33000001 4281028917
0.062283073 0.066237405 0.33000001 4279845920
0.063354909 0.066237405 0.33000001 4279125785
0.06442675 0.066237405 0.33000001 4279059992
0.060139388 0.067309611 0.33000001 4281619517
0.061211228 0.067309611 0.33000001 4280634159
0.062283073 0.067309611 0.33000001 4279780897
0.063354909 0.067309611 0.33000001 4279125785
0.064231522 0.067105643 0.32900003 4278994713
0.065300114 0.067105643 0.32900003 4278863127
0.059067551 0.068381809 0.33000001 4280960557
0.060139388 0.068381809 0.33000001 4281554489
0.061211228 0.068381809 0.33000001 4279779615
0.062283073 0.068381809 0.33000001 4279780895
0.063162923 0.068174601 0.32900003 4279061019
0.064231522 0.068174601 0.32900003 4279324191
0.065300114 0.068174601 0.32900003 4279126812
0.059067551 0.069454014 0.33000001 4282408517
0.060139388 0.069454014 0.33000001 4280896561
0.061211228 0.069454014 0.33000001 4280437291
0.062094338 0.06924355 0.32900003 4280044582
0.063162923 0.06924355 0.32900003 4279192605
0.064231522 0.06924355 0.32900003 4279522853
0.065101631 0.069033086 0.32800001 4279586598
0.066166975 0.069033086 0.32800001 4279519519
0.059067551 0.070526227 0.33000001 4281684794
0.060139388 0.070526227 0.33000001 4280172838
0.061211228 0.070526227 0.33000001 4281161014
0.062094338 0.070312507 0.32900003 4280767794
0.063162923 0.070312507 0.32900003 4279652389
0.064231522 0.070312507 0.32900003 4278666777
0.065101631 0.070098795 0.32800001 4284784506
0.066166975 0.070098795 0.32800001 4278862109
0.067232318 0.070098795 0.32800001 4279321629
0.06808944 0.069885075 0.32700002 4279584801
0.060139388 0.071598426 0.33000001 4281488698
0.061211228 0.071598426 0.33000001 4281621306
0.062283073 0.071598426 0.33000001 4281424950
0.063162923 0.071381465 0.32900003 4280835381
0.064231522 0.071381465 0.32900003 4279587111
0.065101631 0.071164496 0.32800001 4279191842
0.066166975 0.071164496 0.32800001 4282152273
0.067232318 0.071164496 0.32800001 4279388707
0.06808944 0.070947535 0.32700002 4279125533
0.069151543 0.070947535 0.32700002 4279453728
0.070213631 0.070947535 0.32700002 4279780897
0.071275733 0.070947535 0.32700002 4279579668
0.059246548 0.072890848 0.33100003 4281882171
0.060139388 0.072670631 0.33000001 4281686329
0.061211228 0.072670631 0.33000001 4281687610
0.062283073 0.072670631 0.33000001 4281490745
0.063162923 0.072450422 0.32900003 4281294649
0.064231522 0.072450422 0.32900003 4280045865
0.065101631 0.072230205 0.32800001 4279323426
0.066166975 0.072230205 0.32800001 4282744662
0.067232318 0.072230205 0.32800001 4279849518
0.06808944 0.072009988 0.32700002 4279455012
0.069151543 0.072009988 0.32700002 4279257117
0.070213631 0.072009988 0.32700002 4279256347
0.071275733 0.072009988 0.32700002 4279649822
0.072337829 0.072009988 0.32700002 4279649309
0.059246548 0.073966302 0.33100003 4282342462
0.060139388 0.073742829 0.33000001 4282015294
0.061211228 0.073742829 0.33000001 4281884991
0.062283073 0.073742829 0.33000001 4281753917
0.063162923 0.073519371 0.32900003 4281490745
0.064231522 0.073519371 0.32900003 4281425722
0.065101631 0.073295906 0.32800001 4281164346
0.066166975 0.073295906 0.32800001 4279914279
0.067232318 0.073295906 0.32800001 4278666009
0.06808944 0.073072441 0.32700002 4279389730
0.069151543 0.073072441 0.32700002 4279389471
0.070213631 0.073072441 0.32700002 4279323164
0.071275733 0.073072441 0.32700002 4279125785
0.072337829 0.073072441 0.32700002 4279125785
0.073624387 0.073295906 0.32800001 4279387933
0.074689731 0.073295906 0.32800001 4279519008
0.075755075 0.073295906 0.32800001 4279517727
0.076820418 0.073295906 0.32800001 4280107297
0.059246548 0.075041756 0.33100003 4282604867
0.060139388 0.074815035 0.33000001 4282015040
0.061211228 0.074815035 0.33000001 4281818944
0.062283073 0.074815035 0.33000001 4281950530
0.063162923 0.074588329 0.32900003 4281819198
0.064036287 0.074361615 0.32800001 4281687610
0.065101631 0.074361615 0.32800001 4281425722
0.066166975 0.074361615 0.32800001 4281163063
0.067232318 0.074361615 0.32800001 4280178223
0.06808944 0.074134901 0.32700002 4278928668
0.069151543 0.074134901 0.32700002 4279323424
0.070213631 0.074134901 0.32700002 4279191838
0.071275733 0.074134901 0.32700002 4279257631
0.072337829 0.074134901 0.32700002 4279388703
0.073399924 0.074134901 0.32700002 4279059738
0.074689731 0.074361615 0.32800001 4279059738
0.075755075 0.074361615 0.32800001 4279256347
0.076820418 0.074361615 0.32800001 4279321627
0.077885762 0.074361615 0.32800001 4279648539
0.078951113 0.074361615 0.32800001 4280042785
0.060139388 0.07588724 0.33000001 4282539076
0.061211228 0.07588724 0.33000001 4282082118
0.062283073 0.07588724 0.33000001 4282016323
0.063162923 0.075657278 0.32900003 4282082368
0.064036287 0.075427316 0.32800001 4281884989
0.065101631 0.075427316 0.32800001 4281490745
0.066166975 0.075427316 0.32800001 4281424952
0.067027345 0.075197354 0.32700002 4281162552
0.06808944 0.075197354 0.32700002 4280768307
0.069151543 0.075197354 0.32700002 4280111145
0.070213631 0.075197354 0.32700002 4279519521
0.071275733 0.075197354 0.32700002 4279454496
0.072337829 0.075197354 0.32700002 4279389217
0.073399924 0.075197354 0.32700002 4279191838
0.074689731 0.075427316 0.32800001 4279323424
0.075755075 0.075427316 0.32800001 4279126045
0.076820418 0.075427316 0.32800001 4279126045
0.077885762 0.075427316 0.32800001 4279256347
0.078951113 0.075427316 0.32800001 4279453213
0.063162923 0.076726235 0.32900003 4282015294
0.064036287 0.076493025 0.32800001 4281884478
0.065101631 0.076493025 0.32800001 4281490747
0.066166975 0.076493025 0.32800001 4281358907
0.067027345 0.076259814 0.32700002 4281293368
0.06808944 0.076259814 0.32700002 4281293368
0.069151543 0.076259814 0.32700002 4281227575
0.070213631 0.076259814 0.32700002 4280702001
0.071275733 0.076259814 0.32700002 4280307752
0.072337829 0.076259814 0.32700002 4279585312
0.073399924 0.076259814 0.32700002 4279454498
0.074462019 0.076259814 0.32700002 4279388703
0.075755075 0.076493025 0.32800001 4279388957
0.076820418 0.076493025 0.32800001 4279389471
0.077885762 0.076493025 0.32800001 4278994713
0.078951113 0.076493025 0.32800001 4279059992
0.064036287 0.077558726 0.32800001 4281884224
0.065101631 0.077558726 0.32800001 4281424440
0.065965243 0.077322267 0.32700002 4281359161
0.067027345 0.077322267 0.32700002 4281293368
0.06808944 0.077322267 0.32700002 4281293368
0.069151543 0.077322267 0.32700002 4281293368
0.070213631 0.077322267 0.32700002 4281227575
0.071275733 0.077322267 0.32700002 4280833587
0.072337829 0.077322267 0.32700002 4280701999
0.073399924 0.077322267 0.32700002 4280241961
0.074462019 0.077322267 0.32700002 4280111658
0.075755075 0.077558726 0.32800001 4279914531
0.076586209 0.077322267 0.32700002 4279388957
0.077648312 0.077322267 0.32700002 4279257371
0.078710407 0.077322267 0.32700002 4279454750
0.079772502 0.077322267 0.32700002 4279388957
0.080587395 0.077085808 0.32600001 4279454750
0.081646241 0.077085808 0.32600001 4279125785
0.082705088 0.077085808 0.32600001 4278993429
0.083763942 0.077085808 0.32600001 4279453213
0.084822789 0.077085808 0.32600001 4279584799
0.085881643 0.077085808 0.32600001 4279715104
0.08694049 0.077085808 0.32600001 4280240166
0.087999336 0.077085808 0.32600001 4279842590
0.064036287 0.078624435 0.32800001 4281947964
0.065101631 0.078624435 0.32800001 4281883708
0.065965243 0.078384727 0.32700002 4281555513
0.067027345 0.078384727 0.32700002 4281490233
0.06808944 0.078384727 0.32700002 4281293368
0.069151543 0.078384727 0.32700002 4281293368
0.070213631 0.078384727 0.32700002 4281358647
0.071275733 0.078384727 0.32700002 4280964403
0.072559044 0.078624435 0.32800001 4281030196
0.073624387 0.078624435 0.32800001 4281030194
0.074689731 0.078624435 0.32800001 4280833585
0.075755075 0.078624435 0.32800001 4280373547
0.076586209 0.078384727 0.32700002 4280374315
0.077648312 0.078384727 0.32700002 4279980070
0.078710407 0.078384727 0.32700002 4279519773
0.079772502 0.078384727 0.32700002 4279454750
0.080587395 0.078145012 0.32600001 4279520543
0.081646241 0.078145012 0.32600001 4278994713
0.082451396 0.077905312 0.32500002 4279257371
0.083507001 0.077905312 0.32500002 4279059992
0.0845626 0.077905312 0.32500002 4279125015
0.085618205 0.077905312 0.32500002 4279321881
0.086673804 0.077905312 0.32500002 4279519006
0.087729409 0.077905312 0.32500002 4279584031
0.089058183 0.078145012 0.32600001 4279977506
0.09011703 0.078145012 0.32600001 4280565534
0.064903155 0.079447187 0.32700002 4284051284
0.065965243 0.079447187 0.32700002 4281881911
0.067027345 0.079447187 0.32700002 4282146367
0.06808944 0.079447187 0.32700002 4281554743
0.069151543 0.079447187 0.32700002 4281556026
0.070428349 0.079690143 0.32800001 4281358647
0.0714937 0.079690143 0.32800001 4281161782
0.072559044 0.079690143 0.32800001 4281161782
0.073624387 0.079690143 0.32800001 4281161780
0.074689731 0.079690143 0.32800001 4280964401
0.075755075 0.079690143 0.32800001 4280634157
0.076820418 0.079690143 0.32800001 4280634411
0.077648312 0.079447187 0.32700002 4280570411
0.078710407 0.079447187 0.32700002 4280242983
0.079528548 0.079204224 0.32600001 4280374569
0.080587395 0.079204224 0.32600001 4279519773
0.081395797 0.078961268 0.32500002 4279519519
0.082451396 0.078961268 0.32500002 4279257117
0.083507001 0.078961268 0.32500002 4279586082
0.0845626 0.078961268 0.32500002 4279125785
0.085618205 0.078961268 0.32500002 4279125785
0.086673804 0.078961268 0.32500002 4279125531
0.087729409 0.078961268 0.32500002 4279124761
0.088785 0.078961268 0.32500002 4279453467
0.09011703 0.079204224 0.32600001 4279846942
0.091175877 0.079204224 0.32600001 4279977758
0.092234731 0.079204224 0.32600001 4280172575
0.069363013 0.080755845 0.32800001 4281817402
0.070428349 0.080755845 0.32800001 4281883708
0.0714937 0.080755845 0.32800001 4281620536
0.072559044 0.080755845 0.32800001 4281621306
0.073624387 0.080755845 0.32800001 4281226546
0.074689731 0.080755845 0.32800001 4281554743
0.075755075 0.080755845 0.32800001 4280301860
0.076820418 0.080755845 0.32800001 4280565545
0.077648312 0.08050964 0.32700002 4281226546
0.078710407 0.08050964 0.32700002 4281161266
0.079528548 0.080263428 0.32600001 4280898608
0.080587395 0.080263428 0.32600001 4280636206
0.081395797 0.080017224 0.32500002 4280242729
0.082451396 0.080017224 0.32500002 4280045350
0.083250053 0.079771012 0.324 4279913764
0.084302403 0.079771012 0.324 4279716639
0.08535476 0.079771012 0.324 4279453980
0.08640711 0.079771012 0.324 4279717922
0.087459467 0.079771012 0.324 4279059992
0.088785 0.080017224 0.32500002 4279257371
0.089840598 0.080017224 0.32500002 4279388187
0.090896204 0.080017224 0.32500002 4279388187
0.091951802 0.080017224 0.32500002 4279519006
0.093007408 0.080017224 0.32500002 4279452443
0.094063006 0.080017224 0.32500002 4280042787
0.070428349 0.081821553 0.32800001 4283986522
0.0714937 0.081821553 0.32800001 4282342462
0.072559044 0.081821553 0.32800001 4281421874
0.073624387 0.081821553 0.32800001 4281816632
0.074689731 0.081821553 0.32800001 4280038172
0.075755075 0.081821553 0.32800001 4281289009
0.076820418 0.081821553 0.32800001 4281618739
0.077648312 0.081572101 0.32700002 4281554228
0.078710407 0.081572101 0.32700002 4281620021
0.079528548 0.08132264 0.32600001 4281224495
0.080340199 0.081073187 0.32500002 4281093679
0.081395797 0.081073187 0.32500002 4280963372
0.082197696 0.080823727 0.324 4280832813
0.083250053 0.080823727 0.324 4280570924
0.084302403 0.080823727 0.324 4280768557
0.085091323 0.080574274 0.32300001 4279585053
0.086140424 0.080574274 0.32300001 4279453980
0.087189533 0.080574274 0.32300001 4279388957
0.08851181 0.080823727 0.324 4279323164
0.089564167 0.080823727 0.324 4279388703
0.090616517 0.080823727 0.324 4279257117
0.091951802 0.081073187 0.32500002 4279256347
0.093007408 0.081073187 0.32500002 4279190554
0.094063006 0.081073187 0.32500002 4279519008
0.094825923 0.080823727 0.324 4279649824
0.095878281 0.080823727 0.324 4279648541
0.096930631 0.080823727 0.324 4280173858
0.072780266 0.083139963 0.32900003 4284379227
0.073848851 0.083139963 0.32900003 4282340412
0.074917451 0.083139963 0.32900003 4281814070
0.075755075 0.082887255 0.32800001 4281882171
0.076820418 0.082887255 0.32800001 4281685816
0.077648312 0.082634553 0.32700002 4281356597
0.078710407 0.082634553 0.32700002 4280433959
0.079528548 0.082381845 0.32600001 4279905049
0.080340199 0.082129143 0.32500002 4280365854
0.081145339 0.081876434 0.324 4280036889
0.082197696 0.081876434 0.324 4281156651
0.082993105 0.081623733 0.32300001 4281293366
0.084042214 0.081623733 0.32300001 4281031475
0.085091323 0.081623733 0.32300001 4280242729
0.086140424 0.081623733 0.32300001 4280242729
0.087189533 0.081623733 0.32300001 4279782178
0.088238627 0.081623733 0.32300001 4279584799
0.089287736 0.081623733 0.32300001 4279322910
0.090336844 0.081623733 0.32300001 4279257631
0.091668874 0.081876434 0.324 4279125785
0.092721224 0.081876434 0.324 4279323164
0.093773581 0.081876434 0.324 4279388187
0.094825923 0.081876434 0.324 4279388187
0.095582359 0.081623733 0.32300001 4279189525
0.096631467 0.081623733 0.32300001 4279517977
0.097378157 0.081371032 0.32200003 4279977506
0.098424017 0.081371032 0.32200003 4280042787
0.099469878 0.081371032 0.32200003 4280697637
0.075755075 0.083952963 0.32800001 4283656785
0.076820418 0.083952963 0.32800001 4281947191
0.077648312 0.083697014 0.32700002 4281881659
0.078710407 0.083697014 0.32700002 4280104483
0.079528548 0.083441056 0.32600001 4280761130
0.080340199 0.083185099 0.32500002 4280891944
0.081145339 0.082929142 0.324 4280694051
0.082197696 0.082929142 0.324 4280299293
0.082993105 0.082673192 0.32300001 4279905821
0.084042214 0.082673192 0.32300001 4279445783
0.084827885 0.082417242 0.32200003 4280765993
0.085873738 0.082417242 0.32200003 4280767020
0.086919598 0.082417242 0.32200003 4280636204
0.087965451 0.082417242 0.32200003 4280373032
0.089011304 0.082417242 0.32200003 4280242983
0.090057164 0.082417242 0.32200003 4279125785
0.091385946 0.082673192 0.32300001 4279520543
0.092435054 0.082673192 0.32300001 4279388957
0.093484156 0.082673192 0.32300001 4279585564
0.094533257 0.082673192 0.32300001 4279585564
0.095582359 0.082673192 0.32300001 4279125013
0.096631467 0.082673192 0.32300001 4279519258
0.097378157 0.082417242 0.32200003 4279321627
0.098424017 0.082417242 0.32200003 4279453215
0.099160962 0.082161285 0.32100001 4279715617
0.10020357 0.082161285 0.32100001 4279780127
0.10093077 0.081905335 0.32000002 4280042272
0.10197013 0.081905335 0.32000002 4280238883
0.078469701 0.084500261 0.32600001 4282472000
0.079528548 0.084500261 0.32600001 4282209087
0.080340199 0.084241062 0.32500002 4279971614
0.081145339 0.083981857 0.324 4280299295
0.082197696 0.083981857 0.324 4280561954
0.082993105 0.083722658 0.32300001 4281549876
0.084042214 0.083722658 0.32300001 4280431395
0.084827885 0.083463453 0.32200003 4280168475
0.085873738 0.083463453 0.32200003 4279642131
0.086649656 0.083204247 0.32100001 4280631331
0.087692261 0.083204247 0.32100001 4281094188
0.088734865 0.083204247 0.32100001 4280768044
0.090057164 0.083463453 0.32200003 4280571178
0.091103025 0.083463453 0.32200003 4280176938
0.092148878 0.083463453 0.32200003 4279782178
0.093484156 0.083722658 0.32300001 4279585053
0.094533257 0.083722658 0.32300001 4279519260
0.095582359 0.083722658 0.32300001 4279256599
0.096332304 0.083463453 0.32200003 4279519771
0.097378157 0.083463453 0.32200003 4279388187
0.09811835 0.083204247 0.32100001 4279125531
0.099160962 0.083204247 0.32100001 4278993947
0.099891409 0.082945049 0.32000002 4278862361
0.10093077 0.082945049 0.32000002 4279256349
0.10197013 0.082945049 0.32000002 4279453213
0.10268757 0.082685843 0.31900001 4279911199
0.10339855 0.082426637 0.31800002 4280239912
0.081145339 0.085034557 0.324 4281617204
0.082197696 0.085034557 0.324 4281090860
0.082993105 0.08477211 0.32300001 4280037405
0.084042214 0.08477211 0.32300001 4280037407
0.084827885 0.084509656 0.32200003 4280168221
0.085607044 0.084247202 0.32100001 4281549874
0.086649656 0.084247202 0.32100001 4280496672
0.087692261 0.084247202 0.32100001 4280365086
0.088734865 0.084247202 0.32100001 4280301083
0.089777477 0.084247202 0.32100001 4281554741
0.091103025 0.084509656 0.32200003 4280503848
0.092148878 0.084509656 0.32200003 4280701997
0.093484156 0.08477211 0.32300001 4280505131
0.094533257 0.08477211 0.32300001 4279979557
0.095582359 0.08477211 0.32300001 4279453978
0.096332304 0.084509656 0.32200003 4279585564
0.097075738 0.084247202 0.32100001 4279190806
0.09811835 0.084247202 0.32100001 4279453978
0.099160962 0.084247202 0.32100001 4278928404
0.099891409 0.083984755 0.32000002 4279059992
0.10093077 0.083984755 0.32000002 4279256601
0.10165147 0.083722293 0.31900001 4279190808
0.10236568 0.083459847 0.31800002 4279386650
0.10339855 0.083459847 0.31800002 4279386650
0.10410301 0.083197393 0.317 4279516955
0.10480098 0.082934938 0.31600001 4279976227
0.10582734 0.082934938 0.31600001 4280632622
0.10685371 0.082934938 0.31600001 4281487165
0.081145339 0.086087264 0.324 4285300327
0.082197696 0.086087264 0.324 4283918674
0.082993105 0.085821569 0.32300001 4281157421
0.084042214 0.085821569 0.32300001 4280696872
0.084827885 0.085555874 0.32200003 4279907102
0.085607044 0.085290164 0.32100001 4280037918
0.086649656 0.085290164 0.32100001 4280233502
0.087692261 0.085290164 0.32100001 4280496672
0.088458441 0.085024469 0.32000002 4280628258
0.089497805 0.085024469 0.32000002 4280101914
0.091103025 0.085555874 0.32200003 4279774998
0.092148878 0.085555874 0.32200003 4280763428
0.093484156 0.085821569 0.32300001 4280898094
0.094533257 0.085821569 0.32300001 4280832299
0.095582359 0.085821569 0.32300001 4280177190
0.096332304 0.085555874 0.32200003 4280111397
0.097075738 0.085290164 0.32100001 4279782430
0.09811835 0.085290164 0.32100001 4279585051
0.098852053 0.085024469 0.32000002 4279453465
0.099891409 0.085024469 0.32000002 4279585051
0.10061535 0.084758759 0.31900001 4279388185
0.10165147 0.084758759 0.31900001 4279453978
0.10236568 0.084493063 0.31800002 4279125015
0.10307339 0.084227361 0.317 4279059222
0.10410301 0.084227361 0.317 4279124248
0.10480098 0.083961658 0.31600001 4279649822
0.10582734 0.083961658 0.31600001 4279976479
0.10685371 0.083961658 0.31600001 4279844893
0.10753869 0.083695963 0.31500003 4280566313
0.10856181 0.083695963 0.31500003 4281288757
0.10958494 0.083695963 0.31500003 4281681982
0.084042214 0.086871035 0.32300001 4285037927
0.085091323 0.086871035 0.32300001 4281683249
0.086140424 0.086871035 0.32300001 4280761893
0.087189533 0.086871035 0.32300001 4280499239
0.088238627 0.086871035 0.32300001 4279840539
0.089287736 0.086871035 0.32300001 4280037407
0.090336844 0.086871035 0.32300001 4280234016
0.091385946 0.086871035 0.32300001 4280167707
0.092435054 0.086871035 0.32300001 4280299547
0.093484156 0.086871035 0.32300001 4280040737
0.094533257 0.086871035 0.32300001 4280700202
0.095582359 0.086871035 0.32300001 4280503334
0.096631467 0.086871035 0.32300001 4280438825
0.097680576 0.086871035 0.32300001 4280768044
0.09781269 0.086064182 0.32000002 4280570663
0.098852053 0.086064182 0.32000002 4280110625
0.099891409 0.086064182 0.32000002 4279256086
0.10061535 0.085795231 0.31900001 4279453978
0.10133281 0.08552628 0.31800002 4279519771
0.10204377 0.085257329 0.317 4279190554
0.10307339 0.085257329 0.317 4279387933
0.10377461 0.084988378 0.31600001 4279124761
0.10480098 0.084988378 0.31600001 4279190041
0.10549244 0.084719434 0.31500003 4279255064
0.10651557 0.084719434 0.31500003 4279584029
0.10753869 0.084719434 0.31500003 4279845918
0.10856181 0.084719434 0.31500003 4279713307
0.10958494 0.084719434 0.31500003 4280304163
0.11060806 0.084719434 0.31500003 4280960555
0.11163118 0.084719434 0.31500003 4281419573
0.10029995 0.086559497 0.31800002 4280373545
0.10133281 0.086559497 0.31800002 4279913764
0.10204377 0.08628729 0.317 4279651105
0.10274824 0.086015098 0.31600001 4279651107
0.10377461 0.086015098 0.31600001 4279454498
0.10446934 0.085742898 0.31500003 4279257119
0.10549244 0.085742898 0.31500003 4279058970
0.10651557 0.085742898 0.31500003 4279124763
0.10753869 0.085742898 0.31500003 4279190041
0.10856181 0.085742898 0.31500003 4279320857
0.10958494 0.085742898 0.31500003 4279451930
0.11060806 0.085742898 0.31500003 4279845918
0.11163118 0.085742898 0.31500003 4279909916
0.11265429 0.085742898 0.31500003 4280304161
0.11367741 0.085742898 0.31500003 4281881407
0.11470053 0.085742898 0.31500003 4281747773
0.10172187 0.087041818 0.31600001 4280636204
0.10274824 0.087041818 0.31600001 4280307752
0.10377461 0.087041818 0.31600001 4279322910
0.10446934 0.08676637 0.31500003 4279520289
0.10549244 0.08676637 0.31500003 4279453726
0.10651557 0.08676637 0.31500003 4279321627
0.10753869 0.08676637 0.31500003 4279453467
0.10856181 0.08676637 0.31500003 4279321111
0.10958494 0.08676637 0.31500003 4279321111
0.11060806 0.08676637 0.31500003 4279189525
0.11163118 0.08676637 0.31500003 4279451930
0.11265429 0.08676637 0.31500003 4279582746
0.11367741 0.08676637 0.31500003 4279779100
0.11470053 0.08676637 0.31500003 4280567594
0.11572365 0.08676637 0.31500003 4281944886
0.11674678 0.08676637 0.31500003 4285495398
0.1177699 0.08676637 0.31500003 4285560167
0.10446934 0.087789834 0.31500003 4279979811
0.10549244 0.087789834 0.31500003 4279650592
0.10651557 0.087789834 0.31500003 4279782178
0.10753869 0.087789834 0.31500003 4279650846
0.10856181 0.087789834 0.31500003 4279519260
0.10958494 0.087789834 0.31500003 4279124502
0.11095919 0.088068523 0.31600001 4279255318
0.11198556 0.088068523 0.31600001 4279386137
0.11301192 0.088068523 0.31600001 4279057172
0.11403829 0.088068523 0.31600001 4279516953
0.11506466 0.088068523 0.31600001 4279779611
0.11572365 0.087789834 0.31500003 4280107295
0.11674678 0.087789834 0.31500003 4280697635
0.1177699 0.087789834 0.31500003 4280892196
0.10651557 0.088813297 0.31500003 4280570665
0.10753869 0.088813297 0.31500003 4279913764
0.10890645 0.089095242 0.31600001 4279650592
0.10993282 0.089095242 0.31600001 4279781408
0.11095919 0.089095242 0.31600001 4279649822
0.11198556 0.089095242 0.31600001 4279386650
0.11301192 0.089095242 0.31600001 4279123478
0.11403829 0.089095242 0.31600001 4279189271
0.11506466 0.089095242 0.31600001 4279320857
0.11609103 0.089095242 0.31600001 4279386137
0.1171174 0.089095242 0.31600001 4279582746
0.11814377 0.089095242 0.31600001 4279975709
0.11879303 0.088813297 0.31500003 4280566049
0.10753869 0.089836769 0.31500003 4280767024
0.10890645 0.090121962 0.31600001 4280438057
0.10993282 0.090121962 0.31600001 4280372262
0.11131032 0.090407155 0.317 4279978274
0.11233994 0.090407155 0.317 4279913248
0.11336955 0.090407155 0.317 4279715869
0.11439916 0.090407155 0.317 4279386904
0.11506466 0.090121962 0.31600001 4279189525
0.11609103 0.090121962 0.31600001 4279321111
0.1171174 0.090121962 0.31600001 4279189525
0.11814377 0.090121962 0.31600001 4279583000
0.11879303 0.089836769 0.31500003 4279779611
0.10925108 0.091437124 0.317 4281094192
0.1102807 0.091437124 0.317 4280963887
0.11131032 0.091437124 0.317 4280832301
0.11233994 0.091437124 0.317 4279912481
0.11336955 0.091437124 0.317 4280176166
0.11439916 0.091437124 0.317 4279781410
0.11542878 0.091437124 0.317 4279715617
0.1164584 0.091437124 0.317 4279847201
0.11748802 0.091437124 0.317 4279320857
0.11814377 0.091148682 0.31600001 4279320598
0.11954726 0.091437124 0.317 4279386391
0.10924565 0.09334217 0.32000002 4280632104
0.10959573 0.092758775 0.31800002 4280763690
0.1106286 0.092758775 0.31800002 4280500518
0.11166146 0.092758775 0.31800002 4280961321
0.11269433 0.092758775 0.31800002 4281094190
0.11372718 0.092758775 0.31800002 4281094960
0.11476005 0.092758775 0.31800002 4280438827
0.11579292 0.092758775 0.31800002 4279847203
0.1164584 0.092467077 0.317 4279847201
0.11748802 0.092467077 0.317 4279781408
0.11851764 0.092467077 0.317 4279584029
0.11954726 0.092467077 0.317 4279584029
0.12057687 0.092467077 0.317 4279451930
0.12160648 0.092467077 0.317 4279254551
0.10854443 0.094676822 0.32100001 4280238118
0.10924565 0.094381884 0.32000002 4280500006
0.10994036 0.094086938 0.31900001 4280039455
0.11097648 0.094086938 0.31900001 4280763690
0.11201259 0.094086938 0.31900001 4280961839
0.11304871 0.094086938 0.31900001 4280830505
0.11408481 0.094086938 0.31900001 4280501540
0.11512093 0.094086938 0.31900001 4280963374
0.11579292 0.093791991 0.31800002 4280569643
0.11682578 0.093791991 0.31800002 4280570411
0.11785865 0.093791991 0.31800002 4279846688
0.11851764 0.093497045 0.317 4279912481
0.11954726 0.093497045 0.317 4279912481
0.12057687 0.093497045 0.317 4279912481
0.12160648 0.093497045 0.317 4279781408
0.10854443 0.095719784 0.32100001 4280959024
0.10924565 0.095421597 0.32000002 4280696618
0.11028501 0.095421597 0.32000002 4280433959
0.11132438 0.095421597 0.32000002 4280303657
0.11236374 0.095421597 0.32000002 4279908899
0.1134031 0.095421597 0.32000002 4280829737
0.11408481 0.095123403 0.31900001 4281026602
0.11512093 0.095123403 0.31900001 4281421360
0.11615704 0.095123403 0.31900001 4281223979
0.11682578 0.094825208 0.31800002 4281027112
0.11785865 0.094825208 0.31800002 4281093675
0.11889151 0.094825208 0.31800002 4280634409
0.11992438 0.094825208 0.31800002 4280569127
0.12057687 0.094527014 0.317 4279978276
0.12160648 0.094527014 0.317 4279847205
0.10924565 0.096461311 0.32000002 4281090875
0.11028501 0.096461311 0.32000002 4280827954
0.11132438 0.096461311 0.32000002 4280566059
0.11236374 0.096461311 0.32000002 4280171555
0.1134031 0.096461311 0.32000002 4280762663
0.11444245 0.096461311 0.32000002 4281156651
0.11548182 0.096461311 0.32000002 4281617456
0.11615704 0.096159868 0.31900001 4281684017
0.11719315 0.096159868 0.31900001 4281684017
0.11785865 0.095858425 0.31800002 4281552431
0.11889151 0.095858425 0.31800002 4281552431
0.11992438 0.095858425 0.31800002 4281223979
0.12095724 0.095858425 0.31800002 4281423925
0.12160648 0.095556982 0.317 4280372264
0.10924565 0.097501017 0.32000002 4281353279
0.11028501 0.097501017 0.32000002 4281353277
0.11132438 0.097501017 0.32000002 4281090358
0.11236374 0.097501017 0.32000002 4281156403
0.1134031 0.097501017 0.32000002 4281287985
0.11444245 0.097501017 0.32000002 4280959274
0.11548182 0.097501017 0.32000002 4281354284
0.11652118 0.097501017 0.32000002 4281420077
0.11756054 0.097501017 0.32000002 4281880628
0.11785865 0.096891634 0.31800002 4281222698
0.11889151 0.096891634 0.31800002 4281749812
0.11992438 0.096891634 0.31800002 4281684019
0.12095724 0.096891634 0.31800002 4281420847
0.12199011 0.096891634 0.31800002 4281289261
0.10924565 0.098540731 0.32000002 4281549377
0.11028501 0.098540731 0.32000002 4281549375
0.11132438 0.098540731 0.32000002 4281483580
0.11236374 0.098540731 0.32000002 4281548859
0.1134031 0.098540731 0.32000002 4282271800
0.11444245 0.098540731 0.32000002 4282864189
0.11548182 0.098540731 0.32000002 4283063619
0.11652118 0.098540731 0.32000002 4282274103
0.11756054 0.098540731 0.32000002 4281024034
0.1185999 0.098540731 0.32000002 4281814320
0.11963926 0.098540731 0.32000002 4281684532
0.12067863 0.098540731 0.32000002 4281553460
0.12171797 0.098540731 0.32000002 4281749812
0.12275734 0.098540731 0.32000002 4280827173
0.11132438 0.099580444 0.32000002 4281285691
0.11236374 0.099580444 0.32000002 4281680447
0.1134031 0.099580444 0.32000002 4282798144
0.11444245 0.099580444 0.32000002 4283782983
0.11548182 0.099580444 0.32000002 4284640087
0.11652118 0.099580444 0.32000002 4285298271
0.11756054 0.099580444 0.32000002 4284904026
0.1185999 0.099580444 0.32000002 4283062338
0.11963926 0.099580444 0.32000002 4281682734
0.12067863 0.099580444 0.32000002 4280498462
0.12171797 0.099580444 0.32000002 4281616689
0.12275734 0.099580444 0.32000002 4282077240
0.088365726 0.081480913 0.32352337 4294967295
0.088365726 0.081480913 0.32352337 4294901760
0.088583328 0.081040211 0.32361519 4294901760
0.088800922 0.080599509 0.32370704 4294901760
0.089018524 0.080158807 0.32379887 4294901760
0.089236125 0.079718105 0.32389072 4294901760
0.08945372 0.079277411 0.32398254 4294901760
0.089671321 0.078836709 0.32407436 4294901760
0.089888915 0.078396007 0.32416621 4294901760
0.090106517 0.077955306 0.32425803 4294901760
0.090324119 0.077514604 0.32434988 4294901760
0.090541713 0.077073902 0.3244417 4294901760
0.090759315 0.0766332 0.32453352 4294901760
0.090976916 0.076192498 0.32462537 4294901760
0.09119451 0.075751796 0.32471719 4294901760
0.091412112 0.075311095 0.32480904 4294901760
0.091629714 0.0748704 0.32490087 4294901760
0.091847308 0.074429698 0.32499269 4294901760
0.09206491 0.073988996 0.32508454 4294901760
0.092282511 0.073548295 0.32517636 4294901760
0.092500106 0.073107593 0.32526821 4294901760
0.092717707 0.072666891 0.32536003 4294901760
0.092935301 0.072226189 0.32545185 4294901760
0.093152903 0.071785487 0.3255437 4294901760
0.093370505 0.071344785 0.32563552 4294901760
0.093588099 0.070904091 0.32572737 4294901760
0.093805701 0.070463389 0.32581919 4294901760
0.094023302 0.070022687 0.32591102 4294901760
0.094240896 0.069581985 0.32600287 4294901760
0.094458498 0.069141284 0.32609469 4294901760
0.0946761 0.068700582 0.32618654 4294901760
0.094893694 0.06825988 0.32627836 4294901760
0.095111296 0.067819178 0.32637018 4294901760
0.09532889 0.067378476 0.32646203 4294901760
0.095546491 0.066937774 0.32655385 4294901760
0.095764093 0.066497073 0.3266457 4294901760
0.095981687 0.066056378 0.32673752 4294901760
0.096199289 0.065615676 0.32682934 4294901760
0.096416891 0.065174975 0.32692119 4294901760
0.096634485 0.064734273 0.32701302 4294901760
0.096852086 0.064293571 0.32710487 4294901760
0.097069688 0.063852869 0.32719669 4294901760
0.097287282 0.063412167 0.32728851 4294901760
0.097504884 0.062971473 0.32738036 4294901760
0.097722486 0.062530771 0.32747218 4294901760
0.09794008 0.062090069 0.32756403 4294901760
0.098157682 0.061649367 0.32765585 4294901760
0.098375276 0.061208665 0.32774767 4294901760
0.098592877 0.060767964 0.32783952 4294901760
0.098810479 0.060327262 0.32793134 4294901760
0.099028073 0.05988656 0.3280232 4294901760
0.099245675 0.059445858 0.32811502 4294901760
0.099463277 0.05900516 0.32820684 4294901760
0.099680871 0.058564458 0.32829869 4294901760
0.099898472 0.05812376 0.32839051 4294901760
0.10011607 0.057683054 0.32848236 4294901760
0.10033367 0.057242356 0.32857418 4294901760
0.10055127 0.056801654 0.328666 4294901760
0.10076886 0.056360953 0.32875785 4294901760
0.10098647 0.055920251 0.32884967 4294901760
0.10120407 0.055479549 0.32894152 4294901760
0.10142167 0.055038847 0.32903334 4294901760
0.10163926 0.054598145 0.32912517 4294901760
0.10185686 0.054157447 0.32921702 4294901760
0.10207446 0.053716749 0.32930884 4294901760
0.10229206 0.053276047 0.32940069 4294901760
0.10250966 0.052835345 0.32949251 4294901760
0.10272726 0.052394643 0.32958433 4294901760
0.10294486 0.051953942 0.32967618 4294901760
0.10316245 0.05151324 0.329768 4294901760
0.10338005 0.051072538 0.32985985 4294901760
0.10359766 0.05063184 0.32995167 4294901760
0.10381525 0.050191138 0.33004349 4294901760
0.10403285 0.049750436 0.33013535 4294901760
0.10425045 0.049309734 0.33022717 4294901760
0.10446805 0.048869032 0.33031902 4294901760
0.10468565 0.048428334 0.33041084 4294901760
0.10490325 0.047987632 0.33050266 4294901760
0.10512085 0.047546931 0.33059451 4294901760
0.10533845 0.047106232 0.33068633 4294901760
0.10555604 0.046665527 0.33077818 4294901760
0.10577364 0.046224829 0.33087 4294901760
0.10599124 0.045784127 0.33096182 4294901760
0.10620885 0.045343425 0.33105367 4294901760
0.10642644 0.044902727 0.3311455 4294901760
0.10664404 0.044462025 0.33123735 4294901760
0.10686164 0.044021323 0.33132917 4294901760
0.10707924 0.043580621 0.33142099 4294901760
0.10729684 0.04313992 0.33151284 4294901760
0.10751443 0.042699222 0.33160466 4294901760
0.10773204 0.04225852 0.33169651 4294901760
0.10794963 0.041817818 0.33178833 4294901760
0.10816723 0.041377116 0.33188015 4294901760
0.10838483 0.040936414 0.331972 4294901760
0.10860243 0.040495712 0.33206382 4294901760
0.10882003 0.040055014 0.33215567 4294901760
0.10903763 0.039614312 0.3322475 4294901760
0.10925522 0.039173611 0.33233932 4294901760
0.10947283 0.038732909 0.33243117 4294901760
0.10969043 0.038292207 0.33252299 4294901760
0.10990803 0.037851509 0.33261484 4294901760
0.11012562 0.037410807 0.33270666 4294901760
0.088365726 0.081480913 0.32352337 4278255360
0.088811852 0.081678391 0.32341394 4278255360
0.089257978 0.081875861 0.3233045 4278255360
0.089704104 0.082073338 0.32319507 4278255360
0.09015023 0.082270809 0.32308564 4278255360
0.090596355 0.082468286 0.32297623 4278255360
0.091042481 0.082665756 0.3228668 4278255360
0.091488607 0.082863234 0.32275736 4278255360
0.091934733 0.083060712 0.32264793 4278255360
0.092380866 0.083258182 0.3225385 4278255360
0.092826992 0.083455659 0.32242906 4278255360
0.093273118 0.08365313 0.32231963 4278255360
0.093719244 0.083850607 0.32221019 4278255360
0.09416537 0.084048085 0.32210076 4278255360
0.094611496 0.084245555 0.32199132 4278255360
0.095057622 0.084443033 0.32188189 4278255360
0.095503747 0.084640503 0.32177249 4278255360
0.095949873 0.084837981 0.32166305 4278255360
0.096395999 0.085035451 0.32155362 4278255360
0.096842125 0.085232928 0.32144418 4278255360
0.097288251 0.085430406 0.32133475 4278255360
0.097734377 0.085627876 0.32122532 4278255360
0.098180503 0.085825354 0.32111588 4278255360
0.098626629 0.086022824 0.32100645 4278255360
0.099072754 0.086220302 0.32089701 4278255360
0.09951888 0.086417779 0.32078761 4278255360
0.099965006 0.08661525 0.32067817 4278255360
0.10041113 0.086812727 0.32056874 4278255360
0.10085726 0.087010197 0.32045931 4278255360
0.10130338 0.087207675 0.32034987 4278255360
0.10174952 0.087405145 0.32024044 4278255360
0.10219564 0.087602623 0.320131 4278255360
0.10264176 0.0878001 0.32002157 4278255360
0.10308789 0.087997571 0.31991214 4278255360
0.10353402 0.088195048 0.3198027 4278255360
0.10398015 0.088392518 0.31969327 4278255360
0.10442627 0.088589996 0.31958386 4278255360
0.1048724 0.088787466 0.31947443 4278255360
0.10531852 0.088984944 0.31936499 4278255360
0.10576465 0.089182422 0.31925556 4278255360
0.10621078 0.089379892 0.31914613 4278255360
0.1066569 0.089577369 0.31903669 4278255360
0.10710303 0.08977484 0.31892726 4278255360
0.10754915 0.089972317 0.31881782 4278255360
0.10799528 0.090169787 0.31870839 4278255360
0.1084414 0.090367265 0.31859899 4278255360
0.10888753 0.090564743 0.31848955 4278255360
0.10933366 0.090762213 0.31838012 4278255360
0.10977978 0.090959691 0.31827068 4278255360
0.11022592 0.091157168 0.31816125 4278255360
0.11067204 0.091354638 0.31805182 4278255360
0.11111817 0.091552109 0.31794238 4278255360
0.11156429 0.091749586 0.31783295 4278255360
0.11201042 0.091947064 0.31772351 4278255360
0.11245655 0.092144534 0.31761408 4278255360
0.11290267 0.092342012 0.31750464 4278255360
0.1133488 0.092539489 0.31739524 4278255360
0.11379492 0.092736959 0.31728581 4278255360
0.11424105 0.092934437 0.31717637 4278255360
0.11468717 0.093131907 0.31706694 4278255360
0.1151333 0.093329385 0.3169575 4278255360
0.11557943 0.093526855 0.31684807 4278255360
0.11602555 0.093724333 0.31673864 4278255360
0.11647168 0.09392181 0.3166292 4278255360
0.1169178 0.094119281 0.31651977 4278255360
0.11736393 0.094316758 0.31641036 4278255360
0.11781006 0.094514228 0.31630093 4278255360
0.11825618 0.094711706 0.31619149 4278255360
0.11870231 0.094909176 0.31608206 4278255360
0.11914843 0.095106654 0.31597263 4278255360
0.11959456 0.095304132 0.31586319 4278255360
0.12004068 0.095501602 0.31575376 4278255360
0.12048682 0.095699079 0.31564432 4278255360
0.12093294 0.09589655 0.31553489 4278255360
0.12137907 0.096094027 0.31542546 4278255360
0.1218252 0.096291497 0.31531602 4278255360
0.12227131 0.096488975 0.31520662 4278255360
0.12271744 0.096686453 0.31509718 4278255360
0.12316357 0.096883923 0.31498775 4278255360
0.1236097 0.0970814 0.31487831 4278255360
0.12405583 0.097278878 0.31476888 4278255360
0.12450195 0.097476348 0.31465945 4278255360
0.12494808 0.097673818 0.31455001 4278255360
0.1253942 0.097871296 0.31444058 4278255360
0.12584034 0.098068774 0.31433114 4278255360
0.12628646 0.098266244 0.31422174 4278255360
0.12673259 0.098463722 0.31411231 4278255360
0.12717871 0.098661199 0.31400287 4278255360
0.12762484 0.098858669 0.31389344 4278255360
0.12807097 0.09905614 0.313784 4278255360
0.12851709 0.099253617 0.31367457 4278255360
0.12896322 0.099451095 0.31356514 4278255360
0.12940934 0.099648565 0.3134557 4278255360
0.12985547 0.099846043 0.31334627 4278255360
0.13030159 0.10004352 0.31323683 4278255360
0.13074772 0.10024099 0.3131274 4278255360
0.13119385 0.10043846 0.31301799 4278255360
0.13163997 0.10063594 0.31290856 4278255360
0.1320861 0.10083342 0.31279913 4278255360
0.13253222 0.10103089 0.31268969 4278255360
0.13297835 0.10122836 0.31258026 4278255360
0.088365726 0.081480913 0.32352337 4278190335
0.088407598 0.081602283 0.32400662 4278190335
0.088449463 0.081723653 0.32448983 4278190335
0.088491336 0.081845023 0.32497308 4278190335
0.0885332 0.081966393 0.32545632 4278190335
0.088575073 0.082087763 0.32593954 4278190335
0.088616945 0.082209133 0.32642278 4278190335
0.08865881 0.082330503 0.32690603 4278190335
0.088700682 0.082451873 0.32738927 4278190335
0.088742554 0.082573235 0.32787248 4278190335
0.088784419 0.082694605 0.32835573 4278190335
0.088826291 0.082815975 0.32883897 4278190335
0.088868156 0.082937345 0.32932219 4278190335
0.088910028 0.083058715 0.32980543 4278190335
0.088951901 0.083180085 0.33028868 4278190335
0.088993765 0.083301455 0.33077189 4278190335
0.089035638 0.083422825 0.33125514 4278190335
0.08907751 0.083544195 0.33173838 4278190335
0.089119375 0.083665565 0.3322216 4278190335
0.089161247 0.083786935 0.33270484 4278190335
0.089203112 0.083908305 0.33318809 4278190335
0.089244984 0.084029675 0.3336713 4278190335
0.089286856 0.084151044 0.33415455 4278190335
0.089328721 0.084272414 0.33463779 4278190335
0.089370593 0.084393784 0.33512104 4278190335
0.089412466 0.084515154 0.33560425 4278190335
0.089454331 0.084636517 0.3360875 4278190335
0.089496203 0.084757887 0.33657074 4278190335
0.089538068 0.084879257 0.33705395 4278190335
0.08957994 0.085000627 0.3375372 4278190335
0.089621812 0.085121997 0.33802044 4278190335
0.089663677 0.085243367 0.33850366 4278190335
0.089705549 0.085364737 0.3389869 4278190335
0.089747414 0.085486107 0.33947015 4278190335
0.089789286 0.085607477 0.33995336 4278190335
0.089831159 0.085728846 0.34043661 4278190335
0.089873023 0.085850216 0.34091985 4278190335
0.089914896 0.085971586 0.3414031 4278190335
0.089956768 0.086092956 0.34188631 4278190335
0.089998633 0.086214326 0.34236956 4278190335
0.090040505 0.086335696 0.3428528 4278190335
0.09008237 0.086457066 0.34333602 4278190335
0.090124242 0.086578429 0.34381926 4278190335
0.090166114 0.086699799 0.34430251 4278190335
0.090207979 0.086821169 0.34478572 4278190335
0.090249851 0.086942539 0.34526896 4278190335
0.090291724 0.087063909 0.34575221 4278190335
0.090333588 0.087185279 0.34623542 4278190335
0.090375461 0.087306648 0.34671867 4278190335
0.090417325 0.087428018 0.34720191 4278190335
0.090459198 0.087549388 0.34768516 4278190335
0.09050107 0.087670758 0.34816837 4278190335
0.090542935 0.087792128 0.34865162 4278190335
0.090584807 0.087913498 0.34913486 4278190335
0.090626672 0.088034868 0.34961808 4278190335
0.090668544 0.088156238 0.35010132 4278190335
0.090710416 0.088277608 0.35058457 4278190335
0.090752281 0.088398978 0.35106778 4278190335
0.090794154 0.088520348 0.35155103 4278190335
0.090836026 0.088641711 0.35203427 4278190335
0.090877891 0.088763081 0.35251749 4278190335
0.090919763 0.08888445 0.35300073 4278190335
0.090961628 0.08900582 0.35348397 4278190335
0.0910035 0.08912719 0.35396719 4278190335
0.091045372 0.08924856 0.35445043 4278190335
0.091087237 0.08936993 0.35493368 4278190335
0.091129109 0.0894913 0.35541692 4278190335
0.091170982 0.08961267 0.35590014 4278190335
0.091212846 0.08973404 0.35638338 4278190335
0.091254719 0.08985541 0.35686663 4278190335
0.091296583 0.08997678 0.35734984 4278190335
0.091338456 0.09009815 0.35783309 4278190335
0.091380328 0.09021952 0.35831633 4278190335
0.091422193 0.09034089 0.35879955 4278190335
0.091464065 0.09046226 0.35928279 4278190335
0.09150593 0.090583622 0.35976604 4278190335
0.091547802 0.090704992 0.36024925 4278190335
0.091589674 0.090826362 0.3607325 4278190335
0.091631539 0.090947732 0.36121574 4278190335
0.091673411 0.091069102 0.36169899 4278190335
0.091715284 0.091190472 0.3621822 4278190335
0.091757149 0.091311842 0.36266544 4278190335
0.091799021 0.091433212 0.36314869 4278190335
0.091840886 0.091554582 0.3636319 4278190335
0.091882758 0.091675952 0.36411515 4278190335
0.09192463 0.091797322 0.36459839 4278190335
0.091966495 0.091918692 0.36508161 4278190335
0.092008367 0.092040062 0.36556485 4278190335
0.092050239 0.092161432 0.3660481 4278190335
0.092092104 0.092282802 0.36653131 4278190335
0.092133977 0.092404172 0.36701456 4278190335
0.092175841 0.092525542 0.3674978 4278190335
0.092217714 0.092646912 0.36798102 4278190335
0.092259586 0.092768274 0.36846426 4278190335
0.092301451 0.092889644 0.36894751 4278190335
0.092343323 0.093011014 0.36943072 4278190335
0.092385188 0.093132384 0.36991397 4278190335
0.09242706 0.093253754 0.37039721 4278190335
0.092468932 0.093375124 0.37088045 4278190335
0.092510797 0.093496494 0.37136367 4278190335
0.092552669 0.093617864 0.37184691 4278190335
0.088365726 0.081480913 0.32352337 4294967295
0.088114507 0.080752693 0.32062396 4294967295
0.087863296 0.080024481 0.31772456 4294967295
0.087612078 0.079296261 0.31482515 4294967295
0.087360859 0.078568041 0.31192571 4294967295
0.08710964 0.077839829 0.3090263 4294967295
0.086858429 0.077111609 0.30612689 4294967295
0.08660721 0.07638339 0.30322748 4294967295
0.086355992 0.075655177 0.30032808 4294967295
0.08610478 0.074926957 0.29742867 4294967295
0.085853562 0.074198738 0.29452926 4294967295
0.085602343 0.073470525 0.29162985 4294967295
0.085351132 0.072742306 0.28873044 4294967295
0.085099913 0.072014093 0.285831 4294967295
0.084848695 0.071285874 0.2829316 4294967295
0.084597476 0.070557654 0.28003219 4294967295
0.084346265 0.069829442 0.27713278 4294967295
0.084095046 0.069101222 0.27423337 4294967295
0.083843827 0.068373002 0.27133396 4294967295
0.083592616 0.06764479 0.26843452 4294967295
0.083341397 0.06691657 0.26553512 4294967295
0.083090179 0.06618835 0.26263571 4294967295
0.082838967 0.065460138 0.2597363 4294967295
0.082587749 0.064731918 0.25683689 4294967295
0.08233653 0.064003706 0.25393748 4294967295
0.082085311 0.063275486 0.25103807 4294967295
0.0818341 0.062547266 0.24813867 4294967295
0.081582882 0.061819047 0.24523924 4294967295
0.081331663 0.061090834 0.24233982 4294967295
0.081080452 0.060362615 0.23944041 4294967295
0.080829233 0.059634399 0.236541 4294967295
0.080578014 0.058906183 0.23364159 4294967295
0.080326803 0.058177963 0.23074219 4294967295
0.080075584 0.057449747 0.22784276 4294967295
0.079824366 0.056721531 0.22494335 4294967295
0.079573154 0.055993311 0.22204395 4294967295
0.079321936 0.055265095 0.21914452 4294967295
0.079070717 0.054536879 0.21624511 4294967295
0.078819498 0.053808659 0.21334571 4294967295
0.078568287 0.053080447 0.2104463 4294967295
0.078317069 0.052352227 0.20754689 4294967295
0.07806585 0.051624011 0.20464748 4294967295
0.077814639 0.050895795 0.20174807 4294967295
0.07756342 0.050167575 0.19884863 4294967295
0.077312201 0.049439359 0.19594924 4294967295
0.077060983 0.048711143 0.19304983 4294967295
0.076809771 0.047982924 0.19015041 4294967295
0.076558553 0.047254708 0.187251 4294967295
0.076307334 0.046526492 0.18435159 4294967295
0.076056123 0.045798272 0.18145217 4294967295
0.075804904 0.045070056 0.17855276 4294967295
0.075553685 0.04434184 0.17565335 4294967295
0.075302474 0.043613624 0.17275394 4294967295
0.075051256 0.042885408 0.16985454 4294967295
0.074800037 0.042157184 0.16695511 4294967295
0.074548826 0.041428968 0.16405569 4294967295
0.074297607 0.040700752 0.16115628 4294967295
0.074046388 0.039972536 0.15825687 4294967295
0.07379517 0.03924432 0.15535747 4294967295
0.073543958 0.038516104 0.15245806 4294967295
0.07329274 0.037787884 0.14955863 4294967295
0.073041521 0.037059665 0.14665923 4294967295
0.07279031 0.036331449 0.14375982 4294967295
0.072539091 0.035603233 0.14086041 4294967295
0.072287872 0.034875017 0.137961 4294967295
0.072036654 0.034146801 0.13506159 4294967295
0.071785443 0.033418581 0.13216215 4294967295
0.071534224 0.032690365 0.12926275 4294967295
0.071283013 0.031962145 0.12636334 4294967295
0.071031794 0.031233929 0.12346393 4294967295
0.070780575 0.030505713 0.12056452 4294967295
0.070529357 0.029777497 0.11766511 4294967295
0.070278138 0.029049277 0.11476569 4294967295
0.070026927 0.028321061 0.11186628 4294967295
0.069775708 0.027592845 0.10896687 4294967295
0.069524497 0.026864626 0.10606745 4294967295
0.069273278 0.026136409 0.10316804 4294967295
0.069022059 0.025408193 0.10026863 4294967295
0.068770841 0.024679977 0.097369224 4294967295
0.06851963 0.023951758 0.094469801 4294967295
0.068268411 0.023223542 0.091570392 4294967295
0.068017192 0.022495326 0.088670984 4294967295
0.067765981 0.02176711 0.085771576 4294967295
0.067514762 0.02103889 0.082872167 4294967295
0.067263544 0.020310674 0.079972759 4294967295
0.067012325 0.019582454 0.077073321 4294967295
0.066761114 0.018854238 0.074173912 4294967295
0.066509895 0.018126018 0.071274519 4294967295
0.066258684 0.017397806 0.068375111 4294967295
0.066007465 0.016669586 0.065475702 4294967295
0.065756246 0.015941374 0.062576294 4294967295
0.065505028 0.015213154 0.059676856 4294967295
0.065253809 0.014484935 0.056777447 4294967295
