# .PCD v0.7 - Point Cloud Data file format
VERSION 0.7
FIELDS x y z rgb
SIZE 4 4 4 4
TYPE F F F U
COUNT 1 1 1 1
WIDTH 1070
HEIGHT 1
VIEWPOINT 0 0 0 1 0 0 0
POINTS 1070
DATA ascii
0.064695403 0.020504417 0.35500002 4280561186
0.065848447 0.020504417 0.35500002 4281287985
0.066812746 0.020446656 0.354 4280631592
0.067962535 0.020446656 0.354 4280042022
0.053913798 0.021962887 0.36000001 4282405185
0.055083081 0.021962887 0.36000001 4282602564
0.056252364 0.021962887 0.36000001 4282799941
0.05742164 0.021962887 0.36000001 4282470976
0.058590923 0.021962887 0.36000001 4282076988
0.059760205 0.021962887 0.36000001 4280825126
0.060760234 0.021901879 0.35900003 4279904024
0.061753768 0.02184087 0.35800001 4280165913
0.06274081 0.021779863 0.35700002 4280495391
0.063721359 0.021718854 0.35600001 4280692770
0.064695403 0.021657847 0.35500002 4280363805
0.065848447 0.021657847 0.35500002 4280761895
0.066812746 0.021596838 0.354 4279909405
0.067962535 0.021596838 0.354 4279516957
0.053913798 0.023132564 0.36000001 4282865734
0.055083081 0.023132564 0.36000001 4282800195
0.056252364 0.023132564 0.36000001 4282800195
0.05742164 0.023132564 0.36000001 4282931781
0.058590923 0.023132564 0.36000001 4281746739
0.059760205 0.023132564 0.36000001 4280429598
0.060760234 0.023068309 0.35900003 4280429598
0.061753768 0.023004051 0.35800001 4280100631
0.06274081 0.022939794 0.35700002 4280232471
0.063721359 0.022875536 0.35600001 4279968786
0.064695403 0.022811281 0.35500002 4279837200
0.06566295 0.022747021 0.354 4279248654
0.066812746 0.022747021 0.354 4279646746
0.067770556 0.022682765 0.35300002 4279386141
0.053913798 0.024302242 0.36000001 4280101403
0.055083081 0.024302242 0.36000001 4279903252
0.056252364 0.024302242 0.36000001 4280363290
0.05742164 0.024302242 0.36000001 4282799943
0.058590923 0.024302242 0.36000001 4281878327
0.059760205 0.024302242 0.36000001 4280495389
0.060760234 0.024234736 0.35900003 4280034838
0.061753768 0.024167228 0.35800001 4279705360
0.06274081 0.024099724 0.35700002 4279836946
0.063721359 0.024032217 0.35600001 4279705614
0.064695403 0.023964711 0.35500002 4279837200
0.06566295 0.023897203 0.354 4279248654
0.066624016 0.023829699 0.35300002 4279516443
0.067770556 0.023829699 0.35300002 4279320859
0.068721868 0.023762193 0.35200003 4279715617
0.051431976 0.025401164 0.35900003 4282603584
0.053913798 0.025471918 0.36000001 4280232989
0.055083081 0.025471918 0.36000001 4280758050
0.056252364 0.025471918 0.36000001 4281482288
0.05742164 0.025471918 0.36000001 4283788123
0.058590923 0.025471918 0.36000001 4284051295
0.059760205 0.025471918 0.36000001 4281812019
0.060590982 0.025330408 0.35800001 4279902739
0.061581276 0.025259653 0.35700002 4279705360
0.062565066 0.025188897 0.35600001 4279836946
0.063542366 0.025118142 0.35500002 4279902993
0.064513162 0.025047386 0.354 4279902993
0.065477468 0.024976632 0.35300002 4279513109
0.066435277 0.024905877 0.35200003 4279187992
0.067578569 0.024905877 0.35200003 4279255066
0.068721868 0.024905877 0.35200003 4279386652
0.050265942 0.026567591 0.35900003 4282339896
0.052598011 0.026567591 0.35900003 4280036121
0.053913798 0.026641594 0.36000001 4280167196
0.055083081 0.026641594 0.36000001 4280100635
0.056252364 0.026641594 0.36000001 4284707174
0.05742164 0.026641594 0.36000001 4283787869
0.058590923 0.026641594 0.36000001 4283985502
0.059594207 0.026567591 0.35900003 4284313182
0.060590982 0.026493585 0.35800001 4279772436
0.061408777 0.026345577 0.35600001 4279836946
0.062389322 0.026271572 0.35500002 4279902739
0.063363373 0.026197568 0.354 4280034579
0.064330921 0.026123563 0.35300002 4279837713
0.065291978 0.02604956 0.35200003 4279446803
0.066435277 0.02604956 0.35200003 4279121685
0.067386582 0.025975555 0.35100001 4279058459
0.068526633 0.025975555 0.35100001 4279190045
0.04793388 0.027734019 0.35900003 4282602554
0.051431976 0.027734019 0.35900003 4280035090
0.052744523 0.027811272 0.36000001 4280034838
0.053913798 0.027811272 0.36000001 4280363803
0.055083081 0.027811272 0.36000001 4279706395
0.056252364 0.027811272 0.36000001 4284182116
0.05742164 0.027811272 0.36000001 4283919455
0.058590923 0.027811272 0.36000001 4283985248
0.059760205 0.027811272 0.36000001 4283853149
0.060421735 0.027579511 0.35700002 4281680950
0.061236281 0.027425004 0.35500002 4279902739
0.062037833 0.027270496 0.35300002 4279902739
0.063005388 0.027193245 0.35200003 4279837459
0.064148679 0.027193245 0.35200003 4279640850
0.065106489 0.027115989 0.35100001 4279578389
0.066246539 0.027115989 0.35100001 4279318551
0.067194603 0.027038736 0.35000002 4278860310
0.068331406 0.027038736 0.35000002 4279255068
0.069269724 0.026961481 0.34900001 4279386654
0.049099907 0.028900446 0.35900003 4280362256
0.050265942 0.028900446 0.35900003 4280033807
0.051431976 0.028900446 0.35900003 4280165395
0.052744523 0.028980948 0.36000001 4280034325
0.061063781 0.028497931 0.354 4279507211
0.061862092 0.028336927 0.35200003 4279902739
0.062826395 0.028256424 0.35100001 4279706643
0.063966438 0.028256424 0.35100001 4279642131
0.064920999 0.028175922 0.35000002 4279448084
0.066057809 0.028175922 0.35000002 4279516443
0.067194603 0.028175922 0.35000002 4278794517
0.068331406 0.028175922 0.35000002 4278794517
0.069269724 0.028095419 0.34900001 4278991896
0.07040327 0.028095419 0.34900001 4279452447
0.046767846 0.030066874 0.35900003 4280493583
0.04793388 0.030066874 0.35900003 4280493583
0.061686344 0.029396858 0.35100001 4279968532
0.062647402 0.029313108 0.35000002 4279575570
0.063784197 0.029313108 0.35000002 4279511061
0.064920999 0.029313108 0.35000002 4280566565
0.066057809 0.029313108 0.35000002 4279318551
0.067194603 0.029313108 0.35000002 4278662929
0.068136171 0.029229354 0.34900001 4278991896
0.069269724 0.029229354 0.34900001 4279189275
0.07040327 0.029229354 0.34900001 4279189275
0.071536824 0.029229354 0.34900001 4279320094
0.072670378 0.029229354 0.34900001 4279581984
0.073803931 0.029229354 0.34900001 4280698669
0.074937485 0.029229354 0.34900001 4283329365
0.076071039 0.029229354 0.34900001 4284907887
0.077204593 0.029229354 0.34900001 4285171573
0.062647402 0.030450294 0.35000002 4279641877
0.063784197 0.030450294 0.35000002 4279774746
0.064735509 0.030363292 0.34900001 4279975198
0.066057809 0.030450294 0.35000002 4279515930
0.067194603 0.030450294 0.35000002 4278794515
0.068331406 0.030450294 0.35000002 4278926103
0.069269724 0.030363292 0.34900001 4278795287
0.07040327 0.030363292 0.34900001 4280176940
0.071536824 0.030363292 0.34900001 4278202378
0.072670378 0.030363292 0.34900001 4278926101
0.073803931 0.030363292 0.34900001 4279320348
0.074937485 0.030363292 0.34900001 4279386141
0.076071039 0.030363292 0.34900001 4279976740
0.077204593 0.030363292 0.34900001 4279779361
0.078338139 0.030363292 0.34900001 4280173090
0.062647402 0.031587481 0.35000002 4279511063
0.063601956 0.031497229 0.34900001 4280434473
0.064735509 0.031497229 0.34900001 4279711772
0.066246539 0.03167773 0.35100001 4279646746
0.067194603 0.031587481 0.35000002 4278859027
0.068331406 0.031587481 0.35000002 4278925590
0.069468208 0.031587481 0.35000002 4278861078
0.070605002 0.031587481 0.35000002 4278729744
0.071741804 0.031587481 0.35000002 4281361210
0.072878607 0.031587481 0.35000002 4279255066
0.073803931 0.031497229 0.34900001 4278992664
0.074937485 0.031497229 0.34900001 4278795285
0.076071039 0.031497229 0.34900001 4278795287
0.077204593 0.031497229 0.34900001 4278860310
0.078338139 0.031497229 0.34900001 4278926103
0.063601956 0.032631166 0.34900001 4279908129
0.064735509 0.032631166 0.34900001 4279514393
0.066246539 0.032818165 0.35100001 4279712285
0.067386582 0.032818165 0.35100001 4279187478
0.068526633 0.032818165 0.35100001 4279319578
0.069666684 0.032818165 0.35100001 4279057174
0.070806727 0.032818165 0.35100001 4278926101
0.071741804 0.032724667 0.35000002 4278729492
0.072878607 0.032724667 0.35000002 4279255834
0.074015409 0.032724667 0.35000002 4278795283
0.074937485 0.032631166 0.34900001 4278729490
0.076071039 0.032631166 0.34900001 4278729492
0.077204593 0.032631166 0.34900001 4278861078
0.078338139 0.032631166 0.34900001 4278861078
0.095912807 0.031696178 0.33900002 4280238883
0.066624016 0.034152094 0.35300002 4279581723
0.067578569 0.034055348 0.35200003 4279319578
0.068721868 0.034055348 0.35200003 4279451164
0.069865167 0.034055348 0.35200003 4279057176
0.071008459 0.034055348 0.35200003 4279254555
0.071946777 0.033958599 0.35100001 4279781412
0.073086828 0.033958599 0.35100001 4278794517
0.074015409 0.033861853 0.35000002 4278662931
0.075152203 0.033861853 0.35000002 4278728724
0.076071039 0.033765104 0.34900001 4278794517
0.077204593 0.033765104 0.34900001 4278728724
0.078113675 0.033668354 0.34800002 4278662931
0.093434229 0.032700874 0.33800003 4278991381
0.09481173 0.032797623 0.33900002 4279188760
0.095912807 0.032797623 0.33900002 4278924818
0.097300053 0.032894369 0.34 4279319578
0.098404378 0.032894369 0.34 4279187992
0.099508688 0.032894369 0.34 4279385371
0.10090894 0.032991119 0.34100002 4279582236
0.1020165 0.032991119 0.34100002 4279779613
0.10312407 0.032991119 0.34100002 4279647512
0.10423165 0.032991119 0.34100002 4279384342
0.063721359 0.035599019 0.35600001 4279973660
0.064877644 0.035599019 0.35600001 4280105246
0.06603393 0.035599019 0.35600001 4279909916
0.066812746 0.035399023 0.354 4279515928
0.067962535 0.035399023 0.354 4279451162
0.068917103 0.035299029 0.35300002 4279516955
0.070063643 0.035299029 0.35300002 4279582748
0.071210191 0.035299029 0.35300002 4279649311
0.072151758 0.035199031 0.35200003 4279715104
0.073295057 0.035199031 0.35200003 4279517725
0.074226879 0.035099033 0.35100001 4279255068
0.075152203 0.034999039 0.35000002 4279255068
0.076071039 0.034899037 0.34900001 4278860310
0.077204593 0.034899037 0.34900001 4278991896
0.078113675 0.034799043 0.34800002 4278991896
0.078788556 0.034599047 0.34600002 4278991896
0.079681411 0.034499053 0.34500003 4278794517
0.080567755 0.034399055 0.34400001 4278728724
0.081447616 0.034299057 0.34300002 4278531345
0.082561679 0.034299057 0.34300002 4278728724
0.083675742 0.034299057 0.34300002 4278662931
0.087684907 0.033699073 0.33700001 4278794515
0.088779487 0.033699073 0.33700001 4278860308
0.089874066 0.033699073 0.33700001 4278860308
0.091238588 0.033799071 0.33800003 4278926101
0.092336401 0.033799071 0.33800003 4278662929
0.093434229 0.033799071 0.33800003 4278991892
0.09481173 0.033899069 0.33900002 4278860306
0.095912807 0.033899069 0.33900002 4278991892
0.097300053 0.033999063 0.34 4278991892
0.098404378 0.033999063 0.34 4278794513
0.099801362 0.034099061 0.34100002 4278531341
0.10090894 0.034099061 0.34100002 4278794002
0.1020165 0.034099061 0.34100002 4278859795
0.10312407 0.034099061 0.34100002 4278859795
0.10423165 0.034099061 0.34100002 4279122197
0.10533921 0.034099061 0.34100002 4278990611
0.10613462 0.033999063 0.34 4279319576
0.06274081 0.03685895 0.35700002 4279972125
0.063900352 0.03685895 0.35700002 4280763430
0.065059885 0.03685895 0.35700002 4279974428
0.06603393 0.0367557 0.35600001 4279909918
0.067001484 0.036652453 0.35500002 4279647516
0.068154521 0.036652453 0.35500002 4279516955
0.069307566 0.036652453 0.35500002 4279451162
0.070262127 0.036549207 0.354 4279648541
0.071411915 0.036549207 0.354 4279911713
0.072356731 0.03644596 0.35300002 4279649311
0.073295057 0.036342718 0.35200003 4279451932
0.074438356 0.036342718 0.35200003 4279254555
0.075366922 0.036239468 0.35100001 4278991383
0.076071039 0.036032975 0.34900001 4279057176
0.077204593 0.036032975 0.34900001 4279057176
0.078113675 0.035929732 0.34800002 4279188762
0.078788556 0.035723239 0.34600002 4279057176
0.079681411 0.035619993 0.34500003 4279057174
0.080801971 0.035619993 0.34500003 4279122197
0.081685066 0.035516743 0.34400001 4279319576
0.082561679 0.0354135 0.34300002 4279187992
0.083675742 0.0354135 0.34300002 4279188762
0.084542602 0.03531025 0.34200001 4278991383
0.085402973 0.035207007 0.34100002 4279320861
0.086256839 0.035103757 0.34 4278860310
0.087104224 0.035000514 0.33900002 4278662931
0.087945111 0.034897268 0.33800003 4278728724
0.089042932 0.034897268 0.33800003 4278794004
0.09014076 0.034897268 0.33800003 4278530832
0.091238588 0.034897268 0.33800003 4278728211
0.092336401 0.034897268 0.33800003 4278728209
0.093710653 0.035000514 0.33900002 4278859795
0.09481173 0.035000514 0.33900002 4278860308
0.096195728 0.035103757 0.34 4278794515
0.097300053 0.035103757 0.34 4278991892
0.098693803 0.035207007 0.34100002 4279057172
0.099801362 0.035207007 0.34100002 4278859793
0.10090894 0.035207007 0.34100002 4278991379
0.1020165 0.035207007 0.34100002 4278991379
0.10312407 0.035207007 0.34100002 4278925586
0.10423165 0.035207007 0.34100002 4278925586
0.10533921 0.035207007 0.34100002 4278859793
0.10613462 0.035103757 0.34 4278794000
0.062916555 0.03812537 0.35800001 4283195984
0.064079344 0.03812537 0.35800001 4280040221
0.065059885 0.038018879 0.35700002 4280040991
0.066219419 0.038018879 0.35700002 4279909918
0.067190222 0.03791238 0.35600001 4279779102
0.068346508 0.03791238 0.35600001 4279516955
0.069502793 0.03791238 0.35600001 4279516955
0.070659086 0.03791238 0.35600001 4279648541
0.071613647 0.037805885 0.35500002 4280043299
0.072561711 0.03769939 0.354 4279649313
0.073503278 0.037592895 0.35300002 4279320348
0.074438356 0.0374864 0.35200003 4279451164
0.075366922 0.037379902 0.35100001 4279319324
0.076289006 0.037273411 0.35000002 4279187738
0.077204593 0.037166912 0.34900001 4279451164
0.078113675 0.037060417 0.34800002 4279319578
0.079016268 0.036953922 0.347 4279385371
0.079912372 0.036847427 0.34600002 4279056404
0.080801971 0.036740933 0.34500003 4279319062
0.081922531 0.036740933 0.34500003 4278264839
0.082802385 0.036634434 0.34400001 4278856978
0.083675742 0.036527943 0.34300002 4278726673
0.084789813 0.036527943 0.34300002 4279187738
0.085653417 0.036421444 0.34200001 4279187738
0.086510539 0.036314949 0.34100002 4279319064
0.087361164 0.036208451 0.34 4279187992
0.0882053 0.03610196 0.33900002 4279254555
0.089306369 0.03610196 0.33900002 4278991129
0.090407446 0.03610196 0.33900002 4279188508
0.091508523 0.03610196 0.33900002 4278925336
0.092609584 0.03610196 0.33900002 4278925590
0.093710653 0.03610196 0.33900002 4278859797
0.09509141 0.036208451 0.34 4279057176
0.096195728 0.036208451 0.34 4279057174
0.097586237 0.036314949 0.34100002 4278925586
0.098693803 0.036314949 0.34100002 4278794002
0.10009404 0.036421444 0.34200001 4278728209
0.10120485 0.036421444 0.34200001 4278794002
0.10231567 0.036421444 0.34200001 4278267658
0.10342649 0.036421444 0.34200001 4279188760
0.10453731 0.036421444 0.34200001 4279188760
0.10564812 0.036421444 0.34200001 4279057174
0.10707111 0.036527943 0.34300002 4279254553
0.061267979 0.039727528 0.36200002 4284511079
0.062271263 0.039617784 0.36100003 4284445799
0.063092306 0.039398298 0.35900003 4284840811
0.064258337 0.039398298 0.35900003 4280499745
0.065242119 0.039288551 0.35800001 4280040991
0.066404909 0.039288551 0.35800001 4279647516
0.067378961 0.039178807 0.35700002 4279648029
0.068538494 0.039178807 0.35700002 4279582750
0.069698036 0.039178807 0.35700002 4279582748
0.07085757 0.039178807 0.35700002 4279911713
0.071815372 0.03906906 0.35600001 4280043299
0.072766684 0.038959317 0.35500002 4279516957
0.0737115 0.03884957 0.354 4279451164
0.074649826 0.038739827 0.35300002 4279319578
0.075581647 0.038630083 0.35200003 4279385371
0.076289006 0.038410597 0.35000002 4279187992
0.077204593 0.038300849 0.34900001 4279385371
0.078113675 0.038191106 0.34800002 4279451164
0.079016268 0.038081359 0.347 4279319578
0.080143325 0.038081359 0.347 4279122199
0.081036173 0.037971616 0.34600002 4279516443
0.081922531 0.037861872 0.34500003 4279710490
0.083043091 0.037861872 0.34500003 4279711004
0.083919697 0.037752125 0.34400001 4279384090
0.085037008 0.037752125 0.34400001 4279318297
0.085903868 0.037642382 0.34300002 4279515676
0.086764239 0.037532635 0.34200001 4279712539
0.087618113 0.037422892 0.34100002 4279647516
0.088725686 0.037422892 0.34100002 4279187478
0.089569807 0.037313148 0.34 4279187478
0.090674132 0.037313148 0.34 4279253271
0.09177845 0.037313148 0.34 4279253271
0.092882767 0.037313148 0.34 4279450650
0.094263524 0.037422892 0.34100002 4279516443
0.095371097 0.037422892 0.34100002 4279319064
0.096478663 0.037422892 0.34100002 4279582234
0.097872406 0.037532635 0.34200001 4279253269
0.098983228 0.037532635 0.34200001 4279319578
0.10038671 0.037642382 0.34300002 4279319578
0.10150078 0.037642382 0.34300002 4279122199
0.10261484 0.037642382 0.34300002 4279385371
0.10372891 0.037642382 0.34300002 4279187990
0.10484298 0.037642382 0.34300002 4279056402
0.10595704 0.037642382 0.34300002 4278990611
0.10707111 0.037642382 0.34300002 4278990611
0.1160735 0.037313148 0.34 4278925588
0.11752246 0.037422892 0.34100002 4278794002
0.11897792 0.037532635 0.34200001 4278727439
0.12043988 0.037642382 0.34300002 4279056404
0.12190833 0.037752125 0.34400001 4278859025
0.12302563 0.037752125 0.34400001 4278859025
0.12972951 0.037752125 0.34400001 4279253269
0.13084681 0.037752125 0.34400001 4279515928
0.13196413 0.037752125 0.34400001 4279647516
0.13643339 0.037752125 0.34400001 4280434725
0.1375507 0.037752125 0.34400001 4280565286
0.061267979 0.040903702 0.36200002 4284576874
0.062271263 0.040790711 0.36100003 4284445801
0.063268043 0.040677715 0.36000001 4284182627
0.064258337 0.040564723 0.35900003 4281156653
0.065424368 0.040564723 0.35900003 4280106014
0.066590399 0.040564723 0.35900003 4279779102
0.067567699 0.040451728 0.35800001 4279713822
0.068730474 0.040451728 0.35800001 4279188762
0.069893263 0.040451728 0.35800001 4279452447
0.07085757 0.040338736 0.35700002 4280109864
0.072017103 0.040338736 0.35700002 4279846692
0.072971664 0.040225741 0.35600001 4279649313
0.073919728 0.040112749 0.35500002 4279386141
0.074861296 0.039999753 0.354 4279320346
0.075581647 0.03977377 0.35200003 4279320346
0.076506972 0.039660774 0.35100001 4279319576
0.077425815 0.039547779 0.35000002 4279385369
0.078338139 0.039434783 0.34900001 4279385369
0.079243988 0.039321791 0.34800002 4279187990
0.080143325 0.039208796 0.347 4279319064
0.081270382 0.039208796 0.347 4278857746
0.082159981 0.039095804 0.34600002 4278853646
0.083283797 0.039095804 0.34600002 4278657802
0.084163651 0.038982812 0.34500003 4279318297
0.085284211 0.038982812 0.34500003 4278857746
0.086154319 0.038869817 0.34400001 4278852361
0.087017938 0.038756825 0.34300002 4278917127
0.088132001 0.038756825 0.34300002 4278655752
0.088985875 0.03864383 0.34200001 4278195714
0.09009669 0.03864383 0.34200001 4278657035
0.090940826 0.038530838 0.34100002 4278789388
0.092048392 0.038530838 0.34100002 4278856465
0.093429133 0.03864383 0.34200001 4279317016
0.094539955 0.03864383 0.34200001 4279119635
0.09565077 0.03864383 0.34200001 4279449367
0.09704452 0.038756825 0.34300002 4279646746
0.09815859 0.038756825 0.34300002 4279449367
0.099272653 0.038756825 0.34300002 4279384344
0.10067938 0.038869817 0.34400001 4279384344
0.10179669 0.038869817 0.34400001 4279253271
0.10291401 0.038869817 0.34400001 4279450650
0.10403132 0.038869817 0.34400001 4279319064
0.10514864 0.038869817 0.34400001 4279450648
0.10626595 0.038869817 0.34400001 4279582232
0.10738327 0.038869817 0.34400001 4279450648
0.10850057 0.038869817 0.34400001 4279122199
0.10961788 0.038869817 0.34400001 4279187992
0.1124289 0.03830485 0.33900002 4279253269
0.11352996 0.03830485 0.33900002 4279121683
0.1160735 0.038417842 0.34 4278661646
0.11752246 0.038530838 0.34100002 4278728211
0.11897792 0.03864383 0.34200001 4278925588
0.12043988 0.038756825 0.34300002 4279254551
0.12190833 0.038869817 0.34400001 4279385367
0.12302563 0.038869817 0.34400001 4279319576
0.12450383 0.038982812 0.34500003 4279122195
0.12562439 0.038982812 0.34500003 4278990609
0.12674496 0.038982812 0.34500003 4279319060
0.12786552 0.038982812 0.34500003 4278990095
0.12898608 0.038982812 0.34500003 4279055890
0.12972951 0.038869817 0.34400001 4279187476
0.13084681 0.038869817 0.34400001 4278792718
0.13196413 0.038869817 0.34400001 4278990097
0.13346832 0.038982812 0.34500003 4278858511
0.13458888 0.038982812 0.34500003 4279121683
0.13531607 0.038869817 0.34400001 4279516441
0.13643339 0.038869817 0.34400001 4279516443
0.1375507 0.038869817 0.34400001 4279648029
0.13907112 0.038982812 0.34500003 4279779102
0.14019169 0.038982812 0.34500003 4280238370
0.14131224 0.038982812 0.34500003 4280171807
0.061267979 0.042079877 0.36200002 4284642667
0.062271263 0.041963637 0.36100003 4284511081
0.063268043 0.041847393 0.36000001 4284445801
0.06443733 0.041847393 0.36000001 4284117858
0.065424368 0.041731153 0.35900003 4280039455
0.066590399 0.041731153 0.35900003 4279911201
0.067567699 0.041614905 0.35800001 4279582750
0.068730474 0.041614905 0.35800001 4279517727
0.069893263 0.041614905 0.35800001 4279715106
0.071056046 0.041614905 0.35800001 4279912485
0.072017103 0.041498665 0.35700002 4279780645
0.072971664 0.041382421 0.35600001 4279320094
0.073919728 0.041266181 0.35500002 4279451934
0.074861296 0.041149933 0.354 4279188762
0.075796366 0.041033693 0.35300002 4279188762
0.076724946 0.040917452 0.35200003 4279122199
0.077425815 0.040684965 0.35000002 4279319578
0.07856261 0.040684965 0.35000002 4279319578
0.079471692 0.040568721 0.34900001 4279319064
0.080374293 0.04045248 0.34800002 4279319064
0.081504591 0.04045248 0.34800002 4278856465
0.082397439 0.040336236 0.347 4278920720
0.083524495 0.040336236 0.347 4279514141
0.084407598 0.040219992 0.34600002 4279580188
0.085531406 0.040219992 0.34600002 4278920461
0.086404771 0.040103752 0.34500003 4279180303
0.08752533 0.040103752 0.34500003 4279640854
0.088388942 0.039987508 0.34400001 4278982924
0.089506261 0.039987508 0.34400001 4278982922
0.090360135 0.039871268 0.34300002 4278982922
0.091474198 0.039871268 0.34300002 4278983437
0.092588268 0.039871268 0.34300002 4279114769
0.093702324 0.039871268 0.34300002 4278982670
0.094816387 0.039871268 0.34300002 4278786572
0.09621013 0.039987508 0.34400001 4278852365
0.097327448 0.039987508 0.34400001 4278721545
0.09844476 0.039987508 0.34400001 4278589959
0.099851504 0.040103752 0.34500003 4278590472
0.10097206 0.040103752 0.34500003 4278657035
0.10209262 0.040103752 0.34500003 4279251482
0.10321318 0.040103752 0.34500003 4279120920
0.10433374 0.040103752 0.34500003 4279449113
0.1054543 0.040103752 0.34500003 4279909918
0.10657487 0.040103752 0.34500003 4279449367
0.10769543 0.040103752 0.34500003 4279384344
0.10881598 0.040103752 0.34500003 4279253271
0.10993654 0.040103752 0.34500003 4279450650
0.11073519 0.039987508 0.34400001 4279318551
0.11185251 0.039987508 0.34400001 4279581723
0.11264143 0.039871268 0.34300002 4279581723
0.1130922 0.03963878 0.34100002 4279384344
0.11419976 0.03963878 0.34100002 4279318551
0.11530732 0.03963878 0.34100002 4279318551
0.1164149 0.03963878 0.34100002 4279319064
0.1178671 0.03975502 0.34200001 4279187478
0.11932582 0.039871268 0.34300002 4279253269
0.12079101 0.039987508 0.34400001 4279319062
0.12190833 0.039987508 0.34400001 4279187476
0.12338327 0.040103752 0.34500003 4279121683
0.12450383 0.040103752 0.34500003 4278397958
0.12562439 0.040103752 0.34500003 4278858509
0.12674496 0.040103752 0.34500003 4279122195
0.12786552 0.040103752 0.34500003 4279122195
0.12898608 0.040103752 0.34500003 4279187990
0.13010664 0.040103752 0.34500003 4279516955
0.1312272 0.040103752 0.34500003 4279319576
0.13234776 0.040103752 0.34500003 4279319576
0.13346832 0.040103752 0.34500003 4278859027
0.13458888 0.040103752 0.34500003 4278990097
0.13570945 0.040103752 0.34500003 4279186963
0.13683 0.040103752 0.34500003 4279055377
0.13795055 0.040103752 0.34500003 4278792205
0.13907112 0.040103752 0.34500003 4279121170
0.14019169 0.040103752 0.34500003 4279252756
0.14131224 0.040103752 0.34500003 4279318549
0.14243281 0.040103752 0.34500003 4279647514
0.061267979 0.043256052 0.36200002 4284445801
0.062271263 0.043136563 0.36100003 4284577387
0.063268043 0.043017067 0.36000001 4284380008
0.06443733 0.043017067 0.36000001 4284116834
0.065424368 0.042897578 0.35900003 4284643432
0.066590399 0.042897578 0.35900003 4279778080
0.067567699 0.042778086 0.35800001 4279910947
0.068730474 0.042778086 0.35800001 4279648289
0.069893263 0.042778086 0.35800001 4280109610
0.07085757 0.042658594 0.35700002 4279912231
0.072017103 0.042658594 0.35700002 4279714852
0.072971664 0.042539101 0.35600001 4279386141
0.073919728 0.042419609 0.35500002 4279320348
0.074861296 0.042300116 0.354 4279319578
0.075796366 0.042180628 0.35300002 4279451164
0.076724946 0.042061135 0.35200003 4279320348
0.077647023 0.041941643 0.35100001 4279254555
0.07856261 0.04182215 0.35000002 4279713822
0.079471692 0.041702658 0.34900001 4279319064
0.080605246 0.041702658 0.34900001 4279382809
0.081504591 0.041583166 0.34800002 4278394376
0.082634896 0.041583166 0.34800002 4279447580
0.083765201 0.041583166 0.34800002 4279712033
0.084651552 0.041463673 0.347 4279711520
0.085778609 0.041463673 0.347 4278655754
0.086655214 0.041344184 0.34600002 4279707160
0.087779023 0.041344184 0.34600002 4279181330
0.088902831 0.041344184 0.34600002 4279511065
0.089766458 0.041224692 0.34500003 4278984719
0.090887018 0.041224692 0.34500003 4279970844
0.092007577 0.041224692 0.34500003 4279181330
0.093128145 0.041224692 0.34500003 4279181328
0.094248697 0.041224692 0.34500003 4280826153
0.095369257 0.041224692 0.34500003 4279707672
0.096489817 0.041224692 0.34500003 4279312402
0.097610384 0.041224692 0.34500003 4279246607
0.099017113 0.041344184 0.34600002 4278917642
0.10014093 0.041344184 0.34600002 4278917642
0.10126472 0.041344184 0.34600002 4279049744
0.10238854 0.041344184 0.34600002 4279842590
0.10351235 0.041344184 0.34600002 4279843360
0.10463616 0.041344184 0.34600002 4279908383
0.10575996 0.041344184 0.34600002 4279579418
0.10688378 0.041344184 0.34600002 4278527500
0.10800759 0.041344184 0.34600002 4278197507
0.10913139 0.041344184 0.34600002 4278329351
0.1102552 0.041344184 0.34600002 4278658314
0.1110571 0.041224692 0.34500003 4279118865
0.11217767 0.041224692 0.34500003 4279250451
0.11296982 0.0411052 0.34400001 4279514647
0.11375549 0.040985707 0.34300002 4279646746
0.11453465 0.040866215 0.34200001 4279515160
0.11564547 0.040866215 0.34200001 4279515160
0.11675628 0.040866215 0.34200001 4279646746
0.11821175 0.040985707 0.34300002 4279318551
0.11932582 0.040985707 0.34300002 4279450650
0.12079101 0.0411052 0.34400001 4279384344
0.12190833 0.0411052 0.34400001 4279384344
0.12338327 0.041224692 0.34500003 4279581721
0.12450383 0.041224692 0.34500003 4279515156
0.12562439 0.041224692 0.34500003 4279383570
0.12674496 0.041224692 0.34500003 4279121683
0.12786552 0.041224692 0.34500003 4279253269
0.12898608 0.041224692 0.34500003 4279055892
0.13010664 0.041224692 0.34500003 4278858513
0.1312272 0.041224692 0.34500003 4278858513
0.13234776 0.041224692 0.34500003 4279055892
0.13346832 0.041224692 0.34500003 4279253271
0.13458888 0.041224692 0.34500003 4279516443
0.13570945 0.041224692 0.34500003 4279450650
0.13683 0.041224692 0.34500003 4279581721
0.13795055 0.041224692 0.34500003 4279976479
0.13907112 0.041224692 0.34500003 4279318549
0.14019169 0.041224692 0.34500003 4279318549
0.14172184 0.041344184 0.34600002 4279384342
0.14284565 0.041344184 0.34600002 4279121170
0.14396946 0.041344184 0.34600002 4279384342
0.062271263 0.044309489 0.36100003 4284511592
0.063268043 0.044186745 0.36000001 4284182627
0.064258337 0.044064008 0.35900003 4284248422
0.065242119 0.043941263 0.35800001 4284182629
0.066404909 0.043941263 0.35800001 4284182881
0.067378961 0.043818522 0.35700002 4281223477
0.068538494 0.043818522 0.35700002 4280042022
0.069502793 0.043695781 0.35600001 4280568366
0.070659086 0.043695781 0.35600001 4280239914
0.071815372 0.043695781 0.35600001 4279976742
0.072766684 0.043573041 0.35500002 4279648029
0.0737115 0.0434503 0.354 4279582750
0.074861296 0.0434503 0.354 4279582750
0.075796366 0.043327559 0.35300002 4279451164
0.076724946 0.043204818 0.35200003 4279516957
0.077647023 0.043082077 0.35100001 4279451164
0.07856261 0.042959336 0.35000002 4279385371
0.079699412 0.042959336 0.35000002 4279450650
0.080605246 0.042836595 0.34900001 4279645211
0.0817388 0.042836595 0.34900001 4279381525
0.082872353 0.042836595 0.34900001 4279514141
0.083765201 0.042713854 0.34800002 4279515678
0.084895507 0.042713854 0.34800002 4278460171
0.086025812 0.042713854 0.34800002 4279115535
0.086905658 0.04259111 0.347 4279048717
0.088032715 0.04259111 0.347 4279048717
0.089159779 0.04259111 0.347 4278851851
0.090026647 0.042468373 0.34600002 4279246607
0.091150455 0.042468373 0.34600002 4279247121
0.092274264 0.042468373 0.34600002 4279049742
0.093398072 0.042468373 0.34600002 4280233502
0.094521873 0.042468373 0.34600002 4279115021
0.095645688 0.042468373 0.34600002 4279049742
0.096769497 0.042468373 0.34600002 4279511063
0.098176233 0.04259111 0.347 4279774235
0.09930329 0.04259111 0.347 4278984719
0.10043035 0.04259111 0.347 4279180814
0.1015574 0.04259111 0.347 4280234016
0.10268445 0.04259111 0.347 4279711004
0.10381151 0.04259111 0.347 4279842588
0.10493857 0.04259111 0.347 4279184660
0.10606562 0.04259111 0.347 4278920974
0.10719269 0.04259111 0.347 4278592009
0.10831974 0.04259111 0.347 4279645209
0.10944679 0.04259111 0.347 4279580186
0.1102552 0.042468373 0.34600002 4279514393
0.11137901 0.042468373 0.34600002 4280302625
0.11250281 0.042468373 0.34600002 4280434211
0.11329823 0.042345632 0.34500003 4279973660
0.11408714 0.042222891 0.34400001 4279513109
0.11520445 0.042222891 0.34400001 4279381523
0.11632176 0.042222891 0.34400001 4278920972
0.11743907 0.042222891 0.34400001 4278723082
0.11855639 0.042222891 0.34400001 4278592009
0.1196737 0.042222891 0.34400001 4278855181
0.12114216 0.042345632 0.34500003 4279447832
0.12226272 0.042345632 0.34500003 4279251223
0.12338327 0.042345632 0.34500003 4279580186
0.12450383 0.042345632 0.34500003 4279514647
0.12598851 0.042468373 0.34600002 4279645463
0.12711233 0.042468373 0.34600002 4279514647
0.12823614 0.042468373 0.34600002 4279514647
0.12935995 0.042468373 0.34600002 4279515160
0.13048376 0.042468373 0.34600002 4279646746
0.13160756 0.042468373 0.34600002 4279449367
0.13273136 0.042468373 0.34600002 4279449367
0.13385518 0.042468373 0.34600002 4279646746
0.13497899 0.042468373 0.34600002 4279515160
0.1361028 0.042468373 0.34600002 4279186963
0.13722661 0.042468373 0.34600002 4279318549
0.13835041 0.042468373 0.34600002 4279121170
0.13947421 0.042468373 0.34600002 4278923791
0.14059803 0.042468373 0.34600002 4279252756
0.14172184 0.042468373 0.34600002 4279515928
0.14284565 0.042468373 0.34600002 4279121170
0.14396946 0.042468373 0.34600002 4278857998
0.063268043 0.045356423 0.36000001 4284116834
0.064258337 0.045230437 0.35900003 4284182627
0.065242119 0.045104444 0.35800001 4284116834
0.066219419 0.044978455 0.35700002 4283919455
0.067001484 0.044726476 0.35500002 4283854432
0.068154521 0.044726476 0.35500002 4284710768
0.069307566 0.044726476 0.35500002 4283855459
0.07046061 0.044726476 0.35500002 4280895024
0.071411915 0.044600483 0.354 4279777313
0.072561711 0.044600483 0.354 4280107045
0.073503278 0.044474494 0.35300002 4279843873
0.074649826 0.044474494 0.35300002 4279844641
0.075581647 0.044348504 0.35200003 4279713568
0.076724946 0.044348504 0.35200003 4279582496
0.077647023 0.044222515 0.35100001 4279582496
0.07856261 0.044096526 0.35000002 4279582750
0.079699412 0.044096526 0.35000002 4279516443
0.080836214 0.044096526 0.35000002 4278856465
0.0817388 0.043970533 0.34900001 4279119637
0.082872353 0.043970533 0.34900001 4279713057
0.084005907 0.043970533 0.34900001 4279581982
0.085139453 0.043970533 0.34900001 4279843873
0.086025812 0.043844543 0.34800002 4279843360
0.08715611 0.043844543 0.34800002 4279643930
0.088286422 0.043844543 0.34800002 4279051025
0.089159779 0.04371855 0.347 4279050512
0.090286836 0.04371855 0.347 4279049742
0.091413893 0.04371855 0.347 4279048715
0.09254095 0.04371855 0.347 4279048715
0.093668006 0.04371855 0.347 4279246094
0.094795056 0.04371855 0.347 4278982922
0.095922112 0.04371855 0.347 4278983437
0.097049169 0.04371855 0.347 4278786570
0.098176233 0.04371855 0.347 4278786570
0.09930329 0.04371855 0.347 4279180814
0.10071978 0.043844543 0.34800002 4278983949
0.10185007 0.043844543 0.34800002 4280038688
0.10298038 0.043844543 0.34800002 4279842588
0.10411069 0.043844543 0.34800002 4278657802
0.10524099 0.043844543 0.34800002 4278983951
0.10606562 0.04371855 0.347 4279115023
0.10719269 0.04371855 0.347 4279049742
0.10831974 0.04371855 0.347 4279576856
0.10944679 0.04371855 0.347 4279249424
0.11057385 0.04371855 0.347 4279710488
0.11170091 0.04371855 0.347 4280499491
0.11282796 0.04371855 0.347 4279315217
0.11362663 0.043592565 0.34600002 4279644695
0.11441879 0.043466575 0.34500003 4279249937
0.11553934 0.043466575 0.34500003 4278723593
0.11665991 0.043466575 0.34500003 4279776281
0.11778047 0.043466575 0.34500003 4279711002
0.11890103 0.043466575 0.34500003 4279842588
0.1200216 0.043466575 0.34500003 4279908635
0.12114216 0.043466575 0.34500003 4279908635
0.1226171 0.043592565 0.34600002 4279710490
0.1237409 0.043592565 0.34600002 4280039453
0.1248647 0.043592565 0.34600002 4279578902
0.12598851 0.043592565 0.34600002 4279118351
0.12711233 0.043592565 0.34600002 4278460423
0.12823614 0.043592565 0.34600002 4278197251
0.12935995 0.043592565 0.34600002 4278855179
0.13048376 0.043592565 0.34600002 4279118351
0.13198793 0.04371855 0.347 4279381523
0.13311498 0.04371855 0.347 4279710742
0.13424204 0.04371855 0.347 4279513877
0.13536909 0.04371855 0.347 4279448854
0.13649616 0.04371855 0.347 4279646744
0.13762322 0.04371855 0.347 4279646744
0.13875026 0.04371855 0.347 4279515158
0.13987732 0.04371855 0.347 4279515158
0.14100438 0.04371855 0.347 4279318551
0.14213143 0.04371855 0.347 4279318549
0.1432585 0.04371855 0.347 4279318549
0.14438555 0.04371855 0.347 4279121170
0.065059885 0.046138383 0.35700002 4284182114
0.06603393 0.046009142 0.35600001 4283984735
0.066624016 0.045621425 0.35300002 4284511079
0.067770556 0.045621425 0.35300002 4284511592
0.068917103 0.045621425 0.35300002 4284511592
0.070063643 0.045621425 0.35300002 4284512362
0.071210191 0.045621425 0.35300002 4284578155
0.072151758 0.045492187 0.35200003 4285105012
0.073295057 0.045492187 0.35200003 4285039733
0.074226879 0.045362946 0.35100001 4284711022
0.075581647 0.045492187 0.35200003 4284184164
0.076506972 0.045362946 0.35100001 4282671437
0.077647023 0.045362946 0.35100001 4281158966
0.07856261 0.045233708 0.35000002 4280435243
0.079699412 0.045233708 0.35000002 4279513371
0.080836214 0.045233708 0.35000002 4279579418
0.081973009 0.045233708 0.35000002 4280238118
0.082872353 0.045104466 0.34900001 4279647262
0.084005907 0.045104466 0.34900001 4279844641
0.085139453 0.045104466 0.34900001 4279976227
0.086273007 0.045104466 0.34900001 4280042020
0.08715611 0.044975229 0.34800002 4279713055
0.088286422 0.044975229 0.34800002 4279778848
0.089416727 0.044975229 0.34800002 4279778080
0.090547033 0.044975229 0.34800002 4279778080
0.091413893 0.044845987 0.347 4279974944
0.09254095 0.044845987 0.347 4279974174
0.093668006 0.044845987 0.347 4280434213
0.094795056 0.044845987 0.347 4279907356
0.096198551 0.044975229 0.34800002 4279445781
0.097328857 0.044975229 0.34800002 4278984717
0.098459162 0.044975229 0.34800002 4279247121
0.099589467 0.044975229 0.34800002 4278983949
0.10071978 0.044975229 0.34800002 4280038688
0.10185007 0.044975229 0.34800002 4279710490
0.10298038 0.044975229 0.34800002 4279645209
0.10411069 0.044975229 0.34800002 4280236321
0.10524099 0.044975229 0.34800002 4279115535
0.1063713 0.044975229 0.34800002 4279443988
0.1075016 0.044975229 0.34800002 4279576854
0.10863191 0.044975229 0.34800002 4280366883
0.10976221 0.044975229 0.34800002 4278986000
0.11089251 0.044975229 0.34800002 4279709205
0.11202282 0.044975229 0.34800002 4279709459
0.11282796 0.044845987 0.347 4279906838
0.11395502 0.044845987 0.347 4279578389
0.11508209 0.044845987 0.347 4279842076
0.11587424 0.044716749 0.34600002 4279711004
0.11699805 0.044716749 0.34600002 4278987281
0.11812185 0.044716749 0.34600002 4279579156
0.11924567 0.044716749 0.34600002 4279710742
0.12036948 0.044716749 0.34600002 4279184398
0.12149329 0.044716749 0.34600002 4279776281
0.1226171 0.044716749 0.34600002 4279578902
0.1237409 0.044716749 0.34600002 4279974174
0.1248647 0.044716749 0.34600002 4279842842
0.12635264 0.044845987 0.347 4279579670
0.1274797 0.044845987 0.347 4279711256
0.12860675 0.044845987 0.347 4279842842
0.12973382 0.044845987 0.347 4279842842
0.13086088 0.044845987 0.347 4279645463
0.13198793 0.044845987 0.347 4279842842
0.13311498 0.044845987 0.347 4279645463
0.13462891 0.044975229 0.34800002 4279249424
0.13575922 0.044975229 0.34800002 4279578904
0.13688952 0.044975229 0.34800002 4279777817
0.13801983 0.044975229 0.34800002 4279383572
0.13915013 0.044975229 0.34800002 4279712537
0.13987732 0.044845987 0.347 4279778330
0.14100438 0.044845987 0.347 4279449367
0.14213143 0.044845987 0.347 4279515160
0.1432585 0.044845987 0.347 4279646744
0.14438555 0.044845987 0.347 4279844123
0.064550027 0.046105918 0.34800002 4283589977
0.066246539 0.046503384 0.35100001 4284313700
0.067386582 0.046503384 0.35100001 4284577385
0.068526633 0.046503384 0.35100001 4284708971
0.069666684 0.046503384 0.35100001 4284708971
0.070806727 0.046503384 0.35100001 4284708971
0.071946777 0.046503384 0.35100001 4284841327
0.072878607 0.046370897 0.35000002 4284775534
0.074015409 0.046370897 0.35000002 4284709741
0.075366922 0.046503384 0.35100001 4284775534
0.076289006 0.046370897 0.35000002 4284775534
0.077425815 0.046370897 0.35000002 4284775534
0.07856261 0.046370897 0.35000002 4284841840
0.079699412 0.046370897 0.35000002 4284907633
0.080836214 0.046370897 0.35000002 4285433977
0.081973009 0.046370897 0.35000002 4285236600
0.082872353 0.046238404 0.34900001 4285434491
0.084005907 0.046238404 0.34900001 4284645229
0.085139453 0.046238404 0.34900001 4283131988
0.086273007 0.046238404 0.34900001 4280895796
0.08715611 0.046105918 0.34800002 4279843106
0.088286422 0.046105918 0.34800002 4279251223
0.089416727 0.046105918 0.34800002 4279909666
0.090547033 0.046105918 0.34800002 4279713057
0.091677338 0.046105918 0.34800002 4279976481
0.092807643 0.046105918 0.34800002 4279844893
0.093937948 0.046105918 0.34800002 4279844893
0.095068246 0.046105918 0.34800002 4279779100
0.096198551 0.046105918 0.34800002 4280107295
0.097328857 0.046105918 0.34800002 4279975709
0.098459162 0.046105918 0.34800002 4279909918
0.099589467 0.046105918 0.34800002 4279778078
0.10071978 0.046105918 0.34800002 4279975457
0.10185007 0.046105918 0.34800002 4279909151
0.10298038 0.046105918 0.34800002 4279974946
0.10411069 0.046105918 0.34800002 4279843360
0.10524099 0.046105918 0.34800002 4279315732
0.1063713 0.046105918 0.34800002 4279249426
0.1075016 0.046105918 0.34800002 4278920461
0.10863191 0.046105918 0.34800002 4278262531
0.10976221 0.046105918 0.34800002 4279315219
0.11089251 0.046105918 0.34800002 4279644184
0.11202282 0.046105918 0.34800002 4280368159
0.11315312 0.046105918 0.34800002 4279841815
0.11428343 0.046105918 0.34800002 4280499491
0.11508209 0.045973428 0.347 4279775768
0.11620913 0.045973428 0.347 4279644695
0.11733619 0.045973428 0.347 4280302625
0.11846325 0.045973428 0.347 4279710490
0.1195903 0.045973428 0.347 4279249937
0.12071736 0.045973428 0.347 4279184144
0.12149329 0.045840941 0.34600002 4278920461
0.12297148 0.045973428 0.347 4279775770
0.12409852 0.045973428 0.347 4279644697
0.12522559 0.045973428 0.347 4279842590
0.12635264 0.045973428 0.347 4278263558
0.1274797 0.045973428 0.347 4279381523
0.12860675 0.045973428 0.347 4278723593
0.1301077 0.046105918 0.34800002 4279315217
0.131238 0.046105918 0.34800002 4279973914
0.1323683 0.046105918 0.34800002 4279711256
0.13349861 0.046105918 0.34800002 4279513877
0.13462891 0.046105918 0.34800002 4279051275
0.13614932 0.046238404 0.34900001 4279842074
0.13728288 0.046238404 0.34900001 4279777817
0.13841644 0.046238404 0.34900001 4279712024
0.13915013 0.046105918 0.34800002 4279514645
0.14028043 0.046105918 0.34800002 4279580438
0.14141074 0.046105918 0.34800002 4279712024
0.14254104 0.046105918 0.34800002 4279712026
0.14367135 0.046105918 0.34800002 4279580440
0.14480166 0.046105918 0.34800002 4279975198
0.064550027 0.047236603 0.34800002 4284313702
0.066057809 0.04750808 0.35000002 4284642667
0.067194603 0.04750808 0.35000002 4284708458
0.068331406 0.04750808 0.35000002 4284708971
0.069468208 0.04750808 0.35000002 4284840557
0.070605002 0.04750808 0.35000002 4284972143
0.071741804 0.04750808 0.35000002 4285103729
0.072462156 0.047236603 0.34800002 4285037936
0.073803931 0.047372341 0.34900001 4285103731
0.076289006 0.04750808 0.35000002 4285301110
0.077425815 0.04750808 0.35000002 4285038708
0.07856261 0.04750808 0.35000002 4285038706
0.079699412 0.04750808 0.35000002 4285170292
0.080836214 0.04750808 0.35000002 4285301108
0.081973009 0.04750808 0.35000002 4285103729
0.083109811 0.04750808 0.35000002 4285169522
0.084005907 0.047372341 0.34900001 4285301108
0.085139453 0.047372341 0.34900001 4285301108
0.086273007 0.047372341 0.34900001 4285103729
0.087406561 0.047372341 0.34900001 4285170292
0.088286422 0.047236603 0.34800002 4285301878
0.089416727 0.047236603 0.34800002 4285368438
0.090547033 0.047236603 0.34800002 4285697403
0.091677338 0.047236603 0.34800002 4285303157
0.092807643 0.047236603 0.34800002 4284250469
0.093937948 0.047236603 0.34800002 4282672205
0.095068246 0.047236603 0.34800002 4281092403
0.096198551 0.047236603 0.34800002 4279908383
0.097328857 0.047236603 0.34800002 4279645211
0.098459162 0.047236603 0.34800002 4279448602
0.099875644 0.047372341 0.34900001 4279843873
0.1010092 0.047372341 0.34900001 4279975459
0.10214274 0.047372341 0.34900001 4279975459
0.10298038 0.047236603 0.34800002 4279975457
0.10411069 0.047236603 0.34800002 4279909664
0.10524099 0.047236603 0.34800002 4279843871
0.1063713 0.047236603 0.34800002 4279843871
0.1075016 0.047236603 0.34800002 4279778078
0.10863191 0.047236603 0.34800002 4279909151
0.11007761 0.047372341 0.34900001 4279843358
0.11089251 0.047236603 0.34800002 4280040737
0.11202282 0.047236603 0.34800002 4280171553
0.11315312 0.047236603 0.34800002 4279710488
0.11428343 0.047236603 0.34800002 4279315732
0.11541373 0.047236603 0.34800002 4279117840
0.11654403 0.047236603 0.34800002 4278854668
0.11767434 0.047236603 0.34800002 4279249426
0.11846325 0.047100864 0.347 4279446805
0.1195903 0.047100864 0.347 4279578904
0.12071736 0.047100864 0.347 4279644697
0.12184442 0.047100864 0.347 4280039455
0.12297148 0.047100864 0.347 4279841563
0.12409852 0.047100864 0.347 4279841563
0.12522559 0.047100864 0.347 4279644697
0.12635264 0.047100864 0.347 4279842590
0.12784709 0.047236603 0.34800002 4279578902
0.12897739 0.047236603 0.34800002 4279446803
0.1301077 0.047236603 0.34800002 4278986252
0.13161512 0.047372341 0.34900001 4280039707
0.13274866 0.047372341 0.34900001 4279842842
0.13388221 0.047372341 0.34900001 4279248654
0.13501577 0.047372341 0.34900001 4279709205
0.13614932 0.047372341 0.34900001 4279973660
0.13728288 0.047372341 0.34900001 4279843612
0.13841644 0.047372341 0.34900001 4279580440
0.13954997 0.047372341 0.34900001 4279777817
0.14068353 0.047372341 0.34900001 4279909403
0.14181708 0.047372341 0.34900001 4279712024
0.14295064 0.047372341 0.34900001 4279974426
0.14367135 0.047236603 0.34800002 4280171291
0.14480166 0.047236603 0.34800002 4280566049
0.065869063 0.048506279 0.34900001 4284577387
0.067002617 0.048506279 0.34900001 4284708973
0.068136171 0.048506279 0.34900001 4284906350
0.069269724 0.048506279 0.34900001 4284906350
0.070605002 0.048645265 0.35000002 4284906352
0.071741804 0.048645265 0.35000002 4285103731
0.072253928 0.048228305 0.347 4285103731
0.073803931 0.048506279 0.34900001 4285301110
0.076289006 0.048645265 0.35000002 4285366903
0.077425815 0.048645265 0.35000002 4285301880
0.07856261 0.048645265 0.35000002 4285367671
0.079699412 0.048645265 0.35000002 4285366901
0.080836214 0.048645265 0.35000002 4285366901
0.081973009 0.048645265 0.35000002 4285301108
0.083109811 0.048645265 0.35000002 4285301108
0.084246613 0.048645265 0.35000002 4285432694
0.085383408 0.048645265 0.35000002 4285301108
0.08652021 0.048645265 0.35000002 4285432694
0.087657012 0.048645265 0.35000002 4285498487
0.088793814 0.048645265 0.35000002 4285366901
0.089930616 0.048645265 0.35000002 4285169522
0.091067418 0.048645265 0.35000002 4285366901
0.092204221 0.048645265 0.35000002 4285432181
0.093341023 0.048645265 0.35000002 4285169522
0.094477825 0.048645265 0.35000002 4285038960
0.095614612 0.048645265 0.35000002 4285367155
0.096751414 0.048645265 0.35000002 4285301362
0.097608536 0.048506279 0.34900001 4285236339
0.09874209 0.048506279 0.34900001 4285631097
0.099875644 0.048506279 0.34900001 4285894269
0.1010092 0.048506279 0.34900001 4285039733
0.10214274 0.048506279 0.34900001 4284382057
0.1032763 0.048506279 0.34900001 4282539337
0.10411069 0.048367295 0.34800002 4280565032
0.10524099 0.048367295 0.34800002 4280038940
0.1063713 0.048367295 0.34800002 4279578902
0.10781051 0.048506279 0.34900001 4279514393
0.10894407 0.048506279 0.34900001 4279843358
0.11007761 0.048506279 0.34900001 4279843871
0.11121117 0.048506279 0.34900001 4279844125
0.11234472 0.048506279 0.34900001 4280040991
0.11347827 0.048506279 0.34900001 4279909405
0.11428343 0.048367295 0.34800002 4280040737
0.11541373 0.048367295 0.34800002 4280303139
0.11654403 0.048367295 0.34800002 4280302625
0.11767434 0.048367295 0.34800002 4280302625
0.11880464 0.048367295 0.34800002 4280171039
0.1195903 0.048228305 0.347 4280105246
0.12071736 0.048228305 0.347 4279907354
0.12184442 0.048228305 0.347 4280038940
0.12297148 0.048228305 0.347 4279841561
0.12409852 0.048228305 0.347 4279183631
0.12522559 0.048228305 0.347 4279249426
0.12671678 0.048367295 0.34800002 4278262531
0.12784709 0.048367295 0.34800002 4279183379
0.12897739 0.048367295 0.34800002 4279446551
0.13048157 0.048506279 0.34900001 4279644184
0.13161512 0.048506279 0.34900001 4280104733
0.13274866 0.048506279 0.34900001 4279380240
0.13426584 0.048645265 0.35000002 4279577360
0.13540263 0.048645265 0.35000002 4279841815
0.13653944 0.048645265 0.35000002 4279842842
0.13767624 0.048645265 0.35000002 4279908635
0.13881305 0.048645265 0.35000002 4279975196
0.13994984 0.048645265 0.35000002 4279777817
0.14108664 0.048645265 0.35000002 4279842840
0.14181708 0.048506279 0.34900001 4279974426
0.14295064 0.048506279 0.34900001 4280040219
0.14408419 0.048506279 0.34900001 4280565538
0.14521775 0.048506279 0.34900001 4282471998
0.10214274 0.049640216 0.34900001 4285432696
0.1032763 0.049640216 0.34900001 4285366903
0.10411069 0.049497984 0.34800002 4285366903
0.10524099 0.049497984 0.34800002 4285301108
0.10667696 0.049640216 0.34900001 4285827193
0.10781051 0.049640216 0.34900001 4285498737
0.10894407 0.049640216 0.34900001 4285499507
0.11007761 0.049640216 0.34900001 4285762683
0.11121117 0.049640216 0.34900001 4285302130
0.11234472 0.049640216 0.34900001 4284841577
0.11347827 0.049640216 0.34900001 4284380510
0.11461183 0.049640216 0.34900001 4283130441
0.11541373 0.049497984 0.34800002 4282340927
0.11654403 0.049497984 0.34800002 4281748536
0.11767434 0.049497984 0.34800002 4280498469
0.11880464 0.049497984 0.34800002 4280038172
0.11993495 0.049497984 0.34800002 4280169758
0.12071736 0.049355745 0.347 4280235803
0.12184442 0.049355745 0.347 4280433182
0.12297148 0.049355745 0.347 4280170780
0.12409852 0.049355745 0.347 4280499745
0.12558647 0.049497984 0.34800002 4280499493
0.12671678 0.049497984 0.34800002 4280236321
0.12784709 0.049497984 0.34800002 4280302114
0.12934801 0.049640216 0.34900001 4280367907
0.13048157 0.049640216 0.34900001 4280169758
0.13161512 0.049640216 0.34900001 4279906586
0.13312903 0.049782455 0.35000002 4280367389
0.13426584 0.049782455 0.35000002 4280235803
0.13540263 0.049782455 0.35000002 4280236573
0.13692956 0.04992469 0.35100001 4280237086
0.1380696 0.04992469 0.35100001 4279908635
