# .PCD v0.7 - Point Cloud Data file format
VERSION 0.7
FIELDS x y z rgb
SIZE 4 4 4 4
TYPE F F F U
COUNT 1 1 1 1
WIDTH 1039
HEIGHT 1
VIEWPOINT 0 0 0 1 0 0 0
POINTS 1039
DATA ascii
0.010218557 0.048884146 0.38800001 4284158730
0.011449198 0.048758157 0.38700002 4283765769
0.012673343 0.048632164 0.38600001 4283371526
0.013963151 0.048758157 0.38700002 4281995016
-0.0050305342 0.051437188 0.39800003 4285498489
-0.0037284377 0.051307946 0.39700001 4285498489
-0.0024389809 0.051307946 0.39700001 4285366903
-0.0011466288 0.051178709 0.39600003 4285498489
0.00013922754 0.051049467 0.39500001 4285366903
0.0014149873 0.050790988 0.39300001 4285366901
0.0026846034 0.050661754 0.39200002 4285298798
0.0039477237 0.050532516 0.39100003 4283772712
0.0052043479 0.050403275 0.39000002 4283901214
0.0064710681 0.050403275 0.39000002 4284095767
0.0077179489 0.050274037 0.38900003 4284292374
0.0089814216 0.050274037 0.38900003 4284160788
0.010218557 0.050144795 0.38800001 4283701007
0.011478783 0.050144795 0.38800001 4283241483
0.012706175 0.050015558 0.38700002 4282847497
0.013963151 0.050015558 0.38700002 4281602316
-0.0050305342 0.052730333 0.39800003 4285498487
-0.0037284377 0.052597843 0.39700001 4285366901
-0.0024389809 0.052597843 0.39700001 4285366901
-0.0011466288 0.052465357 0.39600003 4285498487
0.00013922754 0.052332867 0.39500001 4285366901
0.0014149873 0.052067891 0.39300001 4285432694
0.0026846034 0.051935405 0.39200002 4285498487
0.0039477237 0.051802915 0.39100003 4283317047
0.0052043479 0.051670425 0.39000002 4283377702
0.0064710681 0.051670425 0.39000002 4283967261
0.0077179489 0.051537938 0.38900003 4283571733
0.0089814216 0.051537938 0.38900003 4283375124
0.010218557 0.051405448 0.38800001 4282849293
0.011478783 0.051405448 0.38800001 4282586381
0.012706175 0.051272962 0.38700002 4282455565
0.013963151 0.051272962 0.38700002 4282589981
-0.0037378294 0.054023474 0.39800003 4285498487
-0.0024389809 0.053887732 0.39700001 4285432694
-0.0011466288 0.053751998 0.39600003 4285498487
0.00013922754 0.053616259 0.39500001 4285432694
0.0014149873 0.053344782 0.39300001 4285432694
0.0026846034 0.053209048 0.39200002 4285366901
0.0039477237 0.053073313 0.39100003 4286547836
0.0052043479 0.052937571 0.39000002 4282726961
0.0064710681 0.052937571 0.39000002 4282852121
0.0077179489 0.052801836 0.38900003 4282850838
0.0089814216 0.052801836 0.38900003 4282587666
0.010244895 0.052801836 0.38900003 4282127885
0.011478783 0.052666098 0.38800001 4282194191
-0.0024389809 0.055177629 0.39700001 4285301108
-0.0011466288 0.055038646 0.39600003 4285432694
0.00013922754 0.054899655 0.39500001 4285366901
0.0014149873 0.054621682 0.39300001 4285366901
0.002677755 0.054343715 0.39100003 4285301108
0.0039477237 0.054343715 0.39100003 4285563769
0.0052043479 0.054204725 0.39000002 4281878077
0.0064544762 0.054065742 0.38900003 4283582270
0.0077179489 0.054065742 0.38900003 4282395168
0.0089814216 0.054065742 0.38900003 4282064150
0.010244895 0.054065742 0.38900003 4281932051
0.0014113868 0.055756349 0.39200002 4285301880
0.002677755 0.055614114 0.39100003 4285170294
0.0039376272 0.055471878 0.39000002 4285038706
0.0051910039 0.055329643 0.38900003 4285170292
0.0064544762 0.055329643 0.38900003 4282139964
0.0077179489 0.055329643 0.38900003 4281216809
0.0051910039 0.056593541 0.38900003 4285170292
0.0064544762 0.056593541 0.38900003 4281878591
0.029046871 0.0047490662 0.38700002 4283506962
0.029046871 0.006006469 0.38700002 4283112465
0.030303849 0.006006469 0.38700002 4282917912
0.027789894 0.0072638714 0.38700002 4282979081
0.029046871 0.0072638714 0.38700002 4282587664
0.030303849 0.0072638714 0.38700002 4282325775
0.031560823 0.0072638714 0.38700002 4282982422
0.02653292 0.0085212737 0.38700002 4282717194
0.027789894 0.0085212737 0.38700002 4282454281
0.029046871 0.0085212737 0.38700002 4282127885
0.030303849 0.0085212737 0.38700002 4281931019
0.031642377 0.0085432921 0.38800001 4283178004
0.021505011 0.0097786766 0.38700002 4282782987
0.02527594 0.0097786766 0.38700002 4282520842
0.02653292 0.0097786766 0.38700002 4282389002
0.027789894 0.0097786766 0.38700002 4282061320
0.031642377 0.0098039433 0.38800001 4282457100
0.014071392 0.01112163 0.39000002 4281733640
0.015298785 0.011093114 0.38900003 4281404675
0.016562259 0.011093114 0.38900003 4281273603
0.017779905 0.011064596 0.38800001 4281404675
0.01904013 0.011064596 0.38800001 4281930506
0.020248035 0.011036079 0.38700002 4282127115
0.021505011 0.011036079 0.38700002 4282192906
0.022761988 0.011036079 0.38700002 4282258699
0.024018966 0.011036079 0.38700002 4282653457
0.02527594 0.011036079 0.38700002 4282785043
0.02653292 0.011036079 0.38700002 4282653198
0.027789894 0.011036079 0.38700002 4282456848
0.029046871 0.011036079 0.38700002 4283122727
0.030382153 0.011064596 0.38800001 4282991655
0.031642377 0.011064596 0.38800001 4283318823
0.032902602 0.011064596 0.38800001 4282589453
0.010244895 0.012357014 0.38900003 4281404673
0.011508367 0.012357014 0.38900003 4282198293
0.01904013 0.012325248 0.38800001 4281602568
0.020300355 0.012325248 0.38800001 4281865226
0.021505011 0.012293482 0.38700002 4281733640
0.022761988 0.012293482 0.38700002 4281865226
0.024018966 0.012293482 0.38700002 4281996299
0.02527594 0.012293482 0.38700002 4282521871
0.02653292 0.012293482 0.38700002 4283375122
0.027789894 0.012293482 0.38700002 4283638548
0.029046871 0.012293482 0.38700002 4283449637
0.030382153 0.012325248 0.38800001 4283188518
0.031642377 0.012325248 0.38800001 4282991651
0.032902602 0.012325248 0.38800001 4283254309
0.019089203 0.013620915 0.38900003 4281669131
0.020300355 0.013585899 0.38800001 4281405959
0.02156058 0.013585899 0.38800001 4281536775
0.022761988 0.013550884 0.38700002 4281865226
0.024018966 0.013550884 0.38700002 4281865226
0.02527594 0.013550884 0.38700002 4281931019
0.02653292 0.013550884 0.38700002 4282455565
0.027789894 0.013550884 0.38700002 4283310096
0.029121926 0.013585899 0.38800001 4283507473
0.031642377 0.013585899 0.38800001 4282860065
0.032987405 0.013620915 0.38900003 4282596893
0.019089203 0.014884816 0.38900003 4282193676
0.020352677 0.014884816 0.38900003 4282127885
0.02156058 0.01484655 0.38800001 4282192908
0.022820804 0.01484655 0.38800001 4282061322
0.024081029 0.01484655 0.38800001 4281996812
0.025341252 0.01484655 0.38800001 4281996812
0.026601478 0.01484655 0.38800001 4281536775
0.027861703 0.01484655 0.38800001 4281930504
0.029121926 0.01484655 0.38800001 4283703571
0.030382153 0.01484655 0.38800001 4283703058
0.031723931 0.014884816 0.38900003 4283186463
0.032987405 0.014884816 0.38900003 4282465820
0.034338925 0.014923079 0.39000002 4282531615
0.016604833 0.016190229 0.39000002 4282002961
0.017871555 0.016190229 0.39000002 4282129932
0.019138277 0.016190229 0.39000002 4282849807
0.020352677 0.016148716 0.38900003 4282849039
0.021616148 0.016148716 0.38900003 4282717453
0.022820804 0.016107202 0.38800001 4282585867
0.024081029 0.016107202 0.38800001 4282258188
0.026601478 0.016107202 0.38800001 4282002457
0.027861703 0.016107202 0.38800001 4281276937
0.029121926 0.016107202 0.38800001 4282126600
0.030382153 0.016107202 0.38800001 4283505938
0.031723931 0.016148716 0.38900003 4283179022
0.032987405 0.016148716 0.38900003 4283185950
0.034338925 0.016190229 0.39000002 4282465820
0.035605643 0.016190229 0.39000002 4282465820
0.036966912 0.016231744 0.39100003 4282719243
0.038236879 0.016231744 0.39100003 4283637011
0.039506849 0.016231744 0.39100003 4283834903
0.019138277 0.017457379 0.39000002 4281144331
0.020404994 0.017457379 0.39000002 4281801232
0.021616148 0.017412616 0.38900003 4282324492
0.022879621 0.017412616 0.38900003 4282455565
0.024143094 0.017412616 0.38900003 4282324492
0.026601478 0.017367853 0.38800001 4281873435
0.027861703 0.017367853 0.38800001 4282005021
0.029121926 0.017367853 0.38800001 4281077505
0.030382153 0.017367853 0.38800001 4282193930
0.031642377 0.017367853 0.38800001 4283835157
0.032987405 0.017412616 0.38900003 4283836952
0.034250874 0.017412616 0.38900003 4282465307
0.035605643 0.017457379 0.39000002 4282202648
0.036872365 0.017457379 0.39000002 4283315741
0.038139086 0.017457379 0.39000002 4284692263
0.039405808 0.017457379 0.39000002 4284688929
0.040672526 0.017457379 0.39000002 4284491550
0.016647412 0.018772542 0.39100003 4279440393
0.017871555 0.018724529 0.39000002 4279440393
0.019138277 0.018724529 0.39000002 4279834383
0.022879621 0.018676519 0.38900003 4281209611
0.024143094 0.018676519 0.38900003 4281866510
0.025406566 0.018676519 0.38900003 4281738004
0.026601478 0.018628506 0.38800001 4281083667
0.027861703 0.018628506 0.38800001 4281215251
0.029121926 0.018628506 0.38800001 4281871386
0.030382153 0.018628506 0.38800001 4281144583
0.031642377 0.018628506 0.38800001 4283111950
0.032902602 0.018628506 0.38800001 4283769364
0.034162827 0.018628506 0.38800001 4282922778
0.035514347 0.018676519 0.38900003 4282069265
0.03677782 0.018676519 0.38900003 4284102177
0.038041294 0.018676519 0.38900003 4285612336
0.039304767 0.018676519 0.38900003 4285543976
0.04056824 0.018676519 0.38900003 4285412390
0.01791738 0.020042941 0.39100003 4280164891
0.019138277 0.019991679 0.39000002 4279704594
0.020404994 0.019991679 0.39000002 4282402105
0.024143094 0.019940419 0.38900003 4280292874
0.025406566 0.019940419 0.38900003 4280754450
0.026670041 0.019940419 0.38900003 4280624401
0.027861703 0.019889157 0.38800001 4280624401
0.029121926 0.019889157 0.38800001 4280558608
0.030382153 0.019889157 0.38800001 4280293640
0.031560823 0.019837897 0.38700002 4282192906
0.032817803 0.019837897 0.38700002 4283506708
0.03407478 0.019837897 0.38700002 4283769360
0.035423048 0.019889157 0.38800001 4284295704
0.036683276 0.019889157 0.38800001 4284687636
0.037943501 0.019889157 0.38800001 4284554767
0.039203726 0.019889157 0.38800001 4285013521
0.04046395 0.019889157 0.38800001 4284948498
0.021671716 0.021258829 0.39000002 4279770385
0.024205158 0.021258829 0.39000002 4279900946
0.025406566 0.021204319 0.38900003 4279769360
0.026670041 0.021204319 0.38900003 4280230418
0.027861703 0.021149809 0.38800001 4280164623
0.029121926 0.021149809 0.38800001 4280097803
0.030303849 0.0210953 0.38700002 4280032010
0.031560823 0.0210953 0.38700002 4281340166
0.032817803 0.0210953 0.38700002 4282915086
0.03407478 0.0210953 0.38700002 4284029452
0.035331756 0.0210953 0.38700002 4286002983
0.036588732 0.0210953 0.38700002 4285342486
0.037845708 0.0210953 0.38700002 4289423449
0.039102685 0.0210953 0.38700002 4285210898
0.040359661 0.0210953 0.38700002 4285013519
0.041509099 0.02104079 0.38600001 4284554513
0.014107473 0.022583738 0.39100003 4282074173
0.015377442 0.022583738 0.39100003 4283456594
0.016647412 0.022583738 0.39100003 4285629544
0.017871555 0.022525977 0.39000002 4283391053
0.019138277 0.022525977 0.39000002 4286154870
0.020404994 0.022525977 0.39000002 4283588945
0.024205158 0.022525977 0.39000002 4279179020
0.026670041 0.02246822 0.38900003 4280164371
0.027933512 0.02246822 0.38900003 4279966992
0.029121926 0.02241046 0.38800001 4279769867
0.030303849 0.022352701 0.38700002 4279769610
0.031560823 0.022352701 0.38700002 4280882697
0.032733001 0.022294942 0.38600001 4282324492
0.033986729 0.022294942 0.38600001 4284292113
0.035240456 0.022294942 0.38600001 4284882451
0.036494188 0.022294942 0.38600001 4285210387
0.037747912 0.022294942 0.38600001 4285145877
0.039001644 0.022294942 0.38600001 4285211668
0.040255371 0.022294942 0.38600001 4284881935
0.041509099 0.022294942 0.38600001 4284487952
0.042762831 0.022294942 0.38600001 4284226322
0.00900451 0.023793127 0.39000002 4280230168
0.010271231 0.023793127 0.39000002 4282139705
0.012837506 0.023854136 0.39100003 4282402625
0.014107473 0.023854136 0.39100003 4282930763
0.015377442 0.023854136 0.39100003 4281811253
0.016604833 0.023793127 0.39000002 4287006322
0.017871555 0.023793127 0.39000002 4284571729
0.019138277 0.023793127 0.39000002 4282272570
0.020404994 0.023793127 0.39000002 4286221177
0.024205158 0.023793127 0.39000002 4279375629
0.025471877 0.023793127 0.39000002 4279507215
0.026670041 0.02373212 0.38900003 4279178250
0.027933512 0.02373212 0.38900003 4279966992
0.029121926 0.023671111 0.38800001 4279703820
0.030303849 0.023610104 0.38700002 4279704074
0.031560823 0.023610104 0.38700002 4281280021
0.032733001 0.023549095 0.38600001 4281734922
0.033898681 0.023488088 0.38500002 4283767054
0.035149161 0.023488088 0.38500002 4284357136
0.036399644 0.023488088 0.38500002 4284487695
0.037650123 0.023488088 0.38500002 4284290314
0.039001644 0.023549095 0.38600001 4284421900
0.040255371 0.023549095 0.38600001 4284422157
0.041509099 0.023549095 0.38600001 4283963150
0.042762831 0.023549095 0.38600001 4283831823
0.0064710681 0.025060279 0.39000002 4284174909
0.0077377893 0.025060279 0.39000002 4279503360
0.00900451 0.025060279 0.39000002 4279770133
0.010297568 0.025124537 0.39100003 4279705112
0.012837506 0.025124537 0.39100003 4281416241
0.014107473 0.025124537 0.39100003 4281218603
0.021671716 0.025060279 0.39000002 4283588945
0.022938438 0.025060279 0.39000002 4279836948
0.025471877 0.025060279 0.39000002 4278915078
0.026738601 0.025060279 0.39000002 4278915078
0.027933512 0.024996022 0.38900003 4279835408
0.029121926 0.024931764 0.38800001 4279703820
0.030303849 0.024867509 0.38700002 4279506441
0.031560823 0.024867509 0.38700002 4280227593
0.032733001 0.024803249 0.38600001 4281539341
0.033898681 0.024738993 0.38500002 4283110667
0.035149161 0.024738993 0.38500002 4283701261
0.036399644 0.024738993 0.38500002 4284226322
0.037650123 0.024738993 0.38500002 4284225550
0.038900606 0.024738993 0.38500002 4284487952
0.040151086 0.024738993 0.38500002 4284225550
0.041401565 0.024738993 0.38500002 4283109897
0.042762831 0.024803249 0.38600001 4282848010
0.0039679166 0.026529947 0.39300001 4286342498
0.0052443813 0.026529947 0.39300001 4283445290
0.006487661 0.026394935 0.39100003 4283576106
0.0077576302 0.026394935 0.39100003 4279829504
0.0090275994 0.026394935 0.39100003 4281744693
0.010297568 0.026394935 0.39100003 4281020972
0.011567537 0.026394935 0.39100003 4279902489
0.012837506 0.026394935 0.39100003 4281218603
0.021671716 0.026327427 0.39000002 4279902741
0.022938438 0.026327427 0.39000002 4282139703
0.024205158 0.026327427 0.39000002 4279507215
0.025471877 0.026327427 0.39000002 4279244043
0.026738601 0.026327427 0.39000002 4279046664
0.027933512 0.026259923 0.38900003 4279375627
0.029121926 0.026192416 0.38800001 4279703820
0.030382153 0.026192416 0.38800001 4279506441
0.031560823 0.02612491 0.38700002 4280162313
0.032733001 0.026057404 0.38600001 4281080074
0.033898681 0.025989898 0.38500002 4282914571
0.035149161 0.025989898 0.38500002 4283110667
0.036399644 0.025989898 0.38500002 4283702288
0.037650123 0.025989898 0.38500002 4284030226
0.038900606 0.025989898 0.38500002 4284096019
0.040151086 0.025989898 0.38500002 4283308300
0.041401565 0.025989898 0.38500002 4282520074
0.042652048 0.025989898 0.38500002 4282389774
0.043902528 0.025989898 0.38500002 4282395943
0.0077774702 0.027736088 0.39200002 4280485890
0.011567537 0.027665334 0.39100003 4280230684
0.019138277 0.027594578 0.39000002 4280031751
0.021671716 0.027594578 0.39000002 4280361752
0.022938438 0.027594578 0.39000002 4282270519
0.026738601 0.027594578 0.39000002 4279178250
0.027933512 0.027523823 0.38900003 4279638029
0.029196983 0.027523823 0.38900003 4279638027
0.030382153 0.027453067 0.38800001 4279571977
0.031560823 0.027382312 0.38700002 4280228106
0.032733001 0.027311556 0.38600001 4281146380
0.033898681 0.027240802 0.38500002 4283046157
0.035149161 0.027240802 0.38500002 4283176973
0.036399644 0.027240802 0.38500002 4282848008
0.037650123 0.027240802 0.38500002 4283045387
0.038900606 0.027240802 0.38500002 4282586119
0.040151086 0.027240802 0.38500002 4282520842
0.041401565 0.027240802 0.38500002 4282324494
0.042652048 0.027240802 0.38500002 4282129430
0.043902528 0.027240802 0.38500002 4282727477
0.0077774702 0.029009737 0.39200002 4280813570
0.0090506868 0.029009737 0.39200002 4279770385
0.010297568 0.028935732 0.39100003 4279639571
0.011567537 0.028935732 0.39100003 4280690465
0.021671716 0.028861728 0.39000002 4280361750
0.027933512 0.028787725 0.38900003 4279638029
0.029196983 0.028787725 0.38900003 4279835151
0.030382153 0.028713718 0.38800001 4279900174
0.031560823 0.028639715 0.38700002 4280229130
0.032733001 0.028565709 0.38600001 4281408523
0.033898681 0.028491706 0.38500002 4283243020
0.035149161 0.028491706 0.38500002 4283439116
0.036399644 0.028491706 0.38500002 4282782985
0.037650123 0.028491706 0.38500002 4282389256
0.038900606 0.028491706 0.38500002 4282258699
0.040151086 0.028491706 0.38500002 4282127883
0.041401565 0.028491706 0.38500002 4282130713
0.042652048 0.028491706 0.38500002 4283646010
0.0077774702 0.030283384 0.39200002 4281536263
0.0090506868 0.030283384 0.39200002 4281546028
0.010323904 0.030283384 0.39200002 4279113227
0.011567537 0.030206133 0.39100003 4280164375
0.021671716 0.030128878 0.39000002 4280559129
0.022938438 0.030128878 0.39000002 4279638799
0.024205158 0.030128878 0.39000002 4279572754
0.028005321 0.030128878 0.39000002 4279901201
0.029196983 0.030051624 0.38900003 4279901453
0.030382153 0.029974369 0.38800001 4280230159
0.031560823 0.029897118 0.38700002 4280688909
0.032733001 0.029819863 0.38600001 4281605386
0.033898681 0.02974261 0.38500002 4283374093
0.035149161 0.02974261 0.38500002 4283570702
0.036399644 0.02974261 0.38500002 4282391309
0.037650123 0.02974261 0.38500002 4281800715
0.038900606 0.02974261 0.38500002 4281801228
0.040151086 0.02974261 0.38500002 4282129682
0.041401565 0.02974261 0.38500002 4281736209
0.012837506 0.031476531 0.39100003 4280756253
0.016604833 0.031396028 0.39000002 4280098055
0.021671716 0.031396028 0.39000002 4280230164
0.028005321 0.031396028 0.39000002 4280032530
0.029196983 0.031315524 0.38900003 4280427792
0.030382153 0.031235021 0.38800001 4280558606
0.031560823 0.031154519 0.38700002 4280754189
0.032733001 0.031074015 0.38600001 4281932555
0.033898681 0.030993514 0.38500002 4283702288
0.035149161 0.030993514 0.38500002 4283373323
0.036399644 0.030993514 0.38500002 4281606416
0.037650123 0.030993514 0.38500002 4281016847
0.038900606 0.030993514 0.38500002 4281081359
0.040151086 0.030993514 0.38500002 4281145869
0.041401565 0.030993514 0.38500002 4281473044
0.020457316 0.03274693 0.39100003 4279769356
0.021727286 0.03274693 0.39100003 4279770385
0.024267225 0.03274693 0.39100003 4280100122
0.026738601 0.032663178 0.39000002 4279702795
0.028005321 0.032663178 0.39000002 4280557843
0.029196983 0.032579426 0.38900003 4280558093
0.030382153 0.032495674 0.38800001 4280689679
0.031560823 0.032411922 0.38700002 4281147661
0.032733001 0.03232817 0.38600001 4282522895
0.033986729 0.03232817 0.38600001 4283768081
0.035149161 0.032244418 0.38500002 4283177227
0.036399644 0.032244418 0.38500002 4281214226
0.037650123 0.032244418 0.38500002 4280623116
0.038900606 0.032244418 0.38500002 4280754191
0.040151086 0.032244418 0.38500002 4280949773
0.041401565 0.032244418 0.38500002 4281212441
0.021727286 0.034017328 0.39100003 4279704340
0.026738601 0.033930324 0.39000002 4281867541
0.028005321 0.033930324 0.39000002 4281540111
0.029196983 0.033843327 0.38900003 4280754189
0.030382153 0.033756323 0.38800001 4280754189
0.031560823 0.033669323 0.38700002 4281998607
0.032733001 0.033582322 0.38600001 4283308559
0.033986729 0.033582322 0.38600001 4283833360
0.035149161 0.033495322 0.38500002 4284165665
0.036399644 0.033495322 0.38500002 4280359946
0.037650123 0.033495322 0.38500002 4280228876
0.038900606 0.033495322 0.38500002 4280885009
0.040151086 0.033495322 0.38500002 4281408273
0.041401565 0.033495322 0.38500002 4284045905
0.025471877 0.035197478 0.39000002 4283509799
0.026738601 0.035197478 0.39000002 4286995282
0.027933512 0.035107229 0.38900003 4283901979
0.029196983 0.035107229 0.38900003 4281475343
0.030382153 0.035016976 0.38800001 4281279247
0.031560823 0.034926727 0.38700002 4283046672
0.032733001 0.034836479 0.38600001 4283899153
0.033986729 0.034836479 0.38600001 4283964946
0.035149161 0.03474623 0.38500002 4282391822
0.036399644 0.03474623 0.38500002 4280163083
0.037650123 0.03474623 0.38500002 4280360464
0.038900606 0.03474623 0.38500002 4281867543
0.040151086 0.03474623 0.38500002 4281999129
0.041401565 0.03474623 0.38500002 4285760376
0.017963205 0.036651626 0.39200002 4279573006
0.022997255 0.036558129 0.39100003 4280226059
0.024267225 0.036558129 0.39100003 4283506971
0.025471877 0.036464628 0.39000002 4284293659
0.026738601 0.036464628 0.39000002 4284423447
0.027933512 0.03637113 0.38900003 4284161558
0.029196983 0.03637113 0.38900003 4283707682
0.030382153 0.036277629 0.38800001 4282654994
0.031560823 0.036184132 0.38700002 4284030485
0.032733001 0.036090631 0.38600001 4284226835
0.033986729 0.036090631 0.38600001 4283112463
0.035149161 0.035997134 0.38500002 4281080076
0.036399644 0.035997134 0.38500002 4280163085
0.037650123 0.035997134 0.38500002 4280492050
0.038900606 0.035997134 0.38500002 4282327324
0.040151086 0.035997134 0.38500002 4284040768
0.041401565 0.035997134 0.38500002 4284972143
0.016689988 0.037925273 0.39200002 4279309064
0.017963205 0.037925273 0.39200002 4279309064
0.019236421 0.037925273 0.39200002 4279440393
0.020509636 0.037925273 0.39200002 4279637002
0.021727286 0.037828527 0.39100003 4281931283
0.022997255 0.037828527 0.39100003 4283638044
0.024267225 0.037828527 0.39100003 4284226835
0.025471877 0.037731778 0.39000002 4284291345
0.026738601 0.037731778 0.39000002 4284882712
0.027933512 0.037635032 0.38900003 4285014041
0.029121926 0.037538283 0.38800001 4284555285
0.030382153 0.037538283 0.38800001 4284621078
0.031560823 0.037441533 0.38700002 4284357136
0.032733001 0.037344784 0.38600001 4284160529
0.033986729 0.037344784 0.38600001 4281867023
0.035240456 0.037344784 0.38600001 4280227081
0.036399644 0.037248038 0.38500002 4279702280
0.037650123 0.037248038 0.38500002 4281211921
0.038900606 0.037248038 0.38500002 4281472785
0.040151086 0.037248038 0.38500002 4285623652
0.041401565 0.037248038 0.38500002 4284709741
0.021727286 0.039098926 0.39100003 4282587151
0.022997255 0.039098926 0.39100003 4283176975
0.024205158 0.038998928 0.39000002 4283897357
0.025471877 0.038998928 0.39000002 4284423701
0.026670041 0.03889893 0.38900003 4284948246
0.027933512 0.03889893 0.38900003 4285210135
0.029121926 0.038798932 0.38800001 4284946963
0.030382153 0.038798932 0.38800001 4284946961
0.031560823 0.038698938 0.38700002 4284553743
0.032817803 0.038698938 0.38700002 4283570188
0.033986729 0.038598936 0.38600001 4280423175
0.035240456 0.038598936 0.38600001 4279768327
0.036399644 0.038498942 0.38500002 4280555276
0.037650123 0.038498942 0.38500002 4282326809
0.038900606 0.038498942 0.38500002 4281803293
0.040151086 0.038498942 0.38500002 4285429353
0.041401565 0.038498942 0.38500002 4284577385
0.021727286 0.040369324 0.39100003 4281867791
0.022938438 0.040266078 0.39000002 4283047186
0.024205158 0.040266078 0.39000002 4284358421
0.025406566 0.040162832 0.38900003 4284554515
0.026670041 0.040162832 0.38900003 4285079062
0.027933512 0.040162832 0.38900003 4285144342
0.029121926 0.040059585 0.38800001 4285275158
0.030303849 0.039956339 0.38700002 4284946961
0.031560823 0.039956339 0.38700002 4284093966
0.032817803 0.039956339 0.38700002 4282782987
0.033986729 0.039853089 0.38600001 4280488968
0.035240456 0.039853089 0.38600001 4279964423
0.036494188 0.039853089 0.38600001 4281932051
0.037747912 0.039853089 0.38600001 4282653977
0.038900606 0.039749846 0.38500002 4282069545
0.040151086 0.039749846 0.38500002 4284772708
0.041401565 0.039749846 0.38500002 4284380006
0.010350239 0.041852713 0.39300001 4284444254
0.011626705 0.041852713 0.39300001 4279374600
0.012870338 0.041746218 0.39200002 4279439623
0.014143554 0.041746218 0.39200002 4279637252
0.022938438 0.041533228 0.39000002 4282392336
0.024143094 0.041426733 0.38900003 4284555285
0.025406566 0.041426733 0.38900003 4285079830
0.026670041 0.041426733 0.38900003 4285144340
0.027861703 0.041320235 0.38800001 4285210133
0.029121926 0.041320235 0.38800001 4285341719
0.030303849 0.04121374 0.38700002 4286395694
0.031560823 0.04121374 0.38700002 4284621080
0.032817803 0.04121374 0.38700002 4284226581
0.033986729 0.041107245 0.38600001 4282916370
0.035240456 0.041107245 0.38600001 4282391568
0.036494188 0.041107245 0.38600001 4282653459
0.037747912 0.041107245 0.38600001 4282587153
0.039001644 0.041107245 0.38600001 4283782729
0.040255371 0.041107245 0.38600001 4284444770
0.011626705 0.043129608 0.39300001 4281670162
0.01290317 0.043129608 0.39300001 4280686349
0.015456098 0.043129608 0.39300001 4279833096
0.016732562 0.043129608 0.39300001 4279438592
0.018009027 0.043129608 0.39300001 4279372800
0.019285493 0.043129608 0.39300001 4279701762
0.020561956 0.043129608 0.39300001 4280425226
0.021838421 0.043129608 0.39300001 4281538826
0.022879621 0.042690631 0.38900003 4282915598
0.024143094 0.042690631 0.38900003 4284686099
0.025406566 0.042690631 0.38900003 4285144853
0.026601478 0.042580888 0.38800001 4285275156
0.027861703 0.042580888 0.38800001 4285406742
0.029046871 0.042471144 0.38700002 4285342234
0.030303849 0.042471144 0.38700002 4291333508
0.031560823 0.042471144 0.38700002 4284685331
0.032817803 0.042471144 0.38700002 4284750867
0.033986729 0.042361397 0.38600001 4284292113
0.035240456 0.042361397 0.38600001 4284162325
0.036494188 0.042361397 0.38600001 4283178258
0.037747912 0.042361397 0.38600001 4282324494
0.039001644 0.042361397 0.38600001 4285035108
0.014179633 0.044406503 0.39300001 4284096278
0.015456098 0.044406503 0.39300001 4284097562
0.016732562 0.044406503 0.39300001 4283178258
0.018009027 0.044406503 0.39300001 4283441430
0.019285493 0.044406503 0.39300001 4283901468
0.020561956 0.044406503 0.39300001 4283571733
0.021838421 0.044406503 0.39300001 4284621593
0.022879621 0.043954533 0.38900003 4284686101
0.024143094 0.043954533 0.38900003 4285079060
0.025341252 0.043841537 0.38800001 4285210646
0.026601478 0.043841537 0.38800001 4285210133
0.027861703 0.043841537 0.38800001 4285209363
0.029046871 0.043728545 0.38700002 4285211418
0.030303849 0.043728545 0.38700002 4289556838
0.031560823 0.043728545 0.38700002 4284948246
0.032817803 0.043728545 0.38700002 4284685074
0.03407478 0.043728545 0.38700002 4284160527
0.035331756 0.043728545 0.38700002 4283964433
0.036588732 0.043728545 0.38700002 4283311128
0.037747912 0.04361555 0.38600001 4281999127
0.039001644 0.04361555 0.38600001 4284904805
0.014179633 0.045683403 0.39300001 4285144853
0.016732562 0.045683403 0.39300001 4285276439
0.018009027 0.045683403 0.39300001 4285144853
0.019285493 0.045683403 0.39300001 4285144340
0.020561956 0.045683403 0.39300001 4285144340
0.021616148 0.045218434 0.38900003 4285275926
0.022879621 0.045218434 0.38900003 4285210133
0.024143094 0.045218434 0.38900003 4285013267
0.025341252 0.04510219 0.38800001 4284815888
0.026601478 0.04510219 0.38800001 4284750095
0.027861703 0.04510219 0.38800001 4284815888
0.029046871 0.044985946 0.38700002 4285144340
0.030303849 0.044985946 0.38700002 4285079062
0.031560823 0.044985946 0.38700002 4284882453
0.032817803 0.044985946 0.38700002 4284422159
0.03407478 0.044985946 0.38700002 4283701007
0.035331756 0.044985946 0.38700002 4283307276
0.036588732 0.044985946 0.38700002 4282459162
0.037845708 0.044985946 0.38700002 4282265381
0.039102685 0.044985946 0.38700002 4283984217
0.021616148 0.046482336 0.38900003 4284750349
0.022879621 0.046482336 0.38900003 4284291343
0.024143094 0.046482336 0.38900003 4283110667
0.025341252 0.04636284 0.38800001 4283308046
0.026601478 0.04636284 0.38800001 4283832077
0.027861703 0.04636284 0.38800001 4284422929
0.029121926 0.04636284 0.38800001 4284487950
0.030303849 0.046243351 0.38700002 4284422157
0.031560823 0.046243351 0.38700002 4284225550
0.032817803 0.046243351 0.38700002 4283831562
0.03407478 0.046243351 0.38700002 4283241483
0.035331756 0.046243351 0.38700002 4282717194
0.036588732 0.046243351 0.38700002 4282593063
0.037943501 0.04636284 0.38800001 4282859061
0.039203726 0.04636284 0.38800001 4283853403
0.015456098 0.048237197 0.39300001 4283242516
0.016732562 0.048237197 0.39300001 4283243286
0.018009027 0.048237197 0.39300001 4283374100
0.019285493 0.048237197 0.39300001 4283111182
0.020457316 0.047991715 0.39100003 4282586121
0.021671716 0.047868975 0.39000002 4281536261
0.022938438 0.047868975 0.39000002 4280749060
0.024143094 0.047746234 0.38900003 4280290567
0.025406566 0.047746234 0.38900003 4281670162
0.026601478 0.047623493 0.38800001 4283046159
0.027861703 0.047623493 0.38800001 4283504657
0.029121926 0.047623493 0.38800001 4283701007
0.030382153 0.047623493 0.38800001 4283766800
0.031642377 0.047623493 0.38800001 4283635727
0.032902602 0.047623493 0.38800001 4283241483
0.034162827 0.047623493 0.38800001 4282586121
0.035423048 0.047623493 0.38800001 4282390287
0.036683276 0.047623493 0.38800001 4282462506
0.038041294 0.047746234 0.38900003 4283980110
0.039304767 0.047746234 0.38900003 4283853403
0.015456098 0.049514096 0.39300001 4280814855
0.016732562 0.049514096 0.39300001 4280357643
0.018009027 0.049514096 0.39300001 4280160264
0.019334566 0.049640089 0.39400002 4279897862
0.020457316 0.049262118 0.39100003 4279832069
0.021727286 0.049262118 0.39100003 4279438342
0.022938438 0.049136128 0.39000002 4279307526
0.024205158 0.049136128 0.39000002 4279635719
0.025406566 0.049010139 0.38900003 4280291337
0.026670041 0.049010139 0.38900003 4282917914
0.027933512 0.049010139 0.38900003 4282718737
0.029121926 0.048884146 0.38800001 4283178258
0.030382153 0.048884146 0.38800001 4282980366
0.031642377 0.048884146 0.38800001 4282717194
0.032902602 0.048884146 0.38800001 4282717453
0.034162827 0.048884146 0.38800001 4282259473
0.035423048 0.048884146 0.38800001 4282261531
0.036683276 0.048884146 0.38800001 4282794551
0.038041294 0.049010139 0.38900003 4283455563
0.039304767 0.049010139 0.38900003 4283722330
0.015456098 0.050790988 0.39300001 4280683528
0.016732562 0.050790988 0.39300001 4279832585
0.018009027 0.050790988 0.39300001 4279964171
0.019334566 0.050920229 0.39400002 4279766792
0.020509636 0.050661754 0.39200002 4279766792
0.021782853 0.050661754 0.39200002 4279766792
0.022997255 0.050532516 0.39100003 4280095243
0.024267225 0.050532516 0.39100003 4280619273
0.025471877 0.050403275 0.39000002 4281078538
0.026738601 0.050403275 0.39000002 4281866510
0.027933512 0.050274037 0.38900003 4282655256
0.029196983 0.050274037 0.38900003 4282391057
0.030460458 0.050274037 0.38900003 4282324494
0.031723931 0.050274037 0.38900003 4282390287
0.032987405 0.050274037 0.38900003 4282127885
0.034250874 0.050274037 0.38900003 4282197791
0.035514347 0.050274037 0.38900003 4283187512
0.03677782 0.050274037 0.38900003 4282402877
0.038041294 0.050274037 0.38900003 4282469953
0.039304767 0.050274037 0.38900003 4281616187
0.015456098 0.052067891 0.39300001 4281405709
0.016732562 0.052067891 0.39300001 4281077257
0.018009027 0.052067891 0.39300001 4281012747
0.019334566 0.052200381 0.39400002 4281144333
0.020561956 0.052067891 0.39300001 4281210126
0.021782853 0.051935405 0.39200002 4281210126
0.023056071 0.051935405 0.39200002 4281604884
0.024267225 0.051802915 0.39100003 4281604884
0.025537191 0.051802915 0.39100003 4281670675
0.026738601 0.051670425 0.39000002 4281473296
0.028005321 0.051670425 0.39000002 4281407503
0.029196983 0.051537938 0.38900003 4281210124
0.030460458 0.051537938 0.38900003 4281407503
0.031723931 0.051537938 0.38900003 4282328859
0.032987405 0.051537938 0.38900003 4282527522
0.034250874 0.051537938 0.38900003 4281346074
0.035514347 0.051537938 0.38900003 4280492309
0.03677782 0.051537938 0.38900003 4282207808
0.038041294 0.051537938 0.38900003 4282405187
0.020561956 0.053344782 0.39300001 4280423436
0.021838421 0.053344782 0.39300001 4280095757
0.023056071 0.053209048 0.39200002 4279964171
0.024329288 0.053209048 0.39200002 4280030479
0.025537191 0.053073313 0.39100003 4279898893
0.026738601 0.052937571 0.39000002 4279899663
0.028005321 0.052937571 0.39000002 4279768077
0.029272038 0.052937571 0.39000002 4279702284
0.030538762 0.052937571 0.39000002 4279899663
0.031723931 0.052801836 0.38900003 4279768077
0.032987405 0.052801836 0.38900003 4279768077
0.034250874 0.052801836 0.38900003 4279571981
0.035514347 0.052801836 0.38900003 4279835410
0.03677782 0.052801836 0.38900003 4282207040
0.038041294 0.052801836 0.38900003 4282405187
0.020561956 0.054621682 0.39300001 4279440398
0.021838421 0.054621682 0.39300001 4279374605
0.023056071 0.054482698 0.39200002 4279440398
0.024329288 0.054482698 0.39200002 4279309582
0.025537191 0.054343715 0.39100003 4279375375
0.026807161 0.054343715 0.39100003 4279244559
0.028005321 0.054204725 0.39000002 4279178766
0.029272038 0.054204725 0.39000002 4279309582
0.030538762 0.054204725 0.39000002 4279243789
0.031805482 0.054204725 0.39000002 4279177996
0.033072203 0.054204725 0.39000002 4279177996
0.034250874 0.054065742 0.38900003 4279244561
0.035514347 0.054065742 0.38900003 4279441940
0.03677782 0.054065742 0.38900003 4282404419
0.030538762 0.055471878 0.39000002 4279047693
0.031805482 0.055471878 0.39000002 4279047693
0.033072203 0.055471878 0.39000002 4279113486
0.034338925 0.055471878 0.39000002 4279244559
0.035605643 0.055471878 0.39000002 4279639317
0.036872365 0.055471878 0.39000002 4282601798
0.017418906 0.029998761 0.38897625 4294967295
0.017418906 0.029998761 0.38897625 4294901760
0.017418906 0.02949895 0.38896248 4294901760
0.017418906 0.028999139 0.38894874 4294901760
0.017418906 0.028499329 0.38893497 4294901760
0.017418906 0.027999518 0.3889212 4294901760
0.017418906 0.027499707 0.38890743 4294901760
0.017418906 0.026999896 0.38889369 4294901760
0.017418906 0.026500087 0.38887993 4294901760
0.017418906 0.026000276 0.38886616 4294901760
0.017418906 0.025500465 0.38885239 4294901760
0.017418906 0.025000654 0.38883865 4294901760
0.017418906 0.024500843 0.38882488 4294901760
0.017418906 0.024001034 0.38881111 4294901760
0.017418906 0.023501223 0.38879737 4294901760
0.017418906 0.023001412 0.3887836 4294901760
0.017418906 0.022501601 0.38876984 4294901760
0.017418906 0.022001792 0.38875607 4294901760
0.017418906 0.021501981 0.38874233 4294901760
0.017418906 0.02100217 0.38872856 4294901760
0.017418906 0.020502359 0.38871479 4294901760
0.017418906 0.020002548 0.38870102 4294901760
0.017418906 0.019502738 0.38868728 4294901760
0.017418906 0.019002927 0.38867351 4294901760
0.017418906 0.018503116 0.38865975 4294901760
0.017418906 0.018003307 0.38864598 4294901760
0.017418906 0.017503496 0.38863224 4294901760
0.017418906 0.017003685 0.38861847 4294901760
0.017418906 0.016503874 0.3886047 4294901760
0.017418906 0.016004063 0.38859096 4294901760
0.017418906 0.015504253 0.38857719 4294901760
0.017418906 0.015004442 0.38856342 4294901760
0.017418906 0.014504632 0.38854966 4294901760
0.017418906 0.014004821 0.38853592 4294901760
0.017418906 0.01350501 0.38852215 4294901760
0.017418906 0.013005199 0.38850838 4294901760
0.017418906 0.01250539 0.38849461 4294901760
0.017418906 0.012005579 0.38848087 4294901760
0.017418906 0.011505768 0.3884671 4294901760
0.017418906 0.011005957 0.38845333 4294901760
0.017418906 0.010506148 0.3884396 4294901760
0.017418906 0.010006336 0.38842583 4294901760
0.017418906 0.0095065255 0.38841206 4294901760
0.017418906 0.0090067163 0.38839829 4294901760
0.017418906 0.0085069034 0.38838455 4294901760
0.017418906 0.0080070943 0.38837078 4294901760
0.017418906 0.0075072832 0.38835701 4294901760
0.017418906 0.0070074722 0.38834324 4294901760
0.017418906 0.0065076612 0.38832951 4294901760
0.017418906 0.006007852 0.38831574 4294901760
0.017418906 0.005508041 0.38830197 4294901760
0.017418906 0.00500823 0.3882882 4294901760
0.017418906 0.004508419 0.38827446 4294901760
0.017418906 0.0040086098 0.38826069 4294901760
0.017418906 0.0035087988 0.38824692 4294901760
0.017418906 0.0030089859 0.38823318 4294901760
0.017418906 0.0025091767 0.38821942 4294901760
0.017418906 0.0020093657 0.38820565 4294901760
0.017418906 0.0015095565 0.38819188 4294901760
0.017418906 0.0010097455 0.38817814 4294901760
0.017418906 0.00050993636 0.38816437 4294901760
0.017418906 1.0123476e-05 0.3881506 4294901760
0.017418906 -0.00048968755 0.38813683 4294901760
0.017418906 -0.00098949671 0.3881231 4294901760
0.017418906 -0.0014893077 0.38810933 4294901760
0.017418906 -0.0019891188 0.38809556 4294901760
0.017418906 -0.0024889298 0.38808182 4294901760
0.017418906 -0.0029887408 0.38806805 4294901760
0.017418906 -0.0034885518 0.38805428 4294901760
0.017418906 -0.0039883628 0.38804051 4294901760
0.017418906 -0.0044881701 0.38802677 4294901760
0.017418906 -0.0049879812 0.38801301 4294901760
0.017418906 -0.0054877922 0.38799924 4294901760
0.017418906 -0.0059876032 0.38798547 4294901760
0.017418906 -0.0064874142 0.38797173 4294901760
0.017418906 -0.0069872253 0.38795796 4294901760
0.017418906 -0.0074870363 0.38794419 4294901760
0.017418906 -0.0079868473 0.38793045 4294901760
0.017418906 -0.0084866546 0.38791668 4294901760
0.017418906 -0.0089864656 0.38790292 4294901760
0.017418906 -0.0094862804 0.38788915 4294901760
0.017418906 -0.0099860877 0.38787541 4294901760
0.017418906 -0.010485899 0.38786164 4294901760
0.017418906 -0.01098571 0.38784787 4294901760
0.017418906 -0.011485521 0.3878341 4294901760
0.017418906 -0.011985328 0.38782036 4294901760
0.017418906 -0.012485143 0.38780659 4294901760
0.017418906 -0.012984954 0.38779283 4294901760
0.017418906 -0.013484761 0.38777906 4294901760
0.017418906 -0.013984572 0.38776532 4294901760
0.017418906 -0.014484383 0.38775155 4294901760
0.017418906 -0.014984194 0.38773778 4294901760
0.017418906 -0.015484005 0.38772404 4294901760
0.017418906 -0.015983816 0.38771027 4294901760
0.017418906 -0.016483627 0.3876965 4294901760
0.017418906 -0.016983438 0.38768274 4294901760
0.017418906 -0.017483246 0.387669 4294901760
0.017418906 -0.017983057 0.38765523 4294901760
0.017418906 -0.018482871 0.38764146 4294901760
0.017418906 -0.018982679 0.38762769 4294901760
0.017418906 -0.01948249 0.38761395 4294901760
0.017418906 -0.019982301 0.38760018 4294901760
0.017418906 0.029998761 0.38897625 4278255360
0.017909871 0.030001365 0.38888165 4278255360
0.018400839 0.030003969 0.38878709 4278255360
0.018891804 0.030006573 0.3886925 4278255360
0.019382771 0.030009177 0.38859794 4278255360
0.019873736 0.030011781 0.38850334 4278255360
0.020364702 0.030014385 0.38840875 4278255360
0.020855669 0.030016989 0.38831419 4278255360
0.021346634 0.030019592 0.38821959 4278255360
0.021837601 0.030022196 0.38812503 4278255360
0.022328567 0.0300248 0.38803044 4278255360
0.022819534 0.030027404 0.38793585 4278255360
0.023310499 0.030030008 0.38784128 4278255360
0.023801465 0.030032612 0.38774669 4278255360
0.024292432 0.030035216 0.3876521 4278255360
0.024783397 0.03003782 0.38755754 4278255360
0.025274362 0.030040424 0.38746294 4278255360
0.02576533 0.030043028 0.38736838 4278255360
0.026256297 0.030045632 0.38727379 4278255360
0.02674726 0.030048236 0.3871792 4278255360
0.027238227 0.03005084 0.38708463 4278255360
0.027729193 0.030053444 0.38699004 4278255360
0.02822016 0.030056048 0.38689548 4278255360
0.028711125 0.030058652 0.38680089 4278255360
0.029202092 0.030061256 0.38670629 4278255360
0.029693058 0.03006386 0.38661173 4278255360
0.030184023 0.030066464 0.38651714 4278255360
0.03067499 0.030069068 0.38642257 4278255360
0.031165956 0.030071672 0.38632798 4278255360
0.031656921 0.030074276 0.38623339 4278255360
0.032147888 0.03007688 0.38613883 4278255360
0.032638855 0.030079484 0.38604423 4278255360
0.033129819 0.030082088 0.38594964 4278255360
0.03362079 0.030084692 0.38585508 4278255360
0.034111753 0.030087296 0.38576049 4278255360
0.034602717 0.0300899 0.38566592 4278255360
0.035093687 0.030092504 0.38557133 4278255360
0.035584651 0.030095108 0.38547674 4278255360
0.036075614 0.030097712 0.38538218 4278255360
0.036566582 0.030100316 0.38528758 4278255360
0.037057549 0.03010292 0.38519302 4278255360
0.037548512 0.030105524 0.38509843 4278255360
0.038039479 0.030108128 0.38500383 4278255360
0.038530447 0.030110732 0.38490927 4278255360
0.039021414 0.030113336 0.38481468 4278255360
0.039512381 0.03011594 0.38472012 4278255360
0.040003344 0.030118544 0.38462552 4278255360
0.040494312 0.030121148 0.38453093 4278255360
0.040985279 0.030123752 0.38443637 4278255360
0.041476242 0.030126356 0.38434178 4278255360
0.041967209 0.03012896 0.38424718 4278255360
0.042458177 0.030131565 0.38415262 4278255360
0.04294914 0.030134169 0.38405803 4278255360
0.043440104 0.030136773 0.38396347 4278255360
0.043931074 0.030139377 0.38386887 4278255360
0.044422038 0.030141981 0.38377428 4278255360
0.044913005 0.030144585 0.38367972 4278255360
0.045403972 0.030147189 0.38358513 4278255360
0.045894936 0.030149793 0.38349056 4278255360
0.046385903 0.030152397 0.38339597 4278255360
0.04687687 0.030155001 0.38330138 4278255360
0.047367837 0.030157605 0.38320681 4278255360
0.047858804 0.030160209 0.38311222 4278255360
0.048349768 0.030162813 0.38301766 4278255360
0.048840735 0.030165417 0.38292307 4278255360
0.049331699 0.030168021 0.38282847 4278255360
0.049822669 0.030170625 0.38273391 4278255360
0.050313633 0.030173229 0.38263932 4278255360
0.0508046 0.030175833 0.38254476 4278255360
0.051295564 0.030178437 0.38245016 4278255360
0.051786531 0.030181041 0.38235557 4278255360
0.052277494 0.030183645 0.38226101 4278255360
0.052768465 0.030186249 0.38216642 4278255360
0.053259429 0.030188853 0.38207182 4278255360
0.053750396 0.030191457 0.38197726 4278255360
0.054241359 0.030194061 0.38188267 4278255360
0.054732326 0.030196665 0.3817881 4278255360
0.055223294 0.030199269 0.38169351 4278255360
0.055714257 0.030201873 0.38159892 4278255360
0.056205228 0.030204477 0.38150436 4278255360
0.056696191 0.030207081 0.38140976 4278255360
0.057187159 0.030209685 0.3813152 4278255360
0.057678122 0.030212289 0.38122061 4278255360
0.058169089 0.030214893 0.38112602 4278255360
0.058660053 0.030217497 0.38103145 4278255360
0.059151024 0.030220101 0.38093686 4278255360
0.059641987 0.030222705 0.3808423 4278255360
0.060132954 0.030225309 0.38074771 4278255360
0.060623921 0.030227913 0.38065311 4278255360
0.061114885 0.030230517 0.38055855 4278255360
0.061605852 0.030233121 0.38046396 4278255360
0.062096819 0.030235725 0.38036937 4278255360
0.062587783 0.030238329 0.3802748 4278255360
0.063078746 0.030240932 0.38018021 4278255360
0.063569717 0.030243536 0.38008565 4278255360
0.064060681 0.03024614 0.37999105 4278255360
0.064551651 0.030248744 0.37989646 4278255360
0.065042615 0.030251348 0.3798019 4278255360
0.065533578 0.030253952 0.37970731 4278255360
0.066024542 0.030256556 0.37961274 4278255360
0.066515513 0.03025916 0.37951815 4278255360
0.017418906 0.029998761 0.38897625 4278190335
0.017513523 0.029985249 0.38946703 4278190335
0.01760814 0.029971736 0.38995782 4278190335
0.017702756 0.029958224 0.3904486 4278190335
0.017797373 0.029944712 0.39093935 4278190335
0.01789199 0.029931201 0.39143014 4278190335
0.017986607 0.029917687 0.39192092 4278190335
0.018081224 0.029904176 0.39241171 4278190335
0.01817584 0.029890664 0.39290249 4278190335
0.018270457 0.029877152 0.39339328 4278190335
0.018365074 0.029863639 0.39388406 4278190335
0.018459693 0.029850127 0.39437482 4278190335
0.018554309 0.029836616 0.3948656 4278190335
0.018648926 0.029823104 0.39535639 4278190335
0.018743543 0.02980959 0.39584717 4278190335
0.01883816 0.029796079 0.39633796 4278190335
0.018932777 0.029782567 0.39682874 4278190335
0.019027393 0.029769056 0.3973195 4278190335
0.01912201 0.029755542 0.39781028 4278190335
0.019216627 0.02974203 0.39830106 4278190335
0.019311244 0.029728519 0.39879185 4278190335
0.01940586 0.029715007 0.39928263 4278190335
0.019500477 0.029701494 0.39977342 4278190335
0.019595094 0.029687982 0.4002642 4278190335
0.019689711 0.02967447 0.40075496 4278190335
0.019784328 0.029660959 0.40124574 4278190335
0.019878944 0.029647445 0.40173653 4278190335
0.019973561 0.029633934 0.40222731 4278190335
0.020068178 0.029620422 0.4027181 4278190335
0.020162795 0.029606909 0.40320888 4278190335
0.020257413 0.029593397 0.40369967 4278190335
0.020352028 0.029579885 0.40419042 4278190335
0.020446647 0.029566374 0.40468121 4278190335
0.020541264 0.02955286 0.40517199 4278190335
0.020635881 0.029539349 0.40566278 4278190335
0.020730497 0.029525837 0.40615356 4278190335
0.020825114 0.029512325 0.40664434 4278190335
0.020919731 0.029498812 0.4071351 4278190335
0.021014348 0.0294853 0.40762588 4278190335
0.021108964 0.029471789 0.40811667 4278190335
0.021203581 0.029458277 0.40860745 4278190335
0.021298198 0.029444763 0.40909824 4278190335
0.021392815 0.029431252 0.40958902 4278190335
0.021487432 0.02941774 0.41007981 4278190335
0.021582048 0.029404229 0.41057056 4278190335
0.021676665 0.029390715 0.41106135 4278190335
0.021771282 0.029377203 0.41155213 4278190335
0.021865899 0.029363692 0.41204292 4278190335
0.021960516 0.02935018 0.4125337 4278190335
0.022055134 0.029336667 0.41302449 4278190335
0.022149749 0.029323155 0.41351527 4278190335
0.022244368 0.029309643 0.41400602 4278190335
0.022338983 0.02929613 0.41449681 4278190335
0.022433601 0.029282618 0.41498759 4278190335
0.022528218 0.029269107 0.41547838 4278190335
0.022622835 0.029255595 0.41596916 4278190335
0.022717452 0.029242082 0.41645995 4278190335
0.022812068 0.02922857 0.4169507 4278190335
0.022906685 0.029215058 0.41744149 4278190335
0.023001302 0.029201547 0.41793227 4278190335
0.023095919 0.029188033 0.41842306 4278190335
0.023190536 0.029174522 0.41891384 4278190335
0.023285152 0.02916101 0.41940463 4278190335
0.023379769 0.029147498 0.41989541 4278190335
0.023474386 0.029133985 0.42038617 4278190335
0.023569003 0.029120473 0.42087695 4278190335
0.023663621 0.029106962 0.42136773 4278190335
0.023758236 0.02909345 0.42185852 4278190335
0.023852855 0.029079936 0.4223493 4278190335
0.02394747 0.029066425 0.42284009 4278190335
0.024042089 0.029052913 0.42333084 4278190335
0.024136703 0.029039402 0.42382163 4278190335
0.024231322 0.029025888 0.42431241 4278190335
0.024325939 0.029012376 0.4248032 4278190335
0.024420556 0.028998865 0.42529398 4278190335
0.024515172 0.028985351 0.42578477 4278190335
0.024609789 0.02897184 0.42627555 4278190335
0.024704406 0.028958328 0.42676631 4278190335
0.024799023 0.028944816 0.42725709 4278190335
0.02489364 0.028931303 0.42774788 4278190335
0.024988256 0.028917791 0.42823866 4278190335
0.025082873 0.02890428 0.42872944 4278190335
0.02517749 0.028890768 0.42922023 4278190335
0.025272107 0.028877255 0.42971098 4278190335
0.025366724 0.028863743 0.43020177 4278190335
0.025461342 0.028850231 0.43069255 4278190335
0.025555957 0.02883672 0.43118334 4278190335
0.025650576 0.028823206 0.43167412 4278190335
0.025745191 0.028809695 0.43216491 4278190335
0.025839809 0.028796183 0.43265569 4278190335
0.025934424 0.028782671 0.43314648 4278190335
0.026029043 0.028769158 0.43363723 4278190335
0.026123658 0.028755646 0.43412802 4278190335
0.026218276 0.028742135 0.4346188 4278190335
0.026312891 0.028728623 0.43510959 4278190335
0.02640751 0.028715109 0.43560037 4278190335
0.026502125 0.028701598 0.43609115 4278190335
0.026596744 0.028688086 0.43658191 4278190335
0.02669136 0.028674573 0.43707269 4278190335
0.026785977 0.028661061 0.43756348 4278190335
0.026880594 0.028647549 0.43805426 4278190335
0.017418906 0.029998761 0.38897625 4294967295
0.017229673 0.030025786 0.38799468 4294967295
0.017040439 0.030052809 0.38701314 4294967295
0.016851205 0.030079834 0.38603157 4294967295
0.016661972 0.030106857 0.38505 4294967295
0.016472738 0.030133883 0.38406846 4294967295
0.016283505 0.030160906 0.38308689 4294967295
0.016094269 0.030187931 0.38210532 4294967295
0.015905036 0.030214954 0.38112378 4294967295
0.015715802 0.030241979 0.38014221 4294967295
0.015526569 0.030269003 0.37916064 4294967295
0.015337335 0.030296028 0.37817907 4294967295
0.015148101 0.030323051 0.37719753 4294967295
0.014958868 0.030350076 0.37621596 4294967295
0.014769634 0.030377099 0.3752344 4294967295
