# .PCD v0.7 - Point Cloud Data file format
VERSION 0.7
FIELDS x y z rgb
SIZE 4 4 4 4
TYPE F F F U
COUNT 1 1 1 1
WIDTH 1059
HEIGHT 1
VIEWPOINT 0 0 0 1 0 0 0
POINTS 1059
DATA ascii
0.069559954 0.043208949 0.29700002 4279635971
0.070524611 0.043208949 0.29700002 4279570948
0.071489267 0.043208949 0.29700002 4279702534
0.072453924 0.043208949 0.29700002 4280360714
0.07341858 0.043208949 0.29700002 4281018642
0.074383236 0.043208949 0.29700002 4280887056
0.075601585 0.043354433 0.29800001 4279833602
0.07656949 0.043354433 0.29800001 4286217070
0.077537395 0.043354433 0.29800001 4282596143
0.0785053 0.043354433 0.29800001 4283181598
0.079473212 0.043354433 0.29800001 4281929223
0.080711059 0.043499921 0.29900002 4282191111
0.081682198 0.043499921 0.29900002 4282191111
0.082653359 0.043499921 0.29900002 4281863430
0.083624512 0.043499921 0.29900002 4281601541
0.084595665 0.043499921 0.29900002 4281798920
0.085566819 0.043499921 0.29900002 4281601541
0.086537972 0.043499921 0.29900002 4281601541
0.087509118 0.043499921 0.29900002 4281798150
0.088480271 0.043499921 0.29900002 4281929221
0.089152247 0.043354433 0.29800001 4282323209
0.090120159 0.043354433 0.29800001 4282717707
0.091393732 0.043499921 0.29900002 4282914573
0.092364885 0.043499921 0.29900002 4283373323
0.093336038 0.043499921 0.29900002 4283570702
0.09462259 0.043645404 0.30000001 4283438862
0.095596991 0.043645404 0.30000001 4283373071
0.096571393 0.043645404 0.30000001 4282259469
0.047691863 0.044471405 0.29900002 4284687384
0.048500262 0.044322666 0.29800001 4284555285
0.049468167 0.044322666 0.29800001 4284685072
0.050266825 0.044173937 0.29700002 4284684302
0.051231481 0.044173937 0.29700002 4285077777
0.052196138 0.044173937 0.29700002 4285405972
0.052981801 0.044025198 0.296 4285142800
0.053760968 0.043876469 0.29500002 4285472019
0.054719131 0.043876469 0.29500002 4285406226
0.055677291 0.043876469 0.29500002 4285208847
0.05644346 0.043727729 0.294 4284815888
0.057398375 0.043727729 0.294 4284226320
0.05835329 0.043727729 0.294 4283964946
0.059308197 0.043727729 0.294 4284095247
0.060263112 0.043727729 0.294 4284224780
0.062384415 0.043876469 0.29500002 4281208578
0.063342571 0.043876469 0.29500002 4280225280
0.064300738 0.043876469 0.29500002 4279635456
0.065480113 0.044025198 0.296 4279438080
0.066441514 0.044025198 0.296 4279372288
0.067630641 0.044173937 0.29700002 4279372800
0.068595298 0.044173937 0.29700002 4279372545
0.069794163 0.044322666 0.29800001 4279438338
0.070762068 0.044322666 0.29800001 4279570948
0.071729973 0.044322666 0.29800001 4279899913
0.07269787 0.044322666 0.29800001 4279965704
0.073665775 0.044322666 0.29800001 4280492300
0.07463368 0.044322666 0.29800001 4280821265
0.075855285 0.044471405 0.29900002 4281281046
0.076826438 0.044471405 0.29900002 4282592801
0.077797592 0.044471405 0.29900002 4282588949
0.078768745 0.044471405 0.29900002 4282585354
0.079739906 0.044471405 0.29900002 4282781963
0.080711059 0.044471405 0.29900002 4282912266
0.081955381 0.044620134 0.30000001 4282912520
0.082929783 0.044620134 0.30000001 4282650631
0.083904184 0.044620134 0.30000001 4282454022
0.084878586 0.044620134 0.30000001 4282125830
0.085852988 0.044620134 0.30000001 4282127113
0.086537972 0.044471405 0.29900002 4281667334
0.087509118 0.044471405 0.29900002 4281601541
0.088480271 0.044471405 0.29900002 4281733127
0.089451425 0.044471405 0.29900002 4281732357
0.090422578 0.044471405 0.29900002 4282192395
0.091393732 0.044471405 0.29900002 4282454795
0.092364885 0.044471405 0.29900002 4282717194
0.093648195 0.044620134 0.30000001 4282717194
0.09462259 0.044620134 0.30000001 4283046159
0.095915653 0.044768874 0.30100003 4283310358
0.096893303 0.044768874 0.30100003 4282985504
0.047532357 0.045290899 0.29800001 4284161810
0.048500262 0.045290899 0.29800001 4284357906
0.049468167 0.045290899 0.29800001 4284553486
0.050266825 0.045138918 0.29700002 4284750349
0.051231481 0.045138918 0.29700002 4285012238
0.05202039 0.04498693 0.296 4285472019
0.052802812 0.044834949 0.29500002 4288698704
0.053760968 0.044834949 0.29500002 4286594870
0.054719131 0.044834949 0.29500002 4285472019
0.055488553 0.044682965 0.294 4285274383
0.05644346 0.044682965 0.294 4285077261
0.057398375 0.044682965 0.294 4284946445
0.05835329 0.044682965 0.294 4285014037
0.059308197 0.044682965 0.294 4284487693
0.061426256 0.044834949 0.29500002 4282255872
0.062384415 0.044834949 0.29500002 4280225280
0.06355729 0.04498693 0.296 4279634944
0.064518705 0.04498693 0.296 4279503872
0.065701328 0.045138918 0.29700002 4279438080
0.066665985 0.045138918 0.29700002 4279372800
0.067858353 0.045290899 0.29800001 4279372545
0.068826258 0.045290899 0.29800001 4279439108
0.070999525 0.045442883 0.29900002 4279374598
0.071970679 0.045442883 0.29900002 4278585088
0.072941832 0.045442883 0.29900002 4278782464
0.073912986 0.045442883 0.29900002 4278848256
0.074884132 0.045442883 0.29900002 4278782464
0.075855285 0.045442883 0.29900002 4278913280
0.076826438 0.045442883 0.29900002 4280749573
0.078057781 0.045594864 0.30000001 4281799949
0.079032183 0.045594864 0.30000001 4282520076
0.080006585 0.045594864 0.30000001 4282781963
0.080980986 0.045594864 0.30000001 4283109385
0.081955381 0.045594864 0.30000001 4283109385
0.082929783 0.045594864 0.30000001 4283109385
0.083904184 0.045594864 0.30000001 4283044106
0.084878586 0.045594864 0.30000001 4282782217
0.085852988 0.045594864 0.30000001 4282717194
0.08682739 0.045594864 0.30000001 4282061574
0.087801784 0.045594864 0.30000001 4281667586
0.088480271 0.045442883 0.29900002 4281798918
0.089451425 0.045442883 0.29900002 4281733125
0.090422578 0.045442883 0.29900002 4281995014
0.091699392 0.045594864 0.30000001 4282849553
0.092673793 0.045594864 0.30000001 4283112465
0.093648195 0.045594864 0.30000001 4282980879
0.094938003 0.045746848 0.30100003 4282719504
0.095915653 0.045746848 0.30100003 4282127367
0.097215205 0.045898829 0.30200002 4281405961
0.047532357 0.046259131 0.29800001 4283833874
0.048500262 0.046259131 0.29800001 4283899153
0.049302168 0.046103902 0.29700002 4284356366
0.050266825 0.046103902 0.29700002 4284553486
0.051058982 0.045948666 0.296 4284881168
0.05202039 0.045948666 0.296 4285209617
0.052802812 0.045793436 0.29500002 4285079830
0.053760968 0.045793436 0.29500002 4286464565
0.054533638 0.045638204 0.294 4284879628
0.055488553 0.045638204 0.294 4285274383
0.05644346 0.045638204 0.294 4285077261
0.057398375 0.045638204 0.294 4284946445
0.05835329 0.045638204 0.294 4285079314
0.059308197 0.045638204 0.294 4284290314
0.060468093 0.045793436 0.29500002 4282518784
0.061426256 0.045793436 0.29500002 4281929475
0.062595889 0.045948666 0.296 4281012486
0.06355729 0.045948666 0.296 4280618757
0.064736672 0.046103902 0.29700002 4280094210
0.065701328 0.046103902 0.29700002 4279832321
0.066890448 0.046259131 0.29800001 4279635971
0.067858353 0.046259131 0.29800001 4281413152
0.069057226 0.046414368 0.29900002 4278913280
0.070028372 0.046414368 0.29900002 4278650880
0.070999525 0.046414368 0.29900002 4278782465
0.071970679 0.046414368 0.29900002 4278716929
0.072941832 0.046414368 0.29900002 4278585089
0.073912986 0.046414368 0.29900002 4278585089
0.075134575 0.046569597 0.30000001 4278585089
0.076108977 0.046569597 0.30000001 4278716675
0.077083379 0.046569597 0.30000001 4278781441
0.078057781 0.046569597 0.30000001 4279110147
0.079032183 0.046569597 0.30000001 4280683267
0.080006585 0.046569597 0.30000001 4282126602
0.080980986 0.046569597 0.30000001 4282847497
0.082228571 0.04672483 0.30100003 4282978313
0.083206221 0.04672483 0.30100003 4283044106
0.084183872 0.04672483 0.30100003 4283044106
0.084878586 0.046569597 0.30000001 4283110669
0.085852988 0.046569597 0.30000001 4282913803
0.08682739 0.046569597 0.30000001 4282586121
0.087801784 0.046569597 0.30000001 4281929475
0.088776186 0.046569597 0.30000001 4281930504
0.089750588 0.046569597 0.30000001 4281733125
0.09072499 0.046569597 0.30000001 4281863941
0.091699392 0.046569597 0.30000001 4282389772
0.092673793 0.046569597 0.30000001 4283111182
0.09396036 0.04672483 0.30100003 4283507223
0.095253408 0.046880063 0.30200002 4282590746
0.096234307 0.046880063 0.30200002 4281931021
0.097215205 0.046880063 0.30200002 4281865226
0.048337512 0.047068883 0.29700002 4283637011
0.051058982 0.046910398 0.296 4284421902
0.051844649 0.04675192 0.29500002 4284881168
0.052802812 0.04675192 0.29500002 4285276180
0.053578723 0.046593435 0.294 4290607469
0.054533638 0.046593435 0.294 4284617226
0.055488553 0.046593435 0.294 4285143054
0.05644346 0.046593435 0.294 4284880398
0.057398375 0.046593435 0.294 4284486410
0.05835329 0.046593435 0.294 4284290314
0.060468093 0.04675192 0.29500002 4282190850
0.065922543 0.04722736 0.29800001 4281602566
0.066890448 0.04722736 0.29800001 4280228108
0.068086065 0.047385845 0.29900002 4278781696
0.070999525 0.047385845 0.29900002 4278585089
0.071970679 0.047385845 0.29900002 4278716675
0.073185779 0.047544327 0.30000001 4278585089
0.074160181 0.047544327 0.30000001 4278585859
0.075134575 0.047544327 0.30000001 4278454273
0.076108977 0.047544327 0.30000001 4278585089
0.077083379 0.047544327 0.30000001 4278716675
0.078057781 0.047544327 0.30000001 4278585859
0.079295628 0.047702808 0.30100003 4278979074
0.080273278 0.047702808 0.30100003 4280028678
0.081250928 0.047702808 0.30100003 4282192393
0.082228571 0.047702808 0.30100003 4282717194
0.083206221 0.047702808 0.30100003 4282913803
0.084183872 0.047702808 0.30100003 4283242255
0.085161522 0.047702808 0.30100003 4283242768
0.085852988 0.047544327 0.30000001 4283176975
0.08682739 0.047544327 0.30000001 4282258186
0.087801784 0.047544327 0.30000001 4283184166
0.088776186 0.047544327 0.30000001 4281801230
0.089750588 0.047544327 0.30000001 4281602054
0.09072499 0.047544327 0.30000001 4281733127
0.091699392 0.047544327 0.30000001 4282061320
0.092982709 0.047702808 0.30100003 4283242766
0.09396036 0.047702808 0.30100003 4282453250
0.095253408 0.047861289 0.30200002 4283513131
0.096552961 0.048019767 0.303 4282194707
0.0975371 0.048019767 0.303 4282127115
0.051844649 0.047710408 0.29500002 4284553488
0.052623816 0.047548674 0.294 4284749582
0.053578723 0.047548674 0.294 4285011984
0.054533638 0.047548674 0.294 4285011984
0.055488553 0.047548674 0.294 4285209363
0.05644346 0.047548674 0.294 4284617996
0.057398375 0.047548674 0.294 4284223751
0.065922543 0.048195597 0.29800001 4280945923
0.066890448 0.048195597 0.29800001 4279175938
0.068086065 0.04835733 0.29900002 4278914051
0.072211385 0.048519056 0.30000001 4278717445
0.073185779 0.048519056 0.30000001 4278849033
0.074160181 0.048519056 0.30000001 4278651654
0.075134575 0.048519056 0.30000001 4278651654
0.076108977 0.048519056 0.30000001 4278454275
0.077083379 0.048519056 0.30000001 4278454275
0.078317977 0.04868079 0.30100003 4278454273
0.079295628 0.04868079 0.30100003 4281941554
0.080273278 0.04868079 0.30100003 4278979844
0.081250928 0.04868079 0.30100003 4280158722
0.082228571 0.04868079 0.30100003 4282390287
0.083206221 0.04868079 0.30100003 4283110928
0.084183872 0.04868079 0.30100003 4283242514
0.085161522 0.04868079 0.30100003 4283308307
0.085852988 0.048519056 0.30000001 4282521873
0.08682739 0.048519056 0.30000001 4286349937
0.087801784 0.048519056 0.30000001 4285889902
0.088776186 0.048519056 0.30000001 4286281064
0.089750588 0.048519056 0.30000001 4280880130
0.09072499 0.048519056 0.30000001 4281601543
0.092005059 0.04868079 0.30100003 4281798150
0.092982709 0.04868079 0.30100003 4282980364
0.094272517 0.04884252 0.30200002 4283308300
0.095253408 0.04884252 0.30200002 4284498228
0.096552961 0.049004246 0.303 4282261270
0.0975371 0.049004246 0.303 4282784532
0.052623816 0.048503909 0.294 4284421902
0.053578723 0.048503909 0.294 4284552718
0.054533638 0.048503909 0.294 4284552718
0.055488553 0.048503909 0.294 4284750095
0.05644346 0.048503909 0.294 4284224523
0.064954638 0.049163826 0.29800001 4281274888
0.070999525 0.049328808 0.29900002 4278784008
0.072211385 0.049493786 0.30000001 4278914824
0.076108977 0.049493786 0.30000001 4278914054
0.077083379 0.049493786 0.30000001 4278717447
0.078317977 0.049658768 0.30100003 4278717447
0.081250928 0.049658768 0.30100003 4279175938
0.082228571 0.049658768 0.30100003 4280028165
0.083206221 0.049658768 0.30100003 4282652946
0.084183872 0.049658768 0.30100003 4282980625
0.085161522 0.049658768 0.30100003 4282592549
0.085852988 0.049493786 0.30000001 4286085484
0.08682739 0.049493786 0.30000001 4285693808
0.087801784 0.049493786 0.30000001 4285562222
0.088776186 0.049493786 0.30000001 4285823341
0.089750588 0.049493786 0.30000001 4280291337
0.091027409 0.049658768 0.30100003 4281536263
0.092005059 0.049658768 0.30100003 4281601543
0.092982709 0.049658768 0.30100003 4282454535
0.094272517 0.049823746 0.30200002 4283176973
0.095568813 0.049988721 0.303 4283178256
0.096552961 0.049988721 0.303 4283049498
0.0975371 0.049988721 0.303 4282980625
0.051668901 0.049459144 0.294 4283898899
0.066143766 0.050300293 0.29900002 4278913280
0.069057226 0.050300293 0.29900002 4278783238
0.070028372 0.050300293 0.29900002 4278651652
0.075134575 0.050468519 0.30000001 4279374598
0.076108977 0.050468519 0.30000001 4279308809
0.078057781 0.050468519 0.30000001 4278849033
0.082228571 0.05063675 0.30100003 4279111176
0.083206221 0.05063675 0.30100003 4281078027
0.083904184 0.050468519 0.30000001 4284961611
0.084878586 0.050468519 0.30000001 4286022003
0.085852988 0.050468519 0.30000001 4285824624
0.08682739 0.050468519 0.30000001 4285759601
0.087801784 0.050468519 0.30000001 4285693808
0.088776186 0.050468519 0.30000001 4285627247
0.089750588 0.050468519 0.30000001 4281543716
0.091027409 0.05063675 0.30100003 4281536263
0.092005059 0.05063675 0.30100003 4281667336
0.092982709 0.05063675 0.30100003 4282257670
0.094272517 0.050804976 0.30200002 4283176973
0.095568813 0.050973203 0.303 4283439632
0.096552961 0.050973203 0.303 4283376921
0.0975371 0.050973203 0.303 4282915346
0.063986734 0.051100291 0.29800001 4280682240
0.064954638 0.051100291 0.29800001 4279110147
0.066143766 0.05127177 0.29900002 4278650625
0.068086065 0.05127177 0.29900002 4278849033
0.079032183 0.051443245 0.30000001 4279045894
0.080273278 0.051614728 0.30100003 4278585859
0.082228571 0.051614728 0.30100003 4278783240
0.082929783 0.051443245 0.30000001 4281873966
0.083904184 0.051443245 0.30000001 4285759603
0.084878586 0.051443245 0.30000001 4285694321
0.085852988 0.051443245 0.30000001 4285693808
0.08682739 0.051443245 0.30000001 4285693808
0.087801784 0.051443245 0.30000001 4285693808
0.088776186 0.051443245 0.30000001 4285496429
0.089750588 0.051443245 0.30000001 4284901214
0.091027409 0.051614728 0.30100003 4281470984
0.092005059 0.051614728 0.30100003 4281733129
0.092982709 0.051614728 0.30100003 4282323463
0.094272517 0.051786203 0.30200002 4283046157
0.095568813 0.051957678 0.303 4283242253
0.096552961 0.051957678 0.303 4283901981
0.0975371 0.051957678 0.303 4282784530
0.068086065 0.052243255 0.29900002 4278848261
0.080980986 0.052417979 0.30000001 4278850314
0.082929783 0.052417979 0.30000001 4278849031
0.083904184 0.052417979 0.30000001 4285760630
0.084878586 0.052417979 0.30000001 4285629042
0.085852988 0.052417979 0.30000001 4285694321
0.08682739 0.052417979 0.30000001 4285431149
0.087801784 0.052417979 0.30000001 4285693808
0.088776186 0.052417979 0.30000001 4285693808
0.089750588 0.052417979 0.30000001 4285427815
0.091027409 0.05259271 0.30100003 4281601543
0.092005059 0.05259271 0.30100003 4281863945
0.092982709 0.05259271 0.30100003 4282388742
0.094272517 0.052767433 0.30200002 4282717194
0.095568813 0.052942157 0.303 4283308046
0.096552961 0.052942157 0.303 4283177743
0.0975371 0.052942157 0.303 4282849039
0.063018829 0.053036761 0.29800001 4281010949
0.080006585 0.053392712 0.30000001 4278651652
0.082929783 0.053392712 0.30000001 4278521090
0.083904184 0.053392712 0.30000001 4286352253
0.084878586 0.053392712 0.30000001 4285628530
0.085852988 0.053392712 0.30000001 4285694321
0.08682739 0.053392712 0.30000001 4285759601
0.087801784 0.053392712 0.30000001 4285759601
0.088776186 0.053392712 0.30000001 4285496429
0.089750588 0.053392712 0.30000001 4286020720
0.091027409 0.053570691 0.30100003 4281732875
0.092005059 0.053570691 0.30100003 4282061324
0.092982709 0.053570691 0.30100003 4282191109
0.094272517 0.053748664 0.30200002 4282782217
0.095253408 0.053748664 0.30200002 4283569934
0.096552961 0.053926639 0.303 4284164638
0.0975371 0.053926639 0.303 4282914319
0.098521248 0.053926639 0.303 4283702806
0.059711657 0.053642541 0.296 4281538056
0.060878046 0.053823769 0.29700002 4281733638
0.061842706 0.053823769 0.29700002 4281733640
0.083904184 0.054367442 0.30000001 4286351738
0.084595665 0.054186217 0.29900002 4285760116
0.085566819 0.054186217 0.29900002 4285693810
0.08682739 0.054367442 0.30000001 4285693808
0.087801784 0.054367442 0.30000001 4285759601
0.088776186 0.054367442 0.30000001 4285693808
0.089750588 0.054367442 0.30000001 4286482041
0.091027409 0.05454867 0.30100003 4281930254
0.092005059 0.05454867 0.30100003 4282257420
0.092982709 0.05454867 0.30100003 4282322182
0.094272517 0.05472989 0.30200002 4282848010
0.095253408 0.05472989 0.30200002 4283569934
0.096552961 0.054911114 0.303 4283637011
0.0975371 0.054911114 0.303 4283308048
0.098521248 0.054911114 0.303 4283570450
0.063986734 0.054973226 0.29800001 4278978820
0.080980986 0.055342171 0.30000001 4278521090
0.081955381 0.055342171 0.30000001 4278784262
0.082929783 0.055342171 0.30000001 4278191360
0.083904184 0.055342171 0.30000001 4286352251
0.084595665 0.055157702 0.29900002 4285628528
0.085566819 0.055157702 0.29900002 4285628528
0.08682739 0.055342171 0.30000001 4285759601
0.087801784 0.055342171 0.30000001 4285759601
0.088776186 0.055342171 0.30000001 4285693036
0.089750588 0.055342171 0.30000001 4286481269
0.091027409 0.055526651 0.30100003 4282126604
0.092005059 0.055526651 0.30100003 4282388490
0.092982709 0.055526651 0.30100003 4282519815
0.094272517 0.05571112 0.30200002 4282913288
0.095253408 0.05571112 0.30200002 4283635727
0.096234307 0.05571112 0.30200002 4283307276
0.0975371 0.055895593 0.303 4283439634
0.098521248 0.055895593 0.303 4284030485
0.065172613 0.05612918 0.29900002 4278718728
0.067114912 0.05612918 0.29900002 4278980101
0.080980986 0.056316901 0.30000001 4278848261
0.081955381 0.056316901 0.30000001 4278717445
0.082929783 0.056316901 0.30000001 4278191616
0.083904184 0.056316901 0.30000001 4286220667
0.084595665 0.05612918 0.29900002 4285628530
0.085566819 0.05612918 0.29900002 4285628530
0.08682739 0.056316901 0.30000001 4285693810
0.087801784 0.056316901 0.30000001 4285693808
0.088776186 0.056316901 0.30000001 4285562220
0.090049759 0.056504626 0.30100003 4285098846
0.091027409 0.056504626 0.30100003 4282520078
0.092005059 0.056504626 0.30100003 4282651147
0.092982709 0.056504626 0.30100003 4282782215
0.094272517 0.056692347 0.30200002 4283241483
0.095253408 0.056692347 0.30200002 4283635981
0.096234307 0.056692347 0.30200002 4283109897
0.097215205 0.056692347 0.30200002 4283966743
0.098521248 0.056880068 0.303 4284952355
0.099505395 0.056880068 0.303 4284232230
0.067114912 0.057100665 0.29900002 4278783238
0.080006585 0.057291634 0.30000001 4278914308
0.080980986 0.057291634 0.30000001 4278717445
0.081955381 0.057291634 0.30000001 4278914824
0.082929783 0.057291634 0.30000001 4279309066
0.083904184 0.057291634 0.30000001 4285760116
0.084595665 0.057100665 0.29900002 4285431151
0.085566819 0.057100665 0.29900002 4285628276
0.08682739 0.057291634 0.30000001 4285431151
0.087801784 0.057291634 0.30000001 4285562222
0.088776186 0.057291634 0.30000001 4285496429
0.090049759 0.057482608 0.30100003 4283322178
0.091027409 0.057482608 0.30100003 4282651149
0.092005059 0.057482608 0.30100003 4282847243
0.092982709 0.057482608 0.30100003 4282978311
0.09396036 0.057482608 0.30100003 4283307276
0.095253408 0.057673577 0.30200002 4283569421
0.096234307 0.057673577 0.30200002 4283701007
0.097215205 0.057673577 0.30200002 4284358419
0.098196104 0.057673577 0.30200002 4284752664
0.099176995 0.057673577 0.30200002 4285020460
0.063986734 0.057877917 0.29800001 4278914306
0.065172613 0.058072142 0.29900002 4278652676
0.068086065 0.058072142 0.29900002 4278915076
0.080006585 0.05826636 0.30000001 4278848261
0.080980986 0.05826636 0.30000001 4278783240
0.081955381 0.05826636 0.30000001 4278914826
0.082929783 0.05826636 0.30000001 4283259469
0.083904184 0.05826636 0.30000001 4285629044
0.084595665 0.058072142 0.29900002 4285628530
0.085852988 0.05826636 0.30000001 4285760116
0.08682739 0.05826636 0.30000001 4285694323
0.087801784 0.05826636 0.30000001 4285628528
0.088776186 0.05826636 0.30000001 4285430634
0.090049759 0.058460586 0.30100003 4281478175
0.091027409 0.058460586 0.30100003 4283110415
0.092005059 0.058460586 0.30100003 4283044106
0.092982709 0.058460586 0.30100003 4283437837
0.09396036 0.058460586 0.30100003 4283568651
0.094938003 0.058460586 0.30100003 4283765517
0.096234307 0.058654804 0.30200002 4284093966
0.097215205 0.058654804 0.30200002 4285013269
0.098196104 0.058654804 0.30200002 4285079062
0.099176995 0.058654804 0.30200002 4284686873
0.10015789 0.058654804 0.30200002 4285283634
0.063986734 0.058846153 0.29800001 4278914306
0.068086065 0.059043627 0.29900002 4278848515
0.079032183 0.059241094 0.30000001 4278914054
0.080006585 0.059241094 0.30000001 4278782470
0.080980986 0.059241094 0.30000001 4278914826
0.081955381 0.059241094 0.30000001 4278190848
0.082929783 0.059241094 0.30000001 4286220667
0.083904184 0.059241094 0.30000001 4285628530
0.084878586 0.059241094 0.30000001 4285628530
0.085852988 0.059241094 0.30000001 4285825909
0.08682739 0.059241094 0.30000001 4285628530
0.087801784 0.059241094 0.30000001 4285431149
0.088776186 0.059241094 0.30000001 4286744695
0.090049759 0.059438568 0.30100003 4281209865
0.091027409 0.059438568 0.30100003 4283044106
0.092005059 0.059438568 0.30100003 4283240971
0.092982709 0.059438568 0.30100003 4283634446
0.09396036 0.059438568 0.30100003 4283700237
0.094938003 0.059438568 0.30100003 4284356114
0.095915653 0.059438568 0.30100003 4284882712
0.096893303 0.059438568 0.30100003 4285078549
0.098196104 0.059636038 0.30200002 4285275156
0.099176995 0.059636038 0.30200002 4285144340
0.10015789 0.059636038 0.30200002 4285015066
0.065172613 0.060015105 0.29900002 4278849031
0.069057226 0.060015105 0.29900002 4278980101
0.078057781 0.060215823 0.30000001 4279111428
0.079032183 0.060215823 0.30000001 4278782468
0.080006585 0.060215823 0.30000001 4278848261
0.080980986 0.060215823 0.30000001 4279045640
0.081955381 0.060215823 0.30000001 4282797635
0.082929783 0.060215823 0.30000001 4285693810
0.083904184 0.060215823 0.30000001 4285694323
0.084878586 0.060215823 0.30000001 4285694323
0.085852988 0.060215823 0.30000001 4285628530
0.08682739 0.060215823 0.30000001 4285694321
0.087801784 0.060215823 0.30000001 4285365354
0.088776186 0.060215823 0.30000001 4285621589
0.090049759 0.060416546 0.30100003 4282980627
0.091027409 0.060416546 0.30100003 4283372557
0.092005059 0.060416546 0.30100003 4283306251
0.092982709 0.060416546 0.30100003 4283765517
0.09396036 0.060416546 0.30100003 4283962896
0.094938003 0.060416546 0.30100003 4284093194
0.095915653 0.060416546 0.30100003 4289884516
0.096893303 0.060416546 0.30100003 4286330408
0.097870953 0.060416546 0.30100003 4285144340
0.098848604 0.060416546 0.30100003 4285208593
0.10015789 0.060617261 0.30200002 4284881168
0.068086065 0.06098659 0.29900002 4278390017
0.070262581 0.061190557 0.30000001 4278717445
0.071236983 0.061190557 0.30000001 4278849033
0.075134575 0.061190557 0.30000001 4279111430
0.076362684 0.061394528 0.30100003 4278782465
0.078317977 0.061394528 0.30100003 4278716929
0.079295628 0.061394528 0.30100003 4278848263
0.080273278 0.061394528 0.30100003 4278979849
0.080980986 0.061190557 0.30000001 4278915848
0.081955381 0.061190557 0.30000001 4286285945
0.082929783 0.061190557 0.30000001 4285759601
0.083904184 0.061190557 0.30000001 4285628528
0.084878586 0.061190557 0.30000001 4285628530
0.085852988 0.061190557 0.30000001 4285825909
0.08682739 0.061190557 0.30000001 4285431151
0.087801784 0.061190557 0.30000001 4285759601
0.088776186 0.061190557 0.30000001 4282523158
0.089750588 0.061190557 0.30000001 4283372817
0.091027409 0.061394528 0.30100003 4283766030
0.092005059 0.061394528 0.30100003 4283634444
0.092982709 0.061394528 0.30100003 4283765517
0.09396036 0.061394528 0.30100003 4283962896
0.094938003 0.061394528 0.30100003 4284685072
0.095915653 0.061394528 0.30100003 4284553997
0.096893303 0.061394528 0.30100003 4288765517
0.097870953 0.061394528 0.30100003 4285144340
0.098848604 0.061394528 0.30100003 4285209365
0.099826254 0.061394528 0.30100003 4284815890
0.1008039 0.061394528 0.30100003 4282718739
0.066364981 0.062165283 0.30000001 4278783238
0.069288179 0.062165283 0.30000001 4278585859
0.072211385 0.062165283 0.30000001 4278848263
0.073429734 0.062372506 0.30100003 4278848263
0.074407384 0.062372506 0.30100003 4278848010
0.075385034 0.062372506 0.30100003 4278848263
0.077340335 0.062372506 0.30100003 4278191360
0.079295628 0.062372506 0.30100003 4278979849
0.080273278 0.062372506 0.30100003 4278914054
0.081250928 0.062372506 0.30100003 4285628530
0.082228571 0.062372506 0.30100003 4285497456
0.082929783 0.062165283 0.30000001 4285694321
0.083904184 0.062165283 0.30000001 4285628528
0.084878586 0.062165283 0.30000001 4285628530
0.085852988 0.062165283 0.30000001 4285628530
0.08682739 0.062165283 0.30000001 4285496944
0.087801784 0.062165283 0.30000001 4284968032
0.088776186 0.062165283 0.30000001 4283439380
0.090049759 0.062372506 0.30100003 4283701007
0.091027409 0.062372506 0.30100003 4283897357
0.092005059 0.062372506 0.30100003 4283765769
0.092982709 0.062372506 0.30100003 4283831562
0.09396036 0.062372506 0.30100003 4284028171
0.094938003 0.062372506 0.30100003 4284421902
0.095915653 0.062372506 0.30100003 4284750095
0.096893303 0.062372506 0.30100003 4284750095
0.097870953 0.062372506 0.30100003 4285144340
0.098848604 0.062372506 0.30100003 4285079062
0.099826254 0.062372506 0.30100003 4284553745
0.1008039 0.062372506 0.30100003 4283703065
0.067339376 0.06314002 0.30000001 4278453760
0.069288179 0.06314002 0.30000001 4278717445
0.072452091 0.063350484 0.30100003 4278716677
0.073429734 0.063350484 0.30100003 4282205759
0.074654587 0.063560948 0.30200002 4282141247
0.079559065 0.063560948 0.30200002 4278979590
0.080539964 0.063560948 0.30200002 4286285693
0.081250928 0.063350484 0.30100003 4285628530
0.082228571 0.063350484 0.30100003 4285694323
0.083206221 0.063350484 0.30100003 4285760114
0.083904184 0.06314002 0.30000001 4285760114
0.084878586 0.06314002 0.30000001 4285760114
0.085852988 0.06314002 0.30000001 4285628528
0.08682739 0.06314002 0.30000001 4285889134
0.087801784 0.06314002 0.30000001 4281934617
0.088776186 0.06314002 0.30000001 4283831823
0.090049759 0.063350484 0.30100003 4283831310
0.091027409 0.063350484 0.30100003 4284093194
0.092005059 0.063350484 0.30100003 4284224778
0.092982709 0.063350484 0.30100003 4284093962
0.09396036 0.063350484 0.30100003 4283962376
0.094938003 0.063350484 0.30100003 4284356364
0.095915653 0.063350484 0.30100003 4284421900
0.096893303 0.063350484 0.30100003 4284683789
0.097870953 0.063350484 0.30100003 4284946963
0.098848604 0.063350484 0.30100003 4284750869
0.099826254 0.063350484 0.30100003 4284224782
0.1008039 0.063350484 0.30100003 4283506458
0.069519147 0.064328469 0.30100003 4278848261
0.072692789 0.064542182 0.30200002 4278651652
0.076870069 0.064755894 0.303 4278783238
0.077854216 0.064755894 0.303 4278585088
0.078838356 0.064755894 0.303 4279832585
0.079559065 0.064542182 0.30200002 4282597687
0.080539964 0.064542182 0.30200002 4285496431
0.081520863 0.064542182 0.30200002 4285496944
0.082501754 0.064542182 0.30200002 4285694323
0.083206221 0.064328469 0.30100003 4285694321
0.084183872 0.064328469 0.30100003 4285694321
0.085161522 0.064328469 0.30100003 4285628528
0.086139172 0.064328469 0.30100003 4285760114
0.08682739 0.064114749 0.30000001 4284564284
0.088094465 0.064328469 0.30100003 4283702036
0.089072116 0.064328469 0.30100003 4284224528
0.090049759 0.064328469 0.30100003 4284158735
0.091027409 0.064328469 0.30100003 4284158732
0.092005059 0.064328469 0.30100003 4284290318
0.092982709 0.064328469 0.30100003 4284224782
0.09396036 0.064328469 0.30100003 4284093966
0.094938003 0.064328469 0.30100003 4283963150
0.095915653 0.064328469 0.30100003 4283897357
0.096893303 0.064328469 0.30100003 4284028173
0.097870953 0.064328469 0.30100003 4284356368
0.098848604 0.064328469 0.30100003 4284291345
0.099826254 0.064328469 0.30100003 4284027919
0.07171189 0.065523408 0.30200002 4279176453
0.072933495 0.065740369 0.303 4279175940
0.073917635 0.065740369 0.303 4279109893
0.074901782 0.065740369 0.303 4279175940
0.075885922 0.065740369 0.303 4279372549
0.076870069 0.065740369 0.303 4280422923
0.077854216 0.065740369 0.303 4282194193
0.078838356 0.065740369 0.303 4282850325
0.079822503 0.065740369 0.303 4281803285
0.08080665 0.065740369 0.303 4286218099
0.081520863 0.065523408 0.30200002 4285496944
0.082501754 0.065523408 0.30200002 4285694323
0.083482653 0.065523408 0.30200002 4285496942
0.084183872 0.065306447 0.30100003 4285694321
0.085161522 0.065306447 0.30100003 4285496427
0.086139172 0.065306447 0.30100003 4285229659
0.087116823 0.065306447 0.30100003 4284029974
0.088094465 0.065306447 0.30100003 4284225552
0.089072116 0.065306447 0.30100003 4284093196
0.090049759 0.065306447 0.30100003 4284158989
0.091027409 0.065306447 0.30100003 4284421904
0.092005059 0.065306447 0.30100003 4284356368
0.092982709 0.065306447 0.30100003 4284028173
0.09396036 0.065306447 0.30100003 4283832077
0.094938003 0.065306447 0.30100003 4283504909
0.095915653 0.065306447 0.30100003 4283504909
0.096893303 0.065306447 0.30100003 4283833106
0.097870953 0.065306447 0.30100003 4283833106
0.098848604 0.065306447 0.30100003 4283833106
0.099826254 0.065306447 0.30100003 4283569936
0.071949348 0.066724852 0.303 4280487433
0.072933495 0.066724852 0.303 4281405968
0.074161589 0.066945069 0.30400002 4282062353
0.075148985 0.066945069 0.30400002 4282061070
0.076136373 0.066945069 0.30400002 4282717969
0.077123769 0.066945069 0.30400002 4283177493
0.078111164 0.066945069 0.30400002 4283571220
0.078838356 0.066724852 0.303 4283571220
0.079822503 0.066724852 0.303 4282456848
0.08080665 0.066724852 0.303 4286610799
0.081790797 0.066724852 0.303 4285825909
0.082501754 0.066504642 0.30200002 4285496944
0.083482653 0.066504642 0.30200002 4285694321
0.084463552 0.066504642 0.30200002 4285496942
0.085161522 0.066284426 0.30100003 4286343516
0.086139172 0.066284426 0.30100003 4283703319
0.087116823 0.066284426 0.30100003 4284224782
0.088094465 0.066284426 0.30100003 4284224525
0.089072116 0.066284426 0.30100003 4284290318
0.090348929 0.066504642 0.30200002 4284224525
0.091329828 0.066504642 0.30200002 4284421904
0.092310719 0.066504642 0.30200002 4284158989
0.093291618 0.066504642 0.30200002 4283570188
0.094272517 0.066504642 0.30200002 4283045387
0.095253408 0.066504642 0.30200002 4282782733
0.096234307 0.066504642 0.30200002 4282980112
0.097215205 0.066504642 0.30200002 4283177491
0.097870953 0.066284426 0.30100003 4283440663
0.098848604 0.066284426 0.30100003 4283441176
0.072186805 0.067932792 0.30400002 4280619273
0.073174201 0.067932792 0.30400002 4282389774
0.074161589 0.067932792 0.30400002 4283241485
0.075148985 0.067932792 0.30400002 4283044106
0.076136373 0.067932792 0.30400002 4283240458
0.077123769 0.067932792 0.30400002 4283569423
0.078111164 0.067932792 0.30400002 4284029974
0.07909856 0.067932792 0.30400002 4283964181
0.080085948 0.067932792 0.30400002 4283638294
0.08080665 0.067709327 0.303 4287463793
0.081790797 0.067709327 0.303 4285693808
0.082774937 0.067709327 0.303 4285693808
0.083482653 0.067485869 0.30200002 4285824624
0.084463552 0.067485869 0.30200002 4284570446
0.085444443 0.067485869 0.30200002 4283766802
0.086425342 0.067485869 0.30200002 4284421907
0.08740624 0.067485869 0.30200002 4284421904
0.088387132 0.067485869 0.30200002 4284552718
0.08936803 0.067485869 0.30200002 4284421132
0.090348929 0.067485869 0.30200002 4284552718
0.091329828 0.067485869 0.30200002 4284224782
0.092310719 0.067485869 0.30200002 4283830794
0.093291618 0.067485869 0.30200002 4282587405
0.094272517 0.067485869 0.30200002 4282127113
0.095253408 0.067485869 0.30200002 4282324494
0.096234307 0.067485869 0.30200002 4282719252
0.097215205 0.067485869 0.30200002 4282850323
0.097870953 0.067262404 0.30100003 4283508253
0.072424263 0.069147229 0.30500001 4284831819
0.073414907 0.069147229 0.30500001 4282718737
0.074405544 0.069147229 0.30500001 4283569423
0.07539618 0.069147229 0.30500001 4283568651
0.076386817 0.069147229 0.30500001 4283633931
0.077377461 0.069147229 0.30500001 4283831310
0.078111164 0.068920523 0.30400002 4284226581
0.07909856 0.068920523 0.30400002 4284358167
0.080085948 0.068920523 0.30400002 4284293657
0.081073344 0.068920523 0.30400002 4286867291
0.081790797 0.068693802 0.303 4285693036
0.082774937 0.068693802 0.303 4286153074
0.083759077 0.068693802 0.303 4283905325
0.084463552 0.068467095 0.30200002 4283899415
0.085444443 0.068467095 0.30200002 4284487954
0.086425342 0.068467095 0.30200002 4284422159
0.08740624 0.068467095 0.30200002 4284553488
0.088387132 0.068467095 0.30200002 4284487695
0.089663945 0.068693802 0.303 4284618511
0.090648092 0.068693802 0.303 4284487695
0.09163224 0.068693802 0.303 4283897355
0.092616387 0.068693802 0.303 4282846725
0.093600526 0.068693802 0.303 4282324494
0.094584674 0.068693802 0.303 4283773737
0.095568813 0.068693802 0.303 4283184166
0.096552961 0.068693802 0.303 4283711796
0.0975371 0.068693802 0.303 4284372552
0.072424263 0.070138201 0.30500001 4286546035
0.073414907 0.070138201 0.30500001 4282128398
0.074405544 0.070138201 0.30500001 4283766800
0.07539618 0.070138201 0.30500001 4283700237
0.076386817 0.070138201 0.30500001 4283699724
0.077377461 0.070138201 0.30500001 4284027919
0.078111164 0.069908246 0.30400002 4284422931
0.07909856 0.069908246 0.30400002 4284554517
0.080085948 0.069908246 0.30400002 4284817687
0.081073344 0.069908246 0.30400002 4284753179
0.082060739 0.069908246 0.30400002 4286469455
0.082774937 0.069678284 0.303 4283176212
0.083759077 0.069678284 0.303 4284422677
0.084743224 0.069678284 0.303 4284553747
0.085727371 0.069678284 0.303 4284487695
0.086711518 0.069678284 0.303 4284421902
0.087695666 0.069678284 0.303 4284552718
0.088679798 0.069678284 0.303 4284685074
0.089663945 0.069678284 0.303 4284421902
0.090947263 0.069908246 0.30400002 4284158987
0.091934659 0.069908246 0.30400002 4282585606
0.092922054 0.069908246 0.30400002 4282257416
0.09390945 0.069908246 0.30400002 4281340168
0.094896838 0.069908246 0.30400002 4285292111
0.095568813 0.069678284 0.303 4285626984
0.096552961 0.069678284 0.303 4285824876
0.0975371 0.069678284 0.303 4286022255
0.07539618 0.07112918 0.30500001 4284292115
0.076386817 0.07112918 0.30500001 4284357138
0.077377461 0.07112918 0.30500001 4284422161
0.078368105 0.07112918 0.30500001 4284553747
0.07909856 0.070895977 0.30400002 4284685331
0.080085948 0.070895977 0.30400002 4284815888
0.081073344 0.070895977 0.30400002 4284815888
0.082060739 0.070895977 0.30400002 4285013269
0.08304812 0.070895977 0.30400002 4285014041
0.084035516 0.070895977 0.30400002 4284685076
0.084743224 0.070662759 0.303 4284619281
0.085727371 0.070662759 0.303 4284685074
0.086711518 0.070662759 0.303 4284750865
0.087985091 0.070895977 0.30400002 4284685072
0.088972479 0.070895977 0.30400002 4284553486
0.089959875 0.070895977 0.30400002 4284093966
0.090947263 0.070895977 0.30400002 4283240458
0.091934659 0.070895977 0.30400002 4282652944
0.092922054 0.070895977 0.30400002 4282392084
0.09390945 0.070895977 0.30400002 4286612339
0.094896838 0.070895977 0.30400002 4285889902
0.095884226 0.070895977 0.30400002 4285956208
0.096552961 0.070662759 0.303 4286087796
0.076386817 0.07212016 0.30500001 4284553488
0.077377461 0.07212016 0.30500001 4284553488
0.078111164 0.071883701 0.30400002 4284553488
0.07909856 0.071883701 0.30400002 4284685074
0.079822503 0.071647234 0.303 4284750097
0.08080665 0.071647234 0.303 4284815375
0.082060739 0.071883701 0.30400002 4285144340
0.08304812 0.071883701 0.30400002 4285013267
0.084035516 0.071883701 0.30400002 4285013269
0.085022911 0.071883701 0.30400002 4285013269
0.086010307 0.071883701 0.30400002 4285079060
0.086997695 0.071883701 0.30400002 4284685072
0.087985091 0.071883701 0.30400002 4284487693
0.088972479 0.071883701 0.30400002 4284224780
0.090255789 0.07212016 0.30500001 4283438350
0.091246434 0.07212016 0.30500001 4283045389
0.09223707 0.07212016 0.30500001 4284305214
0.093227714 0.07212016 0.30500001 4286349162
0.094218358 0.07212016 0.30500001 4285955695
0.094896838 0.071883701 0.30400002 4285955695
0.095884226 0.071883701 0.30400002 4285956210
0.077377461 0.073111132 0.30500001 4284815375
0.078111164 0.072871432 0.30400002 4284815375
0.078838356 0.072631717 0.303 4284881168
0.079822503 0.072631717 0.303 4284881168
0.08080665 0.072631717 0.303 4284881168
0.081790797 0.072631717 0.303 4284946961
0.08304812 0.072871432 0.30400002 4285144340
0.084035516 0.072871432 0.30400002 4284225548
0.085022911 0.072871432 0.30400002 4285080087
0.086010307 0.072871432 0.30400002 4284948244
0.087283872 0.073111132 0.30500001 4284553486
0.088274516 0.073111132 0.30500001 4283767054
0.089265145 0.073111132 0.30500001 4282781704
0.090255789 0.073111132 0.30500001 4281863943
0.091246434 0.073111132 0.30500001 4286343516
0.09223707 0.073111132 0.30500001 4285692777
0.093227714 0.073111132 0.30500001 4286021488
0.094218358 0.073111132 0.30500001 4285824624
0.078578167 0.073373243 0.30200002 4284947215
0.079559065 0.073373243 0.30200002 4285012238
0.08080665 0.073616199 0.303 4285209617
0.081790797 0.073616199 0.303 4284618509
0.08304812 0.073859155 0.30400002 4289161308
0.084035516 0.073859155 0.30400002 4291206036
0.085022911 0.073859155 0.30400002 4285936947
0.086293228 0.074102111 0.30500001 4284094736
0.087283872 0.074102111 0.30500001 4283504909
0.088274516 0.074102111 0.30500001 4282323209
0.089265145 0.074102111 0.30500001 4282192906
0.090255789 0.074102111 0.30500001 4286479211
0.091246434 0.074102111 0.30500001 4285758570
0.09223707 0.074102111 0.30500001 4285889902
0.093227714 0.074102111 0.30500001 4285955695
0.074884132 0.073615849 0.29900002 4285077261
0.075855285 0.073615849 0.29900002 4285143054
0.076826438 0.073615849 0.29900002 4285208847
0.078317977 0.074108265 0.30100003 4285340433
0.079295628 0.074108265 0.30100003 4285340433
0.080539964 0.07435447 0.30200002 4285603605
0.081790797 0.074600674 0.303 4285210133
0.082774937 0.074600674 0.303 4284289546
0.084035516 0.074846886 0.30400002 4283897105
0.085302591 0.075093083 0.30500001 4284029720
0.086293228 0.075093083 0.30500001 4282125834
0.087283872 0.075093083 0.30500001 4282126604
0.088274516 0.075093083 0.30500001 4281866258
0.089265145 0.075093083 0.30500001 4286937195
0.090551712 0.075339295 0.30600002 4285956208
0.091545604 0.075339295 0.30600002 4286022001
0.092539497 0.075339295 0.30600002 4285956208
0.074884132 0.07458733 0.29900002 4285078547
0.075855285 0.07458733 0.29900002 4285078031
0.076826438 0.07458733 0.29900002 4285209617
0.078057781 0.074836783 0.30000001 4285407766
0.079295628 0.075086243 0.30100003 4286131489
0.080273278 0.075086243 0.30100003 4285209617
0.081520863 0.075335696 0.30200002 4285078031
0.082774937 0.075585149 0.303 4284946961
0.084035516 0.07583461 0.30400002 4283897103
0.085022911 0.07583461 0.30400002 4282847756
0.086293228 0.076084062 0.30500001 4282061070
0.087283872 0.076084062 0.30500001 4281469703
0.088274516 0.076084062 0.30500001 4286480494
0.089557827 0.076333523 0.30600002 4285890669
0.090551712 0.076333523 0.30600002 4285956208
0.091545604 0.076333523 0.30600002 4286022001
0.072941832 0.075558811 0.29900002 4283110667
0.073912986 0.075558811 0.29900002 4283897616
0.074884132 0.075558811 0.29900002 4284224782
0.075855285 0.075558811 0.29900002 4284553488
0.076826438 0.075558811 0.29900002 4284946961
0.078057781 0.075811513 0.30000001 4285670684
0.079032183 0.075811513 0.30000001 4290808702
0.080273278 0.076064222 0.30100003 4284093964
0.081520863 0.076316923 0.30200002 4285208847
0.082774937 0.076569624 0.303 4284945675
0.083759077 0.076569624 0.303 4284487950
0.085022911 0.076822333 0.30400002 4284755746
0.086293228 0.077075042 0.30500001 4281734926
0.087283872 0.077075042 0.30500001 4287003758
0.088274516 0.077075042 0.30500001 4285890156
0.089557827 0.077327751 0.30600002 4286022255
0.090551712 0.077327751 0.30600002 4286022003
0.072211385 0.07678625 0.30000001 4286021994
0.072941832 0.076530293 0.29900002 4287397233
0.073912986 0.076530293 0.29900002 4282126602
0.074884132 0.076530293 0.29900002 4283701007
0.075855285 0.076530293 0.29900002 4284225552
0.076826438 0.076530293 0.29900002 4284815888
0.078057781 0.07678625 0.30000001 4285078801
0.079032183 0.07678625 0.30000001 4286001191
0.080273278 0.077042207 0.30100003 4284750099
0.081250928 0.077042207 0.30100003 4285077777
0.082501754 0.077298157 0.30200002 4285012238
0.083759077 0.077554107 0.303 4284619790
0.085022911 0.077810064 0.30400002 4284425243
0.086010307 0.077810064 0.30400002 4286346855
0.087283872 0.078066014 0.30500001 4286152556
0.088274516 0.078066014 0.30500001 4286022001
0.089265145 0.078066014 0.30500001 4286087794
0.072211385 0.07776098 0.30000001 4281211408
0.073185779 0.07776098 0.30000001 4281603086
0.074160181 0.07776098 0.30000001 4282586901
0.074884132 0.077501781 0.29900002 4283700237
0.075855285 0.077501781 0.29900002 4284093966
0.076826438 0.077501781 0.29900002 4284421902
0.078057781 0.07776098 0.30000001 4284618509
0.079032183 0.07776098 0.30000001 4284881168
0.080273278 0.078020185 0.30100003 4284946961
0.081250928 0.078020185 0.30100003 4285210648
0.082501754 0.078279383 0.30200002 4284618509
0.083759077 0.078538589 0.303 4284094734
0.084743224 0.078538589 0.303 4283242768
0.086010307 0.078797795 0.30400002 4286217579
0.086997695 0.078797795 0.30400002 4286022255
0.088274516 0.079056993 0.30500001 4286022773
0.07147444 0.078998163 0.30100003 4281865742
0.072211385 0.078735702 0.30000001 4282260246
0.073185779 0.078735702 0.30000001 4282523158
0.074160181 0.078735702 0.30000001 4282521873
0.075134575 0.078735702 0.30000001 4283438350
0.076108977 0.078735702 0.30000001 4283897103
0.077083379 0.078735702 0.30000001 4284093712
0.078057781 0.078735702 0.30000001 4284224782
0.079032183 0.078735702 0.30000001 4284224523
0.080006585 0.078735702 0.30000001 4284421902
0.081250928 0.078998163 0.30100003 4284619281
0.082501754 0.07926061 0.30200002 4284290316
0.083482653 0.07926061 0.30200002 4283897870
0.084743224 0.079523057 0.303 4283771425
0.085727371 0.079523057 0.303 4286021740
0.086997695 0.079785518 0.30400002 4286022255
0.07147444 0.079976141 0.30100003 4282261270
0.072211385 0.079710439 0.30000001 4282655258
0.073185779 0.079710439 0.30000001 4282786330
0.074160181 0.079710439 0.30000001 4282456850
0.075134575 0.079710439 0.30000001 4282980366
0.076108977 0.079710439 0.30000001 4283308048
0.077083379 0.079710439 0.30000001 4283898388
0.078057781 0.079710439 0.30000001 4283964179
0.079032183 0.079710439 0.30000001 4283897870
0.080006585 0.079710439 0.30000001 4284094736
0.081250928 0.079976141 0.30100003 4284094736
0.082228571 0.079976141 0.30100003 4283963150
0.083482653 0.080241837 0.30200002 4282914319
0.084743224 0.080507539 0.303 4286869346
0.085727371 0.080507539 0.303 4286022003
0.086997695 0.080773242 0.30400002 4286087798
0.072452091 0.080954127 0.30100003 4281342996
0.073185779 0.080685169 0.30000001 4282721051
0.074160181 0.080685169 0.30000001 4282523158
0.075134575 0.080685169 0.30000001 4282652944
0.076108977 0.080685169 0.30000001 4282981139
0.077083379 0.080685169 0.30000001 4283177491
0.078057781 0.080685169 0.30000001 4283308561
0.079032183 0.080685169 0.30000001 4283439632
0.080006585 0.080685169 0.30000001 4283702288
0.081250928 0.080954127 0.30100003 4283439886
0.082228571 0.080954127 0.30100003 4283768597
0.083482653 0.081223071 0.30200002 4283580210
0.084743224 0.081492022 0.303 4286480242
0.085727371 0.081492022 0.303 4286153591
0.086997695 0.081760973 0.30400002 4286285177
0.072452091 0.081932105 0.30100003 4286285175
0.073185779 0.081659898 0.30000001 4284372813
0.074160181 0.081659898 0.30000001 4281803547
0.075134575 0.081659898 0.30000001 4282457363
0.076108977 0.081659898 0.30000001 4282522643
0.077083379 0.081659898 0.30000001 4282719250
0.078057781 0.081659898 0.30000001 4282916370
0.079032183 0.081659898 0.30000001 4282980879
0.080006585 0.081659898 0.30000001 4283111952
0.081250928 0.081932105 0.30100003 4283441944
0.074160181 0.082634635 0.30000001 4286286460
0.075134575 0.082634635 0.30000001 4285295200
0.076108977 0.082634635 0.30000001 4282725930
0.077083379 0.082634635 0.30000001 4282459160
0.078057781 0.082634635 0.30000001 4282457877
0.079032183 0.082634635 0.30000001 4282852121
0.080006585 0.082634635 0.30000001 4283181602
0.081250928 0.082910091 0.30100003 4284373067
0.078057781 0.083609357 0.30000001 4286482293
0.079032183 0.083609357 0.30000001 4286416498
0.080006585 0.083609357 0.30000001 4285956460
0.073329754 0.056637697 0.29875469 4294967295
0.073329754 0.056637697 0.29875469 4294901760
0.073329754 0.05613862 0.29872432 4294901760
0.073329754 0.055639543 0.29869395 4294901760
0.073329754 0.055140465 0.29866362 4294901760
0.073329754 0.054641388 0.29863325 4294901760
0.073329754 0.054142311 0.29860288 4294901760
0.073329754 0.053643234 0.29857254 4294901760
0.073329754 0.053144157 0.29854217 4294901760
0.073329754 0.05264508 0.2985118 4294901760
0.073329754 0.052145999 0.29848143 4294901760
0.073329754 0.051646922 0.29845107 4294901760
0.073329754 0.051147845 0.29842073 4294901760
0.073329754 0.050648768 0.29839036 4294901760
0.073329754 0.05014969 0.29835999 4294901760
0.073329754 0.049650613 0.29832965 4294901760
0.073329754 0.049151536 0.29829928 4294901760
0.073329754 0.048652459 0.29826891 4294901760
0.073329754 0.048153382 0.29823855 4294901760
0.073329754 0.047654305 0.29820818 4294901760
0.073329754 0.047155228 0.29817784 4294901760
0.073329754 0.04665615 0.29814747 4294901760
0.073329754 0.046157073 0.2981171 4294901760
0.073329754 0.045657996 0.29808676 4294901760
0.073329754 0.045158915 0.29805639 4294901760
0.073329754 0.044659842 0.29802603 4294901760
0.073329754 0.044160761 0.29799566 4294901760
0.073329754 0.043661684 0.29796529 4294901760
0.073329754 0.043162607 0.29793495 4294901760
0.073329754 0.04266353 0.29790458 4294901760
0.073329754 0.042164452 0.29787421 4294901760
0.073329754 0.041665375 0.29784384 4294901760
0.073329754 0.041166298 0.2978135 4294901760
0.073329754 0.040667221 0.29778314 4294901760
0.073329754 0.040168144 0.29775277 4294901760
0.073329754 0.039669067 0.2977224 4294901760
0.073329754 0.03916999 0.29769206 4294901760
0.073329754 0.038670912 0.29766169 4294901760
0.073329754 0.038171835 0.29763132 4294901760
0.073329754 0.037672758 0.29760098 4294901760
0.073329754 0.037173681 0.29757062 4294901760
0.073329754 0.036674604 0.29754025 4294901760
0.073329754 0.036175527 0.29750988 4294901760
0.073329754 0.03567645 0.29747951 4294901760
0.073329754 0.035177372 0.29744917 4294901760
0.073329754 0.034678295 0.2974188 4294901760
0.073329754 0.034179218 0.29738843 4294901760
0.073329754 0.033680137 0.2973581 4294901760
0.073329754 0.03318106 0.29732773 4294901760
0.073329754 0.032681987 0.29729736 4294901760
0.073329754 0.032182906 0.29726699 4294901760
0.073329754 0.031683829 0.29723662 4294901760
0.073329754 0.031184752 0.29720628 4294901760
0.073329754 0.030685674 0.29717591 4294901760
0.073329754 0.030186597 0.29714555 4294901760
0.073329754 0.029687518 0.29711518 4294901760
0.073329754 0.029188441 0.29708484 4294901760
0.073329754 0.028689364 0.29705447 4294901760
0.073329754 0.028190287 0.2970241 4294901760
0.073329754 0.02769121 0.29699373 4294901760
0.073329754 0.027192134 0.29696339 4294901760
