# .PCD v0.7 - Point Cloud Data file format
VERSION 0.7
FIELDS x y z rgb
SIZE 4 4 4 4
TYPE F F F U
COUNT 1 1 1 1
WIDTH 1054
HEIGHT 1
VIEWPOINT 0 0 0 1 0 0 0
POINTS 1054
DATA ascii
0.052951984 0.0071174637 0.58000004 4285869603
0.054741282 0.0071051922 0.57900006 4285607201
0.056621876 0.0071051922 0.57900006 4285607203
0.058502469 0.0071051922 0.57900006 4283904296
0.026624035 0.0090174638 0.58100003 4284180567
0.030450532 0.0090329843 0.58200002 4285417267
0.032396436 0.0090485038 0.583 4285743920
0.034348842 0.0090640252 0.58400005 4286335287
0.036307737 0.0090795457 0.58500004 4285016347
0.03827313 0.0090950662 0.58600003 4284357904
0.040176462 0.0090950662 0.58600003 4283112200
0.042079788 0.0090950662 0.58600003 4284167202
0.04390806 0.0090795457 0.58500004 4284893238
0.045729842 0.0090640252 0.58400005 4284893238
0.047463562 0.0090329843 0.58200002 4285021228
0.049269103 0.0090174638 0.58100003 4284623390
0.051068146 0.0090019433 0.58000004 4285211670
0.052860688 0.0089864228 0.57900006 4284816142
0.054741282 0.0089864228 0.57900006 4287778370
0.056621876 0.0089864228 0.57900006 4284882708
0.058401424 0.0089709014 0.57800001 4284294943
0.06027877 0.0089709014 0.57800001 4283904811
0.024736945 0.010905192 0.58100003 4286747009
0.026624035 0.010905192 0.58100003 4284305475
0.028511124 0.010905192 0.58100003 4284951326
0.030450532 0.010923961 0.58200002 4285673764
0.032340869 0.010923961 0.58200002 4285015064
0.034348842 0.010961502 0.58400005 4285606174
0.036307737 0.010980271 0.58500004 4285147933
0.03827313 0.010999041 0.58600003 4285941299
0.040176462 0.010999041 0.58600003 4284633909
0.042079788 0.010999041 0.58600003 4284436530
0.04390806 0.010980271 0.58500004 4284304944
0.045729842 0.010961502 0.58400005 4284304946
0.047545116 0.010942731 0.583 4285157173
0.049269103 0.010905192 0.58100003 4283572751
0.051068146 0.010886422 0.58000004 4284488722
0.052860688 0.010867653 0.57900006 4285014294
0.054741282 0.010867653 0.57900006 4285014037
0.056524079 0.010848883 0.57800001 4284488722
0.058401424 0.010848883 0.57800001 4283242001
0.06027877 0.010848883 0.57800001 4283638557
0.022849856 0.01279292 0.58100003 4285499511
0.024736945 0.01279292 0.58100003 4286019945
0.026624035 0.01279292 0.58100003 4284103470
0.028511124 0.01279292 0.58100003 4284883480
0.030398212 0.01279292 0.58100003 4284882451
0.032340869 0.012814938 0.58200002 4287713347
0.034290023 0.012836957 0.583 4285343259
0.036245674 0.012858977 0.58400005 4284490003
0.038207818 0.012880995 0.58500004 4286534717
0.040176462 0.012903014 0.58600003 4285685052
0.042079788 0.012903014 0.58600003 4286737229
0.04390806 0.012880995 0.58500004 4288511085
0.045729842 0.012858977 0.58400005 4284100896
0.047545116 0.012836957 0.583 4284360468
0.049269103 0.01279292 0.58100003 4284885785
0.051068146 0.012770901 0.58000004 4284292113
0.052860688 0.012748883 0.57900006 4284292628
0.054741282 0.012748883 0.57900006 4283964692
0.056524079 0.012726863 0.57800001 4283701522
0.058401424 0.012726863 0.57800001 4281994248
0.06027877 0.012726863 0.57800001 4285024835
0.020926686 0.014655381 0.58000004 4285696636
0.022810528 0.014655381 0.58000004 4285499257
0.02469437 0.014655381 0.58000004 4284504138
0.02657821 0.014655381 0.58000004 4284100903
0.028511124 0.014680648 0.58100003 4284817689
0.030398212 0.014680648 0.58100003 4285211418
0.032340869 0.014705916 0.58200002 4285145623
0.034290023 0.014731183 0.583 4284816915
0.036245674 0.014756452 0.58400005 4284423697
0.038207818 0.01478172 0.58500004 4286135852
0.040107902 0.01478172 0.58500004 4283637261
0.042079788 0.014806988 0.58600003 4282980366
0.04390806 0.01478172 0.58500004 4282651662
0.045729842 0.014756452 0.58400005 4282586381
0.047545116 0.014731183 0.583 4282520326
0.049353905 0.014705916 0.58200002 4282717705
0.051156193 0.014680648 0.58100003 4282913803
0.052951984 0.014655381 0.58000004 4283045389
0.054741282 0.014630113 0.57900006 4283637526
0.056524079 0.014604844 0.57800001 4283637526
0.058401424 0.014604844 0.57800001 4282786842
0.06027877 0.014604844 0.57800001 4287728249
0.020890607 0.016511343 0.57900006 4285433464
0.022810528 0.016539861 0.58000004 4285499257
0.02469437 0.016539861 0.58000004 4282790694
0.02657821 0.016539861 0.58000004 4283969058
0.028462052 0.016539861 0.58000004 4283965206
0.030398212 0.016568378 0.58100003 4284490523
0.032285299 0.016568378 0.58100003 4284490007
0.034231205 0.016596893 0.58200002 4284095249
0.036183607 0.01662541 0.583 4283571472
0.038142506 0.016653929 0.58400005 4283308300
0.040107902 0.016682446 0.58500004 4282258951
0.042007979 0.016682446 0.58500004 4286802002
0.04390806 0.016682446 0.58500004 4286476367
0.045729842 0.016653929 0.58400005 4284635192
0.047545116 0.01662541 0.583 4284433452
0.049353905 0.016596893 0.58200002 4282193928
0.051156193 0.016568378 0.58100003 4282324492
0.052951984 0.016539861 0.58000004 4282324494
0.054741282 0.016511343 0.57900006 4282455567
0.056621876 0.016511343 0.57900006 4282981139
0.058401424 0.016482826 0.57800001 4283967261
0.06027877 0.016482826 0.57800001 4284365874
0.020890607 0.018392574 0.57900006 4285630843
0.0227712 0.018392574 0.57900006 4285498487
0.024651794 0.018392574 0.57900006 4283313186
0.026532387 0.018392574 0.57900006 4283178004
0.028462052 0.01842434 0.58000004 4283376151
0.030345893 0.01842434 0.58000004 4283243538
0.032285299 0.018456105 0.58100003 4283505938
0.034231205 0.018487873 0.58200002 4283242766
0.036183607 0.018519638 0.583 4282324744
0.038142506 0.018551406 0.58400005 4284697394
0.040107902 0.018583171 0.58500004 4284306481
0.042007979 0.018583171 0.58500004 4284898618
0.04390806 0.018583171 0.58500004 4286545492
0.045729842 0.018551406 0.58400005 4284965693
0.047545116 0.018519638 0.583 4281734658
0.049353905 0.018487873 0.58200002 4282587403
0.05124424 0.018487873 0.58200002 4282717707
0.05304328 0.018456105 0.58100003 4282520842
0.054835826 0.01842434 0.58000004 4282390285
0.056621876 0.018392574 0.57900006 4281996810
0.058502469 0.018392574 0.57900006 4282849807
0.060383063 0.018392574 0.57900006 4283967520
0.020854523 0.020238787 0.57800001 4285630845
0.022731869 0.020238787 0.57800001 4286353283
0.024609216 0.020238787 0.57800001 4283902241
0.026486561 0.020238787 0.57800001 4283901979
0.028412981 0.020273805 0.57900006 4283447588
0.030345893 0.020308819 0.58000004 4282917651
0.032285299 0.020343835 0.58100003 4283637524
0.034231205 0.020378849 0.58200002 4282388740
0.036183607 0.020413864 0.583 4284634163
0.038142506 0.02044888 0.58400005 4282597399
0.040039342 0.02044888 0.58400005 4284703286
0.042007979 0.020483894 0.58500004 4284572983
0.04390806 0.020483894 0.58500004 4283387946
0.045729842 0.02044888 0.58400005 4283057446
0.047545116 0.020413864 0.583 4282392336
0.049438704 0.020413864 0.583 4282915600
0.05124424 0.020378849 0.58200002 4283242255
0.05304328 0.020343835 0.58100003 4283308048
0.05493037 0.020343835 0.58100003 4282326541
0.056719668 0.020308819 0.58000004 4283187237
0.05860351 0.020308819 0.58000004 4281801228
0.060383063 0.020273805 0.57900006 4282521871
0.062263653 0.020273805 0.57900006 4283508255
0.020818444 0.022078505 0.57700002 4285696636
0.022692541 0.022078505 0.57700002 4286022773
0.024566639 0.022078505 0.57700002 4283967774
0.026486561 0.022116769 0.57800001 4284168485
0.028412981 0.022155035 0.57900006 4283777573
0.030345893 0.022193298 0.58000004 4283771929
0.032285299 0.022231562 0.58100003 4282651399
0.034231205 0.022269826 0.58200002 4285617726
0.036183607 0.022308089 0.583 4282530840
0.038142506 0.022346355 0.58400005 4282860319
0.040039342 0.022346355 0.58400005 4282401051
0.041936174 0.022346355 0.58400005 4282138910
0.043833006 0.022346355 0.58400005 4279243266
0.045729842 0.022346355 0.58400005 4279242242
0.04762667 0.022346355 0.58400005 4282070058
0.049438704 0.022308089 0.583 4279963655
0.051332287 0.022308089 0.583 4280223232
0.053134575 0.022269826 0.58200002 4282326293
0.055024914 0.022269826 0.58200002 4283974702
0.056817457 0.022231562 0.58100003 4282596643
0.058704548 0.022231562 0.58100003 4282661924
0.060487349 0.022193298 0.58000004 4281341960
0.062371191 0.022193298 0.58000004 4283178006
0.068139993 0.022231562 0.58100003 4285150250
0.070027083 0.022231562 0.58100003 4285672996
0.071914166 0.022231562 0.58100003 4286069039
0.020818444 0.023953237 0.57700002 4285958779
0.022692541 0.023953237 0.57700002 4282926137
0.024566639 0.023953237 0.57700002 4282916370
0.026486561 0.023994749 0.57800001 4283645221
0.028412981 0.024036264 0.57900006 4284497960
0.030345893 0.024077777 0.58000004 4283703058
0.032285299 0.02411929 0.58100003 4281932807
0.034231205 0.024160802 0.58200002 4281937681
0.036183607 0.024202315 0.583 4282203420
0.038142506 0.024243832 0.58400005 4281479697
0.040039342 0.024243832 0.58400005 4282466601
0.041936174 0.024243832 0.58400005 4279045633
0.043833006 0.024243832 0.58400005 4279243019
0.045729842 0.024243832 0.58400005 4279177226
0.04762667 0.024243832 0.58400005 4282008119
0.049438704 0.024202315 0.583 4279177478
0.051332287 0.024202315 0.583 4283322178
0.053225871 0.024202315 0.583 4279439110
0.055119459 0.024202315 0.583 4281214742
0.05691525 0.024160802 0.58200002 4282662949
0.058805589 0.024160802 0.58200002 4282334238
0.060591638 0.02411929 0.58100003 4282596643
0.062478725 0.02411929 0.58100003 4281929734
0.064365819 0.02411929 0.58100003 4283834651
0.066252902 0.02411929 0.58100003 4286857270
0.068139993 0.02411929 0.58100003 4286264615
0.070027083 0.02411929 0.58100003 4286330151
0.071914166 0.02411929 0.58100003 4285736990
0.073801257 0.02411929 0.58100003 4284495148
0.075818621 0.024160802 0.58200002 4286740588
0.020854523 0.02587273 0.57800001 4287403654
0.022731869 0.02587273 0.57800001 4283117092
0.024566639 0.025827968 0.57700002 4282918678
0.026486561 0.02587273 0.57800001 4283514917
0.028412981 0.025917495 0.57900006 4283442196
0.030345893 0.025962256 0.58000004 4282913801
0.032285299 0.026007017 0.58100003 4284304694
0.034231205 0.02605178 0.58200002 4280952331
0.036183607 0.026096541 0.583 4281743132
0.038077191 0.026096541 0.583 4281348374
0.040039342 0.026141306 0.58400005 4279374600
0.041936174 0.026141306 0.58400005 4279243273
0.043833006 0.026141306 0.58400005 4278520838
0.045729842 0.026141306 0.58400005 4283850582
0.04762667 0.026141306 0.58400005 4284180317
0.049523506 0.026141306 0.58400005 4283588180
0.051420338 0.026141306 0.58400005 4278849033
0.053317171 0.026141306 0.58400005 4280558879
0.055119459 0.026096541 0.583 4281611821
0.057013039 0.026096541 0.583 4282204203
0.058906626 0.026096541 0.583 4282269215
0.060695924 0.02605178 0.58200002 4282334238
0.062586263 0.02605178 0.58200002 4281997064
0.064476602 0.02605178 0.58200002 4283243538
0.066252902 0.026007017 0.58100003 4285276439
0.068139993 0.026007017 0.58100003 4285539098
0.070027083 0.026007017 0.58100003 4285670938
0.071914166 0.026007017 0.58100003 4285342486
0.073801257 0.026007017 0.58100003 4284360482
0.075818621 0.02605178 0.58200002 4284237634
0.019010015 0.027798725 0.57900006 4285827452
0.020854523 0.027750712 0.57800001 4285421900
0.022731869 0.027750712 0.57800001 4283966237
0.02469437 0.027846737 0.58000004 4282788377
0.02657821 0.027846737 0.58000004 4283581223
0.028462052 0.027846737 0.58000004 4283703571
0.030345893 0.027846737 0.58000004 4282256641
0.032340869 0.02794276 0.58200002 4282925862
0.034231205 0.02794276 0.58200002 4280557573
0.036183607 0.02799077 0.583 4281413400
0.038077191 0.02799077 0.583 4279505920
0.039970778 0.02799077 0.583 4282468150
0.041936174 0.028038785 0.58400005 4278454528
0.043833006 0.028038785 0.58400005 4284115289
0.045729842 0.028038785 0.58400005 4283654736
0.04762667 0.028038785 0.58400005 4281810220
0.049523506 0.028038785 0.58400005 4281679667
0.051420338 0.028038785 0.58400005 4284444766
0.053317171 0.028038785 0.58400005 4279180299
0.055214006 0.028038785 0.58400005 4280560419
0.057110839 0.028038785 0.58400005 4279112457
0.059007674 0.028038785 0.58400005 4281874203
0.06080021 0.02799077 0.583 4282070812
0.062586263 0.02794276 0.58200002 4282922016
0.064476602 0.02794276 0.58200002 4282784012
0.066366933 0.02794276 0.58200002 4284621078
0.068139993 0.027894748 0.58100003 4284553486
0.070027083 0.027894748 0.58100003 4285276439
0.071914166 0.027894748 0.58100003 4285409824
0.073928282 0.02794276 0.58200002 4283046168
0.075818621 0.02794276 0.58200002 4284106050
0.017159006 0.029731216 0.58000004 4285827452
0.019010015 0.029679956 0.57900006 4286879111
0.020890607 0.029679956 0.57900006 4283967007
0.0227712 0.029679956 0.57900006 4287057731
0.02469437 0.029731216 0.58000004 4282457100
0.02657821 0.029731216 0.58000004 4284629550
0.028462052 0.029731216 0.58000004 4284229402
0.030398212 0.029782476 0.58100003 4282190848
0.032340869 0.029833736 0.58200002 4284040747
0.034231205 0.029833736 0.58200002 4282789397
0.036121543 0.029833736 0.58200002 4282657561
0.038077191 0.029884996 0.583 4279766016
0.039970778 0.029884996 0.583 4279046660
0.041864362 0.029884996 0.583 4279639569
0.043757945 0.029884996 0.583 4281679663
0.045651533 0.029884996 0.583 4283454268
0.047545116 0.029884996 0.583 4284834109
0.049523506 0.02993626 0.58400005 4280886806
0.051420338 0.02993626 0.58400005 4281614642
0.053317171 0.02993626 0.58400005 4282733636
0.055214006 0.02993626 0.58400005 4279836696
0.057110839 0.02993626 0.58400005 4279637777
0.059007674 0.02993626 0.58400005 4282399525
0.060904503 0.02993626 0.58400005 4282333984
0.062693797 0.029884996 0.583 4282199318
0.064587384 0.029884996 0.583 4282522895
0.066366933 0.029833736 0.58200002 4283833360
0.068257272 0.029833736 0.58200002 4283701261
0.070147611 0.029833736 0.58200002 4284096532
0.072037943 0.029833736 0.58200002 4283834390
0.073928282 0.029833736 0.58200002 4282852901
0.075818621 0.029833736 0.58200002 4286412916
0.017129421 0.031561185 0.57900006 4285892732
0.019010015 0.031561185 0.57900006 4283650373
0.020890607 0.031561185 0.57900006 4285807664
0.0227712 0.031561185 0.57900006 4285870373
0.02469437 0.031615693 0.58000004 4286066982
0.02657821 0.031615693 0.58000004 4285476385
0.028462052 0.031615693 0.58000004 4284424730
0.030345893 0.031615693 0.58000004 4283176460
0.032285299 0.031670205 0.58100003 4283835157
0.034231205 0.031724714 0.58200002 4284293909
0.036121543 0.031724714 0.58200002 4284164122
0.038011879 0.031724714 0.58200002 4280157184
0.039970778 0.031779222 0.583 4278783492
0.041864362 0.031779222 0.583 4281415980
0.043757945 0.031779222 0.583 4281085725
0.045651533 0.031779222 0.583 4281150228
0.047545116 0.031779222 0.583 4281939478
0.049438704 0.031779222 0.583 4281346324
0.051420338 0.031833734 0.58400005 4281744945
0.053317171 0.031833734 0.58400005 4282996297
0.055214006 0.031833734 0.58400005 4281876792
0.057110839 0.031833734 0.58400005 4280560673
0.059007674 0.031833734 0.58400005 4281873953
0.060904503 0.031833734 0.58400005 4281939998
0.062693797 0.031779222 0.583 4282397467
0.064587384 0.031779222 0.583 4282785295
0.066480964 0.031779222 0.583 4284424730
0.068257272 0.031724714 0.58200002 4283702034
0.070147611 0.031724714 0.58200002 4283178004
0.072037943 0.031724714 0.58200002 4283574563
0.073928282 0.031724714 0.58200002 4283714374
0.015248828 0.033442415 0.57900006 4285959038
0.017129421 0.033442415 0.57900006 4287469451
0.019010015 0.033442415 0.57900006 4284566853
0.020890607 0.033442415 0.57900006 4285146654
0.0227712 0.033442415 0.57900006 4285539100
0.024651794 0.033442415 0.57900006 4289094230
0.026532387 0.033442415 0.57900006 4285540381
0.028412981 0.033442415 0.57900006 4284686103
0.030345893 0.033500172 0.58000004 4283569675
0.032229733 0.033500172 0.58000004 4284621591
0.03417239 0.033557933 0.58100003 4284357906
0.03605948 0.033557933 0.58100003 4284030999
0.038011879 0.03361569 0.58200002 4280484864
0.039902218 0.03361569 0.58200002 4281612591
0.041792553 0.03361569 0.58200002 4279704594
0.043682888 0.03361569 0.58200002 4282138413
0.045651533 0.033673447 0.583 4281019157
0.047545116 0.033673447 0.583 4281479445
0.049438704 0.033673447 0.583 4281149712
0.051332287 0.033673447 0.583 4282006575
0.053317171 0.033731211 0.58400005 4281612591
0.055214006 0.033731211 0.58400005 4278981387
0.057110839 0.033731211 0.58400005 4278914824
0.059007674 0.033731211 0.58400005 4281610781
0.060904503 0.033731211 0.58400005 4281742619
0.062801339 0.033731211 0.58400005 4282068504
0.064587384 0.033673447 0.583 4283179542
0.066480964 0.033673447 0.583 4284228126
0.068374552 0.033673447 0.583 4288181356
0.070268139 0.033673447 0.583 4285618255
0.072161719 0.033673447 0.583 4282129178
0.073928282 0.03361569 0.58200002 4286087033
0.015248828 0.035323646 0.57900006 4285828222
0.017129421 0.035323646 0.57900006 4286677630
0.019010015 0.035323646 0.57900006 4284236604
0.020854523 0.035262633 0.57800001 4285409056
0.022731869 0.035262633 0.57800001 4285671199
0.024609216 0.035262633 0.57800001 4288368197
0.026486561 0.035262633 0.57800001 4285340949
0.028412981 0.035323646 0.57900006 4284619538
0.030293573 0.035323646 0.57900006 4283831564
0.032174166 0.035323646 0.57900006 4284226068
0.034113575 0.035384651 0.58000004 4284357136
0.035997417 0.035384651 0.58000004 4283964433
0.037946567 0.03544566 0.58100003 4281469185
0.039833657 0.03544566 0.58100003 4278782465
0.041792553 0.035506666 0.58200002 4279045640
0.043682888 0.035506666 0.58200002 4281348388
0.045573227 0.035506666 0.58200002 4281348894
0.047463562 0.035506666 0.58200002 4280558606
0.049438704 0.035567675 0.583 4281084952
0.051332287 0.035567675 0.583 4281348645
0.053225871 0.035567675 0.583 4282928451
0.055214006 0.035628684 0.58400005 4281547568
0.057110839 0.035628684 0.58400005 4278848513
0.059007674 0.035628684 0.58400005 4281742367
0.060904503 0.035628684 0.58400005 4281281816
0.062801339 0.035628684 0.58400005 4282263064
0.064698175 0.035628684 0.58400005 4283572762
0.066480964 0.035567675 0.583 4283309594
0.068374552 0.035567675 0.583 4287529334
0.070268139 0.035567675 0.583 4283647293
0.072161719 0.035567675 0.583 4282527020
0.017099835 0.037140619 0.57800001 4287074693
0.01897718 0.037140619 0.57800001 4283250739
0.020854523 0.037140619 0.57800001 4284425243
0.022692541 0.037076361 0.57700002 4284949275
0.024566639 0.037076361 0.57700002 4284948248
0.026440736 0.037076361 0.57700002 4284948248
0.028314834 0.037076361 0.57700002 4284160529
0.030188929 0.037076361 0.57700002 4283963150
0.032118596 0.037140619 0.57800001 4284160529
0.03405476 0.037204877 0.57900006 4284029456
0.035997417 0.037269134 0.58000004 4283505938
0.037881255 0.037269134 0.58000004 4282325775
0.039833657 0.037333392 0.58100003 4279175940
0.041720748 0.037333392 0.58100003 4279111176
0.043682888 0.037397645 0.58200002 4279045383
0.045573227 0.037397645 0.58200002 4279243273
0.047463562 0.037397645 0.58200002 4280757530
0.049353905 0.037397645 0.58200002 4279243266
0.051332287 0.037461903 0.583 4279308555
0.053225871 0.037461903 0.583 4281020200
0.055119459 0.037461903 0.583 4279702280
0.057013039 0.037461903 0.583 4281277201
0.058906626 0.037461903 0.583 4281870873
0.06080021 0.037461903 0.583 4281674777
0.062693797 0.037461903 0.583 4282719504
0.064698175 0.037526164 0.58400005 4284359966
0.066595003 0.037526164 0.58400005 4283115557
0.068491839 0.037526164 0.58400005 4286744443
0.070388667 0.037526164 0.58400005 4281870371
0.072285503 0.037526164 0.58400005 4287332989
0.017099835 0.039018597 0.57800001 4286090365
0.01897718 0.039018597 0.57800001 4283716938
0.020818444 0.038951091 0.57700002 4283638557
0.022653213 0.038883585 0.57600003 4284097823
0.024481487 0.038816083 0.57500005 4284162587
0.026349088 0.038816083 0.57500005 4283965208
0.028265761 0.038883585 0.57600003 4283964692
0.03008429 0.038816083 0.57500005 4284162325
0.03200746 0.038883585 0.57600003 4283504395
0.033937123 0.038951091 0.57700002 4283771931
0.035873286 0.039018597 0.57800001 4282133012
0.037815943 0.039086107 0.57900006 4281805332
0.039765101 0.039153613 0.58000004 4280952599
0.041720748 0.039221119 0.58100003 4279045635
0.043607835 0.039221119 0.58100003 4278914056
0.045494925 0.039221119 0.58100003 4278519298
0.047463562 0.039288625 0.58200002 4281941554
0.049353905 0.039288625 0.58200002 4281743405
0.05124424 0.039288625 0.58200002 4282795838
0.053134575 0.039288625 0.58200002 4279109893
0.055024914 0.039288625 0.58200002 4282851610
0.05691525 0.039288625 0.58200002 4285676594
0.058906626 0.039356127 0.583 4284493087
0.06080021 0.039356127 0.583 4283180825
0.062693797 0.039356127 0.583 4284162585
0.064587384 0.039356127 0.583 4285016097
0.066595003 0.039423637 0.58400005 4286542439
0.068491839 0.039423637 0.58400005 4286877312
0.070388667 0.039423637 0.58400005 4281674277
0.017099835 0.04089658 0.57800001 4285893245
0.01897718 0.04089658 0.57800001 4286418560
0.020782365 0.040755071 0.57600003 4284369733
0.022613885 0.040684316 0.57500005 4282720797
0.024396332 0.040542804 0.57300001 4283244315
0.026257439 0.040542804 0.57300001 4283046936
0.02821669 0.040684316 0.57500005 4283374870
0.029979646 0.040542804 0.57300001 4284359964
0.031896319 0.040613558 0.574 4284096019
0.033878308 0.040755071 0.57600003 4283507989
0.035811223 0.040825825 0.57700002 4281871636
0.037750628 0.04089658 0.57800001 4281214990
0.039696541 0.040967338 0.57900006 4280953103
0.041648939 0.041038092 0.58000004 4281150228
0.043607835 0.041108847 0.58100003 4280295702
0.045494925 0.041108847 0.58100003 4278848261
0.047382012 0.041108847 0.58100003 4278848515
0.049269103 0.041108847 0.58100003 4278914051
0.051156193 0.041108847 0.58100003 4280159753
0.053134575 0.041179601 0.58200002 4282917662
0.055024914 0.041179601 0.58200002 4284818457
0.05691525 0.041179601 0.58200002 4285211418
0.058805589 0.041179601 0.58200002 4287909183
0.060695924 0.041179601 0.58200002 4284884248
0.062693797 0.041250356 0.583 4285278238
0.064587384 0.041250356 0.583 4284160788
0.066595003 0.041321114 0.58400005 4287533187
0.068491839 0.041321114 0.58400005 4284769881
0.070388667 0.041321114 0.58400005 4283122750
0.020782365 0.042626552 0.57600003 4286746494
0.022535227 0.042404536 0.57300001 4282400047
0.024311181 0.04225653 0.57100004 4282786078
0.026165791 0.04225653 0.57100004 4282457111
0.028167615 0.042478543 0.574 4281737238
0.029875007 0.04225653 0.57100004 4283247393
0.031785183 0.042330533 0.57200003 4284621593
0.033819493 0.042552549 0.57500005 4284226835
0.035749156 0.042626552 0.57600003 4282592020
0.037750628 0.042774558 0.57800001 4281411855
0.039696541 0.042848568 0.57900006 4281083919
0.041577131 0.042848568 0.57900006 4281018896
0.043532778 0.042922571 0.58000004 4280953364
0.045416623 0.042922571 0.58000004 4280887573
0.047382012 0.042996574 0.58100003 4280755733
0.049269103 0.042996574 0.58100003 4280821526
0.051156193 0.042996574 0.58100003 4281737492
0.05304328 0.042996574 0.58100003 4283375637
0.05493037 0.042996574 0.58100003 4284685074
0.056817457 0.042996574 0.58100003 4285801500
0.058704548 0.042996574 0.58100003 4285866777
0.060695924 0.043070577 0.58200002 4285800984
0.062586263 0.043070577 0.58200002 4285605404
0.064587384 0.04314458 0.583 4287848276
0.066480964 0.04314458 0.583 4287137656
0.068491839 0.04321859 0.58400005 4282264098
0.070388667 0.04321859 0.58400005 4286677625
0.022456571 0.044111766 0.57100004 4286418560
0.02418345 0.043880004 0.56800002 4283713088
0.026028316 0.043880004 0.56800002 4281603347
0.028167615 0.044343524 0.574 4281606166
0.029665725 0.043802753 0.56700003 4281410324
0.031618476 0.04395726 0.56900001 4283835673
0.033760674 0.044343524 0.574 4284424984
0.035749156 0.044498034 0.57600003 4284292626
0.037685316 0.044575289 0.57700002 4283047436
0.039627977 0.04465254 0.57800001 4281476878
0.041577131 0.044729795 0.57900006 4281083406
0.043532778 0.04480705 0.58000004 4281083665
0.045416623 0.04480705 0.58000004 4281083665
0.047300462 0.04480705 0.58000004 4280952081
0.049184304 0.04480705 0.58000004 4281017874
0.051068146 0.04480705 0.58000004 4281214226
0.052951984 0.04480705 0.58000004 4282523668
0.05493037 0.044884302 0.58100003 4285211418
0.056817457 0.044884302 0.58100003 4285932316
0.058704548 0.044884302 0.58100003 4286063899
0.060695924 0.044961553 0.58200002 4285471762
0.062586263 0.044961553 0.58200002 4286329899
0.064587384 0.045038808 0.583 4285014298
0.066480964 0.045038808 0.583 4284361767
0.068374552 0.045038808 0.583 4282915866
0.033760674 0.046208508 0.574 4283508505
0.035687093 0.046289016 0.57500005 4285146650
0.037685316 0.046450019 0.57700002 4284948501
0.039627977 0.046530519 0.57800001 4284162321
0.041577131 0.046611026 0.57900006 4282982926
0.043457724 0.046611026 0.57900006 4281802763
0.045416623 0.046691529 0.58000004 4281672461
0.047300462 0.046691529 0.58000004 4281410320
0.049184304 0.046691529 0.58000004 4281212941
0.051068146 0.046691529 0.58000004 4281669129
0.052951984 0.046691529 0.58000004 4283505940
0.054835826 0.046691529 0.58000004 4285671197
0.056817457 0.046772029 0.58100003 4286063899
0.058704548 0.046772029 0.58100003 4285602578
0.060591638 0.046772029 0.58100003 4285273613
0.062586263 0.046852533 0.58200002 4287646786
0.064587384 0.046933033 0.583 4285540383
0.066480964 0.046933033 0.583 4284820001
0.068374552 0.046933033 0.583 4284364849
0.033819493 0.048157249 0.57500005 4280552964
0.035749156 0.048241001 0.57600003 4284227351
0.037685316 0.048324749 0.57700002 4285079832
0.039627977 0.048408501 0.57800001 4285539352
0.041577131 0.048492257 0.57900006 4285407766
0.043457724 0.048492257 0.57900006 4285737244
0.045338318 0.048492257 0.57900006 4285408795
0.047218911 0.048492257 0.57900006 4284949273
0.049184304 0.048576009 0.58000004 4285015066
0.051068146 0.048576009 0.58000004 4285145884
0.052951984 0.048576009 0.58000004 4285343263
0.054835826 0.048576009 0.58000004 4285802785
0.056817457 0.048659757 0.58100003 4285539613
0.058704548 0.048659757 0.58100003 4285537560
0.060695924 0.048743509 0.58200002 4285669146
0.062586263 0.048743509 0.58200002 4285538332
0.064587384 0.048827261 0.583 4285342236
0.066480964 0.048827261 0.583 4284359452
0.068374552 0.048827261 0.583 4283839280
0.033937123 0.050199483 0.57700002 4282653461
0.035811223 0.050199483 0.57700002 4284555800
0.037750628 0.050286483 0.57800001 4285145107
0.039627977 0.050286483 0.57800001 4286524705
0.041577131 0.050373487 0.57900006 4285669396
0.043457724 0.050373487 0.57900006 4286064156
0.045338318 0.050373487 0.57900006 4286261535
0.047218911 0.050373487 0.57900006 4286723626
0.049184304 0.050460488 0.58000004 4286987057
0.051068146 0.050460488 0.58000004 4289557099
0.052951984 0.050460488 0.58000004 4285346347
0.05493037 0.050547484 0.58100003 4284957495
0.056817457 0.050547484 0.58100003 4284496431
0.058805589 0.050634485 0.58200002 4284226068
0.060695924 0.050634485 0.58200002 4284816665
0.062693797 0.050721485 0.583 4284882712
0.064587384 0.050721485 0.583 4284554517
0.066480964 0.050721485 0.583 4283572764
0.068374552 0.050721485 0.583 4284961872
0.032174166 0.052254722 0.57900006 4283179803
0.033995941 0.052164465 0.57800001 4284757290
0.035873286 0.052164465 0.57800001 4285014548
0.037815943 0.052254722 0.57900006 4285538580
0.039696541 0.052254722 0.57900006 4285603603
0.041577131 0.052254722 0.57900006 4285208588
0.043457724 0.052254722 0.57900006 4284748812
0.045338318 0.052254722 0.57900006 4284290318
0.047218911 0.052254722 0.57900006 4282520074
0.049184304 0.05234497 0.58000004 4281995018
0.051068146 0.05234497 0.58000004 4281142283
0.05304328 0.052435219 0.58100003 4281211158
0.05493037 0.052435219 0.58100003 4285559392
0.05691525 0.052525468 0.58200002 4284501823
0.058906626 0.052615717 0.583 4283572764
0.06080021 0.052615717 0.583 4283768858
0.062801339 0.05270597 0.58400005 4283769112
0.064698175 0.05270597 0.58400005 4283966491
0.066595003 0.05270597 0.58400005 4282263846
0.032174166 0.054135952 0.57900006 4283777075
0.033995941 0.054042447 0.57800001 4283905061
0.035935353 0.054135952 0.57900006 4284359189
0.037815943 0.054135952 0.57900006 4284882708
0.039696541 0.054135952 0.57900006 4285210646
0.041577131 0.054135952 0.57900006 4284553486
0.043457724 0.054135952 0.57900006 4284094484
0.045338318 0.054135952 0.57900006 4283110928
0.047218911 0.054135952 0.57900006 4280815884
0.049184304 0.054229449 0.58000004 4280422155
0.051068146 0.054229449 0.58000004 4280816913
0.05304328 0.054322947 0.58100003 4281014292
0.05493037 0.054322947 0.58100003 4281539609
0.05691525 0.054416444 0.58200002 4282130974
0.058906626 0.054509941 0.583 4282261018
0.060904503 0.054603446 0.58400005 4282457625
0.062801339 0.054603446 0.58400005 4283446573
0.064698175 0.054603446 0.58400005 4284238917
0.066595003 0.054603446 0.58400005 4286089081
0.030293573 0.056017179 0.57900006 4279968284
0.032174166 0.056017179 0.57900006 4279767305
0.03405476 0.056017179 0.57900006 4284173630
0.035935353 0.056017179 0.57900006 4282980627
0.037815943 0.056017179 0.57900006 4283899415
0.039696541 0.056017179 0.57900006 4284030485
0.041577131 0.056017179 0.57900006 4283702034
0.043457724 0.056017179 0.57900006 4283112211
0.045338318 0.056017179 0.57900006 4282521873
0.047218911 0.056017179 0.57900006 4281866258
0.049099505 0.056017179 0.57900006 4281735955
0.051068146 0.056113929 0.58000004 4281803033
0.05304328 0.056210674 0.58100003 4282066978
0.05493037 0.056210674 0.58100003 4283715657
0.05691525 0.05630742 0.58200002 4284901214
0.059007674 0.056500919 0.58400005 4285364071
0.060904503 0.056500919 0.58400005 4285364841
0.062908873 0.056597669 0.58500004 4285365358
0.064808957 0.056597669 0.58500004 4285300079
0.030293573 0.05789841 0.57900006 4279968797
0.032174166 0.05789841 0.57900006 4280099098
0.03405476 0.05789841 0.57900006 4279571209
0.035935353 0.05789841 0.57900006 4284369726
0.037815943 0.05789841 0.57900006 4282917916
0.039696541 0.05789841 0.57900006 4282850323
0.041577131 0.05789841 0.57900006 4282653457
0.043457724 0.05789841 0.57900006 4283775790
0.045338318 0.05789841 0.57900006 4281867795
0.047218911 0.05789841 0.57900006 4280489483
0.049099505 0.05789841 0.57900006 4280358929
0.050980095 0.05789841 0.57900006 4280097553
0.052951984 0.057998408 0.58000004 4280294934
0.05493037 0.058098402 0.58100003 4281612337
0.05691525 0.0581984 0.58200002 4283588434
0.059007674 0.058398396 0.58400005 4284248159
0.060904503 0.058398396 0.58400005 4284248159
0.062908873 0.058498394 0.58500004 4285036907
0.030293573 0.05977964 0.57900006 4279969567
0.032174166 0.05977964 0.57900006 4279968284
0.033995941 0.05967639 0.57800001 4279967512
0.035873286 0.05967639 0.57800001 4280295704
0.037750628 0.05967639 0.57800001 4280622614
0.039627977 0.05967639 0.57800001 4281146646
0.041505318 0.05967639 0.57800001 4280751888
0.043382663 0.05967639 0.57800001 4280227343
0.045260008 0.05967639 0.57800001 4280162833
0.047137354 0.05967639 0.57800001 4279834899
0.049014702 0.05967639 0.57800001 4279835156
0.050980095 0.05977964 0.57900006 4279900949
0.052951984 0.059882887 0.58000004 4279967512
0.054835826 0.059882887 0.58000004 4279968284
0.032118596 0.061554369 0.57800001 4280297762
0.033995941 0.061554369 0.57800001 4279903004
0.035873286 0.061554369 0.57800001 4280033305
0.037750628 0.061554369 0.57800001 4279835926
0.039627977 0.061554369 0.57800001 4280033305
0.041505318 0.061554369 0.57800001 4279769363
0.043382663 0.061554369 0.57800001 4279638547
0.045260008 0.061554369 0.57800001 4279638547
0.047137354 0.061554369 0.57800001 4279705110
0.049014702 0.061554369 0.57800001 4279507731
0.050892044 0.061554369 0.57800001 4279507731
0.039627977 0.063432351 0.57800001 4279837211
0.041505318 0.063432351 0.57800001 4279508246
0.043307606 0.063322604 0.57700002 4279508246
0.045181707 0.063322604 0.57700002 4279442453
0.047055803 0.063322604 0.57700002 4279508246
0.041596502 0.039738279 0.58010072 4294967295
0.041596502 0.039738279 0.58010072 4294901760
0.041596502 0.039242141 0.58016276 4294901760
0.041596502 0.038746003 0.58022475 4294901760
0.041596502 0.038249865 0.5802868 4294901760
0.041596502 0.037753731 0.58034885 4294901760
0.041596502 0.037257593 0.58041084 4294901760
0.041596502 0.036761455 0.58047289 4294901760
0.041596502 0.036265317 0.58053493 4294901760
0.041596502 0.035769179 0.58059698 4294901760
0.041596502 0.035273042 0.58065897 4294901760
0.041596502 0.034776904 0.58072102 4294901760
0.041596502 0.03428077 0.58078307 4294901760
0.041596502 0.033784632 0.58084506 4294901760
0.041596502 0.033288494 0.58090711 4294901760
0.041596502 0.032792356 0.58096915 4294901760
0.041596502 0.032296218 0.58103114 4294901760
0.041596502 0.03180008 0.58109319 4294901760
0.041596502 0.031303942 0.58115524 4294901760
0.041596502 0.030807804 0.58121723 4294901760
0.041596502 0.030311668 0.58127928 4294901760
0.041596502 0.02981553 0.58134133 4294901760
0.041596502 0.029319394 0.58140332 4294901760
0.041596502 0.028823256 0.58146536 4294901760
0.041596502 0.028327119 0.58152741 4294901760
0.041596502 0.027830981 0.58158946 4294901760
0.041596502 0.027334843 0.58165145 4294901760
0.041596502 0.026838707 0.5817135 4294901760
0.041596502 0.026342567 0.58177555 4294901760
0.041596502 0.025846431 0.58183753 4294901760
0.041596502 0.025350295 0.58189958 4294901760
0.041596502 0.024854157 0.58196163 4294901760
0.041596502 0.024358019 0.58202362 4294901760
0.041596502 0.023861883 0.58208567 4294901760
0.041596502 0.023365743 0.58214772 4294901760
0.041596502 0.022869607 0.58220971 4294901760
0.041596502 0.02237347 0.58227175 4294901760
0.041596502 0.021877332 0.5823338 4294901760
0.041596502 0.021381194 0.58239585 4294901760
0.041596502 0.020885058 0.58245784 4294901760
0.041596502 0.020388922 0.58251989 4294901760
0.041596502 0.019892782 0.58258194 4294901760
0.041596502 0.019396646 0.58264393 4294901760
0.041596502 0.018900508 0.58270597 4294901760
0.041596502 0.01840437 0.58276802 4294901760
0.041596502 0.017908234 0.58283001 4294901760
0.041596502 0.017412096 0.58289206 4294901760
0.041596502 0.016915958 0.58295411 4294901760
0.041596502 0.01641982 0.5830161 4294901760
0.041596502 0.015923684 0.58307815 4294901760
0.041596502 0.015427545 0.58314019 4294901760
0.041596502 0.014931409 0.58320224 4294901760
0.041596502 0.014435273 0.58326423 4294901760
0.041596502 0.013939135 0.58332628 4294901760
0.041596502 0.013442999 0.58338833 4294901760
0.041596502 0.012946857 0.58345032 4294901760
0.041596502 0.012450721 0.58351237 4294901760
0.041596502 0.011954583 0.58357441 4294901760
0.041596502 0.011458447 0.5836364 4294901760
0.041596502 0.010962311 0.58369845 4294901760
0.041596502 0.010466173 0.5837605 4294901760
0.041596502 0.0099700335 0.58382249 4294901760
0.041596502 0.0094738957 0.58388454 4294901760
0.041596502 0.0089777596 0.58394659 4294901760
0.041596502 0.0084816217 0.58400857 4294901760
0.041596502 0.0079854876 0.58407062 4294901760
0.041596502 0.0074893497 0.58413267 4294901760
0.041596502 0.0069932081 0.58419472 4294901760
0.041596502 0.0064970702 0.58425671 4294901760
0.041596502 0.006000936 0.58431876 4294901760
0.041596502 0.0055047981 0.58438081 4294901760
0.041596502 0.0050086603 0.58444279 4294901760
0.041596502 0.0045125261 0.58450484 4294901760
0.041596502 0.0040163845 0.58456689 4294901760
0.041596502 0.0035202466 0.58462888 4294901760
0.041596502 0.0030241087 0.58469093 4294901760
0.041596502 0.0025279745 0.58475298 4294901760
0.041596502 0.0020318367 0.58481497 4294901760
0.041596502 0.0015356988 0.58487701 4294901760
0.041596502 0.0010395646 0.58493906 4294901760
0.041596502 0.000543423 0.58500111 4294901760
0.041596502 4.728511e-05 0.5850631 4294901760
0.041596502 -0.00044885278 0.58512515 4294901760
0.041596502 -0.00094498694 0.5851872 4294901760
0.041596502 -0.0014411248 0.58524919 4294901760
0.041596502 -0.0019372627 0.58531123 4294901760
0.041596502 -0.0024334006 0.58537328 4294901760
0.041596502 -0.0029295385 0.58543527 4294901760
0.041596502 -0.0034256764 0.58549732 4294901760
0.041596502 -0.0039218105 0.58555937 4294901760
0.041596502 -0.0044179484 0.58562136 4294901760
0.041596502 -0.0049140863 0.58568341 4294901760
0.041596502 -0.0054102279 0.58574545 4294901760
0.041596502 -0.0059063621 0.58580744 4294901760
0.041596502 -0.0064025 0.58586949 4294901760
0.041596502 -0.0068986379 0.58593154 4294901760
0.041596502 -0.007394772 0.58599359 4294901760
0.041596502 -0.0078909099 0.58605558 4294901760
0.041596502 -0.0083870515 0.58611763 4294901760
0.041596502 -0.0088831894 0.58617967 4294901760
0.041596502 -0.0093793236 0.58624166 4294901760
0.041596502 -0.0098754615 0.58630371 4294901760
0.041596502 0.039738279 0.58010072 4278255360
0.042095274 0.039742623 0.58013546 4278255360
0.042594045 0.03974697 0.58017021 4278255360
0.043092817 0.039751314 0.58020496 4278255360
0.043591589 0.039755657 0.58023971 4278255360
0.044090364 0.039760001 0.58027446 4278255360
0.044589136 0.039764348 0.58030921 4278255360
0.045087907 0.039768692 0.58034396 4278255360
0.045586679 0.039773036 0.58037871 4278255360
0.046085451 0.039777379 0.58041346 4278255360
0.046584222 0.039781727 0.58044821 4278255360
0.047082994 0.039786071 0.58048296 4278255360
0.047581766 0.039790414 0.58051771 4278255360
0.048080541 0.039794758 0.58055246 4278255360
0.048579313 0.039799105 0.58058721 4278255360
0.049078085 0.039803449 0.58062196 4278255360
0.049576856 0.039807793 0.58065671 4278255360
0.050075628 0.039812136 0.58069146 4278255360
0.0505744 0.039816484 0.58072621 4278255360
0.051073171 0.039820828 0.58076096 4278255360
0.051571943 0.039825171 0.58079571 4278255360
0.052070715 0.039829515 0.58083045 4278255360
0.052569486 0.039833862 0.5808652 4278255360
0.053068262 0.039838206 0.58089995 4278255360
0.053567033 0.03984255 0.5809347 4278255360
0.054065805 0.039846897 0.58096945 4278255360
0.054564577 0.039851241 0.5810042 4278255360
0.055063352 0.039855585 0.58103895 4278255360
0.055562124 0.039859928 0.5810737 4278255360
0.056060892 0.039864276 0.58110845 4278255360
0.056559667 0.039868619 0.5811432 4278255360
0.057058439 0.039872963 0.58117795 4278255360
0.05755721 0.039877307 0.5812127 4278255360
0.058055982 0.039881654 0.58124745 4278255360
0.058554754 0.039885998 0.5812822 4278255360
0.059053525 0.039890341 0.58131695 4278255360
0.059552297 0.039894685 0.5813517 4278255360
0.060051069 0.039899033 0.58138645 4278255360
0.06054984 0.039903376 0.5814212 4278255360
0.061048612 0.03990772 0.58145595 4278255360
0.061547387 0.039912064 0.5814907 4278255360
0.062046159 0.039916411 0.58152544 4278255360
0.062544927 0.039920755 0.58156019 4278255360
0.063043706 0.039925098 0.58159494 4278255360
0.06354247 0.039929442 0.58162969 4278255360
0.064041242 0.03993379 0.58166444 4278255360
0.064540021 0.039938133 0.58169919 4278255360
0.065038793 0.039942477 0.58173394 4278255360
0.065537564 0.039946821 0.58176869 4278255360
0.066036336 0.039951168 0.58180344 4278255360
0.066535108 0.039955512 0.58183825 4278255360
0.067033879 0.039959855 0.581873 4278255360
0.067532651 0.039964203 0.58190775 4278255360
0.068031423 0.039968546 0.5819425 4278255360
0.068530202 0.03997289 0.58197725 4278255360
0.069028974 0.039977234 0.582012 4278255360
0.069527745 0.039981581 0.58204675 4278255360
0.070026509 0.039985925 0.5820815 4278255360
0.070525281 0.039990269 0.58211625 4278255360
0.071024053 0.039994612 0.582151 4278255360
0.071522832 0.03999896 0.58218575 4278255360
0.072021604 0.040003303 0.58222049 4278255360
0.072520375 0.040007647 0.58225524 4278255360
0.073019147 0.040011991 0.58228999 4278255360
0.073517919 0.040016338 0.58232474 4278255360
0.07401669 0.040020682 0.58235949 4278255360
0.074515462 0.040025026 0.58239424 4278255360
0.075014234 0.040029369 0.58242899 4278255360
0.075513005 0.040033717 0.58246374 4278255360
0.076011777 0.04003806 0.58249849 4278255360
0.076510549 0.040042404 0.58253324 4278255360
0.07700932 0.040046748 0.58256799 4278255360
0.077508092 0.040051095 0.58260274 4278255360
0.078006864 0.040055439 0.58263749 4278255360
0.078505635 0.040059783 0.58267224 4278255360
0.079004407 0.040064126 0.58270699 4278255360
0.079503179 0.040068474 0.58274174 4278255360
0.08000195 0.040072817 0.58277649 4278255360
0.080500722 0.040077161 0.58281124 4278255360
0.080999501 0.040081508 0.58284599 4278255360
0.081498273 0.040085852 0.58288074 4278255360
0.081997044 0.040090196 0.58291548 4278255360
0.082495816 0.04009454 0.58295023 4278255360
0.082994588 0.040098887 0.58298498 4278255360
0.083493359 0.040103231 0.58301973 4278255360
0.083992139 0.040107574 0.58305448 4278255360
0.08449091 0.040111918 0.58308923 4278255360
0.084989682 0.040116265 0.58312398 4278255360
0.085488446 0.040120609 0.58315873 4278255360
0.085987218 0.040124953 0.58319348 4278255360
0.086485989 0.040129296 0.58322823 4278255360
0.086984769 0.040133644 0.58326298 4278255360
0.08748354 0.040137988 0.58329773 4278255360
0.087982312 0.040142331 0.58333248 4278255360
0.088481084 0.040146675 0.58336723 4278255360
0.088979855 0.040151022 0.58340198 4278255360
0.089478627 0.040155366 0.58343673 4278255360
0.089977399 0.04015971 0.58347148 4278255360
0.09047617 0.040164053 0.58350623 4278255360
0.090974942 0.040168401 0.58354098 4278255360
0.091473714 0.040172745 0.58357573 4278255360
0.041596502 0.039738279 0.58010072 4278190335
0.041561481 0.039800156 0.58059561 4278190335
0.041526459 0.039862033 0.58109057 4278190335
0.041491441 0.03992391 0.58158547 4278190335
0.04145642 0.039985791 0.58208036 4278190335
0.041421399 0.040047668 0.58257532 4278190335
0.041386377 0.040109545 0.58307022 4278190335
0.041351356 0.040171422 0.58356518 4278190335
0.041316338 0.040233299 0.58406007 4278190335
0.041281316 0.040295176 0.58455497 4278190335
0.041246295 0.040357057 0.58504993 4278190335
0.041211274 0.040418934 0.58554482 4278190335
0.041176252 0.040480811 0.58603972 4278190335
0.041141231 0.040542688 0.58653468 4278190335
0.041106213 0.040604565 0.58702958 4278190335
0.041071191 0.040666442 0.58752447 4278190335
0.04103617 0.040728323 0.58801943 4278190335
0.041001149 0.0407902 0.58851433 4278190335
0.040966127 0.040852077 0.58900923 4278190335
0.040931109 0.040913954 0.58950418 4278190335
0.040896088 0.040975831 0.58999908 4278190335
0.040861066 0.041037709 0.59049404 4278190335
0.040826045 0.041099589 0.59098893 4278190335
0.040791024 0.041161466 0.59148383 4278190335
0.040756006 0.041223343 0.59197879 4278190335
0.040720984 0.041285221 0.59247369 4278190335
0.040685963 0.041347098 0.59296858 4278190335
0.040650941 0.041408975 0.59346354 4278190335
0.04061592 0.041470852 0.59395844 4278190335
0.040580902 0.041532733 0.59445333 4278190335
0.040545881 0.04159461 0.59494829 4278190335
0.040510859 0.041656487 0.59544319 4278190335
0.040475838 0.041718364 0.59593809 4278190335
0.040440816 0.041780241 0.59643304 4278190335
0.040405795 0.041842118 0.59692794 4278190335
0.040370777 0.041903999 0.5974229 4278190335
0.040335756 0.041965876 0.5979178 4278190335
0.040300734 0.042027753 0.59841269 4278190335
0.040265713 0.04208963 0.59890765 4278190335
0.040230691 0.042151507 0.59940255 4278190335
0.040195674 0.042213384 0.59989744 4278190335
0.040160652 0.042275265 0.6003924 4278190335
0.040125631 0.042337142 0.6008873 4278190335
0.040090609 0.042399019 0.60138226 4278190335
0.040055588 0.042460896 0.60187715 4278190335
0.04002057 0.042522773 0.60237205 4278190335
0.039985549 0.04258465 0.60286701 4278190335
0.039950527 0.042646527 0.6033619 4278190335
0.039915506 0.042708408 0.6038568 4278190335
0.039880484 0.042770285 0.60435176 4278190335
0.039845467 0.042832162 0.60484666 4278190335
0.039810445 0.042894039 0.60534155 4278190335
0.039775424 0.042955916 0.60583651 4278190335
0.039740402 0.043017793 0.60633141 4278190335
0.039705381 0.043079674 0.60682631 4278190335
0.039670359 0.043141551 0.60732126 4278190335
0.039635342 0.043203428 0.60781616 4278190335
0.03960032 0.043265305 0.60831106 4278190335
0.039565299 0.043327183 0.60880601 4278190335
0.039530277 0.04338906 0.60930091 4278190335
0.039495256 0.04345094 0.60979587 4278190335
0.039460238 0.043512817 0.61029077 4278190335
0.039425217 0.043574695 0.61078566 4278190335
0.039390195 0.043636572 0.61128062 4278190335
0.039355174 0.043698449 0.61177552 4278190335
0.039320152 0.043760326 0.61227041 4278190335
0.039285131 0.043822207 0.61276537 4278190335
0.039250113 0.043884084 0.61326027 4278190335
0.039215092 0.043945961 0.61375523 4278190335
0.03918007 0.044007838 0.61425012 4278190335
0.039145049 0.044069715 0.61474502 4278190335
0.039110027 0.044131592 0.61523998 4278190335
0.03907501 0.044193473 0.61573488 4278190335
0.039039988 0.04425535 0.61622977 4278190335
0.039004967 0.044317227 0.61672473 4278190335
0.038969945 0.044379104 0.61721963 4278190335
0.038934924 0.044440981 0.61771452 4278190335
0.038899906 0.044502858 0.61820948 4278190335
0.038864885 0.044564735 0.61870438 4278190335
0.038829863 0.044626616 0.61919928 4278190335
0.038794842 0.044688493 0.61969423 4278190335
0.03875982 0.04475037 0.62018913 4278190335
0.038724802 0.044812247 0.62068403 4278190335
0.038689781 0.044874124 0.62117898 4278190335
0.03865476 0.044936001 0.62167388 4278190335
0.038619738 0.044997882 0.62216884 4278190335
0.038584717 0.045059759 0.62266374 4278190335
0.038549699 0.045121636 0.62315863 4278190335
0.038514677 0.045183513 0.62365359 4278190335
0.038479656 0.04524539 0.62414849 4278190335
0.038444635 0.045307267 0.62464339 4278190335
0.038409613 0.045369148 0.62513834 4278190335
0.038374592 0.045431025 0.62563324 4278190335
0.038339574 0.045492902 0.6261282 4278190335
0.038304552 0.045554779 0.62662309 4278190335
0.038269531 0.045616657 0.62711799 4278190335
0.03823451 0.045678534 0.62761295 4278190335
0.038199488 0.045740414 0.62810785 4278190335
0.03816447 0.045802291 0.62860274 4278190335
0.038129449 0.045864169 0.6290977 4278190335
0.038094427 0.045926046 0.6295926 4278190335
0.041596502 0.039738279 0.58010072 4294967295
0.041666545 0.039614525 0.57911086 4294967295
0.041736584 0.039490767 0.57812107 4294967295
0.041806627 0.039367013 0.57713121 4294967295
0.041876666 0.039243259 0.57614136 4294967295
0.041946709 0.039119501 0.5751515 4294967295
0.042016752 0.038995747 0.57416171 4294967295
0.042086791 0.038871992 0.57317185 4294967295
0.042156834 0.038748235 0.572182 4294967295
0.042226873 0.03862448 0.5711922 4294967295
0.042296916 0.038500726 0.57020235 4294967295
0.042366959 0.038376968 0.5692125 4294967295
0.042436998 0.038253214 0.56822264 4294967295
0.042507041 0.03812946 0.56723285 4294967295
0.042577084 0.038005706 0.56624299 4294967295
0.042647123 0.037881948 0.56525314 4294967295
0.042717166 0.037758194 0.56426334 4294967295
0.042787205 0.03763444 0.56327349 4294967295
0.042857248 0.037510682 0.56228364 4294967295
0.042927291 0.037386928 0.56129378 4294967295
0.04299733 0.037263174 0.56030399 4294967295
0.043067373 0.037139416 0.55931413 4294967295
0.043137413 0.037015662 0.55832428 4294967295
0.043207455 0.036891907 0.55733442 4294967295
0.043277498 0.03676815 0.55634463 4294967295
0.043347538 0.036644395 0.55535477 4294967295
0.04341758 0.036520641 0.55436492 4294967295
0.043487623 0.036396883 0.55337512 4294967295
0.043557663 0.036273129 0.55238527 4294967295
0.043627705 0.036149375 0.55139542 4294967295
0.043697745 0.036025617 0.55040556 4294967295
0.043767788 0.035901863 0.54941577 4294967295
0.04383783 0.035778109 0.54842591 4294967295
0.04390787 0.035654351 0.54743606 4294967295
0.043977913 0.035530597 0.5464462 4294967295
0.044047952 0.035406843 0.54545641 4294967295
0.044117995 0.035283085 0.54446656 4294967295
0.044188038 0.035159331 0.5434767 4294967295
0.044258077 0.035035577 0.54248691 4294967295
0.04432812 0.034911823 0.54149705 4294967295
0.044398159 0.034788065 0.5405072 4294967295
0.044468202 0.034664311 0.5395174 4294967295
0.044538245 0.034540556 0.53852755 4294967295
0.044608284 0.034416799 0.53753769 4294967295
0.044678327 0.034293044 0.53654784 4294967295
0.044748366 0.03416929 0.53555804 4294967295
0.044818409 0.034045532 0.53456819 4294967295
0.044888452 0.033921778 0.53357834 4294967295
0.044958491 0.033798024 0.53258848 4294967295
0.045028534 0.033674266 0.53159869 4294967295
0.045098573 0.033550512 0.53060883 4294967295
0.045168616 0.033426758 0.52961898 4294967295
0.045238659 0.033303 0.52862918 4294967295
