# .PCD v0.7 - Point Cloud Data file format
VERSION 0.7
FIELDS x y z rgb
SIZE 4 4 4 4
TYPE F F F U
COUNT 1 1 1 1
WIDTH 1021
HEIGHT 1
VIEWPOINT 0 0 0 1 0 0 0
POINTS 1021
DATA ascii
0.10027492 -0.013710856 0.37600002 4280172838
0.10149617 -0.013710856 0.37600002 4280239912
0.10271741 -0.013710856 0.37600002 4279845668
0.10393866 -0.013710856 0.37600002 4279255584
0.10515992 -0.013710856 0.37600002 4279124511
0.10638116 -0.013710856 0.37600002 4279190558
0.10760242 -0.013710856 0.37600002 4279190558
0.10911308 -0.013747321 0.377 4279059742
0.11033757 -0.013747321 0.377 4278994461
0.11156207 -0.013747321 0.377 4279258144
0.11278657 -0.013747321 0.377 4279126558
0.11431349 -0.013783786 0.37800002 4279389730
0.11554123 -0.013783786 0.37800002 4279258144
0.11707789 -0.013820251 0.37900001 4279521318
0.11830889 -0.013820251 0.37900001 4279652904
0.11985528 -0.013856716 0.38000003 4279849770
0.12108953 -0.013856716 0.38000003 4280638002
0.12264567 -0.013893181 0.38100001 4280900663
0.12420832 -0.013929646 0.38200003 4280176170
0.12577745 -0.013966111 0.38300002 4281819710
0.12702143 -0.013966111 0.38300002 4281950782
0.1286003 -0.014002576 0.384 4280568364
0.12984754 -0.014002576 0.384 4281752638
0.13109477 -0.014002576 0.384 4281752122
0.033323228 -0.012123819 0.36500001 4281680696
0.036879793 -0.012123819 0.36500001 4282077251
0.038169604 -0.012157035 0.36600003 4282933843
0.03935837 -0.012157035 0.36600003 4280300327
0.040657923 -0.012190251 0.36700001 4279114769
0.041849941 -0.012190251 0.36700001 4279311635
0.043159239 -0.012223467 0.36800003 4280628522
0.044354506 -0.012223467 0.36800003 4280893231
0.045673542 -0.012256683 0.36900002 4281616954
0.046872053 -0.012256683 0.36900002 4281813820
0.048070569 -0.012256683 0.36900002 4281682234
0.049269084 -0.012256683 0.36900002 4281287476
0.050467592 -0.012256683 0.36900002 4280761132
0.051666107 -0.012256683 0.36900002 4280694569
0.052864619 -0.012256683 0.36900002 4281155118
0.054063134 -0.012256683 0.36900002 4281615669
0.055261642 -0.012256683 0.36900002 4281878839
0.058916427 -0.012024171 0.36200002 4280104485
0.060092207 -0.012024171 0.36200002 4279121183
0.061267979 -0.012024171 0.36200002 4281423423
0.062271263 -0.011990955 0.36100003 4285565815
0.093667775 -0.012422762 0.37400001 4282079552
0.095136233 -0.012455978 0.37500003 4280039969
0.096354231 -0.012455978 0.37500003 4279975205
0.097572237 -0.012455978 0.37500003 4279976488
0.099053673 -0.012489194 0.37600002 4279649320
0.10027492 -0.012489194 0.37600002 4279320607
0.10149617 -0.012489194 0.37600002 4279124252
0.10271741 -0.012489194 0.37600002 4279058459
0.10393866 -0.012489194 0.37600002 4278993947
0.10515992 -0.012489194 0.37600002 4279059740
0.10638116 -0.012489194 0.37600002 4279059740
0.10760242 -0.012489194 0.37600002 4279455012
0.10911308 -0.01252241 0.377 4279455014
0.11033757 -0.01252241 0.377 4279323941
0.11156207 -0.01252241 0.377 4279061537
0.11308575 -0.012555626 0.37800002 4279258146
0.11431349 -0.012555626 0.37800002 4280178221
0.11554123 -0.012555626 0.37800002 4280244014
0.11707789 -0.012588842 0.37900001 4280769588
0.11830889 -0.012588842 0.37900001 4280505903
0.11985528 -0.012622058 0.38000003 4280636206
0.12420832 -0.01268849 0.38200003 4281160501
0.12577745 -0.012721705 0.38300002 4282015810
0.12702143 -0.012721705 0.38300002 4280765743
0.1286003 -0.012754921 0.384 4281882943
0.020615915 -0.011117698 0.37100002 4281679136
0.02283974 -0.011027797 0.36800003 4280495389
0.026281916 -0.010967864 0.36600003 4279574289
0.027395627 -0.010937897 0.36500001 4281549362
0.030952191 -0.010937897 0.36500001 4282010177
0.032137711 -0.010937897 0.36500001 4281813566
0.033323228 -0.010937897 0.36500001 4287406486
0.03450875 -0.010937897 0.36500001 4286420359
0.035694271 -0.010937897 0.36500001 4278721297
0.036879793 -0.010937897 0.36500001 4279313181
0.038065314 -0.010937897 0.36500001 4281880391
0.03935837 -0.010967864 0.36600003 4282537802
0.04054714 -0.010967864 0.36600003 4282932301
0.041849941 -0.01099783 0.36700001 4282471750
0.043159239 -0.011027797 0.36800003 4282340164
0.044354506 -0.011027797 0.36800003 4280958511
0.045673542 -0.011057764 0.36900002 4282076992
0.046999078 -0.011087731 0.37 4281879611
0.048200838 -0.011087731 0.37 4281748025
0.049402602 -0.011087731 0.37 4281352497
0.050604358 -0.011087731 0.37 4280694567
0.051806122 -0.011087731 0.37 4281418290
0.052864619 -0.011057764 0.36900002 4281155118
0.054063134 -0.011057764 0.36900002 4280891946
0.055261642 -0.011057764 0.36900002 4281813048
0.057740647 -0.010847996 0.36200002 4281286190
0.058916427 -0.010847996 0.36200002 4279642649
0.060092207 -0.010847996 0.36200002 4279120668
0.061267979 -0.010847996 0.36200002 4278791703
0.062443756 -0.010847996 0.36200002 4283593307
0.063443795 -0.01081803 0.36100003 4285237364
0.089301407 -0.011117698 0.37100002 4281881921
0.090750366 -0.011147664 0.37200001 4280369704
0.09220583 -0.011177632 0.37300003 4280172838
0.093417332 -0.011177632 0.37300003 4279451164
0.094882526 -0.011207598 0.37400001 4279582750
0.096354231 -0.011237565 0.37500003 4279189275
0.097572237 -0.011237565 0.37500003 4279058459
0.098790236 -0.011237565 0.37500003 4278795800
0.10027492 -0.011267532 0.37600002 4279190556
0.10149617 -0.011267532 0.37600002 4279124763
0.10271741 -0.011267532 0.37600002 4279058970
0.10393866 -0.011267532 0.37600002 4279192351
0.10515992 -0.011267532 0.37600002 4279258916
0.10638116 -0.011267532 0.37600002 4278995744
0.10760242 -0.011267532 0.37600002 4279193125
0.10911308 -0.011297498 0.377 4279783979
0.11033757 -0.011297498 0.377 4280046635
0.11156207 -0.011297498 0.377 4280703282
0.11308575 -0.011327466 0.37800002 4280768305
0.11431349 -0.011327466 0.37800002 4280767792
0.11554123 -0.011327466 0.37800002 4280570415
0.11985528 -0.011387399 0.38000003 4280963889
0.12420832 -0.011447333 0.38200003 4280896559
0.019463226 -0.0099389981 0.37200001 4282204962
0.023969689 -0.0098054102 0.36700001 4282075706
0.025161708 -0.0098054102 0.36700001 4281747255
0.027395627 -0.0097519746 0.36500001 4279180049
0.028581148 -0.0097519746 0.36500001 4279048463
0.029766668 -0.0097519746 0.36500001 4282010177
0.03086739 -0.0097252568 0.36400002 4281747775
0.032049663 -0.0097252568 0.36400002 4282406218
0.033231933 -0.0097252568 0.36400002 4279576866
0.034414209 -0.0097252568 0.36400002 4281154868
0.035596479 -0.0097252568 0.36400002 4281023282
0.036879793 -0.0097519746 0.36500001 4281288505
0.038065314 -0.0097519746 0.36500001 4282143814
0.03935837 -0.0097786924 0.36600003 4282275402
0.04054714 -0.0097786924 0.36600003 4282078021
0.041849941 -0.0098054102 0.36700001 4282143298
0.043159239 -0.009832128 0.36800003 4281814333
0.044354506 -0.009832128 0.36800003 4281616187
0.045673542 -0.0098588457 0.36900002 4280827184
0.046999078 -0.0098855626 0.37 4280827956
0.048331115 -0.0099122813 0.37100002 4281091126
0.049536124 -0.0099122813 0.37100002 4279971616
0.050741129 -0.0099122813 0.37100002 4280958509
0.051946141 -0.0099122813 0.37100002 4281352497
0.053151149 -0.0099122813 0.37100002 4281155118
0.054356162 -0.0099122813 0.37100002 4281286704
0.055561166 -0.0099122813 0.37100002 4281615669
0.058916427 -0.0096718213 0.36200002 4280102430
0.060092207 -0.0096718213 0.36200002 4279054105
0.061267979 -0.0096718213 0.36200002 4278923287
0.062443756 -0.0096718213 0.36200002 4279252252
0.063619532 -0.0096718213 0.36200002 4284515696
0.064795315 -0.0096718213 0.36200002 4285171573
0.085224465 -0.0098588457 0.36900002 4282013759
0.086657174 -0.0098855626 0.37 4279909153
0.087858938 -0.0098855626 0.37 4279712803
0.089301407 -0.0099122813 0.37100002 4279713316
0.090750366 -0.0099389981 0.37200001 4279254816
0.09220583 -0.0099657169 0.37300003 4279123228
0.093417332 -0.0099657169 0.37300003 4278860056
0.094882526 -0.0099924337 0.37400001 4279058205
0.096097283 -0.0099924337 0.37400001 4278993179
0.097572237 -0.010019152 0.37500003 4279058972
0.098790236 -0.010019152 0.37500003 4279322912
0.10027492 -0.010045869 0.37600002 4279520291
0.10149617 -0.010045869 0.37600002 4279257633
0.10271741 -0.010045869 0.37600002 4279126047
0.10393866 -0.010045869 0.37600002 4279192353
0.10515992 -0.010045869 0.37600002 4279784492
0.10638116 -0.010045869 0.37600002 4280178737
0.10788859 -0.010072587 0.377 4280638774
0.10911308 -0.010072587 0.377 4280966456
0.11033757 -0.010072587 0.377 4280570928
0.111858 -0.010099305 0.37800002 4280766770
0.11308575 -0.010099305 0.37800002 4281161014
0.11431349 -0.010099305 0.37800002 4281357880
0.11584689 -0.010126023 0.37900001 4280502571
0.11862105 -0.01015274 0.38000003 4280765743
0.12140818 -0.010179458 0.38100001 4282407488
0.12264567 -0.010179458 0.38100001 4285433198
0.020615915 -0.008706864 0.37100002 4282470462
0.021762107 -0.0086833946 0.37 4283721813
0.022901803 -0.0086599262 0.36900002 4283590742
0.024035003 -0.0086364578 0.36800003 4282011710
0.025161708 -0.0086129894 0.36700001 4281549876
0.027470684 -0.0085895211 0.36600003 4279706393
0.028581148 -0.0085660517 0.36500001 4279706906
0.029766668 -0.0085660517 0.36500001 4282603082
0.03086739 -0.0085425833 0.36400002 4278984469
0.032049663 -0.0085425833 0.36400002 4279906852
0.033231933 -0.0085425833 0.36400002 4283591773
0.034414209 -0.0085425833 0.36400002 4281946948
0.035596479 -0.0085425833 0.36400002 4282604878
0.036879793 -0.0085660517 0.36500001 4281222714
0.038065314 -0.0085660517 0.36500001 4282078023
0.039250832 -0.0085660517 0.36500001 4282012230
0.04054714 -0.0085895211 0.36600003 4282012228
0.041849941 -0.0086129894 0.36700001 4282078275
0.043041959 -0.0086129894 0.36700001 4282077505
0.044354506 -0.0086364578 0.36800003 4280826671
0.045673542 -0.0086599262 0.36900002 4280827184
0.046999078 -0.0086833946 0.37 4280696119
0.048331115 -0.008706864 0.37100002 4280761912
0.049536124 -0.008706864 0.37100002 4280959289
0.050741129 -0.008706864 0.37100002 4280761391
0.051946141 -0.008706864 0.37100002 4280959022
0.053151149 -0.008706864 0.37100002 4280959022
0.054356162 -0.008706864 0.37100002 4280958507
0.055561166 -0.008706864 0.37100002 4281024300
0.058753677 -0.0084721772 0.36100003 4282603334
0.059926208 -0.0084721772 0.36100003 4278922258
0.061267979 -0.0084956456 0.36200002 4278989847
0.062443756 -0.0084956456 0.36200002 4278529556
0.063619532 -0.0084956456 0.36200002 4278858525
0.064795315 -0.0084956456 0.36200002 4285040757
0.081407711 -0.0086364578 0.36800003 4281815612
0.082827434 -0.0086599262 0.36900002 4279448602
0.084025949 -0.0086599262 0.36900002 4279975457
0.085224465 -0.0086599262 0.36900002 4279450396
0.086657174 -0.0086833946 0.37 4279319324
0.087858938 -0.0086833946 0.37 4278860056
0.089301407 -0.008706864 0.37100002 4278860056
0.090750366 -0.0087303324 0.37200001 4278795033
0.09195862 -0.0087303324 0.37200001 4278860826
0.093417332 -0.0087538008 0.37300003 4278795800
0.094882526 -0.0087772692 0.37400001 4279059742
0.096097283 -0.0087772692 0.37400001 4279191842
0.097572237 -0.0088007385 0.37500003 4279126049
0.098790236 -0.0088007385 0.37500003 4278994463
0.10027492 -0.0088242069 0.37600002 4279455012
0.10149617 -0.0088242069 0.37600002 4279783465
0.10271741 -0.0088242069 0.37600002 4280046637
0.10393866 -0.0088242069 0.37600002 4280374832
0.10515992 -0.0088242069 0.37600002 4280637491
0.10666409 -0.0088476753 0.377 4280570674
0.10788859 -0.0088476753 0.377 4280635954
0.10911308 -0.0088476753 0.377 4281293114
0.11063025 -0.0088711446 0.37800002 4280963635
0.111858 -0.0088711446 0.37800002 4281291319
0.11308575 -0.0088711446 0.37800002 4282079298
0.11431349 -0.0088711446 0.37800002 4281553208
0.11584689 -0.0088946121 0.37900001 4281092657
0.11707789 -0.0088946121 0.37900001 4282473542
0.020671483 -0.0075216666 0.37200001 4283655504
0.021762107 -0.0074812272 0.37 4282473029
0.022901803 -0.0074610082 0.36900002 4282143294
0.024035003 -0.0074407887 0.36800003 4282076988
0.025161708 -0.0074205687 0.36700001 4281483821
0.026281916 -0.0074003497 0.36600003 4280562465
0.027470684 -0.0074003497 0.36600003 4281549878
0.028581148 -0.0073801298 0.36500001 4282274371
0.03086739 -0.0073599103 0.36400002 4282208324
0.032049663 -0.0073599103 0.36400002 4282868564
0.033231933 -0.0073599103 0.36400002 4282540882
0.034414209 -0.0073599103 0.36400002 4282211919
0.035596479 -0.0073599103 0.36400002 4281947981
0.036778755 -0.0073599103 0.36400002 4285301878
0.038065314 -0.0073801298 0.36500001 4282867537
0.039250832 -0.0073801298 0.36500001 4283920225
0.04054714 -0.0074003497 0.36600003 4283262810
0.04173591 -0.0074003497 0.36600003 4282012228
0.043041959 -0.0074205687 0.36700001 4280233764
0.044354506 -0.0074407887 0.36800003 4279905571
0.045673542 -0.0074610082 0.36900002 4280498221
0.046999078 -0.0074812272 0.37 4280696119
0.048331115 -0.0075014471 0.37100002 4280827707
0.049536124 -0.0075014471 0.37100002 4280762427
0.050741129 -0.0075014471 0.37100002 4280762427
0.051946141 -0.0075014471 0.37100002 4280367405
0.053151149 -0.0075014471 0.37100002 4280761391
0.054356162 -0.0075014471 0.37100002 4280826923
0.055561166 -0.0075014471 0.37100002 4281024302
0.058753677 -0.0072992519 0.36100003 4281353267
0.059926208 -0.0072992519 0.36100003 4278789388
0.061437227 -0.0073396903 0.36300001 4278791185
0.062616251 -0.0073396903 0.36300001 4278726421
0.063795276 -0.0073396903 0.36300001 4279121693
0.064974301 -0.0073396903 0.36300001 4279581732
0.066153325 -0.0073396903 0.36300001 4285369720
0.072643898 -0.0074003497 0.36600003 4285499507
0.074034385 -0.0074205687 0.36700001 4285433714
0.075226404 -0.0074205687 0.36700001 4285894265
0.076418422 -0.0074205687 0.36700001 4285236337
0.077610441 -0.0074205687 0.36700001 4281684026
0.079017177 -0.0074407887 0.36800003 4279776283
0.080212444 -0.0074407887 0.36800003 4279974944
0.081407711 -0.0074407887 0.36800003 4279581469
0.082827434 -0.0074610082 0.36900002 4279385117
0.084025949 -0.0074610082 0.36900002 4278925336
0.085224465 -0.0074610082 0.36900002 4278464785
0.086657174 -0.0074812272 0.37 4278859543
0.087858938 -0.0074812272 0.37 4278795287
0.089301407 -0.0075014471 0.37100002 4278992666
0.090750366 -0.0075216666 0.37200001 4279124252
0.09195862 -0.0075216666 0.37200001 4279453730
0.093417332 -0.0075418861 0.37300003 4279125535
0.094882526 -0.0075621055 0.37400001 4279125535
0.096097283 -0.0075621055 0.37400001 4279717672
0.097572237 -0.0075823255 0.37500003 4280045867
0.098790236 -0.0075823255 0.37500003 4280374832
0.10027492 -0.0076025445 0.37600002 4280440112
0.10149617 -0.0076025445 0.37600002 4280834100
0.10271741 -0.0076025445 0.37600002 4280307502
0.10421509 -0.007622764 0.377 4280701747
0.10543959 -0.007622764 0.377 4281358907
0.10666409 -0.007622764 0.377 4281029428
0.10788859 -0.007622764 0.377 4280963122
0.10940251 -0.0076429839 0.37800002 4281093940
0.11063025 -0.0076429839 0.37800002 4281225013
0.111858 -0.0076429839 0.37800002 4281355315
0.11308575 -0.0076429839 0.37800002 4282604869
0.020671483 -0.0063129999 0.37200001 4280167698
0.021820923 -0.0062960298 0.37100002 4279904274
0.024035003 -0.0062451186 0.36800003 4281615146
0.025161708 -0.006228148 0.36700001 4281680937
0.026281916 -0.0062111774 0.36600003 4282404921
0.027470684 -0.0062111774 0.36600003 4282538052
0.028581148 -0.0061942069 0.36500001 4279050773
0.03086739 -0.0061772368 0.36400002 4282802257
0.032049663 -0.0061772368 0.36400002 4282408783
0.033231933 -0.0061772368 0.36400002 4282540882
0.034414209 -0.0061772368 0.36400002 4282014540
0.035596479 -0.0061772368 0.36400002 4282934106
0.036778755 -0.0061772368 0.36400002 4281090610
0.038065314 -0.0061942069 0.36500001 4281813818
0.039250832 -0.0061942069 0.36500001 4282470976
0.04054714 -0.0062111774 0.36600003 4281813046
0.04173591 -0.0062111774 0.36600003 4282669638
0.043041959 -0.006228148 0.36700001 4282669638
0.044354506 -0.0062451186 0.36800003 4282801224
0.045797318 -0.0062790592 0.37 4281221683
0.046999078 -0.0062790592 0.37 4280564533
0.048331115 -0.0062960298 0.37100002 4280630841
0.049536124 -0.0062960298 0.37100002 4280499515
0.050741129 -0.0062960298 0.37100002 4280565308
0.051946141 -0.0062960298 0.37100002 4280499253
0.053151149 -0.0062960298 0.37100002 4280762163
0.054356162 -0.0062960298 0.37100002 4280696368
0.055561166 -0.0062960298 0.37100002 4280630575
0.061606478 -0.0061772368 0.36400002 4278922771
0.062788747 -0.0061772368 0.36400002 4278595089
0.063971028 -0.0061772368 0.36400002 4278727189
0.065153301 -0.0061772368 0.36400002 4279187486
0.066335566 -0.0061772368 0.36400002 4279977002
0.067703329 -0.0061942069 0.36500001 4285895292
0.068888851 -0.0061942069 0.36500001 4285434227
0.070266359 -0.0062111774 0.36600003 4285302641
0.071455128 -0.0062111774 0.36600003 4286026364
0.072643898 -0.0062111774 0.36600003 4285171569
0.074034385 -0.006228148 0.36700001 4281947198
0.075226404 -0.006228148 0.36700001 4279842336
0.076418422 -0.006228148 0.36700001 4280039969
0.077610441 -0.006228148 0.36700001 4279646492
0.079017177 -0.0062451186 0.36800003 4279187224
0.080212444 -0.0062451186 0.36800003 4278529808
0.081407711 -0.0062451186 0.36800003 4278727187
0.082827434 -0.0062620887 0.36900002 4278727957
0.084025949 -0.0062620887 0.36900002 4278728470
0.085455418 -0.0062790592 0.37 4278860056
0.086657174 -0.0062790592 0.37 4279452193
0.088096403 -0.0062960298 0.37100002 4279386654
0.089301407 -0.0062960298 0.37100002 4279321629
0.090750366 -0.0063129999 0.37200001 4279453215
0.09220583 -0.0063299704 0.37300003 4279716389
0.093417332 -0.0063299704 0.37300003 4280045354
0.094882526 -0.006346941 0.37400001 4280374319
0.096354231 -0.0063639116 0.37500003 4280374065
0.097572237 -0.0063639116 0.37500003 4281228604
0.099053673 -0.0063808816 0.37600002 4279582496
0.10027492 -0.0063808816 0.37600002 4280964149
0.10149617 -0.0063808816 0.37600002 4281489981
0.1029906 -0.0063978522 0.377 4280172838
0.10421509 -0.0063978522 0.377 4281224759
0.10543959 -0.0063978522 0.377 4281224759
0.10666409 -0.0063978522 0.377 4281553978
0.10817477 -0.0064148228 0.37800002 4281092657
0.10940251 -0.0064148228 0.37800002 4282736201
0.11063025 -0.0064148228 0.37800002 4284709991
0.024035003 -0.0050494494 0.36800003 4281548066
0.025161708 -0.0050357278 0.36700001 4281482527
0.026281916 -0.0050220066 0.36600003 4280759833
0.027470684 -0.0050220066 0.36600003 4282274621
0.028581148 -0.0050082849 0.36500001 4281353267
0.029766668 -0.0050082849 0.36500001 4282604878
0.03086739 -0.0049945638 0.36400002 4282540369
0.032049663 -0.0049945638 0.36400002 4282342992
0.033231933 -0.0049945638 0.36400002 4282408785
0.034414209 -0.0049945638 0.36400002 4282079820
0.035596479 -0.0049945638 0.36400002 4281683776
0.036778755 -0.0049945638 0.36400002 4281221679
0.038065314 -0.0050082849 0.36500001 4281220647
0.039250832 -0.0050082849 0.36500001 4281087517
0.040436354 -0.0050082849 0.36500001 4283126328
0.04173591 -0.0050220066 0.36600003 4281153825
0.043041959 -0.0050357278 0.36700001 4282143033
0.044354506 -0.0050494494 0.36800003 4282669892
0.045797318 -0.0050768917 0.37 4281616954
0.047126103 -0.0050906129 0.37100002 4280565044
0.048331115 -0.0050906129 0.37100002 4280630841
0.049536124 -0.0050906129 0.37100002 4280433722
0.050741129 -0.0050906129 0.37100002 4280499515
0.051946141 -0.0050906129 0.37100002 4280631101
0.053151149 -0.0050906129 0.37100002 4280302388
0.054356162 -0.0050906129 0.37100002 4280433711
0.055561166 -0.0050906129 0.37100002 4280696368
0.059016682 -0.0050768917 0.37 4280827436
0.060055695 -0.0050631706 0.36900002 4279576856
0.061088212 -0.0050494494 0.36800003 4279513625
0.061944973 -0.0050220066 0.36600003 4278791955
0.062961243 -0.0050082849 0.36500001 4278595603
0.064146765 -0.0050082849 0.36500001 4278727189
0.065332286 -0.0050082849 0.36500001 4278727189
0.066517808 -0.0050082849 0.36500001 4278989847
0.067703329 -0.0050082849 0.36500001 4279581217
0.069077589 -0.0050220066 0.36600003 4279448348
0.070266359 -0.0050220066 0.36600003 4279579934
0.071455128 -0.0050220066 0.36600003 4279777313
0.072842374 -0.0050357278 0.36700001 4279712033
0.074034385 -0.0050357278 0.36700001 4279448861
0.075226404 -0.0050357278 0.36700001 4279383322
0.076418422 -0.0050357278 0.36700001 4279055125
0.077821918 -0.0050494494 0.36800003 4278858259
0.079017177 -0.0050494494 0.36800003 4278727187
0.080212444 -0.0050494494 0.36800003 4278924566
0.081628926 -0.0050631706 0.36900002 4278924566
0.082827434 -0.0050631706 0.36900002 4278925849
0.084025949 -0.0050631706 0.36900002 4279123998
0.085455418 -0.0050768917 0.37 4279058205
0.086657174 -0.0050768917 0.37 4279058205
0.088096403 -0.0050906129 0.37100002 4280110377
0.089301407 -0.0050906129 0.37100002 4280373036
0.090750366 -0.0051043341 0.37200001 4280702001
0.09220583 -0.0051180557 0.37300003 4280373036
0.093667775 -0.0051317769 0.37400001 4280767024
0.094882526 -0.0051317769 0.37400001 4279450396
0.096354231 -0.0051454986 0.37500003 4279711520
0.097572237 -0.0051454986 0.37500003 4279579166
0.099053673 -0.0051592197 0.37600002 4281554491
0.10027492 -0.0051592197 0.37600002 4280107045
0.10176611 -0.0051729409 0.377 4280829233
0.1029906 -0.0051729409 0.377 4281486649
0.10421509 -0.0051729409 0.377 4282012993
0.10543959 -0.0051729409 0.377 4282144064
0.025161708 -0.003843307 0.36700001 4281877031
0.026281916 -0.003832835 0.36600003 4280956444
0.027395627 -0.0038223625 0.36500001 4281748275
0.028581148 -0.0038223625 0.36500001 4281287724
0.029766668 -0.0038223625 0.36500001 4281156919
0.030952191 -0.0038223625 0.36500001 4282408785
0.032049663 -0.0038118905 0.36400002 4282145613
0.033231933 -0.0038118905 0.36400002 4281289532
0.034414209 -0.0038118905 0.36400002 4281287476
0.035596479 -0.0038118905 0.36400002 4280365086
0.036778755 -0.0038118905 0.36400002 4281022237
0.037961025 -0.0038118905 0.36400002 4281482527
0.039250832 -0.0038223625 0.36500001 4281350421
0.040436354 -0.0038223625 0.36500001 4281612821
0.04173591 -0.003832835 0.36600003 4280231688
0.04386292 -0.0039166128 0.37400001 4283392584
0.045077674 -0.0039166128 0.37400001 4282538054
0.045921095 -0.0038851961 0.37100002 4280629807
0.048904449 -0.0040318072 0.38500002 4280498740
0.050154928 -0.0040318072 0.38500002 4280499255
0.051405411 -0.0040318072 0.38500002 4280367929
0.052655887 -0.0040318072 0.38500002 4280565308
0.05390637 -0.0040318072 0.38500002 4280499515
0.055156853 -0.0040318072 0.38500002 4280828480
0.056407336 -0.0040318072 0.38500002 4280039214
0.057657812 -0.0040318072 0.38500002 4280302123
0.058127441 -0.0038956681 0.37200001 4280565549
0.059176192 -0.0038851961 0.37100002 4279511576
0.060218446 -0.0038747236 0.37 4279578139
0.061254211 -0.0038642515 0.36900002 4279382555
0.06211422 -0.003843307 0.36700001 4279119383
0.063306242 -0.003843307 0.36700001 4278726162
0.064322516 -0.003832835 0.36600003 4278660882
0.065511286 -0.003832835 0.36600003 4279187738
0.066700049 -0.003832835 0.36600003 4278529808
0.067888819 -0.003832835 0.36600003 4278858261
0.069077589 -0.003832835 0.36600003 4278858007
0.070458338 -0.003843307 0.36700001 4279055127
0.071650356 -0.003843307 0.36700001 4278792468
0.072842374 -0.003843307 0.36700001 4278726675
0.074034385 -0.003843307 0.36700001 4278660882
0.075431384 -0.0038537795 0.36800003 4278792466
0.076626651 -0.0038537795 0.36800003 4279055638
0.077821918 -0.0038537795 0.36800003 4279056152
0.079017177 -0.0038537795 0.36800003 4279056922
0.080430411 -0.0038642515 0.36900002 4279385887
0.081628926 -0.0038642515 0.36900002 4279254301
0.082827434 -0.0038642515 0.36900002 4279714852
0.084253661 -0.0038747236 0.37 4279846438
0.085455418 -0.0038747236 0.37 4280306989
0.08689139 -0.0038851961 0.37100002 4280372782
0.088096403 -0.0038851961 0.37100002 4281029428
0.089542113 -0.0038956681 0.37200001 4280568877
0.090750366 -0.0038956681 0.37200001 4279382809
0.09220583 -0.0039061406 0.37300003 4279645211
0.093667775 -0.0039166128 0.37400001 4280433959
0.094882526 -0.0039166128 0.37400001 4281091891
0.096354231 -0.0039270851 0.37500003 4279973410
0.097572237 -0.0039270851 0.37500003 4281816128
0.099053673 -0.0039375573 0.37600002 4281290552
0.10027492 -0.0039375573 0.37600002 4281619517
0.10176611 -0.0039480291 0.377 4282144577
0.026281916 -0.0026436637 0.36600003 4281416482
0.027395627 -0.0026364403 0.36500001 4281219618
0.028581148 -0.0026364403 0.36500001 4281351204
0.029766668 -0.0026364403 0.36500001 4282998603
0.030952191 -0.0026364403 0.36500001 4283327570
0.032137711 -0.0026364403 0.36500001 4282537802
0.033231933 -0.0026292175 0.36400002 4282669642
0.034414209 -0.0026292175 0.36400002 4279968786
0.035596479 -0.0026292175 0.36400002 4280889116
0.036778755 -0.0026292175 0.36400002 4281020436
0.037961025 -0.0026292175 0.36400002 4280559883
0.039250832 -0.0026364403 0.36500001 4281941790
0.040436354 -0.0026364403 0.36500001 4282270753
0.041621875 -0.0026364403 0.36500001 4282008869
0.045153007 -0.0027809029 0.38500002 4282734138
0.046403486 -0.0027809029 0.38500002 4280498219
0.047653969 -0.0027809029 0.38500002 4280366382
0.048904449 -0.0027809029 0.38500002 4280629556
0.050154928 -0.0027809029 0.38500002 4280497970
0.051405411 -0.0027809029 0.38500002 4280433976
0.052655887 -0.0027809029 0.38500002 4280499769
0.05390637 -0.0027809029 0.38500002 4280499769
0.055156853 -0.0027809029 0.38500002 4280762941
0.056407336 -0.0027809029 0.38500002 4280565560
0.056609489 -0.0027303412 0.37800002 4280170539
0.057531219 -0.0027158947 0.37600002 4280499243
0.058439955 -0.0027014485 0.37400001 4280301864
0.059335694 -0.0026870023 0.37200001 4279249174
0.0603812 -0.0026797792 0.37100002 4279381273
0.06142021 -0.0026725559 0.37 4279448348
0.062452719 -0.002665333 0.36900002 4279646494
0.063478738 -0.0026581099 0.36800003 4279055640
0.064674005 -0.0026581099 0.36800003 4278660882
0.065690279 -0.0026508868 0.36700001 4278595089
0.06688229 -0.0026508868 0.36700001 4279319324
0.068074308 -0.0026508868 0.36700001 4279517475
0.069266327 -0.0026508868 0.36700001 4278267408
0.070458338 -0.0026508868 0.36700001 4278858775
0.071845591 -0.0026581099 0.36800003 4278726675
0.073040858 -0.0026581099 0.36800003 4278858261
0.074236117 -0.0026581099 0.36800003 4279055640
0.075431384 -0.0026581099 0.36800003 4279056154
0.076626651 -0.0026581099 0.36800003 4279187738
0.077821918 -0.0026581099 0.36800003 4279254301
0.079231896 -0.002665333 0.36900002 4279385887
0.080430411 -0.002665333 0.36900002 4279846438
0.081628926 -0.002665333 0.36900002 4280109610
0.083051898 -0.0026725559 0.37 4280437805
0.084253661 -0.0026725559 0.37 4280766770
0.085686386 -0.0026797792 0.37100002 4280173606
0.08689139 -0.0026797792 0.37100002 4279514395
0.088333853 -0.0026870023 0.37200001 4279973662
0.089542113 -0.0026870023 0.37200001 4279842076
0.090994321 -0.0026942254 0.37300003 4281157171
0.09220583 -0.0026942254 0.37300003 4279906334
0.093667775 -0.0027014485 0.37400001 4280367655
0.094882526 -0.0027014485 0.37400001 4281353780
0.096354231 -0.0027086718 0.37500003 4282012993
0.097572237 -0.0027086718 0.37500003 4282670921
0.027395627 -0.0014505181 0.36500001 4280955931
0.028581148 -0.0014505181 0.36500001 4281285409
0.029766668 -0.0014505181 0.36500001 4282931781
0.030952191 -0.0014505181 0.36500001 4283393102
0.032137711 -0.0014505181 0.36500001 4282932299
0.033323228 -0.0014505181 0.36500001 4281418290
0.034414209 -0.0014465442 0.36400002 4283060019
0.035596479 -0.0014465442 0.36400002 4281217556
0.036778755 -0.0014465442 0.36400002 4282533668
0.037961025 -0.0014465442 0.36400002 4282599718
0.039143298 -0.0014465442 0.36400002 4282270753
0.040436354 -0.0014505181 0.36500001 4282402341
0.044016559 -0.0015339727 0.38600001 4283391557
0.045153007 -0.0015299987 0.38500002 4283852881
0.046403486 -0.0015299987 0.38500002 4280761132
0.047653969 -0.0015299987 0.38500002 4280432428
0.048904449 -0.0015299987 0.38500002 4280234796
0.050154928 -0.0015299987 0.38500002 4280235566
0.051405411 -0.0015299987 0.38500002 4280236083
0.052655887 -0.0015299987 0.38500002 4280302390
0.05390637 -0.0015299987 0.38500002 4280631355
0.055156853 -0.0015299987 0.38500002 4280499769
0.055821285 -0.0015141026 0.38100001 4280499769
0.056759246 -0.0015061545 0.37900001 4278854166
0.057684224 -0.0014982064 0.377 4280366887
0.058596212 -0.0014902585 0.37500003 4279249176
0.059654702 -0.0014862844 0.37400001 4279183894
0.060706709 -0.0014823105 0.37300003 4279447580
0.061752211 -0.0014783364 0.37200001 4279777567
0.062621966 -0.0014703883 0.37 4279580188
0.06382373 -0.0014703883 0.37 4279318299
0.064849749 -0.0014664143 0.36900002 4279121431
0.066048265 -0.0014664143 0.36900002 4279121945
0.067064531 -0.0014624404 0.36800003 4279056152
0.068259798 -0.0014624404 0.36800003 4278398992
0.069455065 -0.0014624404 0.36800003 4279649061
0.070650324 -0.0014624404 0.36800003 4279056152
0.071845591 -0.0014624404 0.36800003 4278924566
0.073040858 -0.0014624404 0.36800003 4279121945
0.074236117 -0.0014624404 0.36800003 4278990359
0.075431384 -0.0014624404 0.36800003 4279648289
0.076834872 -0.0014664143 0.36900002 4280108840
0.078033388 -0.0014664143 0.36900002 4280503338
0.079231896 -0.0014664143 0.36900002 4280437545
0.080430411 -0.0014664143 0.36900002 4279976742
0.081850141 -0.0014703883 0.37 4280568879
0.083051898 -0.0014703883 0.37 4281159733
0.084253661 -0.0014703883 0.37 4280039455
0.085686386 -0.0014743623 0.37100002 4281814583
0.08689139 -0.0014743623 0.37100002 4281156399
0.088333853 -0.0014783364 0.37200001 4280958507
0.089542113 -0.0014783364 0.37200001 4279971614
0.090994321 -0.0014823105 0.37300003 4281748538
0.092453025 -0.0014862844 0.37400001 4282209859
0.027395627 -0.00026459587 0.36500001 4280890140
0.028581148 -0.00026459587 0.36500001 4280166163
0.029766668 -0.00026459587 0.36500001 4280957989
0.030952191 -0.00026459587 0.36500001 4283393100
0.032137711 -0.00026459587 0.36500001 4282669125
0.033323228 -0.00026459587 0.36500001 4283260746
0.03450875 -0.00026459587 0.36500001 4282995766
0.035694271 -0.00026459587 0.36500001 4282928431
0.036778755 -0.00026387096 0.36400002 4282928174
0.037961025 -0.00026387096 0.36400002 4282270501
0.039143298 -0.00026387096 0.36400002 4283324994
0.040436354 -0.00026459587 0.36500001 4284115539
0.044016559 -0.00027981919 0.38600001 4283787606
0.045270287 -0.00027981919 0.38600001 4283392848
0.046403486 -0.0002790943 0.38500002 4280628776
0.047653969 -0.0002790943 0.38500002 4280563753
0.048904449 -0.0002790943 0.38500002 4280498221
0.050154928 -0.0002790943 0.38500002 4280234796
0.051405411 -0.0002790943 0.38500002 4280170290
0.052655887 -0.0002790943 0.38500002 4280301622
0.05390637 -0.0002790943 0.38500002 4280302138
0.055156853 -0.0002790943 0.38500002 4280499517
0.055821285 -0.00027619459 0.38100001 4280565308
0.05690901 -0.00027546968 0.38000003 4280630839
0.057837237 -0.00027401984 0.37800002 4279117590
0.058908723 -0.00027329492 0.377 4279183896
0.059814211 -0.00027184509 0.37500003 4279118615
0.060869459 -0.00027112017 0.37400001 4279119385
0.061918214 -0.00027039525 0.37300003 4279382809
0.062960461 -0.00026967033 0.37200001 4279514908
0.063996226 -0.00026894541 0.37100002 4279647262
0.065201238 -0.00026894541 0.37100002 4279713055
0.06622725 -0.00026822046 0.37 4279385117
0.067429006 -0.00026822046 0.37 4279385117
0.068445288 -0.00026749558 0.36900002 4280437805
0.069643795 -0.00026749558 0.36900002 4279912231
0.070842311 -0.00026749558 0.36900002 4279714852
0.072040819 -0.00026749558 0.36900002 4280043301
0.073239334 -0.00026749558 0.36900002 4280306473
0.074437842 -0.00026749558 0.36900002 4280438059
0.075636357 -0.00026749558 0.36900002 4280568877
0.076834872 -0.00026749558 0.36900002 4280700463
0.078033388 -0.00026749558 0.36900002 4280898096
0.079231896 -0.00026749558 0.36900002 4280963122
0.080648378 -0.00026822046 0.37 4280303657
0.081850141 -0.00026822046 0.37 4281421622
0.083051898 -0.00026822046 0.37 4279708953
0.084481373 -0.00026894541 0.37100002 4280432678
0.085686386 -0.00026894541 0.37100002 4280366885
0.087125592 -0.00026967033 0.37200001 4281880124
0.088333853 -0.00026967033 0.37200001 4282143296
0.028581148 0.00092132646 0.36500001 4279706647
0.029766668 0.00092132646 0.36500001 4280628774
0.030952191 0.00092132646 0.36500001 4283394133
0.032137711 0.00092132646 0.36500001 4282998605
0.033323228 0.00092132646 0.36500001 4282866504
0.03450875 0.00092132646 0.36500001 4283194691
0.035694271 0.00092132646 0.36500001 4283523143
0.036879793 0.00092132646 0.36500001 4284181846
0.038065314 0.00092132646 0.36500001 4284313434
0.039250832 0.00092132646 0.36500001 4284051291
0.040436354 0.00092132646 0.36500001 4283788119
0.044016559 0.00097433425 0.38600001 4283985498
0.045270287 0.00097433425 0.38600001 4283524947
0.046524014 0.00097433425 0.38600001 4283195471
0.047777742 0.00097433425 0.38600001 4280891948
0.04903147 0.00097433425 0.38600001 4280366635
0.050285202 0.00097433425 0.38600001 4280300589
0.051538929 0.00097433425 0.38600001 4280235570
0.052792657 0.00097433425 0.38600001 4280301876
0.054046385 0.00097433425 0.38600001 4280499001
0.055300117 0.00097433425 0.38600001 4280762173
0.055821285 0.00096171338 0.38100001 4280170550
0.05690901 0.0009591892 0.38000003 4280894273
0.057990242 0.00095666497 0.37900001 4280302891
0.059064981 0.00095414085 0.37800002 4279118617
0.060133215 0.00095161662 0.377 4278922008
0.061032213 0.00094656833 0.37500003 4279054105
0.062084213 0.00094404409 0.37400001 4279646494
0.063129716 0.00094151992 0.37300003 4279581471
0.064341217 0.00094151992 0.37300003 4279515678
0.065376982 0.00093899574 0.37200001 4279713055
0.06640625 0.00093647157 0.37100002 4279648289
0.067611255 0.00093647157 0.37100002 4280306219
0.06881626 0.00093647157 0.37100002 4280306219
0.069832534 0.00093394733 0.37 4280108840
0.07103429 0.00093394733 0.37 4280240426
0.072236054 0.00093394733 0.37 4280306219
0.073239334 0.00093142322 0.36900002 4280437805
0.074437842 0.00093142322 0.36900002 4280240426
0.075636357 0.00093142322 0.36900002 4280832565
0.076834872 0.00093142322 0.36900002 4280700465
0.078033388 0.00093142322 0.36900002 4280503086
0.079446614 0.00093394733 0.37 4280304424
0.080648378 0.00093394733 0.37 4281552954
0.081850141 0.00093394733 0.37 4280960817
0.083276361 0.00093647157 0.37100002 4281617204
0.084481373 0.00093647157 0.37100002 4282735431
0.085686386 0.00093647157 0.37100002 4283920475
0.030952191 0.0021072486 0.36500001 4280630324
0.032137711 0.0021072486 0.36500001 4282473033
0.033323228 0.0021072486 0.36500001 4284117858
0.03450875 0.0021072486 0.36500001 4284117086
0.035694271 0.0021072486 0.36500001 4284445538
0.036879793 0.0021072486 0.36500001 4284182879
0.038065314 0.0021072486 0.36500001 4284182879
0.039250832 0.0021072486 0.36500001 4284117086
0.040436354 0.0021072486 0.36500001 4283919707
0.044016559 0.0022284877 0.38600001 4283985498
0.045270287 0.0022284877 0.38600001 4283524947
0.046524014 0.0022284877 0.38600001 4284313182
0.047777742 0.0022284877 0.38600001 4280299295
0.04903147 0.0022284877 0.38600001 4280629805
0.050285202 0.0022284877 0.38600001 4280300589
0.051538929 0.0022284877 0.38600001 4280103984
0.052792657 0.0022284877 0.38600001 4280301363
0.054046385 0.0022284877 0.38600001 4281025345
0.055300117 0.0022284877 0.38600001 4280762173
0.0559678 0.0022053947 0.38200003 4280170036
0.05705877 0.0021996212 0.38100001 4280170036
0.058143254 0.0021938481 0.38000003 4280499769
0.059221238 0.0021880746 0.37900001 4279447330
0.060292721 0.0021823014 0.37800002 4279053592
0.061357714 0.0021765281 0.377 4279382555
0.062416214 0.0021707548 0.37600002 4279647010
0.06346821 0.0021649816 0.37500003 4279844643
0.064513713 0.0021592083 0.37400001 4279713568
0.065552726 0.002153435 0.37300003 4279910947
0.066764235 0.002153435 0.37300003 4280437291
0.067793489 0.0021476618 0.37200001 4280437805
0.06881626 0.0021418885 0.37100002 4280372012
0.070021272 0.0021418885 0.37100002 4280306219
0.071226276 0.0021418885 0.37100002 4280569393
0.072236054 0.0021361152 0.37 4280503600
0.073437817 0.0021361152 0.37 4280700979
0.074437842 0.0021303419 0.36900002 4280832565
0.075636357 0.0021303419 0.36900002 4280898104
0.076834872 0.0021303419 0.36900002 4280963383
0.078244857 0.0021361152 0.37 4280369450
0.079446614 0.0021361152 0.37 4281421370
0.080648378 0.0021361152 0.37 4282210886
0.081850141 0.0021361152 0.37 4284184160
0.0559678 0.0034465517 0.38200003 4279972657
0.05705877 0.0034375291 0.38100001 4280433722
0.058143254 0.0034285069 0.38000003 4280434492
0.059221238 0.0034194842 0.37900001 4280829504
0.060292721 0.0034104621 0.37800002 4279382559
0.061357714 0.0034014394 0.377 4279843619
0.062416214 0.0033924172 0.37600002 4279713568
0.06346821 0.003383395 0.37500003 4279648289
0.064686216 0.003383395 0.37500003 4279516703
0.065728471 0.0033743724 0.37400001 4279976740
0.066764235 0.0033653502 0.37300003 4280634670
0.067975737 0.0033653502 0.37300003 4280503084
0.069001749 0.0033563275 0.37200001 4280437291
0.07021001 0.0033563275 0.37200001 4280372012
0.071226276 0.0033473053 0.37100002 4280241198
0.072431289 0.0033473053 0.37100002 4280767542
0.073437817 0.0033382827 0.37 4280898358
0.074639574 0.0033382827 0.37 4281227323
0.07584133 0.0033382827 0.37 4281686593
0.077043094 0.0033382827 0.37 4281685310
0.05705877 0.0046754372 0.38100001 4280170550
0.058143254 0.0046631657 0.38000003 4280433722
0.059377495 0.0046631657 0.38000003 4280697664
0.060452227 0.0046508941 0.37900001 4280697914
0.061520468 0.004638623 0.37800002 4280040489
0.06258221 0.0046263509 0.377 4279778848
0.063637458 0.0046140798 0.37600002 4279713568
0.064686216 0.0046018083 0.37500003 4280042533
0.065728471 0.0045895367 0.37400001 4280832563
0.066943221 0.0045895367 0.37400001 4280569393
0.067975737 0.0045772656 0.37300003 4280503598
0.069187239 0.0045772656 0.37300003 4280700977
0.07021001 0.0045649935 0.37200001 4280569391
0.071418263 0.0045649935 0.37200001 4281029944
0.072431289 0.0045527224 0.37100002 4280963637
0.073636301 0.0045527224 0.37100002 4281685825
0.067122221 0.0058202217 0.37500003 4280503598
0.071610838 -0.0076099937 0.37218791 4294967295
0.071610838 -0.0076099937 0.37218791 4294901760
0.071564414 -0.0081077507 0.372197 4294901760
0.071517982 -0.0086055072 0.37220609 4294901760
0.071471557 -0.0091032637 0.37221521 4294901760
0.071425125 -0.0096010203 0.3722243 4294901760
0.0713787 -0.010098778 0.37223339 4294901760
0.071332276 -0.010596534 0.37224251 4294901760
0.071285844 -0.011094291 0.3722516 4294901760
0.071239419 -0.011592047 0.37226069 4294901760
0.071192987 -0.012089804 0.37226978 4294901760
0.071146563 -0.01258756 0.37227887 4294901760
0.071100138 -0.013085317 0.37228799 4294901760
0.071053706 -0.013583074 0.37229708 4294901760
0.071007282 -0.014080831 0.37230617 4294901760
0.070960857 -0.014578588 0.37231529 4294901760
0.070914425 -0.015076345 0.37232438 4294901760
0.070868 -0.015574101 0.37233347 4294901760
0.070821568 -0.016071858 0.37234256 4294901760
0.070775144 -0.016569614 0.37235165 4294901760
0.070728719 -0.017067371 0.37236077 4294901760
0.070682287 -0.017565127 0.37236986 4294901760
0.070635863 -0.018062884 0.37237895 4294901760
0.070589431 -0.018560641 0.37238806 4294901760
0.070543006 -0.019058399 0.37239715 4294901760
0.070496581 -0.019556155 0.37240624 4294901760
0.070450149 -0.020053912 0.37241533 4294901760
0.070403725 -0.020551668 0.37242442 4294901760
0.070357293 -0.021049425 0.37243354 4294901760
0.070310868 -0.021547182 0.37244263 4294901760
0.070264444 -0.022044938 0.37245172 4294901760
0.070218012 -0.022542696 0.37246084 4294901760
0.070171587 -0.023040451 0.37246993 4294901760
0.070125163 -0.023538208 0.37247902 4294901760
0.070078731 -0.024035966 0.37248811 4294901760
0.070032306 -0.024533721 0.3724972 4294901760
0.069985874 -0.025031477 0.37250632 4294901760
0.069939449 -0.025529236 0.37251541 4294901760
0.069893025 -0.026026992 0.3725245 4294901760
0.069846593 -0.026524749 0.37253362 4294901760
0.069800168 -0.027022505 0.37254271 4294901760
0.069753736 -0.027520262 0.3725518 4294901760
0.069707312 -0.028018018 0.37256089 4294901760
0.069660887 -0.028515775 0.37256998 4294901760
0.069614455 -0.029013531 0.3725791 4294901760
0.069568031 -0.029511288 0.37258819 4294901760
0.069521599 -0.030009044 0.37259728 4294901760
0.069475174 -0.030506803 0.3726064 4294901760
0.069428749 -0.031004559 0.37261549 4294901760
0.069382317 -0.031502318 0.37262458 4294901760
0.069335893 -0.032000072 0.37263367 4294901760
0.069289461 -0.032497831 0.37264276 4294901760
0.069243036 -0.032995585 0.37265188 4294901760
0.069196612 -0.033493344 0.37266096 4294901760
0.06915018 -0.033991098 0.37267005 4294901760
0.069103755 -0.034488857 0.37267917 4294901760
0.06905733 -0.034986615 0.37268826 4294901760
0.069010898 -0.03548437 0.37269735 4294901760
0.068964474 -0.035982128 0.37270644 4294901760
0.068918042 -0.036479883 0.37271553 4294901760
0.068871617 -0.036977638 0.37272465 4294901760
0.068825193 -0.0374754 0.37273374 4294901760
0.068778761 -0.037973154 0.37274283 4294901760
0.068732336 -0.038470909 0.37275195 4294901760
0.068685904 -0.038968667 0.37276104 4294901760
0.06863948 -0.039466422 0.37277013 4294901760
0.068593055 -0.039964177 0.37277922 4294901760
0.068546623 -0.040461939 0.37278831 4294901760
0.068500198 -0.040959693 0.37279743 4294901760
0.068453766 -0.041457448 0.37280652 4294901760
0.068407342 -0.041955207 0.37281561 4294901760
0.068360917 -0.042452961 0.37282473 4294901760
0.068314485 -0.04295072 0.37283382 4294901760
0.068268061 -0.043448478 0.37284291 4294901760
0.068221636 -0.043946233 0.372852 4294901760
0.068175204 -0.044443991 0.37286109 4294901760
0.06812878 -0.044941746 0.37287021 4294901760
0.068082348 -0.045439504 0.3728793 4294901760
0.068035923 -0.045937259 0.37288839 4294901760
0.067989498 -0.046435017 0.37289751 4294901760
0.067943066 -0.046932776 0.3729066 4294901760
0.067896642 -0.04743053 0.37291569 4294901760
0.06785021 -0.047928289 0.37292477 4294901760
0.067803785 -0.048426043 0.37293386 4294901760
0.067757361 -0.048923798 0.37294298 4294901760
0.067710929 -0.049421556 0.37295207 4294901760
0.067664504 -0.049919315 0.37296116 4294901760
0.067618072 -0.050417069 0.37297028 4294901760
0.067571647 -0.050914828 0.37297937 4294901760
0.067525223 -0.051412582 0.37298846 4294901760
0.067478791 -0.051910341 0.37299755 4294901760
0.067432366 -0.052408095 0.37300664 4294901760
0.067385942 -0.052905854 0.37301576 4294901760
0.06733951 -0.053403612 0.37302485 4294901760
0.067293085 -0.053901367 0.37303394 4294901760
0.067246653 -0.054399125 0.37304306 4294901760
0.067200229 -0.05489688 0.37305215 4294901760
0.067153804 -0.055394638 0.37306124 4294901760
0.067107372 -0.055892397 0.37307033 4294901760
0.067060947 -0.056390151 0.37307942 4294901760
0.067014515 -0.05688791 0.37308854 4294901760
0.066968091 -0.057385664 0.37309763 4294901760
0.071610838 -0.0076099937 0.37218791 4278255360
0.072103545 -0.0076546259 0.37226036 4278255360
0.072596245 -0.0076992577 0.37233281 4278255360
0.073088951 -0.0077438899 0.37240529 4278255360
0.073581658 -0.0077885222 0.37247774 4278255360
0.074074365 -0.0078331539 0.37255019 4278255360
0.074567065 -0.0078777857 0.37262264 4278255360
0.075059772 -0.0079224184 0.37269509 4278255360
0.075552478 -0.0079670502 0.37276757 4278255360
0.076045185 -0.0080116829 0.37284002 4278255360
0.076537885 -0.0080563147 0.37291247 4278255360
0.077030592 -0.0081009464 0.37298492 4278255360
0.077523299 -0.0081455782 0.37305737 4278255360
0.078016005 -0.0081902109 0.37312984 4278255360
0.078508705 -0.0082348427 0.37320229 4278255360
0.079001412 -0.0082794754 0.37327474 4278255360
0.079494119 -0.0083241072 0.37334719 4278255360
0.079986826 -0.0083687389 0.37341964 4278255360
0.080479525 -0.0084133716 0.37349212 4278255360
0.080972232 -0.0084580034 0.37356457 4278255360
0.081464939 -0.0085026352 0.37363702 4278255360
0.081957638 -0.0085472669 0.37370947 4278255360
0.082450345 -0.0085918996 0.37378192 4278255360
0.082943052 -0.0086365314 0.3738544 4278255360
0.083435759 -0.0086811632 0.37392685 4278255360
0.083928466 -0.0087257959 0.3739993 4278255360
0.084421165 -0.0087704277 0.37407175 4278255360
0.084913872 -0.0088150604 0.3741442 4278255360
0.085406579 -0.0088596921 0.37421668 4278255360
0.085899279 -0.0089043239 0.37428913 4278255360
0.086391985 -0.0089489566 0.37436157 4278255360
0.086884692 -0.0089935884 0.37443402 4278255360
0.087377399 -0.0090382202 0.37450647 4278255360
0.087870106 -0.0090828529 0.37457895 4278255360
0.088362806 -0.0091274846 0.3746514 4278255360
0.088855512 -0.0091721164 0.37472385 4278255360
0.089348219 -0.0092167491 0.3747963 4278255360
0.089840919 -0.0092613809 0.37486875 4278255360
0.090333626 -0.0093060127 0.37494123 4278255360
0.090826333 -0.0093506444 0.37501368 4278255360
0.091319039 -0.0093952771 0.37508613 4278255360
0.091811739 -0.0094399089 0.37515858 4278255360
0.092304446 -0.0094845407 0.37523103 4278255360
0.092797153 -0.0095291734 0.37530351 4278255360
0.093289852 -0.0095738051 0.37537596 4278255360
0.093782559 -0.0096184369 0.37544841 4278255360
0.094275266 -0.0096630696 0.37552086 4278255360
0.094767973 -0.0097077014 0.3755933 4278255360
0.09526068 -0.0097523332 0.37566578 4278255360
0.095753379 -0.0097969659 0.37573823 4278255360
0.096246086 -0.0098415976 0.37581068 4278255360
0.096738793 -0.0098862294 0.37588313 4278255360
0.097231492 -0.0099308621 0.37595558 4278255360
0.097724199 -0.0099754939 0.37602806 4278255360
0.098216906 -0.010020127 0.37610051 4278255360
0.098709613 -0.010064758 0.37617296 4278255360
0.09920232 -0.01010939 0.37624541 4278255360
0.099695019 -0.010154022 0.37631786 4278255360
0.10018773 -0.010198655 0.37639034 4278255360
0.10068043 -0.010243286 0.37646279 4278255360
0.10117313 -0.010287919 0.37653524 4278255360
0.10166584 -0.010332551 0.37660769 4278255360
0.10215855 -0.010377183 0.37668014 4278255360
0.10265125 -0.010421814 0.37675261 4278255360
0.10314396 -0.010466447 0.37682506 4278255360
0.10363666 -0.010511079 0.37689751 4278255360
0.10412937 -0.010555712 0.37696996 4278255360
0.10462207 -0.010600343 0.37704241 4278255360
0.10511477 -0.010644975 0.37711489 4278255360
0.10560748 -0.010689607 0.37718734 4278255360
0.10610019 -0.01073424 0.37725979 4278255360
0.10659289 -0.010778871 0.37733224 4278255360
0.1070856 -0.010823504 0.37740469 4278255360
0.1075783 -0.010868136 0.37747717 4278255360
0.10807101 -0.010912768 0.37754962 4278255360
0.10856371 -0.010957399 0.37762207 4278255360
0.10905641 -0.011002032 0.37769452 4278255360
0.10954912 -0.011046664 0.37776697 4278255360
0.11004183 -0.011091296 0.37783945 4278255360
0.11053453 -0.011135928 0.3779119 4278255360
0.11102724 -0.01118056 0.37798434 4278255360
0.11151994 -0.011225193 0.37805679 4278255360
0.11201264 -0.011269825 0.37812924 4278255360
0.11250535 -0.011314456 0.37820172 4278255360
0.11299805 -0.011359088 0.37827417 4278255360
0.11349076 -0.011403721 0.37834662 4278255360
0.11398347 -0.011448354 0.37841907 4278255360
0.11447617 -0.011492985 0.37849152 4278255360
0.11496887 -0.011537617 0.378564 4278255360
0.11546158 -0.011582249 0.37863645 4278255360
0.11595428 -0.011626881 0.3787089 4278255360
0.11644699 -0.011671513 0.37878135 4278255360
0.11693969 -0.011716146 0.3788538 4278255360
0.1174324 -0.011760777 0.37892628 4278255360
0.11792511 -0.01180541 0.37899873 4278255360
0.11841781 -0.011850042 0.37907118 4278255360
0.11891051 -0.011894673 0.37914363 4278255360
0.11940322 -0.011939306 0.37921607 4278255360
0.11989592 -0.011983939 0.37928855 4278255360
0.12038863 -0.012028569 0.379361 4278255360
0.12088133 -0.012073202 0.37943345 4278255360
0.071610838 -0.0076099937 0.37218791 4278190335
0.071529701 -0.0075934138 0.37268099 4278190335
0.071448565 -0.0075768339 0.3731741 4278190335
0.07136742 -0.0075602541 0.37366718 4278190335
0.071286283 -0.0075436742 0.37416029 4278190335
0.071205147 -0.0075270943 0.37465337 4278190335
0.07112401 -0.007510514 0.37514648 4278190335
0.071042866 -0.0074939341 0.37563956 4278190335
0.070961729 -0.0074773543 0.37613267 4278190335
0.070880592 -0.0074607744 0.37662575 4278190335
0.070799455 -0.0074441945 0.37711886 4278190335
0.070718318 -0.0074276146 0.37761194 4278190335
0.070637174 -0.0074110348 0.37810504 4278190335
0.070556037 -0.0073944549 0.37859812 4278190335
0.0704749 -0.007377875 0.37909123 4278190335
0.070393763 -0.0073612947 0.37958431 4278190335
0.070312619 -0.0073447148 0.38007742 4278190335
