# .PCD v0.7 - Point Cloud Data file format
VERSION 0.7
FIELDS x y z rgb
SIZE 4 4 4 4
TYPE F F F U
COUNT 1 1 1 1
WIDTH 1062
HEIGHT 1
VIEWPOINT 0 0 0 1 0 0 0
POINTS 1062
DATA ascii
0.039569288 0.034699045 0.347 4281874464
0.01746981 0.0367557 0.35600001 4285895042
0.018626098 0.0367557 0.35600001 4286026114
0.019726818 0.036652453 0.35500002 4284708971
0.020821042 0.036549207 0.354 4283524438
0.021970835 0.036549207 0.354 4283327059
0.023055315 0.03644596 0.35300002 4283392080
0.024201861 0.03644596 0.35300002 4282931527
0.025276598 0.036342718 0.35200003 4282602562
0.026344836 0.036239468 0.35100001 4282076218
0.027484884 0.036239468 0.35100001 4281944634
0.028543381 0.036136225 0.35000002 4282209091
0.029680183 0.036136225 0.35000002 4283065168
0.030728932 0.036032975 0.34900001 4286091646
0.031862486 0.036032975 0.34900001 4286551427
0.032901496 0.035929732 0.34800002 4285497454
0.034031801 0.035929732 0.34800002 4282931013
0.035061061 0.035826482 0.347 4284380260
0.036188118 0.035826482 0.347 4284841579
0.037315175 0.035826482 0.347 4284378713
0.038331449 0.035723239 0.34600002 4281548070
0.039455257 0.035723239 0.34600002 4282204458
0.040579066 0.035723239 0.34600002 4281743652
0.018626098 0.03791238 0.35600001 4285763456
0.019726818 0.037805885 0.35500002 4285762942
0.020821042 0.03769939 0.354 4286091394
0.021908771 0.037592895 0.35300002 4282538056
0.022990003 0.0374864 0.35200003 4283261266
0.024133302 0.0374864 0.35200003 4283326285
0.025204787 0.037379902 0.35100001 4281484083
0.02626978 0.037273411 0.35000002 4281286706
0.027406583 0.037273411 0.35000002 4281747003
0.028461827 0.037166912 0.34900001 4282470976
0.029595383 0.037166912 0.34900001 4282404669
0.030640885 0.037060417 0.34800002 4282009911
0.03177119 0.037060417 0.34800002 4287469447
0.032806948 0.036953922 0.347 4292011985
0.033934005 0.036953922 0.347 4282932301
0.035061061 0.036953922 0.347 4282075968
0.036083832 0.036847427 0.34600002 4280760878
0.037207641 0.036847427 0.34600002 4281747257
0.038331449 0.036847427 0.34600002 4284904805
0.039455257 0.036847427 0.34600002 4285694319
0.040579066 0.036847427 0.34600002 4281482284
0.041702874 0.036847427 0.34600002 4282269999
0.019726818 0.038959317 0.35500002 4286026114
0.020762227 0.038739827 0.35300002 4285894528
0.021846708 0.038630083 0.35200003 4285762681
0.02292469 0.038520336 0.35100001 4285827189
0.02406474 0.038520336 0.35100001 4281615153
0.02513298 0.038410597 0.35000002 4281813046
0.026194721 0.038300849 0.34900001 4282076222
0.027249973 0.038191106 0.34800002 4282734152
0.028380277 0.038191106 0.34800002 4291682250
0.029425781 0.038081359 0.347 4285036641
0.030552836 0.038081359 0.347 4282994492
0.031679891 0.038081359 0.347 4283389252
0.032712407 0.037971616 0.34600002 4282667330
0.033836212 0.037971616 0.34600002 4284181596
0.034960024 0.037971616 0.34600002 4281878843
0.036083832 0.037971616 0.34600002 4280496422
0.037100103 0.037861872 0.34500003 4280101151
0.038220666 0.037861872 0.34500003 4280561702
0.039341226 0.037861872 0.34500003 4282009148
0.040579066 0.037971616 0.34600002 4284180571
0.041702874 0.037971616 0.34600002 4287010697
0.042826682 0.037971616 0.34600002 4282798914
0.044077512 0.038081359 0.347 4280429337
0.045204572 0.038081359 0.347 4280758048
0.020644594 0.039660774 0.35100001 4285828735
0.021784643 0.039660774 0.35100001 4284840807
0.022859378 0.039547779 0.35000002 4282470462
0.02392762 0.039434783 0.34900001 4282339390
0.02506117 0.039434783 0.34900001 4282800711
0.026119666 0.039321791 0.34800002 4282536771
0.027171666 0.039208796 0.347 4283523666
0.028298723 0.039208796 0.347 4284380260
0.029340981 0.039095804 0.34600002 4293393901
0.030464789 0.039095804 0.34600002 4283391305
0.031588595 0.039095804 0.34600002 4282993465
0.032617863 0.038982812 0.34500003 4283127102
0.033738423 0.038982812 0.34500003 4282799420
0.034858983 0.038982812 0.34500003 4282405183
0.035979543 0.038982812 0.34500003 4281352499
0.037100103 0.038982812 0.34500003 4280167457
0.038220666 0.038982812 0.34500003 4280101151
0.039341226 0.038982812 0.34500003 4280101153
0.04046179 0.038982812 0.34500003 4280166946
0.041582346 0.038982812 0.34500003 4280101151
0.042702906 0.038982812 0.34500003 4280955692
0.043950491 0.039095804 0.34600002 4285825907
0.045074299 0.039095804 0.34600002 4282799941
0.046331629 0.039208796 0.347 4280297499
0.047595453 0.039321791 0.34800002 4280494876
0.019448977 0.040684965 0.35000002 4285894528
0.020644594 0.040801208 0.35100001 4286815371
0.021722579 0.040684965 0.35000002 4281285677
0.022794064 0.040568721 0.34900001 4282733123
0.02392762 0.040568721 0.34900001 4282208576
0.024989363 0.04045248 0.34800002 4282208576
0.026044609 0.040336236 0.347 4281945402
0.027093364 0.040219992 0.34600002 4281945402
0.02821717 0.040219992 0.34600002 4282274367
0.029256182 0.040103752 0.34500003 4282734922
0.030376742 0.040103752 0.34500003 4288524706
0.0314973 0.040103752 0.34500003 4282865734
0.032617863 0.040103752 0.34500003 4283060539
0.033738423 0.040103752 0.34500003 4282995516
0.034858983 0.040103752 0.34500003 4283193408
0.035979543 0.040103752 0.34500003 4280825637
0.036992565 0.039987508 0.34400001 4280891694
0.03810988 0.039987508 0.34400001 4279838492
0.039227191 0.039987508 0.34400001 4280101151
0.040344507 0.039987508 0.34400001 4280101151
0.041461818 0.039987508 0.34400001 4280364325
0.042702906 0.040103752 0.34500003 4280693290
0.043823466 0.040103752 0.34500003 4281088559
0.044944029 0.040103752 0.34500003 4280759594
0.046198111 0.040219992 0.34600002 4283260496
0.047458682 0.040336236 0.347 4280562469
0.048725758 0.04045248 0.34800002 4280495391
0.018364497 0.041941643 0.35100001 4285960835
0.019448977 0.04182215 0.35000002 4285960835
0.020585777 0.04182215 0.35000002 4286683785
0.021660512 0.041702658 0.34900001 4282076218
0.022794064 0.041702658 0.34900001 4282931013
0.023859059 0.041583166 0.34800002 4282340673
0.024917552 0.041463673 0.347 4281551157
0.025969554 0.041344184 0.34600002 4281089575
0.02701506 0.041224692 0.34500003 4282602554
0.02813562 0.041224692 0.34500003 4283194691
0.029171379 0.0411052 0.34400001 4282273851
0.030288691 0.0411052 0.34400001 4282009661
0.031406004 0.0411052 0.34400001 4284312930
0.032523315 0.0411052 0.34400001 4284115287
0.033640627 0.0411052 0.34400001 4282272052
0.034757942 0.0411052 0.34400001 4282667062
0.035875253 0.0411052 0.34400001 4282273076
0.036992565 0.0411052 0.34400001 4280825639
0.03810988 0.0411052 0.34400001 4279443221
0.039227191 0.0411052 0.34400001 4279903772
0.040344507 0.0411052 0.34400001 4280166944
0.041461818 0.0411052 0.34400001 4280364836
0.042579129 0.0411052 0.34400001 4280364836
0.043696441 0.0411052 0.34400001 4280891694
0.044813756 0.0411052 0.34400001 4281418038
0.045931067 0.0411052 0.34400001 4280497190
0.047185149 0.041224692 0.34500003 4281155120
0.048445724 0.041344184 0.34600002 4280694053
0.049712799 0.041463673 0.347 4280561954
0.017273521 0.043204818 0.35200003 4286223495
0.018364497 0.043082077 0.35100001 4286091909
0.019448977 0.042959336 0.35000002 4286026114
0.02052696 0.042836595 0.34900001 4286289286
0.021660512 0.042836595 0.34900001 4282997324
0.022728752 0.042713854 0.34800002 4282471748
0.023790497 0.04259111 0.347 4280497440
0.024845745 0.042468373 0.34600002 4281220134
0.025894497 0.042345632 0.34500003 4280954134
0.02701506 0.042345632 0.34500003 4279769862
0.028054066 0.042222891 0.34400001 4280098057
0.029171379 0.042222891 0.34400001 4280098830
0.030200643 0.04210015 0.34300002 4282470462
0.031314708 0.04210015 0.34300002 4282207806
0.032428775 0.04210015 0.34300002 4283063633
0.033640627 0.042222891 0.34400001 4283261012
0.034757942 0.042222891 0.34400001 4281745710
0.035875253 0.042222891 0.34400001 4280363803
0.036992565 0.042222891 0.34400001 4280628262
0.03810988 0.042222891 0.34400001 4279904539
0.039227191 0.042222891 0.34400001 4279640602
0.040227227 0.04210015 0.34300002 4279969565
0.04134129 0.04210015 0.34300002 4280759594
0.042455353 0.04210015 0.34300002 4280628522
0.043569416 0.04210015 0.34300002 4280694315
0.044683482 0.04210015 0.34300002 4281023534
0.045797549 0.04210015 0.34300002 4280628776
0.046911612 0.04210015 0.34300002 4280036639
0.04816569 0.042222891 0.34400001 4280496674
0.049426273 0.042345632 0.34500003 4280694053
0.050839856 0.04259111 0.347 4281153321
0.017273521 0.044348504 0.35200003 4286091909
0.018312177 0.044096526 0.35000002 4286091909
0.019448977 0.044096526 0.35000002 4285895044
0.02052696 0.043970533 0.34900001 4285828735
0.021598449 0.043844543 0.34800002 4282602312
0.022663439 0.04371855 0.347 4283063885
0.023790497 0.04371855 0.347 4281482790
0.024845745 0.043592565 0.34600002 4286810213
0.025894497 0.043466575 0.34500003 4284837184
0.026936755 0.043340582 0.34400001 4281809679
0.028054066 0.043340582 0.34400001 4282006556
0.029086581 0.043214593 0.34300002 4281216786
0.030200643 0.043214593 0.34300002 4279508487
0.031314708 0.043214593 0.34300002 4282404923
0.032428775 0.043214593 0.34300002 4281814079
0.033542838 0.043214593 0.34300002 4285500286
0.034656905 0.043214593 0.34300002 4283063887
0.035875253 0.043340582 0.34400001 4279771670
0.036992565 0.043340582 0.34400001 4279640854
0.037999097 0.043214593 0.34300002 4280298784
0.03911316 0.043214593 0.34300002 4279772186
0.040227227 0.043214593 0.34300002 4280299043
0.041220758 0.043088604 0.34200001 4281089073
0.042331576 0.043088604 0.34200001 4280694315
0.04331537 0.042962614 0.34100002 4281155120
0.044422939 0.042962614 0.34100002 4280891948
0.045530509 0.042962614 0.34100002 4280694569
0.046774838 0.043088604 0.34200001 4280233504
0.047885656 0.043088604 0.34200001 4281615155
0.049139742 0.043214593 0.34300002 4281023016
0.05040032 0.043340582 0.34400001 4281285677
0.018312177 0.045233708 0.35000002 4285894530
0.019393407 0.045104466 0.34900001 4286091909
0.02052696 0.045104466 0.34900001 4286289288
0.021598449 0.044975229 0.34800002 4282865484
0.022663439 0.044845987 0.347 4282734922
0.023721937 0.044716749 0.34600002 4282204710
0.024773939 0.044587512 0.34500003 4283322666
0.025894497 0.044587512 0.34500003 4283189532
0.026936755 0.04445827 0.34400001 4287598428
0.027972514 0.044329032 0.34300002 4286415185
0.029086581 0.044329032 0.34300002 4282138392
0.030200643 0.044329032 0.34300002 4281084687
0.031314708 0.044329032 0.34300002 4280362256
0.032428775 0.044329032 0.34300002 4281353267
0.033542838 0.044329032 0.34300002 4282275400
0.034656905 0.044329032 0.34300002 4282867021
0.035770968 0.044329032 0.34300002 4280167198
0.036885031 0.044329032 0.34300002 4279903256
0.037999097 0.044329032 0.34300002 4280561186
0.038999125 0.044199791 0.34200001 4279443475
0.040109944 0.044199791 0.34200001 4280957227
0.041100234 0.044070557 0.34100002 4280958511
0.0422078 0.044070557 0.34100002 4281287476
0.043188341 0.043941315 0.34 4281549874
0.044292662 0.043941315 0.34 4281352495
0.045396984 0.043941315 0.34 4280957225
0.046501301 0.043941315 0.34 4280167198
0.047605623 0.043941315 0.34 4281417776
0.048853215 0.044070557 0.34100002 4281680946
0.050107293 0.044199791 0.34200001 4281483056
0.017175376 0.046370897 0.35000002 4286289286
0.018312177 0.046370897 0.35000002 4286157700
0.019393407 0.046238404 0.34900001 4286026114
0.020468144 0.046105918 0.34800002 4285828737
0.021598449 0.046105918 0.34800002 4283391828
0.022663439 0.045973428 0.347 4282602312
0.023721937 0.045840941 0.34600002 4282140457
0.024773939 0.045708455 0.34500003 4283257389
0.025819439 0.045575965 0.34400001 4283189282
0.026936755 0.045575965 0.34400001 4283123489
0.027972514 0.045443479 0.34300002 4282465811
0.029086581 0.045443479 0.34300002 4286545490
0.030200643 0.045443479 0.34300002 4282006041
0.031314708 0.045443479 0.34300002 4281677337
0.032428775 0.045443479 0.34300002 4281155888
0.033542838 0.045443479 0.34300002 4281353782
0.034656905 0.045443479 0.34300002 4281420345
0.035770968 0.045443479 0.34300002 4280036125
0.036885031 0.045443479 0.34300002 4280100635
0.037888311 0.045310989 0.34200001 4280758565
0.038999125 0.045310989 0.34200001 4279772436
0.039992664 0.045178503 0.34100002 4281680946
0.040979702 0.045046009 0.34 4281484081
0.041960247 0.044913523 0.33900002 4281747253
0.04306132 0.044913523 0.33900002 4281813048
0.044032123 0.044781037 0.33800003 4281484081
0.045129947 0.044781037 0.33800003 4280957225
0.046227768 0.044781037 0.33800003 4280627745
0.047465611 0.044913523 0.33900002 4281418290
0.048709948 0.045046009 0.34 4281945404
0.049814269 0.045046009 0.34 4280759844
0.017175376 0.04750808 0.35000002 4286091907
0.018259855 0.047372341 0.34900001 4286091907
0.01933784 0.047236603 0.34800002 4286157702
0.020468144 0.047236603 0.34800002 4286223495
0.021536384 0.047100864 0.347 4283655000
0.022598127 0.04696513 0.34600002 4283062349
0.023721937 0.04696513 0.34600002 4283128383
0.024773939 0.046829391 0.34500003 4282732076
0.025819439 0.046693653 0.34400001 4282730277
0.026936755 0.046693653 0.34400001 4282467105
0.027972514 0.046557918 0.34300002 4282400799
0.029086581 0.046557918 0.34300002 4282269211
0.030200643 0.046557918 0.34300002 4281018376
0.031314708 0.046557918 0.34300002 4282664234
0.032428775 0.046557918 0.34300002 4281878579
0.033542838 0.046557918 0.34300002 4281222192
0.034656905 0.046557918 0.34300002 4281090610
0.035770968 0.046557918 0.34300002 4280036125
0.036777493 0.04642218 0.34200001 4279509268
0.037888311 0.04642218 0.34200001 4281022507
0.038885094 0.046286441 0.34100002 4281549362
0.039875381 0.046150703 0.34 4281813048
0.040859174 0.046014968 0.33900002 4282010425
0.04183647 0.04587923 0.33800003 4282076218
0.04280727 0.045743492 0.33700001 4281878839
0.043901846 0.045743492 0.33700001 4281352495
0.044996426 0.045743492 0.33700001 4280628260
0.046090998 0.045743492 0.33700001 4281615155
0.047325596 0.04587923 0.33800003 4281419571
0.048423421 0.04587923 0.33800003 4280500520
0.049667757 0.046014968 0.33900002 4280499493
0.018207535 0.048367295 0.34800002 4286157702
0.01933784 0.048367295 0.34800002 4286091909
0.020409327 0.048228305 0.347 4286091909
0.021536384 0.048228305 0.347 4286090365
0.022598127 0.048089322 0.34600002 4283326289
0.023721937 0.048089322 0.34600002 4282931781
0.024773939 0.047950335 0.34500003 4282404662
0.025819439 0.047811348 0.34400001 4282995246
0.026936755 0.047811348 0.34400001 4283060269
0.028054066 0.047811348 0.34400001 4282730277
0.029086581 0.047672361 0.34300002 4282795555
0.030200643 0.047672361 0.34300002 4281874968
0.031314708 0.047672361 0.34300002 4282599211
0.032428775 0.047672361 0.34300002 4281681198
0.033542838 0.047672361 0.34300002 4281551157
0.034656905 0.047672361 0.34300002 4281748025
0.035770968 0.047672361 0.34300002 4280036125
0.036777493 0.047533374 0.34200001 4280232991
0.037777528 0.047394387 0.34100002 4281548851
0.038657028 0.047116414 0.33900002 4281615157
0.039640825 0.046977431 0.33800003 4281944634
0.040618118 0.04683844 0.33700001 4282010427
0.041588917 0.046699457 0.33600003 4282339390
0.042680245 0.046699457 0.33600003 4282207804
0.043771576 0.046699457 0.33600003 4281418288
0.044862907 0.046699457 0.33600003 4280826151
0.045954231 0.046699457 0.33600003 4280696872
0.047045562 0.046699457 0.33600003 4279911199
0.048280153 0.04683844 0.33700001 4279780127
0.049521249 0.046977431 0.33800003 4280764462
0.018207535 0.049497984 0.34800002 4286091909
0.01928227 0.049355745 0.347 4286091909
0.020409327 0.049355745 0.347 4286026116
0.02147432 0.049213514 0.34600002 4286617738
0.022598127 0.049213514 0.34600002 4283063885
0.023653379 0.049071278 0.34500003 4282865988
0.024773939 0.049071278 0.34500003 4282537023
0.025894497 0.049071278 0.34500003 4287865479
0.026936755 0.048929039 0.34400001 4284245579
0.028054066 0.048929039 0.34400001 4283584303
0.029171379 0.048929039 0.34400001 4282992934
0.030288691 0.048929039 0.34400001 4281941788
0.031406004 0.048929039 0.34400001 4281679134
0.032523315 0.048929039 0.34400001 4282273851
0.033640627 0.048929039 0.34400001 4281353780
0.034656905 0.048786808 0.34300002 4283063885
0.035770968 0.048786808 0.34300002 4279904537
0.036777493 0.048644569 0.34200001 4280100635
0.037777528 0.048502333 0.34100002 4281746230
0.038542997 0.048075628 0.33800003 4281813050
0.039523542 0.047933392 0.33700001 4282076220
0.04049759 0.047791157 0.33600003 4282207806
0.041465141 0.047648918 0.33500001 4282274369
0.04255322 0.047648918 0.33500001 4281945404
0.043511029 0.047506686 0.33400002 4281287472
0.044595864 0.047506686 0.33400002 4280304676
0.045817461 0.047648918 0.33500001 4279780125
0.046905544 0.047648918 0.33500001 4279255834
0.04813689 0.047791157 0.33600003 4279255836
0.049374733 0.047933392 0.33700001 4280434213
0.018155213 0.050483182 0.347 4286157700
0.019226702 0.050337698 0.34600002 4285894528
0.020350512 0.050337698 0.34600002 4286026114
0.02147432 0.050337698 0.34600002 4286748554
0.022598127 0.050337698 0.34600002 4281615671
0.023653379 0.050192215 0.34500003 4282667580
0.024773939 0.050192215 0.34500003 4283326025
0.025894497 0.050192215 0.34500003 4285693036
0.026936755 0.050046727 0.34400001 4288915862
0.028054066 0.050046727 0.34400001 4281875238
0.029171379 0.050046727 0.34400001 4282138665
0.030288691 0.050046727 0.34400001 4281219618
0.031406004 0.050046727 0.34400001 4282470462
0.032523315 0.050046727 0.34400001 4281880124
0.033640627 0.050046727 0.34400001 4282340675
0.034757942 0.050046727 0.34400001 4282471750
0.035770968 0.049901247 0.34300002 4280298782
0.036777493 0.04975576 0.34200001 4281746741
0.037777528 0.049610276 0.34100002 4281878841
0.038428962 0.049028337 0.33700001 4282010427
0.039406262 0.048882853 0.33600003 4282076220
0.040377058 0.048737366 0.33500001 4282339392
0.041341364 0.048591882 0.33400002 4282470978
0.042426195 0.048591882 0.33400002 4282011710
0.043380756 0.048446395 0.333 4280829485
0.044595864 0.048591882 0.33400002 4279519006
0.045680694 0.048591882 0.33400002 4279453726
0.046905544 0.048737366 0.33500001 4279125535
0.047993623 0.048737366 0.33500001 4278664730
0.019226702 0.05146189 0.34600002 4286026116
0.020350512 0.05146189 0.34600002 4286026116
0.02147432 0.05146189 0.34600002 4286683015
0.022532815 0.051313158 0.34500003 4282075193
0.023653379 0.051313158 0.34500003 4280889888
0.024773939 0.051313158 0.34500003 4281416230
0.025894497 0.051313158 0.34500003 4283194439
0.02701506 0.051313158 0.34500003 4282931013
0.028054066 0.051164422 0.34400001 4282536257
0.029171379 0.051164422 0.34400001 4282404671
0.030288691 0.051164422 0.34400001 4282010427
0.031406004 0.051164422 0.34400001 4282076990
0.032523315 0.051164422 0.34400001 4282208576
0.033640627 0.051164422 0.34400001 4282799943
0.034858983 0.051313158 0.34500003 4282075191
0.035875253 0.051164422 0.34400001 4282534972
0.036777493 0.050866954 0.34200001 4282076218
0.037777528 0.050718222 0.34100002 4281944632
0.038428962 0.050123286 0.33700001 4281944634
0.039406262 0.049974553 0.33600003 4282273599
0.040256534 0.049677085 0.33400002 4282536769
0.041217584 0.049528349 0.333 4282405183
0.04229917 0.049528349 0.333 4281223475
0.043380756 0.049528349 0.333 4279976740
0.044462342 0.049528349 0.333 4279126049
0.045543924 0.049528349 0.333 4279191842
0.046765529 0.049677085 0.33400002 4279124765
0.047850363 0.049677085 0.33400002 4279255068
0.017998252 0.05228211 0.34400001 4286091909
0.019171134 0.052434094 0.34500003 4286157702
0.020291695 0.052434094 0.34500003 4286091907
0.021412257 0.052434094 0.34500003 4286748293
0.022532815 0.052434094 0.34500003 4282469949
0.025894497 0.052434094 0.34500003 4280889886
0.02701506 0.052434094 0.34500003 4283258947
0.02813562 0.052434094 0.34500003 4282931781
0.029256182 0.052434094 0.34500003 4282602816
0.030376742 0.052434094 0.34500003 4282340162
0.0314973 0.052434094 0.34500003 4282340162
0.032617863 0.052434094 0.34500003 4282470716
0.033738423 0.052434094 0.34500003 4280626968
0.034960024 0.052586075 0.34600002 4281019932
0.035875253 0.05228211 0.34400001 4280888346
0.036885031 0.052130129 0.34300002 4279835658
0.037777528 0.051826164 0.34100002 4281943089
0.038314931 0.05106625 0.33600003 4282537023
0.039288979 0.050914265 0.33500001 4282405437
0.040256534 0.050762285 0.33400002 4282537023
0.041217584 0.050610296 0.333 4282471230
0.042172145 0.050458316 0.33200002 4281159985
0.043250486 0.050458316 0.33200002 4279913764
0.044328824 0.050458316 0.33200002 4279257631
0.045543924 0.050610296 0.333 4279257631
0.04662551 0.050610296 0.333 4279453215
0.047850363 0.050762285 0.33400002 4280240680
0.02701506 0.053555038 0.34500003 4281151770
0.02813562 0.053555038 0.34500003 4282138663
0.029256182 0.053555038 0.34500003 4282271019
0.030376742 0.053555038 0.34500003 4281416480
0.0314973 0.053555038 0.34500003 4281218333
0.032617863 0.053555038 0.34500003 4280822805
0.033836212 0.053710267 0.34600002 4281151513
0.035162106 0.054020733 0.34800002 4280954134
0.035875253 0.053399805 0.34400001 4281085718
0.036885031 0.053244572 0.34300002 4281085718
0.037777528 0.05293411 0.34100002 4281085718
0.038428962 0.052313179 0.33700001 4280955161
0.039406262 0.05215795 0.33600003 4281745962
0.04049759 0.05215795 0.33600003 4283655502
0.041093811 0.051537022 0.33200002 4282867269
0.042172145 0.051537022 0.33200002 4279780897
0.043250486 0.051537022 0.33200002 4279586596
0.044328824 0.051537022 0.33200002 4279258144
0.045407157 0.051537022 0.33200002 4279258144
0.04662551 0.051692251 0.333 4279584033
0.047707096 0.051692251 0.333 4280633641
0.018050574 0.054675978 0.34500003 4286223495
0.019171134 0.054675978 0.34500003 4286026116
0.020291695 0.054675978 0.34500003 4285894530
0.033374216 0.055943821 0.35300002 4281545240
0.034422971 0.055785343 0.35200003 4281282327
0.035364188 0.05546838 0.35000002 4281084948
0.036605272 0.055626858 0.35100001 4281216534
0.037745323 0.055626858 0.35100001 4281151765
0.03888537 0.055626858 0.35100001 4281283351
0.04002542 0.055626858 0.35100001 4281019155
0.041165467 0.055626858 0.35100001 4280755983
0.044328824 0.052615721 0.33200002 4279127328
0.045407157 0.052615721 0.33200002 4279323937
0.04662551 0.052774198 0.333 4279847205
0.047707096 0.052774198 0.333 4279645211
0.018050574 0.055796918 0.34500003 4286157702
0.019171134 0.055796918 0.34500003 4285894528
0.034422971 0.05692903 0.35200003 4281743130
0.035566267 0.05692903 0.35200003 4281808925
0.036605272 0.056767296 0.35100001 4281216788
0.037745323 0.056767296 0.35100001 4281085202
0.03888537 0.056767296 0.35100001 4281216534
0.04002542 0.056767296 0.35100001 4280887569
0.035667308 0.058237687 0.35300002 4281809175
0.041028924 0.05433777 0.32300001 4279387933
0.042078033 0.05433777 0.32300001 4278928666
0.04299362 0.054169547 0.32200003 4278930462
0.044039473 0.054169547 0.32200003 4279127841
0.04508533 0.054169547 0.32200003 4279325992
0.045987923 0.054001313 0.32100001 4278996257
0.039979823 0.055387229 0.32300001 4281421874
0.041028924 0.055387229 0.32300001 4279124765
0.042078033 0.055387229 0.32300001 4278928670
0.043127138 0.055387229 0.32300001 4278864673
0.044039473 0.055215754 0.32200003 4278930466
0.04508533 0.055215754 0.32200003 4279193638
0.045987923 0.055044275 0.32100001 4281365577
0.040103596 0.056611415 0.324 4280633387
0.041028924 0.056436691 0.32300001 4278993179
0.042078033 0.056436691 0.32300001 4278796570
0.043127138 0.056436691 0.32300001 4278929183
0.044039473 0.056261968 0.32200003 4279060767
0.04508533 0.056261968 0.32200003 4278995744
0.045987923 0.056087237 0.32100001 4278733085
0.046737507 0.055737782 0.31900001 4279456810
0.047623854 0.055563059 0.31800002 4284850040
0.048503712 0.055388328 0.317 4285637757
0.040103596 0.057664126 0.324 4280634411
0.041155949 0.057664126 0.324 4278795796
0.042078033 0.057486154 0.32300001 4278927382
0.043127138 0.057486154 0.32300001 4279453726
0.044039473 0.057308178 0.32200003 4279257117
0.04508533 0.057308178 0.32200003 4278731800
0.045987923 0.057130203 0.32100001 4278863386
0.046737507 0.056774247 0.31900001 4278732570
0.047623854 0.056596275 0.31800002 4278666007
0.048503712 0.056418296 0.317 4281624645
0.049377073 0.056240324 0.31600001 4287281560
0.050243936 0.056062352 0.31500003 4286558355
0.040227376 0.058898062 0.32500002 4280437543
0.041155949 0.058716834 0.324 4278993175
0.042208303 0.058716834 0.324 4278993175
0.043127138 0.058535609 0.32300001 4279190554
0.04417624 0.058535609 0.32300001 4279256349
0.04508533 0.058354389 0.32200003 4278993947
0.045987923 0.058173161 0.32100001 4278928154
0.046884019 0.057991937 0.32000002 4278731287
0.047623854 0.057629488 0.31800002 4278797334
0.048503712 0.05744826 0.317 4278862873
0.049377073 0.057267036 0.31600001 4278928154
0.050243936 0.057085816 0.31500003 4281623362
0.051104303 0.056904588 0.31400001 4287215767
0.052124176 0.056904588 0.31400001 4286491781
0.052974802 0.056723364 0.31300002 4281228343
0.039292302 0.060138494 0.32600001 4281486640
0.040227376 0.059954021 0.32500002 4279516955
0.041282974 0.059954021 0.32500002 4278993175
0.042338576 0.059954021 0.32500002 4279256347
0.043260656 0.059769545 0.324 4279585312
0.04417624 0.059585072 0.32300001 4279387935
0.04508533 0.059400603 0.32200003 4279124763
0.045987923 0.059216123 0.32100001 4279124763
0.046884019 0.059031654 0.32000002 4279125533
0.047773615 0.058847174 0.31900001 4278993945
0.048656721 0.058662705 0.31800002 4278928666
0.049377073 0.058293756 0.31600001 4278797080
0.050403439 0.058293756 0.31600001 4278862873
0.051267058 0.058109283 0.31500003 4279388703
0.052124176 0.057924807 0.31400001 4280899630
0.052974802 0.057740334 0.31300002 4287215506
0.053991426 0.057740334 0.31300002 4286755986
0.054832306 0.057555858 0.31200001 4282085196
0.039292302 0.061197698 0.32600001 4281685562
0.040351149 0.061197698 0.32600001 4279517727
0.041409999 0.061197698 0.32600001 4278993177
0.042338576 0.061009977 0.32500002 4279256349
0.043260656 0.060822252 0.324 4279387935
0.044313006 0.060822252 0.324 4279256349
0.045225345 0.060634531 0.32300001 4279190556
0.046131186 0.06044681 0.32200003 4279190556
0.046884019 0.060071364 0.32000002 4279256349
0.047773615 0.059883635 0.31900001 4279190556
0.048656721 0.059695914 0.31800002 4279256349
0.04953333 0.05950819 0.317 4279059740
0.050403439 0.059320468 0.31600001 4278533394
0.051267058 0.059132747 0.31500003 4278862359
0.052124176 0.058945023 0.31400001 4279059992
0.053144045 0.058945023 0.31400001 4279125015
0.053991426 0.058757301 0.31300002 4279913768
0.055008054 0.058757301 0.31300002 4285966472
0.055845682 0.058569577 0.31200001 4287017877
0.038350739 0.062447883 0.32700002 4279835910
0.039412834 0.062447883 0.32700002 4281817915
0.040351149 0.062256906 0.32600001 4279188762
0.041409999 0.062256906 0.32600001 4278796568
0.04246885 0.062256906 0.32600001 4279322912
0.043394178 0.062065937 0.32500002 4279388705
0.044313006 0.061874963 0.324 4278993947
0.045225345 0.061683994 0.32300001 4279256347
0.046131186 0.061493024 0.32200003 4279124761
0.047030531 0.061302047 0.32100001 4279124761
0.047773615 0.060920101 0.31900001 4279190554
0.048656721 0.060729131 0.31800002 4279190554
0.04953333 0.060538158 0.317 4279519519
0.050403439 0.060347188 0.31600001 4279519519
0.051267058 0.060156219 0.31500003 4279387933
0.052290183 0.060156219 0.31500003 4278993945
0.053144045 0.059965242 0.31400001 4278796566
0.053991426 0.059774272 0.31300002 4278928666
0.055008054 0.059774272 0.31300002 4279323424
0.055845682 0.059583299 0.31200001 4279451932
0.056859057 0.059583299 0.31200001 4285965441
0.057686947 0.059392329 0.31100002 4287346324
0.038468018 0.063704558 0.32800001 4279573510
0.039412834 0.063510336 0.32700002 4280503338
0.040474929 0.063510336 0.32700002 4279058459
0.041537024 0.063510336 0.32700002 4278664982
0.04246885 0.063316114 0.32600001 4279322912
0.043394178 0.063121893 0.32500002 4279257119
0.044449776 0.063121893 0.32500002 4279059740
0.045225345 0.062733449 0.32300001 4278993945
0.046131186 0.062539235 0.32200003 4279124761
0.047030531 0.062345006 0.32100001 4279124761
0.047773615 0.061956562 0.31900001 4279387933
0.048656721 0.061762344 0.31800002 4279453726
0.04953333 0.061568119 0.317 4279453726
0.050562941 0.061568119 0.317 4279387933
0.051429808 0.061373901 0.31600001 4279256347
0.052290183 0.061179683 0.31500003 4279584799
0.053144045 0.060985457 0.31400001 4279256347
0.054163922 0.060985457 0.31400001 4278993945
0.055008054 0.060791239 0.31300002 4278928152
0.055845682 0.060597014 0.31200001 4279059738
0.056859057 0.060597014 0.31200001 4279520289
0.057686947 0.060402796 0.31100002 4279451414
0.058508337 0.06020857 0.31 4285174378
0.059323233 0.060014352 0.30900002 4287082888
0.060326867 0.060014352 0.30900002 4283267926
0.038468018 0.064770259 0.32800001 4279508487
0.039533362 0.064770259 0.32800001 4280503338
0.040474929 0.064572796 0.32700002 4279123482
0.041537024 0.064572796 0.32700002 4278993949
0.042599123 0.064572796 0.32700002 4279388705
0.043527696 0.064375319 0.32600001 4279387933
0.044449776 0.064177856 0.32500002 4279387935
0.04536536 0.063980378 0.324 4279190556
0.046131186 0.063585445 0.32200003 4279190556
0.047030531 0.063387968 0.32100001 4279124763
0.047773615 0.062993027 0.31900001 4279387935
0.048656721 0.062795565 0.31800002 4279256347
0.04953333 0.062598087 0.317 4279453726
0.050562941 0.062598087 0.317 4279256347
0.051429808 0.06240062 0.31600001 4279058459
0.052290183 0.062203154 0.31500003 4279648029
0.0533133 0.062203154 0.31500003 4278529546
0.054163922 0.06200568 0.31400001 4279190041
0.055008054 0.06180821 0.31300002 4279585312
0.056024678 0.06180821 0.31300002 4279125531
0.056859057 0.061610736 0.31200001 4278862359
0.057686947 0.061413269 0.31100002 4278862359
0.058508337 0.061215796 0.31 4279453978
0.059515215 0.061215796 0.31 4279714070
0.060326867 0.061018329 0.30900002 4284976997
0.061132021 0.060820859 0.30800003 4287346324
0.061930671 0.060623385 0.30700001 4283795049
0.062722839 0.060425919 0.30600002 4279453476
0.063716725 0.060425919 0.30600002 4279783211
0.06449914 0.060228445 0.30500001 4279979559
0.065275058 0.060030978 0.30400002 4280636206
0.066262454 0.060030978 0.30400002 4280829231
0.067249849 0.060030978 0.30400002 4283986270
0.039533362 0.065835968 0.32800001 4280832303
0.040598705 0.065835968 0.32800001 4279124252
0.041537024 0.065635249 0.32700002 4279190556
0.042599123 0.065635249 0.32700002 4279519521
0.043527696 0.065434523 0.32600001 4279387935
0.044449776 0.065233812 0.32500002 4279387935
0.04536536 0.065033086 0.324 4279190556
0.046131186 0.064631656 0.32200003 4279387935
0.047030531 0.06443093 0.32100001 4279256347
0.047773615 0.064029492 0.31900001 4279256347
0.048656721 0.063828774 0.31800002 4279256347
0.04953333 0.063628048 0.317 4279453726
0.050562941 0.063628048 0.317 4279256347
0.051429808 0.063427337 0.31600001 4279519010
0.052290183 0.063226618 0.31500003 4278792466
0.0533133 0.063226618 0.31500003 4278594574
0.054163922 0.063025892 0.31400001 4279320346
0.055183794 0.063025892 0.31400001 4279716387
0.056024678 0.062825181 0.31300002 4279519521
0.056859057 0.062624454 0.31200001 4279519521
0.057686947 0.062423736 0.31100002 4279058970
0.058697078 0.062423736 0.31100002 4279124763
0.059515215 0.062223013 0.31 4279125015
0.060326867 0.062022299 0.30900002 4279124502
0.061132021 0.06182158 0.30800003 4279320346
0.061930671 0.061620858 0.30700001 4283267674
0.062722839 0.061420143 0.30600002 4286886554
0.063716725 0.061420143 0.30600002 4282610779
0.06449914 0.06121942 0.30500001 4280176940
0.065489776 0.06121942 0.30500001 4279584803
0.066262454 0.061018702 0.30400002 4280241963
0.067249849 0.061018702 0.30400002 4280307756
0.068237238 0.061018702 0.30400002 4280765743
0.039533362 0.066901676 0.32800001 4281029682
0.040598705 0.066901676 0.32800001 4279189275
0.041664049 0.066901676 0.32800001 4279387937
0.042599123 0.066697709 0.32700002 4279453728
0.043661222 0.066697709 0.32700002 4279256349
0.044586543 0.066493735 0.32600001 4279124763
0.045505378 0.066289768 0.32500002 4279058968
0.046131186 0.065677866 0.32200003 4279058968
0.046884019 0.065269925 0.32000002 4279256347
0.047773615 0.065065958 0.31900001 4279256347
0.048656721 0.064861991 0.31800002 4279519521
0.04953333 0.064658016 0.317 4279453728
0.050562941 0.064658016 0.317 4279387935
0.051429808 0.064454049 0.31600001 4278200584
0.052456178 0.064454049 0.31600001 4278197507
0.0533133 0.064250089 0.31500003 4280107045
0.054163922 0.064046115 0.31400001 4279715617
0.055183794 0.064046115 0.31400001 4279453728
0.056024678 0.063842148 0.31300002 4279387935
0.056859057 0.063638173 0.31200001 4279585314
0.057872433 0.063638173 0.31200001 4279585314
0.058697078 0.063434213 0.31100002 4279585314
0.059515215 0.063230239 0.31 4279190554
0.060326867 0.063026272 0.30900002 4279124761
0.061132021 0.062822305 0.30800003 4278928152
0.061930671 0.062618338 0.30700001 4279125533
0.062722839 0.06241437 0.30600002 4279058457
0.063716725 0.06241437 0.30600002 4281887304
0.06449914 0.062210396 0.30500001 4286952597
0.065489776 0.062210396 0.30500001 4282938711
0.066262454 0.062006433 0.30400002 4280111406
0.067249849 0.062006433 0.30400002 4279717418
0.068237238 0.062006433 0.30400002 4279915051
0.068996914 0.061802458 0.303 4279914279
0.069981061 0.061802458 0.303 4281291056
0.038585298 0.068174601 0.32900003 4279772186
0.03965389 0.068174601 0.32900003 4280238118
0.040598705 0.067967378 0.32800001 4279451934
0.041664049 0.067967378 0.32800001 4279190556
0.042729393 0.067967378 0.32800001 4279519521
0.043661222 0.067760162 0.32700002 4279453726
0.044586543 0.067552939 0.32600001 4279124761
0.045505378 0.067345724 0.32500002 4279059738
0.045987923 0.066516854 0.32100001 4279125531
0.046884019 0.066309638 0.32000002 4279059738
0.047773615 0.066102415 0.31900001 4279388703
0.048656721 0.0658952 0.31800002 4279585314
0.04953333 0.065687984 0.317 4279453728
0.050562941 0.065687984 0.317 4279519008
0.051429808 0.065480769 0.31600001 4279320348
0.052456178 0.065480769 0.31600001 4278919437
0.0533133 0.065273553 0.31500003 4279118867
0.054336421 0.065273553 0.31500003 4279386654
0.055183794 0.06506633 0.31400001 4279519008
0.056203667 0.06506633 0.31400001 4279452445
0.057041299 0.064859115 0.31300002 4279979561
0.057872433 0.064651892 0.31200001 4279519010
0.058885813 0.064651892 0.31200001 4279519523
0.059707202 0.064444676 0.31100002 4279519521
0.060717333 0.064444676 0.31100002 4279651107
0.061727464 0.064444676 0.31100002 4279124763
0.062737592 0.064444676 0.31100002 4279059740
0.062722839 0.063408591 0.30600002 4278796566
0.063716725 0.063408591 0.30600002 4278993945
0.06449914 0.063201368 0.30500001 4279058455
0.065489776 0.063201368 0.30500001 4282609994
0.066262454 0.062994152 0.30400002 4287477394
0.067249849 0.062994152 0.30400002 4282938961
0.068237238 0.062994152 0.30400002 4279849258
0.068996914 0.062786937 0.303 4279914277
0.069981061 0.062786937 0.303 4279848738
0.070965201 0.062786937 0.303 4280111143
0.071949348 0.062786937 0.303 4280700202
0.073174201 0.062994152 0.30400002 4282210876
0.038585298 0.06924355 0.32900003 4279838494
0.03965389 0.06924355 0.32900003 4279641881
0.040722482 0.06924355 0.32900003 4280764975
0.041664049 0.069033086 0.32800001 4279716389
0.042729393 0.069033086 0.32800001 4279519008
0.043661222 0.068822622 0.32700002 4279255834
0.044586543 0.068612151 0.32600001 4279124248
0.045505378 0.068401687 0.32500002 4279125531
0.045987923 0.067559816 0.32100001 4279059738
0.046884019 0.067349352 0.32000002 4279059738
0.047773615 0.06713888 0.31900001 4279387933
0.048656721 0.066928416 0.31800002 4279387935
0.049689587 0.066928416 0.31800002 4279256349
0.050562941 0.066717945 0.317 4279453728
0.051429808 0.066507481 0.31600001 4279187992
0.052456178 0.066507481 0.31600001 4278723595
0.0533133 0.066297017 0.31500003 4280370217
0.054336421 0.066297017 0.31500003 4279649311
0.055183794 0.066086553 0.31400001 4279187990
0.056203667 0.066086553 0.31400001 4278589959
0.057041299 0.065876089 0.31300002 4278654982
0.057872433 0.065665618 0.31200001 4279251736
0.058885813 0.065665618 0.31200001 4280372012
0.059899185 0.065665618 0.31200001 4279453217
0.060912564 0.065665618 0.31200001 4279650596
0.06192594 0.065665618 0.31200001 4279914281
0.062939316 0.065665618 0.31200001 4279848488
0.063952692 0.065665618 0.31200001 4279519519
0.063716725 0.064402819 0.30600002 4279058968
0.06449914 0.064192347 0.30500001 4278993175
0.065489776 0.064192347 0.30500001 4279256601
0.066262454 0.063981883 0.30400002 4279715104
0.067249849 0.063981883 0.30400002 4280834098
0.068237238 0.063981883 0.30400002 4286952336
0.068996914 0.063771412 0.303 4282938193
0.069981061 0.063771412 0.303 4280637487
0.070965201 0.063771412 0.303 4279716385
0.071949348 0.063771412 0.303 4279585312
0.073174201 0.063981883 0.30400002 4280045863
0.074161589 0.063981883 0.30400002 4280634411
0.038585298 0.070312507 0.32900003 4280562731
0.03965389 0.070312507 0.32900003 4280365350
0.040722482 0.070312507 0.32900003 4280102948
0.041664049 0.070098795 0.32800001 4280043047
0.042729393 0.070098795 0.32800001 4279649826
0.043661222 0.069885075 0.32700002 4279453215
0.044586543 0.069671355 0.32600001 4279190043
0.045505378 0.069457643 0.32500002 4279256349
0.046131186 0.068816498 0.32200003 4279125533
0.046884019 0.068389066 0.32000002 4279257119
0.047773615 0.068175346 0.31900001 4279322912
0.048656721 0.067961633 0.31800002 4279125533
0.049689587 0.067961633 0.31800002 4279257121
0.050562941 0.067747913 0.317 4279255838
0.051592559 0.067747913 0.317 4278791953
0.052456178 0.067534201 0.31600001 4279381010
0.053482544 0.067534201 0.31600001 4280107297
0.054336421 0.067320488 0.31500003 4279649311
0.055359542 0.067320488 0.31500003 4278463242
0.056203667 0.067106768 0.31400001 4279115021
0.057041299 0.066893056 0.31300002 4279180303
0.058057927 0.066893056 0.31300002 4278983437
0.058885813 0.066679336 0.31200001 4278852365
0.059707202 0.066465624 0.31100002 4278659086
0.060522098 0.066251904 0.31 4279977254
0.061330501 0.066038191 0.30900002 4279781412
0.062132403 0.065824479 0.30800003 4279716389
0.062927812 0.065610759 0.30700001 4279913766
0.063716725 0.065397047 0.30600002 4279979557
0.064710617 0.065397047 0.30600002 4279584799
0.065489776 0.065183327 0.30500001 4279124248
0.066262454 0.064969614 0.30400002 4279124761
0.067249849 0.064969614 0.30400002 4279058968
0.068237238 0.064969614 0.30400002 4279781662
0.068996914 0.064755894 0.303 4280833067
0.069981061 0.064755894 0.303 4286622597
0.070965201 0.064755894 0.303 4282741330
0.071949348 0.064755894 0.303 4279519008
0.073174201 0.064969614 0.30400002 4279980070
0.074161589 0.064969614 0.30400002 4279716898
0.075148985 0.064969614 0.30400002 4279979557
0.03965389 0.071381465 0.32900003 4280562731
0.040722482 0.071381465 0.32900003 4280365352
0.041664049 0.071164496 0.32800001 4280235301
0.042729393 0.071164496 0.32800001 4279974694
0.043661222 0.070947535 0.32700002 4279780645
0.044586543 0.070730567 0.32600001 4279649826
0.04536536 0.07029663 0.324 4279321631
0.045987923 0.06964574 0.32100001 4279453730
0.046884019 0.069428779 0.32000002 4279125533
0.047773615 0.069211811 0.31900001 4279322912
0.04880973 0.069211811 0.31900001 4279388707
0.049689587 0.06899485 0.31800002 4279322914
0.050562941 0.068777882 0.317 4279385117
0.051592559 0.068777882 0.317 4278592269
0.052456178 0.068560913 0.31600001 4279513625
0.053482544 0.068560913 0.31600001 4280042787
0.054336421 0.068343952 0.31500003 4279452447
0.055359542 0.068343952 0.31500003 4278198278
0.056203667 0.068126984 0.31400001 4279180814
0.057041299 0.067910023 0.31300002 4280628772
0.058057927 0.067910023 0.31300002 4279311889
0.058885813 0.067693055 0.31200001 4279179533
0.059707202 0.067476094 0.31100002 4279180303
0.060522098 0.067259125 0.31 4278852365
0.061330501 0.067042165 0.30900002 4278856465
0.062132403 0.066825204 0.30800003 4279911201
0.062927812 0.066608228 0.30700001 4279780899
0.063716725 0.066391267 0.30600002 4279781412
0.064710617 0.066391267 0.30600002 4279716387
0.065489776 0.066174299 0.30500001 4279650594
0.066262454 0.065957338 0.30400002 4279716387
0.067249849 0.065957338 0.30400002 4279190043
0.068237238 0.065957338 0.30400002 4279124761
0.068996914 0.065740369 0.303 4279190554
0.069981061 0.065740369 0.303 4278729492
0.070965201 0.065740369 0.303 4280505133
0.071949348 0.065740369 0.303 4285373565
0.072933495 0.065740369 0.303 4282150478
0.074161589 0.065957338 0.30400002 4280045867
0.075148985 0.065957338 0.30400002 4279520291
0.076136373 0.065957338 0.30400002 4279586082
0.077377461 0.066174299 0.30500001 4280111143
0.045225345 0.071129136 0.32300001 4279977508
0.045987923 0.070688702 0.32100001 4279846692
0.046884019 0.070468493 0.32000002 4279321631
0.047773615 0.070248276 0.31900001 4279321631
0.04880973 0.070248276 0.31900001 4279519523
0.049689587 0.070028067 0.31800002 4279387935
0.05072245 0.070028067 0.31800002 4279845922
0.051592559 0.069807842 0.317 4278658316
0.052622177 0.069807842 0.317 4278197767
0.053482544 0.069587633 0.31600001 4279648291
0.054508913 0.069587633 0.31600001 4279517473
0.055359542 0.069367424 0.31500003 4278394376
0.056203667 0.069147207 0.31400001 4278786570
0.05722354 0.069147207 0.31400001 4279972127
0.058057927 0.068926997 0.31300002 4279970844
0.058885813 0.068706781 0.31200001 4280233502
0.059707202 0.068486564 0.31100002 4279246094
0.060522098 0.068266347 0.31 4279180303
0.061330501 0.068046138 0.30900002 4279246096
0.062334131 0.068046138 0.30900002 4278917642
0.063132793 0.067825928 0.30800003 4278723593
0.063924946 0.067605712 0.30700001 4280173606
0.064710617 0.067385495 0.30600002 4279846951
0.065489776 0.067165278 0.30500001 4279912998
0.066480421 0.067165278 0.30500001 4279912998
0.067249849 0.066945069 0.30400002 4279912998
0.068012767 0.066724852 0.303 4279979561
0.068996914 0.066724852 0.303 4279519523
0.069981061 0.066724852 0.303 4279256349
0.070965201 0.066724852 0.303 4279124763
0.071949348 0.066724852 0.303 4279124765
0.072933495 0.066724852 0.303 4279387683
0.074161589 0.066945069 0.30400002 4283665260
0.075148985 0.066945069 0.30400002 4281691983
0.076136373 0.066945069 0.30400002 4279783977
0.077377461 0.067165278 0.30500001 4279191838
0.045987923 0.071731664 0.32100001 4280107045
0.046884019 0.071508206 0.32000002 4279911715
0.047773615 0.071284734 0.31900001 4279780899
0.04880973 0.071284734 0.31900001 4279519010
0.049689587 0.071061276 0.31800002 4279584803
0.05072245 0.071061276 0.31800002 4279186713
0.051592559 0.070837811 0.317 4278527759
0.052622177 0.070837811 0.317 4279581982
0.053482544 0.070614345 0.31600001 4279780899
0.054508913 0.070614345 0.31600001 4279779361
0.055359542 0.070390888 0.31500003 4278854416
0.056203667 0.070167422 0.31400001 4279181330
0.05722354 0.070167422 0.31400001 4279379477
0.058057927 0.069943964 0.31300002 4280366885
0.058885813 0.069720492 0.31200001 4278853133
0.059707202 0.069497034 0.31100002 4279972127
0.060717333 0.069497034 0.31100002 4279379990
0.061528981 0.069273569 0.31 4279115535
0.062334131 0.069050103 0.30900002 4278983437
0.063132793 0.068826646 0.30800003 4279048715
0.063924946 0.06860318 0.30700001 4279180301
0.064710617 0.068379723 0.30600002 4278788621
0.065704502 0.068379723 0.30600002 4280633387
0.066480421 0.06815625 0.30500001 4280109862
0.067249849 0.067932792 0.30400002 4279912483
0.068237238 0.067932792 0.30400002 4279847203
0.068996914 0.067709327 0.303 4279979559
0.069981061 0.067709327 0.303 4279716900
0.070965201 0.067709327 0.303 4279519521
0.071949348 0.067709327 0.303 4279256349
0.072933495 0.067709327 0.303 4278862359
0.073917635 0.067709327 0.303 4279257119
0.075148985 0.067932792 0.30400002 4278796570
0.076136373 0.067932792 0.30400002 4281034557
0.077377461 0.06815625 0.30500001 4280508213
0.078368105 0.06815625 0.30500001 4279258146
0.045844659 0.07254792 0.32000002 4279905823
0.046884019 0.07254792 0.32000002 4279908129
0.047773615 0.072321199 0.31900001 4280238631
0.04880973 0.072321199 0.31900001 4279845668
0.049845841 0.072321199 0.31900001 4279846438
0.05072245 0.072094493 0.31800002 4280372014
0.051755317 0.072094493 0.31800002 4279647777
0.052622177 0.071867779 0.317 4279187224
0.053651791 0.071867779 0.317 4279846692
0.054508913 0.071641065 0.31600001 4279845670
0.055359542 0.071414359 0.31500003 4278789136
0.056382664 0.071414359 0.31500003 4279048463
0.05722354 0.071187645 0.31400001 4279246096
0.058057927 0.070960931 0.31300002 4279049744
0.058885813 0.070734218 0.31200001 4280366372
0.059899185 0.070734218 0.31200001 4280236582
0.060717333 0.070507504 0.31100002 4278460169
0.061528981 0.07028079 0.31 4278721547
0.062334131 0.070054084 0.30900002 4281156399
0.063337766 0.070054084 0.30900002 4279247121
0.064133175 0.06982737 0.30800003 4279180814
0.064922087 0.069600657 0.30700001 4279246096
0.065704502 0.06937395 0.30600002 4278852111
0.066480421 0.069147229 0.30500001 4278657548
0.067249849 0.068920523 0.30400002 4280303909
0.068237238 0.068920523 0.30400002 4280175657
0.068996914 0.068693802 0.303 4280109864
0.069981061 0.068693802 0.303 4279847203
0.070965201 0.068693802 0.303 4280045352
0.071949348 0.068693802 0.303 4279913764
0.072933495 0.068693802 0.303 4279716385
0.073917635 0.068693802 0.303 4279190554
0.075148985 0.068920523 0.30400002 4279124761
0.076136373 0.068920523 0.30400002 4279126299
0.077123769 0.068920523 0.30400002 4279193121
0.078368105 0.069147229 0.30500001 4279193636
0.045844659 0.073587626 0.32000002 4280167457
0.046884019 0.073587626 0.32000002 4280628776
0.047923379 0.073587626 0.32000002 4280300581
0.04880973 0.073357664 0.31900001 4280960567
0.049845841 0.073357664 0.31900001 4280304944
0.05072245 0.073127702 0.31800002 4280964151
0.051755317 0.073127702 0.31800002 4280109612
0.052622177 0.07289774 0.317 4279978278
0.053651791 0.07289774 0.317 4279780899
0.054508913 0.072667778 0.31600001 4279847205
0.055359542 0.072437823 0.31500003 4280175403
0.056382664 0.072437823 0.31500003 4279051023
0.05722354 0.072207861 0.31400001 4279378193
0.058057927 0.071977898 0.31300002 4279311889
0.059074551 0.071977898 0.31300002 4279115023
0.059899185 0.071747936 0.31200001 4279050512
0.060717333 0.071517974 0.31100002 4278984719
0.061528981 0.071288012 0.31 4278853131
0.06253586 0.071288012 0.31 4280170787
0.063337766 0.07105805 0.30900002 4279971612
0.064133175 0.070828095 0.30800003 4279840026
0.064922087 0.070598125 0.30700001 4279576086
0.06591922 0.070598125 0.30700001 4279312400
0.066698395 0.070368171 0.30600002 4279311889
0.067471065 0.070138201 0.30500001 4279311889
0.068237238 0.069908246 0.30400002 4279711772
0.069224633 0.069908246 0.30400002 4280503852
0.069981061 0.069678284 0.303 4280109864
0.070965201 0.069678284 0.303 4280241448
0.071949348 0.069678284 0.303 4280044582
0.072933495 0.069678284 0.303 4280110373
0.073917635 0.069678284 0.303 4279781410
0.075148985 0.069908246 0.30400002 4279847203
0.076136373 0.069908246 0.30400002 4279124761
0.077123769 0.069908246 0.30400002 4278928152
0.078368105 0.070138201 0.30500001 4278863640
0.046884019 0.07462734 0.32000002 4280694569
0.047923379 0.07462734 0.32000002 4280496936
0.04880973 0.074394129 0.31900001 4283458906
0.049845841 0.074394129 0.31900001 4285828224
0.050881952 0.074394129 0.31900001 4285303159
0.051755317 0.074160919 0.31800002 4280895794
0.052622177 0.073927708 0.317 4280503338
0.053651791 0.073927708 0.317 4279978278
0.054508913 0.073694497 0.31600001 4279912998
0.055535283 0.073694497 0.31600001 4279781412
0.056382664 0.073461294 0.31500003 4279846692
0.05722354 0.073228076 0.31400001 4279845922
0.058057927 0.072994873 0.31300002 4279446551
0.059074551 0.072994873 0.31300002 4278853133
0.059899185 0.072761655 0.31200001 4279180816
0.060717333 0.072528452 0.31100002 4279377682
0.061727464 0.072528452 0.31100002 4278852363
0.06253586 0.072295234 0.31 4279445270
0.063337766 0.072062023 0.30900002 4279115021
0.064341396 0.072062023 0.30900002 4278851849
0.065133564 0.07182882 0.30800003 4278786570
0.06591922 0.071595602 0.30700001 4280497958
0.066698395 0.071362399 0.30600002 4279115535
0.06769228 0.071362399 0.30600002 4279378195
0.068461701 0.07112918 0.30500001 4280435497
0.069224633 0.070895977 0.30400002 4280042020
0.070212021 0.070895977 0.30400002 4278330380
0.070965201 0.070662759 0.303 4280502319
