# .PCD v0.7 - Point Cloud Data file format
VERSION 0.7
FIELDS x y z rgb
SIZE 4 4 4 4
TYPE F F F U
COUNT 1 1 1 1
WIDTH 1048
HEIGHT 1
VIEWPOINT 0 0 0 1 0 0 0
POINTS 1048
DATA ascii
0.034601379 0.026816269 0.37900001 4284883482
0.035832375 0.026816269 0.37900001 4285344803
0.037063368 0.026816269 0.37900001 4285213730
0.03829436 0.026816269 0.37900001 4284821539
0.039525352 0.026816269 0.37900001 4284362784
0.012804672 0.028861728 0.39000002 4286092161
0.014071392 0.028861728 0.39000002 4286480494
0.015338113 0.028861728 0.39000002 4285162835
0.016604833 0.028861728 0.39000002 4285094732
0.017871555 0.028861728 0.39000002 4285818455
0.019138277 0.028861728 0.39000002 4286607971
0.020352677 0.028787725 0.38900003 4286673764
0.02156058 0.028713718 0.38800001 4285751892
0.022761988 0.028639715 0.38700002 4285488207
0.0239569 0.028565709 0.38600001 4285089597
0.025080003 0.028417701 0.384 4284100392
0.026258677 0.028343696 0.38300002 4284953386
0.027430853 0.028269693 0.38200003 4285149480
0.02859653 0.028195687 0.38100001 4284687902
0.029755717 0.028121684 0.38000003 4285873205
0.030989956 0.028121684 0.38000003 4286530873
0.032139398 0.028047679 0.37900001 4285213728
0.033370391 0.028047679 0.37900001 4285279521
0.034601379 0.028047679 0.37900001 4285408797
0.035832375 0.028047679 0.37900001 4285210648
0.037063368 0.028047679 0.37900001 4284422159
0.03829436 0.028047679 0.37900001 4284819740
0.039525352 0.028047679 0.37900001 4284163607
0.011508367 0.030051624 0.38900003 4286612085
0.01277184 0.030051624 0.38900003 4284698177
0.014071392 0.030128878 0.39000002 4285678904
0.015338113 0.030128878 0.39000002 4285546804
0.016604833 0.030128878 0.39000002 4285612084
0.017871555 0.030128878 0.39000002 4285809463
0.019089203 0.030051624 0.38900003 4285675826
0.020352677 0.030051624 0.38900003 4285082921
0.02156058 0.029974369 0.38800001 4285280300
0.022761988 0.029897118 0.38700002 4285215021
0.0239569 0.029819863 0.38600001 4284492581
0.025080003 0.029665355 0.384 4283967522
0.026258677 0.029588103 0.38300002 4283575079
0.027430853 0.02951085 0.38200003 4283312936
0.02859653 0.029433595 0.38100001 4284491298
0.029755717 0.029356342 0.38000003 4285478185
0.030989956 0.029356342 0.38000003 4285869346
0.032139398 0.029279089 0.37900001 4285080087
0.033370391 0.029279089 0.37900001 4287384895
0.034601379 0.029279089 0.37900001 4285276439
0.035832375 0.029279089 0.37900001 4284750097
0.037063368 0.029279089 0.37900001 4284553490
0.03829436 0.029279089 0.37900001 4284357908
0.039525352 0.029279089 0.37900001 4284162071
0.040756345 0.029279089 0.37900001 4283179542
0.0089814216 0.031315524 0.38900003 4286222464
0.010244895 0.031315524 0.38900003 4285889902
0.011508367 0.031315524 0.38900003 4285281066
0.01277184 0.031315524 0.38900003 4285411109
0.014035312 0.031315524 0.38900003 4285672996
0.015298785 0.031315524 0.38900003 4285409052
0.016562259 0.031315524 0.38900003 4285937190
0.01782573 0.031315524 0.38900003 4285280291
0.019089203 0.031315524 0.38900003 4284687902
0.020352677 0.031315524 0.38900003 4284096026
0.02156058 0.031235021 0.38800001 4283974716
0.022761988 0.031154519 0.38700002 4287334268
0.0239569 0.031074015 0.38600001 4287273353
0.025080003 0.03091301 0.384 4286747523
0.026258677 0.030832509 0.38300002 4286221177
0.027430853 0.030752007 0.38200003 4286549628
0.02859653 0.030671503 0.38100001 4284627247
0.029755717 0.030591002 0.38000003 4285147424
0.030989956 0.030591002 0.38000003 4285604891
0.032139398 0.030510496 0.37900001 4286395174
0.033370391 0.030510496 0.37900001 4285409306
0.034601379 0.030510496 0.37900001 4285080084
0.035832375 0.030510496 0.37900001 4284685331
0.037063368 0.030510496 0.37900001 4284226322
0.03829436 0.030510496 0.37900001 4283701522
0.039525352 0.030510496 0.37900001 4283242001
0.040756345 0.030510496 0.37900001 4283046932
0.0077179489 0.032579426 0.38900003 4286223493
0.0089814216 0.032579426 0.38900003 4287007867
0.010244895 0.032579426 0.38900003 4285156158
0.011508367 0.032579426 0.38900003 4285937453
0.01277184 0.032579426 0.38900003 4287188290
0.014035312 0.032579426 0.38900003 4285279008
0.015298785 0.032579426 0.38900003 4285540635
0.016562259 0.032579426 0.38900003 4285014548
0.01782573 0.032579426 0.38900003 4285015834
0.019089203 0.032579426 0.38900003 4285356880
0.020300355 0.032495674 0.38800001 4286943875
0.02156058 0.032495674 0.38800001 4286090876
0.022761988 0.032411922 0.38700002 4286025083
0.0239569 0.03232817 0.38600001 4285959290
0.025080003 0.032160666 0.384 4286090876
0.026258677 0.032076914 0.38300002 4286025083
0.027430853 0.031993162 0.38200003 4286354048
0.02859653 0.03190941 0.38100001 4285615679
0.029755717 0.031825658 0.38000003 4284818459
0.030989956 0.031825658 0.38000003 4285342234
0.032139398 0.031741906 0.37900001 4285539611
0.033370391 0.031741906 0.37900001 4284948501
0.034601379 0.031741906 0.37900001 4284817685
0.035832375 0.031741906 0.37900001 4284029454
0.037063368 0.031741906 0.37900001 4283569675
0.03829436 0.031741906 0.37900001 4283045389
0.039525352 0.031741906 0.37900001 4282717967
0.040756345 0.031741906 0.37900001 4282324233
0.041987337 0.031741906 0.37900001 4283638296
0.0077179489 0.033843327 0.38900003 4286222980
0.0089814216 0.033843327 0.38900003 4285357134
0.010218557 0.033756323 0.38800001 4285150250
0.011478783 0.033756323 0.38800001 4285804584
0.012739007 0.033756323 0.38800001 4288241751
0.013999231 0.033756323 0.38800001 4284883478
0.015259456 0.033756323 0.38800001 4285211670
0.016519681 0.033756323 0.38800001 4284752146
0.017779905 0.033756323 0.38800001 4283569934
0.01904013 0.033756323 0.38800001 4286811771
0.020300355 0.033756323 0.38800001 4286156154
0.021505011 0.033669323 0.38700002 4287273351
0.022703171 0.033582322 0.38600001 4287138429
0.023894835 0.033495322 0.38500002 4285818201
0.025080003 0.033408321 0.384 4285093449
0.026258677 0.033321321 0.38300002 4284631614
0.027430853 0.033234321 0.38200003 4285420613
0.02859653 0.033147316 0.38100001 4284359450
0.029755717 0.03306032 0.38000003 4284555033
0.030989956 0.03306032 0.38000003 4284817689
0.032139398 0.032973316 0.37900001 4284488724
0.033370391 0.032973316 0.37900001 4284226322
0.034601379 0.032973316 0.37900001 4283832077
0.035832375 0.032973316 0.37900001 4283569934
0.037063368 0.032973316 0.37900001 4282913288
0.03829436 0.032973316 0.37900001 4282520842
0.039525352 0.032973316 0.37900001 4282324492
0.040756345 0.032973316 0.37900001 4282060037
0.042098124 0.03306032 0.38000003 4284031769
0.0077179489 0.035107229 0.38900003 4286749578
0.0089583332 0.035016976 0.38800001 4284826425
0.010218557 0.035016976 0.38800001 4285081890
0.011478783 0.035016976 0.38800001 4285738019
0.012739007 0.035016976 0.38800001 4286724914
0.013999231 0.035016976 0.38800001 4285343261
0.015259456 0.035016976 0.38800001 4284685331
0.016519681 0.035016976 0.38800001 4284490005
0.017779905 0.035016976 0.38800001 4284227603
0.01904013 0.035016976 0.38800001 4287128153
0.020248035 0.034926727 0.38700002 4284629046
0.021505011 0.034926727 0.38700002 4284427042
0.022703171 0.034836479 0.38600001 4284492835
0.023894835 0.03474623 0.38500002 4284360482
0.025080003 0.034655977 0.384 4284228896
0.026258677 0.034565728 0.38300002 4284491552
0.027430853 0.034475479 0.38200003 4284556829
0.028671589 0.034475479 0.38200003 4284555800
0.029834021 0.034385227 0.38100001 4284160788
0.030989956 0.034294982 0.38000003 4284095765
0.032224201 0.034294982 0.38000003 4284293657
0.033370391 0.034204729 0.37900001 4283702804
0.034601379 0.034204729 0.37900001 4283373839
0.035832375 0.034204729 0.37900001 4282980366
0.037063368 0.034204729 0.37900001 4282586121
0.03829436 0.034204729 0.37900001 4282062090
0.039525352 0.034204729 0.37900001 4282063887
0.040863883 0.034294982 0.38000003 4281996551
0.042098124 0.034294982 0.38000003 4284163868
0.043446396 0.034385227 0.38100001 4284359450
0.0077179489 0.03637113 0.38900003 4286617738
0.0089583332 0.036277629 0.38800001 4283839530
0.010218557 0.036277629 0.38800001 4284950306
0.011478783 0.036277629 0.38800001 4285277470
0.012739007 0.036277629 0.38800001 4285079834
0.013999231 0.036277629 0.38800001 4284358421
0.015259456 0.036277629 0.38800001 4284161042
0.016519681 0.036277629 0.38800001 4285215011
0.017779905 0.036277629 0.38800001 4285280802
0.01904013 0.036277629 0.38800001 4284359450
0.020248035 0.036184132 0.38700002 4284359450
0.021505011 0.036184132 0.38700002 4283637524
0.022703171 0.036090631 0.38600001 4283441430
0.0239569 0.036090631 0.38600001 4282982424
0.025145316 0.035997134 0.38500002 4283574561
0.026327236 0.035903633 0.384 4283707430
0.02750266 0.035810135 0.38300002 4283444258
0.028671589 0.035716638 0.38200003 4283114008
0.029834021 0.035623137 0.38100001 4283046418
0.030989956 0.03552964 0.38000003 4283046159
0.032224201 0.03552964 0.38000003 4283177743
0.033458438 0.03552964 0.38000003 4283178256
0.034601379 0.035436139 0.37900001 4282915084
0.035832375 0.035436139 0.37900001 4282915086
0.037063368 0.035436139 0.37900001 4282060037
0.038395401 0.03552964 0.38000003 4284569919
0.039629642 0.03552964 0.38000003 4283518258
0.040863883 0.03552964 0.38000003 4283846450
0.042098124 0.03552964 0.38000003 4283183387
0.043446396 0.035623137 0.38100001 4284424984
0.044683885 0.035623137 0.38100001 4284424984
0.0077179489 0.037635032 0.38900003 4286354566
0.0089814216 0.037635032 0.38900003 4283841844
0.010218557 0.037538283 0.38800001 4284295202
0.011478783 0.037538283 0.38800001 4284687132
0.012739007 0.037538283 0.38800001 4284358167
0.013999231 0.037538283 0.38800001 4283833620
0.015259456 0.037538283 0.38800001 4283373839
0.016519681 0.037538283 0.38800001 4283768597
0.017779905 0.037538283 0.38800001 4283900183
0.01904013 0.037538283 0.38800001 4282980366
0.020248035 0.037441533 0.38700002 4282981139
0.021505011 0.037441533 0.38700002 4282655258
0.022703171 0.037344784 0.38600001 4282525471
0.0239569 0.037344784 0.38600001 4283320127
0.025145316 0.037248038 0.38500002 4284638297
0.026327236 0.037151288 0.384 4285693810
0.02750266 0.037054539 0.38300002 4285560937
0.028671589 0.036957793 0.38200003 4282724901
0.029834021 0.036861043 0.38100001 4281931533
0.031071508 0.036861043 0.38100001 4282455565
0.032224201 0.036764298 0.38000003 4282717967
0.033458438 0.036764298 0.38000003 4283310358
0.034692679 0.036764298 0.38000003 4283441428
0.035926919 0.036764298 0.38000003 4283571731
0.03716116 0.036764298 0.38000003 4283375637
0.038395401 0.036764298 0.38000003 4283846450
0.039629642 0.036764298 0.38000003 4283716659
0.040863883 0.036764298 0.38000003 4284440380
0.042208906 0.036861043 0.38100001 4284571966
0.043446396 0.036861043 0.38100001 4283836438
0.044683885 0.036861043 0.38100001 4284359189
0.046041902 0.036957793 0.38200003 4284426011
0.0077179489 0.03889893 0.38900003 4286552199
0.0089814216 0.03889893 0.38900003 4285223238
0.010244895 0.03889893 0.38900003 4283179288
0.011478783 0.038798932 0.38800001 4283835675
0.012739007 0.038798932 0.38800001 4283572503
0.013999231 0.038798932 0.38800001 4283112465
0.015259456 0.038798932 0.38800001 4282784014
0.016519681 0.038798932 0.38800001 4282587405
0.017779905 0.038798932 0.38800001 4282522125
0.01904013 0.038798932 0.38800001 4282457365
0.020300355 0.038798932 0.38800001 4282130974
0.021505011 0.038698938 0.38700002 4285561452
0.022761988 0.038698938 0.38700002 4286879881
0.0239569 0.038598936 0.38600001 4286025083
0.025145316 0.038498942 0.38500002 4286025085
0.026395798 0.038498942 0.38500002 4285894267
0.027574468 0.038398944 0.384 4282535742
0.028746644 0.038298946 0.38300002 4282792488
0.029912326 0.038198952 0.38200003 4281867793
0.031071508 0.03809895 0.38100001 4282325777
0.032308999 0.03809895 0.38100001 4282127885
0.033458438 0.037998956 0.38000003 4282390026
0.034692679 0.037998956 0.38000003 4282981393
0.035926919 0.037998956 0.38000003 4284359450
0.03716116 0.037998956 0.38000003 4284556570
0.038395401 0.037998956 0.38000003 4282983694
0.039629642 0.037998956 0.38000003 4282792988
0.040971417 0.03809895 0.38100001 4282202135
0.042208906 0.03809895 0.38100001 4282070549
0.043446396 0.03809895 0.38100001 4286148172
0.044683885 0.03809895 0.38100001 4283181325
0.045921374 0.03809895 0.38100001 4284686869
0.04715886 0.03809895 0.38100001 4284622872
0.0077377893 0.040266078 0.39000002 4287274639
0.00900451 0.040266078 0.39000002 4283903524
0.010244895 0.040162832 0.38900003 4283902495
0.011508367 0.040162832 0.38900003 4283178772
0.01277184 0.040162832 0.38900003 4283506969
0.013999231 0.040059585 0.38800001 4282850836
0.015259456 0.040059585 0.38800001 4282521871
0.016519681 0.040059585 0.38800001 4282325777
0.017779905 0.040059585 0.38800001 4282194453
0.01904013 0.040059585 0.38800001 4284176721
0.020300355 0.040059585 0.38800001 4286484099
0.021505011 0.039956339 0.38700002 4286024831
0.022761988 0.039956339 0.38700002 4286090624
0.0239569 0.039853089 0.38600001 4285894269
0.025210626 0.039853089 0.38600001 4286157441
0.026395798 0.039749846 0.38500002 4286748293
0.027574468 0.039646596 0.384 4281086495
0.028746644 0.039543353 0.38300002 4282264859
0.029912326 0.039440107 0.38200003 4281932301
0.031153062 0.039440107 0.38200003 4282587666
0.032308999 0.03933686 0.38100001 4282324494
0.033546485 0.03933686 0.38100001 4282323981
0.034692679 0.039233614 0.38000003 4282455567
0.035926919 0.039233614 0.38000003 4283242768
0.03716116 0.039233614 0.38000003 4284228632
0.038395401 0.039233614 0.38000003 4284686869
0.039733931 0.03933686 0.38100001 4284494107
0.040971417 0.03933686 0.38100001 4286216014
0.042208906 0.03933686 0.38100001 4282991905
0.043446396 0.03933686 0.38100001 4282268182
0.044683885 0.03933686 0.38100001 4283120924
0.045921374 0.03933686 0.38100001 4284162321
0.04715886 0.03933686 0.38100001 4284687382
0.0065042535 0.041746218 0.39200002 4286289286
0.0077576302 0.041639723 0.39100003 4286615423
0.00900451 0.041533228 0.39000002 4284296485
0.010271231 0.041533228 0.39000002 4285613633
0.011508367 0.041426733 0.38900003 4285087800
0.01277184 0.041426733 0.38900003 4283506456
0.014035312 0.041426733 0.38900003 4282587664
0.015298785 0.041426733 0.38900003 4282193676
0.016562259 0.041426733 0.38900003 4281537554
0.01782573 0.041426733 0.38900003 4285951334
0.01904013 0.041320235 0.38800001 4286353796
0.020300355 0.041320235 0.38800001 4285959038
0.02156058 0.041320235 0.38800001 4285828222
0.022761988 0.04121374 0.38700002 4285959808
0.024018966 0.04121374 0.38700002 4285959808
0.025210626 0.041107245 0.38600001 4285894015
0.026395798 0.04100075 0.38500002 4283391564
0.027574468 0.040894251 0.384 4281546273
0.028821699 0.040894251 0.384 4282195727
0.02999063 0.040787756 0.38300002 4283047186
0.031153062 0.040681265 0.38200003 4283375124
0.032308999 0.040574767 0.38100001 4283111182
0.033546485 0.040574767 0.38100001 4282717453
0.034783974 0.040574767 0.38100001 4282586381
0.036021464 0.040574767 0.38100001 4282456848
0.03716116 0.040468272 0.38000003 4282587918
0.038395401 0.040468272 0.38000003 4284425493
0.039629642 0.040468272 0.38000003 4284556050
0.040863883 0.040468272 0.38000003 4284696865
0.042098124 0.040468272 0.38000003 4285360953
0.043332364 0.040468272 0.38000003 4285624388
0.044566605 0.040468272 0.38000003 4282399766
0.045800846 0.040468272 0.38000003 4283969821
0.047035087 0.040468272 0.38000003 4284162323
0.0065042535 0.043019865 0.39200002 4286157954
0.0077576302 0.042910121 0.39100003 4284112205
0.0090275994 0.042910121 0.39100003 4283967522
0.010271231 0.042800374 0.39000002 4287918696
0.011537951 0.042800374 0.39000002 4284559911
0.012804672 0.042800374 0.39000002 4283505940
0.014035312 0.042690631 0.38900003 4282259469
0.015298785 0.042690631 0.38900003 4282194705
0.016562259 0.042690631 0.38900003 4284440663
0.01782573 0.042690631 0.38900003 4286353283
0.019089203 0.042690631 0.38900003 4286222210
0.020300355 0.042580888 0.38800001 4286157187
0.02156058 0.042580888 0.38800001 4286026114
0.022820804 0.042580888 0.38800001 4285828735
0.024018966 0.042471144 0.38700002 4285697149
0.025210626 0.042361397 0.38600001 4286289286
0.026395798 0.042251654 0.38500002 4280626462
0.027646277 0.042251654 0.38500002 4282663984
0.028821699 0.042141907 0.384 4282065170
0.02999063 0.042032164 0.38300002 4282720274
0.031153062 0.04192242 0.38200003 4283375124
0.032393802 0.04192242 0.38200003 4283439634
0.033546485 0.041812673 0.38100001 4283308048
0.034783974 0.041812673 0.38100001 4283176721
0.036021464 0.041812673 0.38100001 4282391055
0.037258953 0.041812673 0.38100001 4283447077
0.038395401 0.04170293 0.38000003 4282653196
0.039629642 0.04170293 0.38000003 4284031251
0.040863883 0.04170293 0.38000003 4284162060
0.042098124 0.04170293 0.38000003 4284498464
0.04321833 0.041593187 0.37900001 4283058459
0.044449326 0.041593187 0.37900001 4283584807
0.045680314 0.041593187 0.37900001 4283977001
0.04678753 0.041483443 0.37800002 4283244813
0.0065042535 0.044293512 0.39200002 4286880392
0.0077774702 0.044293512 0.39200002 4283383860
0.0090275994 0.04418052 0.39100003 4284233261
0.010297568 0.04418052 0.39100003 4285550146
0.011537951 0.044067524 0.39000002 4283637011
0.012804672 0.044067524 0.39000002 4282651401
0.014071392 0.044067524 0.39000002 4282128398
0.015338113 0.044067524 0.39000002 4282129945
0.016604833 0.044067524 0.39000002 4286615939
0.01782573 0.043954533 0.38900003 4286091648
0.019089203 0.043954533 0.38900003 4286091394
0.020352677 0.043954533 0.38900003 4286091394
0.02156058 0.043841537 0.38800001 4285894528
0.022820804 0.043841537 0.38800001 4285762942
0.024018966 0.043728545 0.38700002 4286683015
0.025210626 0.04361555 0.38600001 4281285938
0.026464358 0.04361555 0.38600001 4278979844
0.027646277 0.043502558 0.38500002 4279243016
0.028821699 0.043389563 0.384 4281544484
0.02999063 0.043276571 0.38300002 4279897862
0.031234615 0.043276571 0.38300002 4280750859
0.032393802 0.043163579 0.38200003 4282130713
0.033546485 0.043050583 0.38100001 4282850325
0.034783974 0.043050583 0.38100001 4283112211
0.036021464 0.043050583 0.38100001 4281865738
0.03716116 0.042937592 0.38000003 4281805078
0.038395401 0.042937592 0.38000003 4281869588
0.039629642 0.042937592 0.38000003 4283114262
0.040756345 0.042824596 0.37900001 4284358419
0.041876554 0.042711601 0.37800002 4283374091
0.043104298 0.042711601 0.37800002 4282399000
0.044332046 0.042711601 0.37800002 4282399514
0.045439258 0.042598605 0.377 4282530586
0.046663754 0.042598605 0.377 4284761902
0.047634203 0.042372622 0.37500003 4285081629
0.048852205 0.042372622 0.37500003 4285409822
0.0052443813 0.045683403 0.39300001 4286223493
0.0065208455 0.045683403 0.39300001 4287862922
0.0077774702 0.045567162 0.39200002 4283115809
0.0090506868 0.045567162 0.39200002 4283773735
0.010297568 0.045450918 0.39100003 4283575583
0.011567537 0.045450918 0.39100003 4283046672
0.012837506 0.045450918 0.39100003 4282258186
0.014071392 0.045334674 0.39000002 4281406222
0.015338113 0.045334674 0.39000002 4287267707
0.016604833 0.045334674 0.39000002 4286287744
0.017871555 0.045334674 0.39000002 4286288257
0.019089203 0.045218434 0.38900003 4285959808
0.020352677 0.045218434 0.38900003 4286157187
0.02156058 0.04510219 0.38800001 4285631356
0.022820804 0.04510219 0.38800001 4284182627
0.024018966 0.044985946 0.38700002 4279045642
0.025210626 0.044869702 0.38600001 4279308814
0.026395798 0.044753462 0.38500002 4279308814
0.027646277 0.044753462 0.38500002 4278848261
0.028821699 0.044637218 0.384 4278718980
0.02999063 0.044520974 0.38300002 4281942326
0.031234615 0.044520974 0.38300002 4280624672
0.032393802 0.044404734 0.38200003 4279044613
0.033634536 0.044404734 0.38200003 4280685066
0.034783974 0.04428849 0.38100001 4281998611
0.036021464 0.04428849 0.38100001 4281539339
0.03716116 0.04417225 0.38000003 4282990889
0.03829436 0.044056002 0.37900001 4280887056
0.039525352 0.044056002 0.37900001 4281607699
0.040648807 0.043939762 0.37800002 4284031253
0.041765768 0.043823518 0.377 4284096019
0.042990264 0.043823518 0.377 4282787346
0.044097483 0.043707278 0.37600002 4282001166
0.04531873 0.043707278 0.37600002 4284365862
0.046416204 0.043591034 0.37500003 4285545771
0.047507178 0.04347479 0.37400001 4286330924
0.048721932 0.04347479 0.37400001 4285804834
0.049936686 0.04347479 0.37400001 4285476639
0.0052443813 0.046960298 0.39300001 4286157700
0.0065208455 0.046960298 0.39300001 4284698439
0.0077774702 0.046840809 0.39200002 4283441180
0.0090506868 0.046840809 0.39200002 4285812545
0.010297568 0.046721317 0.39100003 4283770395
0.011567537 0.046721317 0.39100003 4282455819
0.012837506 0.046721317 0.39100003 4282127885
0.014107473 0.046721317 0.39100003 4280422925
0.015377442 0.046721317 0.39100003 4287141002
0.016604833 0.046601824 0.39000002 4286288003
0.017871555 0.046601824 0.39000002 4286288003
0.019089203 0.046482336 0.38900003 4286223234
0.020352677 0.046482336 0.38900003 4286157441
0.02156058 0.04636284 0.38800001 4284182368
0.022761988 0.046243351 0.38700002 4278914824
0.024018966 0.046243351 0.38700002 4279374607
0.025210626 0.046123855 0.38600001 4279243791
0.026395798 0.046004366 0.38500002 4279506963
0.027646277 0.046004366 0.38500002 4279243791
0.028821699 0.045884874 0.384 4282206781
0.02999063 0.045765381 0.38300002 4279771416
0.031234615 0.045765381 0.38300002 4281745725
0.032393802 0.045645893 0.38200003 4283325523
0.033546485 0.045526396 0.38100001 4279506188
0.034783974 0.045526396 0.38100001 4280095759
0.035926919 0.045406908 0.38000003 4280818700
0.03716116 0.045406908 0.38000003 4280425224
0.03829436 0.045287412 0.37900001 4280491530
0.039421067 0.045167923 0.37800002 4281017874
0.040541269 0.045048431 0.377 4283178256
0.041654985 0.044928938 0.37600002 4284096532
0.042876232 0.044928938 0.37600002 4284687384
0.043980204 0.044809449 0.37500003 4285148705
0.045198202 0.044809449 0.37500003 4285080341
0.046292424 0.044689953 0.37400001 4285540635
0.047507178 0.044689953 0.37400001 4285406996
0.048591658 0.044570465 0.37300003 4285275410
0.049803168 0.044570465 0.37300003 4285145107
0.051014666 0.044570465 0.37300003 4285277720
0.0052443813 0.048237197 0.39300001 4286814601
0.0065208455 0.048237197 0.39300001 4283638819
0.0077774702 0.048114456 0.39200002 4282980116
0.0090506868 0.048114456 0.39200002 4284890419
0.010323904 0.048114456 0.39200002 4282782733
0.011567537 0.047991715 0.39100003 4282258701
0.012837506 0.047991715 0.39100003 4282128400
0.014107473 0.047991715 0.39100003 4286019693
0.015377442 0.047991715 0.39100003 4286353283
0.016604833 0.047868975 0.39000002 4286288003
0.017871555 0.047868975 0.39000002 4286353796
0.019089203 0.047746234 0.38900003 4286026114
0.020300355 0.047623493 0.38800001 4286552458
0.02156058 0.047623493 0.38800001 4278915594
0.022761988 0.047500752 0.38700002 4279374607
0.0239569 0.047378011 0.38600001 4279243791
0.025210626 0.047378011 0.38600001 4278914826
0.026395798 0.04725527 0.38500002 4280297509
0.027646277 0.04725527 0.38500002 4282930512
0.028821699 0.047132526 0.384 4283260242
0.02999063 0.047009788 0.38300002 4281287222
0.031234615 0.047009788 0.38300002 4279179028
0.032393802 0.046887048 0.38200003 4278717964
0.033546485 0.046764307 0.38100001 4278849031
0.034783974 0.046764307 0.38100001 4281678384
0.035926919 0.046641566 0.38000003 4279966735
0.037063368 0.046518821 0.37900001 4280032010
0.038193323 0.046396084 0.37800002 4280096520
0.039421067 0.046396084 0.37800002 4280228106
0.040541269 0.04627334 0.377 4281933584
0.041654985 0.046150602 0.37600002 4283835157
0.042762201 0.046027862 0.37500003 4286987827
0.04386292 0.045905117 0.37400001 4285934621
0.045077674 0.045905117 0.37400001 4285736729
0.046168651 0.04578238 0.37300003 4289817689
0.047380153 0.04578238 0.37300003 4285800982
0.048591658 0.04578238 0.37300003 4285537812
0.049803168 0.04578238 0.37300003 4285078801
0.050877895 0.045659635 0.37200001 4284882451
0.0052443813 0.049514096 0.39300001 4284639837
0.0065208455 0.049514096 0.39300001 4284754472
0.0077774702 0.049388107 0.39200002 4285875521
0.0090506868 0.049388107 0.39200002 4283376669
0.010323904 0.049388107 0.39200002 4283111698
0.011567537 0.049262118 0.39100003 4282062092
0.012837506 0.049262118 0.39100003 4281405191
0.014107473 0.049262118 0.39100003 4287337865
0.015377442 0.049262118 0.39100003 4286222464
0.016604833 0.049136128 0.39000002 4286222210
0.017871555 0.049136128 0.39000002 4286222210
0.019089203 0.049010139 0.38900003 4285959808
0.020300355 0.048884146 0.38800001 4281156149
0.021505011 0.048758157 0.38700002 4279771416
0.022761988 0.048758157 0.38700002 4279047182
0.0239569 0.048632164 0.38600001 4279112722
0.025210626 0.048632164 0.38600001 4283259215
0.026395798 0.048506178 0.38500002 4283589979
0.027574468 0.048380185 0.384 4288001188
0.028821699 0.048380185 0.384 4284052576
0.02999063 0.048254196 0.38300002 4288722081
0.031153062 0.048128206 0.38200003 4289052583
0.032393802 0.048128206 0.38200003 4280168225
0.033546485 0.048002217 0.38100001 4282929221
0.034692679 0.047876228 0.38000003 4280364827
0.035926919 0.047876228 0.38000003 4278586113
0.037063368 0.047750235 0.37900001 4279835408
0.038193323 0.047624245 0.37800002 4279702534
0.039316773 0.047498256 0.377 4279768327
0.040433735 0.047372267 0.37600002 4280160770
0.041544203 0.047246277 0.37500003 4282653709
0.042648166 0.047120284 0.37400001 4285474070
0.04386292 0.047120284 0.37400001 4285670166
0.044957146 0.046994295 0.37300003 4285999131
0.046168651 0.046994295 0.37300003 4285474070
0.047253128 0.046868306 0.37200001 4285406996
0.048461385 0.046868306 0.37200001 4285340433
0.049669642 0.046868306 0.37200001 4284750865
0.050877895 0.046868306 0.37200001 4284422927
0.052086156 0.046868306 0.37200001 4283964433
0.0039679166 0.050790988 0.39300001 4287141769
0.0052443813 0.050790988 0.39300001 4283448883
0.0065042535 0.050661754 0.39200002 4285215275
0.0077774702 0.050661754 0.39200002 4286731340
0.0090506868 0.050661754 0.39200002 4283045907
0.010297568 0.050532516 0.39100003 4282914321
0.011567537 0.050532516 0.39100003 4281996301
0.012837506 0.050532516 0.39100003 4280878848
0.014107473 0.050532516 0.39100003 4287141765
0.015377442 0.050532516 0.39100003 4286090876
0.016604833 0.050403275 0.39000002 4286222464
0.017871555 0.050403275 0.39000002 4286222464
0.019089203 0.050274037 0.38900003 4287141767
0.020300355 0.050144795 0.38800001 4279246096
0.021505011 0.050015558 0.38700002 4280101664
0.022703171 0.049886316 0.38600001 4278982672
0.0239569 0.049886316 0.38600001 4280232737
0.025145316 0.049757078 0.38500002 4281483831
0.026395798 0.049757078 0.38500002 4281483058
0.027574468 0.049627837 0.384 4281810738
0.028746644 0.049498599 0.38300002 4284511583
0.02999063 0.049498599 0.38300002 4283985500
0.031153062 0.049369361 0.38200003 4285894265
0.032393802 0.049369361 0.38200003 4288657571
0.033546485 0.04924012 0.38100001 4279311119
0.034692679 0.049110882 0.38000003 4278652674
0.035926919 0.049110882 0.38000003 4278916361
0.037063368 0.04898164 0.37900001 4279507215
0.038193323 0.048852403 0.37800002 4279703047
0.039316773 0.048723161 0.377 4279636741
0.040433735 0.048593923 0.37600002 4279898630
0.041544203 0.048464689 0.37500003 4281867023
0.042648166 0.048335448 0.37400001 4284553743
0.043745644 0.04820621 0.37300003 4285079314
0.044957146 0.04820621 0.37300003 4285144594
0.046044871 0.048076969 0.37200001 4284815629
0.047253128 0.048076969 0.37200001 4285145107
0.048461385 0.048076969 0.37200001 4284684302
0.049669642 0.048076969 0.37200001 4284422159
0.050877895 0.048076969 0.37200001 4283765771
0.052086156 0.048076969 0.37200001 4283438862
0.0039578201 0.051935405 0.39200002 4286411623
0.0052310373 0.051935405 0.39200002 4285877316
0.0065042535 0.051935405 0.39200002 4286398520
0.0077774702 0.051935405 0.39200002 4287254856
0.0090275994 0.051802915 0.39100003 4284623654
0.010297568 0.051802915 0.39100003 4283045135
0.011567537 0.051802915 0.39100003 4282127115
0.012837506 0.051802915 0.39100003 4280944128
0.014107473 0.051802915 0.39100003 4287136373
0.015377442 0.051802915 0.39100003 4285690210
0.016604833 0.051670425 0.39000002 4283512881
0.01782573 0.051537938 0.38900003 4283180575
0.01904013 0.051405448 0.38800001 4283644465
0.020300355 0.051405448 0.38800001 4279372036
0.021505011 0.051272962 0.38700002 4278719500
0.022703171 0.051140472 0.38600001 4279047695
0.023894835 0.051007986 0.38500002 4281286706
0.025145316 0.051007986 0.38500002 4280167709
0.026327236 0.050875496 0.384 4287071834
0.027574468 0.050875496 0.384 4289966211
0.028746644 0.050743006 0.38300002 4281875236
0.02999063 0.050743006 0.38300002 4281812273
0.031153062 0.05061052 0.38200003 4282405185
0.032308999 0.05047803 0.38100001 4282865222
0.033546485 0.05047803 0.38100001 4282403388
0.034692679 0.050345544 0.38000003 4281547568
0.035832375 0.050213054 0.37900001 4278587912
0.037063368 0.050213054 0.37900001 4278981387
0.038193323 0.050080568 0.37800002 4279637000
0.039316773 0.049948078 0.377 4279505414
0.040433735 0.049815591 0.37600002 4279701764
0.041544203 0.049683105 0.37500003 4280751370
0.042648166 0.049550612 0.37400001 4284095247
0.043745644 0.049418125 0.37300003 4284816915
0.044836614 0.049285635 0.37200001 4285079060
0.046044871 0.049285635 0.37200001 4285013267
0.047253128 0.049285635 0.37200001 4284685331
0.048461385 0.049285635 0.37200001 4284028171
0.049669642 0.049285635 0.37200001 4283437319
0.050877895 0.049285635 0.37200001 4283240969
0.052086156 0.049285635 0.37200001 4282586635
0.0026846034 0.053209048 0.39200002 4286879109
0.0039578201 0.053209048 0.39200002 4286138691
0.0052310373 0.053209048 0.39200002 4286002481
0.0065042535 0.053209048 0.39200002 4285803814
0.0077576302 0.053073313 0.39100003 4285278240
0.0090275994 0.053073313 0.39100003 4284489755
0.010297568 0.053073313 0.39100003 4283110669
0.011567537 0.053073313 0.39100003 4282126600
0.012837506 0.053073313 0.39100003 4282192908
0.014107473 0.053073313 0.39100003 4283770143
0.015338113 0.052937571 0.39000002 4283966237
0.016604833 0.052937571 0.39000002 4284622111
0.01782573 0.052801836 0.38900003 4284752927
0.01904013 0.052666098 0.38800001 4284231208
0.020248035 0.052530363 0.38700002 4280224261
0.021449441 0.052394621 0.38600001 4279376658
0.022644356 0.052258886 0.38500002 4281351220
0.023894835 0.052258886 0.38500002 4280957225
0.025080003 0.052123148 0.384 4281087519
0.026327236 0.052123148 0.384 4282727701
0.02750266 0.05198741 0.38300002 4282989588
0.028746644 0.05198741 0.38300002 4283322162
0.029912326 0.051851675 0.38200003 4282008619
0.031153062 0.051851675 0.38200003 4282799943
0.032308999 0.051715937 0.38100001 4279640854
0.033546485 0.051715937 0.38100001 4282666560
0.034692679 0.051580202 0.38000003 4278916361
0.035832375 0.05144446 0.37900001 4279441938
0.037063368 0.05144446 0.37900001 4279375375
0.038193323 0.051308725 0.37800002 4279571209
0.039316773 0.051172987 0.377 4279571207
0.040433735 0.051037248 0.37600002 4279504901
0.041544203 0.050901514 0.37500003 4280489483
0.042648166 0.050765775 0.37400001 4283243020
0.043745644 0.050630037 0.37300003 4284161812
0.044836614 0.050494298 0.37200001 4284883480
0.046044871 0.050494298 0.37200001 4284685331
0.047253128 0.050494298 0.37200001 4283897870
0.048461385 0.050494298 0.37200001 4283175430
0.049669642 0.050494298 0.37200001 4282979083
0.050877895 0.050494298 0.37200001 4282650377
0.052086156 0.050494298 0.37200001 4282324492
0.0014113868 0.054482698 0.39200002 4286485382
0.0026846034 0.054482698 0.39200002 4284571216
0.0039578201 0.054482698 0.39200002 4285804330
0.0052310373 0.054482698 0.39200002 4285144857
0.006487661 0.054343715 0.39100003 4288963929
0.0077576302 0.054343715 0.39100003 4288305997
0.0090275994 0.054343715 0.39100003 4284555546
0.010297568 0.054343715 0.39100003 4282978059
0.011567537 0.054343715 0.39100003 4282323981
0.012837506 0.054343715 0.39100003 4282323981
0.014071392 0.054204725 0.39000002 4284294943
0.015338113 0.054204725 0.39000002 4284490525
0.016604833 0.054204725 0.39000002 4284818459
0.01782573 0.054065742 0.38900003 4284751896
0.01904013 0.053926751 0.38800001 4284032800
0.020248035 0.053787768 0.38700002 4280551683
0.021449441 0.053648777 0.38600001 4282337597
0.022644356 0.053509794 0.38500002 4281417526
0.02383277 0.053370804 0.384 4280627999
0.025080003 0.053370804 0.384 4280889370
0.026258677 0.05323182 0.38300002 4282005269
0.02750266 0.05323182 0.38300002 4281478412
0.028671589 0.053092834 0.38200003 4281347859
0.029912326 0.053092834 0.38200003 4280888341
0.031153062 0.053092834 0.38200003 4281417524
0.032308999 0.052953847 0.38100001 4279574037
0.033546485 0.052953847 0.38100001 4282271804
0.034692679 0.05281486 0.38000003 4278323457
0.035832375 0.052675873 0.37900001 4281088300
0.037063368 0.052675873 0.37900001 4278784262
0.038193323 0.052536886 0.37800002 4279637002
0.039316773 0.052397899 0.377 4279505414
0.040433735 0.052258916 0.37600002 4279439623
0.041544203 0.052119929 0.37500003 4281148183
0.042648166 0.051980942 0.37400001 4283375635
0.043745644 0.051841956 0.37300003 4283504655
0.044957146 0.051841956 0.37300003 4283635468
0.046044871 0.051702969 0.37200001 4283438600
0.047253128 0.051702969 0.37200001 4282783239
0.048461385 0.051702969 0.37200001 4282980364
0.049669642 0.051702969 0.37200001 4282717453
0.050877895 0.051702969 0.37200001 4282586383
0.052086156 0.051702969 0.37200001 4282457363
0.00013817011 0.055756349 0.39200002 4286355079
0.0014113868 0.055756349 0.39200002 4287536012
0.0026846034 0.055756349 0.39200002 4283578411
0.0039477237 0.055614114 0.39100003 4285935141
0.0052176928 0.055614114 0.39100003 4285211416
0.006487661 0.055614114 0.39100003 4285345053
0.0077576302 0.055614114 0.39100003 4285145880
0.00900451 0.055471878 0.39000002 4284621078
0.010271231 0.055471878 0.39000002 4283372557
0.011537951 0.055471878 0.39000002 4282586381
0.012804672 0.055471878 0.39000002 4282520590
0.014071392 0.055471878 0.39000002 4284096278
0.015338113 0.055471878 0.39000002 4284423701
0.016562259 0.055329643 0.38900003 4284554517
0.01782573 0.055329643 0.38900003 4284686103
0.01904013 0.055187404 0.38800001 4283967261
0.020248035 0.055045173 0.38700002 4280354304
0.021449441 0.054902934 0.38600001 4282139703
0.022644356 0.054760698 0.38500002 4280825128
0.02383277 0.054618463 0.384 4280824608
0.025014691 0.054476228 0.38300002 4280888598
0.026258677 0.054476228 0.38300002 4281545492
0.02750266 0.054476228 0.38300002 4281281037
0.028671589 0.054333996 0.38200003 4281611285
0.029912326 0.054333996 0.38200003 4281217304
0.031071508 0.054191757 0.38100001 4280364575
0.032308999 0.054191757 0.38100001 4279902743
0.033546485 0.054191757 0.38100001 4282009402
0.034692679 0.054049522 0.38000003 4278850314
0.035832375 0.053907286 0.37900001 4281417524
0.037063368 0.053907286 0.37900001 4279376658
0.038193323 0.053765051 0.37800002 4279571209
0.039316773 0.053622812 0.377 4279636487
0.040433735 0.05348058 0.37600002 4279636487
0.041544203 0.053338345 0.37500003 4280688146
0.042648166 0.053196106 0.37400001 4283572501
0.043745644 0.053053875 0.37300003 4283702034
0.044957146 0.053053875 0.37300003 4283307276
0.046168651 0.053053875 0.37300003 4283176973
0.047380153 0.053053875 0.37300003 4282717705
0.048591658 0.053053875 0.37300003 4282586121
0.049803168 0.053053875 0.37300003 4282455565
0.051014666 0.053053875 0.37300003 4282719250
0.052086156 0.052911635 0.37200001 4282852635
0.00013817011 0.057029992 0.39200002 4286289286
0.0014113868 0.057029992 0.39200002 4287204996
0.002677755 0.056884512 0.39100003 4284167983
0.0039477237 0.056884512 0.39100003 4285606176
0.0052176928 0.056884512 0.39100003 4285540635
0.006487661 0.056884512 0.39100003 4285145877
0.0077377893 0.056739025 0.39000002 4285014294
0.00900451 0.056739025 0.39000002 4284161040
0.010271231 0.056739025 0.39000002 4283570188
0.011537951 0.056739025 0.39000002 4282782733
0.012804672 0.056739025 0.39000002 4282651660
0.014071392 0.056739025 0.39000002 4283570448
0.015298785 0.056593541 0.38900003 4284358167
0.016562259 0.056593541 0.38900003 4284357906
0.017779905 0.056448054 0.38800001 4284357906
0.01904013 0.056448054 0.38800001 4283833622
0.020248035 0.05630257 0.38700002 4281274375
0.021449441 0.056157082 0.38600001 4281809966
0.022644356 0.056011602 0.38500002 4280033557
0.02383277 0.055866115 0.384 4281745710
0.025014691 0.055720631 0.38300002 4281482790
0.026258677 0.055720631 0.38300002 4281479445
0.027430853 0.055575147 0.38200003 4281939480
0.028671589 0.055575147 0.38200003 4281085200
0.029912326 0.055575147 0.38200003 4282468148
0.031071508 0.05542966 0.38100001 4281613870
0.032308999 0.05542966 0.38100001 4280363292
0.033546485 0.05542966 0.38100001 4279968795
0.034692679 0.05528418 0.38000003 4279508244
0.035926919 0.05528418 0.38000003 4278520585
0.037063368 0.055138692 0.37900001 4278914826
0.038193323 0.054993208 0.37800002 4279571209
0.039316773 0.054847721 0.377 4279702282
0.040433735 0.054702237 0.37600002 4280163085
0.041544203 0.054556757 0.37500003 4280754191
0.042648166 0.05441127 0.37400001 4283703571
0.04386292 0.05441127 0.37400001 4283570702
0.044957146 0.054265786 0.37300003 4282717959
0.046168651 0.054265786 0.37300003 4282719502
0.047380153 0.054265786 0.37300003 4282324744
0.048591658 0.054265786 0.37300003 4282522125
0.049803168 0.054265786 0.37300003 4282654481
0.051014666 0.054265786 0.37300003 4283115032
0.052086156 0.054120298 0.37200001 4282458129
0.00013817011 0.058303643 0.39200002 4286355081
0.0014077864 0.058154915 0.39100003 4287665293
0.002677755 0.058154915 0.39100003 4283378727
0.0039477237 0.058154915 0.39100003 4285279008
0.0052176928 0.058154915 0.39100003 4284949271
0.0064710681 0.058006175 0.39000002 4284686101
0.0077377893 0.058006175 0.39000002 4284160529
0.00900451 0.058006175 0.39000002 4284095249
0.010271231 0.058006175 0.39000002 4283767054
0.011537951 0.058006175 0.39000002 4283438862
0.012804672 0.058006175 0.39000002 4283176462
0.014035312 0.057857446 0.38900003 4283308046
0.015298785 0.057857446 0.38900003 4284030999
0.016562259 0.057857446 0.38900003 4284424730
0.017779905 0.057708707 0.38800001 4284556316
0.018991059 0.057559978 0.38700002 4284163616
0.020248035 0.057559978 0.38700002 4282523672
0.021449441 0.057411239 0.38600001 4279505934
0.022644356 0.05726251 0.38500002 4279374605
0.02383277 0.05711377 0.384 4280100635
0.025014691 0.056965042 0.38300002 4281745458
0.026258677 0.056965042 0.38300002 4281020702
0.027430853 0.05681631 0.38200003 4280822550
0.028671589 0.05681631 0.38200003 4281745195
0.029912326 0.05681631 0.38200003 4282272054
0.031153062 0.05681631 0.38200003 4280495130
0.032308999 0.056667574 0.38100001 4280954657
0.033546485 0.056667574 0.38100001 4279179020
0.034692679 0.056518842 0.38000003 4281482804
0.035926919 0.056518842 0.38000003 4281679413
0.037063368 0.056370106 0.37900001 4279243789
0.038193323 0.056221373 0.37800002 4279702797
0.039316773 0.056072637 0.377 4279899661
0.040433735 0.055923905 0.37600002 4280360462
0.041544203 0.055775173 0.37500003 4280885777
0.042648166 0.055626437 0.37400001 4284030999
0.04386292 0.055626437 0.37400001 4283044104
0.045077674 0.055626437 0.37400001 4281866508
0.046168651 0.055477705 0.37300003 4281145865
0.047507178 0.055626437 0.37400001 4281343759
0.048721932 0.055626437 0.37400001 4281737490
0.049936686 0.055626437 0.37400001 4281866510
0.051014666 0.055477705 0.37300003 4282062605
0.00013817011 0.05957729 0.39200002 4286486665
0.0014077864 0.059425309 0.39100003 4287405201
0.002677755 0.059425309 0.39100003 4282989363
0.0039477237 0.059425309 0.39100003 4285083687
0.0052043479 0.059273325 0.39000002 4284491550
0.0064710681 0.059273325 0.39000002 4284425243
0.0077377893 0.059273325 0.39000002 4283899413
0.0089814216 0.059121341 0.38900003 4283768081
0.010244895 0.059121341 0.38900003 4284030739
0.011508367 0.059121341 0.38900003 4283701774
0.01277184 0.059121341 0.38900003 4283504655
0.014035312 0.059121341 0.38900003 4283438862
0.015298785 0.059121341 0.38900003 4283964954
0.016519681 0.058969356 0.38800001 4283639589
0.017779905 0.058969356 0.38800001 4282852385
0.018991059 0.058817375 0.38700002 4282395168
0.020248035 0.058817375 0.38700002 4282595629
0.021449441 0.058665391 0.38600001 4279111952
0.022644356 0.05851341 0.38500002 4279506963
0.02383277 0.058361422 0.384 4279178768
0.025080003 0.058361422 0.384 4279047693
0.026258677 0.058209442 0.38300002 4282404156
0.02750266 0.058209442 0.38300002 4282337847
0.028671589 0.058057461 0.38200003 4281811503
0.029912326 0.058057461 0.38200003 4281350952
0.031153062 0.058057461 0.38200003 4280033555
0.032308999 0.057905477 0.38100001 4280297497
0.033546485 0.057905477 0.38100001 4280890921
0.034783974 0.057905477 0.38100001 4279706908
0.035926919 0.057753496 0.38000003 4278651652
0.037063368 0.057601511 0.37900001 4280162835
0.038193323 0.057449531 0.37800002 4280753425
0.039316773 0.057297543 0.377 4280293388
0.040433735 0.057145562 0.37600002 4280360462
0.041544203 0.056993581 0.37500003 4281476115
0.042762201 0.056993581 0.37500003 4283702804
0.04386292 0.056841597 0.37400001 4283110669
0.045077674 0.056841597 0.37400001 4281080074
0.046292424 0.056841597 0.37400001 4281083156
0.047507178 0.056841597 0.37400001 4280885777
0.048721932 0.056841597 0.37400001 4280885263
0.049936686 0.056841597 0.37400001 4281669133
0.051151432 0.056841597 0.37400001 4281865742
0.00013817011 0.060850941 0.39200002 4286289286
0.0014077864 0.060695712 0.39100003 4286289286
0.002677755 0.060695712 0.39100003 4285628790
0.0039376272 0.060540475 0.39000002 4283509540
0.0052043479 0.060540475 0.39000002 4284165415
0.0064710681 0.060540475 0.39000002 4283902241
0.0077179489 0.060385246 0.38900003 4283309590
0.0089814216 0.060385246 0.38900003 4283966489
0.010244895 0.060385246 0.38900003 4284491290
0.011508367 0.060385246 0.38900003 4284030226
0.01277184 0.060385246 0.38900003 4283766800
0.014035312 0.060385246 0.38900003 4283110669
0.015298785 0.060385246 0.38900003 4289168763
0.016519681 0.060230009 0.38800001 4286615937
0.017779905 0.060230009 0.38800001 4286485121
0.018991059 0.06007478 0.38700002 4286025083
0.020248035 0.06007478 0.38700002 4286090876
0.021449441 0.059919547 0.38600001 4286353283
0.022644356 0.059764318 0.38500002 4279245591
0.02383277 0.059609082 0.384 4279112724
0.025080003 0.059609082 0.384 4279112722
0.026258677 0.059453852 0.38300002 4279046410
0.02750266 0.059453852 0.38300002 4279244041
0.028746644 0.059453852 0.38300002 4279179018
0.029912326 0.059298623 0.38200003 4279046664
0.031153062 0.059298623 0.38200003 4278256896
0.032393802 0.059298623 0.38200003 4278981387
0.033546485 0.059143387 0.38100001 4280561956
0.034783974 0.059143387 0.38100001 4278982672
0.035926919 0.058988158 0.38000003 4279833100
0.037063368 0.058832921 0.37900001 4281735703
0.038193323 0.058677692 0.37800002 4282195477
0.039316773 0.058522459 0.377 4281606933
0.040433735 0.058367226 0.37600002 4281280531
0.041654985 0.058367226 0.37600002 4282460182
0.042762201 0.058211997 0.37500003 4283899667
0.04386292 0.058056764 0.37400001 4282914571
0.045077674 0.058056764 0.37400001 4281476880
0.046292424 0.058056764 0.37400001 4281017872
0.047507178 0.058056764 0.37400001 4281214738
0.048852205 0.058211997 0.37500003 4281081868
0.050070208 0.058211997 0.37500003 4281865740
0.0014077864 0.061966106 0.39100003 4286355079
0.002677755 0.061966106 0.39100003 4286420359
0.0039376272 0.061807621 0.39000002 4285888364
0.0052043479 0.061807621 0.39000002 4282527270
0.0064544762 0.061649144 0.38900003 4283510051
0.0077179489 0.061649144 0.38900003 4283312157
0.0089814216 0.061649144 0.38900003 4283376919
0.010244895 0.061649144 0.38900003 4284296478
0.011508367 0.061649144 0.38900003 4284358421
0.012739007 0.061490659 0.38800001 4284161042
0.013999231 0.061490659 0.38800001 4283964692
0.015259456 0.061490659 0.38800001 4287389524
0.016519681 0.061490659 0.38800001 4286024822
0.017779905 0.061490659 0.38800001 4286091644
0.018991059 0.061332181 0.38700002 4286091646
0.020248035 0.061332181 0.38700002 4286091646
0.021449441 0.061173696 0.38600001 4286091394
0.022644356 0.061015218 0.38500002 4285761661
0.023894835 0.061015218 0.38500002 4279573788
0.025080003 0.060856733 0.384 4279836445
0.026327236 0.060856733 0.384 4279244308
0.02750266 0.060698256 0.38300002 4280692518
0.028746644 0.060698256 0.38300002 4280298530
0.02999063 0.060698256 0.38300002 4280101151
0.031153062 0.060539775 0.38200003 4283194189
0.032393802 0.060539775 0.38200003 4281153323
0.033546485 0.060381293 0.38100001 4278783238
0.034783974 0.060381293 0.38100001 4279636750
0.035926919 0.060222812 0.38000003 4282522393
0.037063368 0.060064331 0.37900001 4287389272
0.03829436 0.060064331 0.37900001 4284493603
0.039421067 0.059905849 0.37800002 4283048467
0.040541269 0.059747368 0.377 4282394900
0.041654985 0.059588887 0.37600002 4283442196
0.042762201 0.059430409 0.37500003 4283702034
0.043980204 0.059430409 0.37500003 4282586633
0.045077674 0.059271924 0.37400001 4281346064
0.046416204 0.059430409 0.37500003 4281280785
0.047634203 0.059430409 0.37500003 4281214992
0.048852205 0.059430409 0.37500003 4281606670
0.050070208 0.059430409 0.37500003 4282391309
0.051424973 0.059588887 0.37600002 4282195473
0.0026709065 0.063074775 0.39000002 4286486665
0.0039376272 0.063074775 0.39000002 4286354566
0.0052043479 0.063074775 0.39000002 4287076490
0.0064544762 0.062913045 0.38900003 4284899157
0.0077179489 0.062913045 0.38900003 4284302395
0.0089814216 0.062913045 0.38900003 4282786840
0.010244895 0.062913045 0.38900003 4285286712
0.011478783 0.062751316 0.38800001 4284621593
0.012739007 0.062751316 0.38800001 4284423701
0.013999231 0.062751316 0.38800001 4284292628
0.015259456 0.062751316 0.38800001 4283898899
0.016519681 0.062751316 0.38800001 4287402625
0.017734082 0.062589586 0.38700002 4286222462
0.018991059 0.062589586 0.38700002 4285960062
0.020248035 0.062589586 0.38700002 4286223234
0.021449441 0.062427852 0.38600001 4286091648
0.022644356 0.062266126 0.38500002 4285960062
0.023894835 0.062266126 0.38500002 4286616709
0.025145316 0.062266126 0.38500002 4280036387
0.026327236 0.062104393 0.384 4279310616
0.027574468 0.062104393 0.384 4280955441
0.028746644 0.061942663 0.38300002 4282404170
0.02999063 0.061942663 0.38300002 4279179800
0.031153062 0.061780937 0.38200003 4279704859
0.032393802 0.061780937 0.38200003 4279309582
0.033634536 0.061780937 0.38200003 4280159753
0.034783974 0.061619204 0.38100001 4282653979
0.035926919 0.061457474 0.38000003 4284686871
0.037063368 0.06129574 0.37900001 4285014291
0.03829436 0.06129574 0.37900001 4285146650
0.039421067 0.061134014 0.37800002 4284294423
0.040541269 0.060972281 0.377 4284296476
0.041654985 0.060810551 0.37600002 4284228630
0.042762201 0.060648825 0.37500003 4283242507
0.043980204 0.060648825 0.37500003 4282326027
0.045198202 0.060648825 0.37500003 4281477650
0.046416204 0.060648825 0.37500003 4281346064
0.047634203 0.060648825 0.37500003 4281673746
0.048852205 0.060648825 0.37500003 4282523408
0.050203726 0.060810551 0.37600002 4282588688
0.051424973 0.060810551 0.37600002 4282261779
0.0051910039 0.064176947 0.38900003 4286354566
0.0064544762 0.064176947 0.38900003 4287668627
0.0077179489 0.064176947 0.38900003 4282334515
0.0089814216 0.064176947 0.38900003 4282392604
0.010218557 0.064011961 0.38800001 4282984221
0.011478783 0.064011961 0.38800001 4284491804
0.012739007 0.064011961 0.38800001 4284621080
0.013999231 0.064011961 0.38800001 4284621080
0.015259456 0.064011961 0.38800001 4284686103
0.016477104 0.063846983 0.38700002 4283771942
0.017734082 0.063846983 0.38700002 4287401601
0.018991059 0.063846983 0.38700002 4286090878
0.020248035 0.063846983 0.38700002 4286222464
0.021449441 0.063682005 0.38600001 4286157441
0.022703171 0.063682005 0.38600001 4286157441
0.023894835 0.063517027 0.38500002 4286091648
0.025145316 0.063517027 0.38500002 4285960062
0.026395798 0.063517027 0.38500002 4286748556
0.027574468 0.063352041 0.384 4284247658
0.028821699 0.063352041 0.384 4281615168
0.02999063 0.06318707 0.38300002 4281154617
0.031234615 0.06318707 0.38300002 4283653975
0.032393802 0.063022092 0.38200003 4280228626
0.033634536 0.063022092 0.38200003 4284428073
0.034783974 0.062857106 0.38100001 4284491036
