# .PCD v0.7 - Point Cloud Data file format
VERSION 0.7
FIELDS x y z rgb
SIZE 4 4 4 4
TYPE F F F U
COUNT 1 1 1 1
WIDTH 1046
HEIGHT 1
VIEWPOINT 0 0 0 1 0 0 0
POINTS 1046
DATA ascii
0.13460849 -0.0014823105 0.37300003 4279254553
0.13582 -0.0014823105 0.37300003 4279254553
0.13739887 -0.0014862844 0.37400001 4279254553
0.13861363 -0.0014862844 0.37400001 4279254553
0.13982838 -0.0014862844 0.37400001 4279582750
0.045797318 -0.00026822046 0.37 4284117088
0.047126103 -0.00026894541 0.37100002 4284117086
0.048461385 -0.00026967033 0.37200001 4284117856
0.049536124 -0.00026894541 0.37100002 4284249955
0.050741129 -0.00026894541 0.37100002 4283986785
0.060258206 -0.00026314604 0.36300001 4279382807
0.061267979 -0.00026242112 0.36200002 4279054355
0.062443756 -0.00026242112 0.36200002 4278595601
0.063443795 -0.0002616962 0.36100003 4278925336
0.064616323 -0.0002616962 0.36100003 4278531861
0.06578885 -0.0002616962 0.36100003 4278860826
0.066961378 -0.0002616962 0.36100003 4278991642
0.068322644 -0.00026242112 0.36200002 4279385889
0.069498412 -0.00026242112 0.36200002 4279385635
0.1158116 -0.00026894541 0.37100002 4278991894
0.11701661 -0.00026894541 0.37100002 4279123480
0.12477537 -0.00026749558 0.36900002 4279123480
0.12631528 -0.00026822046 0.37 4279123480
0.12751704 -0.00026822046 0.37 4279189273
0.12906669 -0.00026894541 0.37100002 4279123480
0.13062283 -0.00026967033 0.37200001 4279386652
0.13183109 -0.00026967033 0.37200001 4278992146
0.13339698 -0.00027039525 0.37300003 4279189525
0.13460849 -0.00027039525 0.37300003 4279123478
0.13582 -0.00027039525 0.37300003 4279189273
0.1370315 -0.00027039525 0.37300003 4279255066
0.13861363 -0.00027112017 0.37400001 4278926103
0.13982838 -0.00027112017 0.37400001 4279123482
0.14104314 -0.00027112017 0.37400001 4279386654
0.04447503 0.00093142322 0.36900002 4283919709
0.045797318 0.00093394733 0.37 4283986018
0.047126103 0.00093647157 0.37100002 4284117858
0.048461385 0.00093899574 0.37200001 4283986783
0.049536124 0.00093647157 0.37100002 4283986783
0.050741129 0.00093647157 0.37100002 4284184162
0.051946141 0.00093647157 0.37100002 4284315237
0.053007882 0.00093394733 0.37 4280826153
0.058219161 0.00092132646 0.36500001 4280694565
0.059241932 0.00091880228 0.36400002 4279775516
0.060258206 0.00091627805 0.36300001 4279251221
0.061437227 0.00091627805 0.36300001 4278988562
0.062443756 0.00091375393 0.36200002 4278595601
0.063619532 0.00091375393 0.36200002 4278530832
0.064795315 0.00091375393 0.36200002 4279715619
0.065971084 0.00091375393 0.36200002 4281361725
0.067146868 0.00091375393 0.36200002 4278465550
0.068322644 0.00091375393 0.36200002 4278795287
0.069498412 0.00091375393 0.36200002 4278729240
0.070674196 0.00091375393 0.36200002 4278663447
0.072048448 0.00091627805 0.36300001 4278795033
0.073227473 0.00091627805 0.36300001 4279058205
0.11189415 0.00093394733 0.37 4278795285
0.11340158 0.00093647157 0.37100002 4279255066
0.1146066 0.00093647157 0.37100002 4278991896
0.1158116 0.00093647157 0.37100002 4278991896
0.11701661 0.00093647157 0.37100002 4279123480
0.11822161 0.00093647157 0.37100002 4278926101
0.11942662 0.00093647157 0.37100002 4278926101
0.12030648 0.00093394733 0.37 4278728722
0.12150824 0.00093394733 0.37 4278728722
0.12271 0.00093394733 0.37 4278860308
0.12391175 0.00093394733 0.37 4278596623
0.12511352 0.00093394733 0.37 4278859795
0.12631528 0.00093394733 0.37 4279188760
0.12751704 0.00093394733 0.37 4278794002
0.12906669 0.00093647157 0.37100002 4278859795
0.13062283 0.00093899574 0.37200001 4278859795
0.13183109 0.00093899574 0.37200001 4278925586
0.13303934 0.00093899574 0.37200001 4278991379
0.13460849 0.00094151992 0.37300003 4278991381
0.13582 0.00094151992 0.37300003 4278991381
0.1370315 0.00094151992 0.37300003 4279188760
0.138243 0.00094151992 0.37300003 4278925588
0.13982838 0.00094404409 0.37400001 4279057174
0.14104314 0.00094404409 0.37400001 4279188760
0.043041959 0.0021187954 0.36700001 4284051293
0.044595558 0.0021361152 0.37 4283986018
0.045921095 0.0021418885 0.37100002 4284051811
0.047126103 0.0021418885 0.37100002 4283986531
0.048461385 0.0021476618 0.37200001 4284315750
0.049669642 0.0021476618 0.37200001 4284249957
0.050741129 0.0021418885 0.37100002 4284184164
0.051946141 0.0021418885 0.37100002 4284315750
0.053007882 0.0021361152 0.37 4284776301
0.058219161 0.0021072486 0.36500001 4279445783
0.059241932 0.0021014756 0.36400002 4279578650
0.060424209 0.0021014756 0.36400002 4279118865
0.061437227 0.0020957021 0.36300001 4279514906
0.062616251 0.0020957021 0.36300001 4278726673
0.063619532 0.0020899288 0.36200002 4278858773
0.064795315 0.0020899288 0.36200002 4278860310
0.065971084 0.0020899288 0.36200002 4278269456
0.067146868 0.0020899288 0.36200002 4278730007
0.068322644 0.0020899288 0.36200002 4278927386
0.069498412 0.0020899288 0.36200002 4278663960
0.070674196 0.0020899288 0.36200002 4278729753
0.071849972 0.0020899288 0.36200002 4278598167
0.073025748 0.0020899288 0.36200002 4278663960
0.083607741 0.0020899288 0.36200002 4279058459
0.084783509 0.0020899288 0.36200002 4278992666
0.086196743 0.0020957021 0.36300001 4279255838
0.087616481 0.0021014756 0.36400002 4279124252
0.089042693 0.0021072486 0.36500001 4278992666
0.090228222 0.0021072486 0.36500001 4278663701
0.091413736 0.0021072486 0.36500001 4278861080
0.092852958 0.0021130221 0.36600003 4278795287
0.094041727 0.0021130221 0.36600003 4278663701
0.095230497 0.0021130221 0.36600003 4278795287
0.096419267 0.0021130221 0.36600003 4278861080
0.097608037 0.0021130221 0.36600003 4278400527
0.098796807 0.0021130221 0.36600003 4278268941
0.10025875 0.0021187954 0.36700001 4278729492
0.10145077 0.0021187954 0.36700001 4278795285
0.10264279 0.0021187954 0.36700001 4278729492
0.10383481 0.0021187954 0.36700001 4278992664
0.105313 0.0021245687 0.36800003 4278795285
0.10650827 0.0021245687 0.36800003 4278991894
0.10770353 0.0021245687 0.36800003 4279780897
0.10919471 0.0021303419 0.36900002 4279254553
0.11039323 0.0021303419 0.36900002 4279057176
0.11189415 0.0021361152 0.37 4279057176
0.11309592 0.0021361152 0.37 4279188762
0.1146066 0.0021418885 0.37100002 4279254555
0.1158116 0.0021418885 0.37100002 4279254555
0.11701661 0.0021418885 0.37100002 4279254555
0.11822161 0.0021418885 0.37100002 4279188762
0.11942662 0.0021418885 0.37100002 4279254553
0.12030648 0.0021361152 0.37 4279188760
0.12150824 0.0021361152 0.37 4279188762
0.12271 0.0021361152 0.37 4279254555
0.12391175 0.0021361152 0.37 4279385371
0.12511352 0.0021361152 0.37 4279451164
0.12631528 0.0021361152 0.37 4279319576
0.12751704 0.0021361152 0.37 4279385369
0.12906669 0.0021418885 0.37100002 4279385369
0.1302717 0.0021418885 0.37100002 4279385369
0.13183109 0.0021476618 0.37200001 4279319576
0.13303934 0.0021476618 0.37200001 4279516955
0.1342476 0.0021476618 0.37200001 4279582748
0.13582 0.002153435 0.37300003 4279319578
0.1370315 0.002153435 0.37300003 4279319578
0.138243 0.002153435 0.37300003 4279648543
0.13945451 0.002153435 0.37300003 4279648543
0.14104314 0.0021592083 0.37400001 4280107813
0.04054714 0.0033021935 0.36600003 4280233241
0.04173591 0.0033021935 0.36600003 4280037409
0.043041959 0.0033112157 0.36700001 4283723613
0.044595558 0.0033382827 0.37 4283789666
0.045921095 0.0033473053 0.37100002 4284052324
0.047253128 0.0033563275 0.37200001 4284052326
0.048461385 0.0033563275 0.37200001 4283920738
0.049669642 0.0033563275 0.37200001 4284315750
0.050877895 0.0033563275 0.37200001 4284644715
0.051946141 0.0033473053 0.37100002 4284381543
0.053007882 0.0033382827 0.37 4284184164
0.05837867 0.0033021935 0.36600003 4279446553
0.059404682 0.0032931708 0.36500001 4279644443
0.060424209 0.0032841486 0.36400002 4279053844
0.061606478 0.0032841486 0.36400002 4279251221
0.062616251 0.003275126 0.36300001 4278726160
0.063795276 0.003275126 0.36300001 4278858259
0.064974301 0.003275126 0.36300001 4279254555
0.066153325 0.003275126 0.36300001 4278728211
0.06733235 0.003275126 0.36300001 4278399759
0.068511374 0.003275126 0.36300001 4278531345
0.069690399 0.003275126 0.36300001 4278202636
0.070674196 0.0032661038 0.36200002 4278400529
0.071849972 0.0032661038 0.36200002 4278531345
0.073025748 0.0032661038 0.36200002 4278728724
0.073996551 0.0032570816 0.36100003 4278860310
0.07496085 0.003248059 0.36000001 4278794517
0.075918667 0.0032390368 0.35900003 4278662931
0.07708469 0.0032390368 0.35900003 4278926103
0.078250729 0.0032390368 0.35900003 4278728724
0.079416759 0.0032390368 0.35900003 4278728724
0.080807254 0.003248059 0.36000001 4278333966
0.081976533 0.003248059 0.36000001 4278794517
0.08337678 0.0032570816 0.36100003 4278794517
0.084783509 0.0032661038 0.36200002 4278926103
0.086196743 0.003275126 0.36300001 4278860310
0.087616481 0.0032841486 0.36400002 4278991896
0.089042693 0.0032931708 0.36500001 4279057176
0.090228222 0.0032931708 0.36500001 4279057176
0.091413736 0.0032931708 0.36500001 4279254555
0.092852958 0.0033021935 0.36600003 4279254555
0.094041727 0.0033021935 0.36600003 4279188762
0.095230497 0.0033021935 0.36600003 4279188762
0.096419267 0.0033021935 0.36600003 4279057176
0.097608037 0.0033021935 0.36600003 4279254555
0.098796807 0.0033021935 0.36600003 4279254553
0.09998557 0.0033021935 0.36600003 4279188760
0.10145077 0.0033112157 0.36700001 4279188760
0.10264279 0.0033112157 0.36700001 4279320346
0.10383481 0.0033112157 0.36700001 4279254553
0.105313 0.0033202383 0.36800003 4279189273
0.10650827 0.0033202383 0.36800003 4279189273
0.10770353 0.0033202383 0.36800003 4279254553
0.10919471 0.0033292605 0.36900002 4279188762
0.11039323 0.0033292605 0.36900002 4279057176
0.11189415 0.0033382827 0.37 4279188762
0.11309592 0.0033382827 0.37 4279385371
0.11429767 0.0033382827 0.37 4279451164
0.1158116 0.0033473053 0.37100002 4279385371
0.11701661 0.0033473053 0.37100002 4279450650
0.11822161 0.0033473053 0.37100002 4279253271
0.11942662 0.0033473053 0.37100002 4279516443
0.12063164 0.0033473053 0.37100002 4279450650
0.12183665 0.0033473053 0.37100002 4279319064
0.12271 0.0033382827 0.37 4279844895
0.12391175 0.0033382827 0.37 4280040989
0.12511352 0.0033382827 0.37 4279777817
0.12665668 0.0033473053 0.37100002 4279251473
0.12786168 0.0033473053 0.37100002 4278988816
0.12906669 0.0033473053 0.37100002 4278395914
0.1302717 0.0033473053 0.37100002 4278593293
0.13183109 0.0033563275 0.37200001 4279646492
0.13303934 0.0033563275 0.37200001 4279515928
0.1342476 0.0033563275 0.37200001 4279647514
0.13545586 0.0033563275 0.37200001 4279647514
0.1370315 0.0033653502 0.37300003 4279779102
0.138243 0.0033653502 0.37300003 4279844895
0.13945451 0.0033653502 0.37300003 4280173608
0.14104314 0.0033743724 0.37400001 4280896048
0.043041959 0.0045036362 0.36700001 4283855199
0.04471609 0.0045527224 0.37100002 4283920738
0.046044871 0.0045649935 0.37200001 4284249703
0.047253128 0.0045649935 0.37200001 4284249705
0.048461385 0.0045649935 0.37200001 4284249705
0.049669642 0.0045649935 0.37200001 4284644461
0.050877895 0.0045649935 0.37200001 4284512875
0.051946141 0.0045527224 0.37100002 4284381289
0.053007882 0.0045404509 0.37 4284381289
0.054209646 0.0045404509 0.37 4284578155
0.055261642 0.0045281793 0.36900002 4280562729
0.05837867 0.004491365 0.36600003 4279578650
0.059404682 0.0044790935 0.36500001 4279184660
0.060590208 0.0044790935 0.36500001 4279317529
0.061606478 0.0044668219 0.36400002 4278988562
0.062788747 0.0044668219 0.36400002 4278857746
0.063971028 0.0044668219 0.36400002 4279120918
0.065153301 0.0044668219 0.36400002 4279056406
0.066153325 0.0044545503 0.36300001 4279188762
0.06733235 0.0044545503 0.36300001 4279912485
0.068511374 0.0044545503 0.36300001 4279386141
0.069690399 0.0044545503 0.36300001 4278925590
0.070869423 0.0044545503 0.36300001 4278991896
0.071849972 0.0044422788 0.36200002 4278860308
0.073025748 0.0044422788 0.36200002 4278926101
0.073996551 0.0044300077 0.36100003 4278991383
0.07496085 0.0044177361 0.36000001 4279057174
0.076130137 0.0044177361 0.36000001 4278991381
0.07708469 0.0044054645 0.35900003 4278859795
0.078250729 0.0044054645 0.35900003 4279057174
0.079637975 0.0044177361 0.36000001 4279386139
0.080807254 0.0044177361 0.36000001 4279122199
0.081976533 0.0044177361 0.36000001 4279385371
0.08337678 0.0044300077 0.36100003 4279056406
0.084783509 0.0044422788 0.36200002 4279187992
0.086196743 0.0044545503 0.36300001 4279187992
0.087616481 0.0044668219 0.36400002 4279319576
0.089042693 0.0044790935 0.36500001 4279385369
0.090228222 0.0044790935 0.36500001 4279187990
0.091413736 0.0044790935 0.36500001 4279187990
0.092599258 0.0044790935 0.36500001 4279319576
0.094041727 0.004491365 0.36600003 4279187990
0.095230497 0.004491365 0.36600003 4279319578
0.096419267 0.004491365 0.36600003 4279385369
0.097608037 0.004491365 0.36600003 4279385369
0.098796807 0.004491365 0.36600003 4279254553
0.09998557 0.004491365 0.36600003 4279188760
0.10145077 0.0045036362 0.36700001 4279319576
0.10264279 0.0045036362 0.36700001 4279319576
0.10383481 0.0045036362 0.36700001 4279451164
0.10502683 0.0045036362 0.36700001 4278990359
0.10650827 0.0045159082 0.36800003 4279121431
0.10770353 0.0045159082 0.36800003 4279581982
0.10919471 0.0045281793 0.36900002 4279251734
0.11039323 0.0045281793 0.36900002 4278856976
0.11189415 0.0045404509 0.37 4278396425
0.11309592 0.0045404509 0.37 4278396425
0.11429767 0.0045404509 0.37 4278198021
0.1158116 0.0045527224 0.37100002 4278198533
0.11701661 0.0045527224 0.37100002 4278460935
0.11822161 0.0045527224 0.37100002 4278329349
0.11942662 0.0045527224 0.37100002 4278987279
0.12063164 0.0045527224 0.37100002 4279513623
0.12183665 0.0045527224 0.37100002 4279711002
0.12304165 0.0045527224 0.37100002 4280369186
0.12424666 0.0045527224 0.37100002 4279842842
0.12545167 0.0045527224 0.37100002 4280040219
0.12665668 0.0045527224 0.37100002 4279975196
0.12786168 0.0045527224 0.37100002 4279777819
0.12906669 0.0045527224 0.37100002 4279843358
0.1302717 0.0045527224 0.37100002 4278328583
0.13183109 0.0045649935 0.37200001 4279974944
0.13303934 0.0045649935 0.37200001 4279909918
0.1342476 0.0045649935 0.37200001 4279844123
0.13545586 0.0045649935 0.37200001 4279713307
0.13666412 0.0045649935 0.37200001 4279976479
0.138243 0.0045772656 0.37300003 4280042274
0.13945451 0.0045772656 0.37300003 4280633387
0.046044871 0.0057736598 0.37200001 4284183910
0.047253128 0.0057736598 0.37200001 4283986531
0.048461385 0.0057736598 0.37200001 4284249705
0.049669642 0.0057736598 0.37200001 4284381291
0.050877895 0.0057736598 0.37200001 4284447082
0.051946141 0.0057581393 0.37100002 4284512875
0.053007882 0.0057426183 0.37 4284315496
0.054209646 0.0057426183 0.37 4284314983
0.055261642 0.0057270983 0.36900002 4283722330
0.057346158 0.0056960569 0.36700001 4279116305
0.058538172 0.0056960569 0.36700001 4279447832
0.05956744 0.0056805364 0.36600003 4279382039
0.06075621 0.0056805364 0.36600003 4279317014
0.061775722 0.0056650154 0.36500001 4279053842
0.062961243 0.0056650154 0.36500001 4278923793
0.064146765 0.0056650154 0.36500001 4279318551
0.065153301 0.0056494954 0.36400002 4279187992
0.066335566 0.0056494954 0.36400002 4279451934
0.067517839 0.0056494954 0.36400002 4279649059
0.06870012 0.0056494954 0.36400002 4279385371
0.069690399 0.0056339744 0.36300001 4279254555
0.070869423 0.0056339744 0.36300001 4278991383
0.071849972 0.005618454 0.36200002 4278991383
0.073025748 0.005618454 0.36200002 4279122199
0.073996551 0.0056029335 0.36100003 4279122199
0.07496085 0.005587413 0.36000001 4279122199
0.076130137 0.005587413 0.36000001 4278991383
0.077299409 0.005587413 0.36000001 4278991383
0.078468695 0.005587413 0.36000001 4278660367
0.079637975 0.005587413 0.36000001 4279185943
0.080807254 0.005587413 0.36000001 4278988562
0.082204252 0.0056029335 0.36100003 4279450650
0.083607741 0.005618454 0.36200002 4279319578
0.084783509 0.005618454 0.36200002 4279056406
0.086196743 0.0056339744 0.36300001 4279186711
0.087616481 0.0056494954 0.36400002 4279120918
0.088798746 0.0056494954 0.36400002 4279514906
0.090228222 0.0056650154 0.36500001 4279054355
0.091413736 0.0056650154 0.36500001 4278922256
0.092599258 0.0056650154 0.36500001 4278790670
0.094041727 0.0056805364 0.36600003 4278395914
0.095230497 0.0056805364 0.36600003 4278461707
0.096419267 0.0056805364 0.36600003 4278592523
0.097608037 0.0056805364 0.36600003 4278197765
0.098796807 0.0056805364 0.36600003 4278988562
0.09998557 0.0056805364 0.36600003 4278593804
0.10145077 0.0056960569 0.36700001 4278856463
0.10264279 0.0056960569 0.36700001 4279711774
0.10383481 0.0056960569 0.36700001 4279514395
0.10502683 0.0056960569 0.36700001 4280369704
0.10650827 0.0057115778 0.36800003 4279711774
0.10770353 0.0057115778 0.36800003 4280435497
0.10919471 0.0057270983 0.36900002 4279711772
0.11039323 0.0057270983 0.36900002 4279777565
0.11159174 0.0057270983 0.36900002 4279711772
0.11309592 0.0057426183 0.37 4280172323
0.11429767 0.0057426183 0.37 4279777565
0.1158116 0.0057581393 0.37100002 4279777565
0.11701661 0.0057581393 0.37100002 4279909151
0.11822161 0.0057581393 0.37100002 4279777565
0.11942662 0.0057581393 0.37100002 4279449113
0.12063164 0.0057581393 0.37100002 4279974944
0.12183665 0.0057581393 0.37100002 4279777565
0.12304165 0.0057581393 0.37100002 4279580186
0.12424666 0.0057581393 0.37100002 4279579670
0.12545167 0.0057581393 0.37100002 4278592775
0.12665668 0.0057581393 0.37100002 4279646744
0.12786168 0.0057581393 0.37100002 4279778330
0.12941457 0.0057736598 0.37200001 4279250453
0.13062283 0.0057736598 0.37200001 4279842590
0.13183109 0.0057736598 0.37200001 4279778848
0.13303934 0.0057736598 0.37200001 4279844895
0.1342476 0.0057736598 0.37200001 4279713305
0.13545586 0.0057736598 0.37200001 4279844891
0.13666412 0.0057736598 0.37200001 4279779613
0.138243 0.0057891808 0.37300003 4280305446
0.047253128 0.006982326 0.37200001 4284183910
0.048461385 0.006982326 0.37200001 4284315496
0.049669642 0.006982326 0.37200001 4284447082
0.050741129 0.0069635562 0.37100002 4284381289
0.051946141 0.0069635562 0.37100002 4284381803
0.053007882 0.0069447863 0.37 4284579182
0.054209646 0.0069447863 0.37 4284250217
0.055261642 0.0069260169 0.36900002 4285105266
0.057502419 0.0069072475 0.36800003 4279578137
0.058538172 0.0068884776 0.36700001 4279447832
0.059730191 0.0068884776 0.36700001 4279447830
0.06075621 0.0068697082 0.36600003 4279382807
0.061944973 0.0068697082 0.36600003 4278922769
0.063133746 0.0068697082 0.36600003 4279318551
0.064322516 0.0068697082 0.36600003 4279253271
0.065332286 0.0068509378 0.36500001 4279057176
0.066517808 0.0068509378 0.36500001 4279452447
0.067703329 0.0068509378 0.36500001 4279649059
0.06870012 0.0068321684 0.36400002 4279319324
0.069882385 0.0068321684 0.36400002 4278661648
0.070869423 0.0068133986 0.36300001 4279187992
0.072048448 0.0068133986 0.36300001 4279187992
0.073025748 0.0067946292 0.36200002 4279319578
0.074201524 0.0067946292 0.36200002 4279385371
0.075169079 0.0067758597 0.36100003 4279319578
0.076341607 0.0067758597 0.36100003 4279122199
0.077299409 0.0067570894 0.36000001 4279187992
0.078468695 0.0067570894 0.36000001 4279118865
0.079859197 0.0067758597 0.36100003 4279710490
0.081031717 0.0067758597 0.36100003 4279514906
0.082204252 0.0067758597 0.36100003 4278791183
0.083607741 0.0067946292 0.36200002 4278262790
0.085017718 0.0068133986 0.36300001 4278525451
0.086196743 0.0068133986 0.36300001 4278656269
0.087616481 0.0068321684 0.36400002 4278721549
0.089042693 0.0068509378 0.36500001 4278983951
0.090228222 0.0068509378 0.36500001 4278852363
0.091413736 0.0068509378 0.36500001 4279049742
0.092599258 0.0068509378 0.36500001 4279115535
0.094041727 0.0068697082 0.36600003 4279049742
0.095230497 0.0068697082 0.36600003 4278852363
0.096419267 0.0068697082 0.36600003 4279049742
0.097608037 0.0068697082 0.36600003 4279050512
0.098796807 0.0068697082 0.36600003 4279778078
0.09998557 0.0068697082 0.36600003 4279646492
0.10145077 0.0068884776 0.36700001 4279054355
0.10264279 0.0068884776 0.36700001 4278593293
0.10383481 0.0068884776 0.36700001 4278526476
0.105313 0.0069072475 0.36800003 4279974176
0.10650827 0.0069072475 0.36800003 4279118867
0.10770353 0.0069072475 0.36800003 4279447832
0.10919471 0.0069260169 0.36900002 4278921488
0.11039323 0.0069260169 0.36900002 4279250453
0.11189415 0.0069447863 0.37 4279580186
0.11309592 0.0069447863 0.37 4280040737
0.11429767 0.0069447863 0.37 4280236834
0.1158116 0.0069635562 0.37100002 4279315732
0.11701661 0.0069635562 0.37100002 4279052560
0.11822161 0.0069635562 0.37100002 4279249937
0.11942662 0.0069635562 0.37100002 4279645209
0.12063164 0.0069635562 0.37100002 4280368932
0.12183665 0.0069635562 0.37100002 4280039453
0.12304165 0.0069635562 0.37100002 4279710490
0.12424666 0.0069635562 0.37100002 4279644697
0.12578981 0.006982326 0.37200001 4279644695
0.12699807 0.006982326 0.37200001 4279777817
0.12820633 0.006982326 0.37200001 4279909403
0.12941457 0.006982326 0.37200001 4279118865
0.13062283 0.006982326 0.37200001 4279909151
0.13183109 0.006982326 0.37200001 4279843871
0.13303934 0.006982326 0.37200001 4279975711
0.1342476 0.006982326 0.37200001 4279976479
0.13545586 0.006982326 0.37200001 4279976479
0.13666412 0.006982326 0.37200001 4280435495
0.047253128 0.0081909914 0.37200001 4284381289
0.048331115 0.008168973 0.37100002 4284249703
0.049536124 0.008168973 0.37100002 4284315496
0.050741129 0.008168973 0.37100002 4284316010
0.051806122 0.0081469538 0.37 4284513389
0.053007882 0.0081469538 0.37 4284579182
0.054063134 0.0081249354 0.36900002 4284513389
0.055261642 0.0081249354 0.36900002 4284645229
0.056307152 0.0081029171 0.36800003 4280959020
0.057502419 0.0081029171 0.36800003 4279775770
0.058697678 0.0081029171 0.36800003 4279382039
0.059730191 0.0080808979 0.36700001 4279317016
0.060922209 0.0080808979 0.36700001 4279317527
0.06211422 0.0080808979 0.36700001 4279581469
0.063306242 0.0080808979 0.36700001 4279319064
0.064498261 0.0080808979 0.36700001 4279319578
0.065511286 0.0080588795 0.36600003 4279320348
0.066700049 0.0080588795 0.36600003 4279715619
0.067888819 0.0080588795 0.36600003 4279255068
0.068888851 0.0080368603 0.36500001 4279189275
0.070074365 0.0080368603 0.36500001 4278925590
0.071064658 0.0080148419 0.36400002 4278859797
0.072048448 0.0079928227 0.36300001 4279187992
0.073227473 0.0079928227 0.36300001 4279187992
0.074201524 0.0079708034 0.36200002 4279187992
0.0753773 0.0079708034 0.36200002 4279122199
0.076341607 0.0079487851 0.36100003 4279187992
0.077514134 0.0079487851 0.36100003 4279120918
0.078686662 0.0079487851 0.36100003 4278525449
0.079859197 0.0079487851 0.36100003 4279776281
0.081256181 0.0079708034 0.36200002 4279580440
0.082431957 0.0079708034 0.36200002 4278262790
0.083607741 0.0079708034 0.36200002 4278984719
0.085017718 0.0079928227 0.36300001 4279049744
0.0864342 0.0080148419 0.36400002 4279707674
0.087616481 0.0080148419 0.36400002 4279247123
0.089042693 0.0080368603 0.36500001 4279576088
0.090228222 0.0080368603 0.36500001 4279707672
0.091413736 0.0080368603 0.36500001 4279773463
0.092852958 0.0080588795 0.36600003 4279115533
0.094041727 0.0080588795 0.36600003 4279313682
0.095230497 0.0080588795 0.36600003 4279576856
0.096419267 0.0080588795 0.36600003 4279116303
0.097608037 0.0080588795 0.36600003 4280169504
0.098796807 0.0080588795 0.36600003 4279842588
0.10025875 0.0080808979 0.36700001 4279184658
0.10145077 0.0080808979 0.36700001 4278984719
0.10264279 0.0080808979 0.36700001 4279444502
0.10383481 0.0080808979 0.36700001 4278656267
0.105313 0.0081029171 0.36800003 4278854416
0.10650827 0.0081029171 0.36800003 4280105248
0.10770353 0.0081029171 0.36800003 4279053074
0.10919471 0.0081249354 0.36900002 4279973408
0.11039323 0.0081249354 0.36900002 4279118353
0.11189415 0.0081469538 0.37 4279447832
0.11309592 0.0081469538 0.37 4279514393
0.11429767 0.0081469538 0.37 4279580186
0.1158116 0.008168973 0.37100002 4279711772
0.11701661 0.008168973 0.37100002 4279974176
0.11822161 0.008168973 0.37100002 4279974174
0.11942662 0.008168973 0.37100002 4279842842
0.12063164 0.008168973 0.37100002 4279908635
0.12183665 0.008168973 0.37100002 4280303909
0.1233733 0.0081909914 0.37200001 4280632874
0.12458155 0.0081909914 0.37200001 4279842588
0.12578981 0.0081909914 0.37200001 4280303139
0.12699807 0.0081909914 0.37200001 4279382039
0.12820633 0.0081909914 0.37200001 4278789902
0.12941457 0.0081909914 0.37200001 4279974944
0.13062283 0.0081909914 0.37200001 4279975457
0.13183109 0.0081909914 0.37200001 4279976227
0.13303934 0.0081909914 0.37200001 4279976227
0.1342476 0.0081909914 0.37200001 4280238883
0.13545586 0.0081909914 0.37200001 4280171807
0.047253128 0.0093996571 0.37200001 4284316010
0.048331115 0.0093743894 0.37100002 4284250217
0.049402602 0.0093491217 0.37 4284316010
0.050604358 0.0093491217 0.37 4284513389
0.051806122 0.0093491217 0.37 4284381803
0.053007882 0.0093491217 0.37 4284381803
0.054063134 0.009323854 0.36900002 4284381803
0.055261642 0.009323854 0.36900002 4284381803
0.056460157 0.009323854 0.36900002 4285236339
0.057502419 0.0092985863 0.36800003 4279117586
0.058697678 0.0092985863 0.36800003 4279317016
0.059892945 0.0092985863 0.36800003 4279317529
0.061088212 0.0092985863 0.36800003 4279055125
0.062283471 0.0092985863 0.36800003 4279120918
0.063478738 0.0092985863 0.36800003 4279319064
0.064498261 0.0092733176 0.36700001 4279122199
0.065690279 0.0092733176 0.36700001 4279845922
0.06688229 0.0092733176 0.36700001 4279451934
0.067888819 0.0092480499 0.36600003 4279188762
0.069077589 0.0092480499 0.36600003 4278991383
0.070074365 0.0092227822 0.36500001 4279188762
0.071259893 0.0092227822 0.36500001 4279188762
0.072246931 0.0091975145 0.36400002 4278990613
0.073227473 0.0091722459 0.36300001 4279122199
0.074406497 0.0091722459 0.36300001 4279319064
0.0753773 0.0091469781 0.36200002 4279253271
0.076553077 0.0091469781 0.36200002 4279253271
0.077728853 0.0091469781 0.36200002 4278725392
0.078904629 0.0091469781 0.36200002 4279381525
0.080080412 0.0091469781 0.36200002 4279711772
0.081256181 0.0091469781 0.36200002 4279381523
0.082431957 0.0091469781 0.36200002 4278590474
0.083838694 0.0091722459 0.36300001 4279445783
0.085017718 0.0091722459 0.36300001 4279708955
0.0864342 0.0091975145 0.36400002 4279642649
0.087616481 0.0091975145 0.36400002 4280036637
0.089042693 0.0092227822 0.36500001 4279180816
0.090228222 0.0092227822 0.36500001 4279838746
0.091413736 0.0092227822 0.36500001 4278720779
0.092852958 0.0092480499 0.36600003 4279707674
0.094041727 0.0092480499 0.36600003 4279577371
0.095230497 0.0092480499 0.36600003 4279051025
0.096419267 0.0092480499 0.36600003 4279116818
0.097874723 0.0092733176 0.36700001 4280039455
0.099066742 0.0092733176 0.36700001 4280171553
0.10025875 0.0092733176 0.36700001 4279184146
0.10145077 0.0092733176 0.36700001 4279641881
0.10264279 0.0092733176 0.36700001 4280168225
0.10383481 0.0092733176 0.36700001 4280170787
0.105313 0.0092985863 0.36800003 4279841822
0.10650827 0.0092985863 0.36800003 4279841822
0.10770353 0.0092985863 0.36800003 4279973408
0.10919471 0.009323854 0.36900002 4279447578
0.11039323 0.009323854 0.36900002 4279052820
0.11189415 0.0093491217 0.37 4278789648
0.11309592 0.0093491217 0.37 4278658062
0.11429767 0.0093491217 0.37 4278197508
0.1158116 0.0093743894 0.37100002 4278197508
0.11701661 0.0093743894 0.37100002 4278723855
0.11822161 0.0093743894 0.37100002 4279052820
0.11942662 0.0093743894 0.37100002 4279513625
0.12063164 0.0093743894 0.37100002 4279579418
0.12183665 0.0093743894 0.37100002 4280303141
0.1233733 0.0093996571 0.37200001 4280829485
0.12458155 0.0093996571 0.37200001 4280763692
0.12578981 0.0093996571 0.37200001 4280171555
0.12699807 0.0093996571 0.37200001 4280500266
0.12820633 0.0093996571 0.37200001 4280039969
0.12941457 0.0093996571 0.37200001 4280171553
0.13062283 0.0093996571 0.37200001 4279645209
0.13183109 0.0093996571 0.37200001 4280434213
0.13303934 0.0093996571 0.37200001 4282079038
0.048200838 0.01055129 0.37 4284250219
0.049402602 0.01055129 0.37 4284250219
0.050604358 0.01055129 0.37 4284316012
0.051806122 0.01055129 0.37 4284579184
0.052864619 0.010522773 0.36900002 4284513391
0.054063134 0.010522773 0.36900002 4284579182
0.055261642 0.010522773 0.36900002 4284513389
0.056460157 0.010522773 0.36900002 4284381803
0.057658672 0.010522773 0.36900002 4282934097
0.05885718 0.010522773 0.36900002 4279513371
0.060055695 0.010522773 0.36900002 4279185943
0.061254211 0.010522773 0.36900002 4279317527
0.062452719 0.010522773 0.36900002 4279252504
0.063478738 0.010494256 0.36800003 4279318810
0.064674005 0.010494256 0.36800003 4279385371
0.065869272 0.010494256 0.36800003 4279715106
0.067064531 0.010494256 0.36800003 4279451934
0.068074308 0.010465739 0.36700001 4279320348
0.069266327 0.010465739 0.36700001 4279254555
0.070266359 0.010437222 0.36600003 4279187992
0.071259893 0.010408705 0.36500001 4279319064
0.072445415 0.010408705 0.36500001 4279516443
0.073429205 0.010380188 0.36400002 4279319064
0.074406497 0.010351671 0.36300001 4279187224
0.075585522 0.010351671 0.36300001 4279253017
0.076764546 0.010351671 0.36300001 4279120920
0.077943571 0.010351671 0.36300001 4278657548
0.079122595 0.010351671 0.36300001 4279447830
0.08030162 0.010351671 0.36300001 4279185941
0.081480645 0.010351671 0.36300001 4278787851
0.082659669 0.010351671 0.36300001 4279049742
0.083838694 0.010351671 0.36300001 4279049744
0.085251927 0.010380188 0.36400002 4278983951
0.0864342 0.010380188 0.36400002 4279312400
0.087857179 0.010408705 0.36500001 4279246605
0.089042693 0.010408705 0.36500001 4279180816
0.090228222 0.010408705 0.36500001 4279115023
0.091664188 0.010437222 0.36600003 4279180816
0.092852958 0.010437222 0.36600003 4278917644
0.094041727 0.010437222 0.36600003 4278852365
0.095230497 0.010437222 0.36600003 4279049744
0.096682705 0.010465739 0.36700001 4279710490
0.097874723 0.010465739 0.36700001 4278987281
0.099066742 0.010465739 0.36700001 4278526730
0.10025875 0.010465739 0.36700001 4278658316
0.10145077 0.010465739 0.36700001 4279644443
0.10264279 0.010465739 0.36700001 4279841822
0.10411774 0.010494256 0.36800003 4280631338
0.105313 0.010494256 0.36800003 4280104994
0.10650827 0.010494256 0.36800003 4280171041
0.1079962 0.010522773 0.36900002 4280368934
0.10919471 0.010522773 0.36900002 4280040739
0.11039323 0.010522773 0.36900002 4280172325
0.11189415 0.01055129 0.37 4279974946
0.11309592 0.01055129 0.37 4280172325
0.11429767 0.01055129 0.37 4280039967
0.1158116 0.010579807 0.37100002 4280171553
0.11701661 0.010579807 0.37100002 4280303139
0.11822161 0.010579807 0.37100002 4280368932
0.11942662 0.010579807 0.37100002 4279974174
0.12063164 0.010579807 0.37100002 4280895276
0.12183665 0.010579807 0.37100002 4280565284
0.12304165 0.010579807 0.37100002 4280960555
0.12458155 0.010608324 0.37200001 4282013507
0.12578981 0.010608324 0.37200001 4283395160
0.12699807 0.010608324 0.37200001 4285697401
0.12820633 0.010608324 0.37200001 4286617988
0.048200838 0.011753458 0.37 4284381291
0.049269084 0.011721692 0.36900002 4284316012
0.050467592 0.011721692 0.36900002 4284513391
0.051666107 0.011721692 0.36900002 4284513391
0.052864619 0.011721692 0.36900002 4284579184
0.054063134 0.011721692 0.36900002 4284579184
0.055261642 0.011721692 0.36900002 4284579184
0.056460157 0.011721692 0.36900002 4284644975
0.057658672 0.011721692 0.36900002 4284710768
0.05885718 0.011721692 0.36900002 4280631338
0.060055695 0.011721692 0.36900002 4279842590
0.061254211 0.011721692 0.36900002 4279120918
0.062452719 0.011721692 0.36900002 4279318810
0.063651234 0.011721692 0.36900002 4279516703
0.064849749 0.011721692 0.36900002 4279516703
0.066048265 0.011721692 0.36900002 4279649059
0.067064531 0.011689926 0.36800003 4279451680
0.068259798 0.011689926 0.36800003 4279188762
0.069266327 0.01165816 0.36700001 4278924820
0.070266359 0.011626394 0.36600003 4279450650
0.071455128 0.011626394 0.36600003 4279319064
0.072445415 0.011594627 0.36500001 4279450650
0.073630929 0.011594627 0.36500001 4279516443
0.074611478 0.011562862 0.36400002 4279581982
0.075793751 0.011562862 0.36400002 4279450396
0.076764546 0.011531095 0.36300001 4279382809
0.077943571 0.011531095 0.36300001 4279512857
0.079122595 0.011531095 0.36300001 4279777565
0.08030162 0.011531095 0.36300001 4279646492
0.081480645 0.011531095 0.36300001 4279644697
0.082887389 0.011562862 0.36400002 4279643930
0.084069662 0.011562862 0.36400002 4279708955
0.085251927 0.011562862 0.36400002 4280104483
0.0864342 0.011562862 0.36400002 4280236067
0.087857179 0.011594627 0.36500001 4280170528
0.089042693 0.011594627 0.36500001 4280302114
0.090228222 0.011594627 0.36500001 4280500006
0.091664188 0.011626394 0.36600003 4280236834
0.092852958 0.011626394 0.36600003 4280434213
0.094041727 0.011626394 0.36600003 4280368934
0.095490687 0.01165816 0.36700001 4280171553
0.096682705 0.01165816 0.36700001 4280040737
0.097874723 0.01165816 0.36700001 4280303909
0.099066742 0.01165816 0.36700001 4279974944
0.10025875 0.01165816 0.36700001 4280172323
0.10172721 0.011689926 0.36800003 4280172323
0.10292247 0.011689926 0.36800003 4280303909
0.10411774 0.011689926 0.36800003 4280303909
0.105313 0.011689926 0.36800003 4280303393
0.10650827 0.011689926 0.36800003 4280434465
0.1079962 0.011721692 0.36900002 4279974428
0.10919471 0.011721692 0.36900002 4280434725
0.11039323 0.011721692 0.36900002 4279974174
0.11189415 0.011753458 0.37 4280368934
0.11309592 0.011753458 0.37 4281947964
0.11429767 0.011753458 0.37 4283394383
0.1158116 0.011785224 0.37100002 4284447584
0.11701661 0.011785224 0.37100002 4285565813
0.11822161 0.011785224 0.37100002 4286092157
0.11942662 0.011785224 0.37100002 4286223230
0.12063164 0.011785224 0.37100002 4285894265
0.12183665 0.011785224 0.37100002 4286157437
0.12304165 0.011785224 0.37100002 4285827702
0.12424666 0.011785224 0.37100002 4286222464
0.12578981 0.011816991 0.37200001 4286288257
0.048070569 0.012920611 0.36900002 4284644463
0.049269084 0.012920611 0.36900002 4284710256
0.050467592 0.012920611 0.36900002 4284513391
0.051666107 0.012920611 0.36900002 4284710770
0.052864619 0.012920611 0.36900002 4284644977
0.054063134 0.012920611 0.36900002 4284644977
0.055261642 0.012920611 0.36900002 4284710770
0.056460157 0.012920611 0.36900002 4284776561
0.057658672 0.012920611 0.36900002 4284710254
0.05885718 0.012920611 0.36900002 4285039733
0.060055695 0.012920611 0.36900002 4280171305
0.061254211 0.012920611 0.36900002 4279120918
0.062452719 0.012920611 0.36900002 4279318810
0.063651234 0.012920611 0.36900002 4279516189
0.064849749 0.012920611 0.36900002 4279714852
0.066048265 0.012920611 0.36900002 4279451680
0.067246772 0.012920611 0.36900002 4279385887
0.068259798 0.012885596 0.36800003 4279385117
0.069266327 0.01285058 0.36700001 4279451164
0.070458338 0.01285058 0.36700001 4279319064
0.071455128 0.012815565 0.36600003 4279582236
0.072643898 0.012815565 0.36600003 4279582236
0.073630929 0.012780549 0.36500001 4279516189
0.074611478 0.012745535 0.36400002 4279516189
0.075793751 0.012745535 0.36400002 4278660882
0.076976024 0.012745535 0.36400002 4278856213
0.078158297 0.012745535 0.36400002 4279250199
0.07934057 0.012745535 0.36400002 4279778848
0.080522843 0.012745535 0.36400002 4279713055
0.081705116 0.012745535 0.36400002 4279713055
0.082887389 0.012745535 0.36400002 4279647262
0.084069662 0.012745535 0.36400002 4279975457
0.085251927 0.012745535 0.36400002 4279909664
0.086671658 0.012780549 0.36500001 4280107043
0.087857179 0.012780549 0.36500001 4280304422
0.089042693 0.012780549 0.36500001 4280172836
0.090475425 0.012815565 0.36600003 4280238629
0.091664188 0.012815565 0.36600003 4280172836
0.092852958 0.012815565 0.36600003 4280238116
0.094041727 0.012815565 0.36600003 4279646492
0.095490687 0.01285058 0.36700001 4279843873
0.096682705 0.01285058 0.36700001 4279712287
0.097874723 0.01285058 0.36700001 4279777313
0.099066742 0.01285058 0.36700001 4281026350
0.10053194 0.012885596 0.36800003 4281355315
0.10172721 0.012885596 0.36800003 4281947452
0.10292247 0.012885596 0.36800003 4283526484
0.10411774 0.012885596 0.36800003 4284842344
0.105313 0.012885596 0.36800003 4285828985
0.10650827 0.012885596 0.36800003 4286355333
0.1079962 0.012920611 0.36900002 4286289540
0.10919471 0.012920611 0.36900002 4286092161
0.11039323 0.012920611 0.36900002 4285565817
0.11189415 0.012955626 0.37 4285697403
0.11309592 0.012955626 0.37 4285696888
0.11429767 0.012955626 0.37 4285696888
0.11549944 0.012955626 0.37 4285894267
0.11670119 0.012955626 0.37 4285762681
0.11790295 0.012955626 0.37 4285762681
0.11942662 0.012990641 0.37100002 4285960060
0.12063164 0.012990641 0.37100002 4285960060
0.12183665 0.012990641 0.37100002 4286025083
0.12304165 0.012990641 0.37100002 4286485121
0.12424666 0.012990641 0.37100002 4286419330
0.048070569 0.014119529 0.36900002 4284316010
0.049269084 0.014119529 0.36900002 4284513389
0.050467592 0.014119529 0.36900002 4284710768
0.051666107 0.014119529 0.36900002 4284907633
0.052864619 0.014119529 0.36900002 4284841840
0.054063134 0.014119529 0.36900002 4284841840
0.055261642 0.014119529 0.36900002 4284710254
0.056460157 0.014119529 0.36900002 4284710768
0.057658672 0.014119529 0.36900002 4284644975
0.05885718 0.014119529 0.36900002 4284513389
0.060218446 0.014157793 0.37 4284513389
0.06142021 0.014157793 0.37 4283198299
0.062621966 0.014157793 0.37 4279777315
0.06382373 0.014157793 0.37 4279713570
0.065025486 0.014157793 0.37 4280043047
0.066048265 0.014119529 0.36900002 4279648289
0.067246772 0.014119529 0.36900002 4279385117
0.068259798 0.014081265 0.36800003 4279581982
0.069455065 0.014081265 0.36800003 4279581982
0.070458338 0.014043001 0.36700001 4279581982
0.071650356 0.014043001 0.36700001 4279252504
0.072643898 0.014004736 0.36600003 4279713568
0.073630929 0.013966472 0.36500001 4279779363
0.07481645 0.013966472 0.36500001 4279713057
0.075793751 0.013928208 0.36400002 4279843873
0.076976024 0.013928208 0.36400002 4279777567
0.078158297 0.013928208 0.36400002 4279514395
0.07934057 0.013928208 0.36400002 4279448348
0.080522843 0.013928208 0.36400002 4279448348
0.081705116 0.013928208 0.36400002 4279975207
0.082887389 0.013928208 0.36400002 4280896309
0.084069662 0.013928208 0.36400002 4282014790
0.085251927 0.013928208 0.36400002 4283330135
0.086671658 0.013966472 0.36500001 4283855963
0.087857179 0.013966472 0.36500001 4284777065
0.089286655 0.014004736 0.36600003 4285434227
0.090475425 0.014004736 0.36600003 4285303157
0.091664188 0.014004736 0.36600003 4285632894
0.092852958 0.014004736 0.36600003 4285369722
0.094298668 0.014043001 0.36700001 4285369722
0.095490687 0.014043001 0.36700001 4285566329
0.096682705 0.014043001 0.36700001 4285500536
0.097874723 0.014043001 0.36700001 4285632122
0.099066742 0.014043001 0.36700001 4285433716
0.10053194 0.014081265 0.36800003 4285762681
0.10172721 0.014081265 0.36800003 4285696890
0.10292247 0.014081265 0.36800003 4285696890
0.10411774 0.014081265 0.36800003 4285828476
0.105313 0.014081265 0.36800003 4285828476
0.11670119 0.014157793 0.37 4285894267
0.11790295 0.014157793 0.37 4285894267
0.11910471 0.014157793 0.37 4286090876
0.12063164 0.014196058 0.37100002 4286090878
0.12183665 0.014196058 0.37100002 4286551429
0.12304165 0.014196058 0.37100002 4286419330
0.048070569 0.015318448 0.36900002 4284513391
0.049269084 0.015318448 0.36900002 4284644977
0.050467592 0.015318448 0.36900002 4284381805
0.051666107 0.015318448 0.36900002 4284841840
0.052864619 0.015318448 0.36900002 4284776047
0.054063134 0.015318448 0.36900002 4284841840
0.055261642 0.015318448 0.36900002 4284644461
0.056460157 0.015318448 0.36900002 4284513389
0.057658672 0.015318448 0.36900002 4284513389
0.059016682 0.01535996 0.37 4284579182
0.060218446 0.01535996 0.37 4284381803
0.06142021 0.01535996 0.37 4284513389
0.062621966 0.01535996 0.37 4284710768
0.06382373 0.01535996 0.37 4284645227
0.065025486 0.01535996 0.37 4283659100
0.066048265 0.015318448 0.36900002 4282080581
0.067246772 0.015318448 0.36900002 4281488446
0.068445288 0.015318448 0.36900002 4281685312
0.069455065 0.015276935 0.36800003 4282145861
0.070458338 0.01523542 0.36700001 4283592791
0.071650356 0.01523542 0.36700001 4284382053
0.072643898 0.015193908 0.36600003 4284645227
0.073832661 0.015193908 0.36600003 4285040755
0.075021431 0.015193908 0.36600003 4285303927
0.076210201 0.015193908 0.36600003 4285106548
0.077398971 0.015193908 0.36600003 4285040755
0.078587733 0.015193908 0.36600003 4284843376
0.079776511 0.015193908 0.36600003 4284974192
0.080965281 0.015193908 0.36600003 4285105778
0.10053194 0.015276935 0.36800003 4285828476
0.10172721 0.015276935 0.36800003 4285696890
0.10292247 0.015276935 0.36800003 4285894269
0.048070569 0.016517365 0.36900002 4284513391
0.049269084 0.016517365 0.36900002 4284184426
0.050467592 0.016517365 0.36900002 4284381805
0.051666107 0.016517365 0.36900002 4284513389
0.052864619 0.016517365 0.36900002 4284579182
0.06142021 0.016562128 0.37 4284513389
0.062621966 0.016562128 0.37 4284513389
0.06382373 0.016562128 0.37 4284316010
0.065025486 0.016562128 0.37 4284579436
0.06622725 0.016562128 0.37 4284251241
0.067246772 0.016517365 0.36900002 4284382827
0.068445288 0.016517365 0.36900002 4284514413
0.069455065 0.016472604 0.36800003 4284579436
0.070458338 0.016427841 0.36700001 4284710508
0.071650356 0.016427841 0.36700001 4284907887
0.072842374 0.016427841 0.36700001 4284973680
0.074034385 0.016427841 0.36700001 4284907887
0.075226404 0.016427841 0.36700001 4284973680
0.076418422 0.016427841 0.36700001 4285105266
0.082265884 0.0048320014 0.36731386 4294967295
0.082265884 0.0048320014 0.36731386 4294901760
0.08231169 0.0043350919 0.36728251 4294901760
0.082357503 0.0038381824 0.36725116 4294901760
0.08240331 0.0033412729 0.36721984 4294901760
0.082449123 0.0028443637 0.36718848 4294901760
0.082494929 0.002347454 0.36715713 4294901760
0.082540736 0.0018505447 0.36712581 4294901760
0.082586549 0.001353635 0.36709446 4294901760
0.082632355 0.00085672596 0.36706311 4294901760
0.082678169 0.00035981601 0.36703175 4294901760
0.082723975 -0.00013709348 0.3670004 4294901760
0.082769781 -0.0006340025 0.36696908 4294901760
0.082815595 -0.001130912 0.36693773 4294901760
0.082861401 -0.0016278215 0.36690637 4294901760
0.082907215 -0.0021247314 0.36687505 4294901760
0.082953021 -0.0026216409 0.3668437 4294901760
0.082998827 -0.0031185495 0.36681235 4294901760
0.083044641 -0.0036154594 0.366781 4294901760
0.083090447 -0.0041123694 0.36674964 4294901760
0.083136261 -0.0046092784 0.36671832 4294901760
0.083182067 -0.0051061884 0.36668697 4294901760
0.083227873 -0.0056030974 0.36665562 4294901760
0.083273686 -0.0061000064 0.3666243 4294901760
0.083319493 -0.0065969164 0.36659294 4294901760
0.083365306 -0.0070938254 0.36656159 4294901760
0.083411112 -0.0075907353 0.36653024 4294901760
0.083456919 -0.0080876444 0.36649892 4294901760
0.083502732 -0.0085845552 0.36646757 4294901760
0.083548538 -0.0090814643 0.36643621 4294901760
0.083594352 -0.0095783724 0.36640486 4294901760
0.083640158 -0.010075283 0.36637351 4294901760
0.083685964 -0.010572192 0.36634219 4294901760
0.083731778 -0.0110691 0.36631083 4294901760
0.083777584 -0.011566011 0.36627948 4294901760
0.083823398 -0.01206292 0.36624813 4294901760
0.083869204 -0.012559829 0.36621681 4294901760
0.08391501 -0.01305674 0.36618546 4294901760
0.083960824 -0.013553649 0.3661541 4294901760
0.08400663 -0.014050558 0.36612278 4294901760
0.084052444 -0.014547467 0.36609143 4294901760
0.08409825 -0.015044378 0.36606008 4294901760
0.084144056 -0.015541287 0.36602873 4294901760
0.084189869 -0.016038196 0.36599737 4294901760
0.084235676 -0.016535107 0.36596605 4294901760
0.084281489 -0.017032014 0.3659347 4294901760
0.084327295 -0.017528923 0.36590335 4294901760
0.084373102 -0.018025834 0.36587203 4294901760
0.084418915 -0.018522743 0.36584067 4294901760
0.084464721 -0.019019652 0.36580932 4294901760
0.084510535 -0.019516563 0.36577797 4294901760
0.084556341 -0.020013472 0.36574662 4294901760
0.084602147 -0.020510381 0.3657153 4294901760
0.084647961 -0.02100729 0.36568394 4294901760
0.084693767 -0.021504199 0.36565259 4294901760
0.084739581 -0.022001112 0.36562124 4294901760
0.084785387 -0.022498021 0.36558992 4294901760
0.084831193 -0.02299493 0.36555856 4294901760
0.084877007 -0.023491837 0.36552721 4294901760
0.084922813 -0.023988746 0.36549586 4294901760
0.084968626 -0.024485655 0.36546454 4294901760
0.085014433 -0.024982568 0.36543319 4294901760
0.085060239 -0.025479477 0.36540183 4294901760
0.085106052 -0.025976386 0.36537051 4294901760
0.085151859 -0.026473293 0.36533916 4294901760
0.085197672 -0.026970202 0.36530781 4294901760
0.085243478 -0.027467111 0.36527646 4294901760
0.085289285 -0.027964024 0.3652451 4294901760
0.085335098 -0.028460933 0.36521378 4294901760
0.085380904 -0.028957842 0.36518243 4294901760
0.085426718 -0.029454751 0.36515108 4294901760
0.085472524 -0.02995166 0.36511976 4294901760
0.08551833 -0.030448569 0.3650884 4294901760
0.085564144 -0.030945482 0.36505705 4294901760
0.08560995 -0.031442389 0.3650257 4294901760
0.085655764 -0.031939298 0.36499435 4294901760
0.08570157 -0.032436207 0.36496302 4294901760
0.085747376 -0.032933116 0.36493167 4294901760
0.08579319 -0.033430025 0.36490032 4294901760
0.085838996 -0.033926934 0.364869 4294901760
0.085884809 -0.03442385 0.36483765 4294901760
0.085930616 -0.034920759 0.36480629 4294901760
0.085976422 -0.035417669 0.36477494 4294901760
0.086022235 -0.035914578 0.36474359 4294901760
0.086068042 -0.036411487 0.36471227 4294901760
0.086113855 -0.036908396 0.36468092 4294901760
0.086159661 -0.037405305 0.36464956 4294901760
0.086205468 -0.037902214 0.36461824 4294901760
0.086251281 -0.038399123 0.36458689 4294901760
0.086297087 -0.038896032 0.36455554 4294901760
0.086342901 -0.039392941 0.36452419 4294901760
0.086388707 -0.03988985 0.36449283 4294901760
0.086434513 -0.040386759 0.36446151 4294901760
0.086480327 -0.040883668 0.36443016 4294901760
0.086526133 -0.041380577 0.36439881 4294901760
0.086571947 -0.041877486 0.36436749 4294901760
0.086617753 -0.042374395 0.36433613 4294901760
0.086663559 -0.042871304 0.36430478 4294901760
0.086709373 -0.04336822 0.36427343 4294901760
0.086755179 -0.043865129 0.36424208 4294901760
0.086800992 -0.044362038 0.36421075 4294901760
0.086846799 -0.044858947 0.3641794 4294901760
0.082265884 0.0048320014 0.36731386 4278255360
0.082763322 0.004876331 0.36733809 4278255360
0.083260767 0.0049206601 0.36736232 4278255360
0.083758205 0.0049649896 0.36738658 4278255360
0.084255651 0.0050093192 0.36741081 4278255360
0.084753089 0.0050536483 0.36743504 4278255360
0.085250527 0.0050979778 0.36745927 4278255360
0.085747972 0.0051423074 0.3674835 4278255360
0.08624541 0.0051866365 0.36750776 4278255360
0.086742856 0.005230966 0.36753199 4278255360
0.087240294 0.0052752956 0.36755621 4278255360
0.087737732 0.0053196247 0.36758044 4278255360
0.088235177 0.0053639542 0.3676047 4278255360
0.088732615 0.0054082833 0.36762893 4278255360
0.089230061 0.0054526129 0.36765316 4278255360
0.089727499 0.0054969424 0.36767739 4278255360
0.090224937 0.0055412715 0.36770162 4278255360
0.090722382 0.0055856011 0.36772588 4278255360
0.09121982 0.0056299306 0.36775011 4278255360
0.091717266 0.0056742597 0.36777434 4278255360
0.092214704 0.0057185893 0.36779857 4278255360
0.092712142 0.0057629189 0.3678228 4278255360
0.093209587 0.0058072479 0.36784706 4278255360
0.093707025 0.0058515775 0.36787128 4278255360
0.094204471 0.0058959071 0.36789551 4278255360
0.094701909 0.0059402362 0.36791974 4278255360
0.095199347 0.0059845657 0.36794397 4278255360
0.095696792 0.0060288953 0.36796823 4278255360
0.09619423 0.0060732244 0.36799246 4278255360
0.096691668 0.0061175539 0.36801669 4278255360
0.097189113 0.0061618835 0.36804092 4278255360
0.097686552 0.0062062126 0.36806518 4278255360
0.098183997 0.0062505421 0.36808941 4278255360
0.098681435 0.0062948717 0.36811364 4278255360
0.09917888 0.0063392008 0.36813787 4278255360
0.099676318 0.0063835303 0.3681621 4278255360
0.10017376 0.0064278599 0.36818635 4278255360
0.1006712 0.006472189 0.36821058 4278255360
0.10116864 0.0065165185 0.36823481 4278255360
0.10166608 0.0065608481 0.36825904 4278255360
