# .PCD v0.7 - Point Cloud Data file format
VERSION 0.7
FIELDS x y z rgb
SIZE 4 4 4 4
TYPE F F F U
COUNT 1 1 1 1
WIDTH 1026
HEIGHT 1
VIEWPOINT 0 0 0 1 0 0 0
POINTS 1026
DATA ascii
0.021949936 0.016772283 0.47900003 4284107315
0.023505729 0.016772283 0.47900003 4284370228
0.02506152 0.016772283 0.47900003 4282917905
0.026617315 0.016772283 0.47900003 4284296478
-0.012354402 0.018443396 0.48200002 4286815371
-0.010788865 0.018443396 0.48200002 4284826425
-0.009204193 0.018405132 0.48100004 4283901466
-0.0076419036 0.018405132 0.48100004 4284490523
-0.0060669756 0.018366868 0.48000002 4284358937
-0.0045079347 0.018366868 0.48000002 4284029972
-0.0029488937 0.018366868 0.48000002 4283504655
-0.001389853 0.018366868 0.48000002 4283899413
0.0001691879 0.018366868 0.48000002 4283045387
0.0017318293 0.018405132 0.48100004 4282586635
0.003294118 0.018405132 0.48100004 4282126854
0.0048564067 0.018405132 0.48100004 4282131217
0.0064186961 0.018405132 0.48100004 4283711530
0.0079643913 0.018366868 0.48000002 4284372022
0.0095234327 0.018366868 0.48000002 4284832575
0.011059386 0.018328603 0.47900003 4282261270
0.012615179 0.018328603 0.47900003 4282128400
0.014170972 0.018328603 0.47900003 4282127885
0.015693931 0.018290337 0.47800002 4282390287
0.017246475 0.018290337 0.47800002 4283047956
0.01883835 0.018328603 0.47900003 4283638809
0.020394143 0.018328603 0.47900003 4283771929
0.021949936 0.018328603 0.47900003 4284041259
0.023505729 0.018328603 0.47900003 4283583788
0.02511384 0.018366868 0.48000002 4283977262
0.026672881 0.018366868 0.48000002 4282916622
-0.013977698 0.020092489 0.48400003 4285763196
-0.012380033 0.020050975 0.48300001 4285365870
-0.010788865 0.020009462 0.48200002 4283574561
-0.009223328 0.020009462 0.48200002 4283574046
-0.0076419036 0.019967949 0.48100004 4283573016
-0.0060796151 0.019967949 0.48100004 4283375637
-0.0045079347 0.019926436 0.48000002 4283112465
-0.0029488937 0.019926436 0.48000002 4282587405
-0.001389853 0.019926436 0.48000002 4282390539
0.0001691879 0.019926436 0.48000002 4281929734
0.0017318293 0.019967949 0.48100004 4283645739
0.003294118 0.019967949 0.48100004 4283910960
0.0048564067 0.019967949 0.48100004 4283452204
0.0064186961 0.019967949 0.48100004 4283781680
0.0079809846 0.019967949 0.48100004 4283585838
0.0095234327 0.019926436 0.48000002 4284374841
0.011082474 0.019926436 0.48000002 4281538056
0.012615179 0.019884923 0.47900003 4281997326
0.014170972 0.019884923 0.47900003 4281996814
0.015726766 0.019884923 0.47900003 4282062607
0.017282557 0.019884923 0.47900003 4282259471
0.01883835 0.019884923 0.47900003 4282521873
0.020394143 0.019884923 0.47900003 4283966741
0.021995761 0.019926436 0.48000002 4284165142
0.023554802 0.019926436 0.48000002 4283648551
0.02511384 0.019926436 0.48000002 4283649321
0.026672881 0.019926436 0.48000002 4284238124
-0.015613986 0.02175458 0.48600003 4285828735
-0.014006577 0.021709817 0.48500001 4285828222
-0.012405665 0.021665055 0.48400003 4282599482
-0.010811249 0.021620292 0.48300001 4283047706
-0.009223328 0.021575529 0.48200002 4286276185
-0.007657791 0.021575529 0.48200002 4282456850
-0.0060796151 0.021530768 0.48100004 4283179288
-0.0045173266 0.021530768 0.48100004 4282587664
-0.0029488937 0.021486005 0.48000002 4282127883
-0.001389853 0.021486005 0.48000002 4281538826
0.0001691879 0.021486005 0.48000002 4283318571
0.0017318293 0.021530768 0.48100004 4283320620
0.003294118 0.021530768 0.48100004 4283386411
0.0048564067 0.021530768 0.48100004 4283452717
0.0064186961 0.021530768 0.48100004 4283452715
0.0079809846 0.021530768 0.48100004 4283650348
0.0095432736 0.021530768 0.48100004 4282136342
0.011082474 0.021486005 0.48000002 4282589199
0.012641515 0.021486005 0.48000002 4282784784
0.014200556 0.021486005 0.48000002 4282717967
0.015726766 0.021441242 0.47900003 4282455565
0.017282557 0.021441242 0.47900003 4282325777
0.01883835 0.021441242 0.47900003 4282852635
0.020436719 0.021486005 0.48000002 4282324233
0.021995761 0.021486005 0.48000002 4283835157
0.023554802 0.021486005 0.48000002 4283839003
0.025166161 0.021530768 0.48100004 4283844393
0.026728451 0.021530768 0.48100004 4283122725
0.028349556 0.021575529 0.48200002 4283645989
-0.015613986 0.023333644 0.48600003 4285828735
-0.014006577 0.023285633 0.48500001 4286550146
-0.012405665 0.023237621 0.48400003 4283186483
-0.010833632 0.023237621 0.48400003 4285158990
-0.0092424639 0.02318961 0.48300001 4286283890
-0.007657791 0.023141598 0.48200002 4284235058
-0.0060922545 0.023141598 0.48200002 4283244311
-0.0045173266 0.023093587 0.48100004 4282193678
-0.0029488937 0.023045575 0.48000002 4281603340
-0.001389853 0.023045575 0.48000002 4282136094
0.00016954038 0.023093587 0.48100004 4282663719
0.0017318293 0.023093587 0.48100004 4282729764
0.003294118 0.023093587 0.48100004 4283256108
0.0048665032 0.023141598 0.48200002 4283190313
0.0064320406 0.023141598 0.48200002 4283716657
0.0079809846 0.023093587 0.48100004 4284571448
0.0095432736 0.023093587 0.48100004 4281672713
0.011105563 0.023093587 0.48100004 4282852371
0.012641515 0.023045575 0.48000002 4282785297
0.014200556 0.023045575 0.48000002 4283046672
0.015759597 0.023045575 0.48000002 4282915086
0.017318636 0.023045575 0.48000002 4281997064
0.018877678 0.023045575 0.48000002 4283843632
0.020436719 0.023045575 0.48000002 4282461211
0.021995761 0.023045575 0.48000002 4282259469
0.023554802 0.023045575 0.48000002 4284032023
0.025166161 0.023093587 0.48100004 4284627751
0.026728451 0.023093587 0.48100004 4283320104
0.028290741 0.023093587 0.48100004 4283254311
0.029853029 0.023093587 0.48100004 4283572753
-0.018848291 0.025015229 0.48800004 4285828989
-0.017263265 0.025015229 0.48800004 4285763196
-0.015646113 0.024963968 0.48700002 4285763196
-0.014035458 0.024912708 0.48600003 4287533957
-0.012431297 0.024861448 0.48500001 4282985254
-0.010833632 0.024810188 0.48400003 4286942074
-0.0092424639 0.024758926 0.48300001 4287008637
-0.0076736785 0.024758926 0.48300001 4284100390
-0.0060922545 0.024707666 0.48200002 4282323981
-0.0045267181 0.024707666 0.48200002 4281077257
-0.0029611809 0.024707666 0.48200002 4281937951
-0.001389853 0.024605144 0.48000002 4282334756
0.00016954038 0.024656406 0.48100004 4282795305
0.0017318293 0.024656406 0.48100004 4282992166
0.0033009665 0.024707666 0.48200002 4282663971
0.0048665032 0.024707666 0.48200002 4283059244
0.0064320406 0.024707666 0.48200002 4279440896
0.0079975771 0.024707666 0.48200002 4279176704
0.0095432736 0.024656406 0.48100004 4280886554
0.011105563 0.024656406 0.48100004 4281411101
0.012667852 0.024656406 0.48100004 4280028165
0.014200556 0.024605144 0.48000002 4281473037
0.015759597 0.024605144 0.48000002 4282457363
0.017318636 0.024605144 0.48000002 4281407494
0.018877678 0.024605144 0.48000002 4282530336
0.020436719 0.024605144 0.48000002 4281743130
0.021995761 0.024605144 0.48000002 4281805332
0.023554802 0.024605144 0.48000002 4283243536
0.02511384 0.024605144 0.48000002 4284032536
0.026672881 0.024605144 0.48000002 4283843882
0.028231923 0.024605144 0.48000002 4283384612
0.029790964 0.024605144 0.48000002 4284889638
0.031284694 0.024553884 0.47900003 4286137649
0.032840487 0.024553884 0.47900003 4285940016
-0.018848291 0.026600791 0.48800004 4285828989
-0.017263265 0.026600791 0.48800004 4285828989
-0.015646113 0.026546281 0.48700002 4285828989
-0.014035458 0.026491772 0.48600003 4283975999
-0.012431297 0.02643726 0.48500001 4283051815
-0.010833632 0.026382752 0.48400003 4286351220
-0.0092424639 0.026328241 0.48300001 4282135590
-0.0076736785 0.026328241 0.48300001 4282849555
-0.006104894 0.026328241 0.48300001 4282192397
-0.0045267181 0.026273731 0.48200002 4286347886
-0.0029673243 0.026328241 0.48300001 4281085727
-0.0013985395 0.026328241 0.48300001 4282466853
0.00016989285 0.026273731 0.48200002 4282795559
0.0017354296 0.026273731 0.48200002 4282795559
0.0033009665 0.026273731 0.48200002 4280427272
0.0048665032 0.026273731 0.48200002 4279506438
0.0064320406 0.026273731 0.48200002 4279243273
0.0079975771 0.026273731 0.48200002 4279309836
0.0095432736 0.026219223 0.48100004 4282336060
0.011105563 0.026219223 0.48100004 4281942074
0.012667852 0.026219223 0.48100004 4282337345
0.01423014 0.026219223 0.48100004 4280624669
0.015792429 0.026219223 0.48100004 4279898378
0.017354717 0.026219223 0.48100004 4281346074
0.018877678 0.026164712 0.48000002 4281019159
0.020436719 0.026164712 0.48000002 4281019155
0.021995761 0.026164712 0.48000002 4281282068
0.023554802 0.026164712 0.48000002 4282128396
0.02511384 0.026164712 0.48000002 4283638296
0.026672881 0.026164712 0.48000002 4283834642
0.028173108 0.026110204 0.47900003 4284887841
0.029728901 0.026110204 0.47900003 4285213213
0.031284694 0.026110204 0.47900003 4285409306
0.032840487 0.026110204 0.47900003 4285606428
0.034324467 0.026055692 0.47800002 4285476639
0.035877012 0.026055692 0.47800002 4284562476
-0.018848291 0.028186353 0.48800004 4285828735
-0.01722789 0.028128594 0.48700002 4285763196
-0.015646113 0.028128594 0.48700002 4286485634
-0.014035458 0.028070835 0.48600003 4283181602
-0.012431297 0.028013075 0.48500001 4287723631
-0.010833632 0.027955318 0.48400003 4287271809
-0.0092615997 0.027955318 0.48400003 4283052067
-0.0076736785 0.027897557 0.48300001 4282323981
-0.006104894 0.027897557 0.48300001 4281010179
-0.0045361095 0.027897557 0.48300001 4286549630
-0.0029673243 0.027897557 0.48300001 4281350439
-0.0013985395 0.027897557 0.48300001 4282270244
0.00016989285 0.027839798 0.48200002 4282533670
0.0017354296 0.027839798 0.48200002 4280361997
0.0033009665 0.027839798 0.48200002 4279374598
0.0048665032 0.027839798 0.48200002 4279308812
0.0064320406 0.027839798 0.48200002 4279046410
0.0079975771 0.027839798 0.48200002 4278850316
0.0095631136 0.027839798 0.48200002 4279640349
0.011105563 0.027782042 0.48100004 4278587663
0.012667852 0.027782042 0.48100004 4278455307
0.01423014 0.027782042 0.48100004 4279902491
0.015792429 0.027782042 0.48100004 4278979847
0.017354717 0.027782042 0.48100004 4278848256
0.018917007 0.027782042 0.48100004 4280756251
0.020436719 0.027724281 0.48000002 4280821780
0.021995761 0.027724281 0.48000002 4280558608
0.023554802 0.027724281 0.48000002 4281409039
0.02506152 0.027666522 0.47900003 4282455565
0.026617315 0.027666522 0.47900003 4284687384
0.028173108 0.027666522 0.47900003 4285409822
0.029666835 0.027608763 0.47800002 4286593580
0.031219378 0.027608763 0.47800002 4286791727
0.032771926 0.027608763 0.47800002 4285342486
0.034324467 0.027608763 0.47800002 4285080084
0.035877012 0.027608763 0.47800002 4284493087
-0.018809667 0.029710906 0.48700002 4285762942
-0.01722789 0.029710906 0.48700002 4285697149
-0.015613986 0.029649898 0.48600003 4284244307
-0.014006577 0.029588889 0.48500001 4283771942
-0.012431297 0.029588889 0.48500001 4288055676
-0.010833632 0.029527882 0.48400003 4286084455
-0.0092424639 0.029466873 0.48300001 4282917149
-0.0076736785 0.029466873 0.48300001 4282127633
-0.006104894 0.029466873 0.48300001 4285224015
-0.0045361095 0.029466873 0.48300001 4286221181
-0.0029673243 0.029466873 0.48300001 4281679402
-0.0013985395 0.029466873 0.48300001 4282533416
0.00016989285 0.029405866 0.48200002 4282994221
0.0017354296 0.029405866 0.48200002 4280362004
0.0033009665 0.029405866 0.48200002 4279178250
0.0048665032 0.029405866 0.48200002 4278849031
0.0064320406 0.029405866 0.48200002 4283192652
0.0079975771 0.029405866 0.48200002 4286088046
0.0095631136 0.029405866 0.48200002 4289904281
0.011105563 0.029344859 0.48100004 4286155134
0.012667852 0.029344859 0.48100004 4286353796
0.01423014 0.029344859 0.48100004 4278719247
0.015792429 0.029344859 0.48100004 4280823593
0.017354717 0.029344859 0.48100004 4281284142
0.018917007 0.029344859 0.48100004 4279573008
0.020479295 0.029344859 0.48100004 4280559383
0.021995761 0.02928385 0.48000002 4280296209
0.023554802 0.02928385 0.48000002 4280622605
0.02506152 0.029222842 0.47900003 4281800717
0.026561745 0.029161833 0.47800002 4284752664
0.028114289 0.029161833 0.47800002 4285343256
0.02960477 0.029100826 0.47700003 4285343256
0.031154066 0.029100826 0.47700003 4285738271
0.032703366 0.029100826 0.47700003 4285014291
0.034252662 0.029100826 0.47700003 4284686099
0.035801958 0.029100826 0.47700003 4284162585
-0.018809667 0.031293221 0.48700002 4285762942
-0.017192515 0.031228963 0.48600003 4287535240
-0.015613986 0.031228963 0.48600003 4283773739
-0.014006577 0.031164706 0.48500001 4285679937
-0.012405665 0.031100448 0.48400003 4287202164
-0.010833632 0.031100448 0.48400003 4283646262
-0.0092424639 0.031036191 0.48300001 4283047706
-0.0076736785 0.031036191 0.48300001 4281931283
-0.006104894 0.031036191 0.48300001 4287594875
-0.0045361095 0.031036191 0.48300001 4286155388
-0.0029673243 0.031036191 0.48300001 4282138161
-0.001395644 0.030971935 0.48200002 4282203170
0.00016989285 0.030971935 0.48200002 4280558091
0.0017354296 0.030971935 0.48200002 4280494106
0.0033009665 0.030971935 0.48200002 4280100122
0.0048665032 0.030971935 0.48200002 4281284655
0.0064320406 0.030971935 0.48200002 4281812796
0.0079975771 0.030971935 0.48200002 4281285929
0.0095631136 0.030971935 0.48200002 4282600758
0.011105563 0.030907677 0.48100004 4282207040
0.012667852 0.030907677 0.48100004 4283523414
0.01423014 0.030907677 0.48100004 4286485121
0.015792429 0.030907677 0.48100004 4278325255
0.017354717 0.030907677 0.48100004 4281153069
0.018917007 0.030907677 0.48100004 4279179279
0.020479295 0.030907677 0.48100004 4279244039
0.021995761 0.03084342 0.48000002 4280099602
0.023505729 0.030779164 0.47900003 4280097805
0.0250092 0.030714905 0.47800002 4281146382
0.026561745 0.030714905 0.47800002 4283766800
0.028055474 0.030650649 0.47700003 4284554513
0.029542705 0.030586392 0.47600001 4284948244
0.031088753 0.030586392 0.47600001 4284948244
0.032634802 0.030586392 0.47600001 4284422929
0.03418085 0.030586392 0.47600001 4283897870
0.035801958 0.030650649 0.47700003 4282717969
-0.018771045 0.032808028 0.48600003 4285631356
-0.017192515 0.032808028 0.48600003 4284436802
-0.015581857 0.032740518 0.48500001 4286271043
-0.014006577 0.032740518 0.48500001 4285610285
-0.012405665 0.032673012 0.48400003 4289100140
-0.010811249 0.032605506 0.48300001 4284559657
-0.0092424639 0.032605506 0.48300001 4282980627
-0.0076736785 0.032605506 0.48300001 4282061840
-0.006104894 0.032605506 0.48300001 4286867041
-0.0045361095 0.032605506 0.48300001 4287597694
-0.0029611809 0.032538 0.48200002 4288781196
-0.001395644 0.032538 0.48200002 4287067750
0.00016989285 0.032538 0.48200002 4280686862
0.0017354296 0.032538 0.48200002 4281152040
0.0033009665 0.032538 0.48200002 4279112975
0.0048665032 0.032538 0.48200002 4282469953
0.0064320406 0.032538 0.48200002 4280759333
0.0079975771 0.032538 0.48200002 4286349144
0.0095432736 0.032470495 0.48100004 4283717163
0.011105563 0.032470495 0.48100004 4280560923
0.012667852 0.032470495 0.48100004 4281746743
0.01423014 0.032470495 0.48100004 4280036125
0.015792429 0.032470495 0.48100004 4279773467
0.017354717 0.032470495 0.48100004 4281088046
0.018917007 0.032470495 0.48100004 4279048463
0.020479295 0.032470495 0.48100004 4279112457
0.021995761 0.032402989 0.48000002 4280164371
0.023505729 0.032335483 0.47900003 4280032782
0.0250092 0.032267977 0.47800002 4280688144
0.026506176 0.032200471 0.47700003 4283242768
0.027996656 0.032132965 0.47600001 4283569934
0.029542705 0.032132965 0.47600001 4284751892
0.031088753 0.032132965 0.47600001 4284751892
0.032634802 0.032132965 0.47600001 4284030739
0.03418085 0.032132965 0.47600001 4283111182
0.035726897 0.032132965 0.47600001 4282655004
-0.020307701 0.034316335 0.48500001 4285828735
-0.018732419 0.034316335 0.48500001 4285827193
-0.017157139 0.034316335 0.48500001 4285088568
-0.015549731 0.03424558 0.48400003 4285346599
-0.013977698 0.03424558 0.48400003 4285212445
-0.012380033 0.034174822 0.48300001 4285936170
-0.010811249 0.034174822 0.48300001 4285411109
-0.0092424639 0.034174822 0.48300001 4283702036
-0.0076736785 0.034174822 0.48300001 4282586381
-0.0060922545 0.034104068 0.48200002 4282915348
-0.0045267181 0.034104068 0.48200002 4284031521
-0.0029611809 0.034104068 0.48200002 4284030751
-0.001395644 0.034104068 0.48200002 4283901214
0.00016989285 0.034104068 0.48200002 4280550400
0.0017354296 0.034104068 0.48200002 4280756512
0.0033009665 0.034104068 0.48200002 4278914824
0.0048665032 0.034104068 0.48200002 4282535746
0.0064320406 0.034104068 0.48200002 4280626462
0.0079975771 0.034104068 0.48200002 4281282068
0.0095432736 0.034033313 0.48100004 4281742101
0.011105563 0.034033313 0.48100004 4280954132
0.012667852 0.034033313 0.48100004 4282666812
0.01423014 0.034033313 0.48100004 4279180816
0.015792429 0.034033313 0.48100004 4280299297
0.017354717 0.034033313 0.48100004 4279968282
0.018917007 0.034033313 0.48100004 4280165661
0.020436719 0.033962559 0.48000002 4280033559
0.021995761 0.033962559 0.48000002 4280098578
0.023505729 0.033891805 0.47900003 4279966989
0.0250092 0.033821046 0.47800002 4280293899
0.026506176 0.033750292 0.47700003 4283309590
0.027996656 0.033679534 0.47600001 4283242255
0.029542705 0.033679534 0.47600001 4283504655
0.031023441 0.033608783 0.47500002 4283242766
0.032566246 0.033608783 0.47500002 4282980879
0.034109045 0.033608783 0.47500002 4282784530
0.035726897 0.033679534 0.47600001 4282461223
-0.020265831 0.035818145 0.48400003 4285959808
-0.018693797 0.035818145 0.48400003 4284442973
-0.017121764 0.035818145 0.48400003 4284887339
-0.015549731 0.035818145 0.48400003 4285344033
-0.013948818 0.035744138 0.48300001 4289687654
-0.012380033 0.035744138 0.48300001 4285015838
-0.010811249 0.035744138 0.48300001 4285212443
-0.009223328 0.035670135 0.48200002 4283504395
-0.007657791 0.035670135 0.48200002 4282651914
-0.0060922545 0.035670135 0.48200002 4283572503
-0.0045267181 0.035670135 0.48200002 4284424732
-0.0029611809 0.035670135 0.48200002 4284423449
-0.001395644 0.035670135 0.48200002 4284096280
0.00016989285 0.035670135 0.48200002 4280877824
0.0017354296 0.035670135 0.48200002 4281415212
0.0033009665 0.035670135 0.48200002 4278257664
0.0048665032 0.035670135 0.48200002 4282404160
0.0064320406 0.035670135 0.48200002 4280560671
0.0079975771 0.035670135 0.48200002 4281479193
0.0095432736 0.035596132 0.48100004 4281084435
0.011105563 0.035596132 0.48100004 4280493585
0.012667852 0.035596132 0.48100004 4282403386
0.01423014 0.035596132 0.48100004 4279641365
0.015792429 0.035596132 0.48100004 4279442705
0.017354717 0.035596132 0.48100004 4281679413
0.018917007 0.035596132 0.48100004 4281153323
0.020436719 0.035522126 0.48000002 4279836178
0.021995761 0.035522126 0.48000002 4280099348
0.023505729 0.035448123 0.47900003 4279966735
0.0250092 0.035374116 0.47800002 4280556560
0.026506176 0.035300113 0.47700003 4283703319
0.027996656 0.035226107 0.47600001 4283571218
0.029480642 0.035152104 0.47500002 4282717707
0.031023441 0.035152104 0.47500002 4282587151
0.032566246 0.035152104 0.47500002 4282523154
0.034109045 0.035152104 0.47500002 4283643436
-0.020265831 0.037390709 0.48400003 4286090878
-0.018693797 0.037390709 0.48400003 4283651400
-0.017086387 0.037313454 0.48300001 4285214761
-0.015517603 0.037313454 0.48300001 4285409826
-0.013948818 0.037313454 0.48300001 4286395951
-0.012380033 0.037313454 0.48300001 4285146652
-0.010788865 0.037236203 0.48200002 4284423699
-0.009223328 0.037236203 0.48200002 4283767054
-0.007657791 0.037236203 0.48200002 4283045389
-0.0060922545 0.037236203 0.48200002 4283505940
-0.0045267181 0.037236203 0.48200002 4284226581
-0.0029611809 0.037236203 0.48200002 4284291861
-0.001395644 0.037236203 0.48200002 4284161558
0.00016989285 0.037236203 0.48200002 4282192395
0.0017354296 0.037236203 0.48200002 4281085475
0.0033009665 0.037236203 0.48200002 4279047180
0.0048665032 0.037236203 0.48200002 4281942837
0.0064320406 0.037236203 0.48200002 4281153319
0.0079975771 0.037236203 0.48200002 4281743648
0.0095432736 0.037158951 0.48100004 4281348120
0.011105563 0.037158951 0.48100004 4280559381
0.012667852 0.037158951 0.48100004 4282468666
0.01423014 0.037158951 0.48100004 4280889636
0.015792429 0.037158951 0.48100004 4278389765
0.017354717 0.037158951 0.48100004 4281350448
0.018917007 0.037158951 0.48100004 4278718215
0.020436719 0.037081696 0.48000002 4280361752
0.021949936 0.037004441 0.47900003 4280164371
0.023456655 0.036927186 0.47800002 4280360975
0.02495688 0.036849935 0.47700003 4281541910
0.026506176 0.036849935 0.47700003 4283637524
0.027996656 0.03677268 0.47600001 4283769110
0.029480642 0.036695428 0.47500002 4282590998
0.031023441 0.036695428 0.47500002 4282461465
0.032566246 0.036695428 0.47500002 4281670412
0.034109045 0.036695428 0.47500002 4281933586
0.035576787 0.036618177 0.47400004 4283453768
-0.020223958 0.03888277 0.48300001 4286024831
-0.018655173 0.03888277 0.48300001 4283388232
-0.017086387 0.03888277 0.48300001 4284097823
-0.015517603 0.03888277 0.48300001 4284885794
-0.013919939 0.03880227 0.48200002 4284818459
-0.012354402 0.03880227 0.48200002 4284357908
-0.010788865 0.03880227 0.48200002 4284030226
-0.009223328 0.03880227 0.48200002 4283701520
-0.007657791 0.03880227 0.48200002 4283373069
-0.0060922545 0.03880227 0.48200002 4283504655
-0.0045267181 0.03880227 0.48200002 4284030485
-0.0029611809 0.03880227 0.48200002 4284096278
-0.0013985395 0.03888277 0.48300001 4283899415
0.00017024532 0.03888277 0.48300001 4283639069
0.0017390301 0.03888277 0.48300001 4279505164
0.0033009665 0.03880227 0.48200002 4279112203
0.0048665032 0.03880227 0.48200002 4278914824
0.0064320406 0.03880227 0.48200002 4281547568
0.0079975771 0.03880227 0.48200002 4282008367
0.0095631136 0.03880227 0.48200002 4281350437
0.011105563 0.038721766 0.48100004 4281482536
0.012667852 0.038721766 0.48100004 4281679917
0.01423014 0.038721766 0.48100004 4279705364
0.015792429 0.038721766 0.48100004 4281942839
0.017354717 0.038721766 0.48100004 4280955690
0.018877678 0.038641263 0.48000002 4278915078
0.020436719 0.038641263 0.48000002 4280295700
0.021949936 0.038560763 0.47900003 4280362004
0.023456655 0.038480259 0.47800002 4280952851
0.02495688 0.038399756 0.47700003 4282065170
0.026506176 0.038399756 0.47700003 4284032536
0.027996656 0.038319252 0.47600001 4283310096
0.029542705 0.038319252 0.47600001 4281871638
0.031023441 0.038238753 0.47500002 4281675029
0.032566246 0.038238753 0.47500002 4281539343
0.034109045 0.038238753 0.47500002 4281671193
-0.020182086 0.040368337 0.48200002 4285959810
-0.01861655 0.040368337 0.48200002 4286155134
-0.017051013 0.040368337 0.48200002 4283575333
-0.015485475 0.040368337 0.48200002 4284230692
-0.013919939 0.040368337 0.48200002 4284558115
-0.012354402 0.040368337 0.48200002 4283571220
-0.010788865 0.040368337 0.48200002 4283637013
-0.009223328 0.040368337 0.48200002 4284228380
-0.007657791 0.040368337 0.48200002 4283833108
-0.0060922545 0.040368337 0.48200002 4283570448
-0.0045267181 0.040368337 0.48200002 4282983194
-0.0029673243 0.040452085 0.48300001 4284040509
-0.0013985395 0.040452085 0.48300001 4282396197
0.00017024532 0.040452085 0.48300001 4282594344
0.0017390301 0.040452085 0.48300001 4280887069
0.0033078149 0.040452085 0.48300001 4279177226
0.0048765996 0.040452085 0.48300001 4279046412
0.0064320406 0.040368337 0.48200002 4278914826
0.0079975771 0.040368337 0.48200002 4278650880
0.0095631136 0.040368337 0.48200002 4278650880
0.011128651 0.040368337 0.48200002 4278454528
0.012667852 0.040284585 0.48100004 4278455045
0.01423014 0.040284585 0.48100004 4280099100
0.015792429 0.040284585 0.48100004 4281217581
0.017354717 0.040284585 0.48100004 4279506188
0.018877678 0.040200833 0.48000002 4281145876
0.020436719 0.040200833 0.48000002 4282068513
0.021949936 0.040117081 0.47900003 4280623634
0.023456655 0.040033329 0.47800002 4281805078
0.02495688 0.039949577 0.47700003 4283180053
0.026506176 0.039949577 0.47700003 4284031251
0.027996656 0.039865825 0.47600001 4283180307
0.029542705 0.039865825 0.47600001 4281280785
0.031088753 0.039865825 0.47600001 4281214738
0.032634802 0.039865825 0.47600001 4281802515
0.03418085 0.039865825 0.47600001 4283119666
0.035726897 0.039865825 0.47600001 4285630075
-0.020182086 0.041934405 0.48200002 4285762942
-0.01861655 0.041934405 0.48200002 4286157700
-0.017051013 0.041934405 0.48200002 4283583299
-0.015485475 0.041934405 0.48200002 4283182633
-0.013919939 0.041934405 0.48200002 4283640356
-0.012354402 0.041934405 0.48200002 4283047704
-0.010788865 0.041934405 0.48200002 4283244313
-0.009223328 0.041934405 0.48200002 4284164386
-0.007657791 0.041934405 0.48200002 4284228380
-0.0060922545 0.041934405 0.48200002 4283701522
-0.0045267181 0.041934405 0.48200002 4287726452
-0.0029673243 0.042021401 0.48300001 4285825646
-0.0013985395 0.042021401 0.48300001 4286615423
0.00017024532 0.042021401 0.48300001 4280691485
0.0017390301 0.042021401 0.48300001 4281743398
0.0033078149 0.042021401 0.48300001 4280164114
0.0048765996 0.042021401 0.48300001 4279112203
0.0064453846 0.042021401 0.48300001 4279046412
0.0079975771 0.041934405 0.48200002 4278256896
0.0095631136 0.041934405 0.48200002 4280626212
0.011128651 0.041934405 0.48200002 4278652676
0.012667852 0.041847404 0.48100004 4283192904
0.01423014 0.041847404 0.48100004 4279244561
0.015792429 0.041847404 0.48100004 4278914056
0.017318636 0.0417604 0.48000002 4281865228
0.018877678 0.0417604 0.48000002 4288178011
0.020394143 0.0416734 0.47900003 4283771679
0.021949936 0.0416734 0.47900003 4282196756
0.023456655 0.041586399 0.47800002 4282917653
0.02495688 0.041499399 0.47700003 4284031253
0.026506176 0.041499399 0.47700003 4283703569
0.027996656 0.041412398 0.47600001 4282525203
0.029542705 0.041412398 0.47600001 4281346324
0.031088753 0.041412398 0.47600001 4281410833
0.032634802 0.041412398 0.47600001 4281933847
0.03418085 0.041412398 0.47600001 4281214236
-0.01861655 0.043500472 0.48200002 4285762944
-0.017051013 0.043500472 0.48200002 4286748295
-0.015485475 0.043500472 0.48200002 4283980369
-0.013919939 0.043500472 0.48200002 4284039995
-0.012354402 0.043500472 0.48200002 4282721569
-0.010788865 0.043500472 0.48200002 4286738022
-0.009223328 0.043500472 0.48200002 4285818714
-0.007657791 0.043500472 0.48200002 4284492322
-0.0060922545 0.043500472 0.48200002 4284293659
-0.0045361095 0.043590721 0.48300001 4282653461
-0.0029673243 0.043590721 0.48300001 4287071096
-0.0013985395 0.043590721 0.48300001 4285498226
0.00017024532 0.043590721 0.48300001 4285234286
0.0017390301 0.043590721 0.48300001 4281152288
0.0033078149 0.043590721 0.48300001 4281547300
0.0048765996 0.043590721 0.48300001 4281809193
0.0064453846 0.043590721 0.48300001 4278914306
0.0080141686 0.043590721 0.48300001 4278585859
0.0095631136 0.043500472 0.48200002 4280428833
0.011128651 0.043500472 0.48200002 4279046410
0.012694187 0.043500472 0.48200002 4279111430
0.01423014 0.043410223 0.48100004 4280160268
0.015792429 0.043410223 0.48100004 4282917664
0.017318636 0.043319974 0.48000002 4284818718
0.018877678 0.043319974 0.48000002 4284816919
0.020394143 0.043229725 0.47900003 4285344803
0.021949936 0.043229725 0.47900003 4285413935
0.023456655 0.043139473 0.47800002 4284556316
0.02495688 0.043049224 0.47700003 4284621080
0.026506176 0.043049224 0.47700003 4283114001
0.028055474 0.043049224 0.47700003 4281672976
0.029542705 0.042958971 0.47600001 4281148433
0.031088753 0.042958971 0.47600001 4282065683
0.032634802 0.042958971 0.47600001 4283119659
0.03418085 0.042958971 0.47600001 4280952349
-0.017051013 0.045066539 0.48200002 4285828735
-0.015485475 0.045066539 0.48200002 4286288773
-0.013948818 0.045160037 0.48300001 4283059010
-0.012380033 0.045160037 0.48300001 4282263846
-0.010811249 0.045160037 0.48300001 4281936166
-0.0092424639 0.045160037 0.48300001 4286941052
-0.007657791 0.045066539 0.48200002 4283048989
-0.0060922545 0.045066539 0.48200002 4284623908
-0.0045267181 0.045066539 0.48200002 4284556831
-0.0029673243 0.045160037 0.48300001 4284757550
-0.0013985395 0.045160037 0.48300001 4285694835
0.00017024532 0.045160037 0.48300001 4285498228
0.0017390301 0.045160037 0.48300001 4281482025
0.0033078149 0.045160037 0.48300001 4281217308
0.0048765996 0.045160037 0.48300001 4281348120
0.0064453846 0.045160037 0.48300001 4281413913
0.0080141686 0.045160037 0.48300001 4281019159
0.0095631136 0.045066539 0.48200002 4280888089
0.011128651 0.045066539 0.48200002 4280690712
0.012694187 0.045066539 0.48200002 4281085470
0.01423014 0.044973042 0.48100004 4283179805
0.015792429 0.044973042 0.48100004 4283834392
0.017318636 0.044879541 0.48000002 4284685333
0.018877678 0.044879541 0.48000002 4285606176
0.020394143 0.044786043 0.47900003 4285605404
0.021904111 0.044692542 0.47800002 4285473818
0.023456655 0.044692542 0.47800002 4285079832
0.02495688 0.044599045 0.47700003 4284488722
0.026506176 0.044599045 0.47700003 4281868558
0.028055474 0.044599045 0.47700003 4280950282
0.02960477 0.044599045 0.47700003 4281540111
0.031154066 0.044599045 0.47700003 4282456848
0.032703366 0.044599045 0.47700003 4282002207
0.034252662 0.044599045 0.47700003 4280755483
-0.015485475 0.046632607 0.48200002 4285762944
-0.013948818 0.046729356 0.48300001 4286288003
-0.012380033 0.046729356 0.48300001 4283784276
-0.010811249 0.046729356 0.48300001 4281737252
-0.0092424639 0.046729356 0.48300001 4287135610
-0.0076736785 0.046729356 0.48300001 4286676853
-0.0060922545 0.046632607 0.48200002 4283904557
-0.0045267181 0.046632607 0.48200002 4284621341
-0.0029611809 0.046632607 0.48200002 4284818207
-0.001395644 0.046632607 0.48200002 4284236343
0.00017024532 0.046729356 0.48300001 4286482039
0.0017390301 0.046729356 0.48300001 4280758565
0.0033078149 0.046729356 0.48300001 4280822298
0.0048765996 0.046729356 0.48300001 4281216534
0.0064453846 0.046729356 0.48300001 4281413400
0.0080141686 0.046729356 0.48300001 4281281814
0.0095829545 0.046729356 0.48300001 4281018642
0.011128651 0.046632607 0.48200002 4280887058
0.012694187 0.046632607 0.48200002 4281018644
0.01423014 0.046535861 0.48100004 4282655254
0.015759597 0.046439111 0.48000002 4283834903
0.017318636 0.046439111 0.48000002 4284948501
0.01883835 0.046342365 0.47900003 4285539611
0.020394143 0.046342365 0.47900003 4285605145
0.021904111 0.046245612 0.47800002 4285472789
0.023456655 0.046245612 0.47800002 4285276439
0.02495688 0.046148866 0.47700003 4283898638
0.026506176 0.046148866 0.47700003 4281539339
0.028055474 0.046148866 0.47700003 4280883210
0.02960477 0.046148866 0.47700003 4282523154
0.031154066 0.046148866 0.47700003 4282851606
0.032703366 0.046148866 0.47700003 4280686608
0.034252662 0.046148866 0.47700003 4280624669
-0.013977698 0.04839867 0.48400003 4285697151
-0.012405665 0.04839867 0.48400003 4286157187
-0.010833632 0.04839867 0.48400003 4283780426
-0.0092424639 0.048298672 0.48300001 4282198055
-0.0076736785 0.048298672 0.48300001 4286480242
-0.0060922545 0.048198674 0.48200002 4285033307
-0.0045267181 0.048198674 0.48200002 4284886056
-0.0029611809 0.048198674 0.48200002 4285016099
-0.001395644 0.048198674 0.48200002 4285212965
0.00016989285 0.048198674 0.48200002 4284425507
0.0017354296 0.048198674 0.48200002 4286216039
0.0033009665 0.048198674 0.48200002 4281151266
0.0048765996 0.048298672 0.48300001 4279966219
0.0064453846 0.048298672 0.48300001 4280952853
0.0080141686 0.048298672 0.48300001 4281084435
0.0095829545 0.048298672 0.48300001 4281018642
0.011128651 0.048198674 0.48200002 4280821263
0.012667852 0.04809868 0.48100004 4280952849
0.01423014 0.04809868 0.48100004 4281738515
0.015759597 0.047998678 0.48000002 4283705114
0.017318636 0.047998678 0.48000002 4285539352
0.01883835 0.047898684 0.47900003 4285735961
0.020394143 0.047898684 0.47900003 4285800984
0.021904111 0.047798686 0.47800002 4285472535
0.023456655 0.047798686 0.47800002 4285869605
0.02495688 0.047698688 0.47700003 4284816917
0.026506176 0.047698688 0.47700003 4284032534
0.028055474 0.047698688 0.47700003 4282718989
0.02960477 0.047698688 0.47700003 4283047184
0.031154066 0.047698688 0.47700003 4283706399
0.032703366 0.047698688 0.47700003 4280556821
0.034252662 0.047698688 0.47700003 4280033307
-0.015646113 0.050280973 0.48700002 4285828737
-0.014006577 0.05007448 0.48500001 4285762944
-0.012431297 0.05007448 0.48500001 4285828737
-0.010833632 0.049971234 0.48400003 4286484099
-0.0092424639 0.049867988 0.48300001 4282729275
-0.0076736785 0.049867988 0.48300001 4282132258
-0.0060922545 0.049764741 0.48200002 4287071609
-0.0045267181 0.049764741 0.48200002 4285951332
-0.0029550374 0.049661495 0.48100004 4284100394
-0.0013927486 0.049661495 0.48100004 4285277986
0.00016954038 0.049661495 0.48100004 4285343009
0.0017318293 0.049661495 0.48100004 4284883998
0.0032872695 0.049558248 0.48000002 4285019179
0.0048765996 0.049867988 0.48300001 4283511848
0.0064453846 0.049867988 0.48300001 4281341962
0.0080141686 0.049867988 0.48300001 4280948488
0.0095829545 0.049867988 0.48300001 4281541136
0.011128651 0.049764741 0.48200002 4282001687
0.012667852 0.049661495 0.48100004 4281606929
0.01423014 0.049661495 0.48100004 4282851342
0.015759597 0.049558248 0.48000002 4284490775
0.017318636 0.049558248 0.48000002 4285407766
0.01883835 0.049455002 0.47900003 4285800982
0.020394143 0.049455002 0.47900003 4285800982
0.021904111 0.049351756 0.47800002 4285210133
0.023456655 0.049351756 0.47800002 4287121212
0.0250092 0.049351756 0.47800002 4285539613
0.026506176 0.049248509 0.47700003 4284554515
0.028055474 0.049248509 0.47700003 4284425497
0.02960477 0.049248509 0.47700003 4283179542
0.031154066 0.049248509 0.47700003 4283116575
0.032703366 0.049248509 0.47700003 4280163864
-0.014006577 0.051650293 0.48500001 4285762944
-0.012431297 0.051650293 0.48500001 4285696898
-0.010833632 0.051543798 0.48400003 4285696638
-0.0092424639 0.051437303 0.48300001 4286419589
-0.0076736785 0.051437303 0.48300001 4282921262
-0.0060922545 0.051330809 0.48200002 4283444268
-0.0045173266 0.051224314 0.48100004 4286679420
-0.0029550374 0.051224314 0.48100004 4285095763
-0.001389853 0.051117815 0.48000002 4285014814
0.0001691879 0.051117815 0.48000002 4286132268
0.0017246283 0.051011324 0.47900003 4285606176
0.003280421 0.051011324 0.47900003 4285539613
0.0048160208 0.05079833 0.47700003 4285408799
0.0064453846 0.051437303 0.48300001 4285540642
0.0080141686 0.051437303 0.48300001 4285213217
0.0095829545 0.051437303 0.48300001 4285147424
0.011105563 0.051224314 0.48100004 4285015838
0.012667852 0.051224314 0.48100004 4284884250
0.014200556 0.051117815 0.48000002 4285277466
0.015759597 0.051117815 0.48000002 4285474072
0.017282557 0.051011324 0.47900003 4285407766
0.01883835 0.051011324 0.47900003 4285276180
0.020351566 0.050904825 0.47800002 4285406996
0.021904111 0.050904825 0.47800002 4285341719
0.023456655 0.050904825 0.47800002 4286197541
0.0250092 0.050904825 0.47800002 4285144340
0.026561745 0.050904825 0.47800002 4284357136
0.028114289 0.050904825 0.47800002 4284029972
0.029666835 0.050904825 0.47800002 4282853403
0.031219378 0.050904825 0.47800002 4281936668
0.032703366 0.05079833 0.47700003 4279771418
-0.014035458 0.053335853 0.48600003 4285696638
-0.012431297 0.05322611 0.48500001 4285894017
-0.010833632 0.053116366 0.48400003 4285762431
-0.0092424639 0.053006619 0.48300001 4285762431
-0.007657791 0.052896876 0.48200002 4286677882
-0.0060922545 0.052896876 0.48200002 4282525734
-0.0045173266 0.052787133 0.48100004 4283377702
-0.0029488937 0.052677386 0.48000002 4284164388
-0.0013869575 0.052567642 0.47900003 4285606178
0.00016883542 0.052567642 0.47900003 4286000164
0.0017210278 0.052457895 0.47800002 4285868063
0.0032735725 0.052457895 0.47800002 4285669914
0.0048160208 0.052348152 0.47700003 4286065442
0.0064453846 0.053006619 0.48300001 4287252028
0.0080141686 0.053006619 0.48300001 4287188801
0.0095829545 0.053006619 0.48300001 4286068524
0.011105563 0.052787133 0.48100004 4286001189
0.012667852 0.052787133 0.48100004 4285869346
0.014200556 0.052677386 0.48000002 4285145623
0.015759597 0.052677386 0.48000002 4284816915
0.017282557 0.052567642 0.47900003 4284029454
0.01883835 0.052567642 0.47900003 4284292113
0.020394143 0.052567642 0.47900003 4284685074
0.021904111 0.052457895 0.47800002 4285079060
0.023456655 0.052457895 0.47800002 4284750095
0.0250092 0.052457895 0.47800002 4284553486
0.026561745 0.052457895 0.47800002 4283635214
0.028114289 0.052457895 0.47800002 4283111182
0.029666835 0.052457895 0.47800002 4282066719
0.031219378 0.052457895 0.47800002 4285163099
0.032771926 0.052457895 0.47800002 4284512616
-0.012431297 0.054801922 0.48500001 4285762944
-0.010833632 0.054688931 0.48400003 4285762944
-0.0092424639 0.054575935 0.48300001 4285828737
-0.007657791 0.054462943 0.48200002 4285826939
-0.0060796151 0.054349951 0.48100004 4283519307
-0.0045079347 0.054236956 0.48000002 4285022779
-0.0029488937 0.054236956 0.48000002 4284360736
-0.0013869575 0.05412396 0.47900003 4285408799
0.00016848295 0.054010965 0.47800002 4285079832
0.0017210278 0.054010965 0.47800002 4285276180
0.0032667241 0.053897973 0.47700003 4285210387
0.0048059244 0.053784978 0.47600001 4285079832
0.0064453846 0.054575935 0.48300001 4283766284
0.0080141686 0.054575935 0.48300001 4283176462
0.0095829545 0.054575935 0.48300001 4283900185
0.011151739 0.054575935 0.48300001 4283768597
0.012641515 0.054236956 0.48000002 4283242766
0.014200556 0.054236956 0.48000002 4281931017
0.015759597 0.054236956 0.48000002 4281274888
0.017318636 0.054236956 0.48000002 4281340679
0.01883835 0.05412396 0.47900003 4282981139
0.020394143 0.05412396 0.47900003 4283833360
0.021949936 0.05412396 0.47900003 4284226835
0.023456655 0.054010965 0.47800002 4284161042
0.0250092 0.054010965 0.47800002 4283898640
0.026561745 0.054010965 0.47800002 4283045389
0.028114289 0.054010965 0.47800002 4282850838
0.029666835 0.054010965 0.47800002 4283187766
0.031219378 0.054010965 0.47800002 4286019948
-0.012431297 0.056377735 0.48500001 4285828224
-0.010833632 0.056261495 0.48400003 4285894017
-0.0092424639 0.056145251 0.48300001 4285828224
-0.007657791 0.056029011 0.48200002 4285762431
-0.0060796151 0.055912767 0.48100004 4286419076
-0.0045079347 0.055796523 0.48000002 4284499774
-0.0029427505 0.055680282 0.47900003 4284426788
-0.0013840619 0.055564038 0.47800002 4285015584
0.00016848295 0.055564038 0.47800002 4285146654
0.0017174273 0.055447794 0.47700003 4284948244
0.0032667241 0.055447794 0.47700003 4284487950
0.0048059244 0.055331551 0.47600001 4283635981
0.0064453846 0.056145251 0.48300001 4282782733
0.0080141686 0.056145251 0.48300001 4280750345
0.0095829545 0.056145251 0.48300001 4280422923
0.011151739 0.056145251 0.48300001 4280423438
0.012641515 0.055796523 0.48000002 4280094473
0.01423014 0.055912767 0.48100004 4279898378
0.015759597 0.055796523 0.48000002 4279767305
0.017318636 0.055796523 0.48000002 4280225798
0.018877678 0.055796523 0.48000002 4282524442
0.020394143 0.055680282 0.47900003 4282981393
0.021949936 0.055680282 0.47900003 4283309844
0.023505729 0.055680282 0.47900003 4283046159
0.02506152 0.055680282 0.47900003 4282914832
0.026617315 0.055680282 0.47900003 4282785045
0.028173108 0.055680282 0.47900003 4283249194
0.029728901 0.055680282 0.47900003 4282269492
0.031284694 0.055680282 0.47900003 4284707428
-0.010833632 0.057834059 0.48400003 4285828224
-0.0092424639 0.057714567 0.48300001 4285762431
-0.007657791 0.057595074 0.48200002 4285828224
-0.0060796151 0.057475585 0.48100004 4285696636
-0.0045079347 0.057356093 0.48000002 4285755751
-0.0029427505 0.057236601 0.47900003 4283511085
-0.0013840619 0.057117108 0.47800002 4284294943
0.00016813047 0.056997616 0.47700003 4284293657
0.0017174273 0.056997616 0.47700003 4284029972
0.0032667241 0.056997616 0.47700003 4283964692
0.0048160208 0.056997616 0.47700003 4282914573
0.0064453846 0.057714567 0.48300001 4282587664
0.0080141686 0.057714567 0.48300001 4280881677
0.0095829545 0.057714567 0.48300001 4280488716
0.011151739 0.057714567 0.48300001 4280489231
0.012720523 0.057714567 0.48300001 4280489231
0.01423014 0.057475585 0.48100004 4280422923
0.015792429 0.057475585 0.48100004 4280817165
0.017318636 0.057356093 0.48000002 4281735439
0.018877678 0.057356093 0.48000002 4282063891
0.020394143 0.057236601 0.47900003 4282523670
0.021949936 0.057236601 0.47900003 4282786328
0.023505729 0.057236601 0.47900003 4282522643
0.02506152 0.057236601 0.47900003 4282654227
0.026617315 0.057236601 0.47900003 4283119657
0.028173108 0.057236601 0.47900003 4282858029
0.029728901 0.057236601 0.47900003 4279704340
0.031284694 0.057236601 0.47900003 4283720793
-0.010833632 0.059406627 0.48400003 4285828224
-0.0092424639 0.059283882 0.48300001 4285696638
-0.007657791 0.059161142 0.48200002 4285696638
-0.0060796151 0.059038404 0.48100004 4285828224
-0.0045079347 0.05891566 0.48000002 4286484869
-0.0029366068 0.058670178 0.47800002 4282795066
-0.0013840619 0.058670178 0.47800002 4283771688
0.00016813047 0.058547437 0.47700003 4283639071
0.0017174273 0.058547437 0.47700003 4283046418
0.0032598756 0.058424696 0.47600001 4282915346
0.015792429 0.059038404 0.48100004 4280882443
0.017354717 0.059038404 0.48100004 4280553991
0.018877678 0.05891566 0.48000002 4280685577
0.020436719 0.05891566 0.48000002 4280423177
0.021949936 0.058792923 0.47900003 4280226311
0.023505729 0.058792923 0.47900003 4280489483
0.02506152 0.058792923 0.47900003 4280160518
0.026617315 0.058792923 0.47900003 4279766790
0.028173108 0.058792923 0.47900003 4280426005
0.029728901 0.058792923 0.47900003 4280363042
-0.0092424639 0.060853202 0.48300001 4285894017
-0.007657791 0.060727213 0.48200002 4285828224
-0.0060796151 0.060601223 0.48100004 4285828224
-0.0045079347 0.060475234 0.48000002 4285762431
-0.0029366068 0.060223252 0.47800002 4286419330
-0.0013840619 0.060223252 0.47800002 4283450684
0.00016813047 0.060097262 0.47700003 4282525473
0.0017174273 0.060097262 0.47700003 4282655004
0.015792429 0.060601223 0.48100004 4279702797
0.017354717 0.060601223 0.48100004 4279506445
0.018877678 0.060475234 0.48000002 4279440398
0.020436719 0.060475234 0.48000002 4279440652
0.021949936 0.060349245 0.47900003 4279374605
0.023505729 0.060349245 0.47900003 4279374605
0.02506152 0.060349245 0.47900003 4279440398
0.026617315 0.060349245 0.47900003 4279506191
0.028173108 0.060349245 0.47900003 4279770133
-0.0029366068 0.061776318 0.47800002 4285762429
-0.0013840619 0.061776318 0.47800002 4282403136
0.020436719 0.062034797 0.48000002 4279441940
0.021949936 0.061905559 0.47900003 4279376145
0.023505729 0.061905559 0.47900003 4279507731
0.02506152 0.061905559 0.47900003 4279573524
0.0075661056 0.033227459 0.47906187 4294967295
0.0075661056 0.033227459 0.47906187 4294901760
0.0075661056 0.033227459 0.47956187 4294901760
0.0075661056 0.033227459 0.48006186 4294901760
0.0075661056 0.033227459 0.48056188 4294901760
0.0075661056 0.033227459 0.48106188 4294901760
0.0075661056 0.033227459 0.48156187 4294901760
0.0075661056 0.033227459 0.48206186 4294901760
0.0075661056 0.033227459 0.48256186 4294901760
0.0075661056 0.033227459 0.48306188 4294901760
0.0075661056 0.033227459 0.48356187 4294901760
0.0075661056 0.033227459 0.48406187 4294901760
0.0075661056 0.033227459 0.48456186 4294901760
0.0075661056 0.033227459 0.48506188 4294901760
0.0075661056 0.033227459 0.48556188 4294901760
0.0075661056 0.033227459 0.48606187 4294901760
0.0075661056 0.033227459 0.48656186 4294901760
0.0075661056 0.033227459 0.48706186 4294901760
0.0075661056 0.033227459 0.48756188 4294901760
0.0075661056 0.033227459 0.48806188 4294901760
0.0075661056 0.033227459 0.48856187 4294901760
0.0075661056 0.033227459 0.48906186 4294901760
0.0075661056 0.033227459 0.48956186 4294901760
0.0075661056 0.033227459 0.49006188 4294901760
0.0075661056 0.033227459 0.49056187 4294901760
0.0075661056 0.033227459 0.49106187 4294901760
0.0075661056 0.033227459 0.49156186 4294901760
0.0075661056 0.033227459 0.49206185 4294901760
0.0075661056 0.033227459 0.49256188 4294901760
0.0075661056 0.033227459 0.49306187 4294901760
0.0075661056 0.033227459 0.49356186 4294901760
0.0075661056 0.033227459 0.49406186 4294901760
0.0075661056 0.033227459 0.49456185 4294901760
0.0075661056 0.033227459 0.49506187 4294901760
0.0075661056 0.033227459 0.49556187 4294901760
0.0075661056 0.033227459 0.49606186 4294901760
0.0075661056 0.033227459 0.49656186 4294901760
0.0075661056 0.033227459 0.49706188 4294901760
0.0075661056 0.033227459 0.49756187 4294901760
0.0075661056 0.033227459 0.49806187 4294901760
0.0075661056 0.033227459 0.49856186 4294901760
0.0075661056 0.033227459 0.49906185 4294901760
0.0075661056 0.033227459 0.49956188 4294901760
0.0075661056 0.033227459 0.50006187 4294901760
0.0075661056 0.033227459 0.50056189 4294901760
0.0075661056 0.033227459 0.50106186 4294901760
0.0075661056 0.033227459 0.50156188 4294901760
0.0075661056 0.033227459 0.50206184 4294901760
0.0075661056 0.033227459 0.50256187 4294901760
0.0075661056 0.033227459 0.50306189 4294901760
0.0075661056 0.033227459 0.50356185 4294901760
0.0075661056 0.033227459 0.50406188 4294901760
0.0075661056 0.033227459 0.50456184 4294901760
0.0075661056 0.033227459 0.50506186 4294901760
0.0075661056 0.033227459 0.50556189 4294901760
0.0075661056 0.033227459 0.50606185 4294901760
0.0075661056 0.033227459 0.50656188 4294901760
0.0075661056 0.033227459 0.50706184 4294901760
0.0075661056 0.033227459 0.50756186 4294901760
0.0075661056 0.033227459 0.50806189 4294901760
0.0075661056 0.033227459 0.50856185 4294901760
0.0075661056 0.033227459 0.50906187 4294901760
0.0075661056 0.033227459 0.50956184 4294901760
0.0075661056 0.033227459 0.51006186 4294901760
0.0075661056 0.033227459 0.51056188 4294901760
0.0075661056 0.033227459 0.51106185 4294901760
0.0075661056 0.033227459 0.51156187 4294901760
0.0075661056 0.033227459 0.51206183 4294901760
0.0075661056 0.033227459 0.51256186 4294901760
0.0075661056 0.033227459 0.51306188 4294901760
0.0075661056 0.033227459 0.51356184 4294901760
0.0075661056 0.033227459 0.51406187 4294901760
0.0075661056 0.033227459 0.51456183 4294901760
0.0075661056 0.033227459 0.51506186 4294901760
0.0075661056 0.033227459 0.51556188 4294901760
0.0075661056 0.033227459 0.51606184 4294901760
0.0075661056 0.033227459 0.51656187 4294901760
0.0075661056 0.033227459 0.51706183 4294901760
0.0075661056 0.033227459 0.51756185 4294901760
0.0075661056 0.033227459 0.51806188 4294901760
0.0075661056 0.033227459 0.51856184 4294901760
0.0075661056 0.033227459 0.51906186 4294901760
0.0075661056 0.033227459 0.51956189 4294901760
0.0075661056 0.033227459 0.52006185 4294901760
0.0075661056 0.033227459 0.52056187 4294901760
0.0075661056 0.033227459 0.52106184 4294901760
0.0075661056 0.033227459 0.52156186 4294901760
0.0075661056 0.033227459 0.52206188 4294901760
0.0075661056 0.033227459 0.52256185 4294901760
0.0075661056 0.033227459 0.52306187 4294901760
0.0075661056 0.033227459 0.52356184 4294901760
0.0075661056 0.033227459 0.52406186 4294901760
0.0075661056 0.033227459 0.52456188 4294901760
0.0075661056 0.033227459 0.52506185 4294901760
0.0075661056 0.033227459 0.52556187 4294901760
0.0075661056 0.033227459 0.52606183 4294901760
0.0075661056 0.033227459 0.52656186 4294901760
0.0075661056 0.033227459 0.52706188 4294901760
0.0075661056 0.033227459 0.52756184 4294901760
0.0075661056 0.033227459 0.52806187 4294901760
0.0075661056 0.033227459 0.52856183 4294901760
0.0075661056 0.033227459 0.52906185 4294901760
0.0075661056 0.033227459 0.47906187 4278255360
0.0076317634 0.033218171 0.47955745 4278255360
0.0076974216 0.033208881 0.48005304 4278255360
0.0077630794 0.033199593 0.48054862 4278255360
0.0078287376 0.033190303 0.4810442 4278255360
0.0078943949 0.033181015 0.48153979 4278255360
0.0079600532 0.033171725 0.48203537 4278255360
0.0080257105 0.033162437 0.48253095 4278255360
0.0080913687 0.033153147 0.48302653 4278255360
0.008157027 0.033143859 0.48352212 4278255360
0.0082226843 0.033134568 0.4840177 4278255360
0.0082883425 0.033125281 0.48451328 4278255360
0.0083540007 0.03311599 0.48500887 4278255360
0.0084196581 0.033106703 0.48550445 4278255360
0.0084853163 0.033097412 0.48600003 4278255360
0.0085509745 0.033088125 0.48649561 4278255360
0.0086166319 0.033078834 0.4869912 4278255360
0.0086822901 0.033069547 0.48748678 4278255360
