# .PCD v0.7 - Point Cloud Data file format
VERSION 0.7
FIELDS x y z rgb
SIZE 4 4 4 4
TYPE F F F U
COUNT 1 1 1 1
WIDTH 1062
HEIGHT 1
VIEWPOINT 0 0 0 1 0 0 0
POINTS 1062
DATA ascii
0.049377073 0.059320468 0.31600001 4279257119
0.050243936 0.059132747 0.31500003 4278862875
0.051104303 0.058945023 0.31400001 4278731287
0.051958181 0.058757301 0.31300002 4278993945
0.052974802 0.058757301 0.31300002 4279256347
0.053818926 0.058569577 0.31200001 4279584801
0.054832306 0.058569577 0.31200001 4285899907
0.055666693 0.058381855 0.31100002 4286886291
0.056676816 0.058381855 0.31100002 4282543951
0.038468018 0.062638849 0.32800001 4279704326
0.039533362 0.062638849 0.32800001 4281422644
0.040474929 0.062447883 0.32700002 4279254553
0.041537024 0.062447883 0.32700002 4278861076
0.04246885 0.062256906 0.32600001 4279387935
0.043527696 0.062256906 0.32600001 4279519521
0.044449776 0.062065937 0.32500002 4279190556
0.04536536 0.061874963 0.324 4279190556
0.04627445 0.061683994 0.32300001 4278862361
0.046737507 0.060920101 0.31900001 4279059740
0.047623854 0.060729131 0.31800002 4279059740
0.048503712 0.060538158 0.317 4279059740
0.049377073 0.060347188 0.31600001 4279059740
0.050243936 0.060156219 0.31500003 4279322912
0.051104303 0.059965242 0.31400001 4279125533
0.051958181 0.059774272 0.31300002 4278862359
0.052974802 0.059774272 0.31300002 4278664980
0.053818926 0.059583299 0.31200001 4278993945
0.054832306 0.059583299 0.31200001 4279256347
0.055666693 0.059392329 0.31100002 4279713822
0.056676816 0.059392329 0.31100002 4285832317
0.057501458 0.059201352 0.31 4287149461
0.058319602 0.059010383 0.30900002 4283662947
0.038468018 0.063704558 0.32800001 4279573510
0.039533362 0.063704558 0.32800001 4280503336
0.040474929 0.063510336 0.32700002 4279584031
0.041537024 0.063510336 0.32700002 4278795285
0.042599123 0.063510336 0.32700002 4279584803
0.043527696 0.063316114 0.32600001 4279453215
0.044586543 0.063316114 0.32600001 4279255836
0.045505378 0.063121893 0.32500002 4279058970
0.046417713 0.062927671 0.324 4279058970
0.046590995 0.061762344 0.31800002 4278664982
0.047474094 0.061568119 0.317 4278993947
0.048350703 0.061373901 0.31600001 4279059740
0.049377073 0.061373901 0.31600001 4279322912
0.050243936 0.061179683 0.31500003 4279256349
0.051104303 0.060985457 0.31400001 4279124765
0.052124176 0.060985457 0.31400001 4279124252
0.052974802 0.060791239 0.31300002 4279255836
0.053991426 0.060791239 0.31300002 4279124763
0.054832306 0.060597014 0.31200001 4278928154
0.055666693 0.060402796 0.31100002 4278664980
0.056676816 0.060402796 0.31100002 4279124761
0.057501458 0.06020857 0.31 4279452447
0.058319602 0.060014352 0.30900002 4284648809
0.059323233 0.060014352 0.30900002 4287214222
0.060131636 0.059820134 0.30800003 4283136342
0.061132021 0.059820134 0.30800003 4279453478
0.038468018 0.064770259 0.32800001 4279179268
0.039533362 0.064770259 0.32800001 4280964401
0.040598705 0.064770259 0.32800001 4279124250
0.041664049 0.064770259 0.32800001 4278992664
0.042599123 0.064572796 0.32700002 4279584801
0.043661222 0.064572796 0.32700002 4279453728
0.044723313 0.064572796 0.32700002 4278993177
0.045645393 0.064375319 0.32600001 4278993177
0.046417713 0.063980378 0.324 4279058970
0.046590995 0.062795565 0.31800002 4278928154
0.047474094 0.062598087 0.317 4279059740
0.048350703 0.06240062 0.31600001 4279190556
0.049377073 0.06240062 0.31600001 4279190556
0.050243936 0.062203154 0.31500003 4279387937
0.051267058 0.062203154 0.31500003 4278860058
0.052124176 0.06200568 0.31400001 4279844643
0.053144045 0.06200568 0.31400001 4278199818
0.053991426 0.06180821 0.31300002 4279715619
0.055008054 0.06180821 0.31300002 4279387937
0.055845682 0.061610736 0.31200001 4278928154
0.056676816 0.061413269 0.31100002 4279059738
0.057501458 0.061215796 0.31 4278664980
0.058319602 0.061018329 0.30900002 4279125785
0.059323233 0.061018329 0.30900002 4279254551
0.060131636 0.060820859 0.30800003 4284779879
0.060933538 0.060623385 0.30700001 4287149463
0.061728947 0.060425919 0.30600002 4284124016
0.062722839 0.060425919 0.30600002 4279782182
0.063508496 0.060228445 0.30500001 4279519006
0.06428767 0.060030978 0.30400002 4279979559
0.065275058 0.060030978 0.30400002 4280044330
0.066262454 0.060030978 0.30400002 4280698415
0.067249849 0.060030978 0.30400002 4283920990
0.038468018 0.065835968 0.32800001 4278521856
0.039533362 0.065835968 0.32800001 4280043301
0.040598705 0.065835968 0.32800001 4279058457
0.041664049 0.065835968 0.32800001 4279190556
0.042729393 0.065835968 0.32800001 4279519521
0.04379474 0.065835968 0.32800001 4279256349
0.044723313 0.065635249 0.32700002 4279387935
0.045645393 0.065434523 0.32600001 4279058970
0.045558129 0.063828774 0.31800002 4279190556
0.046590995 0.063828774 0.31800002 4279124765
0.047474094 0.063628048 0.317 4279387937
0.048350703 0.063427337 0.31600001 4279255838
0.049377073 0.063427337 0.31600001 4279453217
0.050243936 0.063226618 0.31500003 4279387937
0.051267058 0.063226618 0.31500003 4279190558
0.052290183 0.063226618 0.31500003 4279055638
0.053144045 0.063025892 0.31400001 4278988564
0.054163922 0.063025892 0.31400001 4279386141
0.055008054 0.062825181 0.31300002 4279650594
0.055845682 0.062624454 0.31200001 4279453728
0.056859057 0.062624454 0.31200001 4279257119
0.057686947 0.062423736 0.31100002 4278928152
0.058508337 0.062223013 0.31 4278928406
0.059323233 0.062022299 0.30900002 4278862613
0.060131636 0.06182158 0.30800003 4279125015
0.060933538 0.061620858 0.30700001 4279648543
0.061728947 0.061420143 0.30600002 4283201113
0.062722839 0.061420143 0.30600002 4287082650
0.063508496 0.06121942 0.30500001 4282676052
0.06449914 0.06121942 0.30500001 4279518756
0.065275058 0.061018702 0.30400002 4279914027
0.066262454 0.061018702 0.30400002 4279848234
0.067249849 0.061018702 0.30400002 4280110893
0.068237238 0.061018702 0.30400002 4281355829
0.03965389 0.067105643 0.32900003 4279911715
0.040598705 0.066901676 0.32800001 4278729492
0.041664049 0.066901676 0.32800001 4278993947
0.042729393 0.066901676 0.32800001 4279388705
0.04379474 0.066901676 0.32800001 4279124761
0.04486008 0.066901676 0.32800001 4279453980
0.045925427 0.066901676 0.32800001 4279190554
0.046990775 0.066901676 0.32800001 4279256347
0.046590995 0.064861991 0.31800002 4279256349
0.047474094 0.064658016 0.317 4279387935
0.048503712 0.064658016 0.317 4279387935
0.049377073 0.064454049 0.31600001 4279256349
0.050403439 0.064454049 0.31600001 4279124765
0.051267058 0.064250089 0.31500003 4278200067
0.052290183 0.064250089 0.31500003 4278196994
0.0533133 0.064250089 0.31500003 4280370215
0.054163922 0.064046115 0.31400001 4279845922
0.055008054 0.063842148 0.31300002 4279452445
0.056024678 0.063842148 0.31300002 4279321629
0.056859057 0.063638173 0.31200001 4279453728
0.057686947 0.063434213 0.31100002 4279125533
0.058508337 0.063230239 0.31 4279257117
0.059323233 0.063026272 0.30900002 4279125531
0.060131636 0.062822305 0.30800003 4279059738
0.060933538 0.062618338 0.30700001 4279059738
0.061728947 0.06241437 0.30600002 4279256347
0.062722839 0.06241437 0.30600002 4279122195
0.063508496 0.062210396 0.30500001 4282609224
0.06449914 0.062210396 0.30500001 4287017105
0.065275058 0.062006433 0.30400002 4282674515
0.066262454 0.062006433 0.30400002 4279452963
0.067249849 0.062006433 0.30400002 4279716902
0.068237238 0.062006433 0.30400002 4279914279
0.069224633 0.062006433 0.30400002 4280176168
0.070212021 0.062006433 0.30400002 4280961839
0.038585298 0.068174601 0.32900003 4279706395
0.03965389 0.068174601 0.32900003 4280107043
0.040722482 0.068174601 0.32900003 4278859795
0.041791074 0.068174601 0.32900003 4279387935
0.042729393 0.067967378 0.32800001 4279322912
0.04379474 0.067967378 0.32800001 4279190554
0.04486008 0.067967378 0.32800001 4279256347
0.045925427 0.067967378 0.32800001 4279058970
0.046990775 0.067967378 0.32800001 4279190556
0.046590995 0.0658952 0.31800002 4279058970
0.047474094 0.065687984 0.317 4279256349
0.048503712 0.065687984 0.317 4279453215
0.049377073 0.065480769 0.31600001 4279255836
0.050403439 0.065480769 0.31600001 4279519008
0.051429808 0.065480769 0.31600001 4279715106
0.052290183 0.065273553 0.31500003 4278788621
0.0533133 0.065273553 0.31500003 4278593039
0.054163922 0.06506633 0.31400001 4279582748
0.055183794 0.06506633 0.31400001 4279845920
0.056024678 0.064859115 0.31300002 4279517725
0.057041299 0.064859115 0.31300002 4279649826
0.057872433 0.064651892 0.31200001 4279453217
0.058885813 0.064651892 0.31200001 4279453730
0.059899185 0.064651892 0.31200001 4279519521
0.060912564 0.064651892 0.31200001 4279257119
0.06192594 0.064651892 0.31200001 4278993947
0.062939316 0.064651892 0.31200001 4279059740
0.063952692 0.064651892 0.31200001 4278993429
0.063508496 0.063201368 0.30500001 4278993429
0.06449914 0.063201368 0.30500001 4279057426
0.065489776 0.063201368 0.30500001 4282411333
0.066262454 0.062994152 0.30400002 4287542674
0.067249849 0.062994152 0.30400002 4282675019
0.068237238 0.062994152 0.30400002 4279913764
0.069224633 0.062994152 0.30400002 4279651107
0.070212021 0.062994152 0.30400002 4279914279
0.071199417 0.062994152 0.30400002 4280241961
0.072186805 0.062994152 0.30400002 4280370215
0.073174201 0.062994152 0.30400002 4282210624
0.038585298 0.06924355 0.32900003 4279772701
0.03965389 0.06924355 0.32900003 4279182100
0.040722482 0.06924355 0.32900003 4280633387
0.041791074 0.06924355 0.32900003 4279453728
0.042729393 0.069033086 0.32800001 4279387935
0.04379474 0.069033086 0.32800001 4279190554
0.04486008 0.069033086 0.32800001 4279124761
0.045785412 0.068822622 0.32700002 4279124763
0.045701392 0.06713888 0.31900001 4279124763
0.046590995 0.066928416 0.31800002 4279190556
0.047623854 0.066928416 0.31800002 4279453730
0.048503712 0.066717945 0.317 4279387937
0.04953333 0.066717945 0.317 4279453217
0.050403439 0.066507481 0.31600001 4279190043
0.051429808 0.066507481 0.31600001 4279517727
0.052456178 0.066507481 0.31600001 4278196226
0.0533133 0.066297017 0.31500003 4280172838
0.054336421 0.066297017 0.31500003 4279517727
0.055183794 0.066086553 0.31400001 4279056406
0.056203667 0.066086553 0.31400001 4278655756
0.057041299 0.065876089 0.31300002 4278917644
0.057872433 0.065665618 0.31200001 4278527759
0.058885813 0.065665618 0.31200001 4279845668
0.059707202 0.065455154 0.31100002 4279584803
0.060717333 0.065455154 0.31100002 4279519523
0.061528981 0.065244682 0.31 4279388707
0.062939316 0.065665618 0.31200001 4279454500
0.062927812 0.064613283 0.30700001 4279125531
0.063716725 0.064402819 0.30600002 4278862359
0.06449914 0.064192347 0.30500001 4278796048
0.065489776 0.064192347 0.30500001 4279190806
0.066480421 0.064192347 0.30500001 4279648791
0.067249849 0.063981883 0.30400002 4281031216
0.068237238 0.063981883 0.30400002 4286820998
0.069224633 0.063981883 0.30400002 4282411845
0.070212021 0.063981883 0.30400002 4279517725
0.071199417 0.063981883 0.30400002 4279715615
0.072186805 0.063981883 0.30400002 4280110375
0.073174201 0.063981883 0.30400002 4280110375
0.074161589 0.063981883 0.30400002 4280502571
0.03965389 0.070312507 0.32900003 4280496936
0.040722482 0.070312507 0.32900003 4280102948
0.041664049 0.070098795 0.32800001 4279976742
0.042729393 0.070098795 0.32800001 4279518756
0.04379474 0.070098795 0.32800001 4279387935
0.044723313 0.069885075 0.32700002 4279190556
0.045645393 0.069671355 0.32600001 4279124765
0.046417713 0.069243923 0.324 4279256351
0.046737507 0.068175346 0.31900001 4279256097
0.047623854 0.067961633 0.31800002 4279256097
0.048656721 0.067961633 0.31800002 4279453730
0.04953333 0.067747913 0.317 4279387937
0.050562941 0.067747913 0.317 4279255838
0.051429808 0.067534201 0.31600001 4278792466
0.052456178 0.067534201 0.31600001 4278987281
0.053482544 0.067534201 0.31600001 4279976740
0.054336421 0.067320488 0.31500003 4279452447
0.055183794 0.067106768 0.31400001 4278462988
0.056203667 0.067106768 0.31400001 4279048717
0.057041299 0.066893056 0.31300002 4279180049
0.058057927 0.066893056 0.31300002 4278982924
0.058885813 0.066679336 0.31200001 4278982922
0.059707202 0.066465624 0.31100002 4278920972
0.060522098 0.066251904 0.31 4280305446
0.061528981 0.066251904 0.31 4279649826
0.062334131 0.066038191 0.30900002 4279650594
0.062927812 0.065610759 0.30700001 4279453728
0.063716725 0.065397047 0.30600002 4279388703
0.064710617 0.065397047 0.30600002 4279388187
0.065489776 0.065183327 0.30500001 4279190295
0.066480421 0.065183327 0.30500001 4279124502
0.067249849 0.064969614 0.30400002 4279256088
0.068237238 0.064969614 0.30400002 4279058707
0.069224633 0.064969614 0.30400002 4280833835
0.070212021 0.064969614 0.30400002 4286294917
0.071199417 0.064969614 0.30400002 4282939224
0.072186805 0.064969614 0.30400002 4280374578
0.073174201 0.064969614 0.30400002 4279651109
0.074161589 0.064969614 0.30400002 4279848486
0.07539618 0.065183327 0.30500001 4279914279
0.040722482 0.071381465 0.32900003 4280364838
0.041664049 0.071164496 0.32800001 4280366633
0.042729393 0.071164496 0.32800001 4280105512
0.04379474 0.071164496 0.32800001 4279517727
0.044723313 0.070947535 0.32700002 4279452445
0.045645393 0.070730567 0.32600001 4279452445
0.04627445 0.070079669 0.32300001 4279519010
0.046737507 0.069211811 0.31900001 4279453217
0.047773615 0.069211811 0.31900001 4279453217
0.048656721 0.06899485 0.31800002 4279584803
0.049689587 0.06899485 0.31800002 4279387937
0.050562941 0.068777882 0.317 4278530580
0.051592559 0.068777882 0.317 4278854927
0.052456178 0.068560913 0.31600001 4280172325
0.053482544 0.068560913 0.31600001 4279845668
0.054336421 0.068343952 0.31500003 4279649313
0.055359542 0.068343952 0.31500003 4278724109
0.056203667 0.068126984 0.31400001 4278917644
0.057041299 0.067910023 0.31300002 4280299297
0.058057927 0.067910023 0.31300002 4279179279
0.058885813 0.067693055 0.31200001 4279311119
0.059707202 0.067476094 0.31100002 4279311119
0.060717333 0.067476094 0.31100002 4278982922
0.061528981 0.067259125 0.31 4278789388
0.062334131 0.067042165 0.30900002 4280305192
0.063132793 0.066825204 0.30800003 4279452447
0.063924946 0.066608228 0.30700001 4279912996
0.064710617 0.066391267 0.30600002 4279781410
0.065704502 0.066391267 0.30600002 4279847203
0.066480421 0.066174299 0.30500001 4279649824
0.067471065 0.066174299 0.30500001 4279519008
0.068237238 0.065957338 0.30400002 4278993175
0.069224633 0.065957338 0.30400002 4279125015
0.070212021 0.065957338 0.30400002 4279453726
0.071199417 0.065957338 0.30400002 4279650594
0.072186805 0.065957338 0.30400002 4285307518
0.073174201 0.065957338 0.30400002 4282216530
0.074161589 0.065957338 0.30400002 4280177199
0.075148985 0.065957338 0.30400002 4279453728
0.076386817 0.066174299 0.30500001 4279585314
0.077377461 0.066174299 0.30500001 4280111145
0.046131186 0.070908919 0.32200003 4279780899
0.046884019 0.070468493 0.32000002 4279452447
0.047773615 0.070248276 0.31900001 4279452447
0.048656721 0.070028067 0.31800002 4279386654
0.049689587 0.070028067 0.31800002 4279584033
0.050562941 0.069807842 0.317 4279517473
0.051592559 0.069807842 0.317 4278790418
0.052622177 0.069807842 0.317 4278527500
0.053482544 0.069587633 0.31600001 4279779875
0.054508913 0.069587633 0.31600001 4280239912
0.055359542 0.069367424 0.31500003 4278393863
0.056203667 0.069147207 0.31400001 4278589191
0.05722354 0.069147207 0.31400001 4280037407
0.058057927 0.068926997 0.31300002 4279313684
0.058885813 0.068706781 0.31200001 4280102430
0.059707202 0.068486564 0.31100002 4279378195
0.060717333 0.068486564 0.31100002 4279246096
0.061528981 0.068266347 0.31 4279179533
0.062334131 0.068046138 0.30900002 4278982924
0.063132793 0.067825928 0.30800003 4279183379
0.063924946 0.067605712 0.30700001 4280238631
0.064710617 0.067385495 0.30600002 4280043047
0.065704502 0.067385495 0.30600002 4279912485
0.066480421 0.067165278 0.30500001 4279912485
0.067471065 0.067165278 0.30500001 4279781412
0.068237238 0.066945069 0.30400002 4279190041
0.069224633 0.066945069 0.30400002 4279190041
0.070212021 0.066945069 0.30400002 4279125015
0.071199417 0.066945069 0.30400002 4279059222
0.072186805 0.066945069 0.30400002 4279649309
0.073174201 0.066945069 0.30400002 4279649311
0.074161589 0.066945069 0.30400002 4283664230
0.075148985 0.066945069 0.30400002 4281295428
0.076386817 0.067165278 0.30500001 4279848486
0.077377461 0.067165278 0.30500001 4279716900
0.078368105 0.067165278 0.30500001 4279585312
0.045987923 0.071731664 0.32100001 4280107045
0.046884019 0.071508206 0.32000002 4279780899
0.047773615 0.071284734 0.31900001 4279781412
0.048656721 0.071061276 0.31800002 4279649826
0.049689587 0.071061276 0.31800002 4279584033
0.05072245 0.071061276 0.31800002 4278990107
0.051592559 0.070837811 0.317 4279251484
0.052622177 0.070837811 0.317 4279778080
0.053482544 0.070614345 0.31600001 4279845668
0.054508913 0.070614345 0.31600001 4280897329
0.055359542 0.070390888 0.31500003 4278853644
0.056382664 0.070390888 0.31500003 4279378193
0.05722354 0.070167422 0.31400001 4279181326
0.058057927 0.069943964 0.31300002 4280169506
0.058885813 0.069720492 0.31200001 4278985232
0.059899185 0.069720492 0.31200001 4280366885
0.060717333 0.069497034 0.31100002 4279248404
0.061528981 0.069273569 0.31 4278983949
0.062334131 0.069050103 0.30900002 4279246609
0.063132793 0.068826646 0.30800003 4279376912
0.064133175 0.068826646 0.30800003 4279310865
0.064922087 0.06860318 0.30700001 4278328070
0.065704502 0.068379723 0.30600002 4280303909
0.066480421 0.06815625 0.30500001 4279977508
0.067471065 0.06815625 0.30500001 4279846690
0.068237238 0.067932792 0.30400002 4279190043
0.069224633 0.067932792 0.30400002 4279913766
0.070212021 0.067932792 0.30400002 4279716387
0.071199417 0.067932792 0.30400002 4279321629
0.072186805 0.067932792 0.30400002 4279256088
0.073174201 0.067932792 0.30400002 4279058709
0.074161589 0.067932792 0.30400002 4279453467
0.075148985 0.067932792 0.30400002 4279387933
0.076136373 0.067932792 0.30400002 4281363009
0.077377461 0.06815625 0.30500001 4280309807
0.078368105 0.06815625 0.30500001 4279717922
0.045987923 0.072774626 0.32100001 4280167709
0.046884019 0.07254792 0.32000002 4279907102
0.047773615 0.072321199 0.31900001 4280238116
0.04880973 0.072321199 0.31900001 4279911715
0.049689587 0.072094493 0.31800002 4279780899
0.05072245 0.072094493 0.31800002 4279978026
0.051592559 0.071867779 0.317 4279516705
0.052622177 0.071867779 0.317 4278858261
0.053651791 0.071867779 0.317 4279845668
0.054508913 0.071641065 0.31600001 4279845668
0.055359542 0.071414359 0.31500003 4278460169
0.056382664 0.071414359 0.31500003 4279246096
0.05722354 0.071187645 0.31400001 4279246096
0.058057927 0.070960931 0.31300002 4279049744
0.059074551 0.070960931 0.31300002 4280300581
0.059899185 0.070734218 0.31200001 4280038690
0.060717333 0.070507504 0.31100002 4278590474
0.061528981 0.07028079 0.31 4278589961
0.06253586 0.07028079 0.31 4280827436
0.063337766 0.070054084 0.30900002 4279641365
0.064133175 0.06982737 0.30800003 4279442705
0.064922087 0.069600657 0.30700001 4279376912
0.06591922 0.069600657 0.30700001 4279311889
0.066698395 0.06937395 0.30600002 4278722828
0.067471065 0.069147229 0.30500001 4280040991
0.068461701 0.069147229 0.30500001 4280044582
0.069224633 0.068920523 0.30400002 4279847203
0.070212021 0.068920523 0.30400002 4280044582
0.071199417 0.068920523 0.30400002 4279913766
0.072186805 0.068920523 0.30400002 4279650594
0.072933495 0.068693802 0.303 4279519008
0.074161589 0.068920523 0.30400002 4279256088
0.075148985 0.068920523 0.30400002 4279058707
0.076136373 0.068920523 0.30400002 4279059992
0.077377461 0.069147229 0.30500001 4279520289
0.078368105 0.069147229 0.30500001 4279783975
0.046737507 0.073357664 0.31900001 4280628776
0.047773615 0.073357664 0.31900001 4280432167
0.04880973 0.073357664 0.31900001 4279710752
0.049689587 0.073127702 0.31800002 4280238377
0.05072245 0.073127702 0.31800002 4280437807
0.051755317 0.073127702 0.31800002 4280108842
0.052622177 0.07289774 0.317 4279912231
0.053651791 0.07289774 0.317 4279780645
0.054508913 0.072667778 0.31600001 4279780645
0.055359542 0.072437823 0.31500003 4279911461
0.056382664 0.072437823 0.31500003 4278985234
0.05722354 0.072207861 0.31400001 4278720779
0.058057927 0.071977898 0.31300002 4278983183
0.059074551 0.071977898 0.31300002 4279114769
0.059899185 0.071747936 0.31200001 4278457093
0.060717333 0.071517974 0.31100002 4279246609
0.061727464 0.071517974 0.31100002 4278589191
0.06253586 0.071288012 0.31 4279578650
0.063337766 0.07105805 0.30900002 4279445270
0.064133175 0.070828095 0.30800003 4280562983
0.065133564 0.070828095 0.30800003 4279443988
0.06591922 0.070598125 0.30700001 4279312402
0.066698395 0.070368171 0.30600002 4279180303
0.06769228 0.070368171 0.30600002 4279246609
0.068461701 0.070138201 0.30500001 4279186195
0.069224633 0.069908246 0.30400002 4280043299
0.070212021 0.069908246 0.30400002 4279912996
0.071199417 0.069908246 0.30400002 4280110375
0.071949348 0.069678284 0.303 4280110375
0.072933495 0.069678284 0.303 4280044582
0.073917635 0.069678284 0.303 4279912994
0.075148985 0.069908246 0.30400002 4279781662
0.076136373 0.069908246 0.30400002 4279059222
0.077377461 0.070138201 0.30500001 4278796566
0.078368105 0.070138201 0.30500001 4278928920
0.047773615 0.074394129 0.31900001 4280298784
0.04880973 0.074394129 0.31900001 4283129428
0.049689587 0.074160919 0.31800002 4285959810
0.05072245 0.074160919 0.31800002 4285631097
0.051755317 0.074160919 0.31800002 4281026612
0.052622177 0.073927708 0.317 4280239912
0.053651791 0.073927708 0.317 4279977254
0.054508913 0.073694497 0.31600001 4279781412
0.055535283 0.073694497 0.31600001 4279715619
0.056382664 0.073461294 0.31500003 4279977254
0.05722354 0.073228076 0.31400001 4280502573
0.058243413 0.073228076 0.31400001 4278985232
0.059074551 0.072994873 0.31300002 4279115537
0.059899185 0.072761655 0.31200001 4279245842
0.060912564 0.072761655 0.31200001 4279048463
0.061727464 0.072528452 0.31100002 4279575572
0.06253586 0.072295234 0.31 4279115535
0.063542739 0.072295234 0.31 4279115021
0.064341396 0.072062023 0.30900002 4278983435
0.065133564 0.07182882 0.30800003 4278655754
0.06591922 0.071595602 0.30700001 4279840028
0.066916354 0.071595602 0.30700001 4279247123
0.06769228 0.071362399 0.30600002 4279312402
0.068461701 0.07112918 0.30500001 4280961071
0.069452338 0.07112918 0.30500001 4280107043
0.070212021 0.070895977 0.30400002 4278198273
0.071199417 0.070895977 0.30400002 4280238368
0.072186805 0.070895977 0.30400002 4280438057
0.072933495 0.070662759 0.303 4280306471
0.073917635 0.070662759 0.303 4280241448
0.075148985 0.070895977 0.30400002 4279912481
0.076136373 0.070895977 0.30400002 4279912994
0.077377461 0.07112918 0.30500001 4279453213
0.078368105 0.07112918 0.30500001 4279124761
0.052622177 0.074957669 0.317 4285236852
0.053651791 0.074957669 0.317 4280501038
0.054508913 0.07472121 0.31600001 4280043301
0.055535283 0.07472121 0.31600001 4279846692
0.056382664 0.074484758 0.31500003 4279649313
0.05722354 0.074248292 0.31400001 4279780899
0.058243413 0.074248292 0.31400001 4279912485
0.059074551 0.07401184 0.31300002 4279976740
0.059899185 0.073775373 0.31200001 4279774235
0.060912564 0.073775373 0.31200001 4279246609
0.061727464 0.073538914 0.31100002 4279442451
0.06253586 0.073302455 0.31 4279310865
0.063542739 0.073302455 0.31 4279180816
0.064341396 0.073065996 0.30900002 4281286704
0.065345034 0.073065996 0.30900002 4280894764
0.066133946 0.072829537 0.30800003 4278657035
0.066916354 0.072593078 0.30700001 4279050514
0.06769228 0.072356619 0.30600002 4279181330
0.068686165 0.072356619 0.30600002 4280699950
0.069452338 0.07212016 0.30500001 4280437545
0.070442982 0.07212016 0.30500001 4280437032
0.071199417 0.071883701 0.30400002 4280633128
0.072186805 0.071883701 0.30400002 4278263810
0.072933495 0.071647234 0.303 4280238629
0.073917635 0.071647234 0.303 4280240426
0.074901782 0.071647234 0.303 4280503852
0.075635478 0.071410783 0.30200002 4280241446
0.077377461 0.07212016 0.30500001 4280044580
0.078368105 0.07212016 0.30500001 4279716387
0.055359542 0.075508229 0.31500003 4280764208
0.056382664 0.075508229 0.31500003 4280240166
0.05722354 0.075268514 0.31400001 4280109094
0.058243413 0.075268514 0.31400001 4279780899
0.059074551 0.075028807 0.31300002 4279846692
0.059899185 0.074789092 0.31200001 4279911715
0.060912564 0.074789092 0.31200001 4280502573
0.061727464 0.074549392 0.31100002 4279577369
0.062737592 0.074549392 0.31100002 4279180816
0.063542739 0.074309677 0.31 4279245842
0.064341396 0.074069969 0.30900002 4279180562
0.065345034 0.074069969 0.30900002 4278655754
0.066133946 0.073830262 0.30800003 4280893229
0.067134328 0.073830262 0.30800003 4279313684
0.067913495 0.073590554 0.30700001 4279641881
0.068686165 0.073350847 0.30600002 4280569131
0.069680057 0.073350847 0.30600002 4280306473
0.070442982 0.073111132 0.30500001 4280438059
0.071199417 0.072871432 0.30400002 4280240678
0.072186805 0.072871432 0.30400002 4280502823
0.072933495 0.072631717 0.303 4280304422
0.073917635 0.072631717 0.303 4278526730
0.074901782 0.072631717 0.303 4279975459
0.075635478 0.072392009 0.30200002 4280174371
0.076616377 0.072392009 0.30200002 4280306469
0.078368105 0.073111132 0.30500001 4280306469
0.05722354 0.07628873 0.31400001 4280631592
0.058243413 0.07628873 0.31400001 4280240426
0.059074551 0.076045781 0.31300002 4280108840
0.059899185 0.075802818 0.31200001 4279978278
0.060912564 0.075802818 0.31200001 4279714852
0.061727464 0.075559862 0.31100002 4280109610
0.062737592 0.075559862 0.31100002 4280043047
0.063542739 0.075316899 0.31 4279774750
0.064549617 0.075316899 0.31 4279312148
0.065345034 0.075073943 0.30900002 4279311635
0.066133946 0.074830994 0.30800003 4279442705
0.067134328 0.074830994 0.30800003 4279312402
0.067913495 0.074588031 0.30700001 4280432163
0.068910629 0.074588031 0.30700001 4280437543
0.069680057 0.074345075 0.30600002 4280306471
0.070442982 0.074102111 0.30500001 4279647262
0.071433619 0.074102111 0.30500001 4278593804
0.072186805 0.073859155 0.30400002 4279382037
0.073174201 0.073859155 0.30400002 4280962093
0.073917635 0.073616199 0.303 4280698921
0.074901782 0.073616199 0.303 4280435495
0.075635478 0.073373243 0.30200002 4278329097
0.076616377 0.073373243 0.30200002 4280171039
0.077597275 0.073373243 0.30200002 4280437032
0.059074551 0.077062748 0.31300002 4280763438
0.059899185 0.076816536 0.31200001 4280305192
0.060912564 0.076816536 0.31200001 4280043047
0.061727464 0.076570332 0.31100002 4279846438
0.062737592 0.076570332 0.31100002 4279912231
0.063542739 0.07632412 0.31 4280043047
0.064549617 0.07632412 0.31 4280634670
0.065345034 0.076077916 0.30900002 4280235297
0.066348664 0.076077916 0.30900002 4279378193
0.067134328 0.075831711 0.30800003 4279443475
0.067913495 0.075585499 0.30700001 4281156399
0.068910629 0.075585499 0.30700001 4280371750
0.069680057 0.075339295 0.30600002 4280569129
0.07067395 0.075339295 0.30600002 4279313936
0.071433619 0.075093083 0.30500001 4279181326
0.072186805 0.074846886 0.30400002 4279181328
0.073174201 0.074846886 0.30400002 4279312912
0.073917635 0.074600674 0.303 4279778078
0.074901782 0.074600674 0.303 4280568877
0.075885922 0.074600674 0.303 4280634159
0.076616377 0.07435447 0.30200002 4280830255
0.077597275 0.07435447 0.30200002 4278920459
0.078578167 0.07435447 0.30200002 4279644182
0.079295628 0.074108265 0.30100003 4280897581
0.060912564 0.077830255 0.31200001 4280368934
0.061727464 0.077580802 0.31100002 4280109094
0.06253586 0.077331342 0.31 4279780899
0.063542739 0.077331342 0.31 4279912485
0.064341396 0.077081889 0.30900002 4280109094
0.065345034 0.077081889 0.30900002 4280109094
0.066348664 0.077081889 0.30900002 4280437545
0.067134328 0.076832436 0.30800003 4279841822
0.067913495 0.076582976 0.30700001 4281092403
0.068910629 0.076582976 0.30700001 4280372266
0.069680057 0.076333523 0.30600002 4280437545
0.07067395 0.076333523 0.30600002 4279379475
0.071433619 0.076084062 0.30500001 4279377680
0.072424263 0.076084062 0.30500001 4280167198
0.073174201 0.07583461 0.30400002 4279509268
0.074161589 0.07583461 0.30400002 4280368680
0.074901782 0.075585149 0.303 4279777826
0.075885922 0.075585149 0.303 4279185941
0.076616377 0.075335696 0.30200002 4280764460
0.077597275 0.075335696 0.30200002 4280896046
0.078578167 0.075335696 0.30200002 4281225013
0.079295628 0.075086243 0.30100003 4278657548
0.080273278 0.075086243 0.30100003 4279447832
0.061727464 0.078591272 0.31100002 4283919959
0.06253586 0.078338563 0.31 4281092141
0.063542739 0.078338563 0.31 4280437032
0.064341396 0.078085862 0.30900002 4280174373
0.065345034 0.078085862 0.30900002 4279780899
0.066133946 0.077833161 0.30800003 4279912485
0.067134328 0.077833161 0.30800003 4280240680
0.067913495 0.077580452 0.30700001 4280109094
0.068910629 0.077580452 0.30700001 4279251223
0.069680057 0.077327751 0.30600002 4278460937
0.07067395 0.077327751 0.30600002 4280828458
0.071433619 0.077075042 0.30500001 4279182350
0.072424263 0.077075042 0.30500001 4279443471
0.073174201 0.076822333 0.30400002 4279311117
0.074161589 0.076822333 0.30400002 4280894510
0.074901782 0.076569624 0.303 4280105508
0.075885922 0.076569624 0.303 4280567594
0.076616377 0.076316923 0.30200002 4280238629
0.077597275 0.076316923 0.30200002 4280107045
0.078578167 0.076316923 0.30200002 4280502832
0.079295628 0.076064222 0.30100003 4280699698
0.080273278 0.076064222 0.30100003 4280764208
0.081250928 0.076064222 0.30100003 4279249937
0.06253586 0.079345785 0.31 4284246873
0.063542739 0.079345785 0.31 4283853399
0.064341396 0.079089835 0.30900002 4280762665
0.065345034 0.079089835 0.30900002 4280371752
0.066133946 0.078833885 0.30800003 4280240680
0.067134328 0.078833885 0.30800003 4279978278
0.067913495 0.078577928 0.30700001 4280175657
0.068910629 0.078577928 0.30700001 4280240680
0.069680057 0.078321978 0.30600002 4280700717
0.07067395 0.078321978 0.30600002 4280039453
0.071667835 0.078321978 0.30600002 4279578391
0.072424263 0.078066014 0.30500001 4281090858
0.073414907 0.078066014 0.30500001 4280828456
0.074161589 0.077810064 0.30400002 4280763944
0.075148985 0.077810064 0.30400002 4279579416
0.075885922 0.077554107 0.303 4280699434
0.076870069 0.077554107 0.303 4280765227
0.077597275 0.077298157 0.30200002 4278527246
0.078578167 0.077298157 0.30200002 4280567342
0.079559065 0.077298157 0.30200002 4279712033
0.080273278 0.077042207 0.30100003 4280369702
0.081250928 0.077042207 0.30100003 4280895528
0.082228571 0.077042207 0.30100003 4281290286
0.082929783 0.07678625 0.30000001 4278920972
0.063542739 0.080353007 0.31 4284312668
0.064341396 0.080093808 0.30900002 4284115289
0.065345034 0.080093808 0.30900002 4283129676
0.066133946 0.07983461 0.30800003 4280960044
0.067134328 0.07983461 0.30800003 4280108580
0.067913495 0.079575405 0.30700001 4280240680
0.068910629 0.079575405 0.30700001 4280175655
0.069680057 0.079316199 0.30600002 4280307241
0.07067395 0.079316199 0.30600002 4280438059
0.071667835 0.079316199 0.30600002 4280634411
0.072424263 0.079056993 0.30500001 4279974176
0.073414907 0.079056993 0.30500001 4278920974
0.074161589 0.078797795 0.30400002 4280434725
0.075148985 0.078797795 0.30400002 4280501288
0.075885922 0.078538589 0.303 4279514908
0.076870069 0.078538589 0.303 4278528013
0.077597275 0.078279383 0.30200002 4280040485
0.078578167 0.078279383 0.30200002 4279184408
0.079559065 0.078279383 0.30200002 4280829231
0.080273278 0.078020185 0.30100003 4280763690
0.081250928 0.078020185 0.30100003 4279712024
0.081955381 0.07776098 0.30000001 4280501540
0.082929783 0.07776098 0.30000001 4280436260
0.083624512 0.077501781 0.29900002 4280567846
0.084595665 0.077501781 0.29900002 4279711002
0.064341396 0.081097774 0.30900002 4284115289
0.065133564 0.080835328 0.30800003 4284180567
0.066133946 0.080835328 0.30800003 4284377946
0.066916354 0.080572866 0.30700001 4283260744
0.067913495 0.080572866 0.30700001 4280762917
0.068910629 0.080572866 0.30700001 4280240678
0.069680057 0.080310419 0.30600002 4279977506
0.07067395 0.080310419 0.30600002 4280175657
0.071667835 0.080310419 0.30600002 4280307243
0.072424263 0.080047965 0.30500001 4280240680
0.073414907 0.080047965 0.30500001 4280436778
0.074161589 0.079785518 0.30400002 4280236834
0.075148985 0.079785518 0.30400002 4278789388
0.075885922 0.079523057 0.303 4280633389
0.076870069 0.079523057 0.303 4280436780
0.077854216 0.079523057 0.303 4280502571
0.078578167 0.07926061 0.30200002 4279975457
0.079559065 0.07926061 0.30200002 4280501290
0.080273278 0.078998163 0.30100003 4280633387
0.081250928 0.078998163 0.30100003 4280764460
0.081955381 0.078735702 0.30000001 4279909405
0.082929783 0.078735702 0.30000001 4280699432
0.083624512 0.078473255 0.29900002 4280765225
0.084595665 0.078473255 0.29900002 4280633639
0.085280634 0.078210801 0.29800001 4280633639
0.086248539 0.078210801 0.29800001 4279842326
0.087216437 0.078210801 0.29800001 4279382037
0.066133946 0.081836052 0.30800003 4284048983
0.066916354 0.08157035 0.30700001 4283983188
0.067913495 0.08157035 0.30700001 4283851602
0.068910629 0.08157035 0.30700001 4283262029
0.069680057 0.081304647 0.30600002 4280434211
0.07067395 0.081304647 0.30600002 4279977508
0.071667835 0.081304647 0.30600002 4280240680
0.072424263 0.081038944 0.30500001 4280109094
0.073414907 0.081038944 0.30500001 4280438059
0.074161589 0.080773242 0.30400002 4280700717
0.075148985 0.080773242 0.30400002 4280567848
0.076136373 0.080773242 0.30400002 4280039967
0.076870069 0.080507539 0.303 4278724107
0.077854216 0.080507539 0.303 4280764714
0.078578167 0.080241837 0.30200002 4280633641
0.079559065 0.080241837 0.30200002 4279909918
0.080273278 0.079976141 0.30100003 4279514393
0.081250928 0.079976141 0.30100003 4279250453
0.081955381 0.079710439 0.30000001 4280500518
0.082929783 0.079710439 0.30000001 4279908635
0.083624512 0.079444736 0.29900002 4280633126
0.084595665 0.079444736 0.29900002 4280567846
0.085280634 0.079179034 0.29800001 4280567846
0.086248539 0.079179034 0.29800001 4280831018
0.086923771 0.078913331 0.29700002 4280765225
0.087888427 0.078913331 0.29700002 4280171553
0.088853084 0.078913331 0.29700002 4279118351
0.1012356 0.077319123 0.29100001 4280437541
0.10218077 0.077319123 0.29100001 4281224495
0.067913495 0.082567826 0.30700001 4283917395
0.068910629 0.082567826 0.30700001 4283852115
0.06990777 0.082567826 0.30700001 4283654990
0.07067395 0.082298875 0.30600002 4282734400
0.071667835 0.082298875 0.30600002 4281026089
0.072424263 0.082029924 0.30500001 4280305446
0.073414907 0.082029924 0.30500001 4279977508
0.074405544 0.082029924 0.30500001 4280110377
0.075148985 0.081760973 0.30400002 4280241450
0.076136373 0.081760973 0.30400002 4280634924
0.076870069 0.081492022 0.303 4280700202
0.077854216 0.081492022 0.303 4280763944
0.078578167 0.081223071 0.30200002 4278789640
0.079559065 0.081223071 0.30200002 4280434727
0.080273278 0.080954127 0.30100003 4280566313
0.081250928 0.080954127 0.30100003 4280764714
0.081955381 0.080685169 0.30000001 4280633128
0.082929783 0.080685169 0.30000001 4280631331
0.083624512 0.080416225 0.29900002 4279972377
0.084595665 0.080416225 0.29900002 4279644436
0.085280634 0.080147266 0.29800001 4280566563
0.086248539 0.080147266 0.29800001 4280436260
0.086923771 0.079878323 0.29700002 4280633639
0.087888427 0.079878323 0.29700002 4280436262
0.088853084 0.079878323 0.29700002 4280633641
0.089515321 0.079609364 0.296 4280039967
0.090476729 0.079609364 0.296 4279578902
0.098738238 0.078533567 0.29200003 4279388187
0.099345259 0.078264616 0.29100001 4279585566
0.10029043 0.078264616 0.29100001 4279453467
0.1012356 0.078264616 0.29100001 4279650076
0.10218077 0.078264616 0.29100001 4279715869
0.10312594 0.078264616 0.29100001 4280437541
0.1040711 0.078264616 0.29100001 4280764714
0.067913495 0.083565302 0.30700001 4283917395
0.068910629 0.083565302 0.30700001 4284048465
0.06990777 0.083565302 0.30700001 4283851086
0.07067395 0.083293103 0.30600002 4283982672
0.071667835 0.083293103 0.30600002 4283588684
0.07266172 0.083293103 0.30600002 4282801478
0.073414907 0.083020896 0.30500001 4280762665
0.074405544 0.083020896 0.30500001 4280567594
0.075148985 0.082748704 0.30400002 4280502825
0.076136373 0.082748704 0.30400002 4280174373
0.076870069 0.082476497 0.303 4280503338
0.077854216 0.082476497 0.303 4280634922
0.078578167 0.082204305 0.30200002 4280502823
0.079559065 0.082204305 0.30200002 4280303911
0.080273278 0.081932105 0.30100003 4279184406
0.081250928 0.081932105 0.30100003 4279842590
0.081955381 0.081659898 0.30000001 4280435495
0.082929783 0.081659898 0.30000001 4280632874
0.083624512 0.081387706 0.29900002 4280566313
0.084595665 0.081387706 0.29900002 4280565032
0.085280634 0.081115499 0.29800001 4279841563
0.086248539 0.081115499 0.29800001 4280697637
0.086923771 0.080843307 0.29700002 4280434979
0.087888427 0.080843307 0.29700002 4280172836
0.088853084 0.080843307 0.29700002 4280502825
0.089515321 0.0805711 0.296 4280502825
0.090476729 0.0805711 0.296 4280305446
0.091438144 0.0805711 0.296 4280500772
0.097173057 0.079754502 0.29300001 4278795537
0.097789824 0.07948231 0.29200003 4278993429
0.098738238 0.07948231 0.29200003 4279125015
0.09968666 0.07948231 0.29200003 4279388187
0.10029043 0.079210103 0.29100001 4279651359
0.1012356 0.079210103 0.29100001 4279256347
0.10218077 0.079210103 0.29100001 4279387933
0.10312594 0.079210103 0.29100001 4279386904
0.1040711 0.079210103 0.29100001 4279781149
0.10501627 0.079210103 0.29100001 4280960555
0.10596144 0.079210103 0.29100001 4283459154
0.067913495 0.084562778 0.30700001 4284048211
0.068910629 0.084562778 0.30700001 4283982672
0.06990777 0.084562778 0.30700001 4283982672
0.07067395 0.084287331 0.30600002 4283982672
0.071667835 0.084287331 0.30600002 4284180051
0.07266172 0.084287331 0.30600002 4284048981
0.073414907 0.084011875 0.30500001 4284312666
0.074405544 0.084011875 0.30500001 4283985500
0.075148985 0.083736435 0.30400002 4280960044
0.075885922 0.083460979 0.303 4280633128
0.076870069 0.083460979 0.303 4280502825
0.077854216 0.083460979 0.303 4280437545
0.078578167 0.083185531 0.30200002 4280240680
0.079559065 0.083185531 0.30200002 4280569131
0.080273278 0.082910091 0.30100003 4280634157
0.081250928 0.082910091 0.30100003 4280961587
0.081955381 0.082634635 0.30000001 4279512857
0.082929783 0.082634635 0.30000001 4280367905
0.083624512 0.082359187 0.29900002 4280895276
0.084595665 0.082359187 0.29900002 4280829483
0.085280634 0.082083732 0.29800001 4280632104
0.086248539 0.082083732 0.29800001 4280895014
0.087216437 0.082083732 0.29800001 4280039194
0.087888427 0.081808291 0.29700002 4280697383
0.088853084 0.081808291 0.29700002 4279711002
0.089515321 0.081532836 0.296 4280042020
0.090476729 0.081532836 0.296 4280239399
0.091438144 0.081532836 0.296 4280437032
0.092087395 0.081257388 0.29500002 4280502825
0.093045548 0.081257388 0.29500002 4281093425
0.094003707 0.081257388 0.29500002 4279513109
0.094639964 0.08098194 0.294 4278921486
0.095594876 0.08098194 0.294 4280436778
0.096549787 0.08098194 0.294 4279912483
0.097173057 0.080706492 0.29300001 4279517725
0.098124713 0.080706492 0.29300001 4279189525
0.098738238 0.080431044 0.29200003 4279058709
0.09968666 0.080431044 0.29200003 4278927636
0.10063507 0.080431044 0.29200003 4279190808
0.1015835 0.080431044 0.29200003 4279453726
0.10218077 0.080155596 0.29100001 4279519519
0.10312594 0.080155596 0.29100001 4279256601
0.1040711 0.080155596 0.29100001 4279386902
0.10501627 0.080155596 0.29100001 4279648793
0.10596144 0.080155596 0.29100001 4280699434
0.10690661 0.080155596 0.29100001 4283852369
0.06990777 0.08556024 0.30700001 4284048211
0.07067395 0.085281551 0.30600002 4284114258
0.071667835 0.085281551 0.30600002 4284180051
0.07266172 0.085281551 0.30600002 4284311637
0.073414907 0.085002847 0.30500001 4284442969
0.074405544 0.085002847 0.30500001 4284641120
0.075148985 0.084724151 0.30400002 4284773219
0.075885922 0.084445447 0.303 4285102700
0.076870069 0.084445447 0.303 4282602562
0.077597275 0.084166758 0.30200002 4280631590
0.078578167 0.084166758 0.30200002 4280763944
0.079295628 0.083888061 0.30100003 4280567848
0.080273278 0.083888061 0.30100003 4280567848
0.081250928 0.083888061 0.30100003 4280832303
0.081955381 0.083609357 0.30000001 4280700204
0.082929783 0.083609357 0.30000001 4280631844
0.083624512 0.083330661 0.29900002 4279644182
0.084595665 0.083330661 0.29900002 4280367905
0.085566819 0.083330661 0.29900002 4280697383
0.086248539 0.083051965 0.29800001 4280763944
0.087216437 0.083051965 0.29800001 4280303393
0.087888427 0.082773268 0.29700002 4280500258
0.088853084 0.082773268 0.29700002 4280434465
0.089515321 0.082494564 0.296 4279711772
0.090476729 0.082494564 0.296 4279712285
0.091438144 0.082494564 0.296 4279778332
0.092087395 0.082215868 0.29500002 4280173860
0.093045548 0.082215868 0.29500002 4280437032
0.094003707 0.082215868 0.29500002 4280239653
0.094961874 0.082215868 0.29500002 4280303909
0.095594876 0.081937164 0.294 4279118865
0.096549787 0.081937164 0.294 4279646746
0.097173057 0.081658475 0.29300001 4280305444
0.098124713 0.081658475 0.29300001 4280108576
0.099076383 0.081658475 0.29300001 4279649309
0.09968666 0.081379779 0.29200003 4278991892
0.10063507 0.081379779 0.29200003 4279058455
0.1015835 0.081379779 0.29200003 4278993175
0.10253191 0.081379779 0.29200003 4278993945
0.10312594 0.081101075 0.29100001 4279190554
0.1040711 0.081101075 0.29100001 4279321627
0.10501627 0.081101075 0.29100001 4279255834
0.10596144 0.081101075 0.29100001 4279452443
0.10690661 0.081101075 0.29100001 4280367905
0.075148985 0.085711882 0.30400002 4285035108
0.075885922 0.085429929 0.303 4285364073
0.076870069 0.085429929 0.303 4285166694
0.077597275 0.085147984 0.30200002 4286089079
0.078578167 0.085147984 0.30200002 4283655252
0.079295628 0.084866039 0.30100003 4280960042
0.080273278 0.084866039 0.30100003 4281026602
0.081250928 0.084866039 0.30100003 4280437030
0.081955381 0.084584087 0.30000001 4280634409
0.082929783 0.084584087 0.30000001 4281028397
0.083624512 0.08430215 0.29900002 4280765225
0.084595665 0.08430215 0.29900002 4281223981
0.085566819 0.08430215 0.29900002 4279381010
0.086248539 0.084020197 0.29800001 4280039453
0.087216437 0.084020197 0.29800001 4280566311
0.087888427 0.083738253 0.29700002 4280763690
0.088853084 0.083738253 0.29700002 4280501288
0.08981774 0.083738253 0.29700002 4280369702
0.090476729 0.0834563 0.296 4279448602
0.091438144 0.0834563 0.296 4280238116
0.092399552 0.0834563 0.296 4279580186
0.093045548 0.083174355 0.29500002 4280371752
0.094003707 0.083174355 0.29500002 4280437545
0.094961874 0.083174355 0.29500002 4280238883
0.095594876 0.082892403 0.294 4280699434
0.096549787 0.082892403 0.294 4279380758
0.097504705 0.082892403 0.294 4280436262
0.098124713 0.082610466 0.29300001 4280437028
0.099076383 0.082610466 0.29300001 4280502821
0.10002805 0.082610466 0.29300001 4279912481
0.10063507 0.082328521 0.29200003 4279584029
0.1015835 0.082328521 0.29200003 4279190295
0.10253191 0.082328521 0.29200003 4279058709
0.10348033 0.082328521 0.29200003 4279256088
0.10442874 0.082328521 0.29200003 4279584283
0.10501627 0.082046568 0.29100001 4279189271
0.10596144 0.082046568 0.29100001 4279255064
0.10690661 0.082046568 0.29100001 4279975198
0.078317977 0.085844025 0.30100003 4285430638
0.079295628 0.085844025 0.30100003 4285365356
0.080273278 0.085844025 0.30100003 4284970598
0.080980986 0.085558824 0.30000001 4281485357
0.081955381 0.085558824 0.30000001 4281091880
0.082929783 0.085558824 0.30000001 4280501538
0.083624512 0.085273631 0.29900002 4280699430
0.084595665 0.085273631 0.29900002 4280437030
0.085566819 0.085273631 0.29900002 4280502825
0.086248539 0.08498843 0.29800001 4280763690
0.087216437 0.08498843 0.29800001 4279578902
0.087888427 0.084703237 0.29700002 4279842076
0.088853084 0.084703237 0.29700002 4280238118
0.08981774 0.084703237 0.29700002 4280370469
0.090476729 0.084418036 0.296 4280238883
0.091438144 0.084418036 0.296 4280105762
0.092399552 0.084418036 0.296 4279710236
0.093045548 0.084132843 0.29500002 4280304676
0.094003707 0.084132843 0.29500002 4280437032
0.094961874 0.084132843 0.29500002 4280239653
0.095920034 0.084132843 0.29500002 4279053842
0.096549787 0.083847642 0.294 4280763178
0.097504705 0.083847642 0.294 4280698667
0.098459609 0.083847642 0.294 4280699432
0.099076383 0.083562449 0.29300001 4280437030
0.10002805 0.083562449 0.29300001 4280240164
0.10097972 0.083562449 0.29300001 4280108578
0.1015835 0.083277255 0.29200003 4279911965
0.10253191 0.083277255 0.29200003 4279648793
0.10348033 0.083277255 0.29200003 4279451414
0.10442874 0.083277255 0.29200003 4279255318
0.10537716 0.083277255 0.29200003 4279386904
0.10632557 0.083277255 0.29200003 4279386652
0.10690661 0.082992055 0.29100001 4279386139
0.080273278 0.086822003 0.30100003 4285693040
0.080980986 0.086533554 0.30000001 4285496431
0.081955381 0.086533554 0.30000001 4284970085
0.082929783 0.086533554 0.30000001 4281615919
0.083624512 0.086245112 0.29900002 4281156905
0.084595665 0.086245112 0.29900002 4280633639
0.085566819 0.086245112 0.29900002 4280633641
0.086248539 0.085956663 0.29800001 4280699434
0.087216437 0.085956663 0.29800001 4280765227
0.087888427 0.085668221 0.29700002 4280763690
0.088853084 0.085668221 0.29700002 4279644697
0.08981774 0.085668221 0.29700002 4279644184
0.090476729 0.085379772 0.296 4280566313
0.091438144 0.085379772 0.296 4280172071
0.092399552 0.085379772 0.296 4279974946
0.093045548 0.08509133 0.29500002 4280567848
0.094003707 0.08509133 0.29500002 4280437032
0.094961874 0.08509133 0.29500002 4280238629
0.095920034 0.08509133 0.29500002 4279117586
0.096878193 0.08509133 0.29500002 4280697383
0.097504705 0.084802881 0.294 4280764714
0.098459609 0.084802881 0.294 4280633639
0.09941452 0.084802881 0.294 4280700202
0.10002805 0.084514439 0.29300001 4280305444
0.10097972 0.084514439 0.29300001 4280239651
0.10193138 0.084514439 0.29300001 4280173858
0.10288304 0.084514439 0.29300001 4280108578
0.10348033 0.084225997 0.29200003 4279517207
0.10442874 0.084225997 0.29200003 4279451414
0.10537716 0.084225997 0.29200003 4279188758
0.10632557 0.084225997 0.29200003 4279189271
0.107274 0.084225997 0.29200003 4278991894
0.082653359 0.087216586 0.29900002 4285232489
0.083624512 0.087216586 0.29900002 4285100903
0.084595665 0.087216586 0.29900002 4282866758
0.085280634 0.086924888 0.29800001 4280960042
0.086248539 0.086924888 0.29800001 4280698921
0.087216437 0.086924888 0.29800001 4280567848
0.088184342 0.086924888 0.29800001 4280699434
0.088853084 0.086633198 0.29700002 4280765227
0.08981774 0.086633198 0.29700002 4280895276
0.090476729 0.0863415 0.296 4279644443
0.091438144 0.0863415 0.296 4279841309
0.092399552 0.0863415 0.296 4280434727
0.093045548 0.08604981 0.29500002 4280239653
0.094003707 0.08604981 0.29500002 4280502823
0.094961874 0.08604981 0.29500002 4280105760
0.095920034 0.08604981 0.29500002 4279248656
0.096878193 0.08604981 0.29500002 4280633128
0.097504705 0.085758112 0.294 4280633639
0.098459609 0.085758112 0.294 4280633639
0.09941452 0.085758112 0.294 4280437030
0.10036944 0.085758112 0.294 4280502823
0.10097972 0.085466422 0.29300001 4280437030
0.10193138 0.085466422 0.29300001 4280437030
0.10288304 0.085466422 0.29300001 4280108065
0.10383471 0.085466422 0.29300001 4279911197
0.10442874 0.085174732 0.29200003 4279451160
0.10537716 0.085174732 0.29200003 4279516953
0.10632557 0.085174732 0.29200003 4279451160
0.107274 0.085174732 0.29200003 4278991379
0.084595665 0.088188075 0.29900002 4284773221
0.085280634 0.087893121 0.29800001 4284642149
0.086248539 0.087893121 0.29800001 4283458125
0.087216437 0.087893121 0.29800001 4281222444
0.088184342 0.087893121 0.29800001 4280631844
0.088853084 0.087598182 0.29700002 4280829737
0.08981774 0.087598182 0.29700002 4280633641
0.090476729 0.087303236 0.296 4280699180
0.091438144 0.087303236 0.296 4280895276
0.092399552 0.087303236 0.296 4279250451
0.093045548 0.087008297 0.29500002 4279578389
0.094003707 0.087008297 0.29500002 4280697383
0.094961874 0.087008297 0.29500002 4279117070
0.095920034 0.087008297 0.29500002 4280235038
0.096878193 0.087008297 0.29500002 4280501540
