# .PCD v0.7 - Point Cloud Data file format
VERSION 0.7
FIELDS x y z rgb
SIZE 4 4 4 4
TYPE F F F U
COUNT 1 1 1 1
WIDTH 1058
HEIGHT 1
VIEWPOINT 0 0 0 1 0 0 0
POINTS 1058
DATA ascii
0.074771211 0.051370215 0.33800003 4278529810
0.075869031 0.051370215 0.33800003 4278196230
0.076739147 0.05121823 0.33700001 4278194181
0.07783372 0.05121823 0.33700001 4278391046
0.07869409 0.05106625 0.33600003 4278522632
0.079785421 0.05106625 0.33600003 4278328070
0.080876753 0.05106625 0.33600003 4278263304
0.081724122 0.050914265 0.33500001 4278988051
0.082812198 0.050914265 0.33500001 4278856465
0.083649829 0.050762285 0.33400002 4278197764
0.084734663 0.050762285 0.33400002 4278660367
0.08556255 0.050610296 0.333 4278199816
0.086644135 0.050610296 0.333 4278197760
0.087462284 0.050458316 0.33200002 4278595087
0.088540621 0.050458316 0.33200002 4278858513
0.089349031 0.050306335 0.33100003 4278990099
0.090424113 0.050306335 0.33100003 4278858513
0.091222763 0.050154351 0.33000001 4278923539
0.092294604 0.050154351 0.33000001 4278857746
0.093083523 0.05000237 0.32900003 4278922258
0.094152115 0.05000237 0.32900003 4279250453
0.095220707 0.05000237 0.32900003 4278657037
0.096289292 0.05000237 0.32900003 4278194432
0.097357891 0.05000237 0.32900003 4278193408
0.098426484 0.05000237 0.32900003 4278195970
0.099495076 0.05000237 0.32900003 4278197250
0.10056367 0.05000237 0.32900003 4278528013
0.10163227 0.05000237 0.32900003 4279120918
0.10270086 0.05000237 0.32900003 4278792466
0.10376944 0.05000237 0.32900003 4278859543
0.10515669 0.050154351 0.33000001 4278728211
0.10622853 0.050154351 0.33000001 4278728209
0.10730037 0.050154351 0.33000001 4278859795
0.10837222 0.050154351 0.33000001 4278531343
0.10977571 0.050306335 0.33100003 4278663699
0.1108508 0.050306335 0.33100003 4278597904
0.11192589 0.050306335 0.33100003 4278795283
0.11300097 0.050306335 0.33100003 4278861076
0.1144207 0.050458316 0.33200002 4279321627
0.036813851 0.054796893 0.35300002 4279507213
0.037960395 0.054796893 0.35300002 4279375627
0.039106943 0.054796893 0.35300002 4279573006
0.040253483 0.054796893 0.35300002 4279837461
0.04140003 0.054796893 0.35300002 4282208574
0.042426046 0.05464166 0.35200003 4282868552
0.043445565 0.054486427 0.35100001 4279053842
0.04445859 0.054331198 0.35000002 4279252504
0.045595393 0.054331198 0.35000002 4279516189
0.046465151 0.054020733 0.34800002 4279451680
0.047458682 0.0538655 0.347 4279320607
0.048445724 0.053710267 0.34600002 4279255068
0.049569536 0.053710267 0.34600002 4279320861
0.050546836 0.053555038 0.34500003 4278991896
0.051667392 0.053555038 0.34500003 4279123482
0.052634943 0.053399805 0.34400001 4279188762
0.053752258 0.053399805 0.34400001 4279188762
0.054710064 0.053244572 0.34300002 4279187992
0.055824131 0.053244572 0.34300002 4278990613
0.056938197 0.053244572 0.34300002 4278924820
0.057883006 0.053089339 0.34200001 4278924820
0.058993824 0.053089339 0.34200001 4278858773
0.060104642 0.053089339 0.34200001 4278858773
0.061036471 0.05293411 0.34100002 4279055638
0.062144034 0.05293411 0.34100002 4279055125
0.063251607 0.05293411 0.34100002 4279381785
0.064170435 0.052778874 0.34 4278789136
0.065274753 0.052778874 0.34 4278524170
0.066183843 0.052623644 0.33900002 4278391300
0.067284919 0.052623644 0.33900002 4278587142
0.068385988 0.052623644 0.33900002 4278652935
0.069487065 0.052623644 0.33900002 4278652937
0.070379913 0.052468415 0.33800003 4278652935
0.071477741 0.052468415 0.33800003 4278522119
0.072575562 0.052468415 0.33800003 4278456839
0.07367339 0.052468415 0.33800003 4278660628
0.074771211 0.052468415 0.33800003 4278529556
0.075869031 0.052468415 0.33800003 4278196486
0.076739147 0.052313179 0.33700001 4278456326
0.07783372 0.052313179 0.33700001 4278587912
0.078928299 0.052313179 0.33700001 4278719498
0.079785421 0.05215795 0.33600003 4278919439
0.080876753 0.05215795 0.33600003 4278394376
0.081968077 0.05215795 0.33600003 4278922769
0.082812198 0.052002717 0.33500001 4278726414
0.08390028 0.052002717 0.33500001 4278196480
0.084734663 0.051847484 0.33400002 4278329867
0.085819498 0.051847484 0.33400002 4279251223
0.086644135 0.051692251 0.333 4278922771
0.087725721 0.051692251 0.333 4278264839
0.088540621 0.051537022 0.33200002 4278726160
0.089618966 0.051537022 0.33200002 4278660880
0.090424113 0.051381789 0.33100003 4278792466
0.091499202 0.051381789 0.33100003 4279121431
0.092294604 0.051226556 0.33000001 4278726673
0.093366444 0.051226556 0.33000001 4278727187
0.094438292 0.051226556 0.33000001 4278858773
0.095510133 0.051226556 0.33000001 4278858259
0.096289292 0.051071327 0.32900003 4278923539
0.097357891 0.051071327 0.32900003 4278988562
0.098426484 0.051071327 0.32900003 4278988049
0.099495076 0.051071327 0.32900003 4279251223
0.10056367 0.051071327 0.32900003 4278921488
0.10194118 0.051226556 0.33000001 4278195970
0.10301302 0.051226556 0.33000001 4278195969
0.10408485 0.051226556 0.33000001 4278196740
0.10515669 0.051226556 0.33000001 4278725390
0.10622853 0.051226556 0.33000001 4278661648
0.10730037 0.051226556 0.33000001 4278661648
0.10870063 0.051381789 0.33100003 4278728722
0.10977571 0.051381789 0.33100003 4278531343
0.1108508 0.051381789 0.33100003 4278662927
0.11192589 0.051381789 0.33100003 4278794767
0.11300097 0.051381789 0.33100003 4278598158
0.1144207 0.051537022 0.33200002 4278795283
0.11549903 0.051537022 0.33200002 4279123478
0.11657737 0.051537022 0.33200002 4279188758
0.037960395 0.055943821 0.35300002 4279573006
0.039106943 0.055943821 0.35300002 4279638799
0.040253483 0.055943821 0.35300002 4279639571
0.04140003 0.055943821 0.35300002 4284246875
0.042546574 0.055943821 0.35300002 4283590740
0.045595393 0.05546838 0.35000002 4283855195
0.046598669 0.055309895 0.34900001 4282079300
0.047595453 0.055151418 0.34800002 4279119383
0.048585739 0.054992933 0.347 4279383320
0.049569536 0.054834455 0.34600002 4279384090
0.050546836 0.054675978 0.34500003 4279581982
0.051667392 0.054675978 0.34500003 4279450910
0.052634943 0.054517493 0.34400001 4279451934
0.053752258 0.054517493 0.34400001 4279254555
0.054869566 0.054517493 0.34400001 4279254301
0.055824131 0.054359011 0.34300002 4279056922
0.056938197 0.054359011 0.34300002 4279188508
0.057883006 0.05420053 0.34200001 4279057176
0.058993824 0.05420053 0.34200001 4278859797
0.060104642 0.05420053 0.34200001 4278859797
0.061036471 0.054042049 0.34100002 4278859797
0.062144034 0.054042049 0.34100002 4278596625
0.063251607 0.054042049 0.34100002 4278859797
0.064170435 0.053883567 0.34 4278924566
0.065274753 0.053883567 0.34 4278858773
0.066183843 0.053725086 0.33900002 4278924566
0.067284919 0.053725086 0.33900002 4278857746
0.068385988 0.053725086 0.33900002 4279251223
0.069487065 0.053725086 0.33900002 4279117586
0.070379913 0.053566609 0.33800003 4278392582
0.071477741 0.053566609 0.33800003 4278193667
0.072575562 0.053566609 0.33800003 4278983949
0.07367339 0.053566609 0.33800003 4278331150
0.074771211 0.053566609 0.33800003 4278462736
0.075869031 0.053566609 0.33800003 4278856211
0.076739147 0.053408124 0.33700001 4278657037
0.07783372 0.053408124 0.33700001 4278589193
0.078928299 0.053408124 0.33700001 4279049744
0.079785421 0.053249646 0.33600003 4279053072
0.080876753 0.053249646 0.33600003 4278790670
0.081968077 0.053249646 0.33600003 4278330119
0.082812198 0.053091161 0.33500001 4278198276
0.08390028 0.053091161 0.33500001 4278658832
0.084988363 0.053091161 0.33500001 4278198281
0.085819498 0.052932683 0.33400002 4278791955
0.086904332 0.052932683 0.33400002 4278726675
0.087725721 0.052774198 0.333 4278922769
0.088807307 0.052774198 0.333 4278856465
0.089618966 0.052615721 0.33200002 4278194432
0.090697289 0.052615721 0.33200002 4278790418
0.091499202 0.052457239 0.33100003 4278194944
0.092574291 0.052457239 0.33100003 4278725392
0.09364938 0.052457239 0.33100003 4278398222
0.094438292 0.052298758 0.33000001 4278398222
0.095510133 0.052298758 0.33000001 4279056406
0.096581966 0.052298758 0.33000001 4278595855
0.097653806 0.052298758 0.33000001 4278990099
0.098725647 0.052298758 0.33000001 4279055892
0.099797487 0.052298758 0.33000001 4278858513
0.10086933 0.052298758 0.33000001 4278792720
0.10194118 0.052298758 0.33000001 4278727441
0.10301302 0.052298758 0.33000001 4278858513
0.10408485 0.052298758 0.33000001 4279184146
0.10515669 0.052298758 0.33000001 4278393863
0.10622853 0.052298758 0.33000001 4278727441
0.10762553 0.052457239 0.33100003 4278859027
0.10870063 0.052457239 0.33100003 4278661648
0.10977571 0.052457239 0.33100003 4278661648
0.1108508 0.052457239 0.33100003 4278661646
0.11192589 0.052457239 0.33100003 4278728207
0.11300097 0.052457239 0.33100003 4278662927
0.1144207 0.052615721 0.33200002 4278662927
0.11549903 0.052615721 0.33200002 4278728207
0.11657737 0.052615721 0.33200002 4278859793
0.053752258 0.055635184 0.34400001 4278791183
0.054869566 0.055635184 0.34400001 4279581469
0.055824131 0.055473458 0.34300002 4279318812
0.056938197 0.055473458 0.34300002 4279385117
0.057883006 0.055311725 0.34200001 4279450910
0.058993824 0.055311725 0.34200001 4279320348
0.060104642 0.055311725 0.34200001 4279320348
0.061036471 0.055149995 0.34100002 4279188762
0.062144034 0.055149995 0.34100002 4278925590
0.063251607 0.055149995 0.34100002 4278859797
0.064170435 0.054988265 0.34 4278859797
0.065274753 0.054988265 0.34 4278793750
0.066183843 0.054826535 0.33900002 4278596371
0.067284919 0.054826535 0.33900002 4278596371
0.068385988 0.054826535 0.33900002 4278727187
0.069487065 0.054826535 0.33900002 4278924566
0.070379913 0.054664806 0.33800003 4278858773
0.071477741 0.054664806 0.33800003 4278989845
0.072575562 0.054664806 0.33800003 4278857748
0.07367339 0.054664806 0.33800003 4279186713
0.074771211 0.054664806 0.33800003 4278593039
0.075869031 0.054664806 0.33800003 4278196486
0.076739147 0.054503076 0.33700001 4278193920
0.07783372 0.054503076 0.33700001 4278195972
0.078928299 0.054503076 0.33700001 4278328072
0.079785421 0.054341346 0.33600003 4279118353
0.080876753 0.054341346 0.33600003 4278922258
0.081968077 0.054341346 0.33600003 4278922769
0.082812198 0.054179613 0.33500001 4278988562
0.08390028 0.054179613 0.33500001 4278923023
0.084988363 0.054179613 0.33500001 4279186195
0.085819498 0.054017887 0.33400002 4278198537
0.086904332 0.054017887 0.33400002 4278196738
0.087989166 0.054017887 0.33400002 4278198021
0.088807307 0.053856153 0.333 4279119637
0.089888893 0.053856153 0.333 4278658316
0.090697289 0.053694423 0.33200002 4278196740
0.091775626 0.053694423 0.33200002 4278262279
0.092853971 0.053694423 0.33200002 4278196486
0.09364938 0.053532697 0.33100003 4278855181
0.094724469 0.053532697 0.33100003 4278460937
0.095799558 0.053532697 0.33100003 4278922258
0.096874639 0.053532697 0.33100003 4278197764
0.097949728 0.053532697 0.33100003 4278922769
0.098725647 0.053370964 0.33000001 4278725390
0.099797487 0.053370964 0.33000001 4278594574
0.10086933 0.053370964 0.33000001 4278726673
0.10194118 0.053370964 0.33000001 4278924820
0.10301302 0.053370964 0.33000001 4278595855
0.10408485 0.053370964 0.33000001 4279053072
0.10547535 0.053532697 0.33100003 4278722828
0.10655044 0.053532697 0.33100003 4278924818
0.10762553 0.053532697 0.33100003 4278859025
0.10870063 0.053532697 0.33100003 4278727439
0.10977571 0.053532697 0.33100003 4278727439
0.1108508 0.053532697 0.33100003 4278728209
0.11192589 0.053532697 0.33100003 4278859795
0.11300097 0.053532697 0.33100003 4278531343
0.11407606 0.053532697 0.33100003 4278465550
0.11515115 0.053532697 0.33100003 4278727439
0.11622624 0.053532697 0.33100003 4278859025
0.11730133 0.053532697 0.33100003 4279513877
0.056938197 0.056587897 0.34300002 4281223729
0.057883006 0.056422915 0.34200001 4279250453
0.058993824 0.056422915 0.34200001 4279317016
0.060104642 0.056422915 0.34200001 4279514906
0.061036471 0.056257937 0.34100002 4279450910
0.062144034 0.056257937 0.34100002 4279450910
0.063251607 0.056257937 0.34100002 4279320094
0.064170435 0.056092955 0.34 4279188508
0.065274753 0.056092955 0.34 4279254301
0.066379078 0.056092955 0.34 4278859543
0.067284919 0.055927977 0.33900002 4278859543
0.068385988 0.055927977 0.33900002 4278399246
0.069487065 0.055927977 0.33900002 4278596625
0.070379913 0.055763002 0.33800003 4278596625
0.071477741 0.055763002 0.33800003 4278661648
0.072575562 0.055763002 0.33800003 4278661648
0.07367339 0.055763002 0.33800003 4278399246
0.074771211 0.055763002 0.33800003 4278727441
0.075644568 0.055598021 0.33700001 4278858773
0.076739147 0.055598021 0.33700001 4278858259
0.07783372 0.055598021 0.33700001 4278857746
0.078928299 0.055598021 0.33700001 4278988051
0.079785421 0.055433042 0.33600003 4278856211
0.080876753 0.055433042 0.33600003 4278195969
0.081968077 0.055433042 0.33600003 4278194432
0.082812198 0.05526806 0.33500001 4278195714
0.08390028 0.05526806 0.33500001 4278197251
0.084988363 0.05526806 0.33500001 4279053074
0.085819498 0.055103082 0.33400002 4278922771
0.086904332 0.055103082 0.33400002 4278988564
0.087989166 0.055103082 0.33400002 4279054357
0.088807307 0.0549381 0.333 4278726162
0.089888893 0.0549381 0.333 4278988564
0.090970472 0.0549381 0.333 4279053844
0.091775626 0.054773122 0.33200002 4278987027
0.092853971 0.054773122 0.33200002 4278724109
0.093932308 0.054773122 0.33200002 4278987281
0.094724469 0.054608148 0.33100003 4278592523
0.095799558 0.054608148 0.33100003 4278790672
0.096874639 0.054608148 0.33100003 4278195456
0.097949728 0.054608148 0.33100003 4278592523
0.099024817 0.054608148 0.33100003 4278987027
0.10009991 0.054608148 0.33100003 4278921234
0.101175 0.054608148 0.33100003 4278395914
0.10225009 0.054608148 0.33100003 4278858513
0.10332518 0.054608148 0.33100003 4278792720
0.10440026 0.054608148 0.33100003 4278658316
0.10547535 0.054608148 0.33100003 4279249172
0.10655044 0.054608148 0.33100003 4278530062
0.10762553 0.054608148 0.33100003 4278661646
0.10870063 0.054608148 0.33100003 4278859025
0.10977571 0.054608148 0.33100003 4278727439
0.1108508 0.054608148 0.33100003 4278661646
0.11192589 0.054608148 0.33100003 4278794002
0.11300097 0.054608148 0.33100003 4278728209
0.11407606 0.054608148 0.33100003 4278859795
0.11515115 0.054608148 0.33100003 4278990611
0.11622624 0.054608148 0.33100003 4278792718
0.11730133 0.054608148 0.33100003 4279448854
0.057883006 0.05753411 0.34200001 4284051291
0.058993824 0.05753411 0.34200001 4284577637
0.060104642 0.05753411 0.34200001 4284840811
0.061036471 0.057365883 0.34100002 4283789406
0.062144034 0.057365883 0.34100002 4281223993
0.063251607 0.057365883 0.34100002 4279053590
0.064170435 0.057197653 0.34 4279250969
0.065274753 0.057197653 0.34 4279647264
0.066379078 0.057197653 0.34 4279581982
0.067284919 0.057029426 0.33900002 4279385117
0.068385988 0.057029426 0.33900002 4279450910
0.069487065 0.057029426 0.33900002 4279319324
0.070379913 0.056861199 0.33800003 4279187992
0.071477741 0.056861199 0.33800003 4279122199
0.072575562 0.056861199 0.33800003 4278990613
0.07367339 0.056861199 0.33800003 4278727441
0.074771211 0.056861199 0.33800003 4278530832
0.075644568 0.056692969 0.33700001 4278728211
0.076739147 0.056692969 0.33700001 4278530832
0.07783372 0.056692969 0.33700001 4278530062
0.07869409 0.056524742 0.33600003 4278661648
0.079785421 0.056524742 0.33600003 4278859027
0.080876753 0.056524742 0.33600003 4278661648
0.081724122 0.056356512 0.33500001 4279187224
0.082812198 0.056356512 0.33500001 4278923539
0.08390028 0.056356512 0.33500001 4279317014
0.084988363 0.056356512 0.33500001 4278987281
0.085819498 0.056188285 0.33400002 4278328070
0.086904332 0.056188285 0.33400002 4278195458
0.087989166 0.056188285 0.33400002 4278195456
0.088807307 0.056020055 0.333 4278196999
0.089888893 0.056020055 0.333 4278856465
0.090970472 0.056020055 0.333 4278922258
0.091775626 0.055851828 0.33200002 4278923793
0.092853971 0.055851828 0.33200002 4278858000
0.093932308 0.055851828 0.33200002 4278792207
0.095010646 0.055851828 0.33200002 4278858000
0.095799558 0.055683602 0.33100003 4278594574
0.096874639 0.055683602 0.33100003 4278856976
0.097949728 0.055683602 0.33100003 4279053842
0.099024817 0.055683602 0.33100003 4278263558
0.10009991 0.055683602 0.33100003 4278789134
0.101175 0.055683602 0.33100003 4278658316
0.10225009 0.055683602 0.33100003 4278858511
0.10332518 0.055683602 0.33100003 4278595339
0.10440026 0.055683602 0.33100003 4278263044
0.10547535 0.055683602 0.33100003 4279117840
0.10655044 0.055683602 0.33100003 4278792720
0.10762553 0.055683602 0.33100003 4278530060
0.10870063 0.055683602 0.33100003 4278727439
0.10977571 0.055683602 0.33100003 4278595853
0.1108508 0.055683602 0.33100003 4278727439
0.11192589 0.055683602 0.33100003 4278727439
0.11300097 0.055683602 0.33100003 4278727439
0.11407606 0.055683602 0.33100003 4278859025
0.11515115 0.055683602 0.33100003 4278924818
0.11622624 0.055683602 0.33100003 4278858511
0.11730133 0.055683602 0.33100003 4279513877
0.057883006 0.058645301 0.34200001 4284182366
0.058993824 0.058645301 0.34200001 4284511333
0.060104642 0.058645301 0.34200001 4284577639
0.061036471 0.058473825 0.34100002 4284643432
0.062144034 0.058473825 0.34100002 4284972397
0.063251607 0.058473825 0.34100002 4284973167
0.064170435 0.058302343 0.34 4285367671
0.065274753 0.058302343 0.34 4285500538
0.066379078 0.058302343 0.34 4283724897
0.067284919 0.058130868 0.33900002 4280764210
0.068385988 0.058130868 0.33900002 4279119637
0.069487065 0.058130868 0.33900002 4279252506
0.070588134 0.058130868 0.33900002 4279515676
0.071689211 0.058130868 0.33900002 4279318551
0.072575562 0.057959393 0.33800003 4279451164
0.07367339 0.057959393 0.33800003 4279385371
0.074771211 0.057959393 0.33800003 4279385371
0.075644568 0.057787914 0.33700001 4279254555
0.076739147 0.057787914 0.33700001 4278794004
0.07783372 0.057787914 0.33700001 4278794004
0.07869409 0.057616439 0.33600003 4278794004
0.079785421 0.057616439 0.33600003 4278595855
0.080876753 0.057616439 0.33600003 4279056406
0.081724122 0.057444956 0.33500001 4278859027
0.082812198 0.057444956 0.33500001 4278859027
0.08390028 0.057444956 0.33500001 4278859027
0.084988363 0.057444956 0.33500001 4278859027
0.085819498 0.057273481 0.33400002 4278727187
0.086904332 0.057273481 0.33400002 4278858259
0.087989166 0.057273481 0.33400002 4278988562
0.088807307 0.057102002 0.333 4278922258
0.089888893 0.057102002 0.333 4279381785
0.090970472 0.057102002 0.333 4278196226
0.091775626 0.056930527 0.33200002 4278193920
0.092853971 0.056930527 0.33200002 4278193408
0.093932308 0.056930527 0.33200002 4278263304
0.095010646 0.056930527 0.33200002 4278856465
0.095799558 0.056759052 0.33100003 4279055127
0.096874639 0.056759052 0.33100003 4278923539
0.097949728 0.056759052 0.33100003 4278923539
0.099024817 0.056759052 0.33100003 4278857746
0.10009991 0.056759052 0.33100003 4279054355
0.101175 0.056759052 0.33100003 4278922769
0.10225009 0.056759052 0.33100003 4278727441
0.10332518 0.056759052 0.33100003 4278661646
0.10440026 0.056759052 0.33100003 4278327554
0.10547535 0.056759052 0.33100003 4279184912
0.10655044 0.056759052 0.33100003 4278859025
0.10762553 0.056759052 0.33100003 4278859025
0.10870063 0.056759052 0.33100003 4278925588
0.10977571 0.056759052 0.33100003 4278728209
0.1108508 0.056759052 0.33100003 4278728209
0.11192589 0.056759052 0.33100003 4278530830
0.11300097 0.056759052 0.33100003 4278859795
0.11407606 0.056759052 0.33100003 4279056404
0.11515115 0.056759052 0.33100003 4278924818
0.11622624 0.056759052 0.33100003 4278924818
0.11730133 0.056759052 0.33100003 4279908635
0.065302856 0.060455404 0.34600002 4285038190
0.066426665 0.060455404 0.34600002 4285169522
0.0677457 0.060630128 0.347 4285037936
0.068872757 0.060630128 0.347 4284841327
0.06979809 0.060455404 0.34600002 4284907120
0.070921898 0.060455404 0.34600002 4284841327
0.072045706 0.060455404 0.34600002 4284577639
0.071689211 0.059232317 0.33900002 4282736201
0.072575562 0.059057593 0.33800003 4280302373
0.07367339 0.059057593 0.33800003 4278987279
0.074771211 0.059057593 0.33800003 4279054096
0.075644568 0.058882862 0.33700001 4279055892
0.076739147 0.058882862 0.33700001 4279319064
0.07783372 0.058882862 0.33700001 4279450650
0.07869409 0.058708139 0.33600003 4279516443
0.079785421 0.058708139 0.33600003 4279122199
0.080636039 0.058533408 0.33500001 4279122199
0.081724122 0.058533408 0.33500001 4279122199
0.082812198 0.058533408 0.33500001 4279056406
0.08390028 0.058533408 0.33500001 4278990613
0.084988363 0.058533408 0.33500001 4278924820
0.085819498 0.058358684 0.33400002 4278924820
0.086904332 0.058358684 0.33400002 4278859027
0.087989166 0.058358684 0.33400002 4278990613
0.088807307 0.058183957 0.333 4278990613
0.089888893 0.058183957 0.333 4278858259
0.090970472 0.058183957 0.333 4279055638
0.091775626 0.05800923 0.33200002 4279055125
0.092853971 0.05800923 0.33200002 4278988562
0.093932308 0.05800923 0.33200002 4279119637
0.095010646 0.05800923 0.33200002 4279250453
0.095799558 0.057834506 0.33100003 4278460169
0.096874639 0.057834506 0.33100003 4278195712
0.097949728 0.057834506 0.33100003 4278195458
0.099024817 0.057834506 0.33100003 4278196226
0.10009991 0.057834506 0.33100003 4278461453
0.101175 0.057834506 0.33100003 4278922004
0.10225009 0.057834506 0.33100003 4278923539
0.10332518 0.057834506 0.33100003 4278726160
0.10440026 0.057834506 0.33100003 4278524933
0.10547535 0.057834506 0.33100003 4279119889
0.10655044 0.057834506 0.33100003 4279055890
0.10762553 0.057834506 0.33100003 4278924818
0.10837222 0.057659779 0.33000001 4278727439
0.10944406 0.057659779 0.33000001 4278859795
0.11051589 0.057659779 0.33000001 4278596623
0.11192589 0.057834506 0.33100003 4278596623
0.11300097 0.057834506 0.33100003 4278794002
0.11373141 0.057659779 0.33000001 4278925588
0.11480326 0.057659779 0.33000001 4278595853
0.1158751 0.057659779 0.33000001 4279056404
0.11694694 0.057659779 0.33000001 4279579156
0.065302856 0.061579596 0.34600002 4285234802
0.066618644 0.061757568 0.347 4285103216
0.0677457 0.061757568 0.347 4285037936
0.068872757 0.061757568 0.347 4285103729
0.069999814 0.061757568 0.347 4284906350
0.070921898 0.061579596 0.34600002 4284906350
0.072045706 0.061579596 0.34600002 4284380006
0.071689211 0.060333766 0.33900002 4284182368
0.07279028 0.060333766 0.33900002 4283853401
0.07367339 0.06015579 0.33800003 4283590742
0.074771211 0.06015579 0.33800003 4283985498
0.075644568 0.059977815 0.33700001 4280498210
0.076739147 0.059977815 0.33700001 4280302114
0.07783372 0.059977815 0.33700001 4279250453
0.07869409 0.059799839 0.33600003 4278856465
0.079785421 0.059799839 0.33600003 4278857230
0.080636039 0.059621859 0.33500001 4279646746
0.081724122 0.059621859 0.33500001 4279253271
0.082812198 0.059621859 0.33500001 4279450650
0.08390028 0.059621859 0.33500001 4279253271
0.084734663 0.059443887 0.33400002 4279450650
0.085819498 0.059443887 0.33400002 4279385371
0.086904332 0.059443887 0.33400002 4279056406
0.087989166 0.059443887 0.33400002 4279056406
0.088807307 0.059265908 0.333 4279122199
0.089888893 0.059265908 0.333 4279187992
0.090697289 0.059087936 0.33200002 4279056406
0.091775626 0.059087936 0.33200002 4278990613
0.092853971 0.059087936 0.33200002 4278990613
0.093932308 0.059087936 0.33200002 4279056406
0.094724469 0.05890996 0.33100003 4278924820
0.095799558 0.05890996 0.33100003 4279121685
0.096874639 0.05890996 0.33100003 4279121172
0.097949728 0.05890996 0.33100003 4279712285
0.099024817 0.05890996 0.33100003 4279382807
0.10009991 0.05890996 0.33100003 4278790418
0.101175 0.05890996 0.33100003 4278591755
0.10225009 0.05890996 0.33100003 4278195456
0.10332518 0.05890996 0.33100003 4278195969
0.10440026 0.05890996 0.33100003 4279382037
0.10547535 0.05890996 0.33100003 4278858000
0.10655044 0.05890996 0.33100003 4279055890
0.10730037 0.058731984 0.33000001 4278924818
0.10837222 0.058731984 0.33000001 4278924818
0.10944406 0.058731984 0.33000001 4278859025
0.11051589 0.058731984 0.33000001 4278859025
0.11158773 0.058731984 0.33000001 4278924818
0.11265957 0.058731984 0.33000001 4278595853
0.11373141 0.058731984 0.33000001 4278990609
0.11480326 0.058731984 0.33000001 4278859023
0.1158751 0.058731984 0.33000001 4279450648
0.11694694 0.058731984 0.33000001 4281486386
0.066618644 0.062885001 0.347 4285234804
0.067940935 0.063066229 0.34800002 4285103218
0.068872757 0.062885001 0.347 4285037425
0.069999814 0.062885001 0.347 4285037425
0.071126871 0.062885001 0.347 4284971630
0.072253928 0.062885001 0.347 4284511079
0.073380984 0.062885001 0.347 4284445540
0.07279028 0.061435208 0.33900002 4284050782
0.07367339 0.061253987 0.33800003 4283787610
0.074771211 0.061253987 0.33800003 4283853403
0.075644568 0.061072759 0.33700001 4281352499
0.076739147 0.061072759 0.33700001 4281747257
0.07783372 0.061072759 0.33700001 4282340675
0.078928299 0.061072759 0.33700001 4283591512
0.079547957 0.060710307 0.33500001 4284315235
0.080636039 0.060710307 0.33500001 4284512614
0.081724122 0.060710307 0.33500001 4284512614
0.082812198 0.060710307 0.33500001 4282802507
0.08390028 0.060710307 0.33500001 4280895796
0.084734663 0.060529083 0.33400002 4279579936
0.085819498 0.060529083 0.33400002 4278921486
0.086904332 0.060529083 0.33400002 4279250451
0.087989166 0.060529083 0.33400002 4279382807
0.088807307 0.060347855 0.333 4279449113
0.089888893 0.060347855 0.333 4279646746
0.090697289 0.060166635 0.33200002 4279647516
0.091775626 0.060166635 0.33200002 4279253271
0.092853971 0.060166635 0.33200002 4279319064
0.09364938 0.05998541 0.33100003 4279253271
0.094724469 0.05998541 0.33100003 4279122199
0.095799558 0.05998541 0.33100003 4279056406
0.096874639 0.05998541 0.33100003 4279187992
0.097949728 0.05998541 0.33100003 4279122199
0.099024817 0.05998541 0.33100003 4279319064
0.10009991 0.05998541 0.33100003 4279450650
0.101175 0.05998541 0.33100003 4279253271
0.10225009 0.05998541 0.33100003 4279317781
0.10332518 0.05998541 0.33100003 4279251988
0.10440026 0.05998541 0.33100003 4279055125
0.10547535 0.05998541 0.33100003 4279120918
0.10655044 0.05998541 0.33100003 4279055892
0.10762553 0.05998541 0.33100003 4278859025
0.10870063 0.05998541 0.33100003 4278859795
0.10977571 0.05998541 0.33100003 4278728209
0.1108508 0.05998541 0.33100003 4278794002
0.11192589 0.05998541 0.33100003 4278794002
0.11265957 0.059804182 0.33000001 4278596623
0.11373141 0.059804182 0.33000001 4278859025
0.11480326 0.059804182 0.33000001 4279055377
0.1158751 0.059804182 0.33000001 4278592775
0.11694694 0.059804182 0.33000001 4285760626
0.069071248 0.064196922 0.34800002 4285169009
0.070201546 0.064196922 0.34800002 4284971630
0.071126871 0.064012446 0.347 4284576872
0.072253928 0.064012446 0.347 4284313702
0.073380984 0.064012446 0.347 4284116321
0.074508041 0.064012446 0.347 4283787356
0.090697289 0.061245337 0.33200002 4280631338
0.091775626 0.061245337 0.33200002 4279447830
0.092853971 0.061245337 0.33200002 4279382807
0.09364938 0.061060868 0.33100003 4278988562
0.094724469 0.061060868 0.33100003 4279251734
0.095799558 0.061060868 0.33100003 4279515160
0.096874639 0.061060868 0.33100003 4279515160
0.097949728 0.061060868 0.33100003 4279384344
0.099024817 0.061060868 0.33100003 4279515930
0.10009991 0.061060868 0.33100003 4279450650
0.101175 0.061060868 0.33100003 4279319064
0.10225009 0.061060868 0.33100003 4279516443
0.10332518 0.061060868 0.33100003 4279450650
0.10440026 0.061060868 0.33100003 4279187478
0.10547535 0.061060868 0.33100003 4279319064
0.10655044 0.061060868 0.33100003 4279319064
0.10762553 0.061060868 0.33100003 4279253271
0.10870063 0.061060868 0.33100003 4278925588
0.10977571 0.061060868 0.33100003 4278859795
0.1108508 0.061060868 0.33100003 4278925588
0.11192589 0.061060868 0.33100003 4279057174
0.11300097 0.061060868 0.33100003 4279122197
0.11373141 0.060876392 0.33000001 4279319060
0.11480326 0.060876392 0.33000001 4279448854
0.1158751 0.060876392 0.33000001 4283591764
0.11694694 0.060876392 0.33000001 4285103470
0.094724469 0.062136319 0.33100003 4285827704
0.095799558 0.062136319 0.33100003 4284512614
0.096874639 0.062136319 0.33100003 4283459926
0.097949728 0.062136319 0.33100003 4281617204
0.099024817 0.062136319 0.33100003 4280367905
0.10009991 0.062136319 0.33100003 4279315730
0.101175 0.062136319 0.33100003 4279381523
0.10225009 0.062136319 0.33100003 4279317014
0.10332518 0.062136319 0.33100003 4279777819
0.10440026 0.062136319 0.33100003 4279449367
0.10547535 0.062136319 0.33100003 4279515160
0.10655044 0.062136319 0.33100003 4279515160
0.10762553 0.062136319 0.33100003 4279449365
0.10870063 0.062136319 0.33100003 4279450648
0.10977571 0.062136319 0.33100003 4279450648
0.1108508 0.062136319 0.33100003 4279187990
0.11192589 0.062136319 0.33100003 4279253269
0.11300097 0.062136319 0.33100003 4279581719
0.11407606 0.062136319 0.33100003 4278856715
0.11480326 0.06194859 0.33000001 4283327568
0.10009991 0.063211769 0.33100003 4285367153
0.101175 0.063211769 0.33100003 4285630325
0.10225009 0.063211769 0.33100003 4286025081
0.10332518 0.063211769 0.33100003 4285367921
0.10440026 0.063211769 0.33100003 4284710506
0.10547535 0.063211769 0.33100003 4283263058
0.10655044 0.063211769 0.33100003 4281419823
0.10762553 0.063211769 0.33100003 4280235549
0.10870063 0.063211769 0.33100003 4279118092
0.10977571 0.063211769 0.33100003 4279052558
0.1108508 0.063211769 0.33100003 4279184660
0.11192589 0.063211769 0.33100003 4279447832
0.11300097 0.063211769 0.33100003 4282275132
0.10332518 0.064287223 0.33100003 4285366642
0.10440026 0.064287223 0.33100003 4285366642
0.10547535 0.064287223 0.33100003 4285498228
0.10655044 0.064287223 0.33100003 4285432435
0.10762553 0.064287223 0.33100003 4285366642
0.10870063 0.064287223 0.33100003 4285235054
0.10977571 0.064287223 0.33100003 4285498226
0.1108508 0.064287223 0.33100003 4285892982
0.11192589 0.064287223 0.33100003 4285432431
0.10687234 0.065560147 0.33200002 4285760630
0.10795068 0.065560147 0.33200002 4285694837
0.10902902 0.065560147 0.33200002 4285563251
0.11010735 0.065560147 0.33200002 4285694837
0.11118568 0.065560147 0.33200002 4285826423
0.11226402 0.065560147 0.33200002 4285629044
0.077173159 0.052408345 0.33773956 4294967295
0.077173159 0.052408345 0.33773956 4294901760
0.077222586 0.051913545 0.33768731 4294901760
0.077272013 0.051418744 0.3376351 4294901760
0.07732144 0.05092394 0.33758286 4294901760
0.077370875 0.050429139 0.33753061 4294901760
0.077420302 0.049934339 0.3374784 4294901760
0.077469729 0.049439535 0.33742616 4294901760
0.077519156 0.048944734 0.33737391 4294901760
0.077568583 0.048449934 0.3373217 4294901760
0.07761801 0.047955133 0.33726946 4294901760
0.077667445 0.047460333 0.33721721 4294901760
0.077716872 0.046965528 0.337165 4294901760
0.077766299 0.046470728 0.33711275 4294901760
0.077815726 0.045975927 0.33706051 4294901760
0.077865154 0.045481123 0.3370083 4294901760
0.077914581 0.044986323 0.33695605 4294901760
0.077964015 0.044491522 0.33690381 4294901760
0.078013442 0.043996722 0.3368516 4294901760
0.07806287 0.043501921 0.33679935 4294901760
0.078112297 0.043007117 0.33674711 4294901760
0.078161724 0.042512316 0.3366949 4294901760
0.078211151 0.042017516 0.33664265 4294901760
0.078260586 0.041522712 0.33659041 4294901760
0.078310013 0.041027911 0.3365382 4294901760
0.07835944 0.04053311 0.33648595 4294901760
0.078408867 0.04003831 0.33643371 4294901760
0.078458294 0.039543509 0.33638149 4294901760
0.078507721 0.039048705 0.33632925 4294901760
0.078557149 0.038553905 0.33627701 4294901760
0.078606583 0.038059104 0.33622479 4294901760
0.07865601 0.0375643 0.33617255 4294901760
0.078705437 0.037069499 0.33612031 4294901760
0.078754865 0.036574699 0.33606809 4294901760
0.078804292 0.036079898 0.33601585 4294901760
0.078853719 0.035585098 0.33596361 4294901760
0.078903154 0.035090297 0.33591139 4294901760
0.078952581 0.034595493 0.33585915 4294901760
0.079002008 0.034100689 0.33580691 4294901760
0.079051435 0.033605888 0.33575469 4294901760
0.079100862 0.033111088 0.33570245 4294901760
0.079150289 0.032616287 0.33565021 4294901760
0.079199724 0.032121487 0.33559799 4294901760
0.079249151 0.031626686 0.33554575 4294901760
0.079298578 0.031131882 0.33549351 4294901760
0.079348005 0.030637082 0.33544129 4294901760
0.079397433 0.030142281 0.33538905 4294901760
0.07944686 0.029647479 0.3353368 4294901760
0.079496294 0.029152678 0.33528459 4294901760
0.079545721 0.028657876 0.33523235 4294901760
0.079595149 0.028163074 0.3351801 4294901760
0.079644576 0.027668273 0.33512789 4294901760
0.079694003 0.027173473 0.33507565 4294901760
0.07974343 0.026678672 0.3350234 4294901760
0.079792857 0.02618387 0.33497116 4294901760
0.079842292 0.025689065 0.33491895 4294901760
0.079891719 0.025194265 0.3348667 4294901760
0.079941146 0.024699464 0.33481446 4294901760
0.079990573 0.024204664 0.33476225 4294901760
0.08004 0.023709862 0.33471 4294901760
0.080089428 0.023215061 0.33465776 4294901760
0.080138862 0.022720257 0.33460554 4294901760
0.080188289 0.022225456 0.3345533 4294901760
0.080237716 0.021730656 0.33450106 4294901760
0.080287144 0.021235855 0.33444884 4294901760
0.080336571 0.020741053 0.3343966 4294901760
0.080385998 0.020246252 0.33434436 4294901760
0.080435432 0.019751448 0.33429214 4294901760
0.08048486 0.019256648 0.3342399 4294901760
0.080534287 0.018761847 0.33418766 4294901760
0.080583714 0.018267047 0.33413544 4294901760
0.080633141 0.017772246 0.3340832 4294901760
0.080682568 0.017277446 0.33403096 4294901760
0.080732003 0.016782641 0.33397874 4294901760
0.08078143 0.016287837 0.3339265 4294901760
0.080830857 0.015793037 0.33387426 4294901760
0.080880284 0.015298236 0.33382204 4294901760
0.080929711 0.014803436 0.3337698 4294901760
0.080979139 0.014308635 0.33371755 4294901760
0.081028566 0.013813835 0.33366534 4294901760
0.081078 0.01331903 0.3336131 4294901760
0.081127428 0.01282423 0.33356085 4294901760
0.081176855 0.012329429 0.33350864 4294901760
0.081226282 0.011834629 0.3334564 4294901760
0.081275709 0.011339825 0.33340415 4294901760
0.081325136 0.010845024 0.33335194 4294901760
0.081374571 0.01035022 0.3332997 4294901760
0.081423998 0.0098554194 0.33324745 4294901760
0.081473425 0.0093606189 0.33319524 4294901760
0.081522852 0.0088658184 0.333143 4294901760
0.081572279 0.0083710179 0.33309075 4294901760
0.081621706 0.0078762174 0.33303854 4294901760
0.081671141 0.0073814131 0.3329863 4294901760
0.081720568 0.0068866126 0.33293405 4294901760
0.081769995 0.0063918121 0.33288184 4294901760
0.081819423 0.0058970116 0.33282959 4294901760
0.08186885 0.0054022074 0.33277735 4294901760
0.081918277 0.0049074069 0.33272514 4294901760
0.081967711 0.0044126026 0.33267289 4294901760
0.082017139 0.0039178021 0.33262065 4294901760
0.082066566 0.0034230016 0.33256844 4294901760
0.082115993 0.0029282011 0.33251619 4294901760
0.077173159 0.052408345 0.33773956 4278255360
0.077649206 0.052470639 0.33759993 4278255360
0.078125261 0.052532934 0.33746031 4278255360
0.078601308 0.052595228 0.33732069 4278255360
0.079077363 0.052657522 0.33718106 4278255360
0.07955341 0.052719817 0.33704144 4278255360
0.080029465 0.052782115 0.33690181 4278255360
0.080505513 0.052844409 0.33676219 4278255360
0.080981568 0.052906703 0.33662257 4278255360
0.081457615 0.052968998 0.33648294 4278255360
0.08193367 0.053031292 0.33634332 4278255360
0.082409717 0.053093586 0.33620369 4278255360
0.082885772 0.05315588 0.33606407 4278255360
0.083361819 0.053218175 0.33592445 4278255360
0.083837874 0.053280469 0.33578482 4278255360
0.084313922 0.053342767 0.3356452 4278255360
0.084789976 0.053405061 0.33550557 4278255360
0.085266024 0.053467356 0.33536595 4278255360
0.085742079 0.05352965 0.33522633 4278255360
0.086218126 0.053591944 0.3350867 4278255360
0.086694181 0.053654239 0.33494708 4278255360
0.087170228 0.053716533 0.33480746 4278255360
0.087646276 0.053778827 0.33466783 4278255360
0.088122331 0.053841121 0.33452821 4278255360
0.088598385 0.053903416 0.33438858 4278255360
0.089074433 0.05396571 0.33424896 4278255360
0.08955048 0.054028008 0.33410934 4278255360
0.090026535 0.054090302 0.33396971 4278255360
0.09050259 0.054152597 0.33383009 4278255360
0.090978637 0.054214891 0.33369046 4278255360
0.091454685 0.054277185 0.33355084 4278255360
0.09193074 0.05433948 0.33341122 4278255360
0.092406787 0.054401774 0.33327159 4278255360
0.092882842 0.054464068 0.33313197 4278255360
0.093358889 0.054526363 0.33299235 4278255360
0.093834944 0.054588661 0.33285272 4278255360
0.094310991 0.054650955 0.3327131 4278255360
0.094787046 0.054713249 0.33257347 4278255360
0.095263094 0.054775544 0.33243385 4278255360
0.095739149 0.054837838 0.33229423 4278255360
0.096215196 0.054900132 0.3321546 4278255360
0.096691251 0.054962426 0.33201498 4278255360
0.097167298 0.055024721 0.33187535 4278255360
0.097643353 0.055087015 0.33173573 4278255360
0.0981194 0.055149309 0.33159611 4278255360
0.098595455 0.055211604 0.33145648 4278255360
0.099071503 0.055273902 0.33131686 4278255360
0.09954755 0.055336196 0.33117723 4278255360
0.1000236 0.05539849 0.33103761 4278255360
0.10049966 0.055460785 0.33089799 4278255360
0.10097571 0.055523079 0.33075833 4278255360
0.10145175 0.055585373 0.33061874 4278255360
0.10192781 0.055647667 0.33047909 4278255360
0.10240386 0.055709962 0.33033946 4278255360
0.10287991 0.055772256 0.33019984 4278255360
0.10335596 0.055834554 0.33006021 4278255360
0.10383201 0.055896848 0.32992059 4278255360
0.10430806 0.055959143 0.32978097 4278255360
0.10478412 0.056021437 0.32964134 4278255360
0.10526016 0.056083731 0.32950172 4278255360
0.10573622 0.056146026 0.32936209 4278255360
0.10621227 0.05620832 0.32922247 4278255360
0.10668832 0.056270614 0.32908285 4278255360
0.10716437 0.056332909 0.32894322 4278255360
0.10764042 0.056395203 0.3288036 4278255360
0.10811647 0.056457497 0.32866398 4278255360
0.10859253 0.056519795 0.32852435 4278255360
0.10906857 0.05658209 0.32838473 4278255360
0.10954462 0.056644384 0.3282451 4278255360
0.11002067 0.056706678 0.32810548 4278255360
0.11049673 0.056768972 0.32796586 4278255360
0.11097278 0.056831267 0.32782623 4278255360
0.11144882 0.056893561 0.32768661 4278255360
0.11192488 0.056955855 0.32754698 4278255360
0.11240093 0.05701815 0.32740736 4278255360
0.11287698 0.057080448 0.32726774 4278255360
0.11335303 0.057142742 0.32712811 4278255360
0.11382908 0.057205036 0.32698849 4278255360
0.11430514 0.057267331 0.32684886 4278255360
0.11478119 0.057329625 0.32670924 4278255360
0.11525723 0.057391919 0.32656962 4278255360
0.11573329 0.057454214 0.32642999 4278255360
0.11620934 0.057516508 0.32629037 4278255360
0.11668539 0.057578802 0.32615075 4278255360
0.11716144 0.057641096 0.32601112 4278255360
0.11763749 0.057703391 0.3258715 4278255360
0.11811355 0.057765689 0.32573187 4278255360
0.11858959 0.057827983 0.32559225 4278255360
0.11906564 0.057890277 0.32545263 4278255360
0.11954169 0.057952572 0.325313 4278255360
0.12001774 0.058014866 0.32517338 4278255360
0.1204938 0.05807716 0.32503375 4278255360
0.12096985 0.058139455 0.32489413 4278255360
0.12144589 0.058201749 0.32475451 4278255360
0.12192195 0.058264043 0.32461488 4278255360
0.122398 0.058326341 0.32447526 4278255360
0.12287405 0.058388636 0.32433563 4278255360
0.1233501 0.05845093 0.32419601 4278255360
0.12382615 0.058513224 0.32405639 4278255360
0.12430221 0.058575518 0.32391676 4278255360
0.12477826 0.058637813 0.32377714 4278255360
0.077173159 0.052408345 0.33773956 4278190335
0.077304222 0.052370656 0.3382206 4278190335
0.077435292 0.052332968 0.33870164 4278190335
0.077566355 0.052295279 0.33918267 4278190335
0.077697426 0.052257594 0.33966371 4278190335
0.077828489 0.052219905 0.34014475 4278190335
0.07795956 0.052182216 0.34062579 4278190335
0.078090623 0.052144527 0.34110686 4278190335
0.078221694 0.052106839 0.3415879 4278190335
0.078352757 0.05206915 0.34206894 4278190335
0.078483827 0.052031461 0.34254998 4278190335
0.078614891 0.051993772 0.34303102 4278190335
0.078745961 0.051956087 0.34351206 4278190335
0.078877024 0.051918399 0.3439931 4278190335
0.079008088 0.05188071 0.34447414 4278190335
0.079139158 0.051843021 0.34495518 4278190335
0.079270221 0.051805332 0.34543622 4278190335
0.079401292 0.051767644 0.34591725 4278190335
0.079532355 0.051729955 0.34639829 4278190335
0.079663426 0.051692266 0.34687936 4278190335
0.079794489 0.051654581 0.3473604 4278190335
0.079925559 0.051616892 0.34784144 4278190335
0.080056623 0.051579203 0.34832248 4278190335
0.080187693 0.051541515 0.34880352 4278190335
0.080318756 0.051503826 0.34928456 4278190335
0.08044982 0.051466137 0.3497656 4278190335
0.08058089 0.051428448 0.35024664 4278190335
0.080711953 0.05139076 0.35072768 4278190335
0.080843024 0.051353075 0.35120872 4278190335
0.080974087 0.051315386 0.35168976 4278190335
0.081105158 0.051277697 0.3521708 4278190335
0.081236221 0.051240008 0.35265183 4278190335
0.081367292 0.05120232 0.3531329 4278190335
0.081498355 0.051164631 0.35361394 4278190335
0.081629425 0.051126942 0.35409498 4278190335
0.081760488 0.051089257 0.35457602 4278190335
0.081891559 0.051051568 0.35505706 4278190335
0.082022622 0.051013879 0.3555381 4278190335
0.082153693 0.050976191 0.35601914 4278190335
0.082284756 0.050938502 0.35650018 4278190335
0.082415819 0.050900813 0.35698122 4278190335
0.08254689 0.050863124 0.35746226 4278190335
0.082677953 0.050825436 0.3579433 4278190335
0.082809024 0.050787751 0.35842434 4278190335
0.082940087 0.050750062 0.35890538 4278190335
0.083071157 0.050712373 0.35938644 4278190335
0.08320222 0.050674684 0.35986748 4278190335
0.083333291 0.050636996 0.36034852 4278190335
0.083464354 0.050599307 0.36082956 4278190335
0.083595425 0.050561618 0.3613106 4278190335
0.083726488 0.050523929 0.36179164 4278190335
0.083857551 0.050486244 0.36227268 4278190335
0.083988622 0.050448555 0.36275372 4278190335
0.084119685 0.050410867 0.36323476 4278190335
0.084250756 0.050373178 0.3637158 4278190335
0.084381819 0.050335489 0.36419684 4278190335
0.084512889 0.0502978 0.36467791 4278190335
0.084643953 0.050260112 0.36515895 4278190335
0.084775023 0.050222427 0.36563998 4278190335
0.084906086 0.050184738 0.36612102 4278190335
0.085037157 0.050147049 0.36660206 4278190335
0.08516822 0.05010936 0.3670831 4278190335
0.085299283 0.050071672 0.36756414 4278190335
0.085430354 0.050033983 0.36804518 4278190335
0.085561417 0.049996294 0.36852622 4278190335
0.085692488 0.049958609 0.36900726 4278190335
0.085823551 0.04992092 0.3694883 4278190335
0.085954621 0.049883232 0.36996934 4278190335
0.086085685 0.049845543 0.37045038 4278190335
0.086216755 0.049807854 0.37093145 4278190335
0.086347818 0.049770165 0.37141249 4278190335
0.086478889 0.049732476 0.37189353 4278190335
0.086609952 0.049694788 0.37237456 4278190335
0.086741023 0.049657099 0.3728556 4278190335
0.086872086 0.049619414 0.37333664 4278190335
0.087003157 0.049581725 0.37381768 4278190335
0.08713422 0.049544036 0.37429872 4278190335
0.087265283 0.049506348 0.37477976 4278190335
0.087396353 0.049468659 0.3752608 4278190335
0.087527417 0.04943097 0.37574184 4278190335
0.087658487 0.049393281 0.37622288 4278190335
0.08778955 0.049355596 0.37670392 4278190335
0.087920621 0.049317908 0.37718499 4278190335
0.088051684 0.049280219 0.37766603 4278190335
0.088182755 0.04924253 0.37814707 4278190335
0.088313818 0.049204841 0.3786281 4278190335
0.088444889 0.049167152 0.37910914 4278190335
0.088575952 0.049129464 0.37959018 4278190335
0.088707015 0.049091775 0.38007122 4278190335
0.088838086 0.04905409 0.38055226 4278190335
0.088969149 0.049016401 0.3810333 4278190335
0.089100219 0.048978712 0.38151434 4278190335
0.089231282 0.048941024 0.38199538 4278190335
0.089362353 0.048903335 0.38247645 4278190335
0.089493416 0.048865646 0.38295746 4278190335
0.089624487 0.048827957 0.38343853 4278190335
0.08975555 0.048790269 0.38391957 4278190335
0.089886621 0.048752584 0.38440061 4278190335
0.090017684 0.048714895 0.38488165 4278190335
0.090148747 0.048677206 0.38536268 4278190335
0.090279818 0.048639517 0.38584372 4278190335
0.077173159 0.052408345 0.33773956 4294967295
0.076386757 0.052634474 0.33485329 4294967295
0.075600356 0.052860603 0.33196706 4294967295
0.074813962 0.053086735 0.32908082 4294967295
0.074027561 0.053312864 0.32619455 4294967295
0.073241159 0.053538993 0.32330829 4294967295
0.072454758 0.053765122 0.32042205 4294967295
0.071668364 0.053991251 0.31753582 4294967295
0.070881963 0.054217383 0.31464955 4294967295
0.070095561 0.054443512 0.31176329 4294967295
0.06930916 0.054669641 0.30887705 4294967295
0.068522759 0.05489577 0.30599082 4294967295
0.067736365 0.055121899 0.30310455 4294967295
0.066949964 0.055348031 0.30021828 4294967295
0.066163562 0.05557416 0.29733205 4294967295
0.065377161 0.055800289 0.29444581 4294967295
0.064590767 0.056026418 0.29155955 4294967295
0.063804366 0.056252547 0.28867328 4294967295
0.063017964 0.056478679 0.28578705 4294967295
0.062231563 0.056704808 0.28290081 4294967295
0.061445162 0.056930937 0.28001454 4294967295
0.060658768 0.057157066 0.27712831 4294967295
0.059872366 0.057383195 0.27424204 4294967295
0.059085965 0.057609327 0.27135581 4294967295
0.058299564 0.057835456 0.26846954 4294967295
0.057513166 0.058061585 0.26558328 4294967295
0.056726769 0.058287714 0.26269704 4294967295
0.055940367 0.058513843 0.25981081 4294967295
0.055153966 0.058739975 0.25692454 4294967295
0.054367568 0.058966104 0.25403827 4294967295
0.053581167 0.059192233 0.25115204 4294967295
0.052794769 0.059418362 0.24826579 4294967295
0.052008368 0.05964449 0.24537954 4294967295
0.051221967 0.059870623 0.24249327 4294967295
0.050435569 0.060096752 0.23960704 4294967295
0.049649172 0.060322881 0.23672079 4294967295
0.04886277 0.06054901 0.23383453 4294967295
0.048076369 0.060775138 0.23094828 4294967295
0.047289971 0.061001271 0.22806203 4294967295
0.046503574 0.0612274 0.2251758 4294967295
0.045717169 0.061453529 0.22228953 4294967295
0.044930771 0.061679658 0.21940328 4294967295
0.044144373 0.061905786 0.21651703 4294967295
0.043357972 0.062131919 0.21363078 4294967295
0.042571571 0.062358048 0.21074453 4294967295
0.041785173 0.062584177 0.20785828 4294967295
0.040998772 0.062810309 0.20497203 4294967295
0.040212374 0.063036434 0.20208578 4294967295
0.039425973 0.063262567 0.19919953 4294967295
0.038639572 0.063488692 0.19631328 4294967295
0.037853174 0.063714825 0.19342703 4294967295
0.037066776 0.063940957 0.19054078 4294967295
0.036280375 0.064167082 0.18765453 4294967295
0.035493977 0.064393215 0.18476829 4294967295
0.034707572 0.064619347 0.18188202 4294967295
0.033921175 0.064845473 0.17899577 4294967295
0.033134777 0.065071605 0.17610952 4294967295
0.032348376 0.06529773 0.17322327 4294967295
0.031561978 0.065523863 0.17033702 4294967295
0.030775581 0.065749988 0.16745079 4294967295
0.029989175 0.065976121 0.16456452 4294967295
0.029202778 0.066202253 0.16167827 4294967295
0.028416377 0.066428378 0.15879202 4294967295
0.027629979 0.066654511 0.15590577 4294967295
0.026843578 0.066880636 0.15301952 4294967295
0.02605718 0.067106768 0.15013327 4294967295
0.025270775 0.067332901 0.147247 4294967295
0.024484377 0.067559026 0.14436077 4294967295
0.02369798 0.067785159 0.14147452 4294967295
0.022911578 0.068011284 0.13858826 4294967295
0.022125181 0.068237416 0.13570201 4294967295
0.021338783 0.068463549 0.13281576 4294967295
0.020552378 0.068689674 0.1299295 4294967295
0.019765981 0.068915807 0.12704326 4294967295
0.018979579 0.069141939 0.12415701 4294967295
0.018193182 0.069368064 0.12127076 4294967295
0.017406784 0.06959419 0.11838451 4294967295
0.016620383 0.069820322 0.11549826 4294967295
0.015833985 0.070046455 0.11261202 4294967295
0.01504758 0.07027258 0.10972576 4294967295
0.014261179 0.070498712 0.10683951 4294967295
0.013474785 0.070724845 0.10395326 4294967295
0.012688383 0.07095097 0.10106701 4294967295
0.011901982 0.071177103 0.098180756 4294967295
0.011115588 0.071403228 0.09529452 4294967295
0.010329179 0.07162936 0.092408255 4294967295
0.0095427856 0.071855493 0.089522004 4294967295
0.0087563843 0.072081618 0.086635739 4294967295
0.0079699829 0.072307751 0.083749503 4294967295
0.007183589 0.072533876 0.080863267 4294967295
0.0063971877 0.072760008 0.077977002 4294967295
0.0056107864 0.072986141 0.075090736 4294967295
