# .PCD v0.7 - Point Cloud Data file format
VERSION 0.7
FIELDS x y z rgb
SIZE 4 4 4 4
TYPE F F F U
COUNT 1 1 1 1
WIDTH 1093
HEIGHT 1
VIEWPOINT 0 0 0 1 0 0 0
POINTS 1093
DATA ascii
0.10506238 0.087110445 0.30200002 4280229911
0.10604327 0.087110445 0.30200002 4280690210
0.10702417 0.087110445 0.30200002 4281085220
0.10800506 0.087110445 0.30200002 4280821278
0.10898596 0.087110445 0.30200002 4282334515
0.10996686 0.087110445 0.30200002 4281677355
0.11094776 0.087110445 0.30200002 4280556560
0.11192866 0.087110445 0.30200002 4280687112
0.11290955 0.087110445 0.30200002 4281475849
0.11426757 0.087398887 0.303 4281607435
0.11525171 0.087398887 0.303 4281016845
0.11700308 0.087975778 0.30500001 4280557323
0.11760686 0.087687336 0.30400002 4280228878
0.11859426 0.087687336 0.30400002 4282795064
0.11958165 0.087687336 0.30400002 4285955695
0.12056905 0.087687336 0.30400002 4286087283
0.12155643 0.087687336 0.30400002 4286350457
0.12254383 0.087687336 0.30400002 4286087285
0.12393757 0.087975778 0.30500001 4287268740
0.12574741 0.088552669 0.30700001 4282523170
0.12674455 0.088552669 0.30700001 4283569169
0.12815779 0.088841125 0.30800003 4283568653
0.12915818 0.088841125 0.30800003 4283633933
0.13015856 0.088841125 0.30800003 4283765517
0.13158478 0.08912956 0.30900002 4284158989
0.1330175 0.089418001 0.31 4284946965
0.13445672 0.089706458 0.31100002 4285210650
0.13546684 0.089706458 0.31100002 4285216045
0.13647698 0.089706458 0.31100002 4285954152
0.13792919 0.0899949 0.31200001 4286283120
0.13894255 0.0899949 0.31200001 4285823339
0.13995592 0.0899949 0.31200001 4285758320
0.14096931 0.0899949 0.31200001 4286087285
0.14198269 0.0899949 0.31200001 4285889906
0.086923771 0.086633198 0.29700002 4281868826
0.087888427 0.086633198 0.29700002 4282193678
0.088853084 0.086633198 0.29700002 4282193678
0.089515321 0.0863415 0.296 4282127885
0.090476729 0.0863415 0.296 4282984223
0.091438144 0.0863415 0.296 4286218097
0.092087395 0.08604981 0.29500002 4286678648
0.093045548 0.08604981 0.29500002 4285953382
0.094003707 0.08604981 0.29500002 4282068513
0.094961874 0.08604981 0.29500002 4282523156
0.095920034 0.08604981 0.29500002 4282127115
0.096878193 0.08604981 0.29500002 4282913803
0.098168001 0.0863415 0.296 4283635727
0.1001341 0.087216586 0.29900002 4284692011
0.1014434 0.087508276 0.30000001 4281934101
0.10275919 0.087799981 0.30100003 4279635717
0.10373684 0.087799981 0.30100003 4279966992
0.10506238 0.088091671 0.30200002 4280361243
0.10604327 0.088091671 0.30200002 4280756001
0.10702417 0.088091671 0.30200002 4281414181
0.10800506 0.088091671 0.30200002 4280952347
0.10898596 0.088091671 0.30200002 4281018653
0.10996686 0.088091671 0.30200002 4281677353
0.11094776 0.088091671 0.30200002 4281413404
0.11192866 0.088091671 0.30200002 4281083404
0.11290955 0.088091671 0.30200002 4281081609
0.11389045 0.088091671 0.30200002 4280752644
0.11525171 0.088383362 0.303 4280885773
0.11585224 0.088091671 0.30200002 4280491530
0.11721999 0.088383362 0.303 4279900172
0.11820414 0.088383362 0.303 4286349683
0.11918829 0.088383362 0.303 4285955695
0.12017243 0.088383362 0.303 4286153074
0.12115657 0.088383362 0.303 4286218101
0.12214071 0.088383362 0.303 4286283894
0.12393757 0.08896675 0.30500001 4285685595
0.12574741 0.089550138 0.30700001 4283440161
0.12674455 0.089550138 0.30700001 4283765519
0.12815779 0.089841835 0.30800003 4283699724
0.12915818 0.089841835 0.30800003 4283830540
0.13015856 0.089841835 0.30800003 4283962126
0.13158478 0.090133525 0.30900002 4284619283
0.1330175 0.090425216 0.31 4285472537
0.13445672 0.090716921 0.31100002 4285603351
0.13546684 0.090716921 0.31100002 4285539098
0.13647698 0.090716921 0.31100002 4286277721
0.13792919 0.091008611 0.31200001 4286020202
0.13894255 0.091008611 0.31200001 4285889904
0.13995592 0.091008611 0.31200001 4285955697
0.14096931 0.091008611 0.31200001 4285758318
0.14198269 0.091008611 0.31200001 4285889904
0.086923771 0.087598182 0.29700002 4282001185
0.087888427 0.087598182 0.29700002 4282259473
0.088853084 0.087598182 0.29700002 4282390285
0.089515321 0.087303236 0.296 4282915086
0.090476729 0.087303236 0.296 4284102700
0.091438144 0.087303236 0.296 4286154359
0.092399552 0.087303236 0.296 4286154359
0.093045548 0.087008297 0.29500002 4286022775
0.094003707 0.087008297 0.29500002 4286811008
0.094961874 0.087008297 0.29500002 4281406220
0.095920034 0.087008297 0.29500002 4281996814
0.096878193 0.087008297 0.29500002 4282849039
0.099494599 0.088483013 0.30000001 4284096278
0.10046899 0.088483013 0.30000001 4287659122
0.1014434 0.088483013 0.30000001 4285163614
0.10275919 0.088777959 0.30100003 4279635719
0.10408148 0.089072898 0.30200002 4279242244
0.10506238 0.089072898 0.30200002 4280164118
0.10604327 0.089072898 0.30200002 4278979074
0.10702417 0.089072898 0.30200002 4281085216
0.10800506 0.089072898 0.30200002 4280491796
0.10898596 0.089072898 0.30200002 4280624149
0.10996686 0.089072898 0.30200002 4282597939
0.11094776 0.089072898 0.30200002 4280953366
0.11192866 0.089072898 0.30200002 4282267678
0.11290955 0.089072898 0.30200002 4283121955
0.11389045 0.089072898 0.30200002 4281345292
0.11525171 0.089367837 0.303 4280622601
0.11585224 0.089072898 0.30200002 4280754702
0.11721999 0.089367837 0.303 4278848768
0.11820414 0.089367837 0.303 4285890156
0.11918829 0.089367837 0.303 4286022001
0.12017243 0.089367837 0.303 4286153074
0.12115657 0.089367837 0.303 4286087285
0.12214071 0.089367837 0.303 4286021492
0.12393757 0.089957729 0.30500001 4282390555
0.12574741 0.090547614 0.30700001 4283634712
0.12674455 0.090547614 0.30700001 4284092942
0.12815779 0.090842567 0.30800003 4284158735
0.12915818 0.090842567 0.30800003 4284158735
0.13015856 0.090842567 0.30800003 4284224528
0.13158478 0.091137506 0.30900002 4285275160
0.1330175 0.091432445 0.31 4285669916
0.13445672 0.091727391 0.31100002 4285340433
0.13546684 0.091727391 0.31100002 4285603348
0.13647698 0.091727391 0.31100002 4283376149
0.13792919 0.09202233 0.31200001 4286282086
0.13894255 0.09202233 0.31200001 4286151534
0.13995592 0.09202233 0.31200001 4285889134
0.14096931 0.09202233 0.31200001 4285758318
0.14198269 0.09202233 0.31200001 4285758318
0.089515321 0.088264972 0.296 4283440915
0.090476729 0.088264972 0.296 4284891443
0.091438144 0.088264972 0.296 4286218869
0.092399552 0.088264972 0.296 4286416763
0.093360953 0.088264972 0.296 4286416763
0.094322361 0.088264972 0.296 4286613375
0.095283769 0.088264972 0.296 4281473044
0.096245185 0.088264972 0.296 4281931535
0.097206593 0.088264972 0.296 4282717707
0.099162951 0.089159556 0.29900002 4283635727
0.10046899 0.089457743 0.30000001 4287661942
0.10178155 0.089755945 0.30100003 4287139451
0.10275919 0.089755945 0.30100003 4278649856
0.10408148 0.090054132 0.30200002 4281216804
0.10506238 0.090054132 0.30200002 4281019682
0.10604327 0.090054132 0.30200002 4279045637
0.10702417 0.090054132 0.30200002 4281414183
0.10836269 0.090352319 0.303 4281281827
0.10934684 0.090352319 0.303 4280689429
0.11033098 0.090352319 0.303 4281874216
0.11131513 0.090352319 0.303 4281216284
0.11229927 0.090352319 0.303 4280558354
0.11328342 0.090352319 0.303 4282069787
0.11389045 0.090054132 0.30200002 4281806615
0.11525171 0.090352319 0.303 4281017361
0.11623584 0.090352319 0.303 4279767557
0.11721999 0.090352319 0.303 4285560167
0.11820414 0.090352319 0.303 4285758570
0.11918829 0.090352319 0.303 4286087535
0.12017243 0.090352319 0.303 4286218097
0.12115657 0.090352319 0.303 4286218097
0.12214071 0.090352319 0.303 4286743416
0.12393757 0.090948708 0.30500001 4283636257
0.12574741 0.09154509 0.30700001 4283896853
0.12674455 0.09154509 0.30700001 4284224782
0.12815779 0.091843292 0.30800003 4284290318
0.12915818 0.091843292 0.30800003 4284224525
0.13015856 0.091843292 0.30800003 4284684306
0.13158478 0.092141479 0.30900002 4284683793
0.1330175 0.092439666 0.31 4291593862
0.13445672 0.092737861 0.31100002 4285669914
0.13546684 0.092737861 0.31100002 4285734934
0.13647698 0.092737861 0.31100002 4284687386
0.13792919 0.093036056 0.31200001 4287001444
0.13894255 0.093036056 0.31200001 4285889134
0.13995592 0.093036056 0.31200001 4285889136
0.14096931 0.093036056 0.31200001 4285889136
0.14198269 0.093036056 0.31200001 4285955699
0.089515321 0.089226708 0.296 4283571731
0.090476729 0.089226708 0.296 4285549373
0.091438144 0.089226708 0.296 4286482041
0.092399552 0.089226708 0.296 4286416763
0.093360953 0.089226708 0.296 4286548349
0.094322361 0.089226708 0.296 4286284923
0.095283769 0.089226708 0.296 4282000158
0.096245185 0.089226708 0.296 4281998357
0.097534999 0.089528158 0.29700002 4283046670
0.099162951 0.090131037 0.29900002 4283570448
0.10046899 0.09043248 0.30000001 4286939762
0.1014434 0.09043248 0.30000001 4286811004
0.10275919 0.090733923 0.30100003 4279045385
0.10408148 0.091035359 0.30200002 4279374348
0.10506238 0.091035359 0.30200002 4280888614
0.10639441 0.091336802 0.303 4279374605
0.10737855 0.091336802 0.303 4279900946
0.10836269 0.091336802 0.303 4281611562
0.10934684 0.091336802 0.303 4281479204
0.11033098 0.091336802 0.303 4280493333
0.11131513 0.091336802 0.303 4283059260
0.11229927 0.091336802 0.303 4280690458
0.11328342 0.091336802 0.303 4280361747
0.11426757 0.091336802 0.303 4280427540
0.11525171 0.091336802 0.303 4279505416
0.11623584 0.091336802 0.303 4280031762
0.11721999 0.091336802 0.303 4285758316
0.11820414 0.091336802 0.303 4285955695
0.11918829 0.091336802 0.303 4286021488
0.12017243 0.091336802 0.303 4286087283
0.12115657 0.091336802 0.303 4286217329
0.12214071 0.091336802 0.303 4282133543
0.12393757 0.091939688 0.30500001 4284160027
0.12574741 0.092542566 0.30700001 4284158737
0.12674455 0.092542566 0.30700001 4284486414
0.12815779 0.092844017 0.30800003 4284486414
0.12915818 0.092844017 0.30800003 4284683793
0.13015856 0.092844017 0.30800003 4284683791
0.13158478 0.093145452 0.30900002 4285209365
0.1330175 0.093446888 0.31 4285011216
0.13445672 0.093748339 0.31100002 4286788147
0.13546684 0.093748339 0.31100002 4285801504
0.13647698 0.093748339 0.31100002 4284753179
0.13792919 0.094049774 0.31200001 4287722600
0.13894255 0.094049774 0.31200001 4285823339
0.13995592 0.094049774 0.31200001 4286086513
0.14096931 0.094049774 0.31200001 4285889134
0.14198269 0.094049774 0.31200001 4286020720
0.08981774 0.090493135 0.29700002 4283570448
0.090782404 0.090493135 0.29700002 4285021744
0.091438144 0.090188436 0.296 4286547062
0.092399552 0.090188436 0.296 4286482554
0.093360953 0.090188436 0.296 4286482556
0.094322361 0.090188436 0.296 4286416511
0.095283769 0.090188436 0.296 4282723883
0.096570343 0.090493135 0.29700002 4281932051
0.097534999 0.090493135 0.29700002 4282980366
0.099162951 0.091102518 0.29900002 4283571218
0.1001341 0.091102518 0.29900002 4286874230
0.1014434 0.091407202 0.30000001 4286153591
0.10275919 0.091711894 0.30100003 4282467648
0.10408148 0.092016585 0.30200002 4279308555
0.10541026 0.092321269 0.303 4279308812
0.10639441 0.092321269 0.303 4280361754
0.10737855 0.092321269 0.303 4279243016
0.10836269 0.092321269 0.303 4279373830
0.10934684 0.092321269 0.303 4280295959
0.11033098 0.092321269 0.303 4280559131
0.11131513 0.092321269 0.303 4279176453
0.11229927 0.092321269 0.303 4279636750
0.11328342 0.092321269 0.303 4280361752
0.11426757 0.092321269 0.303 4279045637
0.11525171 0.092321269 0.303 4278716929
0.11623584 0.092321269 0.303 4286086511
0.11721999 0.092321269 0.303 4286086511
0.11820414 0.092321269 0.303 4286152306
0.11918829 0.092321269 0.303 4285956210
0.12017243 0.092321269 0.303 4285956212
0.12115657 0.092321269 0.303 4286874234
0.12214071 0.092321269 0.303 4282785824
0.12393757 0.092930652 0.30500001 4284356116
0.12574741 0.093540035 0.30700001 4284224525
0.12674455 0.093540035 0.30700001 4284683793
0.12815779 0.093844734 0.30800003 4284618000
0.12915818 0.093844734 0.30800003 4284683791
0.13015856 0.093844734 0.30800003 4284683791
0.13158478 0.094149418 0.30900002 4284881170
0.1330175 0.094454102 0.31 4285209365
0.13445672 0.094758801 0.31100002 4285471767
0.13546684 0.094758801 0.31100002 4285538330
0.13647698 0.094758801 0.31100002 4284686619
0.13792919 0.095063485 0.31200001 4287656294
0.13894255 0.095063485 0.31200001 4285823339
0.13995592 0.095063485 0.31200001 4285823341
0.14096931 0.095063485 0.31200001 4285757550
0.14198269 0.095063485 0.31200001 4286020722
0.08981774 0.091458119 0.29700002 4283833106
0.090782404 0.091458119 0.29700002 4284098847
0.09174706 0.091458119 0.29700002 4286612855
0.092711717 0.091458119 0.29700002 4286613627
0.093360953 0.091150172 0.296 4286614142
0.094322361 0.091150172 0.296 4286811267
0.095605679 0.091458119 0.29700002 4281935394
0.096570343 0.091458119 0.29700002 4282063637
0.097534999 0.091458119 0.29700002 4283046159
0.098831296 0.091766052 0.29800001 4283438862
0.1001341 0.092073999 0.29900002 4287071350
0.1014434 0.092381932 0.30000001 4286350966
0.10275919 0.092689879 0.30100003 4286745223
0.10408148 0.092997812 0.30200002 4279045642
0.10541026 0.093305752 0.303 4281085477
0.10639441 0.093305752 0.303 4279836180
0.10737855 0.093305752 0.303 4279309066
0.10836269 0.093305752 0.303 4281481005
0.10934684 0.093305752 0.303 4278848261
0.11033098 0.093305752 0.303 4278782468
0.11131513 0.093305752 0.303 4279636750
0.11229927 0.093305752 0.303 4281281827
0.11328342 0.093305752 0.303 4278914049
0.11426757 0.093305752 0.303 4279176453
0.11525171 0.093305752 0.303 4285034847
0.11623584 0.093305752 0.303 4285824876
0.11721999 0.093305752 0.303 4286021488
0.11820414 0.093305752 0.303 4286153074
0.11918829 0.093305752 0.303 4286087283
0.12017243 0.093305752 0.303 4285955697
0.12115657 0.093305752 0.303 4284564032
0.12214071 0.093305752 0.303 4284161569
0.12393757 0.093921632 0.30500001 4284618777
0.12574741 0.094537511 0.30700001 4284617746
0.12674455 0.094537511 0.30700001 4284880402
0.12815779 0.094845459 0.30800003 4284880400
0.12915818 0.094845459 0.30800003 4285011986
0.13015856 0.094845459 0.30800003 4284815375
0.13158478 0.095153391 0.30900002 4284684304
0.1330175 0.095461331 0.31 4284750097
0.13445672 0.095769271 0.31100002 4284881170
0.13546684 0.095769271 0.31100002 4284881170
0.13647698 0.095769271 0.31100002 4283570966
0.13792919 0.096077211 0.31200001 4287002475
0.13894255 0.096077211 0.31200001 4285692777
0.13995592 0.096077211 0.31200001 4285889904
0.14096931 0.096077211 0.31200001 4285757550
0.14198269 0.096077211 0.31200001 4285757550
0.087216437 0.092734285 0.29800001 4283189311
0.088184342 0.092734285 0.29800001 4282455315
0.089152247 0.092734285 0.29800001 4282849555
0.08981774 0.092423104 0.29700002 4283637011
0.090782404 0.092423104 0.29700002 4283901466
0.09174706 0.092423104 0.29700002 4286547064
0.092711717 0.092423104 0.29700002 4286614142
0.093676366 0.092423104 0.29700002 4286416763
0.094641022 0.092423104 0.29700002 4286087544
0.095605679 0.092423104 0.29700002 4282528303
0.096570343 0.092423104 0.29700002 4281932051
0.097534999 0.092423104 0.29700002 4282914832
0.098831296 0.092734285 0.29800001 4284425245
0.1001341 0.093045481 0.29900002 4287135860
0.1014434 0.093356669 0.30000001 4286350968
0.10310058 0.093979046 0.30200002 4286154107
0.10442612 0.094290234 0.303 4283653205
0.10541026 0.094290234 0.303 4279769615
0.10639441 0.094290234 0.303 4279966737
0.10737855 0.094290234 0.303 4280361752
0.10836269 0.094290234 0.303 4280033559
0.10934684 0.094290234 0.303 4278716675
0.11033098 0.094290234 0.303 4281941554
0.11131513 0.094290234 0.303 4282532662
0.11229927 0.094290234 0.303 4279505416
0.11290955 0.093979046 0.30200002 4280557589
0.11389045 0.093979046 0.30200002 4285492064
0.11525171 0.094290234 0.303 4285955695
0.11623584 0.094290234 0.303 4285955695
0.11721999 0.094290234 0.303 4285889904
0.11820414 0.094290234 0.303 4286087283
0.11958165 0.094601423 0.30400002 4286021490
0.12056905 0.094601423 0.30400002 4286676340
0.12155643 0.094601423 0.30400002 4284226849
0.12254383 0.094601423 0.30400002 4284816413
0.12393757 0.094912611 0.30500001 4284815638
0.12574741 0.095534988 0.30700001 4284749332
0.12674455 0.095534988 0.30700001 4284748816
0.12815779 0.095846184 0.30800003 4284880400
0.12915818 0.095846184 0.30800003 4285011986
0.13015856 0.095846184 0.30800003 4284815377
0.13158478 0.096157365 0.30900002 4284224780
0.1330175 0.096468553 0.31 4284882710
0.13445672 0.096779749 0.31100002 4284619540
0.13546684 0.096779749 0.31100002 4284554517
0.13647698 0.096779749 0.31100002 4284697407
0.13792919 0.09709093 0.31200001 4286084968
0.13894255 0.09709093 0.31200001 4285626730
0.13995592 0.09709093 0.31200001 4285626732
0.14096931 0.09709093 0.31200001 4285758318
0.14198269 0.09709093 0.31200001 4285758320
0.086248539 0.093702525 0.29800001 4286220154
0.087216437 0.093702525 0.29800001 4284110926
0.088184342 0.093702525 0.29800001 4282719000
0.089152247 0.093702525 0.29800001 4282652944
0.090120159 0.093702525 0.29800001 4283242253
0.090782404 0.093388088 0.29700002 4282979335
0.09174706 0.093388088 0.29700002 4286678132
0.092711717 0.093388088 0.29700002 4286416761
0.093676366 0.093388088 0.29700002 4286482302
0.094641022 0.093388088 0.29700002 4286350716
0.095605679 0.093388088 0.29700002 4284108878
0.096570343 0.093388088 0.29700002 4281734933
0.097534999 0.093388088 0.29700002 4282717455
0.098831296 0.093702525 0.29800001 4284096026
0.099799193 0.093702525 0.29800001 4287068268
0.1014434 0.094331399 0.30000001 4286743671
0.10310058 0.09496028 0.30200002 4286350716
0.10442612 0.095274709 0.303 4286154109
0.10541026 0.095274709 0.303 4283389518
0.10674555 0.095589153 0.30400002 4279045637
0.10773294 0.095589153 0.30400002 4280294932
0.10836269 0.095274709 0.303 4280164116
0.10934684 0.095274709 0.303 4279242762
0.11033098 0.095274709 0.303 4279243016
0.11131513 0.095274709 0.303 4279110658
0.11192866 0.09496028 0.30200002 4279635206
0.11290955 0.09496028 0.30200002 4282193426
0.11389045 0.09496028 0.30200002 4286211676
0.11487134 0.09496028 0.30200002 4286086511
0.11623584 0.095274709 0.303 4286020720
0.11721999 0.095274709 0.303 4286020722
0.11820414 0.095274709 0.303 4285955699
0.11958165 0.095589153 0.30400002 4286282865
0.12056905 0.095589153 0.30400002 4282917924
0.12155643 0.095589153 0.30400002 4284882976
0.12254383 0.095589153 0.30400002 4284881431
0.12393757 0.09590359 0.30500001 4284749586
0.12574741 0.096532464 0.30700001 4284880402
0.12674455 0.096532464 0.30700001 4285077009
0.12815779 0.096846908 0.30800003 4285208593
0.12915818 0.096846908 0.30800003 4284617998
0.13015856 0.096846908 0.30800003 4284421650
0.13158478 0.097161345 0.30900002 4283898899
0.1330175 0.097475775 0.31 4283767827
0.13445672 0.097790219 0.31100002 4283899933
0.13546684 0.097790219 0.31100002 4283574561
0.13647698 0.097790219 0.31100002 4285954150
0.13792919 0.098104656 0.31200001 4285888616
0.13894255 0.098104656 0.31200001 4285889134
0.13995592 0.098104656 0.31200001 4285692527
0.14096931 0.098104656 0.31200001 4285693040
0.14198269 0.098104656 0.31200001 4285693040
0.086537972 0.09498845 0.29900002 4286285947
0.087216437 0.094670758 0.29800001 4283847756
0.088184342 0.094670758 0.29800001 4282456598
0.089152247 0.094670758 0.29800001 4282849553
0.090120159 0.094670758 0.29800001 4283439632
0.091088064 0.094670758 0.29800001 4283438348
0.09174706 0.094353072 0.29700002 4287071350
0.092711717 0.094353072 0.29700002 4286350968
0.093676366 0.094353072 0.29700002 4286482302
0.094641022 0.094353072 0.29700002 4286416509
0.095605679 0.094353072 0.29700002 4287005566
0.096570343 0.094353072 0.29700002 4282065181
0.097534999 0.094353072 0.29700002 4282651662
0.098499656 0.094353072 0.29700002 4284030747
0.099464305 0.094353072 0.29700002 4286474588
0.1014434 0.095306136 0.30000001 4286809207
0.10310058 0.095941506 0.30200002 4286350970
0.10442612 0.096259192 0.303 4286416763
0.10575815 0.096576884 0.30400002 4286154109
0.10674555 0.096576884 0.30400002 4280691237
0.10773294 0.096576884 0.30400002 4279963657
0.10836269 0.096259192 0.303 4279634692
0.10934684 0.096259192 0.303 4279437829
0.11033098 0.096259192 0.303 4279699715
0.11094776 0.095941506 0.30200002 4281929486
0.11192866 0.095941506 0.30200002 4283110419
0.11253569 0.095623821 0.30100003 4283963927
0.11351334 0.095623821 0.30100003 4285679424
0.11449097 0.095623821 0.30100003 4286217581
0.11585224 0.095941506 0.30200002 4286152304
0.11721999 0.096259192 0.303 4286086513
0.11820414 0.096259192 0.303 4286086511
0.11958165 0.096576884 0.30400002 4283771177
0.12056905 0.096576884 0.30400002 4284817187
0.12155643 0.096576884 0.30400002 4285079580
0.12254383 0.096576884 0.30400002 4285078551
0.12393757 0.09689457 0.30500001 4285405976
0.12574741 0.09752994 0.30700001 4285142802
0.12674455 0.09752994 0.30700001 4285405974
0.12815779 0.097847633 0.30800003 4285077779
0.12915818 0.097847633 0.30800003 4284095765
0.13015856 0.097847633 0.30800003 4283374354
0.13158478 0.098165318 0.30900002 4283244313
0.1330175 0.098483004 0.31 4283444258
0.13445672 0.098800689 0.31100002 4285754205
0.13546684 0.098800689 0.31100002 4286150761
0.13647698 0.098800689 0.31100002 4285954155
0.13792919 0.099118374 0.31200001 4286217329
0.13894255 0.099118374 0.31200001 4286020720
0.13995592 0.099118374 0.31200001 4285955699
0.14096931 0.099118374 0.31200001 4285693040
0.14198269 0.099118374 0.31200001 4285890165
0.086537972 0.095959924 0.29900002 4286285947
0.087509118 0.095959924 0.29900002 4283584330
0.088184342 0.095638983 0.29800001 4282653977
0.089152247 0.095638983 0.29800001 4282849553
0.090120159 0.095638983 0.29800001 4283373839
0.091088064 0.095638983 0.29800001 4284094995
0.09174706 0.095318049 0.29700002 4287461997
0.092711717 0.095318049 0.29700002 4286416248
0.093676366 0.095318049 0.29700002 4286416509
0.094641022 0.095318049 0.29700002 4286350716
0.095283769 0.094997108 0.296 4286941570
0.096245185 0.094997108 0.296 4281212441
0.097206593 0.094997108 0.296 4282585867
0.098499656 0.095318049 0.29700002 4283701782
0.099464305 0.095318049 0.29700002 4283772710
0.1014434 0.096280858 0.30000001 4286873971
0.10310058 0.096922733 0.30200002 4286482041
0.10477076 0.0975646 0.30400002 4286416250
0.10575815 0.0975646 0.30400002 4286482556
0.10674555 0.0975646 0.30400002 4284177748
0.10773294 0.0975646 0.30400002 4282196508
0.10836269 0.097243659 0.303 4281996814
0.10934684 0.097243659 0.303 4282913551
0.10996686 0.096922733 0.30200002 4283240719
0.11094776 0.096922733 0.30200002 4283897105
0.11192866 0.096922733 0.30200002 4284225298
0.11253569 0.096601799 0.30100003 4284882455
0.11351334 0.096601799 0.30100003 4284556316
0.11449097 0.096601799 0.30100003 4286019945
0.11585224 0.096922733 0.30200002 4286218097
0.11721999 0.097243659 0.303 4286217327
0.11820414 0.097243659 0.303 4283317815
0.11958165 0.0975646 0.30400002 4284948773
0.12056905 0.0975646 0.30400002 4285408804
0.12155643 0.0975646 0.30400002 4285275676
0.12254383 0.0975646 0.30400002 4285405976
0.12393757 0.097885534 0.30500001 4285340181
0.12574741 0.098527409 0.30700001 4285340179
0.12674455 0.098527409 0.30700001 4285538328
0.12815779 0.09884835 0.30800003 4287385669
0.12915818 0.09884835 0.30800003 4286149213
0.13015856 0.09884835 0.30800003 4285821535
0.13158478 0.099169284 0.30900002 4286678130
0.1330175 0.099490218 0.31 4285626212
0.13445672 0.099811159 0.31100002 4285823339
0.13546684 0.099811159 0.31100002 4285889134
0.13647698 0.099811159 0.31100002 4286086513
0.13792919 0.10013209 0.31200001 4285757548
0.13894255 0.10013209 0.31200001 4286020720
0.13995592 0.10013209 0.31200001 4285955697
0.14096931 0.10013209 0.31200001 4286021238
0.14198269 0.10013209 0.31200001 4285889652
0.086537972 0.096931405 0.29900002 4286285693
0.087509118 0.096931405 0.29900002 4282860348
0.088480271 0.096931405 0.29900002 4282850073
0.089152247 0.096607216 0.29800001 4282980627
0.090120159 0.096607216 0.29800001 4283438864
0.091088064 0.096607216 0.29800001 4284226068
0.092055969 0.096607216 0.29800001 4285017382
0.092711717 0.096283033 0.29700002 4287062623
0.093676366 0.096283033 0.29700002 4286744445
0.094641022 0.096283033 0.29700002 4286482043
0.095283769 0.095958844 0.296 4286087544
0.096245185 0.095958844 0.296 4284570712
0.097206593 0.095958844 0.296 4282585354
0.098168001 0.095958844 0.296 4283503376
0.099129401 0.095958844 0.296 4283833622
0.10009081 0.095958844 0.296 4288119927
0.10310058 0.097903959 0.30200002 4286416248
0.10477076 0.098552331 0.30400002 4286350455
0.10575815 0.098552331 0.30400002 4286153591
0.10674555 0.098552331 0.30400002 4286942594
0.10773294 0.098552331 0.30400002 4281800467
0.10836269 0.098228142 0.303 4282849039
0.10934684 0.098228142 0.303 4284092942
0.10996686 0.097903959 0.30200002 4284092685
0.11094776 0.097903959 0.30200002 4284289294
0.11192866 0.097903959 0.30200002 4284618000
0.11290955 0.097903959 0.30200002 4285077009
0.085852988 0.098230325 0.30000001 4286483072
0.086537972 0.097902894 0.29900002 4286285695
0.087509118 0.097902894 0.29900002 4281872429
0.088480271 0.097902894 0.29900002 4283178522
0.089451425 0.097902894 0.29900002 4283045907
0.090120159 0.097575448 0.29800001 4283833108
0.091088064 0.097575448 0.29800001 4284291091
0.092055969 0.097575448 0.29800001 4284487697
0.092711717 0.097248018 0.29700002 4284685076
0.093676366 0.097248018 0.29700002 4284357402
0.094641022 0.097248018 0.29700002 4285215541
0.095283769 0.09692058 0.296 4285942096
0.096245185 0.09692058 0.296 4285479748
0.097206593 0.09692058 0.296 4284358939
0.098168001 0.09692058 0.296 4284094482
0.099129401 0.09692058 0.296 4284554517
0.10009081 0.09692058 0.296 4286992969
0.10105222 0.09692058 0.296 4286481269
0.10235828 0.097248018 0.29700002 4286416248
0.10575815 0.099540062 0.30400002 4286153591
0.10674555 0.099540062 0.30400002 4286153591
0.10773294 0.099540062 0.30400002 4282262560
0.10872033 0.099540062 0.30400002 4282981141
0.10934684 0.099212624 0.303 4284092942
0.11033098 0.099212624 0.303 4284355087
0.11131513 0.099212624 0.303 4284814355
0.11229927 0.099212624 0.303 4285011218
0.11328342 0.099212624 0.303 4285471508
0.085852988 0.099205054 0.30000001 4286351486
0.086537972 0.098874375 0.29900002 4286481791
0.087509118 0.098874375 0.29900002 4281805863
0.088480271 0.098874375 0.29900002 4282981141
0.089451425 0.098874375 0.29900002 4283111700
0.090120159 0.098543689 0.29800001 4283569936
0.091088064 0.098543689 0.29800001 4284225552
0.092055969 0.098543689 0.29800001 4284552718
0.092711717 0.09821301 0.29700002 4284815377
0.093676366 0.09821301 0.29700002 4284946193
0.094322361 0.097882316 0.296 4285405976
0.095283769 0.097882316 0.296 4285999149
0.096245185 0.097882316 0.296 4286790203
0.097206593 0.097882316 0.296 4286790709
0.098168001 0.097882316 0.296 4286921014
0.099129401 0.097882316 0.296 4285209367
0.10009081 0.097882316 0.296 4285144857
0.10105222 0.097882316 0.296 4286606947
0.10235828 0.09821301 0.29700002 4286545267
0.10332294 0.09821301 0.29700002 4286218871
0.10674555 0.10052779 0.30400002 4285889906
0.10773294 0.10052779 0.30400002 4286675057
0.10872033 0.10052779 0.30400002 4283047965
0.10970772 0.10052779 0.30400002 4284421907
0.11069512 0.10052779 0.30400002 4284749845
0.11168251 0.10052779 0.30400002 4285275930
0.11266991 0.10052779 0.30400002 4285406744
0.1136573 0.10052779 0.30400002 4285537303
0.085852988 0.10017978 0.30000001 4286417279
0.086537972 0.099845849 0.29900002 4286744191
0.087509118 0.099845849 0.29900002 4281803808
0.088480271 0.099845849 0.29900002 4283111700
0.089451425 0.099845849 0.29900002 4283439380
0.090120159 0.099511914 0.29800001 4283635214
0.091088064 0.099511914 0.29800001 4284094736
0.092055969 0.099511914 0.29800001 4284356366
0.092711717 0.099177986 0.29700002 4284421902
0.093676366 0.099177986 0.29700002 4284946193
0.094322361 0.098844044 0.296 4285340181
0.095283769 0.098844044 0.296 4285537303
0.096245185 0.098844044 0.296 4289485912
0.097206593 0.098844044 0.296 4285407516
0.098168001 0.098844044 0.296 4286063649
0.099129401 0.098844044 0.296 4285930780
0.10009081 0.098844044 0.296 4285668121
0.10105222 0.098844044 0.296 4284491038
0.10201363 0.098844044 0.296 4285744449
0.10332294 0.099177986 0.29700002 4286935147
0.10674555 0.10151551 0.30400002 4286215789
0.10773294 0.10151551 0.30400002 4287004537
0.10872033 0.10151551 0.30400002 4282326557
0.10970772 0.10151551 0.30400002 4285145884
0.11069512 0.10151551 0.30400002 4285275158
0.11168251 0.10151551 0.30400002 4285471765
0.11266991 0.10151551 0.30400002 4285471508
0.1136573 0.10151551 0.30400002 4285536531
0.085852988 0.10115451 0.30000001 4286614658
0.08682739 0.10115451 0.30000001 4287204996
0.087509118 0.10081733 0.29900002 4281803806
0.088480271 0.10081733 0.29900002 4283308307
0.089451425 0.10081733 0.29900002 4283439634
0.090422578 0.10081733 0.29900002 4283766800
0.091088064 0.10048015 0.29800001 4284292628
0.092055969 0.10048015 0.29800001 4284161042
0.092711717 0.10014297 0.29700002 4284291345
0.093676366 0.10014297 0.29700002 4284881168
0.094322361 0.09980578 0.296 4285011984
0.095283769 0.09980578 0.296 4285668117
0.095920034 0.099468604 0.29500002 4285602578
0.096878193 0.099468604 0.29500002 4290607219
0.09783636 0.099468604 0.29500002 4284946713
0.098794512 0.099468604 0.29500002 4286193180
0.099752672 0.099468604 0.29500002 4285865498
0.10105222 0.09980578 0.296 4285538330
0.10201363 0.09980578 0.296 4285210135
0.10332294 0.10014297 0.29700002 4284947994
0.10674555 0.10250324 0.30400002 4284882976
0.10773294 0.10250324 0.30400002 4284227103
0.10872033 0.10250324 0.30400002 4285014564
0.10970772 0.10250324 0.30400002 4285078551
0.11069512 0.10250324 0.30400002 4285405972
0.11168251 0.10250324 0.30400002 4285471762
0.11266991 0.10250324 0.30400002 4285339406
0.1136573 0.10250324 0.30400002 4285602065
0.085852988 0.10212924 0.30000001 4286483072
0.08682739 0.10212924 0.30000001 4287203974
0.087509118 0.10178882 0.29900002 4281605918
0.088480271 0.10178882 0.29900002 4283177491
0.089451425 0.10178882 0.29900002 4283308307
0.090120159 0.10144838 0.29800001 4283570448
0.091088064 0.10144838 0.29800001 4283898899
0.092055969 0.10144838 0.29800001 4283964433
0.092711717 0.10110795 0.29700002 4283897868
0.093360953 0.10076752 0.296 4284617998
0.094322361 0.10076752 0.296 4284748814
0.094961874 0.10042709 0.29500002 4285142543
0.095920034 0.10042709 0.29500002 4285602324
0.096878193 0.10042709 0.29500002 4285601561
0.09783636 0.10042709 0.29500002 4287115831
0.098794512 0.10042709 0.29500002 4286260256
0.099752672 0.10042709 0.29500002 4286061592
0.10105222 0.10076752 0.296 4285602065
0.10201363 0.10076752 0.296 4285208336
0.10332294 0.10110795 0.29700002 4285537558
0.10674555 0.10349097 0.30400002 4285405972
0.10773294 0.10349097 0.30400002 4285471767
0.10872033 0.10349097 0.30400002 4285406746
0.10970772 0.10349097 0.30400002 4285405976
0.11069512 0.10349097 0.30400002 4285537303
0.11168251 0.10349097 0.30400002 4285667858
0.11266991 0.10349097 0.30400002 4285732881
0.1136573 0.10349097 0.30400002 4285601295
0.085852988 0.10310397 0.30000001 4286483072
0.08682739 0.10310397 0.30000001 4286678400
0.087509118 0.1027603 0.29900002 4281870886
0.088480271 0.1027603 0.29900002 4283112213
0.089451425 0.1027603 0.29900002 4282980112
0.090120159 0.10241661 0.29800001 4283242514
0.091088064 0.10241661 0.29800001 4283439380
0.09174706 0.10207294 0.29700002 4283570448
0.092711717 0.10207294 0.29700002 4283569675
0.093360953 0.10172925 0.296 4284158732
0.094322361 0.10172925 0.296 4284552720
0.094961874 0.10138558 0.29500002 4285077009
0.095920034 0.10138558 0.29500002 4285208336
0.096549787 0.10104189 0.294 4285733397
0.097504705 0.10104189 0.294 4286062112
0.098459609 0.10104189 0.294 4289093730
0.09941452 0.10104189 0.294 4284880918
0.10105222 0.10172925 0.296 4285207055
0.10201363 0.10172925 0.296 4285339154
0.10332294 0.10207294 0.29700002 4285405715
0.10674555 0.10447869 0.30400002 4285471508
0.10773294 0.10447869 0.30400002 4285669141
0.10872033 0.10447869 0.30400002 4285603348
0.10970772 0.10447869 0.30400002 4285669141
0.11069512 0.10447869 0.30400002 4285734164
0.11168251 0.10447869 0.30400002 4285733651
0.11266991 0.10447869 0.30400002 4285732881
0.1136573 0.10447869 0.30400002 4285930260
0.085852988 0.10407871 0.30000001 4286680451
0.08682739 0.10407871 0.30000001 4286416509
0.087509118 0.10373178 0.29900002 4284899931
0.088480271 0.10373178 0.29900002 4282785047
0.089451425 0.10373178 0.29900002 4282849555
0.090120159 0.10338485 0.29800001 4282717453
0.091088064 0.10338485 0.29800001 4282717453
0.09174706 0.10303792 0.29700002 4283111182
0.092711717 0.10303792 0.29700002 4283176462
0.093360953 0.10269099 0.296 4283699978
0.094003707 0.10234407 0.29500002 4284224782
0.094961874 0.10234407 0.29500002 4284881170
0.095594876 0.10199713 0.294 4285077779
0.096549787 0.10199713 0.294 4285405972
0.097504705 0.10199713 0.294 4285405974
0.098459609 0.10199713 0.294 4286395699
0.09941452 0.10199713 0.294 4285078812
0.10105222 0.10269099 0.296 4285077781
0.10201363 0.10269099 0.296 4284815379
0.10332294 0.10303792 0.29700002 4284751894
0.10674555 0.10546643 0.30400002 4284881683
0.10773294 0.10546643 0.30400002 4285275410
0.10872033 0.10546643 0.30400002 4285734934
0.10970772 0.10546643 0.30400002 4285997336
0.11069512 0.10546643 0.30400002 4288168505
0.11168251 0.10546643 0.30400002 4285865750
0.11266991 0.10546643 0.30400002 4285995799
0.1136573 0.10546643 0.30400002 4286060822
0.086537972 0.10470325 0.29900002 4286483074
0.087509118 0.10470325 0.29900002 4286481791
0.088480271 0.10470325 0.29900002 4282921514
0.089152247 0.10435308 0.29800001 4282718739
0.090120159 0.10435308 0.29800001 4282651662
0.091088064 0.10435308 0.29800001 4282717453
0.09174706 0.1040029 0.29700002 4282914832
0.092711717 0.1040029 0.29700002 4282849039
0.093360953 0.10365272 0.296 4283175178
0.094003707 0.10330255 0.29500002 4283635214
0.094961874 0.10330255 0.29500002 4284160275
0.095594876 0.10295236 0.294 4284685079
0.096549787 0.10295236 0.294 4284685076
0.097504705 0.10295236 0.294 4284881685
0.098459609 0.10295236 0.294 4284750869
0.09941452 0.10295236 0.294 4284948248
0.10105222 0.10365272 0.296 4285014044
0.10201363 0.10365272 0.296 4288509806
0.10332294 0.1040029 0.29700002 4285950302
0.10674555 0.10645415 0.30400002 4283115809
0.10773294 0.10645415 0.30400002 4284882712
0.10872033 0.10645415 0.30400002 4285210648
0.10970772 0.10645415 0.30400002 4285537558
0.11069512 0.10645415 0.30400002 4285734680
0.11168251 0.10645415 0.30400002 4285799703
0.11266991 0.10645415 0.30400002 4285602324
0.1136573 0.10645415 0.30400002 4285930776
0.087509118 0.10567474 0.29900002 4286548097
0.088480271 0.10567474 0.29900002 4287269508
0.089152247 0.10532131 0.29800001 4282397998
0.090120159 0.10532131 0.29800001 4282718739
0.091088064 0.10532131 0.29800001 4282587153
0.09174706 0.10496788 0.29700002 4282455565
0.092399552 0.10461445 0.296 4282587151
0.093360953 0.10461445 0.296 4282980366
0.094003707 0.10426103 0.29500002 4283176975
0.094961874 0.10426103 0.29500002 4283702036
0.095594876 0.1039076 0.294 4283767829
0.096549787 0.1039076 0.294 4283898388
0.097504705 0.1039076 0.294 4284358169
0.098459609 0.1039076 0.294 4284817435
0.09941452 0.1039076 0.294 4284817435
0.10105222 0.10461445 0.296 4285746498
0.10201363 0.10461445 0.296 4286281062
0.10332294 0.10496788 0.29700002 4285758320
0.10674555 0.10744188 0.30400002 4285560941
0.10773294 0.10744188 0.30400002 4286740588
0.10872033 0.10744188 0.30400002 4285553746
0.10970772 0.10744188 0.30400002 4283901468
0.11069512 0.10744188 0.30400002 4283637013
0.11168251 0.10744188 0.30400002 4285014044
0.11266991 0.10744188 0.30400002 4284356114
0.1136573 0.10744188 0.30400002 4284814609
0.089152247 0.10628954 0.29800001 4286810754
0.090120159 0.10628954 0.29800001 4284503372
0.090782404 0.10593287 0.29700002 4283118893
0.09174706 0.10593287 0.29700002 4282787612
0.092399552 0.10557619 0.296 4282851606
0.093360953 0.10557619 0.296 4282849553
0.094003707 0.10521952 0.29500002 4283046418
0.094961874 0.10521952 0.29500002 4283046418
0.095594876 0.10486283 0.294 4283045905
0.096549787 0.10486283 0.294 4283768345
0.097504705 0.10486283 0.294 4283834138
0.098459609 0.10486283 0.294 4283834392
0.09941452 0.10486283 0.294 4285216556
0.10105222 0.10557619 0.296 4282453002
0.10201363 0.10557619 0.296 4283180323
0.10332294 0.10593287 0.29700002 4282856244
0.10674555 0.1084296 0.30400002 4282461488
0.10773294 0.1084296 0.30400002 4282922037
0.10872033 0.1084296 0.30400002 4282724912
0.10970772 0.1084296 0.30400002 4282921766
0.11069512 0.1084296 0.30400002 4283578413
0.11168251 0.1084296 0.30400002 4282846993
0.11266991 0.1084296 0.30400002 4283634964
0.1136573 0.1084296 0.30400002 4284421650
0.090120159 0.10725778 0.29800001 4286547582
0.090782404 0.10689785 0.29700002 4286613629
0.09174706 0.10689785 0.29700002 4286612085
0.092711717 0.10689785 0.29700002 4285558624
0.093676366 0.10689785 0.29700002 4283778618
0.094641022 0.10689785 0.29700002 4282328346
0.095605679 0.10689785 0.29700002 4282786842
0.096570343 0.10689785 0.29700002 4282852121
0.097534999 0.10689785 0.29700002 4282983707
0.098499656 0.10689785 0.29700002 4284236341
0.099464305 0.10689785 0.29700002 4286014551
0.10042896 0.10689785 0.29700002 4282920481
0.10139362 0.10689785 0.29700002 4283244061
0.10235828 0.10689785 0.29700002 4282192143
0.10332294 0.10689785 0.29700002 4282389524
0.10674555 0.10941733 0.30400002 4282258199
0.10773294 0.10941733 0.30400002 4282062103
0.10872033 0.10941733 0.30400002 4281799443
0.10970772 0.10941733 0.30400002 4281931281
0.11069512 0.10941733 0.30400002 4282127887
0.11168251 0.10941733 0.30400002 4282913553
0.11266991 0.10941733 0.30400002 4283438610
0.1136573 0.10941733 0.30400002 4284356114
0.11102935 0.084706791 0.30128548 4294967295
0.11102935 0.084706791 0.30128548 4294901760
0.11102935 0.084209725 0.30123135 4294901760
0.11102935 0.083712667 0.30117726 4294901760
0.11102935 0.083215602 0.30112314 4294901760
0.11102935 0.082718536 0.30106902 4294901760
0.11102935 0.082221471 0.30101493 4294901760
0.11102935 0.081724413 0.30096081 4294901760
0.11102935 0.081227347 0.30090669 4294901760
0.11102935 0.080730282 0.3008526 4294901760
0.11102935 0.080233224 0.30079848 4294901760
0.11102935 0.079736158 0.30074435 4294901760
0.11102935 0.079239093 0.30069026 4294901760
0.11102935 0.078742027 0.30063614 4294901760
0.11102935 0.078244969 0.30058202 4294901760
0.11102935 0.077747904 0.30052793 4294901760
0.11102935 0.077250838 0.30047381 4294901760
0.11102935 0.07675378 0.30041969 4294901760
0.11102935 0.076256715 0.3003656 4294901760
0.11102935 0.075759649 0.30031148 4294901760
0.11102935 0.075262584 0.30025735 4294901760
0.11102935 0.074765526 0.30020326 4294901760
0.11102935 0.07426846 0.30014914 4294901760
0.11102935 0.073771395 0.30009502 4294901760
0.11102935 0.073274329 0.30004093 4294901760
0.11102935 0.072777271 0.29998681 4294901760
0.11102935 0.072280206 0.29993272 4294901760
0.11102935 0.07178314 0.2998786 4294901760
0.11102935 0.071286082 0.29982448 4294901760
0.11102935 0.070789017 0.29977039 4294901760
0.11102935 0.070291951 0.29971626 4294901760
0.11102935 0.069794893 0.29966214 4294901760
0.11102935 0.069297828 0.29960805 4294901760
0.11102935 0.068800762 0.29955393 4294901760
0.11102935 0.068303697 0.29949981 4294901760
0.11102935 0.067806639 0.29944572 4294901760
0.11102935 0.067309573 0.2993916 4294901760
0.11102935 0.066812508 0.29933748 4294901760
0.11102935 0.066315442 0.29928339 4294901760
0.11102935 0.065818384 0.29922926 4294901760
0.11102935 0.065321319 0.29917514 4294901760
0.11102935 0.064824253 0.29912105 4294901760
0.11102935 0.064327195 0.29906693 4294901760
0.11102935 0.06383013 0.29901281 4294901760
0.11102935 0.063333064 0.29895872 4294901760
0.11102935 0.062836006 0.2989046 4294901760
0.11102935 0.062338941 0.29885048 4294901760
0.11102935 0.061841875 0.29879639 4294901760
0.11102935 0.061344814 0.29874226 4294901760
0.11102935 0.060847752 0.29868814 4294901760
0.11102935 0.060350686 0.29863405 4294901760
0.11102935 0.059853621 0.29857993 4294901760
0.11102935 0.059356559 0.29852581 4294901760
0.11102935 0.058859497 0.29847172 4294901760
0.11102935 0.058362432 0.2984176 4294901760
0.11102935 0.057865366 0.29836348 4294901760
0.11102935 0.057368305 0.29830939 4294901760
0.11102935 0.056871243 0.29825526 4294901760
0.11102935 0.056374177 0.29820114 4294901760
0.11102935 0.055877119 0.29814705 4294901760
0.11102935 0.055380054 0.29809293 4294901760
0.11102935 0.054882988 0.29803881 4294901760
0.11102935 0.054385923 0.29798472 4294901760
0.11102935 0.053888865 0.2979306 4294901760
0.11102935 0.053391799 0.29787648 4294901760
0.11102935 0.052894738 0.29782239 4294901760
0.11102935 0.052397672 0.29776827 4294901760
0.11102935 0.051900607 0.29771414 4294901760
0.11102935 0.051403545 0.29766005 4294901760
0.11102935 0.050906483 0.29760593 4294901760
0.11102935 0.050409418 0.29755181 4294901760
0.11102935 0.049912356 0.29749772 4294901760
0.11102935 0.049415294 0.2974436 4294901760
0.11102935 0.048918229 0.29738948 4294901760
0.11102935 0.048421163 0.29733539 4294901760
0.11102935 0.047924101 0.29728127 4294901760
0.11102935 0.04742704 0.29722714 4294901760
0.11102935 0.046929974 0.29717305 4294901760
0.11102935 0.046432912 0.29711893 4294901760
0.11102935 0.045935851 0.29706484 4294901760
0.11102935 0.045438785 0.29701072 4294901760
0.11102935 0.04494172 0.2969566 4294901760
0.11102935 0.044444658 0.29690251 4294901760
0.11102935 0.043947596 0.29684839 4294901760
0.11102935 0.043450534 0.29679427 4294901760
0.11102935 0.042953469 0.29674017 4294901760
0.11102935 0.042456403 0.29668605 4294901760
0.11102935 0.041959342 0.29663193 4294901760
0.11102935 0.04146228 0.29657784 4294901760
0.11102935 0.040965214 0.29652372 4294901760
0.11102935 0.040468153 0.2964696 4294901760
0.11102935 0.039971091 0.29641551 4294901760
0.11102935 0.039474025 0.29636139 4294901760
0.11102935 0.03897696 0.29630727 4294901760
0.11102935 0.038479898 0.29625317 4294901760
0.11102935 0.037982836 0.29619905 4294901760
0.11102935 0.037485771 0.29614493 4294901760
0.11102935 0.036988709 0.29609084 4294901760
0.11102935 0.036491644 0.29603672 4294901760
0.11102935 0.035994582 0.2959826 4294901760
0.11102935 0.035497516 0.29592851 4294901760
0.11102935 0.035000455 0.29587439 4294901760
0.11102935 0.084706791 0.30128548 4278255360
0.11150309 0.084689483 0.30144444 4278255360
0.11197682 0.084672183 0.30160341 4278255360
0.11245056 0.084654875 0.3017624 4278255360
0.11292431 0.084637567 0.30192137 4278255360
0.11339805 0.08462026 0.30208033 4278255360
0.11387178 0.084602952 0.3022393 4278255360
0.11434552 0.084585652 0.30239829 4278255360
0.11481926 0.084568344 0.30255726 4278255360
0.115293 0.084551036 0.30271623 4278255360
0.11576673 0.084533736 0.30287519 4278255360
0.11624047 0.084516428 0.30303416 4278255360
0.11671422 0.084499121 0.30319315 4278255360
0.11718795 0.084481813 0.30335212 4278255360
0.11766169 0.084464505 0.30351108 4278255360
0.11813543 0.084447205 0.30367005 4278255360
0.11860917 0.084429897 0.30382904 4278255360
0.11908291 0.08441259 0.30398801 4278255360
0.11955664 0.084395289 0.30414698 4278255360
0.12003039 0.084377982 0.30430594 4278255360
0.12050413 0.084360674 0.30446491 4278255360
0.12097786 0.084343366 0.3046239 4278255360
0.1214516 0.084326059 0.30478287 4278255360
0.12192534 0.084308758 0.30494183 4278255360
0.12239908 0.084291451 0.3051008 4278255360
0.12287281 0.084274143 0.30525976 4278255360
0.12334655 0.084256843 0.30541876 4278255360
0.1238203 0.084239535 0.30557773 4278255360
0.12429404 0.084222227 0.30573669 4278255360
0.12476777 0.08420492 0.30589566 4278255360
0.12524152 0.084187612 0.30605465 4278255360
0.12571526 0.084170312 0.30621362 4278255360
0.12618899 0.084153004 0.30637258 4278255360
0.12666273 0.084135696 0.30653155 4278255360
0.12713647 0.084118396 0.30669051 4278255360
0.12761021 0.084101088 0.30684951 4278255360
0.12808394 0.084083781 0.30700848 4278255360
0.12855768 0.084066473 0.30716744 4278255360
0.12903142 0.084049165 0.30732641 4278255360
0.12950516 0.084031865 0.3074854 4278255360
0.1299789 0.084014557 0.30764437 4278255360
0.13045263 0.08399725 0.30780333 4278255360
0.13092637 0.083979949 0.3079623 4278255360
0.13140011 0.083962642 0.30812126 4278255360
0.13187385 0.083945334 0.30828026 4278255360
0.13234758 0.083928026 0.30843922 4278255360
0.13282132 0.083910719 0.30859819 4278255360
0.13329506 0.083893418 0.30875716 4278255360
0.13376881 0.083876111 0.30891615 4278255360
0.13424255 0.083858803 0.30907512 4278255360
0.13471629 0.083841503 0.30923408 4278255360
0.13519002 0.083824195 0.30939305 4278255360
0.13566376 0.083806887 0.30955201 4278255360
0.1361375 0.08378958 0.30971101 4278255360
0.13661124 0.083772272 0.30986997 4278255360
0.13708498 0.083754972 0.31002894 4278255360
0.13755871 0.083737664 0.31018791 4278255360
0.13803245 0.083720356 0.3103469 4278255360
0.13850619 0.083703056 0.31050587 4278255360
0.13897993 0.083685748 0.31066483 4278255360
0.13945368 0.083668441 0.3108238 4278255360
0.13992742 0.083651133 0.31098276 4278255360
0.14040115 0.083633825 0.31114176 4278255360
0.14087489 0.083616525 0.31130072 4278255360
0.14134863 0.083599217 0.31145969 4278255360
0.14182237 0.08358191 0.31161866 4278255360
0.14229611 0.083564609 0.31177765 4278255360
0.14276984 0.083547302 0.31193662 4278255360
0.14324358 0.083529994 0.31209558 4278255360
0.14371732 0.083512686 0.31225455 4278255360
0.14419106 0.083495378 0.31241351 4278255360
0.14466479 0.083478078 0.31257251 4278255360
0.14513853 0.083460771 0.31273147 4278255360
0.14561227 0.083443463 0.31289044 4278255360
0.14608601 0.083426163 0.31304941 4278255360
0.14655975 0.083408855 0.3132084 4278255360
0.14703348 0.083391547 0.31336737 4278255360
0.14750722 0.08337424 0.31352633 4278255360
0.14798096 0.083356932 0.3136853 4278255360
0.14845471 0.083339632 0.31384426 4278255360
0.14892845 0.083322324 0.31400326 4278255360
0.14940219 0.083305016 0.31416222 4278255360
0.14987592 0.083287716 0.31432119 4278255360
0.15034966 0.083270408 0.31448016 4278255360
0.1508234 0.083253101 0.31463912 4278255360
0.15129714 0.083235793 0.31479812 4278255360
0.15177087 0.083218485 0.31495708 4278255360
0.15224461 0.083201185 0.31511605 4278255360
0.15271835 0.083183877 0.31527501 4278255360
0.15319209 0.083166569 0.31543401 4278255360
0.15366583 0.083149269 0.31559297 4278255360
0.15413958 0.083131962 0.31575194 4278255360
0.15461332 0.083114654 0.31591091 4278255360
0.15508705 0.083097346 0.31606987 4278255360
0.15556079 0.083080038 0.31622887 4278255360
0.15603453 0.083062738 0.31638783 4278255360
0.15650827 0.08304543 0.3165468 4278255360
0.156982 0.083028123 0.31670576 4278255360
0.15745574 0.083010823 0.31686476 4278255360
0.15792948 0.082993515 0.31702372 4278255360
0.15840322 0.082976207 0.31718269 4278255360
0.11102935 0.084706791 0.30128548 4278190335
0.11086944 0.084655523 0.30175644 4278190335
0.11070953 0.084604256 0.30222738 4278190335
0.11054961 0.084552981 0.30269834 4278190335
0.1103897 0.084501714 0.30316931 4278190335
0.11022979 0.084450446 0.30364025 4278190335
0.11006988 0.084399179 0.30411121 4278190335
0.10990997 0.084347911 0.30458218 4278190335
0.10975006 0.084296644 0.30505311 4278190335
0.10959015 0.084245369 0.30552408 4278190335
0.10943024 0.084194101 0.30599505 4278190335
0.10927033 0.084142834 0.30646598 4278190335
0.10911041 0.084091567 0.30693695 4278190335
0.1089505 0.084040299 0.30740792 4278190335
0.10879059 0.083989024 0.30787885 4278190335
0.10863068 0.083937757 0.30834982 4278190335
0.10847077 0.083886489 0.30882078 4278190335
0.10831086 0.083835222 0.30929172 4278190335
0.10815094 0.083783954 0.30976269 4278190335
0.10799103 0.083732687 0.31023365 4278190335
0.10783112 0.083681412 0.31070459 4278190335
0.10767121 0.083630145 0.31117555 4278190335
0.1075113 0.083578877 0.31164652 4278190335
0.10735139 0.08352761 0.31211746 4278190335
0.10719148 0.083476342 0.31258842 4278190335
0.10703157 0.083425075 0.31305939 4278190335
0.10687166 0.0833738 0.31353033 4278190335
0.10671175 0.083322532 0.31400129 4278190335
0.10655183 0.083271265 0.31447226 4278190335
0.10639192 0.083219998 0.31494319 4278190335
0.10623201 0.08316873 0.31541416 4278190335
0.1060721 0.083117455 0.31588513 4278190335
