# .PCD v0.7 - Point Cloud Data file format
VERSION 0.7
FIELDS x y z rgb
SIZE 4 4 4 4
TYPE F F F U
COUNT 1 1 1 1
WIDTH 697
HEIGHT 1
VIEWPOINT 0 0 0 1 0 0 0
POINTS 697
DATA ascii
-0.012288562 0.038844675 0.54900002 4280438059
-0.010524544 0.038915429 0.55000001 4280175657
-0.001621495 0.04144248 0.56 4280111145
-0.015652712 0.041871417 0.54200006 4280108326
-0.013892295 0.041871417 0.54200006 4279058970
-0.012131878 0.041871417 0.54200006 4278863386
-0.010390596 0.041948669 0.54300004 4278929179
-0.0087063685 0.042334937 0.54800004 4278732570
-0.003428089 0.043107472 0.55800003 4278469398
-0.013815399 0.043390919 0.53900003 4279190556
-0.012064727 0.043390919 0.53900003 4278993945
-0.010314054 0.043390919 0.53900003 4278862873
-0.0052029081 0.044598456 0.55400002 4278731800
-0.0034219457 0.044839967 0.55700004 4278665494
-0.0016185995 0.04500097 0.55900002 4278862873
-0.015537194 0.045058437 0.53800005 4279978024
-0.013764136 0.044974681 0.537 4278993695
-0.011975193 0.044807177 0.53500003 4278993947
-0.010218376 0.044723429 0.53400004 4278994459
-0.0049117706 0.043802157 0.523 4278797080
-0.015508313 0.046719447 0.537 4279846438
-0.013712874 0.046545446 0.53500003 4279190304
-0.011930427 0.046371449 0.53300005 4278928670
-0.01016097 0.046197444 0.53100002 4278862877
-0.0083568422 0.045762438 0.52600002 4278731289
-0.006610475 0.045501437 0.523 4278797082
-0.0048929877 0.045327436 0.52100003 4278797082
-0.0031823479 0.045066431 0.51800001 4278796568
-0.0014940919 0.04489243 0.51600003 4278200584
0.00018152452 0.044805434 0.51500005 4279190045
0.0018542454 0.044805434 0.51500005 4278795798
0.0035201176 0.044718426 0.514 4279058970
0.0051794942 0.044631429 0.51300001 4278730005
-0.015450555 0.048283722 0.53500003 4279780645
-0.013661611 0.048103224 0.53300005 4278927902
-0.011863275 0.04783247 0.53000003 4278928416
-0.010103562 0.047651969 0.528 4278731037
-0.0083250673 0.047290973 0.52400005 4278862877
-0.006597836 0.047110472 0.52200001 4278928670
-0.0048742048 0.046839725 0.51900005 4278862875
-0.0031762044 0.04665922 0.51700002 4278664982
-0.0014940919 0.046568971 0.51600003 4278198789
0.00018152452 0.046478722 0.51500005 4279189021
0.0018506448 0.04638847 0.514 4278198276
0.0035132691 0.046298221 0.51300001 4278328583
0.0051794942 0.046298221 0.51300001 4278196228
0.0068190307 0.046117723 0.51100004 4278195970
0.0084621664 0.046027474 0.51000005 4278197250
0.010098807 0.045937221 0.509 4278397197
0.011728952 0.045846973 0.50800002 4278924820
0.0133526 0.045756724 0.50700003 4279057176
0.014969753 0.045666475 0.50600004 4279058459
0.016580408 0.045576219 0.505 4278795800
0.018184567 0.04548597 0.50400001 4278599189
0.01982156 0.04548597 0.50400001 4278533396
0.021415979 0.045395721 0.50300002 4278665496
0.024438106 0.044944473 0.49800003 4278468632
0.02605561 0.044944473 0.49800003 4278666011
0.027617546 0.04485422 0.49700001 4278402839
0.030597804 0.044493224 0.49300003 4278666011
0.032133754 0.044402972 0.49200001 4278797343
0.033731773 0.044402972 0.49200001 4279191588
0.03525798 0.044312723 0.49100003 4279256867
0.036852747 0.044312723 0.49100003 4280046385
0.038447518 0.044312723 0.49100003 4282414679
0.039960731 0.04422247 0.49000001 4285637507
-0.015421676 0.049928494 0.53400004 4279189021
-0.013610347 0.049647994 0.53100002 4278927902
-0.011818508 0.049367495 0.528 4278862623
-0.010065292 0.049180496 0.52600002 4278796830
-0.0083091799 0.048900001 0.523 4278797084
-0.0065725571 0.048619505 0.52000004 4278797084
-0.0048648128 0.048432503 0.51800001 4278665496
-0.0031762044 0.048339006 0.51700002 4278928152
-0.0014940919 0.048245508 0.51600003 4278198532
0.00018152452 0.048152011 0.51500005 4279188510
0.0018506448 0.048058506 0.514 4278195973
0.0035132691 0.047965009 0.51300001 4278656269
0.0051693977 0.047871511 0.51200002 4278785804
0.0068190307 0.047778014 0.51100004 4278851597
0.0084621664 0.047684517 0.51000005 4278785804
0.010098807 0.047591012 0.509 4278720525
0.011728952 0.047497515 0.50800002 4278524170
0.0133526 0.047404017 0.50700003 4278458890
0.014969753 0.04731052 0.50600004 4278196994
0.016580408 0.047217015 0.505 4278595341
0.018184567 0.047123518 0.50400001 4278197504
0.019782232 0.047030021 0.50300002 4278196736
0.021415979 0.047030021 0.50300002 4278200583
0.022958076 0.046843026 0.50100005 4279057174
0.024487179 0.046656024 0.49900001 4279584031
0.02605561 0.046562526 0.49800003 4278992664
0.027617546 0.046469025 0.49700001 4278599189
0.029172987 0.046375528 0.49600002 4278467603
0.030659867 0.04618853 0.49400002 4278468117
0.032199066 0.046095032 0.49300003 4278731289
0.033731773 0.046001531 0.49200001 4278665496
0.035329789 0.046001531 0.49200001 4278468630
0.036852747 0.045908034 0.49100003 4278666009
0.038447518 0.045908034 0.49100003 4278797597
0.040042285 0.045908034 0.49100003 4279060515
0.041637056 0.045908034 0.49100003 4278271001
0.043231826 0.045908034 0.49100003 4279717682
0.050015066 0.046282031 0.49500003 4279977772
-0.015392796 0.051566765 0.53300005 4279123998
-0.013584715 0.05127652 0.53000003 4279059488
-0.011796124 0.050986271 0.52700001 4278862623
-0.010027021 0.05069603 0.52400005 4278862623
-0.0082932925 0.050502531 0.52200001 4278796830
-0.0065599177 0.05021229 0.51900005 4278862877
-0.0048648128 0.050115541 0.51800001 4278731291
-0.0031700609 0.049922045 0.51600003 4278862361
-0.0014911965 0.0498253 0.51500005 4278198530
0.00018117203 0.049728546 0.514 4279451680
0.0018506448 0.049728546 0.514 4278196486
0.0035132691 0.049631801 0.51300001 4279577371
0.0051693977 0.049535051 0.51200002 4278787855
0.0068190307 0.049438305 0.51100004 4280037922
0.0084621664 0.049341559 0.51000005 4279248406
0.010098807 0.049244806 0.509 4280366887
0.011728952 0.049148057 0.50800002 4279445272
0.0133526 0.049051311 0.50700003 4279116307
0.014969753 0.048954565 0.50600004 4278194688
0.016580408 0.048857812 0.505 4279713055
0.018184567 0.048761066 0.50400001 4279187992
0.01982156 0.048761066 0.50400001 4279056152
0.021415979 0.048664317 0.50300002 4279319324
0.022958076 0.048470825 0.50100005 4279582496
0.02453625 0.048374072 0.5 4278595601
0.02610793 0.048277326 0.49900001 4278529294
0.027673116 0.048180576 0.49800003 4278198787
0.029172987 0.047987081 0.49600002 4278196992
0.030721933 0.047890335 0.49500003 4278198018
0.032264378 0.047793586 0.49400002 4278267408
0.033800334 0.047696836 0.49300003 4278925849
0.035401598 0.047696836 0.49300003 4279189791
0.036927804 0.047600087 0.49200001 4278664214
0.038525824 0.047600087 0.49200001 4278928156
0.040123839 0.047600087 0.49200001 4278468119
0.041721858 0.047600087 0.49200001 4278402326
0.043319874 0.047600087 0.49200001 4278731037
0.045009185 0.047696836 0.49300003 4278797345
0.046610452 0.047696836 0.49300003 4278599712
0.048309509 0.047793586 0.49400002 4278468126
0.050015066 0.047890335 0.49500003 4279980592
0.051622823 0.047890335 0.49500003 4280375862
0.053338118 0.047987081 0.49600002 4279717418
0.054949131 0.047987081 0.49600002 4278992414
-0.015392796 0.053298537 0.53300005 4279452963
-0.013584715 0.052998543 0.53000003 4278796830
-0.011796124 0.052698549 0.52700001 4278731550
-0.010007884 0.052298561 0.523 4278665757
-0.0082774051 0.052098569 0.52100003 4278731804
-0.0065599177 0.051898576 0.51900005 4278731804
-0.0048554214 0.051698577 0.51700002 4278600218
-0.0031700609 0.051598582 0.51600003 4278202121
-0.0014911965 0.051498584 0.51500005 4278529294
0.00018117203 0.051398583 0.514 4278859797
0.0018470443 0.051298589 0.51300001 4278591755
0.0035064209 0.051198591 0.51200002 4278525451
0.0051693977 0.051198591 0.51200002 4279709727
0.0068190307 0.051098596 0.51100004 4279907104
0.0084621664 0.050998598 0.51000005 4278590476
0.010098807 0.050898597 0.509 4278458890
0.011728952 0.050798602 0.50800002 4278788623
0.0133526 0.050698604 0.50700003 4278854416
0.014969753 0.05059861 0.50600004 4278195203
0.016580408 0.050498608 0.505 4279187226
0.018220648 0.050498608 0.505 4278200074
0.01982156 0.050398611 0.50400001 4278330634
0.021415979 0.050298616 0.50300002 4278266122
0.022958076 0.050098624 0.50100005 4278333199
0.02453625 0.049998622 0.5 4278200581
0.02610793 0.049898628 0.49900001 4278991642
0.027673116 0.04979863 0.49800003 4279123998
0.029231803 0.049698632 0.49700001 4279189791
0.030783996 0.049598634 0.49600002 4279320861
0.032329693 0.04949864 0.49500003 4279254555
0.033868894 0.049398642 0.49400002 4279451680
0.035473406 0.049398642 0.49400002 4278991129
0.037002861 0.049298644 0.49300003 4278331915
0.038604129 0.049298644 0.49300003 4278197248
0.040205393 0.049298644 0.49300003 4278198275
0.041806657 0.049298644 0.49300003 4278196992
0.043407921 0.049298644 0.49300003 4278464785
0.04510048 0.049398642 0.49400002 4279058459
0.046704996 0.049398642 0.49400002 4278797084
0.048407301 0.04949864 0.49500003 4278797084
0.050015066 0.04949864 0.49500003 4278533912
0.051727112 0.049598634 0.49600002 4278533912
0.053338118 0.049598634 0.49600002 4278928670
0.054949131 0.049598634 0.49600002 4278994209
0.056560136 0.049598634 0.49600002 4279186461
-0.015421676 0.055133551 0.53400004 4279321631
-0.013584715 0.054720566 0.53000003 4278862877
-0.011796124 0.054410826 0.52700001 4278666011
-0.010007884 0.053997841 0.523 4278731804
-0.0082774051 0.053791348 0.52100003 4278731804
-0.0065472778 0.053481609 0.51800001 4278666011
-0.0048554214 0.053378362 0.51700002 4278468632
-0.0031700609 0.05327512 0.51600003 4279190558
-0.0014911965 0.053171873 0.51500005 4279319324
0.00018117203 0.053068623 0.514 4279188762
0.0018470443 0.052965377 0.51300001 4278328074
0.0035064209 0.05286213 0.51200002 4278589963
0.0051593012 0.052758887 0.51100004 4278589709
0.0068056863 0.052655641 0.51000005 4278523916
0.0084621664 0.052655641 0.51000005 4278523916
0.010098807 0.052552391 0.509 4278523918
0.011728952 0.052449144 0.50800002 4278525451
0.0133526 0.052345902 0.50700003 4279118101
0.014969753 0.052242655 0.50600004 4278196228
0.016580408 0.052139405 0.505 4279516191
0.018220648 0.052139405 0.505 4278394378
0.01982156 0.052036159 0.50400001 4278721547
0.021415979 0.051932916 0.50300002 4278657550
0.0230039 0.05182967 0.50200003 4278989847
0.024585325 0.051726423 0.50100005 4279517475
0.026160249 0.051623173 0.5 4278267408
0.027728682 0.051519927 0.49900001 4278925338
0.02929062 0.051416684 0.49800003 4278200587
0.030846059 0.051313434 0.49700001 4278728724
0.032395005 0.051210191 0.49600002 4278729494
0.033937454 0.051106945 0.49500003 4278532115
0.035473406 0.051003698 0.49400002 4279124252
0.037077915 0.051003698 0.49400002 4279453217
0.038682431 0.051003698 0.49400002 4278992664
0.040286943 0.051003698 0.49400002 4279190043
0.041891459 0.051003698 0.49400002 4279584031
0.043495968 0.051003698 0.49400002 4280108840
0.04510048 0.051003698 0.49400002 4278660882
0.046799541 0.051106945 0.49500003 4278927386
0.048407301 0.051106945 0.49500003 4278928156
0.050116103 0.051210191 0.49600002 4278731291
0.051727112 0.051210191 0.49600002 4278731291
0.053338118 0.051210191 0.49600002 4278665498
0.054949131 0.051210191 0.49600002 4278796570
0.056560136 0.051210191 0.49600002 4278201104
-0.015450555 0.056975067 0.53500003 4279190045
-0.013635978 0.056655578 0.53200001 4278731291
-0.011840892 0.056336097 0.52900004 4278533912
-0.010027021 0.055803619 0.52400005 4278468119
-0.0082774051 0.055484131 0.52100003 4278665496
-0.0065472778 0.055164643 0.51800001 4278731289
-0.0048554214 0.055058148 0.51700002 4278665496
-0.0031639175 0.054845162 0.51500005 4278200840
-0.0014883007 0.054738659 0.514 4278200073
0.00018117203 0.054738659 0.514 4279189021
0.0018470443 0.054632165 0.51300001 4279385887
0.0035064209 0.054525673 0.51200002 4279778848
0.0051593012 0.054419179 0.51100004 4278922006
0.0068056863 0.054312684 0.51000005 4278394380
0.008445573 0.054206181 0.509 4278392330
0.010098807 0.054206181 0.509 4278655502
0.011728952 0.05409969 0.50800002 4278721295
0.0133526 0.053993195 0.50700003 4278589709
0.014969753 0.0538867 0.50600004 4278195714
0.016580408 0.053780202 0.505 4279056154
0.018220648 0.053780202 0.505 4278789652
0.01982156 0.053673707 0.50400001 4278523916
0.021415979 0.053567212 0.50300002 4279250969
0.0230039 0.053460717 0.50200003 4278331917
0.024585325 0.053354222 0.50100005 4278199817
0.026160249 0.053247724 0.5 4279056154
0.027728682 0.053141229 0.49900001 4279121947
0.02929062 0.053034734 0.49800003 4278199049
0.030846059 0.052928239 0.49700001 4278200331
0.032460317 0.052928239 0.49700001 4278198790
0.034006014 0.052821744 0.49600002 4278200074
0.035545215 0.052715249 0.49500003 4278199817
0.037152976 0.052715249 0.49500003 4278200842
0.038682431 0.052608754 0.49400002 4279188762
0.040286943 0.052608754 0.49400002 4278199040
0.041976258 0.052715249 0.49500003 4279189275
0.043584019 0.052715249 0.49500003 4279582496
0.04519178 0.052715249 0.49500003 4278858259
0.046894085 0.052821744 0.49600002 4279124252
0.048505094 0.052821744 0.49600002 4279058972
0.050116103 0.052821744 0.49600002 4278862363
0.051727112 0.052821744 0.49600002 4278796570
0.053338118 0.052821744 0.49600002 4278599191
0.054949131 0.052821744 0.49600002 4278533398
0.056560136 0.052821744 0.49600002 4278530580
-0.013712874 0.058713336 0.53500003 4279187992
-0.011885659 0.058274359 0.53100002 4278993179
-0.010046156 0.057615891 0.52500004 4278730007
-0.0082932925 0.057286657 0.52200001 4278730005
-0.0065472778 0.056847677 0.51800001 4278532626
-0.0048554214 0.056737933 0.51700002 4278533396
-0.0031639175 0.056518447 0.51500005 4278599189
-0.0014883007 0.0564087 0.514 4278927386
0.00018117203 0.0564087 0.514 4278993179
0.0018470443 0.056298956 0.51300001 4278993179
0.0035064209 0.056189213 0.51200002 4278927386
0.0051593012 0.05607947 0.51100004 4279058459
0.0068056863 0.055969726 0.51000005 4279189021
0.008445573 0.055859976 0.509 4278925851
0.010078967 0.055750232 0.50800002 4279254562
0.011728952 0.055750232 0.50800002 4279319842
0.0133526 0.055640489 0.50700003 4279187486
0.014969753 0.055530746 0.50600004 4279186972
0.016580408 0.055420995 0.505 4278199563
0.018184567 0.055311255 0.50400001 4278196481
0.01982156 0.055311255 0.50400001 4278197512
0.021415979 0.055201512 0.50300002 4278658832
0.0230039 0.055091769 0.50200003 4278857748
0.024585325 0.054982025 0.50100005 4279385119
0.026160249 0.054872274 0.5 4279450912
0.027784251 0.054872274 0.5 4279319326
0.029349437 0.054762531 0.49900001 4279516703
0.030908126 0.054652788 0.49800003 4279451680
0.032460317 0.054543041 0.49700001 4279450910
0.034006014 0.054433297 0.49600002 4279121433
0.035617024 0.054433297 0.49600002 4278200331
0.037152976 0.054323554 0.49500003 4278266122
0.038760737 0.054323554 0.49500003 4278529294
0.040368497 0.054323554 0.49500003 4278726673
0.041976258 0.054323554 0.49500003 4279649059
0.043672066 0.054433297 0.49600002 4279320094
0.045283075 0.054433297 0.49600002 4279056152
0.046894085 0.054433297 0.49600002 4279058459
0.048602883 0.054543041 0.49700001 4279124765
0.050217144 0.054543041 0.49700001 4278928156
0.051831398 0.054543041 0.49700001 4278862361
0.053445652 0.054543041 0.49700001 4278599189
0.054949131 0.054433297 0.49600002 4278269454
0.056560136 0.054433297 0.49600002 4278990361
-0.0065472778 0.058530711 0.51800001 4279253269
-0.0048554214 0.058417719 0.51700002 4278991894
-0.0031639175 0.058191735 0.51500005 4279058457
-0.0014883007 0.058078736 0.514 4279058972
0.00018117203 0.058078736 0.514 4278993179
0.0018470443 0.057965744 0.51300001 4278862363
0.0035064209 0.057852753 0.51200002 4278927902
0.0051593012 0.057739761 0.51100004 4278993695
0.0068056863 0.057626769 0.51000005 4278993695
0.008445573 0.05751377 0.509 4278862109
0.010078967 0.057400778 0.50800002 4278796316
0.011705863 0.057287782 0.50700003 4278862109
0.013326264 0.057174791 0.50600004 4278664730
0.014940167 0.057061791 0.505 4278927132
0.016580408 0.057061791 0.505 4279058718
0.018184567 0.0569488 0.50400001 4279320607
0.019782232 0.056835808 0.50300002 4279189021
0.021373402 0.056722816 0.50200003 4279649059
0.0230039 0.056722816 0.50200003 4279320094
0.024585325 0.056609824 0.50100005 4278924568
0.026160249 0.056496825 0.5 4278858261
0.027784251 0.056496825 0.5 4278196480
0.029349437 0.056383833 0.49900001 4278197762
0.030908126 0.056270842 0.49800003 4278199047
0.032460317 0.056157846 0.49700001 4278791955
0.034074575 0.056157846 0.49700001 4279318812
0.035617024 0.056044854 0.49600002 4279450910
0.037228029 0.056044854 0.49600002 4279779875
0.038839042 0.056044854 0.49600002 4279320094
0.040450048 0.056044854 0.49600002 4279320094
0.042061061 0.056044854 0.49600002 4279451934
0.043672066 0.056044854 0.49600002 4279517727
0.045374371 0.056157846 0.49700001 4278727441
0.046988629 0.056157846 0.49700001 4279058972
0.048602883 0.056157846 0.49700001 4278928156
0.050217144 0.056157846 0.49700001 4278993947
0.051831398 0.056157846 0.49700001 4278796568
0.053445652 0.056157846 0.49700001 4278796568
0.054949131 0.056044854 0.49600002 4278795798
0.056560136 0.056044854 0.49600002 4279319326
-0.0065472778 0.060213745 0.51800001 4279311885
-0.0048460299 0.059981264 0.51600003 4278853385
-0.0031639175 0.059865024 0.51500005 4279051277
-0.0014883007 0.059748773 0.514 4279250453
0.00018081957 0.059632532 0.51300001 4280304170
0.0018470443 0.059632532 0.51300001 4278990109
0.0035064209 0.059516292 0.51200002 4279187488
0.0051593012 0.059400052 0.51100004 4279321127
0.0068056863 0.059283808 0.51000005 4279255847
0.008445573 0.05916756 0.509 4279124259
0.010078967 0.05905132 0.50800002 4279255845
0.011705863 0.05893508 0.50700003 4279124259
0.013326264 0.058818836 0.50600004 4279124513
0.014940167 0.058702588 0.505 4279124511
0.016547576 0.058586348 0.50400001 4279058718
0.018148487 0.058470108 0.50300002 4278992925
0.019782232 0.058470108 0.50300002 4278993179
0.021373402 0.058353864 0.50200003 4278795800
0.022958076 0.058237623 0.50100005 4278795800
0.024585325 0.058237623 0.50100005 4278795800
0.026160249 0.058121376 0.5 4278992666
0.027784251 0.058121376 0.5 4278991896
0.029349437 0.058005136 0.49900001 4279255068
0.030908126 0.057888892 0.49800003 4278991896
0.032525629 0.057888892 0.49800003 4279386654
0.034074575 0.057772648 0.49700001 4279779875
0.035617024 0.057656407 0.49600002 4279121947
0.037228029 0.057656407 0.49600002 4278200331
0.038839042 0.057656407 0.49600002 4278198275
0.040450048 0.057656407 0.49600002 4278196736
0.042061061 0.057656407 0.49600002 4278198276
0.043760113 0.057772648 0.49700001 4278528011
0.045374371 0.057772648 0.49700001 4279976994
0.046988629 0.057772648 0.49700001 4278927386
0.048700679 0.057888892 0.49800003 4279058970
0.050318185 0.057888892 0.49800003 4278796568
0.051831398 0.057772648 0.49700001 4278664982
0.053445652 0.057772648 0.49700001 4278599189
0.055059914 0.057772648 0.49700001 4278664214
0.056560136 0.057656407 0.49600002 4278200077
0.0067923414 0.060821354 0.509 4285501308
0.008445573 0.060821354 0.509 4283593824
0.010059127 0.060582373 0.50700003 4280699961
0.011682775 0.060462881 0.50600004 4279121443
0.013326264 0.060462881 0.50600004 4279845420
0.014910583 0.060223896 0.50400001 4279253799
0.016547576 0.060223896 0.50400001 4279451943
0.018148487 0.060104404 0.50300002 4279058207
0.019742904 0.059984915 0.50200003 4279255584
0.021373402 0.059984915 0.50200003 4279124252
0.022958076 0.059865423 0.50100005 4279124252
0.024585325 0.059865423 0.50100005 4278927386
0.026160249 0.059745926 0.5 4278927386
0.027728682 0.059626438 0.49900001 4278927386
0.029349437 0.059626438 0.49900001 4278993179
0.030908126 0.059506945 0.49800003 4278862363
0.032525629 0.059506945 0.49800003 4278796570
0.034074575 0.059387453 0.49700001 4279058972
0.035688829 0.059387453 0.49700001 4279124252
0.037228029 0.05926796 0.49600002 4279190045
0.038839042 0.05926796 0.49600002 4279058205
0.040531598 0.059387453 0.49700001 4279123998
0.042145859 0.059387453 0.49700001 4278991642
0.043760113 0.059387453 0.49700001 4279385887
0.045465667 0.059506945 0.49800003 4279254301
0.047083173 0.059506945 0.49800003 4279124252
0.048700679 0.059506945 0.49800003 4279124763
0.050318185 0.059506945 0.49800003 4278862361
0.051935688 0.059506945 0.49800003 4278862361
0.053445652 0.059387453 0.49700001 4278862361
0.055059914 0.059387453 0.49700001 4278663701
0.056674168 0.059387453 0.49700001 4279975207
0.010059127 0.062229667 0.50700003 4285434231
0.011682775 0.06210693 0.50600004 4285237366
0.013299926 0.061984181 0.505 4285039987
0.014910583 0.061861441 0.50400001 4285434745
0.016514745 0.061738703 0.50300002 4285303157
0.018148487 0.061738703 0.50300002 4283462236
0.019742904 0.061615963 0.50200003 4281356860
0.021330826 0.061493225 0.50100005 4280042022
0.022958076 0.061493225 0.50100005 4279384092
0.02453625 0.061370477 0.5 4279187486
0.026160249 0.061370477 0.5 4278925084
0.027728682 0.061247736 0.49900001 4279254562
0.029349437 0.061247736 0.49900001 4279320355
0.030908126 0.061124999 0.49800003 4279452195
0.032525629 0.061124999 0.49800003 4279386400
0.034074575 0.061002254 0.49700001 4279452193
0.035688829 0.061002254 0.49700001 4279452193
0.037303086 0.061002254 0.49700001 4279255586
0.038917344 0.061002254 0.49700001 4278927132
0.040531598 0.061002254 0.49700001 4279190304
0.042145859 0.061002254 0.49700001 4279190304
0.043848164 0.061124999 0.49800003 4278927132
0.045465667 0.061124999 0.49800003 4278795548
0.047083173 0.061124999 0.49800003 4279124513
0.048700679 0.061124999 0.49800003 4278927134
0.050318185 0.061124999 0.49800003 4278927132
0.051935688 0.061124999 0.49800003 4279058972
0.053445652 0.061002254 0.49700001 4278795287
0.055059914 0.061002254 0.49700001 4278860056
0.056674168 0.061002254 0.49700001 4283855713
0.014880999 0.063373007 0.50300002 4285105266
0.016514745 0.063373007 0.50300002 4284973678
0.018112408 0.063247018 0.50200003 4284644713
0.019742904 0.063247018 0.50200003 4284644713
0.021330826 0.063121028 0.50100005 4284710506
0.022958076 0.063121028 0.50100005 4284316262
0.02453625 0.062995031 0.5 4284513639
0.026160249 0.062995031 0.5 4284711018
0.027728682 0.062869042 0.49900001 4284711018
0.029349437 0.062869042 0.49900001 4284974962
0.030908126 0.062743053 0.49800003 4284317545
0.032525629 0.062743053 0.49800003 4283856994
0.034074575 0.062617064 0.49700001 4282606927
0.035688829 0.062617064 0.49700001 4281488444
0.037303086 0.062617064 0.49700001 4280567342
0.038917344 0.062617064 0.49700001 4279647010
0.040531598 0.062617064 0.49700001 4279252765
0.042145859 0.062617064 0.49700001 4279121695
0.043848164 0.062743053 0.49800003 4278990627
0.045465667 0.062743053 0.49800003 4279319592
0.047083173 0.062743053 0.49800003 4279451430
0.048700679 0.062743053 0.49800003 4279451428
0.050318185 0.062743053 0.49800003 4279451428
0.051935688 0.062743053 0.49800003 4279385635
0.053553194 0.062743053 0.49800003 4278792216
0.020907219 0.053301089 0.50618207 4294967295
0.020907219 0.053301089 0.50618207 4294901760
0.020907219 0.053301089 0.5066821 4294901760
0.020907219 0.053301089 0.50718206 4294901760
0.020907219 0.053301089 0.50768209 4294901760
0.020907219 0.053301089 0.50818205 4294901760
0.020907219 0.053301089 0.50868207 4294901760
0.020907219 0.053301089 0.5091821 4294901760
0.020907219 0.053301089 0.50968206 4294901760
0.020907219 0.053301089 0.51018208 4294901760
0.020907219 0.053301089 0.51068205 4294901760
0.020907219 0.053301089 0.51118207 4294901760
0.020907219 0.053301089 0.51168209 4294901760
0.020907219 0.053301089 0.51218206 4294901760
0.020907219 0.053301089 0.51268208 4294901760
0.020907219 0.053301089 0.5131821 4294901760
0.020907219 0.053301089 0.51368207 4294901760
0.020907219 0.053301089 0.51418209 4294901760
0.020907219 0.053301089 0.51468205 4294901760
0.020907219 0.053301089 0.51518208 4294901760
0.020907219 0.053301089 0.5156821 4294901760
0.020907219 0.053301089 0.51618207 4294901760
0.020907219 0.053301089 0.51668209 4294901760
0.020907219 0.053301089 0.51718205 4294901760
0.020907219 0.053301089 0.51768208 4294901760
0.020907219 0.053301089 0.5181821 4294901760
0.020907219 0.053301089 0.51868206 4294901760
0.020907219 0.053301089 0.51918209 4294901760
0.020907219 0.053301089 0.51968205 4294901760
0.020907219 0.053301089 0.52018207 4294901760
0.020907219 0.053301089 0.5206821 4294901760
0.020907219 0.053301089 0.52118206 4294901760
0.020907219 0.053301089 0.52168208 4294901760
0.020907219 0.053301089 0.52218211 4294901760
0.020907219 0.053301089 0.52268207 4294901760
0.020907219 0.053301089 0.52318209 4294901760
0.020907219 0.053301089 0.52368206 4294901760
0.020907219 0.053301089 0.52418208 4294901760
0.020907219 0.053301089 0.5246821 4294901760
0.020907219 0.053301089 0.52518207 4294901760
0.020907219 0.053301089 0.52568209 4294901760
0.020907219 0.053301089 0.52618206 4294901760
0.020907219 0.053301089 0.52668208 4294901760
0.020907219 0.053301089 0.5271821 4294901760
0.020907219 0.053301089 0.52768207 4294901760
0.020907219 0.053301089 0.52818209 4294901760
0.020907219 0.053301089 0.52868205 4294901760
0.020907219 0.053301089 0.52918208 4294901760
0.020907219 0.053301089 0.5296821 4294901760
0.020907219 0.053301089 0.53018206 4294901760
0.020907219 0.053301089 0.53068209 4294901760
0.020907219 0.053301089 0.53118205 4294901760
0.020907219 0.053301089 0.53168207 4294901760
0.020907219 0.053301089 0.5321821 4294901760
0.020907219 0.053301089 0.53268206 4294901760
0.020907219 0.053301089 0.53318208 4294901760
0.020907219 0.053301089 0.53368211 4294901760
0.020907219 0.053301089 0.53418207 4294901760
0.020907219 0.053301089 0.5346821 4294901760
0.020907219 0.053301089 0.53518206 4294901760
0.020907219 0.053301089 0.53568208 4294901760
0.020907219 0.053301089 0.53618211 4294901760
0.020907219 0.053301089 0.53668207 4294901760
0.020907219 0.053301089 0.53718209 4294901760
0.020907219 0.053301089 0.53768206 4294901760
0.020907219 0.053301089 0.53818208 4294901760
0.020907219 0.053301089 0.5386821 4294901760
0.020907219 0.053301089 0.53918207 4294901760
0.020907219 0.053301089 0.53968209 4294901760
0.020907219 0.053301089 0.54018211 4294901760
0.020907219 0.053301089 0.54068208 4294901760
0.020907219 0.053301089 0.5411821 4294901760
0.020907219 0.053301089 0.54168206 4294901760
0.020907219 0.053301089 0.54218209 4294901760
0.020907219 0.053301089 0.54268211 4294901760
0.020907219 0.053301089 0.54318208 4294901760
0.020907219 0.053301089 0.5436821 4294901760
0.020907219 0.053301089 0.54418206 4294901760
0.020907219 0.053301089 0.54468209 4294901760
0.020907219 0.053301089 0.54518211 4294901760
0.020907219 0.053301089 0.54568207 4294901760
0.020907219 0.053301089 0.5461821 4294901760
0.020907219 0.053301089 0.54668206 4294901760
0.020907219 0.053301089 0.54718208 4294901760
0.020907219 0.053301089 0.54768211 4294901760
0.020907219 0.053301089 0.54818207 4294901760
0.020907219 0.053301089 0.54868209 4294901760
0.020907219 0.053301089 0.54918206 4294901760
0.020907219 0.053301089 0.54968208 4294901760
0.020907219 0.053301089 0.5501821 4294901760
0.020907219 0.053301089 0.55068207 4294901760
0.020907219 0.053301089 0.55118209 4294901760
0.020907219 0.053301089 0.55168211 4294901760
0.020907219 0.053301089 0.55218208 4294901760
0.020907219 0.053301089 0.5526821 4294901760
0.020907219 0.053301089 0.55318207 4294901760
0.020907219 0.053301089 0.55368209 4294901760
0.020907219 0.053301089 0.55418211 4294901760
0.020907219 0.053301089 0.55468208 4294901760
0.020907219 0.053301089 0.5551821 4294901760
0.020907219 0.053301089 0.55568206 4294901760
0.020907219 0.053301089 0.55618209 4294901760
0.020907219 0.053301089 0.50618207 4278255360
0.02114303 0.053346552 0.50662065 4278255360
0.021378839 0.053392015 0.50705916 4278255360
0.02161465 0.053437475 0.50749773 4278255360
0.021850459 0.053482939 0.5079363 4278255360
0.02208627 0.053528402 0.50837481 4278255360
0.022322079 0.053573865 0.50881338 4278255360
0.02255789 0.053619325 0.50925195 4278255360
0.022793699 0.053664789 0.50969046 4278255360
0.02302951 0.053710252 0.51012903 4278255360
0.023265319 0.053755715 0.51056761 4278255360
0.02350113 0.053801175 0.51100612 4278255360
0.023736939 0.053846639 0.51144469 4278255360
0.02397275 0.053892102 0.51188326 4278255360
0.024208561 0.053937566 0.51232177 4278255360
0.02444437 0.053983025 0.51276034 4278255360
0.02468018 0.054028489 0.51319891 4278255360
0.024915989 0.054073952 0.51363742 4278255360
0.0251518 0.054119416 0.51407599 4278255360
0.025387609 0.054164875 0.51451457 4278255360
0.02562342 0.054210339 0.51495308 4278255360
0.025859229 0.054255802 0.51539165 4278255360
0.02609504 0.054301266 0.51583022 4278255360
0.026330851 0.054346725 0.51626873 4278255360
0.02656666 0.054392189 0.5167073 4278255360
0.026802469 0.054437652 0.51714587 4278255360
0.02703828 0.054483116 0.51758438 4278255360
0.027274091 0.054528579 0.51802295 4278255360
0.0275099 0.054574039 0.51846147 4278255360
0.027745709 0.054619502 0.51890004 4278255360
0.02798152 0.054664966 0.51933861 4278255360
0.028217331 0.054710429 0.51977712 4278255360
0.02845314 0.054755889 0.52021569 4278255360
0.02868895 0.054801352 0.52065426 4278255360
0.028924759 0.054846816 0.52109277 4278255360
0.02916057 0.054892279 0.52153134 4278255360
0.029396381 0.054937739 0.52196991 4278255360
0.02963219 0.054983202 0.52240843 4278255360
0.029867999 0.055028666 0.522847 4278255360
0.03010381 0.055074129 0.52328557 4278255360
0.030339621 0.055119589 0.52372408 4278255360
0.03057543 0.055165052 0.52416265 4278255360
0.030811239 0.055210516 0.52460122 4278255360
0.03104705 0.055255979 0.52503973 4278255360
0.031282861 0.055301439 0.5254783 4278255360
0.031518668 0.055346902 0.52591687 4278255360
0.031754479 0.055392366 0.52635539 4278255360
0.03199029 0.055437829 0.52679396 4278255360
0.032226101 0.055483289 0.52723253 4278255360
0.032461911 0.055528753 0.52767104 4278255360
0.032697722 0.055574216 0.52810961 4278255360
0.032933529 0.055619679 0.52854818 4278255360
0.03316934 0.055665143 0.52898669 4278255360
0.033405151 0.055710603 0.52942526 4278255360
0.033640962 0.055756066 0.52986383 4278255360
0.033876769 0.055801529 0.53030235 4278255360
0.03411258 0.055846993 0.53074092 4278255360
0.034348391 0.055892453 0.53117949 4278255360
0.034584202 0.055937916 0.531618 4278255360
0.034820009 0.055983379 0.53205657 4278255360
0.03505582 0.056028843 0.53249514 4278255360
0.035291631 0.056074303 0.53293365 4278255360
0.035527442 0.056119766 0.53337222 4278255360
0.035763249 0.05616523 0.53381079 4278255360
0.03599906 0.056210693 0.53424931 4278255360
0.036234871 0.056256153 0.53468788 4278255360
0.036470681 0.056301616 0.53512645 4278255360
0.036706492 0.05634708 0.53556496 4278255360
0.036942303 0.056392543 0.53600353 4278255360
0.03717811 0.056438003 0.5364421 4278255360
0.037413921 0.056483466 0.53688061 4278255360
0.037649728 0.05652893 0.53731918 4278255360
0.037885539 0.056574393 0.53775775 4278255360
0.03812135 0.056619853 0.53819627 4278255360
0.038357161 0.056665316 0.53863484 4278255360
0.038592972 0.05671078 0.53907335 4278255360
0.038828783 0.056756243 0.53951192 4278255360
0.03906459 0.056801707 0.53995049 4278255360
0.039300401 0.056847166 0.540389 4278255360
0.039536212 0.05689263 0.54082757 4278255360
0.039772019 0.056938093 0.54126614 4278255360
0.04000783 0.056983557 0.54170465 4278255360
0.040243641 0.057029016 0.54214323 4278255360
0.040479451 0.05707448 0.5425818 4278255360
0.040715262 0.057119943 0.54302031 4278255360
0.040951073 0.057165407 0.54345888 4278255360
0.041186884 0.057210866 0.54389745 4278255360
0.041422691 0.05725633 0.54433596 4278255360
0.041658498 0.057301793 0.54477453 4278255360
0.041894309 0.057347257 0.5452131 4278255360
0.04213012 0.057392716 0.54565161 4278255360
0.042365931 0.05743818 0.54609019 4278255360
0.042601742 0.057483643 0.54652876 4278255360
0.042837553 0.057529107 0.54696727 4278255360
0.043073364 0.057574566 0.54740584 4278255360
0.043309171 0.05762003 0.54784441 4278255360
0.043544982 0.057665493 0.54828292 4278255360
0.043780793 0.057710957 0.54872149 4278255360
0.0440166 0.057756416 0.54916006 4278255360
0.044252411 0.05780188 0.54959857 4278255360
0.044488221 0.057847343 0.55003715 4278255360
