# .PCD v0.7 - Point Cloud Data file format
VERSION 0.7
FIELDS x y z rgb
SIZE 4 4 4 4
TYPE F F F U
COUNT 1 1 1 1
WIDTH 1055
HEIGHT 1
VIEWPOINT 0 0 0 1 0 0 0
POINTS 1055
DATA ascii
0.035832375 0.034204729 0.37900001 4283045389
0.037063368 0.034204729 0.37900001 4282717194
0.03829436 0.034204729 0.37900001 4282323979
0.039629642 0.034294982 0.38000003 4282324494
0.040863883 0.034294982 0.38000003 4282389772
0.042098124 0.034294982 0.38000003 4283966491
0.007698108 0.036277629 0.38800001 4286420359
0.0089583332 0.036277629 0.38800001 4284169013
0.010218557 0.036277629 0.38800001 4285213478
0.011478783 0.036277629 0.38800001 4285277470
0.017779905 0.036277629 0.38800001 4286003246
0.01904013 0.036277629 0.38800001 4284885796
0.02750266 0.035810135 0.38300002 4283966489
0.028671589 0.035716638 0.38200003 4284031253
0.029834021 0.035623137 0.38100001 4284031253
0.031071508 0.035623137 0.38100001 4283504909
0.032224201 0.03552964 0.38000003 4283769364
0.033458438 0.03552964 0.38000003 4283046672
0.034692679 0.03552964 0.38000003 4282915086
0.035926919 0.03552964 0.38000003 4282718221
0.03716116 0.03552964 0.38000003 4282323979
0.038395401 0.03552964 0.38000003 4282129680
0.039629642 0.03552964 0.38000003 4283842864
0.040863883 0.03552964 0.38000003 4284961597
0.042098124 0.03552964 0.38000003 4283376919
0.043446396 0.035623137 0.38100001 4284359191
0.044683885 0.035623137 0.38100001 4284294425
0.007698108 0.037538283 0.38800001 4286222980
0.0089583332 0.037538283 0.38800001 4284169778
0.010218557 0.037538283 0.38800001 4284622624
0.0239569 0.037344784 0.38600001 4283511850
0.025145316 0.037248038 0.38500002 4283315502
0.026327236 0.037151288 0.384 4282988334
0.02750266 0.037054539 0.38300002 4282988332
0.028671589 0.036957793 0.38200003 4283842096
0.029912326 0.036957793 0.38200003 4283312670
0.031071508 0.036861043 0.38100001 4282849293
0.032224201 0.036764298 0.38000003 4282717707
0.033458438 0.036764298 0.38000003 4283375637
0.034692679 0.036764298 0.38000003 4283111952
0.035926919 0.036764298 0.38000003 4283045389
0.03716116 0.036764298 0.38000003 4282980879
0.038395401 0.036764298 0.38000003 4284043829
0.039629642 0.036764298 0.38000003 4283517999
0.040863883 0.036764298 0.38000003 4284306997
0.042208906 0.036861043 0.38100001 4285227331
0.043446396 0.036861043 0.38100001 4283900437
0.044683885 0.036861043 0.38100001 4284424984
0.045921374 0.036861043 0.38100001 4283902747
0.007698108 0.038798932 0.38800001 4286222980
0.0089583332 0.038798932 0.38800001 4284894532
0.010218557 0.038798932 0.38800001 4283967011
0.011478783 0.038798932 0.38800001 4284359198
0.021505011 0.038698938 0.38700002 4281276949
0.022761988 0.038698938 0.38700002 4284570194
0.0239569 0.038598936 0.38600001 4286681478
0.025145316 0.038498942 0.38500002 4286484869
0.026395798 0.038498942 0.38500002 4286353535
0.028746644 0.038298946 0.38300002 4282528801
0.031071508 0.03809895 0.38100001 4282062090
0.032308999 0.03809895 0.38100001 4282258699
0.033458438 0.037998956 0.38000003 4282849807
0.034692679 0.037998956 0.38000003 4283309842
0.035926919 0.037998956 0.38000003 4284425497
0.03716116 0.037998956 0.38000003 4283701772
0.038395401 0.037998956 0.38000003 4284106538
0.039629642 0.037998956 0.38000003 4285030974
0.040971417 0.03809895 0.38100001 4285361736
0.042208906 0.03809895 0.38100001 4286150480
0.043446396 0.03809895 0.38100001 4285882949
0.044683885 0.03809895 0.38100001 4283638548
0.045921374 0.03809895 0.38100001 4284490007
0.04715886 0.03809895 0.38100001 4284428577
0.0077179489 0.040162832 0.38900003 4286880140
0.0089814216 0.040162832 0.38900003 4283511083
0.010218557 0.040059585 0.38800001 4283508257
0.01904013 0.040059585 0.38800001 4281472785
0.020300355 0.040059585 0.38800001 4285228124
0.02156058 0.040059585 0.38800001 4286813834
0.022761988 0.039956339 0.38700002 4285893245
0.024018966 0.039956339 0.38700002 4285828222
0.025210626 0.039853089 0.38600001 4286091394
0.026395798 0.039749846 0.38500002 4286354050
0.028746644 0.039543353 0.38300002 4283056428
0.031071508 0.03933686 0.38100001 4282391055
0.032308999 0.03933686 0.38100001 4282259469
0.033458438 0.039233614 0.38000003 4282390539
0.034692679 0.039233614 0.38000003 4282587405
0.035926919 0.039233614 0.38000003 4283703058
0.03716116 0.039233614 0.38000003 4284424984
0.038395401 0.039233614 0.38000003 4283834640
0.039629642 0.039233614 0.38000003 4286078016
0.040971417 0.03933686 0.38100001 4282728219
0.042208906 0.03933686 0.38100001 4282728219
0.043446396 0.03933686 0.38100001 4282267414
0.044683885 0.03933686 0.38100001 4284040745
0.045921374 0.03933686 0.38100001 4284358419
0.04715886 0.03933686 0.38100001 4284687386
0.0077377893 0.041533228 0.39000002 4287471248
0.0089814216 0.041426733 0.38900003 4283639843
0.010244895 0.041426733 0.38900003 4283507487
0.01782573 0.041426733 0.38900003 4281669394
0.019089203 0.041426733 0.38900003 4286549378
0.020300355 0.041320235 0.38800001 4285893245
0.02156058 0.041320235 0.38800001 4286024831
0.022820804 0.041320235 0.38800001 4286024831
0.024018966 0.04121374 0.38700002 4285828222
0.025210626 0.041107245 0.38600001 4285828222
0.026395798 0.04100075 0.38500002 4286287740
0.028746644 0.040787756 0.38300002 4282132246
0.02999063 0.040787756 0.38300002 4282719250
0.031153062 0.040681265 0.38200003 4282783760
0.032308999 0.040574767 0.38100001 4282717453
0.033546485 0.040574767 0.38100001 4282258186
0.034692679 0.040468272 0.38000003 4282587151
0.035926919 0.040468272 0.38000003 4282324492
0.03716116 0.040468272 0.38000003 4283703317
0.038395401 0.040468272 0.38000003 4284359189
0.039629642 0.040468272 0.38000003 4283899403
0.040863883 0.040468272 0.38000003 4286410824
0.042098124 0.040468272 0.38000003 4285953353
0.043332364 0.040468272 0.38000003 4282662686
0.044566605 0.040468272 0.38000003 4282201623
0.045800846 0.040468272 0.38000003 4283704341
0.047035087 0.040468272 0.38000003 4284687384
0.0065042535 0.043019865 0.39200002 4286222980
0.0077576302 0.042910121 0.39100003 4285956982
0.00900451 0.042800374 0.39000002 4284231208
0.010271231 0.042800374 0.39000002 4285746761
0.016562259 0.042690631 0.38900003 4280882195
0.01782573 0.042690631 0.38900003 4287402121
0.019089203 0.042690631 0.38900003 4286090626
0.020352677 0.042690631 0.38900003 4285959808
0.021616148 0.042690631 0.38900003 4285894015
0.022820804 0.042580888 0.38800001 4285959808
0.024018966 0.042471144 0.38700002 4285828222
0.025210626 0.042361397 0.38600001 4285894015
0.026395798 0.042251654 0.38500002 4282404410
0.027574468 0.042141907 0.384 4282203429
0.028821699 0.042141907 0.384 4282392082
0.031153062 0.04192242 0.38200003 4283571479
0.032308999 0.041812673 0.38100001 4283242514
0.033546485 0.041812673 0.38100001 4283045135
0.034783974 0.041812673 0.38100001 4282717453
0.035926919 0.04170293 0.38000003 4282259469
0.03716116 0.04170293 0.38000003 4284036907
0.038395401 0.04170293 0.38000003 4283637524
0.039629642 0.04170293 0.38000003 4284293909
0.040863883 0.04170293 0.38000003 4282652416
0.042098124 0.04170293 0.38000003 4285489211
0.04321833 0.041593187 0.37900001 4284308015
0.044449326 0.041593187 0.37900001 4285031738
0.045680314 0.041593187 0.37900001 4283710499
0.046911307 0.041593187 0.37900001 4283768849
0.0065042535 0.044293512 0.39200002 4286024831
0.0077576302 0.04418052 0.39100003 4283518274
0.0090275994 0.04418052 0.39100003 4283311391
0.010271231 0.044067524 0.39000002 4287788141
0.011537951 0.044067524 0.39000002 4284032030
0.016604833 0.044067524 0.39000002 4286350718
0.017871555 0.044067524 0.39000002 4286155906
0.019138277 0.044067524 0.39000002 4286024833
0.020352677 0.043954533 0.38900003 4286090626
0.021616148 0.043954533 0.38900003 4286090624
0.022820804 0.043841537 0.38800001 4285828222
0.024018966 0.043728545 0.38700002 4285762429
0.025210626 0.04361555 0.38600001 4286617990
0.028821699 0.043389563 0.384 4280751370
0.031153062 0.043163579 0.38200003 4283049498
0.032393802 0.043163579 0.38200003 4282785043
0.033546485 0.043050583 0.38100001 4283111952
0.034783974 0.043050583 0.38100001 4283177745
0.035926919 0.042937592 0.38000003 4282193676
0.03716116 0.042937592 0.38000003 4282658590
0.038395401 0.042937592 0.38000003 4282394648
0.039525352 0.042824596 0.37900001 4283638294
0.040756345 0.042824596 0.37900001 4284227601
0.041987337 0.042824596 0.37900001 4283310094
0.043104298 0.042711601 0.37800002 4282465559
0.044332046 0.042711601 0.37800002 4282662938
0.04555979 0.042711601 0.37800002 4283649319
0.04678753 0.042711601 0.37800002 4283905823
0.047761224 0.042485613 0.37600002 4285146650
0.0065042535 0.045567162 0.39200002 4287338633
0.0077576302 0.045450918 0.39100003 4282986535
0.0090275994 0.045450918 0.39100003 4284693810
0.010297568 0.045450918 0.39100003 4284365358
0.014071392 0.045334674 0.39000002 4281800465
0.015338113 0.045334674 0.39000002 4284435526
0.016604833 0.045334674 0.39000002 4286090624
0.017871555 0.045334674 0.39000002 4286222212
0.019138277 0.045334674 0.39000002 4286222212
0.020352677 0.045218434 0.38900003 4286090626
0.021616148 0.045218434 0.38900003 4285959038
0.022820804 0.04510219 0.38800001 4286551945
0.024018966 0.044985946 0.38700002 4282404419
0.033546485 0.04428849 0.38100001 4282195475
0.034783974 0.04428849 0.38100001 4282719250
0.035926919 0.04417225 0.38000003 4281471750
0.03716116 0.04417225 0.38000003 4282726180
0.039525352 0.044056002 0.37900001 4282065937
0.040648807 0.043939762 0.37800002 4283965458
0.041876554 0.043939762 0.37800002 4284030737
0.042990264 0.043823518 0.377 4282462229
0.044214763 0.043823518 0.377 4282596381
0.04531873 0.043707278 0.37600002 4282330641
0.046539977 0.043707278 0.37600002 4284825128
0.047634203 0.043591034 0.37500003 4285213213
0.048852205 0.043591034 0.37500003 4286067752
0.049936686 0.04347479 0.37400001 4285739557
0.0065042535 0.046840809 0.39200002 4287334268
0.0077774702 0.046840809 0.39200002 4283706147
0.010297568 0.046721317 0.39100003 4283770655
0.014107473 0.046721317 0.39100003 4280881679
0.015377442 0.046721317 0.39100003 4287402375
0.016604833 0.046601824 0.39000002 4286157441
0.017871555 0.046601824 0.39000002 4286091394
0.019138277 0.046601824 0.39000002 4286222980
0.020352677 0.046482336 0.38900003 4285894015
0.02156058 0.04636284 0.38800001 4286880910
0.040541269 0.045048431 0.377 4283507221
0.041765768 0.045048431 0.377 4283900437
0.042876232 0.044928938 0.37600002 4283572755
0.044097483 0.044928938 0.37600002 4284035616
0.045198202 0.044809449 0.37500003 4285150500
0.046416204 0.044809449 0.37500003 4285016088
0.047634203 0.044809449 0.37500003 4286000416
0.048721932 0.044689953 0.37400001 4285605658
0.049936686 0.044689953 0.37400001 4285606683
0.051151432 0.044689953 0.37400001 4285475867
0.0052443813 0.048237197 0.39300001 4286354566
0.0090275994 0.047991715 0.39100003 4286009154
0.015377442 0.047991715 0.39100003 4286286720
0.016647412 0.047991715 0.39100003 4286091394
0.017871555 0.047868975 0.39000002 4286091394
0.019138277 0.047868975 0.39000002 4285959808
0.020352677 0.047746234 0.38900003 4286288773
0.02156058 0.047623493 0.38800001 4281284655
0.040541269 0.04627334 0.377 4282326289
0.041654985 0.046150602 0.37600002 4283638294
0.042762201 0.046027862 0.37500003 4284686871
0.043980204 0.046027862 0.37500003 4285212443
0.045198202 0.046027862 0.37500003 4285540381
0.046292424 0.045905117 0.37400001 4285606174
0.047507178 0.045905117 0.37400001 4285472789
0.048721932 0.045905117 0.37400001 4285406226
0.049936686 0.045905117 0.37400001 4285275408
0.051151432 0.045905117 0.37400001 4285080082
0.0052443813 0.049514096 0.39300001 4286812802
0.0065042535 0.049388107 0.39200002 4284624167
0.0090506868 0.049388107 0.39200002 4284100644
0.014107473 0.049262118 0.39100003 4286480503
0.015377442 0.049262118 0.39100003 4286222210
0.016604833 0.049136128 0.39000002 4286157187
0.017871555 0.049136128 0.39000002 4286091394
0.019089203 0.049010139 0.38900003 4285894015
0.041544203 0.047246277 0.37500003 4283376151
0.042762201 0.047246277 0.37500003 4285672221
0.04386292 0.047120284 0.37400001 4285605143
0.045077674 0.047120284 0.37400001 4285736731
0.046292424 0.047120284 0.37400001 4290146150
0.047380153 0.046994295 0.37300003 4285537812
0.048591658 0.046994295 0.37300003 4285405967
0.049803168 0.046994295 0.37300003 4284749064
0.051151432 0.047120284 0.37400001 4284619279
0.0052443813 0.050790988 0.39300001 4283583038
0.014107473 0.050532516 0.39100003 4287272842
0.015377442 0.050532516 0.39100003 4286024831
0.016604833 0.050403275 0.39000002 4286090624
0.017871555 0.050403275 0.39000002 4286222210
0.019089203 0.050274037 0.38900003 4286025085
0.041544203 0.048464689 0.37500003 4282523154
0.042648166 0.048335448 0.37400001 4284882705
0.04386292 0.048335448 0.37400001 4285538582
0.044957146 0.04820621 0.37300003 4285867293
0.046168651 0.04820621 0.37300003 4286131235
0.047380153 0.04820621 0.37300003 4285341203
0.048591658 0.04820621 0.37300003 4285209617
0.049803168 0.04820621 0.37300003 4284749582
0.051151432 0.048335448 0.37400001 4284290316
0.0039679166 0.052067891 0.39300001 4286941050
0.0052310373 0.051935405 0.39200002 4285946191
0.0065042535 0.051935405 0.39200002 4285083173
0.0077774702 0.051935405 0.39200002 4286795588
0.012837506 0.051802915 0.39100003 4280812800
0.014107473 0.051802915 0.39100003 4286746496
0.015338113 0.051670425 0.39000002 4286156158
0.016604833 0.051670425 0.39000002 4286943875
0.01782573 0.051537938 0.38900003 4286545265
0.01904013 0.051405448 0.38800001 4284305995
0.042648166 0.049550612 0.37400001 4284555283
0.043745644 0.049418125 0.37300003 4284685072
0.044957146 0.049418125 0.37300003 4284946961
0.046168651 0.049418125 0.37300003 4285078547
0.047380153 0.049418125 0.37300003 4284749582
0.048591658 0.049418125 0.37300003 4284552716
0.049803168 0.049418125 0.37300003 4283896585
0.050877895 0.049285635 0.37200001 4283438089
0.0026846034 0.053209048 0.39200002 4286222982
0.0039578201 0.053209048 0.39200002 4286014037
0.0052310373 0.053209048 0.39200002 4284952873
0.0065042535 0.053209048 0.39200002 4285803555
0.0077576302 0.053073313 0.39100003 4285738789
0.0090275994 0.053073313 0.39100003 4284162333
0.014071392 0.052937571 0.39000002 4282852383
0.015338113 0.052937571 0.39000002 4285221185
0.016562259 0.052801836 0.38900003 4284361767
0.01782573 0.052801836 0.38900003 4284426788
0.01904013 0.052666098 0.38800001 4284299056
0.020248035 0.052530363 0.38700002 4279699202
0.042648166 0.050765775 0.37400001 4283701774
0.043745644 0.050630037 0.37300003 4284488722
0.044957146 0.050630037 0.37300003 4284948244
0.046168651 0.050630037 0.37300003 4285079060
0.047253128 0.050494298 0.37200001 4284751892
0.048461385 0.050494298 0.37200001 4283371526
0.049669642 0.050494298 0.37200001 4283175176
0.050877895 0.050494298 0.37200001 4282781702
0.052086156 0.050494298 0.37200001 4282454797
0.0014077864 0.054343715 0.39100003 4286222982
0.0052310373 0.054482698 0.39200002 4285803814
0.006487661 0.054343715 0.39100003 4286264111
0.0077576302 0.054343715 0.39100003 4287120442
0.014071392 0.054204725 0.39000002 4284163616
0.015338113 0.054204725 0.39000002 4284359198
0.016562259 0.054065742 0.38900003 4284687132
0.017779905 0.053926751 0.38800001 4284687132
0.01904013 0.053926751 0.38800001 4283967774
0.020248035 0.053787768 0.38700002 4280420610
0.042648166 0.051980942 0.37400001 4282980364
0.043745644 0.051841956 0.37300003 4283833360
0.044957146 0.051841956 0.37300003 4284423699
0.046168651 0.051841956 0.37300003 4286134315
0.047253128 0.051702969 0.37200001 4283438602
0.048461385 0.051702969 0.37200001 4283109897
0.049669642 0.051702969 0.37200001 4282848010
0.050877895 0.051702969 0.37200001 4282586121
0.052086156 0.051702969 0.37200001 4282258701
0.053294413 0.051702969 0.37200001 4282457877
0.0014077864 0.055614114 0.39100003 4286747525
0.002677755 0.055614114 0.39100003 4284173889
0.0039477237 0.055614114 0.39100003 4285409826
0.0052176928 0.055614114 0.39100003 4285014041
0.006487661 0.055614114 0.39100003 4288042062
0.0077576302 0.055614114 0.39100003 4285014296
0.00900451 0.055471878 0.39000002 4284555287
0.014071392 0.055471878 0.39000002 4284162587
0.018991059 0.055045173 0.38700002 4284295456
0.020195713 0.054902934 0.38600001 4280222720
0.042648166 0.053196106 0.37400001 4283507223
0.043745644 0.053053875 0.37300003 4283439632
0.044957146 0.053053875 0.37300003 4283307530
0.046168651 0.053053875 0.37300003 4283242507
0.047380153 0.053053875 0.37300003 4283045387
0.048591658 0.053053875 0.37300003 4282913801
0.049803168 0.053053875 0.37300003 4282455049
0.051014666 0.053053875 0.37300003 4282653198
0.052086156 0.052911635 0.37200001 4282457875
0.0014077864 0.056884512 0.39100003 4287863694
0.002677755 0.056884512 0.39100003 4283446055
0.0039477237 0.056884512 0.39100003 4285606176
0.0052176928 0.056884512 0.39100003 4284750095
0.0064710681 0.056739025 0.39000002 4287185717
0.0077377893 0.056739025 0.39000002 4285145625
0.018991059 0.05630257 0.38700002 4283768599
0.020195713 0.056157082 0.38600001 4281406222
0.042648166 0.05441127 0.37400001 4283374354
0.04386292 0.05441127 0.37400001 4283702036
0.044957146 0.054265786 0.37300003 4282913290
0.046168651 0.054265786 0.37300003 4282651401
0.047380153 0.054265786 0.37300003 4282717707
0.048591658 0.054265786 0.37300003 4282586121
0.049803168 0.054265786 0.37300003 4282587664
0.051014666 0.054265786 0.37300003 4282983705
0.052226175 0.054265786 0.37300003 4282722330
0.00013781765 0.058154915 0.39100003 4286354566
0.0014077864 0.058154915 0.39100003 4287665545
0.002677755 0.058154915 0.39100003 4283444772
0.0039376272 0.058006175 0.39000002 4285607203
0.0052043479 0.058006175 0.39000002 4285409052
0.0064710681 0.058006175 0.39000002 4285343002
0.0077377893 0.058006175 0.39000002 4284948503
0.018991059 0.057559978 0.38700002 4283900185
0.020195713 0.057411239 0.38600001 4281996560
0.042648166 0.055626437 0.37400001 4283637013
0.04386292 0.055626437 0.37400001 4283174665
0.044957146 0.055477705 0.37300003 4282259469
0.046168651 0.055477705 0.37300003 4282195986
0.047380153 0.055477705 0.37300003 4281931533
0.048591658 0.055477705 0.37300003 4281996812
0.049803168 0.055477705 0.37300003 4282259469
0.051014666 0.055477705 0.37300003 4282193676
0.052226175 0.055477705 0.37300003 4282063117
0.00013781765 0.059425309 0.39100003 4286157700
0.0014077864 0.059425309 0.39100003 4287863696
0.0026709065 0.059273325 0.39000002 4282986535
0.0039376272 0.059273325 0.39000002 4284885794
0.0052043479 0.059273325 0.39000002 4284622109
0.0064710681 0.059273325 0.39000002 4284490007
0.016519681 0.058969356 0.38800001 4284622622
0.017734082 0.058817375 0.38700002 4284294689
0.018991059 0.058817375 0.38700002 4283968036
0.020195713 0.058665391 0.38600001 4283576106
0.042762201 0.056993581 0.37500003 4284030485
0.04386292 0.056841597 0.37400001 4283438862
0.049936686 0.056841597 0.37400001 4281603338
0.051151432 0.056841597 0.37400001 4281865226
0.00013781765 0.060695712 0.39100003 4286420359
0.0014077864 0.060695712 0.39100003 4286550662
0.0026709065 0.060540475 0.39000002 4283716940
0.0039376272 0.060540475 0.39000002 4283902245
0.0051910039 0.060385246 0.38900003 4284362278
0.016477104 0.06007478 0.38700002 4285030997
0.017734082 0.06007478 0.38700002 4286019691
0.018941985 0.059919547 0.38600001 4286876801
0.020195713 0.059919547 0.38600001 4287075463
0.042762201 0.058211997 0.37500003 4284030485
0.04386292 0.058056764 0.37400001 4283110669
0.051288206 0.058211997 0.37500003 4282129684
0.0014041858 0.061807621 0.39000002 4286420359
0.0026709065 0.061807621 0.39000002 4287011467
0.0039275307 0.061649144 0.38900003 4283514426
0.0051910039 0.061649144 0.38900003 4283839280
0.0064544762 0.061649144 0.38900003 4283639843
0.016477104 0.061332181 0.38700002 4286024570
0.017734082 0.061332181 0.38700002 4286090878
0.018941985 0.061173696 0.38600001 4286288257
0.020195713 0.061173696 0.38600001 4286090878
0.021393875 0.061015218 0.38500002 4286222210
0.039316773 0.059747368 0.377 4282392084
0.041654985 0.059588887 0.37600002 4282590485
0.042762201 0.059430409 0.37500003 4284096278
0.043980204 0.059430409 0.37500003 4282651401
0.050070208 0.059430409 0.37500003 4281865740
0.051288206 0.059430409 0.37500003 4282195477
0.0026709065 0.063074775 0.39000002 4286354566
0.0039275307 0.062913045 0.38900003 4287142029
0.0051910039 0.062913045 0.38900003 4284244311
0.0064544762 0.062913045 0.38900003 4283117356
0.016477104 0.062589586 0.38700002 4286483324
0.017688256 0.062427852 0.38600001 4286353537
0.018941985 0.062427852 0.38600001 4286353537
0.020143393 0.062266126 0.38500002 4286287744
0.021393875 0.062266126 0.38500002 4286222464
0.022585537 0.062104393 0.384 4286551429
0.035926919 0.061457474 0.38000003 4284293405
0.037063368 0.06129574 0.37900001 4287515718
0.038193323 0.061134014 0.37800002 4285411109
0.039421067 0.061134014 0.37800002 4283439886
0.040541269 0.060972281 0.377 4283115030
0.041654985 0.060810551 0.37600002 4284032536
0.042762201 0.060648825 0.37500003 4283702034
0.043980204 0.060648825 0.37500003 4282587403
0.048852205 0.060648825 0.37500003 4281867791
0.050070208 0.060648825 0.37500003 4282194189
0.051288206 0.060648825 0.37500003 4282261783
0.0039275307 0.064176947 0.38900003 4286420359
0.0051910039 0.064176947 0.38900003 4286288773
0.0064544762 0.064176947 0.38900003 4287007617
0.0077179489 0.064176947 0.38900003 4282593324
0.011478783 0.064011961 0.38800001 4284622622
0.016434528 0.063682005 0.38600001 4286014812
0.017688256 0.063682005 0.38600001 4286417531
0.018892914 0.063517027 0.38500002 4286156158
0.020143393 0.063517027 0.38500002 4286287744
0.021393875 0.063517027 0.38500002 4286419330
0.022585537 0.063352041 0.384 4286287744
0.02383277 0.063352041 0.384 4286287490
0.025080003 0.063352041 0.384 4285892732
0.034783974 0.062857106 0.38100001 4284097312
0.035926919 0.062692128 0.38000003 4285144855
0.037063368 0.06252715 0.37900001 4285210135
0.038193323 0.062362172 0.37800002 4285341721
0.039421067 0.062362172 0.37800002 4287713349
0.040541269 0.06219719 0.377 4284885535
0.041654985 0.062032212 0.37600002 4284687386
0.042762201 0.061867233 0.37500003 4283112463
0.043980204 0.061867233 0.37500003 4282262031
0.048852205 0.061867233 0.37500003 4282654994
0.050070208 0.061867233 0.37500003 4282523922
0.051424973 0.062032212 0.37600002 4282065683
0.0064544762 0.065440848 0.38900003 4286288773
0.0077179489 0.065440848 0.38900003 4286088829
0.011478783 0.065272614 0.38800001 4284362017
0.018892914 0.064767934 0.38500002 4286418560
0.020143393 0.064767934 0.38500002 4286156158
0.021393875 0.064767934 0.38500002 4286090878
0.022585537 0.0645997 0.384 4286222210
0.02383277 0.0645997 0.384 4286090624
0.025080003 0.0645997 0.384 4286090878
0.026327236 0.0645997 0.384 4286288257
0.027574468 0.0645997 0.384 4286419330
0.028746644 0.064431474 0.38300002 4286814347
0.02999063 0.064431474 0.38300002 4286354566
0.031234615 0.064431474 0.38300002 4287075722
0.033634536 0.064263247 0.38200003 4284228380
0.034783974 0.06409502 0.38100001 4284686873
0.035926919 0.063926794 0.38000003 4285079060
0.037063368 0.06375856 0.37900001 4285604891
0.038193323 0.063590333 0.37800002 4285539098
0.039421067 0.063590333 0.37800002 4285407512
0.040541269 0.063422106 0.377 4285144853
0.041654985 0.06325388 0.37600002 4284553745
0.042876232 0.06325388 0.37600002 4282654992
0.047634203 0.063085653 0.37500003 4282195725
0.048982475 0.06325388 0.37600002 4282784012
0.050203726 0.06325388 0.37600002 4282655506
0.0064544762 0.066704743 0.38900003 4286288775
0.0077179489 0.066704743 0.38900003 4286222982
0.011478783 0.066533267 0.38800001 4284165413
0.012706175 0.066361792 0.38700002 4284229661
0.018892914 0.066018835 0.38500002 4287927172
0.020143393 0.066018835 0.38500002 4286286970
0.021338305 0.065847352 0.384 4286287744
0.022585537 0.065847352 0.384 4286484869
0.02383277 0.065847352 0.384 4286155904
0.025080003 0.065847352 0.384 4286353283
0.026327236 0.065847352 0.384 4286155904
0.027574468 0.065847352 0.384 4286288257
0.028821699 0.065847352 0.384 4286222464
0.02999063 0.065675877 0.38300002 4286222464
0.031234615 0.065675877 0.38300002 4286025085
0.032393802 0.065504402 0.38200003 4286614912
0.033546485 0.065332919 0.38100001 4283703835
0.034783974 0.065332919 0.38100001 4284226068
0.035926919 0.065161444 0.38000003 4285276441
0.037063368 0.064989969 0.37900001 4285669916
0.038193323 0.064818494 0.37800002 4285866523
0.039421067 0.064818494 0.37800002 4285537558
0.040541269 0.064647011 0.377 4285407512
0.041654985 0.064475536 0.37600002 4284161040
0.042876232 0.064475536 0.37600002 4282198293
0.047761224 0.064475536 0.37600002 4282850575
0.048982475 0.064475536 0.37600002 4282915084
0.050203726 0.064475536 0.37600002 4282327826
0.0064544762 0.067968652 0.38900003 4286354566
0.0077179489 0.067968652 0.38900003 4286420359
0.0089583332 0.067793921 0.38800001 4286549892
0.010218557 0.067793921 0.38800001 4284176719
0.012706175 0.067619197 0.38700002 4283968036
0.013927069 0.067444466 0.38600001 4284818972
0.020091072 0.067095011 0.384 4287985261
0.021338305 0.067095011 0.384 4286352251
0.022585537 0.067095011 0.384 4286286974
0.02383277 0.067095011 0.384 4286155904
0.025080003 0.067095011 0.384 4286155904
0.026327236 0.067095011 0.384 4286287490
0.027574468 0.067095011 0.384 4286156158
0.028746644 0.066920288 0.38300002 4286287744
0.02999063 0.066920288 0.38300002 4286222464
0.031153062 0.066745564 0.38200003 4286090878
0.032393802 0.066745564 0.38200003 4286288257
0.033546485 0.066570833 0.38100001 4285554513
0.034692679 0.06639611 0.38000003 4284491550
0.035926919 0.06639611 0.38000003 4285407512
0.037063368 0.066221379 0.37900001 4285932316
0.038193323 0.066046655 0.37800002 4285733910
0.039421067 0.066046655 0.37800002 4285799703
0.040541269 0.065871924 0.377 4284553236
0.041654985 0.065697201 0.37600002 4283372555
0.042876232 0.065697201 0.37600002 4282132500
0.047761224 0.065697201 0.37600002 4283308046
0.048982475 0.065697201 0.37600002 4283177743
0.050203726 0.065697201 0.37600002 4281935896
0.0077179489 0.069232553 0.38900003 4286354566
0.0089583332 0.069054574 0.38800001 4286485382
0.010218557 0.069054574 0.38800001 4287208592
0.011449198 0.068876602 0.38700002 4283972149
0.012706175 0.068876602 0.38700002 4283770659
0.013927069 0.068698622 0.38600001 4284360736
0.015180798 0.068698622 0.38600001 4284752925
0.020091072 0.068342671 0.384 4285013271
0.021338305 0.068342671 0.384 4286273873
0.022585537 0.068342671 0.384 4287795586
0.02383277 0.068342671 0.384 4286549630
0.025080003 0.068342671 0.384 4286155386
0.026327236 0.068342671 0.384 4286221181
0.02750266 0.068164699 0.38300002 4286286972
0.028746644 0.068164699 0.38300002 4286156156
0.02999063 0.068164699 0.38300002 4286287742
0.031153062 0.067986719 0.38200003 4286024318
0.032393802 0.067986719 0.38200003 4286156158
0.033546485 0.067808747 0.38100001 4287599232
0.034692679 0.067630768 0.38000003 4283510301
0.035832375 0.067452788 0.37900001 4285998109
0.037063368 0.067452788 0.37900001 4285932059
0.038193323 0.067274816 0.37800002 4285866266
0.039316773 0.067096837 0.377 4286787625
0.040541269 0.067096837 0.377 4284421907
0.041654985 0.066918865 0.37600002 4284356368
0.042876232 0.066918865 0.37600002 4283703058
0.044097483 0.066918865 0.37600002 4282785295
0.04531873 0.066918865 0.37600002 4282326541
0.046539977 0.066918865 0.37600002 4283179540
0.047761224 0.066918865 0.37600002 4283504655
0.048982475 0.066918865 0.37600002 4283177745
0.010218557 0.070315219 0.38800001 4286485382
0.011449198 0.070133999 0.38700002 4287468166
0.013927069 0.069952771 0.38600001 4283967522
0.015180798 0.069952771 0.38600001 4285217587
0.022526722 0.069409102 0.38300002 4285211168
0.023770707 0.069409102 0.38300002 4286338637
0.025014691 0.069409102 0.38300002 4287988854
0.026258677 0.069409102 0.38300002 4287401855
0.02750266 0.069409102 0.38300002 4286679418
0.028746644 0.069409102 0.38300002 4286614140
0.029912326 0.069227874 0.38200003 4286811519
0.031153062 0.069227874 0.38200003 4286876799
0.032308999 0.069046646 0.38100001 4286874232
0.033458438 0.068865426 0.38000003 4286733906
0.034692679 0.068865426 0.38000003 4286203192
0.035832375 0.068684198 0.37900001 4286065442
0.036965575 0.068502977 0.37800002 4285932059
0.038193323 0.068502977 0.37800002 4285998106
0.039316773 0.06832175 0.377 4288895308
0.040541269 0.06832175 0.377 4286463284
0.041654985 0.068140522 0.37600002 4285407512
0.042876232 0.068140522 0.37600002 4284946961
0.044097483 0.068140522 0.37600002 4284685331
0.04531873 0.068140522 0.37600002 4283439886
0.046539977 0.068140522 0.37600002 4283111180
0.047761224 0.068140522 0.37600002 4283045389
0.010218557 0.071575873 0.38800001 4286551175
0.011449198 0.071391404 0.38700002 4286485382
0.012673343 0.071206927 0.38600001 4285757550
0.013927069 0.071206927 0.38600001 4283967524
0.01514147 0.071022458 0.38500002 4283243286
0.016391952 0.071022458 0.38500002 4285082660
0.021282736 0.070653506 0.38300002 4286262305
0.022526722 0.070653506 0.38300002 4288764238
0.023770707 0.070653506 0.38300002 4285608488
0.025014691 0.070653506 0.38300002 4284949021
0.026258677 0.070653506 0.38300002 4285606699
0.02750266 0.070653506 0.38300002 4286134328
0.028746644 0.070653506 0.38300002 4285610551
0.029912326 0.070469037 0.38200003 4285413170
0.031153062 0.070469037 0.38200003 4285676848
0.032308999 0.07028456 0.38100001 4285543978
0.033458438 0.070100084 0.38000003 4285869605
0.034601379 0.069915608 0.37900001 4285869600
0.035832375 0.069915608 0.37900001 4285932311
0.036965575 0.069731139 0.37800002 4285997334
0.038092278 0.069546662 0.377 4286194713
0.039316773 0.069546662 0.377 4289093455
0.040433735 0.069362193 0.37600002 4285079060
0.041654985 0.069362193 0.37600002 4285471508
0.042876232 0.069362193 0.37600002 4284815375
0.044097483 0.069362193 0.37600002 4284356366
0.04531873 0.069362193 0.37600002 4283635727
0.046539977 0.069362193 0.37600002 4283308561
0.047761224 0.069362193 0.37600002 4282717455
0.011449198 0.072648801 0.38700002 4286485384
0.012673343 0.072461076 0.38600001 4287011215
0.013927069 0.072461076 0.38600001 4283774257
0.01514147 0.072273359 0.38500002 4284295204
0.016391952 0.072273359 0.38500002 4285541930
0.017596608 0.072085634 0.384 4286065446
0.018843841 0.072085634 0.384 4285538582
0.020038752 0.071897909 0.38300002 4285800982
0.021282736 0.071897909 0.38300002 4286065694
0.022526722 0.071897909 0.38300002 4288570193
0.023770707 0.071897909 0.38300002 4286067752
0.025014691 0.071897909 0.38300002 4286000934
0.026258677 0.071897909 0.38300002 4285999653
0.02750266 0.071897909 0.38300002 4286130469
0.028671589 0.071710192 0.38200003 4285933090
0.029912326 0.071710192 0.38200003 4285868065
0.031071508 0.071522467 0.38100001 4285999649
0.032308999 0.071522467 0.38100001 4285868317
0.033458438 0.071334742 0.38000003 4285670938
0.034601379 0.071147017 0.37900001 4285472789
0.035737831 0.0709593 0.37800002 4285472019
0.036965575 0.0709593 0.37800002 4285669141
0.038092278 0.070771568 0.377 4285733651
0.039316773 0.070771568 0.377 4286063129
0.040433735 0.07058385 0.37600002 4285340181
0.041654985 0.07058385 0.37600002 4285471767
0.042876232 0.07058385 0.37600002 4284487695
0.044097483 0.07058385 0.37600002 4284027401
0.04531873 0.07058385 0.37600002 4283307530
0.046539977 0.07058385 0.37600002 4283111182
0.047761224 0.07058385 0.37600002 4282521871
0.012673343 0.073715232 0.38600001 4286353798
0.01389099 0.073524266 0.38500002 4287400578
0.01514147 0.073524266 0.38500002 4285746761
0.016349375 0.073333286 0.384 4285935143
0.018794768 0.07314232 0.38300002 4288236095
0.020038752 0.07314232 0.38300002 4285800984
0.021282736 0.07314232 0.38300002 4285537810
0.022526722 0.07314232 0.38300002 4284946445
0.023770707 0.07314232 0.38300002 4285802783
0.025014691 0.07314232 0.38300002 4286131748
0.026258677 0.07314232 0.38300002 4286526506
0.02750266 0.07314232 0.38300002 4286065955
0.028671589 0.072951347 0.38200003 4286000162
0.029912326 0.072951347 0.38200003 4286197541
0.031071508 0.072760373 0.38100001 4285736992
0.032308999 0.072760373 0.38100001 4285474849
0.033458438 0.072569408 0.38000003 4283571220
0.034601379 0.072378427 0.37900001 4283834905
0.035737831 0.072187461 0.37800002 4284816917
0.036867782 0.071996488 0.377 4285079060
0.038092278 0.071996488 0.377 4285603094
0.039212488 0.071805514 0.37600002 4285274129
0.040433735 0.071805514 0.37600002 4285077009
0.041654985 0.071805514 0.37600002 4284420619
0.042876232 0.071805514 0.37600002 4283895817
0.044097483 0.071805514 0.37600002 4283567622
0.04531873 0.071805514 0.37600002 4282913288
0.046539977 0.071805514 0.37600002 4282586635
0.047761224 0.071805514 0.37600002 4282392084
0.012673343 0.074969381 0.38600001 4286484869
0.01389099 0.074775167 0.38500002 4286943877
0.015102142 0.074580938 0.384 4284237888
0.016349375 0.074580938 0.384 4285738791
0.017596608 0.074580938 0.384 4285606176
0.018794768 0.074386723 0.38300002 4285341973
0.020038752 0.074386723 0.38300002 4285276180
0.021282736 0.074386723 0.38300002 4285079314
0.022526722 0.074386723 0.38300002 4284815888
0.023770707 0.074386723 0.38300002 4284357906
0.025014691 0.074386723 0.38300002 4284162587
0.026258677 0.074386723 0.38300002 4284432698
0.02750266 0.074386723 0.38300002 4283643184
0.028671589 0.074192502 0.38200003 4283775540
0.029912326 0.074192502 0.38200003 4284763718
0.031071508 0.07399828 0.38100001 4286279785
0.032308999 0.07399828 0.38100001 4287598727
0.033458438 0.073804058 0.38000003 4287598980
0.034601379 0.073609836 0.37900001 4282069797
0.035737831 0.073415615 0.37800002 4283967774
0.036867782 0.073221393 0.377 4284490007
0.038092278 0.073221393 0.377 4285013271
0.039212488 0.073027171 0.37600002 4284881685
0.040433735 0.073027171 0.37600002 4284225552
0.041654985 0.073027171 0.37600002 4284028173
0.042876232 0.073027171 0.37600002 4283306251
0.044097483 0.073027171 0.37600002 4283043592
0.04531873 0.073027171 0.37600002 4282520074
0.046539977 0.073027171 0.37600002 4282390285
0.047761224 0.073027171 0.37600002 4282261783
0.01389099 0.076026075 0.38500002 4286680964
0.015102142 0.075828597 0.384 4284438608
0.016349375 0.075828597 0.384 4284687904
0.017550783 0.075631134 0.38300002 4285344033
0.018794768 0.075631134 0.38300002 4285145625
0.020038752 0.075631134 0.38300002 4284685074
0.021282736 0.075631134 0.38300002 4284422159
0.022526722 0.075631134 0.38300002 4284225550
0.023770707 0.075631134 0.38300002 4283240971
0.025014691 0.075631134 0.38300002 4286009674
0.026258677 0.075631134 0.38300002 4286745728
0.02750266 0.075631134 0.38300002 4286417533
0.028746644 0.075631134 0.38300002 4286352253
0.029912326 0.075433664 0.38200003 4286418046
0.031153062 0.075433664 0.38200003 4286352253
0.032308999 0.075236186 0.38100001 4286484353
0.033458438 0.075038724 0.38000003 4286943105
0.034601379 0.074841246 0.37900001 4281677353
0.035737831 0.074643783 0.37800002 4283446827
0.036867782 0.074446306 0.377 4283309590
0.038092278 0.074446306 0.377 4284096278
0.039212488 0.074248835 0.37600002 4284029972
0.040433735 0.074248835 0.37600002 4283766800
0.041654985 0.074248835 0.37600002 4283438348
0.042876232 0.074248835 0.37600002 4282847756
0.044097483 0.074248835 0.37600002 4282716940
0.04531873 0.074248835 0.37600002 4282521871
0.046539977 0.074248835 0.37600002 4282654742
0.047761224 0.074248835 0.37600002 4282394652
0.013854909 0.077076249 0.384 4286484869
0.015102142 0.077076249 0.384 4286152824
0.016349375 0.077076249 0.384 4285020210
0.017550783 0.076875538 0.38300002 4284820003
0.018794768 0.076875538 0.38300002 4284687134
0.020038752 0.076875538 0.38300002 4284292376
0.021282736 0.076875538 0.38300002 4284029974
0.022526722 0.076875538 0.38300002 4283701522
0.023770707 0.076875538 0.38300002 4282914319
0.025014691 0.076875538 0.38300002 4282258703
0.026258677 0.076875538 0.38300002 4282987569
0.02750266 0.076875538 0.38300002 4284372302
0.028746644 0.076875538 0.38300002 4286084718
0.029912326 0.076674819 0.38200003 4285953902
0.031153062 0.076674819 0.38200003 4285888366
0.032308999 0.076474093 0.38100001 4284966237
0.033458438 0.076273374 0.38000003 4283383862
0.034601379 0.076072656 0.37900001 4281341712
0.035737831 0.075871937 0.37800002 4282194193
0.036867782 0.075671218 0.377 4284561454
0.038092278 0.075671218 0.377 4283310358
0.039212488 0.0754705 0.37600002 4283375637
0.040433735 0.0754705 0.37600002 4283177745
0.041654985 0.0754705 0.37600002 4282716940
0.042876232 0.0754705 0.37600002 4282586383
0.044097483 0.0754705 0.37600002 4282652946
0.04531873 0.0754705 0.37600002 4282392084
0.046539977 0.0754705 0.37600002 4282656026
0.01264051 0.078527883 0.38500002 4286550664
0.013854909 0.078323908 0.384 4286550664
0.015102142 0.078323908 0.384 4287010443
0.016349375 0.078323908 0.384 4284040509
0.017550783 0.078119941 0.38300002 4284232493
0.018794768 0.078119941 0.38300002 4283967009
0.020038752 0.078119941 0.38300002 4283638555
0.021282736 0.078119941 0.38300002 4283507223
0.022526722 0.078119941 0.38300002 4283047186
0.023770707 0.078119941 0.38300002 4282850838
0.025014691 0.078119941 0.38300002 4283180575
0.026258677 0.078119941 0.38300002 4282195225
0.02750266 0.078119941 0.38300002 4282392604
0.028746644 0.078119941 0.38300002 4282523936
0.02999063 0.078119941 0.38300002 4282392350
0.031153062 0.077915974 0.38200003 4282655524
0.032308999 0.077712007 0.38100001 4282524451
0.033546485 0.077712007 0.38100001 4282854184
0.034601379 0.077304065 0.37900001 4282591266
0.035737831 0.077100098 0.37800002 4282524701
0.036867782 0.076896131 0.377 4282786844
0.038092278 0.076896131 0.377 4283182368
0.039316773 0.076896131 0.377 4284301362
0.040433735 0.076692164 0.37600002 4282457363
0.041654985 0.076692164 0.37600002 4282391057
0.042876232 0.076692164 0.37600002 4282522643
0.044097483 0.076692164 0.37600002 4282654742
0.04531873 0.076692164 0.37600002 4282195990
0.046539977 0.076692164 0.37600002 4281276687
0.01264051 0.079778783 0.38500002 4286616457
0.013854909 0.07957156 0.384 4286616457
0.015102142 0.07957156 0.384 4286616457
0.016349375 0.07957156 0.384 4287535244
0.017550783 0.079364344 0.38300002 4282991160
0.018794768 0.079364344 0.38300002 4283642153
0.020038752 0.079364344 0.38300002 4283378467
0.021282736 0.079364344 0.38300002 4283180575
0.022526722 0.079364344 0.38300002 4283114782
0.023770707 0.079364344 0.38300002 4283181602
0.025014691 0.079364344 0.38300002 4283182118
0.026258677 0.079364344 0.38300002 4282657057
0.027574468 0.07957156 0.384 4283117610
0.028746644 0.079364344 0.38300002 4283449405
0.02999063 0.079364344 0.38300002 4285425505
0.031234615 0.079364344 0.38300002 4286942340
0.032393802 0.079157129 0.38200003 4287535760
0.033546485 0.078949906 0.38100001 4284507231
0.034601379 0.078535475 0.37900001 4282597435
0.035737831 0.078328259 0.37800002 4282268211
0.036965575 0.078328259 0.37800002 4281873199
0.038092278 0.078121036 0.377 4281609511
0.039316773 0.078121036 0.377 4281214240
0.040433735 0.077913821 0.37600002 4280819478
0.041654985 0.077913821 0.37600002 4280950550
0.042876232 0.077913821 0.37600002 4281081107
0.044097483 0.077913821 0.37600002 4280883728
0.04531873 0.077913821 0.37600002 4280358927
0.046539977 0.077913821 0.37600002 4280097038
0.013854909 0.080819219 0.384 4286550664
0.015102142 0.080819219 0.384 4286748043
0.016349375 0.080819219 0.384 4286682761
0.017550783 0.080608755 0.38300002 4287274639
0.018794768 0.080608755 0.38300002 4285427813
0.020038752 0.080608755 0.38300002 4284043850
0.021282736 0.080608755 0.38300002 4283712573
0.022526722 0.080608755 0.38300002 4283382838
0.023770707 0.080608755 0.38300002 4282331433
0.025080003 0.080819219 0.384 4283846473
0.026327236 0.080819219 0.384 4286876549
0.027574468 0.080819219 0.384 4286417028
0.028821699 0.080819219 0.384 4286484869
0.030068934 0.080819219 0.384 4286155904
0.031234615 0.080608755 0.38300002 4286287490
0.032393802 0.080398291 0.38200003 4286155906
0.033634536 0.080398291 0.38200003 4286419078
0.015102142 0.082066879 0.384 4286748043
0.016349375 0.082066879 0.384 4286616455
0.017550783 0.081853166 0.38300002 4286550662
0.018794768 0.081853166 0.38300002 4286748041
0.020038752 0.081853166 0.38300002 4286748041
0.021282736 0.081853166 0.38300002 4286748295
0.022526722 0.081853166 0.38300002 4287010697
0.02383277 0.082066879 0.384 4286747271
0.025080003 0.082066879 0.384 4286549892
0.026327236 0.082066879 0.384 4286878859
0.027574468 0.082066879 0.384 4286484871
0.028821699 0.082066879 0.384 4286550664
0.030068934 0.082066879 0.384 4286419078
0.031316165 0.082066879 0.384 4286353285
0.0325634 0.082066879 0.384 4286353285
0.03381063 0.082066879 0.384 4286287490
0.016349375 0.083314531 0.384 4286748041
0.017550783 0.08309757 0.38300002 4286419076
0.018794768 0.08309757 0.38300002 4286550662
0.020038752 0.08309757 0.38300002 4286550664
0.021282736 0.08309757 0.38300002 4286550662
0.022526722 0.08309757 0.38300002 4286550662
0.02383277 0.083314531 0.384 4286616455
0.025080003 0.083314531 0.384 4286550662
0.026327236 0.083314531 0.384 4286550662
0.027574468 0.083314531 0.384 4286419076
0.028821699 0.083314531 0.384 4286353283
0.030068934 0.083314531 0.384 4286878857
0.031316165 0.083314531 0.384 4286550662
0.0325634 0.083314531 0.384 4286287492
0.03381063 0.083314531 0.384 4286155906
0.020038752 0.084341973 0.38300002 4286550662
0.021282736 0.084341973 0.38300002 4286748041
0.022526722 0.084341973 0.38300002 4286748041
0.02383277 0.084562182 0.384 4286616455
0.025080003 0.084562182 0.384 4286616455
0.026327236 0.084562182 0.384 4286484869
0.027574468 0.084562182 0.384 4286550662
0.028821699 0.084562182 0.384 4286616455
0.030068934 0.084562182 0.384 4286616455
0.031316165 0.084562182 0.384 4286550662
0.0325634 0.084562182 0.384 4286484871
0.03381063 0.084562182 0.384 4286484871
0.027255952 0.053787977 0.38179484 4294967295
0.027255952 0.053787977 0.38179484 4294901760
0.027255952 0.053787977 0.38229483 4294901760
0.027255952 0.053787977 0.38279483 4294901760
0.027255952 0.053787977 0.38329485 4294901760
0.027255952 0.053787977 0.38379484 4294901760
0.027255952 0.053787977 0.38429484 4294901760
0.027255952 0.053787977 0.38479483 4294901760
0.027255952 0.053787977 0.38529485 4294901760
0.027255952 0.053787977 0.38579485 4294901760
0.027255952 0.053787977 0.38629484 4294901760
0.027255952 0.053787977 0.38679484 4294901760
0.027255952 0.053787977 0.38729483 4294901760
0.027255952 0.053787977 0.38779485 4294901760
0.027255952 0.053787977 0.38829485 4294901760
0.027255952 0.053787977 0.38879484 4294901760
0.027255952 0.053787977 0.38929483 4294901760
0.027255952 0.053787977 0.38979483 4294901760
0.027255952 0.053787977 0.39029485 4294901760
0.027255952 0.053787977 0.39079484 4294901760
0.027255952 0.053787977 0.39129484 4294901760
0.027255952 0.053787977 0.39179483 4294901760
0.027255952 0.053787977 0.39229485 4294901760
0.027255952 0.053787977 0.39279485 4294901760
0.027255952 0.053787977 0.39329484 4294901760
0.027255952 0.053787977 0.39379483 4294901760
0.027255952 0.053787977 0.39429486 4294901760
0.027255952 0.053787977 0.39479485 4294901760
0.027255952 0.053787977 0.39529485 4294901760
0.027255952 0.053787977 0.39579484 4294901760
0.027255952 0.053787977 0.39629483 4294901760
0.027255952 0.053787977 0.39679486 4294901760
0.027255952 0.053787977 0.39729485 4294901760
0.027255952 0.053787977 0.39779484 4294901760
0.027255952 0.053787977 0.39829484 4294901760
0.027255952 0.053787977 0.39879483 4294901760
0.027255952 0.053787977 0.39929485 4294901760
0.027255952 0.053787977 0.39979485 4294901760
0.027255952 0.053787977 0.40029484 4294901760
0.027255952 0.053787977 0.40079483 4294901760
0.027255952 0.053787977 0.40129486 4294901760
0.027255952 0.053787977 0.40179485 4294901760
0.027255952 0.053787977 0.40229484 4294901760
0.027255952 0.053787977 0.40279484 4294901760
0.027255952 0.053787977 0.40329486 4294901760
0.027255952 0.053787977 0.40379485 4294901760
0.027255952 0.053787977 0.40429485 4294901760
0.027255952 0.053787977 0.40479484 4294901760
0.027255952 0.053787977 0.40529484 4294901760
0.027255952 0.053787977 0.40579486 4294901760
0.027255952 0.053787977 0.40629485 4294901760
0.027255952 0.053787977 0.40679485 4294901760
0.027255952 0.053787977 0.40729484 4294901760
0.027255952 0.053787977 0.40779483 4294901760
0.027255952 0.053787977 0.40829486 4294901760
0.027255952 0.053787977 0.40879485 4294901760
0.027255952 0.053787977 0.40929484 4294901760
0.027255952 0.053787977 0.40979484 4294901760
0.027255952 0.053787977 0.41029483 4294901760
0.027255952 0.053787977 0.41079485 4294901760
0.027255952 0.053787977 0.41129485 4294901760
0.027255952 0.053787977 0.41179484 4294901760
0.027255952 0.053787977 0.41229483 4294901760
0.027255952 0.053787977 0.41279486 4294901760
0.027255952 0.053787977 0.41329485 4294901760
0.027255952 0.053787977 0.41379485 4294901760
0.027255952 0.053787977 0.41429484 4294901760
0.027255952 0.053787977 0.41479486 4294901760
0.027255952 0.053787977 0.41529486 4294901760
0.027255952 0.053787977 0.41579485 4294901760
0.027255952 0.053787977 0.41629484 4294901760
0.027255952 0.053787977 0.41679484 4294901760
0.027255952 0.053787977 0.41729486 4294901760
0.027255952 0.053787977 0.41779485 4294901760
0.027255952 0.053787977 0.41829485 4294901760
0.027255952 0.053787977 0.41879484 4294901760
0.027255952 0.053787977 0.41929483 4294901760
0.027255952 0.053787977 0.41979486 4294901760
0.027255952 0.053787977 0.42029485 4294901760
0.027255952 0.053787977 0.42079484 4294901760
0.027255952 0.053787977 0.42129484 4294901760
0.027255952 0.053787977 0.42179486 4294901760
0.027255952 0.053787977 0.42229486 4294901760
0.027255952 0.053787977 0.42279485 4294901760
0.027255952 0.053787977 0.42329484 4294901760
0.027255952 0.053787977 0.42379484 4294901760
0.027255952 0.053787977 0.42429486 4294901760
0.027255952 0.053787977 0.42479485 4294901760
0.027255952 0.053787977 0.42529485 4294901760
0.027255952 0.053787977 0.42579484 4294901760
0.027255952 0.053787977 0.42629486 4294901760
0.027255952 0.053787977 0.42679486 4294901760
0.027255952 0.053787977 0.42729485 4294901760
0.027255952 0.053787977 0.42779484 4294901760
0.027255952 0.053787977 0.42829484 4294901760
0.027255952 0.053787977 0.42879486 4294901760
0.027255952 0.053787977 0.42929485 4294901760
0.027255952 0.053787977 0.42979485 4294901760
0.027255952 0.053787977 0.43029484 4294901760
0.027255952 0.053787977 0.43079486 4294901760
0.027255952 0.053787977 0.43129486 4294901760
0.027255952 0.053787977 0.43179485 4294901760
0.027255952 0.053787977 0.38179484 4278255360
0.027437542 0.053823125 0.38225937 4278255360
0.027619133 0.053858273 0.3827239 4278255360
0.027800722 0.053893417 0.38318843 4278255360
0.027982311 0.053928565 0.38365296 4278255360
0.028163902 0.053963713 0.38411748 4278255360
0.028345492 0.053998861 0.38458204 4278255360
0.028527081 0.054034006 0.38504657 4278255360
0.028708672 0.054069154 0.3855111 4278255360
0.028890261 0.054104302 0.38597563 4278255360
0.029071851 0.05413945 0.38644016 4278255360
0.029253442 0.054174595 0.38690469 4278255360
0.029435031 0.054209743 0.38736922 4278255360
0.02961662 0.054244891 0.38783374 4278255360
0.029798212 0.054280039 0.38829827 4278255360
0.029979801 0.054315183 0.38876283 4278255360
0.03016139 0.054350331 0.38922736 4278255360
0.030342981 0.05438548 0.38969189 4278255360
0.03052457 0.054420628 0.39015642 4278255360
0.03070616 0.054455772 0.39062095 4278255360
0.030887751 0.05449092 0.39108548 4278255360
0.03106934 0.054526068 0.39155 4278255360
0.031250931 0.054561216 0.39201453 4278255360
0.031432521 0.054596361 0.39247906 4278255360
0.03161411 0.054631509 0.39294359 4278255360
0.031795699 0.054666657 0.39340812 4278255360
0.031977288 0.054701805 0.39387268 4278255360
0.032158881 0.054736953 0.39433721 4278255360
0.032340471 0.054772098 0.39480174 4278255360
0.03252206 0.054807246 0.39526626 4278255360
0.032703649 0.054842394 0.39573079 4278255360
0.032885239 0.054877542 0.39619532 4278255360
0.033066828 0.054912686 0.39665985 4278255360
0.033248421 0.054947834 0.39712438 4278255360
0.03343001 0.054982983 0.39758891 4278255360
0.033611599 0.055018131 0.39805347 4278255360
0.033793189 0.055053275 0.398518 4278255360
