# .PCD v0.7 - Point Cloud Data file format
VERSION 0.7
FIELDS x y z rgb
SIZE 4 4 4 4
TYPE F F F U
COUNT 1 1 1 1
WIDTH 924
HEIGHT 1
VIEWPOINT 0 0 0 1 0 0 0
POINTS 924
DATA ascii
-0.06092044 0.010899303 0.49500003 4281285940
-0.060797367 0.01248234 0.49400002 4281614390
-0.059312679 0.012507609 0.49500003 4281417778
-0.056097154 0.012507609 0.49500003 4281549110
-0.049565777 0.01248234 0.49400002 4280109871
-0.047961261 0.01248234 0.49400002 4279717934
-0.046450593 0.012507609 0.49500003 4279456808
-0.044933423 0.012532877 0.49600002 4279523371
-0.043497097 0.012583412 0.49800003 4279917877
-0.042047784 0.012633948 0.5 4283863922
-0.040504631 0.012659216 0.50100005 4280641862
-0.039032582 0.012709752 0.50300002 4280182078
-0.037473191 0.012735019 0.50400001 4280313151
-0.035907295 0.012760287 0.505 4279983672
-0.034267057 0.012760287 0.505 4279850803
-0.032626819 0.012760287 0.505 4280442940
-0.030986575 0.012760287 0.505 4280836161
-0.029346334 0.012760287 0.505 4281361991
-0.02776096 0.012785556 0.50600004 4282019151
-0.060797367 0.014087398 0.49400002 4280299043
-0.059192851 0.014087398 0.49400002 4281417524
-0.057588339 0.014087398 0.49400002 4281220145
-0.055983827 0.014087398 0.49400002 4281483571
-0.054379314 0.014087398 0.49400002 4281483571
-0.052667972 0.014058881 0.49300003 4281418292
-0.051066704 0.014058881 0.49300003 4280761130
-0.049565777 0.014087398 0.49400002 4280108842
-0.047961261 0.014087398 0.49400002 4279716648
-0.046450593 0.014115916 0.49500003 4279323426
-0.044933423 0.014144432 0.49600002 4279258144
-0.043497097 0.014201466 0.49800003 4279325990
-0.041963689 0.014229983 0.49900001 4279523887
-0.040504631 0.014287017 0.50100005 4279195433
-0.038954984 0.014315534 0.50200003 4279854131
-0.037473191 0.014372568 0.50400001 4279919924
-0.035836194 0.014372568 0.50400001 4279854133
-0.034267057 0.014401084 0.505 4279327019
-0.032626819 0.014401084 0.505 4279524398
-0.030986575 0.014401084 0.505 4279459377
-0.029404448 0.014429603 0.50600004 4280051514
-0.02776096 0.014429603 0.50600004 4280116537
-0.026169086 0.014458119 0.50700003 4280313916
-0.060674299 0.015660688 0.49300003 4281153841
-0.059192851 0.015692456 0.49400002 4281088559
-0.057588339 0.015692456 0.49400002 4280233250
-0.055870499 0.015660688 0.49300003 4281285677
-0.054269236 0.015660688 0.49300003 4281088811
-0.052667972 0.015660688 0.49300003 4281088809
-0.051066704 0.015660688 0.49300003 4281352749
-0.04946544 0.015660688 0.49300003 4280239653
-0.047961261 0.015692456 0.49400002 4280044584
-0.046450593 0.015724221 0.49500003 4279718186
-0.044933423 0.015755987 0.49600002 4279718184
-0.043497097 0.01581952 0.49800003 4279456806
-0.041963689 0.015851285 0.49900001 4279391785
-0.040504631 0.015914818 0.50100005 4279327019
-0.038954984 0.015946584 0.50200003 4279721777
-0.037398838 0.015978349 0.50300002 4279393582
-0.035836194 0.016010115 0.50400001 4279130408
-0.034267057 0.01604188 0.505 4279722029
-0.032626819 0.01604188 0.505 4279458857
-0.031047937 0.016073648 0.50600004 4279196201
-0.029404448 0.016073648 0.50600004 4279196201
-0.027815823 0.016105415 0.50700003 4279130921
-0.026220702 0.016137181 0.50800002 4278933542
-0.024619082 0.016168946 0.509 4278933542
-0.02305609 0.016232479 0.51100004 4279130921
-0.021438234 0.016264245 0.51200002 4279065128
-0.019813878 0.01629601 0.51300001 4279590959
-0.018183028 0.016327776 0.514 4279130408
-0.016545685 0.016359543 0.51500005 4279459888
-0.014930722 0.016423075 0.51700002 4279788853
-0.013277137 0.01645484 0.51800001 4279854133
-0.011617057 0.016486609 0.51900005 4280183100
-0.0099504786 0.016518375 0.52000004 4280116024
-0.0082774051 0.01655014 0.52100003 4280704829
-0.006597836 0.016581906 0.52200001 4281296198
-0.060674299 0.017262496 0.49300003 4281088813
-0.059192851 0.01729751 0.49400002 4280759594
-0.057471767 0.017262496 0.49300003 4280693801
-0.055870499 0.017262496 0.49300003 4280825126
-0.054269236 0.017262496 0.49300003 4280561954
-0.051066704 0.017262496 0.49300003 4280695587
-0.04946544 0.017262496 0.49300003 4280239653
-0.047961261 0.01729751 0.49400002 4279847205
-0.046450593 0.017332526 0.49500003 4279718184
-0.044933423 0.017367542 0.49600002 4279586596
-0.043409754 0.017402556 0.49700001 4279521316
-0.041963689 0.017472588 0.49900001 4279194404
-0.040423781 0.017507602 0.5 4279195431
-0.038954984 0.017577633 0.50200003 4280116020
-0.037398838 0.017612647 0.50300002 4279787570
-0.035836194 0.017647663 0.50400001 4279327019
-0.034267057 0.017682677 0.505 4279327271
-0.032626819 0.017682677 0.505 4278800412
-0.031047937 0.017717695 0.50600004 4278929951
-0.029404448 0.017717695 0.50600004 4279457578
-0.027815823 0.017752709 0.50700003 4278472478
-0.026220702 0.017787723 0.50800002 4279130408
-0.024667453 0.017857755 0.51000005 4279064615
-0.02305609 0.01789277 0.51100004 4279130408
-0.021480104 0.0179628 0.51300001 4278998822
-0.019852502 0.017997814 0.514 4279064615
-0.018218406 0.018032832 0.51500005 4279328041
-0.016577812 0.018067846 0.51600003 4278999076
-0.014959602 0.018137876 0.51800001 4278999589
-0.01330277 0.018172892 0.51900005 4279065382
-0.01163944 0.018207908 0.52000004 4278934566
-0.0099887494 0.018277936 0.52200001 4279328300
-0.0083091799 0.018312952 0.523 4279459886
-0.0066231154 0.018347967 0.52400005 4278933544
-0.0049399454 0.018417997 0.52600002 4279984949
-0.003243783 0.018488027 0.528 4280116537
-0.060797367 0.018902566 0.49400002 4281154606
-0.059192851 0.018902566 0.49400002 4281154352
-0.057588339 0.018902566 0.49400002 4280561702
-0.055870499 0.018864304 0.49300003 4280890667
-0.054269236 0.018864304 0.49300003 4280430370
-0.052667972 0.018864304 0.49300003 4281418028
-0.051066704 0.018864304 0.49300003 4280696102
-0.04946544 0.018864304 0.49300003 4279845668
-0.047961261 0.018902566 0.49400002 4279650596
-0.046450593 0.018940832 0.49500003 4279585314
-0.044933423 0.018979095 0.49600002 4279849254
-0.043409754 0.019017359 0.49700001 4279652902
-0.041963689 0.019093888 0.49900001 4279654955
-0.040423781 0.019132152 0.5 4279721262
-0.038954984 0.019208683 0.50200003 4280181815
-0.037398838 0.019246945 0.50300002 4280050229
-0.035836194 0.019285209 0.50400001 4279195433
-0.034267057 0.019323474 0.505 4279195685
-0.032626819 0.019323474 0.505 4279523883
-0.031047937 0.01936174 0.50600004 4279192353
-0.029462559 0.019400004 0.50700003 4279784488
-0.027870687 0.019438267 0.50800002 4279258144
-0.026272316 0.019476531 0.509 4279783977
-0.024667453 0.019514797 0.51000005 4279850283
-0.023101209 0.019591324 0.51200002 4279851051
-0.021480104 0.019629588 0.51300001 4279851564
-0.019891128 0.019706119 0.51500005 4279654185
-0.018253781 0.019744383 0.51600003 4279326244
-0.016642066 0.01982091 0.51800001 4279063586
-0.014988483 0.019859176 0.51900005 4278999076
-0.0133284 0.01989744 0.52000004 4279064869
-0.011684206 0.019973967 0.52200001 4278999076
-0.010007884 0.020012232 0.523 4279129892
-0.0083409548 0.020088762 0.52500004 4279458857
-0.0066483943 0.020127025 0.52600002 4279261478
-0.0049587279 0.020203553 0.528 4279064869
-0.0032560702 0.020280082 0.53000003 4279459373
-0.0015462114 0.020433141 0.53400004 4279920439
0.00018892648 0.020509668 0.53600001 4279196203
0.0019334558 0.020547932 0.537 4280050229
-0.060797367 0.020507623 0.49400002 4281220145
-0.059192851 0.020507623 0.49400002 4281483571
-0.057588339 0.020507623 0.49400002 4280430370
-0.055983827 0.020507623 0.49400002 4281219886
-0.054379314 0.020507623 0.49400002 4281483569
-0.052774802 0.020507623 0.49400002 4281681198
-0.051170286 0.020507623 0.49400002 4280499491
-0.049565777 0.020507623 0.49400002 4279913768
-0.047961261 0.020507623 0.49400002 4279058972
-0.046450593 0.020549137 0.49500003 4279388703
-0.044933423 0.02059065 0.49600002 4279652389
-0.043409754 0.020632163 0.49700001 4279718695
-0.041963689 0.02071519 0.49900001 4279522086
-0.040423781 0.020756703 0.5 4279063847
-0.038877383 0.020798218 0.50100005 4279261226
-0.037324488 0.02083973 0.50200003 4279195433
-0.035765093 0.020881243 0.50300002 4279129640
-0.034199201 0.020922758 0.50400001 4279261226
-0.032626819 0.02096427 0.505 4278536476
-0.031047937 0.021005785 0.50600004 4278203660
-0.029462559 0.021047298 0.50700003 4279257121
-0.027870687 0.021088811 0.50800002 4278789648
-0.026272316 0.021130323 0.509 4279117586
-0.024715818 0.021213353 0.51100004 4279051025
-0.023146328 0.021296378 0.51300001 4278986004
-0.021521976 0.021337891 0.514 4278854929
-0.01992975 0.021420918 0.51600003 4278196482
-0.018289156 0.021462431 0.51700002 4278201093
-0.016674194 0.02154546 0.51900005 4278200068
-0.015017362 0.021586973 0.52000004 4278199040
-0.013379663 0.021669999 0.52200001 4278202380
-0.01170659 0.021711512 0.523 4278204433
-0.010046156 0.021794539 0.52500004 4279718184
-0.0083568422 0.021836052 0.52600002 4279783975
-0.0066736727 0.021919077 0.528 4279981867
-0.0049775112 0.022002107 0.53000003 4280180016
-0.0032683571 0.022085132 0.53200001 4279587879
-0.0015491069 0.022209672 0.53500003 4279654955
0.00018927896 0.0222927 0.537 4279194918
0.0019370564 0.022334214 0.53800005 4279326504
0.0036981781 0.02241724 0.54000002 4279260711
0.0054621953 0.022458753 0.54100001 4280438325
-0.0625282 0.022157442 0.49500003 4281023020
-0.06092044 0.022157442 0.49500003 4281614644
-0.059312679 0.022157442 0.49500003 4281548851
-0.057704918 0.022157442 0.49500003 4281154093
-0.056097154 0.022157442 0.49500003 4281483058
-0.054379314 0.022112679 0.49400002 4281614642
-0.052774802 0.022112679 0.49400002 4281550128
-0.051170286 0.022112679 0.49400002 4279909151
-0.049565777 0.022112679 0.49400002 4279585062
-0.04805835 0.022157442 0.49500003 4279585316
-0.046450593 0.022157442 0.49500003 4279323939
-0.044933423 0.022202205 0.49600002 4279784490
-0.043409754 0.022246966 0.49700001 4279653674
-0.041963689 0.022336492 0.49900001 4279522601
-0.040423781 0.022381254 0.5 4279392297
-0.038877383 0.022426018 0.50100005 4279523883
-0.037324488 0.02247078 0.50200003 4279195433
-0.035765093 0.022515543 0.50300002 4279721779
-0.034199201 0.022560304 0.50400001 4279326506
-0.032626819 0.022605065 0.505 4279916848
-0.031047937 0.02264983 0.50600004 4280770874
-0.029462559 0.022694593 0.50700003 4278202893
-0.027870687 0.022739355 0.50800002 4279118103
-0.026323933 0.022828881 0.51000005 4279183383
-0.024715818 0.022873642 0.51100004 4280104485
-0.023146328 0.022963166 0.51300001 4278986004
-0.021563848 0.023052692 0.51500005 4278985234
-0.019968374 0.023142217 0.51700002 4279183894
-0.018324532 0.02318698 0.51800001 4279783463
-0.016706323 0.023276506 0.52000004 4280112942
-0.015046241 0.023321267 0.52100003 4279586346
-0.013405294 0.023410792 0.523 4280046897
-0.011751357 0.023500318 0.52500004 4279849518
-0.010065292 0.023545079 0.52600002 4280244530
-0.0083886171 0.023634603 0.528 4280441395
-0.0066989521 0.023724129 0.53000003 4280374832
-0.0049962942 0.023813654 0.53200001 4279914027
-0.0032806445 0.02390318 0.53400004 4279914027
-0.0015548979 0.024037465 0.537 4279124513
0.00018963145 0.02408223 0.53800005 4278862111
0.0019406568 0.024126993 0.53900003 4279325992
0.0037050266 0.024216516 0.54100001 4279391785
0.0054621953 0.024216516 0.54100001 4279518506
-0.062654518 0.02381376 0.49600002 4281483058
-0.061043512 0.02381376 0.49600002 4281811253
-0.059432499 0.02381376 0.49600002 4281680437
-0.056210481 0.02381376 0.49600002 4281548597
-0.052881636 0.02376575 0.49500003 4281353778
-0.051273871 0.02376575 0.49500003 4280238631
-0.049666114 0.02376575 0.49500003 4279716137
-0.048155438 0.02381376 0.49600002 4279520039
-0.046544429 0.02381376 0.49600002 4279521318
-0.045024011 0.023861771 0.49700001 4279718697
-0.043497097 0.023909785 0.49800003 4279456808
-0.041963689 0.023957795 0.49900001 4279523371
-0.040423781 0.024005806 0.5 4279786543
-0.038877383 0.024053819 0.50100005 4279523885
-0.037324488 0.024101831 0.50200003 4279261226
-0.035765093 0.024149843 0.50300002 4279261228
-0.034199201 0.024197852 0.50400001 4279326508
-0.032626819 0.024245864 0.505 4278666011
-0.031047937 0.024293877 0.50600004 4280177453
-0.029462559 0.024341889 0.50700003 4278198018
-0.027925549 0.02443791 0.509 4281159479
-0.026323933 0.024485925 0.51000005 4281225272
-0.024764186 0.024581946 0.51200002 4280764723
-0.023191446 0.024677968 0.514 4278329869
-0.021605721 0.024773993 0.51600003 4280039715
-0.019968374 0.024822004 0.51700002 4280238377
-0.018359909 0.024918029 0.51900005 4279058970
-0.01673845 0.025014052 0.52100003 4278200328
-0.01507512 0.025062062 0.52200001 4278533144
-0.013430927 0.025158087 0.52400005 4278598937
-0.011773741 0.02525411 0.52600002 4278533658
-0.010084427 0.02530212 0.52700001 4279521066
-0.0084045054 0.025398144 0.52900004 4279981871
-0.0067115915 0.025494168 0.53100002 4279850283
-0.0050150775 0.025638202 0.53400004 4279652904
-0.0032929312 0.025734225 0.53600001 4279390502
-0.0015577936 0.02583025 0.53800005 4279521066
0.00018998391 0.02587826 0.53900003 4278797345
0.0019442573 0.025926271 0.54000002 4279259947
0.0037050266 0.025974283 0.54100001 4279326254
0.0054722922 0.026022296 0.54200006 4279059240
-0.057938065 0.025476575 0.49700001 4283851604
-0.052988466 0.025425315 0.49600002 4280499754
-0.051377457 0.025425315 0.49600002 4280239914
-0.049766447 0.025425315 0.49600002 4279913516
-0.048155438 0.025425315 0.49600002 4279520039
-0.046638269 0.025476575 0.49700001 4279521318
-0.045024011 0.025476575 0.49700001 4279587881
-0.043497097 0.025527837 0.49800003 4279786543
-0.041963689 0.025579097 0.49900001 4279260199
-0.040423781 0.025630357 0.5 4279655471
-0.038877383 0.02568162 0.50100005 4279523885
-0.037324488 0.02573288 0.50200003 4279326506
-0.035765093 0.02578414 0.50300002 4279327019
-0.034199201 0.0258354 0.50400001 4279260713
-0.032626819 0.02588666 0.505 4278201866
-0.031047937 0.025937922 0.50600004 4280966202
-0.029462559 0.025989184 0.50700003 4278265870
-0.027925549 0.026091704 0.509 4278526480
-0.026323933 0.026142966 0.51000005 4279052822
-0.024764186 0.026245486 0.51200002 4279447580
-0.023191446 0.026348006 0.514 4279579166
-0.021605721 0.02645053 0.51600003 4280699698
-0.020006998 0.02655305 0.51800001 4281358395
-0.018395284 0.026655573 0.52000004 4278200329
-0.01673845 0.026706833 0.52100003 4279185689
-0.015104 0.026809353 0.523 4279518758
-0.013430927 0.026860617 0.52400005 4278729753
-0.011773741 0.026963137 0.52600002 4280638522
-0.010103562 0.027065657 0.528 4279454248
-0.0084203929 0.027168179 0.53000003 4278795035
-0.0067242309 0.027270699 0.53200001 4279256099
-0.005024469 0.027424483 0.53500003 4278663962
-0.0032990747 0.027527003 0.537 4279650857
-0.0015606891 0.027629526 0.53900003 4280046897
0.00019033639 0.027680786 0.54000002 4280113203
0.0019478577 0.027732046 0.54100001 4279063336
0.0037118753 0.02778331 0.54200006 4279194922
0.0054722922 0.02778331 0.54200006 4279452713
-0.05470955 0.027091378 0.49700001 4283786838
-0.053095296 0.027091378 0.49700001 4280435497
-0.051481038 0.027091378 0.49700001 4280240426
-0.049866781 0.027091378 0.49700001 4279979820
-0.048252523 0.027091378 0.49700001 4279388967
-0.046732109 0.027145889 0.49800003 4279390504
-0.045114607 0.027145889 0.49800003 4279587881
-0.04358444 0.027200399 0.49900001 4279457578
-0.042047784 0.027254907 0.5 4279523371
-0.040504631 0.02730942 0.50100005 4279523883
-0.038954984 0.027363928 0.50200003 4279523883
-0.037398838 0.027418438 0.50300002 4279260711
-0.035765093 0.027418438 0.50300002 4279392297
-0.034199201 0.027472947 0.50400001 4279457578
-0.032626819 0.027527457 0.505 4279192101
-0.031047937 0.027581969 0.50600004 4280505651
-0.029462559 0.027636478 0.50700003 4278462990
-0.027925549 0.027745496 0.509 4279183129
-0.026323933 0.027800009 0.51000005 4279183129
-0.024764186 0.027909027 0.51200002 4278984982
-0.023191446 0.028018044 0.514 4279313945
-0.021605721 0.028127067 0.51600003 4278920724
-0.020006998 0.028236084 0.51800001 4280898104
-0.018395284 0.028345106 0.52000004 4280043047
-0.01673845 0.028399615 0.52100003 4280042535
-0.015104 0.028508633 0.523 4280045867
-0.013456558 0.028617654 0.52500004 4280375600
-0.011773741 0.028672164 0.52600002 4280047147
-0.010103562 0.028781181 0.528 4279849768
-0.0084362803 0.028944712 0.53100002 4279980074
-0.0067368713 0.029053735 0.53300005 4279585316
-0.005024469 0.029162752 0.53500003 4280045613
-0.0032990747 0.02927177 0.537 4278729755
-0.0015606891 0.029380793 0.53900003 4280440371
0.00019068885 0.02948981 0.54100001 4280178483
0.0019514584 0.029544322 0.54200006 4279326256
0.0037118753 0.029544322 0.54200006 4279523635
0.0054823887 0.029598832 0.54300004 4283002968
-0.049967118 0.028763942 0.49800003 4280045615
-0.048349611 0.028763942 0.49800003 4279586346
-0.046732109 0.028763942 0.49800003 4279718445
-0.045205195 0.028821699 0.49900001 4279719469
-0.04358444 0.028821699 0.49900001 4279917359
-0.042047784 0.028879458 0.5 4279852336
-0.040504631 0.028937221 0.50100005 4279655471
-0.038954984 0.028994977 0.50200003 4279326506
-0.037398838 0.029052736 0.50300002 4279589678
-0.035836194 0.029110495 0.50400001 4279326506
-0.034267057 0.029168252 0.505 4278207256
-0.032626819 0.029168252 0.505 4278468378
-0.031047937 0.029226014 0.50600004 4280047664
-0.029462559 0.029283771 0.50700003 4280179248
-0.027925549 0.029399289 0.509 4279454248
-0.026323933 0.029457049 0.51000005 4280506682
-0.024764186 0.029572567 0.51200002 4280111408
-0.023191446 0.029688083 0.514 4280637239
-0.021605721 0.029803602 0.51600003 4280307502
-0.020006998 0.02991912 0.51800001 4279321379
-0.018395284 0.030034639 0.52000004 4279124000
-0.01673845 0.030092398 0.52100003 4278925338
-0.015104 0.030207913 0.523 4278530580
-0.013456558 0.030323433 0.52500004 4278200330
-0.011796124 0.03043895 0.52700001 4278198528
-0.010122699 0.03055447 0.52900004 4278200326
-0.0084362803 0.030669985 0.53100002 4278201866
-0.0067368713 0.030785505 0.53300005 4278200327
-0.0050338604 0.030958779 0.53600001 4278200585
-0.0033052186 0.0310743 0.53800005 4278597402
-0.0015635845 0.031189816 0.54000002 4278203154
0.00019068885 0.031247575 0.54100001 4279850031
0.0019514584 0.031305335 0.54200006 4279522351
0.0037187238 0.031363092 0.54300004 4280179768
0.0054823887 0.031363092 0.54300004 4287672736
-0.049967118 0.030381994 0.49800003 4280108590
-0.048349611 0.030381994 0.49800003 4280372784
-0.046825945 0.030443002 0.49900001 4280441141
-0.045205195 0.030443002 0.49900001 4280047410
-0.043671783 0.030504009 0.5 4279851568
-0.042131882 0.03056502 0.50100005 4279391787
-0.040504631 0.03056502 0.50100005 4279260715
-0.038954984 0.030626027 0.50200003 4279589678
-0.037398838 0.030687034 0.50300002 4279523885
-0.035836194 0.030748041 0.50400001 4279326506
-0.034267057 0.030809049 0.505 4279654959
-0.032691427 0.03087006 0.50600004 4280048947
-0.031047937 0.03087006 0.50600004 4279653935
-0.029462559 0.030931067 0.50700003 4279785775
-0.027925549 0.031053081 0.509 4279851053
-0.026323933 0.031114092 0.51000005 4279587881
-0.024764186 0.031236107 0.51200002 4279654189
-0.023191446 0.031358119 0.514 4279654189
-0.021605721 0.031480137 0.51600003 4279654187
-0.020006998 0.031602152 0.51800001 4279654187
-0.018359909 0.031663164 0.51900005 4279719469
-0.01673845 0.031785179 0.52100003 4279719469
-0.015104 0.031907193 0.523 4279916848
-0.013456558 0.032029212 0.52500004 4279653676
-0.011773741 0.032090217 0.52600002 4279915563
-0.010122699 0.032273244 0.52900004 4279915563
-0.0084362803 0.032395259 0.53100002 4280112942
-0.0067368713 0.032517277 0.53300005 4279783979
-0.0050338604 0.032700296 0.53600001 4279850031
-0.0033052186 0.032822315 0.53800005 4280310584
-0.0015635845 0.032944329 0.54000002 4279784238
0.00019068885 0.033005338 0.54100001 4279784238
0.0019514584 0.033066347 0.54200006 4279785521
0.0037187238 0.033127356 0.54300004 4279256869
-0.045205195 0.032064304 0.49900001 4280175155
-0.040585477 0.032257076 0.50200003 4279848754
-0.037398838 0.032321334 0.50300002 4280178485
-0.035836194 0.032385591 0.50400001 4280178485
-0.034267057 0.032449845 0.505 4280047412
-0.032691427 0.032514106 0.50600004 4279981619
-0.031047937 0.032514106 0.50600004 4280113205
-0.029462559 0.032578364 0.50700003 4279981619
-0.027925549 0.032706875 0.509 4279784240
-0.026323933 0.032771137 0.51000005 4279916596
-0.024764186 0.032899648 0.51200002 4279785523
-0.023191446 0.033028159 0.514 4279785521
-0.021605721 0.033156678 0.51600003 4279390763
-0.019968374 0.033220932 0.51700002 4279851314
-0.018359909 0.033349451 0.51900005 4279917107
-0.01673845 0.033477962 0.52100003 4279653935
-0.015104 0.033606477 0.523 4279785521
-0.013430927 0.033670735 0.52400005 4279588142
-0.011773741 0.03379925 0.52600002 4279588142
-0.010103562 0.033927761 0.528 4279785521
-0.0084362803 0.034120534 0.53100002 4279851055
-0.0067368713 0.034249049 0.53300005 4279719469
-0.0050338604 0.034441818 0.53600001 4279982641
-0.0033113621 0.03463459 0.53900003 4279916594
-0.0015635845 0.034698848 0.54000002 4280113205
0.00019104134 0.034827363 0.54200006 4280047412
0.0019550589 0.03489162 0.54300004 4279846188
0.0037187238 0.03489162 0.54300004 4286949265
-0.035836194 0.034023136 0.50400001 4286553224
-0.034267057 0.034090642 0.505 4285304442
-0.032691427 0.034158152 0.50600004 4284384110
-0.031109296 0.034225658 0.50700003 4282673238
-0.029462559 0.034225658 0.50700003 4282212171
-0.027925549 0.03436067 0.509 4282147148
-0.026323933 0.034428179 0.51000005 4281818696
-0.024764186 0.034563188 0.51200002 4280766520
-0.023191446 0.034698199 0.514 4280700725
-0.021563848 0.034765709 0.51500005 4280569909
-0.019968374 0.034900717 0.51700002 4280767288
-0.018359909 0.035035733 0.51900005 4280767801
-0.01673845 0.035170745 0.52100003 4280044850
-0.015104 0.035305757 0.523 4280505401
-0.013430927 0.035373263 0.52400005 4280505401
-0.011773741 0.035508275 0.52600002 4281029692
-0.010103562 0.035643287 0.528 4281423936
-0.0084362803 0.035845805 0.53100002 4281620802
-0.0067368713 0.035980821 0.53300005 4282212939
-0.0050338604 0.036183339 0.53600001 4283791971
-0.0033113621 0.036385857 0.53900003 4284844659
-0.00156648 0.036520869 0.54100001 4286422921
0.00019104134 0.036588378 0.54200006 4287146644
0.0019550589 0.036655884 0.54300004 4287539616
-0.0033175056 0.038207877 0.54000002 4287539353
-0.00156648 0.038278632 0.54100001 4287473560
0.00019104134 0.03834939 0.54200006 4287210388
0.19601312 0.14880759 0.45000002 4282138163
0.19747472 0.14880759 0.45000002 4281808943
0.19893633 0.14880759 0.45000002 4282137654
0.20039791 0.14880759 0.45000002 4282006074
0.20185952 0.14880759 0.45000002 4282203706
0.19601312 0.15026967 0.45000002 4281743150
0.19747472 0.15026967 0.45000002 4281809200
0.19893633 0.15026967 0.45000002 4281809200
0.20039791 0.15026967 0.45000002 4281743155
0.20185952 0.15026967 0.45000002 4281808948
0.19601312 0.15173176 0.45000002 4281611567
0.19747472 0.15173176 0.45000002 4281480235
0.19893633 0.15173176 0.45000002 4281611821
0.20039791 0.15173176 0.45000002 4281545774
0.20185952 0.15173176 0.45000002 4281611567
0.20332111 0.15173176 0.45000002 4281611312
0.19455151 0.15319386 0.45000002 4281545776
0.19601312 0.15319386 0.45000002 4281348397
0.19747472 0.15319386 0.45000002 4281217581
0.19893633 0.15319386 0.45000002 4281349165
0.20039791 0.15319386 0.45000002 4281546028
0.20185952 0.15319386 0.45000002 4281348392
0.20332111 0.15319386 0.45000002 4281743150
0.19455151 0.15465596 0.45000002 4281217328
0.19601312 0.15465596 0.45000002 4281875258
0.19747472 0.15465596 0.45000002 4281216558
0.19893633 0.15465596 0.45000002 4281348397
0.20039791 0.15465596 0.45000002 4281545517
0.20185952 0.15465596 0.45000002 4281545517
0.20332111 0.15465596 0.45000002 4281216552
0.19601312 0.15611807 0.45000002 4281348144
0.19747472 0.15611807 0.45000002 4281151018
0.19893633 0.15611807 0.45000002 4281216811
0.20039791 0.15611807 0.45000002 4281282345
0.20185952 0.15611807 0.45000002 4280887587
0.20332111 0.15611807 0.45000002 4281019430
0.19747472 0.15758015 0.45000002 4281744695
0.19893633 0.15758015 0.45000002 4281284142
0.20039791 0.15758015 0.45000002 4281349165
0.20185952 0.15758015 0.45000002 4281348395
-0.010474608 0.033984732 0.5071277 4294967295
-0.010474608 0.033984732 0.5071277 4294901760
-0.010220435 0.033593018 0.50730646 4294901760
-0.0099662617 0.033201303 0.50748521 4294901760
-0.0097120889 0.032809589 0.50766397 4294901760
-0.009457916 0.032417875 0.50784278 4294901760
-0.0092037432 0.032026161 0.50802153 4294901760
-0.0089495704 0.031634446 0.50820029 4294901760
-0.0086953966 0.031242734 0.50837904 4294901760
-0.0084412238 0.03085102 0.5085578 4294901760
-0.00818705 0.030459305 0.50873655 4294901760
-0.0079328772 0.030067591 0.50891531 4294901760
-0.0076787043 0.029675879 0.50909412 4294901760
-0.0074245315 0.029284164 0.50927287 4294901760
-0.0071703587 0.02889245 0.50945163 4294901760
-0.0069161849 0.028500736 0.50963038 4294901760
-0.0066620121 0.028109021 0.50980914 4294901760
-0.0064078392 0.027717307 0.50998789 4294901760
-0.0061536659 0.027325593 0.5101667 4294901760
-0.0058994927 0.026933879 0.51034546 4294901760
-0.0056453198 0.026542166 0.51052421 4294901760
-0.0053911465 0.02615045 0.51070297 4294901760
-0.0051369737 0.025758738 0.51088172 4294901760
-0.0048828009 0.025367023 0.51106048 4294901760
-0.0046286276 0.024975309 0.51123923 4294901760
-0.0043744547 0.024583597 0.51141804 4294901760
-0.0041202814 0.024191882 0.5115968 4294901760
-0.0038661086 0.023800168 0.51177555 4294901760
-0.0036119348 0.023408454 0.51195431 4294901760
-0.003357762 0.02301674 0.51213306 4294901760
-0.0031035892 0.022625025 0.51231182 4294901760
-0.0028494159 0.022233311 0.51249063 4294901760
-0.002595243 0.021841597 0.51266938 4294901760
-0.0023410702 0.021449883 0.51284814 4294901760
-0.0020868964 0.021058168 0.51302689 4294901760
-0.0018327236 0.020666454 0.51320565 4294901760
-0.0015785508 0.020274742 0.5133844 4294901760
-0.001324377 0.019883025 0.51356316 4294901760
-0.0010702042 0.019491313 0.51374197 4294901760
-0.00081603136 0.019099601 0.51392072 4294901760
-0.00056185853 0.018707886 0.51409948 4294901760
-0.00030768476 0.01831617 0.51427823 4294901760
-5.3511932e-05 0.017924458 0.51445699 4294901760
0.0002006609 0.017532744 0.51463574 4294901760
0.00045483373 0.017141029 0.5148145 4294901760
0.00070900656 0.016749315 0.51499331 4294901760
0.00096317939 0.016357603 0.51517206 4294901760
0.0012173532 0.015965886 0.51535082 4294901760
0.001471526 0.015574174 0.51552957 4294901760
0.0017256988 0.01518246 0.51570833 4294901760
0.0019798726 0.014790745 0.51588708 4294901760
0.0022340454 0.014399031 0.51606584 4294901760
0.0024882182 0.014007317 0.51624465 4294901760
0.0027423911 0.013615604 0.5164234 4294901760
0.0029965639 0.01322389 0.51660216 4294901760
0.0032507386 0.012832174 0.51678091 4294901760
0.0035049114 0.01244046 0.51695967 4294901760
0.0037590843 0.012048747 0.51713842 4294901760
0.0040132571 0.011657033 0.51731724 4294901760
0.0042674299 0.011265319 0.51749599 4294901760
0.0045216028 0.010873606 0.51767474 4294901760
0.0047757765 0.01048189 0.5178535 4294901760
0.0050299494 0.010090176 0.51803225 4294901760
0.0052841222 0.0096984636 0.51821101 4294901760
0.005538295 0.0093067493 0.51838976 4294901760
0.0057924679 0.0089150351 0.51856858 4294901760
0.0060466407 0.0085233226 0.51874733 4294901760
0.0063008154 0.0081316065 0.51892608 4294901760
0.0065549882 0.0077398922 0.51910484 4294901760
0.006809161 0.007348178 0.51928359 4294901760
0.0070633339 0.0069564655 0.51946235 4294901760
0.0073175067 0.0065647513 0.51964116 4294901760
0.0075716795 0.006173037 0.51981992 4294901760
0.0078258542 0.0057813209 0.51999867 4294901760
0.0080800271 0.0053896084 0.52017742 4294901760
0.0083341999 0.0049978942 0.52035618 4294901760
0.0085883727 0.0046061799 0.52053493 4294901760
0.0088425456 0.0042144675 0.52071369 4294901760
0.0090967184 0.0038227532 0.5208925 4294901760
0.0093508912 0.0034310408 0.52107126 4294901760
0.0096050659 0.0030393247 0.52125001 4294901760
0.0098592388 0.0026476085 0.52142876 4294901760
0.010113412 0.002255898 0.52160752 4294901760
0.010367584 0.0018641837 0.52178627 4294901760
0.010621757 0.0014724694 0.52196503 4294901760
0.01087593 0.0010807551 0.52214384 4294901760
0.011130103 0.00068904087 0.5223226 4294901760
0.011384276 0.00029732659 0.52250135 4294901760
0.011638449 -9.438768e-05 0.5226801 4294901760
0.011892621 -0.00048610196 0.52285886 4294901760
0.012146794 -0.00087781623 0.52303761 4294901760
0.012400967 -0.0012695268 0.52321637 4294901760
0.012655142 -0.0016612448 0.52339518 4294901760
0.012909315 -0.0020529591 0.52357394 4294901760
0.013163487 -0.0024446733 0.52375269 4294901760
0.01341766 -0.0028363839 0.52393144 4294901760
0.013671833 -0.0032280982 0.5241102 4294901760
0.013926006 -0.0036198124 0.52428895 4294901760
0.014180181 -0.0040115304 0.52446777 4294901760
0.014434353 -0.004403241 0.52464652 4294901760
0.014688526 -0.0047949553 0.52482527 4294901760
0.014942699 -0.0051866695 0.52500403 4294901760
-0.010474608 0.033984732 0.5071277 4278255360
-0.010044188 0.034221474 0.50703448 4278255360
-0.0096137682 0.03445822 0.50694126 4278255360
-0.0091833482 0.034694962 0.50684804 4278255360
-0.0087529281 0.034931704 0.50675482 4278255360
-0.0083225081 0.03516845 0.50666159 4278255360
-0.007892088 0.035405193 0.50656837 4278255360
-0.007461668 0.035641935 0.50647509 4278255360
-0.0070312484 0.035878681 0.50638187 4278255360
-0.0066008279 0.036115423 0.50628865 4278255360
-0.0061704083 0.036352165 0.50619543 4278255360
-0.0057399883 0.036588911 0.5061022 4278255360
-0.0053095683 0.036825653 0.50600898 4278255360
-0.0048791482 0.037062399 0.50591576 4278255360
-0.0044487282 0.037299141 0.50582254 4278255360
-0.0040183081 0.037535883 0.50572932 4278255360
-0.0035878886 0.037772629 0.5056361 4278255360
-0.003157468 0.038009372 0.50554287 4278255360
-0.002727048 0.038246114 0.50544965 4278255360
-0.0022966284 0.03848286 0.50535637 4278255360
-0.0018662084 0.038719602 0.50526315 4278255360
-0.0014357883 0.038956344 0.50516993 4278255360
-0.0010053683 0.03919309 0.50507671 4278255360
-0.00057494827 0.039429832 0.50498348 4278255360
-0.00014452823 0.039666574 0.50489026 4278255360
0.00028589182 0.03990332 0.50479704 4278255360
0.00071631186 0.040140063 0.50470382 4278255360
0.0011467319 0.040376805 0.5046106 4278255360
0.0015771519 0.040613551 0.50451738 4278255360
0.002007571 0.040850293 0.50442415 4278255360
0.002437992 0.041087039 0.50433093 4278255360
0.0028684121 0.041323781 0.50423771 4278255360
0.0032988312 0.041560523 0.50414443 4278255360
0.0037292521 0.041797269 0.50405121 4278255360
0.0041596722 0.042034011 0.50395799 4278255360
0.0045900913 0.042270754 0.50386477 4278255360
0.0050205123 0.042507499 0.50377154 4278255360
0.0054509314 0.042744242 0.50367832 4278255360
0.0058813514 0.042980984 0.5035851 4278255360
0.0063117715 0.043217726 0.50349188 4278255360
0.0067421915 0.043454472 0.50339866 4278255360
0.0071726115 0.043691214 0.50330544 4278255360
0.0076030316 0.04392796 0.50321221 4278255360
0.0080334516 0.044164702 0.50311899 4278255360
0.0084638717 0.044401444 0.50302571 4278255360
0.0088942917 0.04463819 0.50293249 4278255360
0.0093247117 0.044874933 0.50283927 4278255360
0.0097551318 0.045111679 0.50274605 4278255360
0.010185552 0.045348421 0.50265282 4278255360
0.010615972 0.045585163 0.5025596 4278255360
0.011046392 0.045821905 0.50246638 4278255360
0.011476812 0.046058651 0.50237316 4278255360
0.011907232 0.046295393 0.50227994 4278255360
0.01233765 0.046532135 0.50218672 4278255360
0.012768072 0.046768881 0.50209349 4278255360
0.013198492 0.047005624 0.50200027 4278255360
0.013628912 0.047242366 0.50190705 4278255360
0.014059332 0.047479112 0.50181377 4278255360
0.01448975 0.047715854 0.50172055 4278255360
0.01492017 0.0479526 0.50162733 4278255360
0.015350592 0.048189342 0.5015341 4278255360
0.015781011 0.048426084 0.50144088 4278255360
0.016211431 0.04866283 0.50134766 4278255360
0.016641852 0.048899572 0.50125444 4278255360
0.017072272 0.049136315 0.50116122 4278255360
0.017502692 0.04937306 0.501068 4278255360
0.017933112 0.049609803 0.50097477 4278255360
0.018363532 0.049846545 0.50088155 4278255360
0.018793952 0.050083291 0.50078833 4278255360
0.019224372 0.050320033 0.50069505 4278255360
0.019654792 0.050556779 0.50060183 4278255360
0.020085212 0.050793521 0.50050861 4278255360
0.020515632 0.051030263 0.50041538 4278255360
0.020946052 0.051267006 0.50032216 4278255360
0.021376472 0.051503751 0.50022894 4278255360
0.021806892 0.051740494 0.50013572 4278255360
0.022237312 0.05197724 0.5000425 4278255360
0.022667732 0.052213982 0.49994928 4278255360
0.023098152 0.052450724 0.49985605 4278255360
0.023528572 0.05268747 0.4997628 4278255360
0.023958992 0.052924212 0.49966958 4278255360
0.024389412 0.053160958 0.49957636 4278255360
0.024819832 0.0533977 0.49948314 4278255360
0.025250252 0.053634442 0.49938992 4278255360
0.025680672 0.053871185 0.49929669 4278255360
0.026111092 0.054107931 0.49920344 4278255360
0.026541512 0.054344673 0.49911022 4278255360
0.026971933 0.054581419 0.499017 4278255360
0.027402353 0.054818161 0.49892378 4278255360
0.027832773 0.055054903 0.49883056 4278255360
0.028263193 0.055291645 0.49873734 4278255360
0.028693613 0.055528391 0.49864408 4278255360
0.029124033 0.055765137 0.49855086 4278255360
0.029554453 0.056001879 0.49845764 4278255360
0.029984873 0.056238621 0.49836442 4278255360
0.030415293 0.056475364 0.4982712 4278255360
0.030845713 0.056712106 0.49817798 4278255360
0.031276133 0.056948852 0.49808472 4278255360
0.031706553 0.057185598 0.4979915 4278255360
0.032136973 0.05742234 0.49789828 4278255360
0.032567393 0.057659082 0.49780506 4278255360
-0.010474608 0.033984732 0.5071277 4278190335
-0.010766584 0.0339805 0.50753355 4278190335
-0.011058562 0.033976268 0.50793946 4278190335
-0.011350539 0.033972036 0.50834531 4278190335
-0.011642515 0.033967804 0.50875121 4278190335
-0.011934492 0.033963572 0.50915706 4278190335
-0.012226468 0.03395934 0.50956291 4278190335
-0.012518445 0.033955108 0.50996882 4278190335
-0.012810421 0.033950876 0.51037467 4278190335
-0.013102398 0.033946645 0.51078057 4278190335
-0.013394374 0.033942409 0.51118642 4278190335
-0.013686351 0.033938177 0.51159227 4278190335
-0.013978328 0.033933945 0.51199818 4278190335
-0.014270304 0.033929713 0.51240402 4278190335
-0.014562281 0.033925481 0.51280987 4278190335
-0.014854258 0.033921249 0.51321578 4278190335
-0.015146234 0.033917017 0.51362163 4278190335
-0.015438211 0.033912785 0.51402754 4278190335
-0.015730187 0.033908553 0.51443338 4278190335
-0.016022164 0.033904321 0.51483923 4278190335
-0.016314141 0.03390009 0.51524514 4278190335
-0.016606117 0.033895858 0.51565099 4278190335
-0.016898094 0.033891626 0.5160569 4278190335
-0.017190071 0.033887394 0.51646274 4278190335
-0.017482048 0.033883162 0.51686859 4278190335
-0.017774023 0.03387893 0.5172745 4278190335
-0.018066 0.033874698 0.51768035 4278190335
-0.018357977 0.033870466 0.51808625 4278190335
-0.018649954 0.033866234 0.5184921 4278190335
-0.018941931 0.033862002 0.51889795 4278190335
-0.019233909 0.03385777 0.51930386 4278190335
-0.019525884 0.033853535 0.51970971 4278190335
-0.019817859 0.033849303 0.52011555 4278190335
-0.020109838 0.033845071 0.52052146 4278190335
-0.020401813 0.033840839 0.52092731 4278190335
-0.02069379 0.033836607 0.52133322 4278190335
-0.020985767 0.033832375 0.52173907 4278190335
-0.021277744 0.033828143 0.52214491 4278190335
-0.021569721 0.033823911 0.52255082 4278190335
-0.021861697 0.033819679 0.52295667 4278190335
-0.022153674 0.033815447 0.52336258 4278190335
-0.022445649 0.033811215 0.52376842 4278190335
-0.022737626 0.033806983 0.52417427 4278190335
-0.023029603 0.033802751 0.52458018 4278190335
-0.02332158 0.03379852 0.52498603 4278190335
-0.023613557 0.033794288 0.52539194 4278190335
-0.023905534 0.033790056 0.52579778 4278190335
-0.02419751 0.033785824 0.52620363 4278190335
-0.024489487 0.033781592 0.52660954 4278190335
-0.024781464 0.03377736 0.52701539 4278190335
-0.025073439 0.033773124 0.52742124 4278190335
-0.025365416 0.033768892 0.52782714 4278190335
-0.025657393 0.03376466 0.52823299 4278190335
-0.02594937 0.033760428 0.5286389 4278190335
-0.026241347 0.033756196 0.52904475 4278190335
-0.026533324 0.033751965 0.5294506 4278190335
-0.026825301 0.033747733 0.5298565 4278190335
-0.027117275 0.033743501 0.53026235 4278190335
-0.027409252 0.033739269 0.53066826 4278190335
-0.027701229 0.033735037 0.53107411 4278190335
-0.027993206 0.033730805 0.53147995 4278190335
-0.028285183 0.033726573 0.53188586 4278190335
-0.02857716 0.033722341 0.53229171 4278190335
-0.028869137 0.033718109 0.53269762 4278190335
-0.029161111 0.033713877 0.53310347 4278190335
-0.029453088 0.033709645 0.53350931 4278190335
-0.029745068 0.033705413 0.53391522 4278190335
-0.030037042 0.033701181 0.53432107 4278190335
-0.030329019 0.033696949 0.53472698 4278190335
-0.030620996 0.033692718 0.53513283 4278190335
-0.030912973 0.033688486 0.53553867 4278190335
-0.03120495 0.03368425 0.53594458 4278190335
-0.031496927 0.033680018 0.53635043 4278190335
-0.031788904 0.033675786 0.53675628 4278190335
-0.032080878 0.033671554 0.53716218 4278190335
-0.032372855 0.033667322 0.53756803 4278190335
-0.032664832 0.03366309 0.53797394 4278190335
-0.032956809 0.033658858 0.53837979 4278190335
-0.033248786 0.033654626 0.53878564 4278190335
-0.033540763 0.033650395 0.53919154 4278190335
-0.03383274 0.033646163 0.53959739 4278190335
-0.034124717 0.033641931 0.5400033 4278190335
-0.03441669 0.033637699 0.54040915 4278190335
-0.034708668 0.033633467 0.540815 4278190335
-0.035000645 0.033629235 0.5412209 4278190335
-0.035292622 0.033625003 0.54162675 4278190335
-0.035584599 0.033620771 0.54203266 4278190335
-0.035876576 0.033616539 0.54243851 4278190335
-0.036168553 0.033612307 0.54284436 4278190335
-0.036460526 0.033608075 0.54325026 4278190335
-0.036752503 0.03360384 0.54365611 4278190335
-0.037044484 0.033599608 0.54406202 4278190335
-0.037336458 0.033595376 0.54446787 4278190335
-0.037628435 0.033591144 0.54487371 4278190335
-0.037920412 0.033586912 0.54527962 4278190335
-0.038212389 0.03358268 0.54568547 4278190335
-0.038504366 0.033578448 0.54609132 4278190335
-0.038796343 0.033574216 0.54649723 4278190335
-0.03908832 0.033569984 0.54690307 4278190335
-0.039380293 0.033565752 0.54730898 4278190335
-0.03967227 0.03356152 0.54771483 4278190335
-0.010474608 0.033984732 0.5071277 4294967295
-0.0087227486 0.034010123 0.50469249 4294967295
-0.0069708889 0.034035519 0.50225723 4294967295
-0.0052190293 0.03406091 0.49982202 4294967295
-0.0034671691 0.034086302 0.49738678 4294967295
-0.001715309 0.034111697 0.49495155 4294967295
3.6549754e-05 0.034137089 0.49251634 4294967295
0.0017884104 0.03416248 0.4900811 4294967295
0.00354027 0.034187872 0.48764586 4294967295
0.0052921297 0.034213267 0.48521063 4294967295
0.0070439903 0.034238659 0.48277542 4294967295
0.008795849 0.03426405 0.48034018 4294967295
0.010547708 0.034289446 0.47790495 4294967295
0.012299568 0.034314837 0.47546971 4294967295
0.014051429 0.034340229 0.4730345 4294967295
0.015803289 0.034365624 0.47059926 4294967295
0.017555147 0.034391016 0.46816403 4294967295
0.01930701 0.034416407 0.46572879 4294967295
0.021058869 0.034441803 0.46329358 4294967295
0.022810727 0.034467194 0.46085835 4294967295
0.02456259 0.034492586 0.45842311 4294967295
0.026314449 0.034517981 0.45598787 4294967295
0.028066307 0.034543373 0.45355266 4294967295
0.02981817 0.034568764 0.45111743 4294967295
0.031570025 0.034594156 0.44868219 4294967295
0.033321887 0.034619551 0.44624698 4294967295
0.035073746 0.034644943 0.44381174 4294967295
0.036825608 0.034670334 0.44137651 4294967295
0.038577467 0.03469573 0.43894127 4294967295
0.040329326 0.034721121 0.43650603 4294967295
0.042081188 0.034746513 0.43407083 4294967295
0.043833047 0.034771908 0.43163559 4294967295
0.045584906 0.0347973 0.42920035 4294967295
0.047336768 0.034822691 0.42676514 4294967295
0.049088627 0.034848087 0.42432991 4294967295
0.050840486 0.034873478 0.42189467 4294967295
0.052592345 0.03489887 0.41945943 4294967295
0.054344207 0.034924261 0.4170242 4294967295
0.056096062 0.034949657 0.41458899 4294967295
0.057847925 0.034975048 0.41215375 4294967295
0.059599787 0.03500044 0.40971851 4294967295
0.061351642 0.035025835 0.40728331 4294967295
0.063103504 0.035051227 0.40484807 4294967295
0.064855367 0.035076618 0.40241283 4294967295
0.066607222 0.035102013 0.39997762 4294967295
0.068359084 0.035127405 0.39754239 4294967295
0.070110947 0.035152797 0.39510715 4294967295
0.071862802 0.035178192 0.39267191 4294967295
0.073614657 0.035203584 0.39023668 4294967295
0.075366527 0.035228975 0.38780147 4294967295
0.077118382 0.035254367 0.38536623 4294967295
0.078870237 0.035279762 0.38293099 4294967295
0.080622099 0.035305154 0.38049579 4294967295
0.082373954 0.035330545 0.37806055 4294967295
0.084125824 0.03535594 0.37562531 4294967295
0.085877679 0.035381332 0.37319008 4294967295
0.087629542 0.035406724 0.37075484 4294967295
0.089381397 0.035432119 0.36831963 4294967295
0.091133259 0.035457511 0.36588439 4294967295
0.092885114 0.035482902 0.36344916 4294967295
0.094636984 0.035508297 0.36101395 4294967295
0.096388839 0.035533689 0.35857868 4294967295
0.098140702 0.035559081 0.35614347 4294967295
0.099892557 0.035584476 0.35370827 4294967295
0.10164442 0.035609867 0.35127303 4294967295
0.10339627 0.035635259 0.34883779 4294967295
0.10514814 0.035660651 0.34640256 4294967295
0.1069 0.035686046 0.34396732 4294967295
0.10865186 0.035711437 0.34153211 4294967295
0.11040372 0.035736829 0.33909687 4294967295
0.11215558 0.035762224 0.33666164 4294967295
0.11390743 0.035787616 0.33422643 4294967295
0.1156593 0.035813008 0.33179116 4294967295
0.11741117 0.035838403 0.32935596 4294967295
0.11916302 0.035863794 0.32692072 4294967295
0.12091488 0.035889186 0.32448548 4294967295
0.12266673 0.035914581 0.32205027 4294967295
0.12441859 0.035939973 0.31961504 4294967295
0.12617046 0.035965364 0.3171798 4294967295
0.12792233 0.03599076 0.31474459 4294967295
0.12967418 0.036016151 0.31230932 4294967295
0.13142604 0.036041543 0.30987412 4294967295
0.13317789 0.036066934 0.30743891 4294967295
0.13492975 0.03609233 0.30500364 4294967295
0.13668162 0.036117721 0.30256844 4294967295
0.13843347 0.036143113 0.3001332 4294967295
0.14018534 0.036168508 0.29769796 4294967295
0.1419372 0.0361939 0.29526275 4294967295
0.14368905 0.036219291 0.29282752 4294967295
0.14544091 0.036244687 0.29039228 4294967295
0.14719278 0.036270078 0.28795707 4294967295
0.14894463 0.03629547 0.28552181 4294967295
0.1506965 0.036320865 0.2830866 4294967295
0.15244836 0.036346257 0.28065136 4294967295
0.15420021 0.036371648 0.27821612 4294967295
0.15595207 0.03639704 0.27578092 4294967295
0.15770392 0.036422435 0.27334568 4294967295
0.15945579 0.036447827 0.27091044 4294967295
0.16120766 0.036473218 0.26847523 4294967295
0.16295952 0.036498614 0.26603997 4294967295
0.16471137 0.036524005 0.26360476 4294967295
