# .PCD v0.7 - Point Cloud Data file format
VERSION 0.7
FIELDS x y z rgb
SIZE 4 4 4 4
TYPE F F F U
COUNT 1 1 1 1
WIDTH 954
HEIGHT 1
VIEWPOINT 0 0 0 1 0 0 0
POINTS 954
DATA ascii
0.15925078 0.0034360166 0.28 4278849031
0.15505725 0.0043302448 0.27900001 4278455558
0.15652245 0.0043457653 0.28 4278587144
0.15743189 0.0043457653 0.28 4278520838
0.15834132 0.0043457653 0.28 4278652424
0.15925078 0.0043457653 0.28 4278915594
0.16016021 0.0043457653 0.28 4278717445
0.16106966 0.0043457653 0.28 4278783238
0.16197909 0.0043457653 0.28 4278717445
0.15415107 0.0052367444 0.27900001 4278718217
0.15505725 0.0052367444 0.27900001 4278718217
0.15652245 0.0052555138 0.28 4279046410
0.15743189 0.0052555138 0.28 4278782468
0.15834132 0.0052555138 0.28 4278914054
0.15925078 0.0052555138 0.28 4278914054
0.16016021 0.0052555138 0.28 4278914054
0.16106966 0.0052555138 0.28 4278849031
0.16197909 0.0052555138 0.28 4278651654
0.15415107 0.006143244 0.27900001 4278520838
0.15505725 0.006143244 0.27900001 4278716677
0.15652245 0.0061652623 0.28 4279045642
0.15743189 0.0061652623 0.28 4278848261
0.15834132 0.0061652623 0.28 4278848263
0.15925078 0.0061652623 0.28 4278848263
0.16016021 0.0061652623 0.28 4279045642
0.16106966 0.0061652623 0.28 4278783240
0.16197909 0.0061652623 0.28 4278783240
-0.055983827 0.01248234 0.49400002 4280892979
-0.051170286 0.01248234 0.49400002 4283392848
-0.049565777 0.01248234 0.49400002 4280174121
-0.04805835 0.012507609 0.49500003 4279652139
-0.046544429 0.012532877 0.49600002 4278734117
-0.045024011 0.012558145 0.49700001 4279130671
-0.04358444 0.01260868 0.49900001 4279394615
-0.042131882 0.012659216 0.50100005 4282420323
-0.040585477 0.012684484 0.50200003 4281826649
-0.03911018 0.012735019 0.50400001 4280051008
-0.03754754 0.012760287 0.505 4279919935
-0.035907295 0.012760287 0.505 4279590457
-0.034334917 0.012785556 0.50600004 4279852346
-0.032691427 0.012785556 0.50600004 4280312899
-0.031047937 0.012785556 0.50600004 4281166409
0.15415107 0.0070497431 0.27900001 4278717447
0.15561301 0.0070750108 0.28 4278914056
0.15652245 0.0070750108 0.28 4278979847
0.15743189 0.0070750108 0.28 4278783238
0.15834132 0.0070750108 0.28 4278652422
0.15925078 0.0070750108 0.28 4278783238
0.16016021 0.0070750108 0.28 4278849033
0.16106966 0.0070750108 0.28 4278717447
0.16197909 0.0070750108 0.28 4278783240
-0.059312679 0.014115916 0.49500003 4280629807
-0.055983827 0.014087398 0.49400002 4280563499
-0.052774802 0.014087398 0.49400002 4280957739
-0.049565777 0.014087398 0.49400002 4279778596
-0.04805835 0.014115916 0.49500003 4279585062
-0.046544429 0.014144432 0.49600002 4279456297
-0.045024011 0.014172949 0.49700001 4279127845
-0.04358444 0.014229983 0.49900001 4279196205
-0.042131882 0.014287017 0.50100005 4279130412
-0.040585477 0.014315534 0.50200003 4279066416
-0.03911018 0.014372568 0.50400001 4279592760
-0.03754754 0.014401084 0.505 4279527480
-0.035907295 0.014401084 0.505 4279395894
-0.034267057 0.014401084 0.505 4279132722
-0.032691427 0.014429603 0.50600004 4278540072
-0.031047937 0.014429603 0.50600004 4279263791
-0.029404448 0.014429603 0.50600004 4279460910
-0.02776096 0.014429603 0.50600004 4278934312
0.15561301 0.0079847593 0.28 4278783240
0.15652245 0.0079847593 0.28 4278717447
0.15743189 0.0079847593 0.28 4278718215
0.15834132 0.0079847593 0.28 4278586629
0.15925078 0.0079847593 0.28 4278586631
0.16016021 0.0079847593 0.28 4278718217
0.16106966 0.0079847593 0.28 4278718217
0.16197909 0.0079847593 0.28 4278783240
-0.060797367 0.015692456 0.49400002 4280498219
-0.059312679 0.015724221 0.49500003 4280761393
-0.055983827 0.015692456 0.49400002 4280300581
-0.054379314 0.015692456 0.49400002 4281023534
-0.052667972 0.015660688 0.49300003 4281154604
-0.049565777 0.015692456 0.49400002 4280107815
-0.047961261 0.015692456 0.49400002 4279715365
-0.046450593 0.015724221 0.49500003 4278995746
-0.045024011 0.015787752 0.49700001 4279127332
-0.04358444 0.015851285 0.49900001 4279194920
-0.042047784 0.015883051 0.5 4279129640
-0.040585477 0.015946584 0.50200003 4279130410
-0.03911018 0.016010115 0.50400001 4279394095
-0.03754754 0.01604188 0.505 4279131693
-0.035907295 0.01604188 0.505 4279000107
-0.034267057 0.01604188 0.505 4278737451
-0.032691427 0.016073648 0.50600004 4278737449
-0.031047937 0.016073648 0.50600004 4278408484
-0.029404448 0.016073648 0.50600004 4278803240
-0.02776096 0.016073648 0.50600004 4278671908
-0.026169086 0.016105415 0.50700003 4278737187
-0.024570715 0.016137181 0.50800002 4278671656
-0.02292073 0.016137181 0.50800002 4278737449
-0.021354491 0.016200714 0.51000005 4278737449
-0.019736633 0.016232479 0.51100004 4278540070
-0.018112279 0.016264245 0.51200002 4278803242
-0.016481429 0.01629601 0.51300001 4279263793
-0.014815205 0.01629601 0.51300001 4279329586
-0.01317461 0.016327776 0.514 4280118588
-0.011505138 0.016327776 0.514 4279985719
0.15561301 0.0088945087 0.28 4278652424
0.15652245 0.0088945087 0.28 4278718217
0.15743189 0.0088945087 0.28 4278586631
0.15834132 0.0088945087 0.28 4278784010
0.15925078 0.0088945087 0.28 4278652171
0.16016021 0.0088945087 0.28 4278652171
0.16106966 0.0088945087 0.28 4278914573
0.16197909 0.0088945087 0.28 4278782987
-0.060797367 0.01729751 0.49400002 4280695339
-0.059312679 0.017332526 0.49500003 4280102950
-0.057588339 0.01729751 0.49400002 4280497708
-0.055983827 0.01729751 0.49400002 4280497958
-0.054379314 0.01729751 0.49400002 4280891946
-0.052667972 0.017262496 0.49300003 4280826153
-0.051066704 0.017262496 0.49300003 4280498471
-0.049565777 0.01729751 0.49400002 4279779363
-0.047961261 0.01729751 0.49400002 4279649572
-0.046450593 0.017332526 0.49500003 4279126308
-0.045024011 0.017402556 0.49700001 4279587883
-0.043497097 0.017437572 0.49800003 4279194408
-0.042047784 0.017507602 0.5 4279261226
-0.040585477 0.017577633 0.50200003 4279064617
-0.039032582 0.017612647 0.50300002 4279459375
-0.037473191 0.017647663 0.50400001 4279328302
-0.035907295 0.017682677 0.505 4278933544
-0.034267057 0.017682677 0.505 4278867751
-0.032691427 0.017717695 0.50600004 4279065130
-0.031047937 0.017717695 0.50600004 4278207002
-0.029404448 0.017717695 0.50600004 4279326508
-0.027815823 0.017752709 0.50700003 4279130662
-0.026169086 0.017752709 0.50700003 4279065382
-0.024570715 0.017787723 0.50800002 4279065382
-0.02292073 0.017787723 0.50800002 4278802210
-0.021396363 0.01789277 0.51100004 4279262761
-0.019775257 0.017927784 0.51200002 4278933796
-0.018147655 0.0179628 0.51300001 4279262761
-0.016513556 0.017997814 0.514 4278604831
-0.014872964 0.018032832 0.51500005 4278737701
-0.013225874 0.018067846 0.51600003 4278737701
-0.011572289 0.01810286 0.51700002 4279131945
-0.0099504786 0.018207908 0.52000004 4278934566
-0.0082932925 0.018277936 0.52200001 4279197484
-0.0066231154 0.018347967 0.52400005 4279855416
-0.004930554 0.018382983 0.52500004 4279722808
-0.0032314961 0.018417997 0.52600002 4280051008
0.15561301 0.0098042572 0.28 4278652171
0.15652245 0.0098042572 0.28 4278652171
0.15743189 0.0098042572 0.28 4278718217
0.15834132 0.0098042572 0.28 4278652424
0.15925078 0.0098042572 0.28 4278652424
0.16016021 0.0098042572 0.28 4278783757
0.16106966 0.0098042572 0.28 4278913803
0.16197909 0.0098042572 0.28 4278848780
-0.06092044 0.018940832 0.49500003 4280365350
-0.059312679 0.018940832 0.49500003 4280628524
-0.057704918 0.018940832 0.49500003 4280628522
-0.055983827 0.018902566 0.49400002 4280891948
-0.054379314 0.018902566 0.49400002 4281089325
-0.052667972 0.018864304 0.49300003 4281221681
-0.051066704 0.018864304 0.49300003 4280565036
-0.049565777 0.018902566 0.49400002 4279779875
-0.047961261 0.018902566 0.49400002 4279846951
-0.046450593 0.018940832 0.49500003 4279126562
-0.044933423 0.018979095 0.49600002 4279390504
-0.043497097 0.019055625 0.49800003 4279062822
-0.042047784 0.019132152 0.5 4279194920
-0.040504631 0.019170418 0.50100005 4279196203
-0.039032582 0.019246945 0.50300002 4279394095
-0.037473191 0.019285209 0.50400001 4279000107
-0.035907295 0.019323474 0.505 4278802728
-0.034267057 0.019323474 0.505 4279065130
-0.032691427 0.01936174 0.50600004 4278999337
-0.031047937 0.01936174 0.50600004 4278204177
-0.029404448 0.01936174 0.50600004 4279917107
-0.027815823 0.019400004 0.50700003 4279787059
-0.026220702 0.019438267 0.50800002 4279786543
-0.024619082 0.019476531 0.509 4279918129
-0.023146328 0.019629588 0.51300001 4279260199
-0.021438234 0.019591324 0.51200002 4278865441
-0.019813878 0.019629588 0.51300001 4279129125
-0.018183028 0.019667853 0.514 4279129892
-0.016545685 0.019706119 0.51500005 4279064099
-0.014901844 0.019744383 0.51600003 4278933283
-0.013277137 0.01982091 0.51800001 4278999589
-0.011617057 0.019859176 0.51900005 4278933796
-0.0099887494 0.019973967 0.52200001 4278933796
-0.0083250673 0.020050498 0.52400005 4278933542
-0.0066357548 0.020088762 0.52500004 4278802726
-0.0049493364 0.020165289 0.52700001 4278671140
-0.003249927 0.020241819 0.52900004 4278803242
-0.0015404202 0.02035661 0.53200001 4278671144
0.00018822154 0.020433141 0.53400004 4279328304
0.0019262549 0.020471403 0.53500003 4279393843
-0.06092044 0.020549137 0.49500003 4281286706
-0.059312679 0.020549137 0.49500003 4281418038
-0.057704918 0.020549137 0.49500003 4280957487
-0.055983827 0.020507623 0.49400002 4280956973
-0.054379314 0.020507623 0.49400002 4280628522
-0.052774802 0.020507623 0.49400002 4281156403
-0.051066704 0.02046611 0.49300003 4280959792
-0.049565777 0.020507623 0.49400002 4279649059
-0.047961261 0.020507623 0.49400002 4279519269
-0.046450593 0.020549137 0.49500003 4279060769
-0.044933423 0.02059065 0.49600002 4279456297
-0.043497097 0.020673677 0.49800003 4279194406
-0.041963689 0.02071519 0.49900001 4279194920
-0.040504631 0.020798218 0.50100005 4279458605
-0.038954984 0.02083973 0.50200003 4279327789
-0.037398838 0.020881243 0.50300002 4279065130
-0.035836194 0.020922758 0.50400001 4278933544
-0.034267057 0.02096427 0.505 4278933031
-0.032691427 0.021005785 0.50600004 4279656754
-0.031047937 0.021005785 0.50600004 4278199810
-0.029462559 0.021047298 0.50700003 4280245043
-0.027870687 0.021088811 0.50800002 4278266386
-0.026272316 0.021130323 0.509 4278593556
-0.024667453 0.02117184 0.51000005 4278658834
-0.023146328 0.021296378 0.51300001 4278198026
-0.021480104 0.021296378 0.51300001 4278396173
-0.019891128 0.021379406 0.51500005 4278199307
-0.018253781 0.021420918 0.51600003 4278664730
-0.016609939 0.021462431 0.51700002 4278200581
-0.014959602 0.021503944 0.51800001 4278202382
-0.0133284 0.021586973 0.52000004 4278204693
-0.011661824 0.021628486 0.52100003 4279127330
-0.010007884 0.021711512 0.523 4279851566
-0.0083409548 0.021794539 0.52500004 4279457576
-0.0066610333 0.021877564 0.52700001 4279391783
-0.0049681198 0.021960594 0.52900004 4279589676
-0.0032622137 0.022043619 0.53100002 4279195431
-0.0015462114 0.022168159 0.53400004 4278998822
0.00018892648 0.022251187 0.53600001 4278999335
0.0019334558 0.0222927 0.537 4278671654
0.0036981781 0.02241724 0.54000002 4279197998
-0.061043512 0.022202205 0.49600002 4281352245
-0.059432499 0.022202205 0.49600002 4281154866
-0.057704918 0.022157442 0.49500003 4281615417
-0.056097154 0.022157442 0.49500003 4281154866
-0.054379314 0.022112679 0.49400002 4281089073
-0.051170286 0.022112679 0.49400002 4280434473
-0.049565777 0.022112679 0.49400002 4279781158
-0.047961261 0.022112679 0.49400002 4279453476
-0.046450593 0.022157442 0.49500003 4279060769
-0.044933423 0.022202205 0.49600002 4279390504
-0.043409754 0.022246966 0.49700001 4279325992
-0.041963689 0.022336492 0.49900001 4279129127
-0.040423781 0.022381254 0.5 4279261226
-0.038954984 0.02247078 0.50200003 4279064617
-0.037398838 0.022515543 0.50300002 4279064617
-0.035836194 0.022560304 0.50400001 4278867238
-0.034267057 0.022605065 0.505 4279196201
-0.032626819 0.022605065 0.505 4279458603
-0.031047937 0.02264983 0.50600004 4279717672
-0.029462559 0.022694593 0.50700003 4279849258
-0.027870687 0.022739355 0.50800002 4278922006
-0.026272316 0.022784116 0.509 4278592273
-0.024715818 0.022873642 0.51100004 4278920724
-0.023146328 0.022963166 0.51300001 4278393867
-0.021521976 0.023007929 0.514 4278788625
-0.01992975 0.023097456 0.51600003 4278329101
-0.018289156 0.023142217 0.51700002 4279783725
-0.016674194 0.023231743 0.51900005 4280178483
-0.015017362 0.023276506 0.52000004 4279652139
-0.013354031 0.023321267 0.52100003 4280310323
-0.01170659 0.023410792 0.523 4280047662
-0.010046156 0.023500318 0.52500004 4280113455
-0.0083727296 0.023589842 0.52700001 4279981871
-0.0066863131 0.023679368 0.52900004 4279981871
-0.0049962942 0.023813654 0.53200001 4279191842
-0.0032806445 0.02390318 0.53400004 4278731291
-0.0015520024 0.023992704 0.53600001 4278202123
0.00018963145 0.02408223 0.53800005 4278200326
0.0019406568 0.024126993 0.53900003 4278933544
0.0037050266 0.024216516 0.54100001 4278933542
-0.062654518 0.02381376 0.49600002 4281483831
-0.061166581 0.023861771 0.49700001 4281549112
-0.059552323 0.023861771 0.49700001 4281285938
-0.057821494 0.02381376 0.49600002 4281615417
-0.056097154 0.02376575 0.49500003 4281286452
-0.054489397 0.02376575 0.49500003 4281155636
-0.052774802 0.023717737 0.49400002 4281222964
-0.051170286 0.023717737 0.49400002 4280238118
-0.049565777 0.023717737 0.49400002 4279781158
-0.047961261 0.023717737 0.49400002 4279520039
-0.046450593 0.02376575 0.49500003 4279389734
-0.044933423 0.02381376 0.49600002 4279390504
-0.043409754 0.023861771 0.49700001 4279325992
-0.041963689 0.023957795 0.49900001 4279326506
-0.040423781 0.024005806 0.5 4279130410
-0.038877383 0.024053819 0.50100005 4279919926
-0.037398838 0.024149843 0.50300002 4279130410
-0.035836194 0.024197852 0.50400001 4278998824
-0.034267057 0.024245864 0.505 4278998822
-0.032626819 0.024245864 0.505 4280116533
-0.031047937 0.024293877 0.50600004 4280507702
-0.029462559 0.024341889 0.50700003 4278598937
-0.027925549 0.02443791 0.509 4280963385
-0.026323933 0.024485925 0.51000005 4278196996
-0.024764186 0.024581946 0.51200002 4278395660
-0.023191446 0.024677968 0.514 4278197513
-0.021563848 0.024725983 0.51500005 4279712035
-0.019968374 0.024822004 0.51700002 4278197768
-0.018324532 0.024870016 0.51800001 4280243762
-0.016706323 0.024966041 0.52000004 4278203152
-0.015046241 0.025014052 0.52100003 4279191588
-0.013405294 0.025110073 0.523 4278731550
-0.011751357 0.025206098 0.52500004 4278666781
-0.010084427 0.02530212 0.52700001 4278206230
-0.0084045054 0.025398144 0.52900004 4279325224
-0.0067115915 0.025494168 0.53100002 4279260199
-0.0050056861 0.025590193 0.53300005 4279260713
-0.003286788 0.025686214 0.53500003 4279325990
-0.0015577936 0.02583025 0.53800005 4279522601
0.00018998391 0.02587826 0.53900003 4278204432
0.0019478577 0.025974283 0.54100001 4279129129
0.0037118753 0.026022296 0.54200006 4278998056
0.0054924851 0.026118318 0.54400003 4278733605
-0.066943288 0.025220271 0.49200001 4281287474
-0.065610901 0.025322793 0.49400002 4281616441
-0.062780835 0.025476575 0.49700001 4281549364
-0.059552323 0.025476575 0.49700001 4282009148
-0.054489397 0.025374055 0.49500003 4281616189
-0.051170286 0.025322793 0.49400002 4280239147
-0.049565777 0.025322793 0.49400002 4279650855
-0.047961261 0.025322793 0.49400002 4279388453
-0.046450593 0.025374055 0.49500003 4279323687
-0.044933423 0.025425315 0.49600002 4279456297
-0.043409754 0.025476575 0.49700001 4279194406
-0.041879594 0.025527837 0.49800003 4279195433
-0.040423781 0.025630357 0.5 4279130410
-0.038877383 0.02568162 0.50100005 4279196203
-0.037324488 0.02573288 0.50200003 4279064617
-0.035765093 0.02578414 0.50300002 4279064617
-0.034199201 0.0258354 0.50400001 4279064617
-0.032626819 0.02588666 0.505 4278207256
-0.031047937 0.025937922 0.50600004 4280638774
-0.029462559 0.025989184 0.50700003 4278201611
-0.027925549 0.026091704 0.509 4278725142
-0.026323933 0.026142966 0.51000005 4279448863
-0.024764186 0.026245486 0.51200002 4278658064
-0.023191446 0.026348006 0.514 4278197001
-0.021605721 0.02645053 0.51600003 4281357628
-0.020006998 0.02655305 0.51800001 4278200077
-0.018359909 0.026604313 0.51900005 4279124000
-0.01673845 0.026706833 0.52100003 4278594837
-0.01507512 0.026758093 0.52200001 4278663962
-0.013430927 0.026860617 0.52400005 4280047412
-0.011773741 0.026963137 0.52600002 4278731037
-0.010103562 0.027065657 0.528 4278863390
-0.0084203929 0.027168179 0.53000003 4278335767
-0.0067242309 0.027270699 0.53200001 4279059490
-0.005024469 0.027424483 0.53500003 4279717672
-0.0032990747 0.027527003 0.537 4278402326
-0.0015606891 0.027629526 0.53900003 4279258918
0.00019033639 0.027680786 0.54000002 4278203916
0.0019514584 0.02778331 0.54200006 4279129642
0.0037187238 0.02783457 0.54300004 4278998826
0.0054924851 0.02788583 0.54400003 4279192619
-0.051170286 0.026927849 0.49400002 4280239664
-0.049565777 0.026927849 0.49400002 4279781928
-0.04805835 0.02698236 0.49500003 4279388453
-0.046450593 0.02698236 0.49500003 4279390504
-0.044933423 0.02703687 0.49600002 4279325224
-0.043409754 0.027091378 0.49700001 4279457578
-0.041879594 0.027145889 0.49800003 4279326506
-0.040423781 0.027254907 0.5 4279393582
-0.038877383 0.02730942 0.50100005 4279327789
-0.037324488 0.027363928 0.50200003 4278999337
-0.035765093 0.027418438 0.50300002 4278933544
-0.034199201 0.027472947 0.50400001 4279064615
-0.032626819 0.027527457 0.505 4278469402
-0.031047937 0.027581969 0.50600004 4280112944
-0.02952067 0.027690986 0.50800002 4278199556
-0.027925549 0.027745496 0.509 4278920724
-0.026375549 0.027854517 0.51100004 4279183129
-0.024764186 0.027909027 0.51200002 4278985752
-0.023191446 0.028018044 0.514 4278985752
-0.021605721 0.028127067 0.51600003 4278985750
-0.020006998 0.028236084 0.51800001 4280371246
-0.018395284 0.028345106 0.52000004 4280834618
-0.01673845 0.028399615 0.52100003 4278596119
-0.015104 0.028508633 0.523 4280507450
-0.013456558 0.028617654 0.52500004 4279586859
-0.011773741 0.028672164 0.52600002 4279126562
-0.010103562 0.028781181 0.528 4279718445
-0.0084362803 0.028944712 0.53100002 4280047410
-0.0067368713 0.029053735 0.53300005 4279849518
-0.005024469 0.029162752 0.53500003 4278203922
-0.0032990747 0.02927177 0.537 4278270486
-0.0015606891 0.029380793 0.53900003 4279784238
0.00019068885 0.02948981 0.54100001 4278666527
0.0019514584 0.029544322 0.54200006 4278998054
0.0037187238 0.029598832 0.54300004 4278998824
0.0054924851 0.029653341 0.54400003 4278731298
-0.052881636 0.028590666 0.49500003 4280238381
-0.051273871 0.028590666 0.49500003 4280437555
-0.049666114 0.028590666 0.49500003 4280241709
-0.04805835 0.028590666 0.49500003 4279650855
-0.046450593 0.028590666 0.49500003 4279456297
-0.044933423 0.028648423 0.49600002 4279522603
-0.043409754 0.028706182 0.49700001 4279523373
-0.041879594 0.028763942 0.49800003 4279523885
-0.040423781 0.028879458 0.5 4279524398
-0.038877383 0.028937221 0.50100005 4279458605
-0.037324488 0.028994977 0.50200003 4279195433
-0.035765093 0.029052736 0.50300002 4279063847
-0.034199201 0.029110495 0.50400001 4279261226
-0.032626819 0.029168252 0.505 4278337816
-0.031047937 0.029226014 0.50600004 4280047410
-0.02952067 0.02934153 0.50800002 4279784238
-0.027925549 0.029399289 0.509 4280704315
-0.026375549 0.029514808 0.51100004 4280769338
-0.024812553 0.029630324 0.51300001 4279912492
-0.023236569 0.029745845 0.51500005 4279912494
-0.021647591 0.029861361 0.51700002 4279386150
-0.020006998 0.02991912 0.51800001 4279913262
-0.018395284 0.030034639 0.52000004 4278334482
-0.016770577 0.030150155 0.52200001 4278200583
-0.015132881 0.030265674 0.52400005 4278198789
-0.013456558 0.030323433 0.52500004 4278198017
-0.011796124 0.03043895 0.52700001 4278198788
-0.010122699 0.03055447 0.52900004 4278201100
-0.0084362803 0.030669985 0.53100002 4278202128
-0.0067368713 0.030785505 0.53300005 4278334997
-0.0050338604 0.030958779 0.53600001 4279058720
-0.0033052186 0.0310743 0.53800005 4279387685
-0.0015606891 0.031132057 0.53900003 4279849006
0.00019068885 0.031247575 0.54100001 4279982387
0.0019514584 0.031305335 0.54200006 4279063595
0.0037187238 0.031363092 0.54300004 4279261228
-0.052881636 0.030198971 0.49500003 4280107313
-0.051273871 0.030198971 0.49500003 4280239410
-0.049666114 0.030198971 0.49500003 4279649322
-0.04805835 0.030198971 0.49500003 4279913262
-0.046544429 0.030259978 0.49600002 4279717932
-0.044933423 0.030259978 0.49600002 4280113457
-0.043409754 0.030320985 0.49700001 4279523119
-0.041963689 0.030443002 0.49900001 4279392047
-0.040423781 0.030504009 0.5 4279063847
-0.038877383 0.03056502 0.50100005 4279458605
-0.037324488 0.030626027 0.50200003 4279195433
-0.035765093 0.030687034 0.50300002 4279063847
-0.034199201 0.030748041 0.50400001 4279327019
-0.032626819 0.030809049 0.505 4279326506
-0.031047937 0.03087006 0.50600004 4279918131
-0.02952067 0.030992074 0.50800002 4279325994
-0.027925549 0.031053081 0.509 4279457580
-0.026375549 0.031175099 0.51100004 4279523373
-0.024812553 0.031297114 0.51300001 4279457580
-0.023236569 0.031419132 0.51500005 4279457326
-0.021647591 0.031541146 0.51700002 4279325740
-0.020045621 0.031663164 0.51900005 4279918131
-0.01843066 0.031785179 0.52100003 4279523373
-0.016770577 0.031846184 0.52200001 4279457580
-0.015132881 0.031968202 0.52400005 4279785775
-0.01348219 0.032090217 0.52600002 4279391017
-0.011796124 0.032151226 0.52700001 4279456810
-0.010122699 0.032273244 0.52900004 4279654189
-0.0084362803 0.032395259 0.53100002 4280114740
-0.0067495103 0.032578282 0.53400004 4279851055
-0.0050338604 0.032700296 0.53600001 4280310836
-0.0033052186 0.032822315 0.53800005 4280310582
-0.0015606891 0.032883324 0.53900003 4279981871
0.00019068885 0.033005338 0.54100001 4279653676
0.0019514584 0.033066347 0.54200006 4279655473
0.0037187238 0.033127356 0.54300004 4279061798
-0.046544429 0.031871535 0.49600002 4280372793
-0.045024011 0.031935789 0.49700001 4280241461
-0.041963689 0.032064304 0.49900001 4280178231
-0.040423781 0.032128561 0.5 4280244537
-0.038877383 0.032192823 0.50100005 4280113975
-0.037324488 0.032257076 0.50200003 4279850801
-0.035765093 0.032321334 0.50300002 4279851314
-0.034199201 0.032385591 0.50400001 4279851316
-0.032626819 0.032449845 0.505 4279851316
-0.031047937 0.032514106 0.50600004 4279785523
-0.02952067 0.032642618 0.50800002 4279785523
-0.027925549 0.032706875 0.509 4279785523
-0.026375549 0.03283539 0.51100004 4279851316
-0.024812553 0.032963905 0.51300001 4279654707
-0.023236569 0.033092421 0.51500005 4279654707
-0.021647591 0.033220932 0.51700002 4279523373
-0.020045621 0.033349451 0.51900005 4279523887
-0.01843066 0.033477962 0.52100003 4279392047
-0.016802704 0.033606477 0.523 4279392047
-0.015132881 0.033670735 0.52400005 4279063082
-0.01348219 0.03379925 0.52600002 4279392047
-0.011818508 0.033927761 0.528 4279326254
-0.010141834 0.034056276 0.53000003 4279326508
-0.0084521677 0.034184791 0.53200001 4279326508
-0.0067495103 0.034313306 0.53400004 4279260715
-0.0050338604 0.034441818 0.53600001 4279523373
-0.0033052186 0.034570336 0.53800005 4279457580
-0.0015606891 0.03463459 0.53900003 4279456556
0.00019068885 0.034763105 0.54100001 4279653935
0.0019514584 0.034827363 0.54200006 4279587377
0.0037187238 0.03489162 0.54300004 4282873181
-0.038877383 0.033820622 0.50100005 4286029962
-0.037324488 0.033888128 0.50200003 4285700997
-0.035765093 0.033955634 0.50300002 4284056172
-0.034199201 0.034023136 0.50400001 4282937437
-0.032626819 0.034090642 0.505 4282017105
-0.031109296 0.034225658 0.50700003 4281623114
-0.02952067 0.034293164 0.50800002 4280373817
-0.027925549 0.03436067 0.509 4280505916
-0.026375549 0.034495682 0.51100004 4281163846
-0.024812553 0.034630693 0.51300001 4279650607
-0.023236569 0.034765709 0.51500005 4281032260
-0.021647591 0.034900717 0.51700002 4280440893
-0.020045621 0.035035733 0.51900005 4280375100
-0.01843066 0.035170745 0.52100003 4281164612
-0.016802704 0.035305757 0.523 4280638268
-0.015161759 0.035440769 0.52500004 4279914545
-0.01348219 0.035508275 0.52600002 4279650603
-0.011818508 0.035643287 0.528 4279716396
-0.010141834 0.035778299 0.53000003 4279650605
-0.0084521677 0.035913311 0.53200001 4279782963
-0.0067495103 0.036048327 0.53400004 4280177721
-0.0050338604 0.036183339 0.53600001 4280965954
-0.0033052186 0.036318351 0.53800005 4281360712
-0.0015606891 0.036385857 0.53900003 4282675802
0.00019068885 0.036520869 0.54100001 4285305723
0.0019514584 0.036588378 0.54200006 4286818712
-0.031109296 0.035872951 0.50700003 4287672738
-0.02952067 0.035943706 0.50800002 4287343771
-0.027925549 0.03601446 0.509 4287475357
-0.026375549 0.036155973 0.51100004 4287804322
-0.024812553 0.036297482 0.51300001 4287870369
-0.023236569 0.036438994 0.51500005 4287804576
-0.021647591 0.036580503 0.51700002 4287805346
-0.020045621 0.036722019 0.51900005 4287674273
-0.01843066 0.036863528 0.52100003 4288003238
-0.016802704 0.037005037 0.523 4287542687
-0.015161759 0.03714655 0.52500004 4287542687
-0.013507821 0.037288059 0.52700001 4287936932
-0.011818508 0.037358813 0.528 4287476381
-0.010141834 0.037500326 0.53000003 4287476381
-0.0084521677 0.037641834 0.53200001 4287475611
-0.0067495103 0.037783347 0.53400004 4287344795
-0.0050338604 0.037924856 0.53600001 4286555025
-0.0032990747 0.03799561 0.537 4287015830
-0.0015606891 0.038137123 0.53900003 4286818451
-0.007649723 0.022873649 0.48639178 4294967295
-0.007649723 0.022873649 0.48639178 4294901760
-0.0074396473 0.023306865 0.48652667 4294901760
-0.0072295717 0.023740081 0.48666155 4294901760
-0.0070194961 0.024173297 0.48679641 4294901760
-0.0068094204 0.024606513 0.48693129 4294901760
-0.0065993443 0.025039729 0.48706618 4294901760
-0.0063892687 0.025472945 0.48720106 4294901760
-0.006179193 0.02590616 0.48733592 4294901760
-0.0059691174 0.026339376 0.48747081 4294901760
-0.0057590418 0.026772592 0.48760569 4294901760
-0.0055489661 0.027205808 0.48774058 4294901760
-0.0053388905 0.027639024 0.48787546 4294901760
-0.0051288148 0.028072238 0.48801032 4294901760
-0.0049187392 0.028505454 0.4881452 4294901760
-0.0047086636 0.02893867 0.48828009 4294901760
-0.0044985879 0.029371887 0.48841497 4294901760
-0.0042885123 0.029805101 0.48854983 4294901760
-0.0040784366 0.030238317 0.48868471 4294901760
-0.0038683605 0.030671533 0.4888196 4294901760
-0.0036582854 0.031104749 0.48895448 4294901760
-0.0034482093 0.031537965 0.48908937 4294901760
-0.0032381341 0.031971179 0.48922423 4294901760
-0.003028058 0.032404397 0.48935911 4294901760
-0.0028179823 0.032837614 0.489494 4294901760
-0.0026079067 0.033270828 0.48962888 4294901760
-0.0023978311 0.033704042 0.48976374 4294901760
-0.0021877554 0.03413726 0.48989862 4294901760
-0.0019776793 0.034570478 0.49003351 4294901760
-0.0017676041 0.035003692 0.49016839 4294901760
-0.0015575285 0.035436906 0.49030328 4294901760
-0.0013474524 0.035870124 0.49043813 4294901760
-0.0011373768 0.036303341 0.49057302 4294901760
-0.00092730159 0.036736555 0.4907079 4294901760
-0.00071722548 0.037169769 0.49084279 4294901760
-0.00050714985 0.037602987 0.49097767 4294901760
-0.00029707421 0.038036201 0.49111253 4294901760
-8.6998101e-05 0.038469419 0.49124742 4294901760
0.00012307707 0.038902633 0.4913823 4294901760
0.00033315225 0.039335847 0.49151719 4294901760
0.00054322788 0.039769065 0.49165204 4294901760
0.00075330446 0.040202282 0.49178693 4294901760
0.00096338009 0.040635496 0.49192181 4294901760
0.0011734548 0.04106871 0.4920567 4294901760
0.0013835314 0.041501928 0.49219158 4294901760
0.001593607 0.041935146 0.49232644 4294901760
0.0018036827 0.04236836 0.49246132 4294901760
0.0020137583 0.042801574 0.49259621 4294901760
0.0022238339 0.043234792 0.49273109 4294901760
0.0024339096 0.043668009 0.49286595 4294901760
0.0026439852 0.044101223 0.49300084 4294901760
0.0028540608 0.044534437 0.49313572 4294901760
0.0030641365 0.044967655 0.49327061 4294901760
0.0032742121 0.045400869 0.49340549 4294901760
0.0034842868 0.045834087 0.49354035 4294901760
0.0036943643 0.046267301 0.49367523 4294901760
0.003904439 0.046700519 0.49381012 4294901760
0.0041145147 0.047133736 0.493945 4294901760
0.0043245903 0.04756695 0.49407986 4294901760
0.004534666 0.048000164 0.49421474 4294901760
0.0047447416 0.048433378 0.49434963 4294901760
0.0049548182 0.0488666 0.49448451 4294901760
0.0051648938 0.049299814 0.4946194 4294901760
0.0053749694 0.049733028 0.49475425 4294901760
0.0055850442 0.050166242 0.49488914 4294901760
0.0057951198 0.05059946 0.49502403 4294901760
0.0060051954 0.051032677 0.49515891 4294901760
0.006215272 0.051465891 0.4952938 4294901760
0.0064253476 0.051899109 0.49542865 4294901760
0.0066354233 0.052332323 0.49556354 4294901760
0.0068454989 0.052765541 0.49569842 4294901760
0.0070555746 0.053198755 0.49583331 4294901760
0.0072656493 0.053631969 0.49596816 4294901760
0.0074757268 0.05406519 0.49610305 4294901760
0.0076858015 0.054498404 0.49623793 4294901760
0.0078958776 0.054931618 0.49637282 4294901760
0.0081059523 0.055364832 0.4965077 4294901760
0.008316027 0.055798046 0.49664256 4294901760
0.0085261036 0.056231268 0.49677745 4294901760
0.0087361783 0.056664482 0.49691233 4294901760
0.0089462548 0.057097696 0.49704722 4294901760
0.0091563314 0.057530917 0.49718207 4294901760
0.0093664061 0.057964131 0.49731696 4294901760
0.0095764827 0.058397345 0.49745184 4294901760
0.0097865574 0.058830559 0.49758673 4294901760
0.0099966321 0.059263773 0.49772161 4294901760
0.010206709 0.059696995 0.49785647 4294901760
0.010416785 0.060130209 0.49799135 4294901760
0.01062686 0.060563423 0.49812624 4294901760
0.010836937 0.060996637 0.49826112 4294901760
0.011047011 0.061429858 0.49839598 4294901760
0.011257088 0.061863072 0.49853086 4294901760
0.011467164 0.062296286 0.49866575 4294901760
0.011677239 0.0627295 0.49880064 4294901760
0.011887314 0.063162722 0.49893552 4294901760
0.01209739 0.063595936 0.49907038 4294901760
0.012307465 0.06402915 0.49920526 4294901760
0.012517542 0.064462364 0.49934015 4294901760
0.012727618 0.064895585 0.49947503 4294901760
0.012937693 0.065328799 0.49960989 4294901760
0.013147769 0.065762013 0.49974477 4294901760
0.013357844 0.066195227 0.49987966 4294901760
-0.007649723 0.022873649 0.48639178 4278255360
-0.0079621859 0.022904007 0.48678094 4278255360
-0.0082746493 0.022934366 0.4871701 4278255360
-0.0085871127 0.022964723 0.48755926 4278255360
-0.008899576 0.022995083 0.48794842 4278255360
-0.0092120394 0.02302544 0.48833758 4278255360
-0.0095245028 0.023055799 0.48872674 4278255360
-0.0098369662 0.023086157 0.48911589 4278255360
-0.01014943 0.023116516 0.48950505 4278255360
-0.010461893 0.023146873 0.48989421 4278255360
-0.010774356 0.023177233 0.49028337 4278255360
-0.01108682 0.02320759 0.49067253 4278255360
-0.011399282 0.023237949 0.49106169 4278255360
-0.011711746 0.023268307 0.49145085 4278255360
-0.012024209 0.023298664 0.49184 4278255360
-0.012336673 0.023329023 0.49222916 4278255360
-0.012649136 0.023359381 0.49261832 4278255360
-0.012961599 0.02338974 0.49300748 4278255360
-0.013274062 0.023420097 0.49339664 4278255360
-0.013586526 0.023450457 0.4937858 4278255360
-0.013898989 0.023480814 0.49417496 4278255360
-0.014211452 0.023511173 0.49456412 4278255360
-0.014523916 0.023541531 0.49495327 4278255360
-0.014836379 0.02357189 0.49534243 4278255360
-0.015148843 0.023602247 0.49573159 4278255360
-0.015461305 0.023632605 0.49612075 4278255360
-0.015773769 0.023662964 0.49650991 4278255360
-0.016086232 0.023693321 0.4968991 4278255360
-0.016398696 0.023723681 0.49728826 4278255360
-0.016711159 0.023754038 0.49767742 4278255360
-0.017023623 0.023784397 0.49806657 4278255360
-0.017336085 0.023814755 0.49845573 4278255360
-0.017648548 0.023845114 0.49884489 4278255360
-0.017961012 0.023875471 0.49923405 4278255360
-0.018273475 0.02390583 0.49962321 4278255360
-0.018585939 0.023936188 0.50001234 4278255360
-0.018898403 0.023966547 0.5004015 4278255360
-0.019210866 0.023996904 0.50079066 4278255360
-0.019523328 0.024027262 0.50117981 4278255360
-0.019835791 0.024057621 0.50156897 4278255360
-0.020148255 0.024087979 0.50195813 4278255360
-0.020460719 0.024118338 0.50234729 4278255360
-0.020773182 0.024148695 0.50273645 4278255360
-0.021085646 0.024179054 0.50312561 4278255360
-0.021398108 0.024209412 0.50351477 4278255360
-0.021710571 0.024239771 0.50390393 4278255360
-0.022023035 0.024270128 0.50429308 4278255360
-0.022335498 0.024300488 0.50468224 4278255360
-0.022647962 0.024330845 0.5050714 4278255360
-0.022960424 0.024361204 0.50546062 4278255360
-0.023272889 0.024391562 0.50584972 4278255360
-0.023585351 0.024421919 0.50623894 4278255360
-0.023897815 0.024452278 0.50662804 4278255360
-0.024210278 0.024482636 0.50701725 4278255360
-0.024522742 0.024512995 0.50740641 4278255360
-0.024835205 0.024543352 0.50779557 4278255360
-0.025147669 0.024573712 0.50818473 4278255360
-0.025460131 0.024604069 0.50857389 4278255360
-0.025772594 0.024634428 0.50896305 4278255360
-0.026085058 0.024664786 0.50935221 4278255360
-0.026397523 0.024695145 0.50974137 4278255360
-0.026709985 0.024725502 0.51013052 4278255360
-0.027022449 0.024755862 0.51051968 4278255360
-0.027334912 0.024786219 0.51090884 4278255360
-0.027647374 0.024816576 0.511298 4278255360
-0.027959839 0.024846936 0.51168716 4278255360
-0.028272303 0.024877293 0.51207632 4278255360
-0.028584765 0.024907652 0.51246548 4278255360
-0.028897228 0.02493801 0.51285464 4278255360
-0.029209692 0.024968369 0.51324379 4278255360
-0.029522154 0.024998726 0.51363295 4278255360
-0.029834617 0.025029086 0.51402211 4278255360
-0.030147083 0.025059443 0.51441127 4278255360
-0.030459546 0.025089802 0.51480043 4278255360
-0.030772008 0.02512016 0.51518959 4278255360
-0.03108447 0.025150519 0.51557875 4278255360
-0.031396933 0.025180876 0.51596791 4278255360
-0.031709395 0.025211234 0.51635706 4278255360
-0.032021858 0.025241593 0.51674622 4278255360
-0.032334324 0.02527195 0.51713538 4278255360
-0.032646786 0.02530231 0.51752454 4278255360
-0.032959249 0.025332667 0.5179137 4278255360
-0.033271715 0.025363026 0.51830286 4278255360
-0.033584177 0.025393384 0.51869202 4278255360
-0.03389664 0.025423743 0.51908118 4278255360
-0.034209102 0.0254541 0.51947033 4278255360
-0.034521569 0.025484459 0.51985949 4278255360
-0.034834031 0.025514817 0.52024865 4278255360
-0.035146493 0.025545176 0.52063781 4278255360
-0.035458956 0.025575534 0.52102697 4278255360
-0.035771418 0.025605891 0.52141613 4278255360
-0.036083885 0.02563625 0.52180529 4278255360
-0.036396347 0.025666608 0.52219445 4278255360
-0.036708809 0.025696967 0.5225836 4278255360
-0.037021272 0.025727324 0.52297276 4278255360
-0.037333738 0.025757683 0.52336192 4278255360
-0.037646201 0.025788041 0.52375108 4278255360
-0.037958663 0.0258184 0.52414024 4278255360
-0.038271125 0.025848757 0.5245294 4278255360
-0.038583592 0.025879115 0.52491856 4278255360
-0.038896054 0.025909474 0.52530771 4278255360
-0.007649723 0.022873649 0.48639178 4278190335
-0.0079499464 0.022894926 0.48679104 4278190335
-0.0082501704 0.022916203 0.48719031 4278190335
-0.0085503943 0.022937478 0.48758957 4278190335
-0.0088506183 0.022958755 0.48798883 4278190335
-0.0091508422 0.022980032 0.48838812 4278190335
-0.0094510661 0.023001309 0.48878738 4278190335
-0.0097512901 0.023022586 0.48918664 4278190335
-0.010051514 0.023043862 0.48958591 4278190335
-0.010351738 0.023065139 0.48998517 4278190335
-0.010651962 0.023086416 0.49038443 4278190335
-0.010952186 0.023107693 0.49078369 4278190335
-0.011252409 0.023128968 0.49118295 4278190335
-0.011552633 0.023150245 0.49158224 4278190335
-0.011852857 0.023171522 0.49198151 4278190335
-0.012153082 0.023192799 0.49238077 4278190335
-0.012453305 0.023214076 0.49278003 4278190335
-0.012753529 0.023235351 0.49317929 4278190335
-0.013053752 0.023256628 0.49357855 4278190335
-0.013353976 0.023277905 0.49397781 4278190335
-0.0136542 0.023299182 0.49437708 4278190335
-0.013954423 0.023320459 0.49477637 4278190335
-0.014254648 0.023341734 0.49517563 4278190335
-0.014554872 0.023363011 0.49557489 4278190335
-0.014855096 0.023384288 0.49597415 4278190335
-0.015155319 0.023405565 0.49637341 4278190335
-0.015455543 0.023426842 0.49677268 4278190335
-0.015755767 0.023448117 0.49717194 4278190335
-0.016055992 0.023469394 0.4975712 4278190335
-0.016356215 0.023490671 0.49797046 4278190335
-0.01665644 0.023511948 0.49836975 4278190335
-0.016956663 0.023533225 0.49876902 4278190335
-0.017256886 0.0235545 0.49916828 4278190335
-0.017557111 0.023575777 0.49956754 4278190335
-0.017857334 0.023597054 0.4999668 4278190335
-0.018157559 0.023618331 0.50036609 4278190335
-0.018457783 0.023639606 0.50076532 4278190335
-0.018758006 0.023660883 0.50116462 4278190335
-0.019058229 0.02368216 0.50156385 4278190335
-0.019358452 0.023703437 0.50196314 4278190335
-0.019658677 0.023724714 0.50236237 4278190335
-0.019958902 0.023745989 0.50276166 4278190335
-0.020259125 0.023767266 0.50316095 4278190335
-0.02055935 0.023788543 0.50356019 4278190335
-0.020859573 0.02380982 0.50395948 4278190335
-0.021159796 0.023831097 0.50435871 4278190335
-0.021460021 0.023852373 0.504758 4278190335
-0.021760244 0.02387365 0.50515723 4278190335
-0.022060469 0.023894927 0.50555652 4278190335
-0.022360692 0.023916204 0.50595576 4278190335
-0.022660917 0.023937479 0.50635505 4278190335
-0.02296114 0.023958756 0.50675434 4278190335
-0.023261363 0.023980033 0.50715357 4278190335
-0.023561588 0.02400131 0.50755286 4278190335
-0.023861812 0.024022587 0.50795209 4278190335
-0.024162035 0.024043862 0.50835139 4278190335
-0.02446226 0.024065139 0.50875062 4278190335
-0.024762483 0.024086416 0.50914991 4278190335
-0.025062706 0.024107693 0.50954914 4278190335
-0.025362931 0.02412897 0.50994843 4278190335
-0.025663156 0.024150245 0.51034772 4278190335
-0.025963379 0.024171522 0.51074696 4278190335
-0.026263604 0.024192799 0.51114625 4278190335
-0.026563827 0.024214076 0.51154548 4278190335
-0.02686405 0.024235353 0.51194477 4278190335
-0.027164275 0.024256628 0.512344 4278190335
-0.0274645 0.024277905 0.51274329 4278190335
-0.027764723 0.024299182 0.51314259 4278190335
-0.028064946 0.024320459 0.51354182 4278190335
-0.028365171 0.024341736 0.51394111 4278190335
-0.028665394 0.024363011 0.51434034 4278190335
-0.028965617 0.024384288 0.51473963 4278190335
-0.029265843 0.024405565 0.51513886 4278190335
-0.029566066 0.024426842 0.51553816 4278190335
-0.029866289 0.024448119 0.51593739 4278190335
-0.030166514 0.024469394 0.51633668 4278190335
-0.030466737 0.024490671 0.51673597 4278190335
-0.03076696 0.024511948 0.5171352 4278190335
-0.031067183 0.024533225 0.51753449 4278190335
-0.03136741 0.0245545 0.51793373 4278190335
-0.031667631 0.024575777 0.51833302 4278190335
-0.031967856 0.024597054 0.51873225 4278190335
-0.032268081 0.024618331 0.51913154 4278190335
-0.032568302 0.024639608 0.51953077 4278190335
-0.032868527 0.024660883 0.51993006 4278190335
-0.033168752 0.02468216 0.52032936 4278190335
-0.033468977 0.024703437 0.52072859 4278190335
-0.033769198 0.024724714 0.52112788 4278190335
-0.034069423 0.02474599 0.52152711 4278190335
-0.034369648 0.024767267 0.5219264 4278190335
-0.034669869 0.024788544 0.52232563 4278190335
-0.034970094 0.024809821 0.52272493 4278190335
-0.035270318 0.024831098 0.52312422 4278190335
-0.035570543 0.024852373 0.52352345 4278190335
-0.035870764 0.02487365 0.52392274 4278190335
-0.036170989 0.024894927 0.52432197 4278190335
-0.036471214 0.024916204 0.52472126 4278190335
-0.036771439 0.024937481 0.5251205 4278190335
-0.03707166 0.024958756 0.52551979 4278190335
-0.037371885 0.024980033 0.52591902 4278190335
-0.03767211 0.02500131 0.52631831 4278190335
-0.007649723 0.022873649 0.48639178 4294967295
-0.0058483798 0.022745989 0.48399618 4294967295
-0.0040470362 0.022618331 0.48160058 4294967295
-0.002245693 0.022490671 0.47920501 4294967295
-0.00044434937 0.022363011 0.47680941 4294967295
0.0013569943 0.022235351 0.47441381 4294967295
0.003158337 0.022107691 0.47201821 4294967295
0.0049596806 0.021980032 0.46962264 4294967295
0.0067610242 0.021852372 0.46722704 4294967295
0.0085623674 0.021724712 0.46483144 4294967295
0.010363711 0.021597054 0.46243584 4294967295
0.012165055 0.021469394 0.46004027 4294967295
0.013966396 0.021341734 0.45764467 4294967295
0.01576774 0.021214074 0.45524907 4294967295
0.017569084 0.021086413 0.45285347 4294967295
0.019370429 0.020958755 0.45045787 4294967295
0.021171771 0.020831095 0.4480623 4294967295
0.022973115 0.020703435 0.4456667 4294967295
0.024774458 0.020575777 0.4432711 4294967295
0.0265758 0.020448117 0.44087553 4294967295
0.028377146 0.020320456 0.43847993 4294967295
0.030178487 0.020192796 0.43608433 4294967295
0.031979833 0.020065136 0.43368873 4294967295
0.033781175 0.019937478 0.43129313 4294967295
0.035582516 0.019809818 0.42889756 4294967295
0.037383862 0.019682158 0.42650196 4294967295
0.039185204 0.0195545 0.42410636 4294967295
0.040986549 0.019426839 0.42171079 4294967295
0.042787891 0.019299179 0.41931519 4294967295
0.044589233 0.019171519 0.41691959 4294967295
0.046390582 0.019043859 0.41452399 4294967295
0.048191924 0.018916201 0.41212839 4294967295
0.049993265 0.018788541 0.40973282 4294967295
0.051794611 0.018660881 0.40733722 4294967295
0.053595953 0.018533222 0.40494162 4294967295
0.055397298 0.018405562 0.40254605 4294967295
0.05719864 0.018277902 0.40015042 4294967295
0.058999982 0.018150242 0.39775485 4294967295
0.060801324 0.018022582 0.39535925 4294967295
0.062602669 0.017894924 0.39296365 4294967295
0.064404018 0.017767264 0.39056808 4294967295
0.06620536 0.017639603 0.38817248 4294967295
0.068006702 0.017511945 0.38577688 4294967295
0.069808051 0.017384285 0.38338128 4294967295
0.071609393 0.017256625 0.38098568 4294967295
0.073410735 0.017128965 0.37859011 4294967295
0.075212076 0.017001305 0.37619451 4294967295
0.077013418 0.016873647 0.37379891 4294967295
0.07881476 0.016745986 0.37140334 4294967295
0.080616109 0.016618326 0.36900774 4294967295
0.082417451 0.016490668 0.36661214 4294967295
0.084218793 0.016363008 0.36421654 4294967295
0.086020134 0.016235348 0.36182097 4294967295
0.087821476 0.01610769 0.35942537 4294967295
0.089622825 0.015980028 0.35702977 4294967295
0.091424167 0.015852369 0.35463417 4294967295
0.093225509 0.015724709 0.3522386 4294967295
0.095026851 0.015597049 0.34984297 4294967295
0.096828192 0.01546939 0.3474474 4294967295
0.098629534 0.015341731 0.34505183 4294967295
0.10043089 0.015214071 0.3426562 4294967295
0.10223223 0.015086411 0.34026062 4294967295
0.10403357 0.014958751 0.33786502 4294967295
0.10583492 0.014831092 0.33546942 4294967295
0.10763626 0.014703432 0.33307385 4294967295
0.1094376 0.014575773 0.33067825 4294967295
0.11123895 0.014448113 0.32828265 4294967295
0.11304029 0.014320453 0.32588705 4294967295
0.11484163 0.014192794 0.32349145 4294967295
0.11664297 0.014065134 0.32109588 4294967295
0.11844432 0.013937474 0.31870028 4294967295
0.12024567 0.013809815 0.31630468 4294967295
0.12204701 0.013682155 0.31390908 4294967295
0.12384835 0.013554495 0.31151348 4294967295
0.12564969 0.013426836 0.30911791 4294967295
0.12745103 0.013299176 0.30672231 4294967295
0.12925237 0.013171516 0.30432671 4294967295
0.13105372 0.013043857 0.30193114 4294967295
0.13285506 0.012916197 0.29953554 4294967295
0.13465641 0.012788537 0.29713994 4294967295
0.13645776 0.012660878 0.29474434 4294967295
0.1382591 0.012533218 0.29234874 4294967295
0.14006044 0.012405558 0.28995317 4294967295
0.14186178 0.012277899 0.28755757 4294967295
0.14366312 0.012150239 0.28516197 4294967295
0.14546448 0.012022579 0.28276637 4294967295
0.14726582 0.01189492 0.28037077 4294967295
0.14906716 0.01176726 0.2779752 4294967295
0.15086851 0.011639601 0.2755796 4294967295
0.15266985 0.011511941 0.273184 4294967295
0.15447119 0.011384281 0.27078843 4294967295
0.15627253 0.011256621 0.2683928 4294967295
0.15807387 0.011128962 0.26599723 4294967295
0.15987521 0.011001302 0.26360166 4294967295
0.16167656 0.010873643 0.26120603 4294967295
0.1634779 0.010745984 0.25881046 4294967295
0.16527924 0.010618323 0.25641486 4294967295
0.1670806 0.010490663 0.25401926 4294967295
0.16888194 0.010363004 0.25162369 4294967295
0.17068328 0.010235344 0.24922808 4294967295
0.17248462 0.010107685 0.24683249 4294967295
