# .PCD v0.7 - Point Cloud Data file format
VERSION 0.7
FIELDS x y z rgb
SIZE 4 4 4 4
TYPE F F F U
COUNT 1 1 1 1
WIDTH 1056
HEIGHT 1
VIEWPOINT 0 0 0 1 0 0 0
POINTS 1056
DATA ascii
0.094596907 0.02525305 0.39300001 4278330119
0.095873371 0.02525305 0.39300001 4278527498
0.097397037 0.025317308 0.39400002 4278527498
0.098676749 0.025317308 0.39400002 4278593806
0.09995646 0.025317308 0.39400002 4278659086
0.10149312 0.025381563 0.39500001 4278395914
0.10277608 0.025381563 0.39500001 4278592523
0.10405904 0.025381563 0.39500001 4278723595
0.1056087 0.025445823 0.39600003 4278460423
0.10689491 0.025445823 0.39600003 4278592523
0.10818111 0.025445823 0.39600003 4278198535
0.10974374 0.025510078 0.39700001 4278724109
0.11103321 0.025510078 0.39700001 4278193664
0.1126056 0.025574338 0.39800003 4278794002
0.11389831 0.025574338 0.39800003 4278662929
0.11548043 0.025638593 0.39900002 4278662929
0.11706904 0.025702849 0.40000001 4278860308
0.11925601 0.025895622 0.40300003 4278794515
0.12086412 0.025959879 0.40400001 4278794515
0.032213245 0.026664959 0.39500001 4280298012
0.033496205 0.026664959 0.39500001 4279902743
0.034779165 0.026664959 0.39500001 4279705364
0.035970829 0.026597453 0.39400002 4279639571
0.037061453 0.026462441 0.39200002 4279705362
0.038236879 0.026394935 0.39100003 4279508496
0.039405808 0.026327427 0.39000002 4279378445
0.04046395 0.026192416 0.38800001 4279445522
0.041616637 0.02612491 0.38700002 4279054357
0.042762831 0.026057404 0.38600001 4279055638
0.044016559 0.026057404 0.38600001 4278727441
0.045153007 0.025989898 0.38500002 4278728211
0.046282958 0.02592239 0.384 4278597908
0.047530189 0.02592239 0.384 4278532115
0.048650399 0.025854886 0.38300002 4278532115
0.049894385 0.025854886 0.38300002 4278466835
0.051138371 0.025854886 0.38300002 4278335249
0.052245583 0.02578738 0.38200003 4278335249
0.053486321 0.02578738 0.38200003 4278335249
0.054727063 0.02578738 0.38200003 4278335249
0.056114309 0.025854886 0.38300002 4278269456
0.057358291 0.025854886 0.38300002 4278203406
0.058602277 0.025854886 0.38300002 4278400529
0.059846263 0.025854886 0.38300002 4278531345
0.061090246 0.025854886 0.38300002 4278195715
0.062496983 0.02592239 0.384 4278790418
0.063744217 0.02592239 0.384 4279187224
0.064991444 0.02592239 0.384 4278195969
0.066411175 0.025989898 0.38500002 4278457093
0.067661658 0.025989898 0.38500002 4278456839
0.068912141 0.025989898 0.38500002 4278456326
0.070162617 0.025989898 0.38500002 4278719498
0.071598589 0.026057404 0.38600001 4278456839
0.072852321 0.026057404 0.38600001 4278654218
0.074298032 0.02612491 0.38700002 4278522632
0.075555012 0.02612491 0.38700002 4278456839
0.076811984 0.02612491 0.38700002 4278522632
0.078270689 0.026192416 0.38800001 4278654218
0.07953091 0.026192416 0.38800001 4278197254
0.080791138 0.026192416 0.38800001 4278792466
0.082262844 0.026259923 0.38900003 4278596371
0.083526313 0.026259923 0.38900003 4278529808
0.085007749 0.026327427 0.39000002 4279253017
0.086274475 0.026327427 0.39000002 4278727187
0.087765656 0.026394935 0.39100003 4278858773
0.08903563 0.026394935 0.39100003 4278727187
0.090536557 0.026462441 0.39200002 4278727187
0.091809772 0.026462441 0.39200002 4279056152
0.093320444 0.026529947 0.39300001 4279055638
0.094596907 0.026529947 0.39300001 4279187476
0.096117325 0.026597453 0.39400002 4279056404
0.097397037 0.026597453 0.39400002 4278990611
0.098676749 0.026597453 0.39400002 4279056406
0.10021015 0.026664959 0.39500001 4278990613
0.10149312 0.026664959 0.39500001 4278990359
0.10303628 0.026732467 0.39600003 4278858773
0.10432249 0.026732467 0.39600003 4278858773
0.1056087 0.026732467 0.39600003 4278661394
0.10716484 0.026799971 0.39700001 4278924820
0.10845429 0.026799971 0.39700001 4278990613
0.10974374 0.026799971 0.39700001 4278990099
0.11131289 0.026867479 0.39800003 4278193664
0.11288852 0.026934985 0.39900002 4278794004
0.11418448 0.026934985 0.39900002 4278728211
0.11576986 0.027002489 0.40000001 4278860308
0.11736172 0.027069997 0.40100002 4278662929
0.11925601 0.027205011 0.40300003 4278662929
0.12086412 0.027272515 0.40400001 4278794517
0.12217632 0.027272515 0.40400001 4279056922
0.026807161 0.027665334 0.39100003 4284512616
0.028148938 0.027736088 0.39200002 4284644461
0.029572265 0.027877599 0.39400002 4284380776
0.033496205 0.027948353 0.39500001 4279312148
0.034779165 0.027948353 0.39500001 4279573778
0.03587953 0.027806843 0.39300001 4279705362
0.037061453 0.027736088 0.39200002 4279705362
0.038139086 0.027594578 0.39000002 4279640082
0.039304767 0.027523823 0.38900003 4279443984
0.04046395 0.027453067 0.38800001 4279315219
0.041616637 0.027382312 0.38700002 4279251734
0.042762831 0.027311556 0.38600001 4278990099
0.044016559 0.027311556 0.38600001 4278530832
0.045153007 0.027240802 0.38500002 4278728211
0.046282958 0.027170045 0.384 4278795285
0.047530189 0.027170045 0.384 4278663699
0.048650399 0.027099291 0.38300002 4278400527
0.049894385 0.027099291 0.38300002 4278335247
0.051138371 0.027099291 0.38300002 4278466833
0.05238235 0.027099291 0.38300002 4278466833
0.053626336 0.027099291 0.38300002 4278532626
0.054870322 0.027099291 0.38300002 4278335247
0.056114309 0.027099291 0.38300002 4278269454
0.057358291 0.027099291 0.38300002 4278335249
0.058602277 0.027099291 0.38300002 4278532115
0.060002517 0.027170045 0.384 4278728724
0.061249748 0.027170045 0.384 4278394378
0.062496983 0.027170045 0.384 4279055127
0.063744217 0.027170045 0.384 4279120920
0.065160699 0.027240802 0.38500002 4278195716
0.066411175 0.027240802 0.38500002 4279312662
0.067661658 0.027240802 0.38500002 4278588939
0.068912141 0.027240802 0.38500002 4279049490
0.070344858 0.027311556 0.38600001 4279379225
0.071598589 0.027311556 0.38600001 4278589709
0.073041059 0.027382312 0.38700002 4279183381
0.074298032 0.027382312 0.38700002 4278853133
0.075555012 0.027382312 0.38700002 4278984719
0.077010468 0.027453067 0.38800001 4278984721
0.078270689 0.027453067 0.38800001 4278655756
0.07953091 0.027453067 0.38800001 4278789648
0.080999367 0.027523823 0.38900003 4278661394
0.082262844 0.027523823 0.38900003 4278397195
0.083741032 0.027594578 0.39000002 4278263044
0.085007749 0.027594578 0.39000002 4278327300
0.08649569 0.027665334 0.39100003 4279447832
0.087765656 0.027665334 0.39100003 4278397710
0.089263335 0.027736088 0.39200002 4278858261
0.090536557 0.027736088 0.39200002 4278198530
0.092043974 0.027806843 0.39300001 4278199559
0.093320444 0.027806843 0.39300001 4278923539
0.094596907 0.027806843 0.39300001 4278196224
0.096117325 0.027877599 0.39400002 4278464015
0.097397037 0.027877599 0.39400002 4278859027
0.098927192 0.027948353 0.39500001 4278727441
0.10021015 0.027948353 0.39500001 4278200583
0.10175007 0.028019112 0.39600003 4278266122
0.10303628 0.028019112 0.39600003 4278199044
0.10432249 0.028019112 0.39600003 4278726673
0.10587539 0.028089866 0.39700001 4278199301
0.10716484 0.028089866 0.39700001 4278199555
0.10872748 0.028160622 0.39800003 4278596623
0.11002018 0.028160622 0.39800003 4278792466
0.11159257 0.028231377 0.39900002 4278460937
0.11288852 0.028231377 0.39900002 4278531091
0.11447065 0.028302131 0.40000001 4278728724
0.11605928 0.028372888 0.40100002 4278662929
0.11765439 0.028443642 0.40200001 4278531343
0.11955193 0.028585153 0.40400001 4278531343
0.12086412 0.028585153 0.40400001 4278926103
0.12217632 0.028585153 0.40400001 4279648291
0.033496205 0.029231749 0.39500001 4284973167
0.03587953 0.02908374 0.39300001 4279639830
0.036966912 0.028935732 0.39100003 4279836950
0.038139086 0.028861728 0.39000002 4279574289
0.039304767 0.028787725 0.38900003 4279182096
0.04046395 0.028713718 0.38800001 4279118353
0.041616637 0.028639715 0.38700002 4279055638
0.042762831 0.028565709 0.38600001 4278858773
0.044016559 0.028565709 0.38600001 4278530832
0.045153007 0.028491706 0.38500002 4278794515
0.046282958 0.028417701 0.384 4278663699
0.047530189 0.028417701 0.384 4278598419
0.04877742 0.028417701 0.384 4278269454
0.049894385 0.028343696 0.38300002 4278532626
0.051138371 0.028343696 0.38300002 4278532626
0.05238235 0.028343696 0.38300002 4278466833
0.053626336 0.028343696 0.38300002 4278466833
0.054870322 0.028343696 0.38300002 4278466833
0.056114309 0.028343696 0.38300002 4278597906
0.057358291 0.028343696 0.38300002 4278597906
0.058755282 0.028417701 0.384 4278597906
0.060002517 0.028417701 0.384 4278201099
0.061249748 0.028417701 0.384 4278592269
0.062496983 0.028417701 0.384 4278792468
0.063910216 0.028491706 0.38500002 4278396427
0.065160699 0.028491706 0.38500002 4278195205
0.066411175 0.028491706 0.38500002 4278985234
0.067837402 0.028565709 0.38600001 4278985232
0.069091134 0.028565709 0.38600001 4278195204
0.070344858 0.028565709 0.38600001 4278590476
0.071784079 0.028639715 0.38700002 4278194951
0.073041059 0.028639715 0.38700002 4278657037
0.074298032 0.028639715 0.38700002 4278523400
0.075750239 0.028713718 0.38800001 4279708955
0.077010468 0.028713718 0.38800001 4278393865
0.078270689 0.028713718 0.38800001 4278260996
0.07973589 0.028787725 0.38900003 4278988564
0.080999367 0.028787725 0.38900003 4278727187
0.082474314 0.028861728 0.39000002 4278195713
0.083741032 0.028861728 0.39000002 4278654468
0.085225724 0.028935732 0.39100003 4278458375
0.08649569 0.028935732 0.39100003 4278854416
0.08799012 0.029009737 0.39200002 4279515678
0.089263335 0.029009737 0.39200002 4278858261
0.090536557 0.029009737 0.39200002 4278331404
0.092043974 0.02908374 0.39300001 4278857748
0.093320444 0.02908374 0.39300001 4279055640
0.094837613 0.029157747 0.39400002 4278196992
0.096117325 0.029157747 0.39400002 4279185689
0.09764424 0.029231749 0.39500001 4278264587
0.098927192 0.029231749 0.39500001 4278526476
0.10046386 0.029305754 0.39600003 4278856724
0.10175007 0.029305754 0.39600003 4278922771
0.10329647 0.029379759 0.39700001 4279514908
0.10458592 0.029379759 0.39700001 4279711004
0.10587539 0.029379759 0.39700001 4278988051
0.10743479 0.029453764 0.39800003 4278196736
0.10872748 0.029453764 0.39800003 4278661394
0.11029661 0.029527768 0.39900002 4278397710
0.11159257 0.029527768 0.39900002 4279252506
0.11317145 0.029601771 0.40000001 4278728724
0.11475683 0.029675776 0.40100002 4278728724
0.11634871 0.029749781 0.40200001 4278531345
0.11794706 0.029823786 0.40300003 4278794517
0.11955193 0.029897789 0.40400001 4278728722
0.12086412 0.029897789 0.40400001 4278991894
0.12247874 0.029971795 0.40500003 4278856726
0.033496205 0.030515144 0.39500001 4284381805
0.034691118 0.030437892 0.39400002 4284776047
0.03587953 0.030360637 0.39300001 4284841327
0.036872365 0.030128878 0.39000002 4279311635
0.038041294 0.030051624 0.38900003 4279903256
0.039203726 0.029974369 0.38800001 4279183633
0.040359661 0.029897118 0.38700002 4279184658
0.041616637 0.029897118 0.38700002 4278989845
0.042762831 0.029819863 0.38600001 4278727187
0.044016559 0.029819863 0.38600001 4278728211
0.045153007 0.02974261 0.38500002 4278860308
0.046403486 0.02974261 0.38500002 4278597906
0.047530189 0.029665355 0.384 4278466833
0.04877742 0.029665355 0.384 4278466833
0.049894385 0.029588103 0.38300002 4278335247
0.051138371 0.029588103 0.38300002 4278532626
0.05238235 0.029588103 0.38300002 4278598419
0.053626336 0.029588103 0.38300002 4278466833
0.054870322 0.029588103 0.38300002 4278335247
0.056114309 0.029588103 0.38300002 4278466833
0.057508048 0.029665355 0.384 4278466833
0.058755282 0.029665355 0.384 4278334736
0.060002517 0.029665355 0.384 4278330634
0.061409254 0.02974261 0.38500002 4278987027
0.062659733 0.02974261 0.38500002 4278792468
0.063910216 0.02974261 0.38500002 4278658062
0.065160699 0.02974261 0.38500002 4278523398
0.066583671 0.029819863 0.38600001 4278523400
0.067837402 0.029819863 0.38600001 4278391814
0.069091134 0.029819863 0.38600001 4278391560
0.070344858 0.029819863 0.38600001 4278523146
0.071784079 0.029897118 0.38700002 4278325767
0.073041059 0.029897118 0.38700002 4278523146
0.074490011 0.029974369 0.38800001 4278391814
0.075750239 0.029974369 0.38800001 4278391814
0.077010468 0.029974369 0.38800001 4278194946
0.078472421 0.030051624 0.38900003 4278392582
0.07973589 0.030051624 0.38900003 4278923541
0.081207588 0.030128878 0.39000002 4278661396
0.082474314 0.030128878 0.39000002 4278458375
0.083741032 0.030128878 0.39000002 4278654472
0.085225724 0.030206133 0.39100003 4278195716
0.08649569 0.030206133 0.39100003 4279513371
0.08799012 0.030283384 0.39200002 4278194688
0.089263335 0.030283384 0.39200002 4278462220
0.090767518 0.030360637 0.39300001 4279186713
0.092043974 0.030360637 0.39300001 4278199817
0.093557902 0.030437892 0.39400002 4278198792
0.094837613 0.030437892 0.39400002 4279055386
0.096361272 0.030515144 0.39500001 4279187226
0.09764424 0.030515144 0.39500001 4278923541
0.099177644 0.030592399 0.39600003 4278856978
0.10046386 0.030592399 0.39600003 4279514654
0.10200701 0.030669652 0.39700001 4278594322
0.10329647 0.030669652 0.39700001 4278791955
0.10484937 0.030746907 0.39800003 4279317527
0.10614207 0.030746907 0.39800003 4278462218
0.10743479 0.030746907 0.39800003 4278726162
0.10900066 0.030824158 0.39900002 4278924568
0.11029661 0.030824158 0.39900002 4278264841
0.11187225 0.030901412 0.40000001 4279317527
0.11345438 0.030978667 0.40100002 4278794517
0.11504301 0.03105592 0.40200001 4278794517
0.11634871 0.03105592 0.40200001 4278860310
0.11794706 0.031133173 0.40300003 4278728724
0.11955193 0.031210426 0.40400001 4278531345
0.12086412 0.031210426 0.40400001 4279188762
0.03677782 0.031315524 0.38900003 4285631610
0.037943501 0.031235021 0.38800001 4279115537
0.039102685 0.031154519 0.38700002 4279183892
0.040359661 0.031154519 0.38700002 4278987797
0.041509099 0.031074015 0.38600001 4279055127
0.042762831 0.031074015 0.38600001 4278924566
0.044016559 0.031074015 0.38600001 4278728724
0.045153007 0.030993514 0.38500002 4278926103
0.046403486 0.030993514 0.38500002 4278598419
0.047530189 0.03091301 0.384 4278532626
0.04877742 0.03091301 0.384 4278466833
0.050024655 0.03091301 0.384 4278532626
0.051138371 0.030832509 0.38300002 4278203661
0.05238235 0.030832509 0.38300002 4278466833
0.053626336 0.030832509 0.38300002 4278466833
0.054870322 0.030832509 0.38300002 4278466833
0.05626082 0.03091301 0.384 4278532626
0.057508048 0.03091301 0.384 4278532626
0.058755282 0.03091301 0.384 4278793750
0.060158778 0.030993514 0.38500002 4278197511
0.061409254 0.030993514 0.38500002 4278789650
0.062659733 0.030993514 0.38500002 4278989847
0.063910216 0.030993514 0.38500002 4278789136
0.065329939 0.031074015 0.38600001 4278523400
0.066583671 0.031074015 0.38600001 4278654218
0.067837402 0.031074015 0.38600001 4278785291
0.069091134 0.031074015 0.38600001 4278719500
0.070527099 0.031154519 0.38700002 4278587914
0.071784079 0.031154519 0.38700002 4278719500
0.073041059 0.031154519 0.38700002 4278719498
0.074490011 0.031235021 0.38800001 4278522632
0.075750239 0.031235021 0.38800001 4278522632
0.077208951 0.031315524 0.38900003 4278522632
0.078472421 0.031315524 0.38900003 4278589193
0.07973589 0.031315524 0.38900003 4278857746
0.081207588 0.031396028 0.39000002 4278726673
0.082474314 0.031396028 0.39000002 4279578904
0.08395575 0.031476531 0.39100003 4279709723
0.085225724 0.031476531 0.39100003 4279776029
0.086716905 0.031557031 0.39200002 4279119383
0.08799012 0.031557031 0.39200002 4279317529
0.089263335 0.031557031 0.39200002 4278988564
0.090767518 0.031637534 0.39300001 4278791183
0.092043974 0.031637534 0.39300001 4279384090
0.093557902 0.031718038 0.39400002 4279252506
0.095078319 0.031798538 0.39500001 4279055127
0.096361272 0.031798538 0.39500001 4279253019
0.097891442 0.031879045 0.39600003 4279318812
0.099177644 0.031879045 0.39600003 4279450398
0.10071755 0.031959545 0.39700001 4279252504
0.10200701 0.031959545 0.39700001 4279318297
0.10355666 0.032040048 0.39800003 4278660367
0.10484937 0.032040048 0.39800003 4278726160
0.10640876 0.032120552 0.39900002 4278791953
0.10770471 0.032120552 0.39900002 4279055125
0.10900066 0.032120552 0.39900002 4278726162
0.11057305 0.032201052 0.40000001 4278196224
0.11187225 0.032201052 0.40000001 4279515678
0.11345438 0.032281555 0.40100002 4278728724
0.11504301 0.032362059 0.40200001 4278532115
0.11663813 0.032442562 0.40300003 4278729492
0.11794706 0.032442562 0.40300003 4278729492
0.11955193 0.032523062 0.40400001 4278926101
0.12086412 0.032523062 0.40400001 4279186965
0.036683276 0.032495674 0.38800001 4284579952
0.037845708 0.032411922 0.38700002 4283592027
0.039102685 0.032411922 0.38700002 4278657552
0.040359661 0.032411922 0.38700002 4279053590
0.041509099 0.03232817 0.38600001 4279121433
0.042762831 0.03232817 0.38600001 4278990613
0.043902528 0.032244418 0.38500002 4278794517
0.045153007 0.032244418 0.38500002 4278861078
0.046403486 0.032244418 0.38500002 4278664212
0.047530189 0.032160666 0.384 4278598419
0.04877742 0.032160666 0.384 4278598419
0.050024655 0.032160666 0.384 4278598419
0.051271889 0.032160666 0.384 4278598419
0.05238235 0.032076914 0.38300002 4278466833
0.053766351 0.032160666 0.384 4278466833
0.055013586 0.032160666 0.384 4278466833
0.05626082 0.032160666 0.384 4278466833
0.057508048 0.032160666 0.384 4278335249
0.058908295 0.032244418 0.38500002 4278530832
0.060158778 0.032244418 0.38500002 4278529294
0.061409254 0.032244418 0.38500002 4278660369
0.062659733 0.032244418 0.38500002 4278990361
0.064076215 0.03232817 0.38600001 4278990361
0.065329939 0.03232817 0.38600001 4279186713
0.066583671 0.03232817 0.38600001 4279381785
0.067837402 0.03232817 0.38600001 4279381273
0.069270127 0.032411922 0.38700002 4279644445
0.070527099 0.032411922 0.38700002 4279315480
0.071784079 0.032411922 0.38700002 4279644445
0.07322979 0.032495674 0.38800001 4279710238
0.074490011 0.032495674 0.38800001 4279578652
0.075750239 0.032495674 0.38800001 4279578652
0.077208951 0.032579426 0.38900003 4279578652
0.078472421 0.032579426 0.38900003 4279184406
0.07994087 0.032663178 0.39000002 4279055127
0.081207588 0.032663178 0.39000002 4279120920
0.082474314 0.032663178 0.39000002 4279054357
0.08395575 0.03274693 0.39100003 4279119637
0.085225724 0.03274693 0.39100003 4279777567
0.086716905 0.032830682 0.39200002 4279317016
0.08799012 0.032830682 0.39200002 4279119637
0.089491047 0.03291443 0.39300001 4279448602
0.090767518 0.03291443 0.39300001 4279514141
0.09227819 0.032998186 0.39400002 4279119383
0.093557902 0.032998186 0.39400002 4279448348
0.095078319 0.033081934 0.39500001 4279514141
0.096361272 0.033081934 0.39500001 4279382555
0.097891442 0.033165686 0.39600003 4279119383
0.099177644 0.033165686 0.39600003 4279514141
0.10071755 0.033249438 0.39700001 4279777313
0.10226396 0.03333319 0.39800003 4279711774
0.10355666 0.03333319 0.39800003 4279777567
0.10484937 0.03333319 0.39800003 4279580188
0.10640876 0.033416942 0.39900002 4279514395
0.10770471 0.033416942 0.39900002 4279382809
0.10927384 0.033500694 0.40000001 4279580188
0.11057305 0.033500694 0.40000001 4279318297
0.11215193 0.033584446 0.40100002 4279121945
0.11345438 0.033584446 0.40100002 4278794517
0.11504301 0.033668198 0.40200001 4278794517
0.11663813 0.03375195 0.40300003 4278926103
0.11794706 0.03375195 0.40300003 4278991896
0.11955193 0.033835702 0.40400001 4278858259
0.036588732 0.033669323 0.38700002 4284710770
0.037845708 0.033669323 0.38700002 4284644975
0.039001644 0.033582322 0.38600001 4284907633
0.040255371 0.033582322 0.38600001 4278592273
0.041509099 0.033582322 0.38600001 4279384092
0.042762831 0.033582322 0.38600001 4278990359
0.043902528 0.033495322 0.38500002 4278597906
0.045153007 0.033495322 0.38500002 4279321629
0.046403486 0.033495322 0.38500002 4278729490
0.047530189 0.033408321 0.384 4278466831
0.04877742 0.033408321 0.384 4278664210
0.050024655 0.033408321 0.384 4278466833
0.051271889 0.033408321 0.384 4278795798
0.052519117 0.033408321 0.384 4278598419
0.053766351 0.033408321 0.384 4278532626
0.055013586 0.033408321 0.384 4278664212
0.05626082 0.033408321 0.384 4278795800
0.057508048 0.033408321 0.384 4278664214
0.058908295 0.033495322 0.38500002 4278464785
0.060158778 0.033495322 0.38500002 4278660880
0.061409254 0.033495322 0.38500002 4278595603
0.062822483 0.033582322 0.38600001 4278795035
0.064076215 0.033582322 0.38600001 4278663447
0.065329939 0.033582322 0.38600001 4278795033
0.066583671 0.033582322 0.38600001 4278925849
0.068013154 0.033669323 0.38700002 4278991642
0.069270127 0.033669323 0.38700002 4278860056
0.070527099 0.033669323 0.38700002 4279189021
0.071784079 0.033669323 0.38700002 4278859797
0.07322979 0.033756323 0.38800001 4278925590
0.074490011 0.033756323 0.38800001 4278991129
0.075945474 0.033843327 0.38900003 4278859543
0.077208951 0.033843327 0.38900003 4278925336
0.078472421 0.033843327 0.38900003 4278991129
0.07994087 0.033930324 0.39000002 4279057176
0.081207588 0.033930324 0.39000002 4279057176
0.082685791 0.034017328 0.39100003 4279188762
0.08395575 0.034017328 0.39100003 4278925590
0.085225724 0.034017328 0.39100003 4278991383
0.086716905 0.034104329 0.39200002 4279122199
0.08799012 0.034104329 0.39200002 4279056406
0.089491047 0.034191329 0.39300001 4279122199
0.090767518 0.034191329 0.39300001 4279319578
0.09227819 0.034278329 0.39400002 4279319578
0.093795359 0.03436533 0.39500001 4279056406
0.095078319 0.03436533 0.39500001 4279057176
0.096605234 0.03445233 0.39600003 4279057176
0.097891442 0.03445233 0.39600003 4279188762
0.099428095 0.034539331 0.39700001 4279254555
0.10071755 0.034539331 0.39700001 4279188762
0.10226396 0.034626335 0.39800003 4279057176
0.10355666 0.034626335 0.39800003 4279057176
0.10511281 0.034713335 0.39900002 4279451164
0.10640876 0.034713335 0.39900002 4279385371
0.10797465 0.034800332 0.40000001 4279187992
0.10927384 0.034800332 0.40000001 4279451162
0.11084948 0.034887336 0.40100002 4279385369
0.11215193 0.034887336 0.40100002 4279319576
0.11373731 0.034974337 0.40200001 4279386139
0.11504301 0.034974337 0.40200001 4279320346
0.11663813 0.035061337 0.40300003 4279517727
0.11794706 0.035061337 0.40300003 4278989847
0.11925601 0.035061337 0.40300003 4284841831
0.12056496 0.035061337 0.40300003 4285630323
0.036588732 0.034926727 0.38700002 4284710768
0.037747912 0.034836479 0.38600001 4284776561
0.039001644 0.034836479 0.38600001 4284776561
0.040255371 0.034836479 0.38600001 4285171319
0.041509099 0.034836479 0.38600001 4281093690
0.042762831 0.034836479 0.38600001 4278857496
0.043902528 0.03474623 0.38500002 4278925590
0.045153007 0.03474623 0.38500002 4278992666
0.046403486 0.03474623 0.38500002 4279124252
0.047653969 0.03474623 0.38500002 4279058459
0.04877742 0.034655977 0.384 4279058972
0.050024655 0.034655977 0.384 4279058972
0.051271889 0.034655977 0.384 4278927386
0.052519117 0.034655977 0.384 4278993179
0.053766351 0.034655977 0.384 4278795800
0.055013586 0.034655977 0.384 4279058972
0.05626082 0.034655977 0.384 4278993179
0.057657812 0.03474623 0.38500002 4278730007
0.058908295 0.03474623 0.38500002 4279058972
0.060158778 0.03474623 0.38500002 4279124252
0.061409254 0.03474623 0.38500002 4279124252
0.062822483 0.034836479 0.38600001 4278992666
0.064076215 0.034836479 0.38600001 4278861080
0.065329939 0.034836479 0.38600001 4278861080
0.066756174 0.034926727 0.38700002 4279058459
0.068013154 0.034926727 0.38700002 4279124252
0.069270127 0.034926727 0.38700002 4278993179
0.070527099 0.034926727 0.38700002 4278993179
0.071969569 0.035016976 0.38800001 4279058459
0.07322979 0.035016976 0.38800001 4278992666
0.074490011 0.035016976 0.38800001 4279255068
0.075945474 0.035107229 0.38900003 4279058459
0.077208951 0.035107229 0.38900003 4278992412
0.078472421 0.035107229 0.38900003 4278992666
0.07994087 0.035197478 0.39000002 4279124252
0.081207588 0.035197478 0.39000002 4278992666
0.082685791 0.03528773 0.39100003 4278992666
0.08395575 0.03528773 0.39100003 4278991896
0.085225724 0.03528773 0.39100003 4279255068
0.086716905 0.035377979 0.39200002 4279123482
0.08799012 0.035377979 0.39200002 4279123482
0.089491047 0.035468228 0.39300001 4279123482
0.090767518 0.035468228 0.39300001 4279189275
0.09227819 0.035558477 0.39400002 4279123482
0.093795359 0.035648726 0.39500001 4279189275
0.095078319 0.035648726 0.39500001 4279123482
0.096605234 0.035738979 0.39600003 4279255068
0.098138638 0.035829227 0.39700001 4279255068
0.099428095 0.035829227 0.39700001 4279254553
0.10097125 0.03591948 0.39800003 4279582748
0.10226396 0.03591948 0.39800003 4279385369
0.10381685 0.036009729 0.39900002 4279451162
0.10511281 0.036009729 0.39900002 4279582750
0.10667545 0.036099978 0.40000001 4279516957
0.10797465 0.036099978 0.40000001 4279450396
0.10954703 0.036190227 0.40100002 4279581723
0.11084948 0.036190227 0.40100002 4279252758
0.11215193 0.036190227 0.40100002 4279055379
0.11373731 0.036280476 0.40200001 4279843360
0.11504301 0.036280476 0.40200001 4281751103
0.11663813 0.036370728 0.40300003 4284907883
0.11794706 0.036370728 0.40300003 4286091646
0.11925601 0.036370728 0.40300003 4285498741
0.12056496 0.036370728 0.40300003 4285827704
0.037747912 0.036090631 0.38600001 4284842354
0.039001644 0.036090631 0.38600001 4284776561
0.040255371 0.036090631 0.38600001 4284842354
0.041509099 0.036090631 0.38600001 4284842354
0.042762831 0.036090631 0.38600001 4285237364
0.043902528 0.035997134 0.38500002 4283198549
0.045153007 0.035997134 0.38500002 4279712803
0.046403486 0.035997134 0.38500002 4278858521
0.047653969 0.035997134 0.38500002 4279319842
0.04877742 0.035903633 0.384 4279254814
0.050024655 0.035903633 0.384 4279189021
0.051271889 0.035903633 0.384 4279189791
0.052519117 0.035903633 0.384 4279320607
0.053766351 0.035903633 0.384 4279123482
0.055013586 0.035903633 0.384 4279189275
0.05626082 0.035903633 0.384 4279452447
0.057657812 0.035997134 0.38500002 4279189275
0.058908295 0.035997134 0.38500002 4279255068
0.060158778 0.035997134 0.38500002 4279123482
0.061568756 0.036090631 0.38600001 4279189275
0.062822483 0.036090631 0.38600001 4279320861
0.064076215 0.036090631 0.38600001 4279057176
0.065329939 0.036090631 0.38600001 4279320348
0.066756174 0.036184132 0.38700002 4279451934
0.068013154 0.036184132 0.38700002 4279254555
0.069270127 0.036184132 0.38700002 4279188762
0.070527099 0.036184132 0.38700002 4279254555
0.071969569 0.036277629 0.38800001 4279255068
0.07322979 0.036277629 0.38800001 4279057176
0.074490011 0.036277629 0.38800001 4279188762
0.075945474 0.03637113 0.38900003 4279320348
0.077208951 0.03637113 0.38900003 4279320094
0.078674145 0.036464628 0.39000002 4279451680
0.07994087 0.036464628 0.39000002 4279320094
0.081207588 0.036464628 0.39000002 4279516703
0.082685791 0.036558129 0.39100003 4279319324
0.08395575 0.036558129 0.39100003 4279319324
0.085225724 0.036558129 0.39100003 4279450910
0.086716905 0.036651626 0.39200002 4279450910
0.08799012 0.036651626 0.39200002 4278990359
0.089491047 0.036745124 0.39300001 4279056152
0.090998478 0.036838625 0.39400002 4279318297
0.09227819 0.036838625 0.39400002 4279055125
0.093795359 0.036932122 0.39500001 4279318297
0.095319025 0.037025623 0.39600003 4279449115
0.096605234 0.037025623 0.39600003 4279975459
0.098138638 0.03711912 0.39700001 4280764975
0.099428095 0.03711912 0.39700001 4281619517
0.10097125 0.037212621 0.39800003 4283198551
0.10226396 0.037212621 0.39800003 4283988067
0.10381685 0.037306119 0.39900002 4285106546
0.10511281 0.037306119 0.39900002 4285566581
0.10667545 0.037399616 0.40000001 4285961085
0.10797465 0.037399616 0.40000001 4285566329
0.10954703 0.037493117 0.40100002 4285566329
0.11084948 0.037493117 0.40100002 4285171571
0.11243161 0.037586614 0.40200001 4285434229
0.11373731 0.037586614 0.40200001 4285631608
0.11532918 0.037680116 0.40300003 4285434231
0.11663813 0.037680116 0.40300003 4285631097
0.11794706 0.037680116 0.40300003 4285827704
0.11925601 0.037680116 0.40300003 4285959292
0.12056496 0.037680116 0.40300003 4285761913
0.089491047 0.038022023 0.39300001 4285500536
0.090998478 0.038118772 0.39400002 4285237366
0.092512392 0.038215518 0.39500001 4285171573
0.093795359 0.038215518 0.39500001 4285434745
0.095319025 0.038312268 0.39600003 4285434231
0.096605234 0.038312268 0.39600003 4285434229
0.098138638 0.038409013 0.39700001 4285434229
0.099428095 0.038409013 0.39700001 4285368436
0.10097125 0.038505763 0.39800003 4285434229
0.10226396 0.038505763 0.39800003 4285237366
0.10355666 0.038505763 0.39800003 4285105780
0.10511281 0.038602512 0.39900002 4285237366
0.10667545 0.038699258 0.40000001 4285368438
0.10797465 0.038699258 0.40000001 4285696890
0.10954703 0.038796008 0.40100002 4285499511
0.11084948 0.038796008 0.40100002 4285827704
0.11243161 0.038892753 0.40200001 4285761911
0.11373731 0.038892753 0.40200001 4285893497
0.11532918 0.038989503 0.40300003 4285630325
0.11663813 0.038989503 0.40300003 4285827704
0.11794706 0.038989503 0.40300003 4285893497
0.11925601 0.038989503 0.40300003 4285827706
0.12056496 0.038989503 0.40300003 4285827706
0.092512392 0.039498914 0.39500001 4285565815
0.093795359 0.039498914 0.39500001 4285697401
0.095319025 0.039598912 0.39600003 4285499511
0.096605234 0.039598912 0.39600003 4285499511
0.098138638 0.039698906 0.39700001 4285631097
0.099428095 0.039698906 0.39700001 4285433718
0.10097125 0.039798908 0.39800003 4285434231
0.10226396 0.039798908 0.39800003 4285565563
0.10355666 0.039798908 0.39800003 4285368184
0.10511281 0.039898902 0.39900002 4285631610
0.10667545 0.0399989 0.40000001 4285696890
0.10797465 0.0399989 0.40000001 4285631097
0.10954703 0.040098898 0.40100002 4285630327
0.11084948 0.040098898 0.40100002 4285761913
0.11243161 0.040198892 0.40200001 4285827706
0.11373731 0.040198892 0.40200001 4285827706
0.11532918 0.040298894 0.40300003 4285827706
0.11663813 0.040298894 0.40300003 4285893499
0.11925601 0.040298894 0.40300003 4285630327
0.098138638 0.040988799 0.39700001 4285499511
0.099428095 0.040988799 0.39700001 4285631097
0.10097125 0.041092049 0.39800003 4285499511
0.10226396 0.041092049 0.39800003 4285631356
0.10355666 0.041092049 0.39800003 4285368184
0.10511281 0.041195296 0.39900002 4285565563
0.10667545 0.041298538 0.40000001 4285499511
0.10797465 0.041298538 0.40000001 4285696890
0.10954703 0.041401789 0.40100002 4285762683
0.11084948 0.041401789 0.40100002 4285762683
0.11243161 0.041505031 0.40200001 4285631097
0.11373731 0.041505031 0.40200001 4285696890
0.11504301 0.041505031 0.40200001 4285499511
0.11663813 0.041608281 0.40300003 4285827706
0.10667545 0.04259818 0.40000001 4285631097
0.10797465 0.04259818 0.40000001 4285827706
0.10954703 0.042704675 0.40100002 4285761913
0.11084948 0.042704675 0.40100002 4285630327
0.074287727 0.028762 0.39058903 4294967295
0.074287727 0.028762 0.39058903 4294901760
0.074357532 0.028278759 0.39048129 4294901760
0.074427344 0.027795518 0.39037359 4294901760
0.074497148 0.027312277 0.39026585 4294901760
0.07456696 0.026829036 0.39015812 4294901760
0.074636765 0.026345795 0.39005038 4294901760
0.074706569 0.025862554 0.38994268 4294901760
0.074776381 0.025379313 0.38983494 4294901760
0.074846186 0.024896072 0.38972721 4294901760
0.074915998 0.024412831 0.38961947 4294901760
0.074985802 0.02392959 0.38951176 4294901760
0.075055607 0.023446351 0.38940403 4294901760
0.075125419 0.02296311 0.38929629 4294901760
0.075195223 0.022479869 0.38918856 4294901760
0.075265028 0.021996628 0.38908085 4294901760
0.07533484 0.021513388 0.38897312 4294901760
0.075404644 0.021030147 0.38886538 4294901760
0.075474456 0.020546906 0.38875765 4294901760
0.07554426 0.020063665 0.38864994 4294901760
0.075614065 0.019580424 0.38854221 4294901760
0.075683877 0.019097183 0.38843447 4294901760
0.075753681 0.018613942 0.38832673 4294901760
0.075823493 0.018130701 0.38821903 4294901760
0.075893298 0.01764746 0.38811129 4294901760
0.075963102 0.017164219 0.38800356 4294901760
0.076032914 0.016680978 0.38789582 4294901760
0.076102719 0.016197737 0.38778812 4294901760
0.076172531 0.015714496 0.38768038 4294901760
0.076242335 0.015231255 0.38757265 4294901760
0.07631214 0.014748015 0.38746494 4294901760
0.076381952 0.014264774 0.38735721 4294901760
0.076451756 0.013781533 0.38724947 4294901760
0.076521561 0.013298293 0.38714173 4294901760
0.076591372 0.012815051 0.38703403 4294901760
0.076661177 0.01233181 0.38692629 4294901760
0.076730989 0.011848571 0.38681856 4294901760
0.076800793 0.011365328 0.38671082 4294901760
0.076870598 0.010882087 0.38660312 4294901760
0.07694041 0.010398848 0.38649538 4294901760
0.077010214 0.0099156071 0.38638765 4294901760
0.077080026 0.0094323643 0.38627991 4294901760
0.077149831 0.0089491252 0.38617221 4294901760
0.077219635 0.0084658843 0.38606447 4294901760
0.077289447 0.0079826433 0.38595673 4294901760
0.077359252 0.0074994024 0.385849 4294901760
0.077429064 0.0070161615 0.38574129 4294901760
0.077498868 0.0065329205 0.38563356 4294901760
0.077568673 0.0060496796 0.38552582 4294901760
0.077638485 0.0055664387 0.38541809 4294901760
0.077708289 0.0050831977 0.38531038 4294901760
0.077778101 0.0045999568 0.38520265 4294901760
0.077847905 0.0041167159 0.38509491 4294901760
0.07791771 0.0036334768 0.38498721 4294901760
0.077987522 0.0031502359 0.38487947 4294901760
0.078057326 0.0026669931 0.38477173 4294901760
0.078127131 0.0021837521 0.384664 4294901760
0.078196943 0.0017005112 0.38455629 4294901760
0.078266747 0.0012172703 0.38444856 4294901760
0.078336559 0.0007340312 0.38434082 4294901760
0.078406364 0.00025079027 0.38423309 4294901760
0.078476168 -0.00023245253 0.38412538 4294901760
0.07854598 -0.00071569346 0.38401765 4294901760
0.078615785 -0.0011989344 0.38390991 4294901760
0.078685597 -0.0016821735 0.38380218 4294901760
0.078755401 -0.0021654144 0.38369447 4294901760
0.078825206 -0.0026486535 0.38358673 4294901760
0.078895018 -0.0031318981 0.383479 4294901760
0.078964822 -0.0036151391 0.38337126 4294901760
0.079034626 -0.00409838 0.38326356 4294901760
0.079104438 -0.0045816209 0.38315582 4294901760
0.079174243 -0.0050648581 0.38304809 4294901760
0.079244055 -0.0055480991 0.38294035 4294901760
0.079313859 -0.0060313437 0.38283265 4294901760
0.079383671 -0.0065145846 0.38272491 4294901760
0.079453476 -0.0069978256 0.38261718 4294901760
0.07952328 -0.0074810665 0.38250947 4294901760
0.079593092 -0.0079643037 0.38240173 4294901760
0.079662897 -0.0084475446 0.382294 4294901760
0.079732701 -0.0089307856 0.38218626 4294901760
0.079802513 -0.0094140302 0.38207856 4294901760
0.079872318 -0.0098972712 0.38197082 4294901760
0.07994213 -0.010380508 0.38186309 4294901760
0.080011934 -0.010863749 0.38175535 4294901760
0.080081739 -0.01134699 0.38164765 4294901760
0.08015155 -0.011830231 0.38153991 4294901760
0.080221355 -0.012313476 0.38143218 4294901760
0.080291167 -0.012796713 0.38132444 4294901760
0.080360971 -0.013279954 0.38121673 4294901760
0.080430776 -0.013763195 0.381109 4294901760
0.080500588 -0.014246436 0.38100126 4294901760
0.080570392 -0.014729677 0.38089353 4294901760
0.080640197 -0.015212921 0.38078582 4294901760
0.080710009 -0.015696159 0.38067809 4294901760
0.080779813 -0.0161794 0.38057035 4294901760
0.080849625 -0.01666264 0.38046262 4294901760
0.08091943 -0.017145881 0.38035491 4294901760
0.080989234 -0.017629122 0.38024718 4294901760
0.081059046 -0.018112363 0.38013944 4294901760
0.081128851 -0.018595604 0.3800317 4294901760
0.081198663 -0.019078845 0.379924 4294901760
0.081268467 -0.019562086 0.37981626 4294901760
0.074287727 0.028762 0.39058903 4278255360
0.074777357 0.028813252 0.39067641 4278255360
0.075266987 0.028864505 0.39076379 4278255360
0.075756624 0.028915755 0.39085114 4278255360
0.076246254 0.028967008 0.39093852 4278255360
0.076735884 0.029018261 0.3910259 4278255360
0.077225514 0.029069513 0.39111328 4278255360
0.077715144 0.029120766 0.39120066 4278255360
0.078204781 0.029172016 0.39128804 4278255360
0.078694411 0.029223269 0.39137539 4278255360
0.07918404 0.029274521 0.39146277 4278255360
0.07967367 0.029325774 0.39155015 4278255360
0.0801633 0.029377025 0.39163753 4278255360
0.080652937 0.029428277 0.39172491 4278255360
0.081142567 0.02947953 0.39181229 4278255360
0.081632197 0.029530782 0.39189965 4278255360
0.082121827 0.029582035 0.39198703 4278255360
0.082611457 0.029633285 0.39207441 4278255360
0.083101094 0.029684538 0.39216179 4278255360
0.083590724 0.029735791 0.39224917 4278255360
0.084080353 0.029787043 0.39233655 4278255360
0.084569983 0.029838296 0.3924239 4278255360
0.085059613 0.029889546 0.39251128 4278255360
0.08554925 0.029940799 0.39259866 4278255360
0.08603888 0.029992051 0.39268604 4278255360
0.08652851 0.030043304 0.39277342 4278255360
0.08701814 0.030094557 0.3928608 4278255360
0.087507769 0.030145807 0.39294815 4278255360
0.087997407 0.03019706 0.39303553 4278255360
0.088487037 0.030248312 0.39312291 4278255360
0.088976666 0.030299565 0.39321029 4278255360
0.089466296 0.030350816 0.39329767 4278255360
0.089955926 0.030402068 0.39338505 4278255360
0.090445563 0.030453321 0.3934724 4278255360
0.090935193 0.030504573 0.39355978 4278255360
0.091424823 0.030555826 0.39364716 4278255360
0.091914453 0.030607078 0.39373454 4278255360
0.092404082 0.030658329 0.39382192 4278255360
0.09289372 0.030709581 0.39390931 4278255360
0.093383349 0.030760834 0.39399666 4278255360
0.093872979 0.030812087 0.39408404 4278255360
0.094362609 0.030863337 0.39417142 4278255360
0.094852239 0.03091459 0.3942588 4278255360
0.095341876 0.030965842 0.39434618 4278255360
0.095831506 0.031017095 0.39443356 4278255360
0.096321136 0.031068347 0.39452091 4278255360
0.096810766 0.031119598 0.39460829 4278255360
0.097300395 0.031170851 0.39469567 4278255360
0.097790033 0.031222103 0.39478305 4278255360
0.098279662 0.031273354 0.39487043 4278255360
0.098769292 0.031324606 0.39495778 4278255360
0.099258922 0.031375859 0.39504516 4278255360
0.099748552 0.031427111 0.39513254 4278255360
0.10023819 0.031478364 0.39521992 4278255360
0.10072782 0.031529617 0.3953073 4278255360
0.10121745 0.031580869 0.39539468 4278255360
0.10170708 0.031632122 0.39548203 4278255360
0.10219671 0.03168337 0.39556941 4278255360
0.10268635 0.031734623 0.39565679 4278255360
0.10317598 0.031785876 0.39574417 4278255360
0.10366561 0.031837128 0.39583156 4278255360
0.10415523 0.031888381 0.39591894 4278255360
0.10464486 0.031939633 0.39600629 4278255360
0.1051345 0.031990886 0.39609367 4278255360
0.10562412 0.032042138 0.39618105 4278255360
0.10611376 0.032093391 0.39626843 4278255360
0.1066034 0.032144643 0.39635581 4278255360
0.10709302 0.032195896 0.39644319 4278255360
0.10758266 0.032247145 0.39653054 4278255360
0.10807229 0.032298397 0.39661792 4278255360
0.10856192 0.03234965 0.3967053 4278255360
0.10905155 0.032400902 0.39679268 4278255360
0.10954118 0.032452155 0.39688006 4278255360
0.11003082 0.032503407 0.39696744 4278255360
0.11052044 0.03255466 0.39705479 4278255360
0.11101007 0.032605913 0.39714217 4278255360
0.1114997 0.032657161 0.39722955 4278255360
0.11198933 0.032708414 0.39731693 4278255360
0.11247897 0.032759666 0.39740431 4278255360
0.1129686 0.032810919 0.39749169 4278255360
0.11345823 0.032862172 0.39757904 4278255360
0.11394786 0.032913424 0.39766642 4278255360
0.11443749 0.032964677 0.3977538 4278255360
0.11492713 0.033015929 0.39784119 4278255360
0.11541675 0.033067182 0.39792857 4278255360
0.11590639 0.033118434 0.39801595 4278255360
0.11639602 0.033169687 0.3981033 4278255360
0.11688565 0.033220936 0.39819068 4278255360
0.11737528 0.033272188 0.39827806 4278255360
0.11786491 0.033323441 0.39836544 4278255360
0.11835454 0.033374693 0.39845282 4278255360
0.11884418 0.033425946 0.3985402 4278255360
0.1193338 0.033477198 0.39862755 4278255360
0.11982344 0.033528451 0.39871493 4278255360
0.12031307 0.033579703 0.39880231 4278255360
0.1208027 0.033630952 0.39888969 4278255360
0.12129233 0.033682205 0.39897707 4278255360
0.12178196 0.033733457 0.39906445 4278255360
0.1222716 0.03378471 0.3991518 4278255360
0.12276123 0.033835962 0.39923918 4278255360
0.12325086 0.033887215 0.39932656 4278255360
0.074287727 0.028762 0.39058903 4278190335
0.074148573 0.028638441 0.39105311 4278190335
0.074009411 0.028514884 0.39151719 4278190335
0.073870257 0.028391326 0.39198127 4278190335
0.073731095 0.028267767 0.39244536 4278190335
0.07359194 0.028144211 0.39290941 4278190335
0.073452778 0.028020652 0.39337349 4278190335
0.073313624 0.027897093 0.39383757 4278190335
0.073174462 0.027773537 0.39430165 4278190335
0.073035307 0.027649978 0.39476573 4278190335
0.072896145 0.02752642 0.39522982 4278190335
0.072756991 0.027402863 0.3956939 4278190335
0.072617829 0.027279304 0.39615798 4278190335
0.072478674 0.027155748 0.39662203 4278190335
0.07233952 0.027032189 0.39708611 4278190335
0.072200358 0.026908631 0.3975502 4278190335
0.072061203 0.026785074 0.39801428 4278190335
0.071922041 0.026661515 0.39847836 4278190335
0.071782887 0.026537957 0.39894244 4278190335
0.071643725 0.0264144 0.39940652 4278190335
0.071504571 0.026290841 0.3998706 4278190335
0.071365409 0.026167283 0.40033466 4278190335
0.071226254 0.026043726 0.40079874 4278190335
0.071087092 0.025920168 0.40126282 4278190335
0.070947938 0.025796609 0.4017269 4278190335
0.070808783 0.025673052 0.40219098 4278190335
0.070669621 0.025549494 0.40265507 4278190335
0.070530467 0.025425935 0.40311915 4278190335
0.070391305 0.025302378 0.40358323 4278190335
0.07025215 0.02517882 0.40404731 4278190335
0.070112988 0.025055261 0.40451136 4278190335
0.069973834 0.024931705 0.40497544 4278190335
0.069834672 0.024808146 0.40543953 4278190335
0.069695517 0.024684589 0.40590361 4278190335
0.069556355 0.024561031 0.40636769 4278190335
0.069417201 0.024437472 0.40683177 4278190335
0.069278039 0.024313916 0.40729585 4278190335
0.069138885 0.024190357 0.40775993 4278190335
0.068999723 0.024066798 0.40822399 4278190335
0.068860568 0.023943242 0.40868807 4278190335
0.068721414 0.023819683 0.40915215 4278190335
0.068582252 0.023696125 0.40961623 4278190335
0.068443097 0.023572568 0.41008031 4278190335
0.068303935 0.023449009 0.4105444 4278190335
0.068164781 0.023325451 0.41100848 4278190335
0.068025619 0.023201894 0.41147256 4278190335
0.067886464 0.023078335 0.41193664 4278190335
0.067747302 0.022954777 0.41240069 4278190335
0.067608148 0.02283122 0.41286477 4278190335
0.067468986 0.022707662 0.41332886 4278190335
0.067329831 0.022584103 0.41379294 4278190335
0.067190677 0.022460546 0.41425702 4278190335
0.067051515 0.022336988 0.4147211 4278190335
0.06691236 0.022213431 0.41518518 4278190335
0.066773199 0.022089873 0.41564927 4278190335
0.066634044 0.021966314 0.41611332 4278190335
0.066494882 0.021842755 0.4165774 4278190335
0.066355728 0.021719199 0.41704148 4278190335
0.066216566 0.021595642 0.41750556 4278190335
0.066077411 0.021472083 0.41796964 4278190335
0.065938249 0.021348525 0.41843373 4278190335
0.065799095 0.021224966 0.41889781 4278190335
0.06565994 0.02110141 0.41936189 4278190335
0.065520778 0.020977851 0.41982594 4278190335
0.065381624 0.020854294 0.42029002 4278190335
0.065242462 0.020730736 0.4207541 4278190335
0.065103307 0.020607177 0.42121819 4278190335
0.064964145 0.02048362 0.42168227 4278190335
0.064824991 0.020360062 0.42214635 4278190335
0.064685829 0.020236503 0.42261043 4278190335
0.064546674 0.020112947 0.42307451 4278190335
0.064407513 0.019989388 0.42353857 4278190335
0.064268358 0.019865829 0.42400265 4278190335
0.064129196 0.019742273 0.42446673 4278190335
0.063990042 0.019618714 0.42493081 4278190335
0.06385088 0.019495156 0.42539489 4278190335
0.063711725 0.019371599 0.42585897 4278190335
0.063572571 0.01924804 0.42632306 4278190335
0.063433409 0.019124482 0.42678714 4278190335
0.063294254 0.019000925 0.42725122 4278190335
0.063155092 0.018877367 0.42771527 4278190335
0.063015938 0.018753808 0.42817935 4278190335
0.062876776 0.018630251 0.42864344 4278190335
0.062737621 0.018506693 0.42910752 4278190335
0.062598459 0.018383134 0.4295716 4278190335
0.062459305 0.018259577 0.43003568 4278190335
0.062320147 0.018136019 0.43049976 4278190335
0.062180988 0.01801246 0.43096384 4278190335
0.06204183 0.017888904 0.4314279 4278190335
0.061902672 0.017765345 0.43189198 4278190335
0.061763514 0.017641786 0.43235606 4278190335
0.061624356 0.01751823 0.43282014 4278190335
0.061485197 0.017394671 0.43328422 4278190335
0.061346039 0.017271113 0.4337483 4278190335
0.061206885 0.017147556 0.43421239 4278190335
0.061067726 0.017023999 0.43467647 4278190335
0.060928568 0.016900439 0.43514055 4278190335
0.06078941 0.016776882 0.4356046 4278190335
0.060650252 0.016653324 0.43606868 4278190335
0.060511094 0.016529765 0.43653277 4278190335
0.060371935 0.016406208 0.43699685 4278190335
0.074287727 0.028762 0.39058903 4294967295
0.075122677 0.029503347 0.38780457 4294967295
0.075957619 0.030244695 0.38502008 4294967295
0.076792568 0.030986043 0.38223562 4294967295
0.077627517 0.031727389 0.37945116 4294967295
0.078462467 0.032468736 0.37666669 4294967295
0.079297408 0.033210084 0.3738822 4294967295
0.080132358 0.033951432 0.37109774 4294967295
0.080967307 0.034692779 0.36831328 4294967295
0.081802256 0.035434127 0.36552882 4294967295
0.082637198 0.036175475 0.36274433 4294967295
0.083472148 0.036916822 0.35995987 4294967295
0.084307097 0.03765817 0.35717541 4294967295
0.085142046 0.038399518 0.35439092 4294967295
0.085976988 0.039140865 0.35160646 4294967295
0.086811937 0.039882213 0.348822 4294967295
0.087646887 0.040623561 0.34603754 4294967295
0.088481836 0.041364908 0.34325305 4294967295
0.089316778 0.042106256 0.34046859 4294967295
0.090151727 0.042847604 0.33768412 4294967295
0.090986677 0.043588951 0.33489966 4294967295
0.091821626 0.044330299 0.33211517 4294967295
0.092656568 0.045071647 0.32933071 4294967295
0.093491517 0.045812994 0.32654625 4294967295
0.094326466 0.046554342 0.32376176 4294967295
0.095161408 0.04729569 0.3209773 4294967295
0.095996358 0.048037037 0.31819284 4294967295
0.096831307 0.048778385 0.31540835 4294967295
0.097666256 0.049519733 0.31262392 4294967295
0.098501198 0.05026108 0.30983943 4294967295
0.099336147 0.051002428 0.30705497 4294967295
0.1001711 0.051743776 0.30427051 4294967295
0.10100605 0.052485123 0.30148602 4294967295
0.10184099 0.053226471 0.29870155 4294967295
0.10267594 0.053967819 0.29591709 4294967295
0.10351089 0.054709166 0.2931326 4294967295
0.10434584 0.055450514 0.29034814 4294967295
0.10518079 0.056191862 0.28756368 4294967295
0.10601573 0.056933209 0.28477922 4294967295
0.10685067 0.057674557 0.28199476 4294967295
0.10768563 0.058415905 0.27921027 4294967295
0.10852057 0.059157252 0.27642581 4294967295
0.10935552 0.0598986 0.27364135 4294967295
0.11019047 0.060639948 0.27085686 4294967295
0.11102541 0.061381295 0.2680724 4294967295
0.11186036 0.062122643 0.26528794 4294967295
0.11269531 0.062863991 0.26250345 4294967295
0.11353026 0.063605338 0.25971901 4294967295
0.11436521 0.064346686 0.25693452 4294967295
0.11520015 0.065088034 0.25415003 4294967295
0.1160351 0.065829381 0.2513656 4294967295
0.11687005 0.066570729 0.24858113 4294967295
0.11770499 0.067312077 0.24579665 4294967295
0.11853994 0.068053417 0.24301219 4294967295
0.11937489 0.068794772 0.2402277 4294967295
0.12020984 0.06953612 0.23744324 4294967295
0.12104478 0.070277467 0.23465878 4294967295
0.12187973 0.071018815 0.2318743 4294967295
0.12271467 0.071760163 0.22908984 4294967295
0.12354963 0.072501503 0.22630538 4294967295
0.12438457 0.073242858 0.22352089 4294967295
0.12521952 0.073984206 0.22073643 4294967295
0.12605447 0.074725553 0.21795195 4294967295
0.12688941 0.075466901 0.21516749 4294967295
0.12772435 0.076208241 0.21238303 4294967295
0.12855931 0.076949589 0.20959856 4294967295
0.12939426 0.077690944 0.20681408 4294967295
0.1302292 0.078432292 0.20402962 4294967295
0.13106415 0.079173639 0.20124514 4294967295
0.13189909 0.079914987 0.19846068 4294967295
0.13273405 0.080656327 0.19567621 4294967295
0.13356899 0.081397675 0.19289175 4294967295
0.13440394 0.08213903 0.19010727 4294967295
0.13523889 0.082880378 0.1873228 4294967295
0.13607383 0.083621725 0.18453833 4294967295
0.13690878 0.084363066 0.18175387 4294967295
0.13774373 0.085104413 0.1789694 4294967295
0.13857868 0.085845761 0.17618494 4294967295
0.13941363 0.086587109 0.17340046 4294967295
0.14024857 0.087328464 0.17061599 4294967295
0.14108351 0.088069811 0.16783153 4294967295
