# .PCD v0.7 - Point Cloud Data file format
VERSION 0.7
FIELDS x y z rgb
SIZE 4 4 4 4
TYPE F F F U
COUNT 1 1 1 1
WIDTH 1030
HEIGHT 1
VIEWPOINT 0 0 0 1 0 0 0
POINTS 1030
DATA ascii
0.035219409 -0.0041888906 0.40000001 4279125533
0.036427312 -0.0041784183 0.39900002 4279192353
0.037723266 -0.0041784183 0.39900002 4280179246
0.03901922 -0.0041784183 0.39900002 4279652652
0.036427312 -0.0028820266 0.39900002 4278731287
0.037723266 -0.0028820266 0.39900002 4278600984
0.03901922 -0.0028820266 0.39900002 4278667290
0.040315174 -0.0028820266 0.39900002 4278996257
0.035043314 -0.0015816611 0.39800003 4278660882
0.036427312 -0.001585635 0.39900002 4278729240
0.037723266 -0.001585635 0.39900002 4278402837
0.03901922 -0.001585635 0.39900002 4278206482
0.040315174 -0.001585635 0.39900002 4278864669
0.041611124 -0.001585635 0.39900002 4279654187
0.043014612 -0.001589609 0.40000001 4283206496
0.044313814 -0.001589609 0.40000001 4279916848
0.035131361 -0.00028924318 0.39900002 4278988310
0.036427312 -0.00028924318 0.39900002 4278989845
0.037723266 -0.00028924318 0.39900002 4278730007
0.03901922 -0.00028924318 0.39900002 4278599189
0.040315174 -0.00028924318 0.39900002 4278666007
0.04171541 -0.00028996807 0.40000001 4278666777
0.043014612 -0.00028996807 0.40000001 4278864669
0.044313814 -0.00028996807 0.40000001 4278930462
0.045727048 -0.00029069302 0.40100002 4278602781
0.047029499 -0.00029069302 0.40100002 4278865953
0.04845247 -0.00029141793 0.40200001 4278800160
0.049758166 -0.00029141793 0.40200001 4278668574
0.05119089 -0.00029214285 0.40300003 4278931746
0.052499834 -0.00029214285 0.40300003 4279062818
0.053808782 -0.00029214285 0.40300003 4278799646
0.055254489 -0.00029286777 0.40400001 4278536474
0.056566685 -0.00029286777 0.40400001 4278865439
0.08995302 -0.00031316554 0.43200001 4278469652
0.091356158 -0.00031316554 0.43200001 4278535445
0.092759289 -0.00031316554 0.43200001 4278469652
0.093944468 -0.00031244062 0.43100002 4278535191
0.095344357 -0.00031244062 0.43100002 4278535445
0.096744239 -0.00031244062 0.43100002 4278667031
0.098144129 -0.00031244062 0.43100002 4278600984
0.099544019 -0.00031244062 0.43100002 4278535191
0.10094391 -0.00031244062 0.43100002 4278600984
0.10258125 -0.00031316554 0.43200001 4278600984
0.10398439 -0.00031316554 0.43200001 4278798365
0.10538752 -0.00031316554 0.43200001 4279060767
0.035131361 0.0010071486 0.39900002 4279251223
0.036427312 0.0010071486 0.39900002 4279187224
0.037723266 0.0010071486 0.39900002 4278794517
0.03901922 0.0010071486 0.39900002 4278729492
0.040416211 0.0010096728 0.40000001 4278665494
0.04171541 0.0010096728 0.40000001 4278533908
0.043014612 0.0010096728 0.40000001 4278469398
0.044313814 0.0010096728 0.40000001 4278535704
0.045727048 0.001012197 0.40100002 4278469911
0.047146775 0.0010147212 0.40200001 4278469911
0.04845247 0.0010147212 0.40200001 4278535704
0.049881946 0.0010172453 0.40300003 4278469911
0.05119089 0.0010172453 0.40300003 4278535704
0.052499834 0.0010172453 0.40300003 4278469911
0.0539423 0.0010197696 0.40400001 4278272532
0.055254489 0.0010197696 0.40400001 4278601497
0.056566685 0.0010197696 0.40400001 4278535191
0.058022145 0.0010222938 0.40500003 4278205969
0.059484098 0.0010248179 0.40600002 4278469398
0.06095254 0.001027342 0.40700001 4278337812
0.062580496 0.0010323904 0.40900001 4278272019
0.064065196 0.0010349146 0.41000003 4278338066
0.06555637 0.0010374389 0.41100001 4278272273
0.066891305 0.0010374389 0.41100001 4278338066
0.068392232 0.0010399631 0.41200003 4278535445
0.069730408 0.0010399631 0.41200003 4278469652
0.071241081 0.0010424872 0.41300002 4278469398
0.072582506 0.0010424872 0.41300002 4278337812
0.074102931 0.0010450114 0.41400003 4278272019
0.07809069 0.0010626807 0.42100003 4278337812
0.079458103 0.0010626807 0.42100003 4278337812
0.083559543 0.00108035 0.42800003 4278338066
0.085148171 0.0010828741 0.42900002 4278205966
0.086743288 0.0010853983 0.43000001 4278206480
0.088139929 0.0010853983 0.43000001 4278206480
0.089744799 0.0010879225 0.43100002 4278338066
0.091144688 0.0010879225 0.43100002 4278338066
0.092544571 0.0010879225 0.43100002 4278206480
0.093944468 0.0010879225 0.43100002 4278666261
0.095344357 0.0010879225 0.43100002 4278337296
0.096744239 0.0010879225 0.43100002 4278863127
0.098144129 0.0010879225 0.43100002 4278533908
0.099544019 0.0010879225 0.43100002 4278533910
0.10094391 0.0010879225 0.43100002 4278664982
0.1023438 0.0010879225 0.43100002 4278797082
0.10398439 0.0010904466 0.43200001 4278797082
0.10538752 0.0010904466 0.43200001 4278862875
0.10679066 0.0010904466 0.43200001 4279257633
0.035131361 0.0023035405 0.39900002 4278922771
0.036427312 0.0023035405 0.39900002 4279187738
0.037723266 0.0023035405 0.39900002 4278728724
0.039117008 0.0023093137 0.40000001 4278729492
0.040416211 0.0023093137 0.40000001 4278796568
0.04171541 0.0023093137 0.40000001 4278862359
0.043014612 0.0023093137 0.40000001 4278600214
0.044424601 0.002315087 0.40100002 4278600214
0.045727048 0.002315087 0.40100002 4278337812
0.047146775 0.0023208603 0.40200001 4278535191
0.04845247 0.0023208603 0.40200001 4278535191
0.049881946 0.0023266335 0.40300003 4278469398
0.05119089 0.0023266335 0.40300003 4278469398
0.052499834 0.0023266335 0.40300003 4278469398
0.0539423 0.0023324068 0.40400001 4278272019
0.055254489 0.0023324068 0.40400001 4278203146
0.056706704 0.0023381801 0.40500003 4278199813
0.058022145 0.0023381801 0.40500003 4278598421
0.059484098 0.0023439534 0.40600002 4278600216
0.06095254 0.0023497266 0.40700001 4278468630
0.062427491 0.0023554999 0.40800002 4278337042
0.064065196 0.0023670467 0.41000003 4278402835
0.065396868 0.0023670467 0.41000003 4278205456
0.066891305 0.0023728197 0.41100001 4278402322
0.068392232 0.0023785932 0.41200003 4278665494
0.069730408 0.0023785932 0.41200003 4278402322
0.071241081 0.0023843665 0.41300002 4278862873
0.072758257 0.0023901397 0.41400003 4278533908
0.074102931 0.0023901397 0.41400003 4278862873
0.07599432 0.0024074595 0.41700003 4278336529
0.077719718 0.0024190061 0.41900003 4278599189
0.079458103 0.0024305528 0.42100003 4278862361
0.081017487 0.0024363259 0.42200002 4278532626
0.08316908 0.0024594192 0.42600003 4278730005
0.084751211 0.0024651925 0.42700002 4278399757
0.086339831 0.0024709657 0.42800003 4278200837
0.087934956 0.002476739 0.42900002 4278200582
0.08953657 0.0024825123 0.43000001 4278198528
0.090933211 0.0024825123 0.43000001 4278198016
0.092329852 0.0024825123 0.43000001 4278196992
0.093726493 0.0024825123 0.43000001 4278194944
0.095123135 0.0024825123 0.43000001 4278195712
0.096519768 0.0024825123 0.43000001 4278197504
0.097916417 0.0024825123 0.43000001 4278198532
0.099544019 0.0024882855 0.43100002 4278265609
0.10094391 0.0024882855 0.43100002 4279713822
0.1023438 0.0024882855 0.43100002 4278796566
0.10398439 0.0024940588 0.43200001 4278796566
0.10538752 0.0024940588 0.43200001 4279125533
0.10679066 0.0024940588 0.43200001 4279322914
0.035131361 0.0035999322 0.39900002 4278791955
0.036518607 0.0036089544 0.40000001 4279187738
0.03781781 0.0036089544 0.40000001 4278334482
0.039117008 0.0036089544 0.40000001 4278730007
0.040416211 0.0036089544 0.40000001 4278993177
0.04171541 0.0036089544 0.40000001 4278796566
0.04312215 0.003617977 0.40100002 4278731287
0.044424601 0.003617977 0.40100002 4278468628
0.045727048 0.003617977 0.40100002 4278600214
0.047146775 0.0036269992 0.40200001 4278731800
0.04845247 0.0036269992 0.40200001 4278600214
0.049881946 0.0036360216 0.40300003 4278468628
0.05119089 0.0036360216 0.40300003 4278863386
0.052499834 0.0036360216 0.40300003 4278402835
0.0539423 0.0036450441 0.40400001 4278402835
0.055254489 0.0036450441 0.40400001 4278200065
0.056706704 0.0036540665 0.40500003 4279254814
0.058165409 0.0036630889 0.40600002 4278532628
0.059484098 0.0036630889 0.40600002 4278202380
0.06095254 0.0036721111 0.40700001 4278200329
0.062427491 0.0036811335 0.40800002 4278197504
0.063908935 0.0036901559 0.40900001 4278196224
0.065396868 0.0036991783 0.41000003 4278195968
0.066891305 0.0037082008 0.41100001 4278196480
0.068392232 0.0037172232 0.41200003 4278198021
0.069730408 0.0037172232 0.41200003 4278195712
0.071241081 0.0037262456 0.41300002 4278196740
0.072758257 0.003735268 0.41400003 4279121945
0.074281923 0.0037442902 0.41500002 4278200329
0.075812072 0.0037533126 0.41600001 4278464017
0.077719718 0.0037803799 0.41900003 4279450398
0.079269364 0.0037894021 0.42000002 4279055640
0.080825508 0.0037984247 0.42100003 4278792468
0.082778618 0.0038254918 0.42400002 4279713568
0.084354244 0.0038345142 0.42500001 4279121685
0.085936375 0.0038435366 0.42600003 4279648543
0.087525003 0.0038525588 0.42700002 4279582496
0.089120127 0.0038615814 0.42800003 4279187738
0.090721741 0.0038706036 0.42900002 4279056922
0.092115134 0.0038706036 0.42900002 4279189021
0.093726493 0.003879626 0.43000001 4279123482
0.095123135 0.003879626 0.43000001 4279781412
0.096519768 0.003879626 0.43000001 4279123480
0.097916417 0.003879626 0.43000001 4278992664
0.099313058 0.003879626 0.43000001 4279385371
0.10070969 0.003879626 0.43000001 4279253017
0.1023438 0.0038886485 0.43100002 4278927382
0.10374369 0.0038886485 0.43100002 4278928152
0.10538752 0.0038976707 0.43200001 4278993949
0.10679066 0.0038976707 0.43200001 4279388707
0.033835407 0.0048963241 0.39900002 4279512857
0.035219409 0.0049085952 0.40000001 4279253019
0.036518607 0.0049085952 0.40000001 4279056924
0.03781781 0.0049085952 0.40000001 4278729494
0.039117008 0.0049085952 0.40000001 4278795798
0.040517252 0.0049208668 0.40100002 4279058970
0.041819703 0.0049208668 0.40100002 4278664980
0.04312215 0.0049208668 0.40100002 4278665494
0.044424601 0.0049208668 0.40100002 4278533908
0.045841079 0.0049331384 0.40200001 4278402835
0.047146775 0.0049331384 0.40200001 4278731800
0.048573002 0.0049454099 0.40300003 4278271249
0.049881946 0.0049454099 0.40300003 4278666007
0.05119089 0.0049454099 0.40300003 4278666007
0.052630108 0.0049576815 0.40400001 4278468628
0.0539423 0.0049576815 0.40400001 4278993947
0.055254489 0.0049576815 0.40400001 4278198275
0.056706704 0.0049699531 0.40500003 4279254814
0.058165409 0.0049822242 0.40600002 4278400529
0.059484098 0.0049822242 0.40600002 4278458375
0.06095254 0.0049944958 0.40700001 4278523400
0.062427491 0.0050067673 0.40800002 4278654472
0.063908935 0.0050190389 0.40900001 4278720265
0.065396868 0.0050313105 0.41000003 4278785804
0.066891305 0.0050435816 0.41100001 4278720011
0.068392232 0.0050558536 0.41200003 4278720011
0.069730408 0.0050558536 0.41200003 4278523146
0.071241081 0.0050681247 0.41300002 4278327302
0.072758257 0.0050803963 0.41400003 4279450396
0.074281923 0.0050926679 0.41500002 4278992412
0.075812072 0.005104939 0.41600001 4278860826
0.077534221 0.0051294821 0.41800001 4279123482
0.079080626 0.0051417537 0.41900003 4279123482
0.080633521 0.0051540253 0.42000002 4278399759
0.082388148 0.0051785684 0.42200002 4278860310
0.083957285 0.0051908395 0.42300001 4278200838
0.085734643 0.0052153827 0.42500001 4278465039
0.08732003 0.0052276542 0.42600003 4279124252
0.088911898 0.0052399258 0.42700002 4278861080
0.090510271 0.0052521974 0.42800003 4278795287
0.091900416 0.0052521974 0.42800003 4278400529
0.093508527 0.0052644685 0.42900002 4278203150
0.094901919 0.0052644685 0.42900002 4278728722
0.096295312 0.0052644685 0.42900002 4278201092
0.097916417 0.0052767401 0.43000001 4278730005
0.099313058 0.0052767401 0.43000001 4278199040
0.10070969 0.0052767401 0.43000001 4279320348
0.1023438 0.0052890116 0.43100002 4278993177
0.10374369 0.0052890116 0.43100002 4278993177
0.10538752 0.0053012832 0.43200001 4279387935
0.10679066 0.0053012832 0.43200001 4279585316
0.03392021 0.0062082363 0.40000001 4279250453
0.035219409 0.0062082363 0.40000001 4279187738
0.036518607 0.0062082363 0.40000001 4278860056
0.037912354 0.0062237573 0.40100002 4278795285
0.039214805 0.0062237573 0.40100002 4278795798
0.040517252 0.0062237573 0.40100002 4278797082
0.041819703 0.0062237573 0.40100002 4278665496
0.04312215 0.0062237573 0.40100002 4278731287
0.044535384 0.0062392773 0.40200001 4278665494
0.045841079 0.0062392773 0.40200001 4278468628
0.047146775 0.0062392773 0.40200001 4278731800
0.048573002 0.0062547983 0.40300003 4278666007
0.049881946 0.0062547983 0.40300003 4278731800
0.05119089 0.0062547983 0.40300003 4278468628
0.052630108 0.0062703188 0.40400001 4278402835
0.0539423 0.0062703188 0.40400001 4279189023
0.055254489 0.0062703188 0.40400001 4278197000
0.056706704 0.0062858397 0.40500003 4278925336
0.058165409 0.0063013597 0.40600002 4278331915
0.059484098 0.0063013597 0.40600002 4278654986
0.06095254 0.0063168802 0.40700001 4278851851
0.062427491 0.0063324012 0.40800002 4278983951
0.063908935 0.0063479217 0.40900001 4279049744
0.065396868 0.0063634426 0.41000003 4279972129
0.066891305 0.0063789627 0.41100001 4279116820
0.068392232 0.0063944836 0.41200003 4279051027
0.069730408 0.0063944836 0.41200003 4279445785
0.071241081 0.0064100041 0.41300002 4278194944
0.072758257 0.0064255251 0.41400003 4279187738
0.074281923 0.0064410456 0.41500002 4278200588
0.075812072 0.0064565656 0.41600001 4278198026
0.077348739 0.0064720865 0.41700003 4278330634
0.078891888 0.006487607 0.41800001 4278201356
0.080441535 0.006503128 0.41900003 4278991644
0.08219292 0.006534169 0.42100003 4278333201
0.083758809 0.0065496895 0.42200002 4279386654
0.085331187 0.0065652099 0.42300001 4278198272
0.086910069 0.0065807309 0.42400002 4278200586
0.088703677 0.0066117719 0.42600003 4278199044
0.090298794 0.0066272924 0.42700002 4278331915
0.091900416 0.0066428133 0.42800003 4279121947
0.09329056 0.0066428133 0.42800003 4278200072
0.094901919 0.0066583334 0.42900002 4278265609
0.096295312 0.0066583334 0.42900002 4278199046
0.097688705 0.0066583334 0.42900002 4278795287
0.099313058 0.0066738538 0.43000001 4278198529
0.10070969 0.0066738538 0.43000001 4279189275
0.10210633 0.0066738538 0.43000001 4278796568
0.10374369 0.0066893748 0.43100002 4278993947
0.10538752 0.0067048953 0.43200001 4279387937
0.10679066 0.0067048953 0.43200001 4278532374
0.032621007 0.007507877 0.40000001 4279644697
0.03392021 0.007507877 0.40000001 4279711772
0.035307456 0.0075266473 0.40100002 4279254555
0.036609907 0.0075266473 0.40100002 4278860310
0.037912354 0.0075266473 0.40100002 4278730005
0.039214805 0.0075266473 0.40100002 4278796568
0.040517252 0.0075266473 0.40100002 4278797080
0.041819703 0.0075266473 0.40100002 4278665494
0.04312215 0.0075266473 0.40100002 4278731287
0.044535384 0.0075454167 0.40200001 4278665494
0.045841079 0.0075454167 0.40200001 4278600214
0.047264058 0.0075641866 0.40300003 4278731800
0.048573002 0.0075641866 0.40300003 4278666007
0.049881946 0.0075641866 0.40300003 4278468628
0.051317912 0.007582956 0.40400001 4278600214
0.052630108 0.007582956 0.40400001 4278600216
0.0539423 0.007582956 0.40400001 4279912233
0.055391259 0.0076017259 0.40500003 4278462736
0.056706704 0.0076017259 0.40500003 4279188508
0.058165409 0.0076204957 0.40600002 4278195968
0.059484098 0.0076204957 0.40600002 4279380762
0.06095254 0.0076392652 0.40700001 4278920211
0.062427491 0.007658035 0.40800002 4279051027
0.063908935 0.0076768044 0.40900001 4278524681
0.065396868 0.0076955743 0.41000003 4279445783
0.066891305 0.0077143437 0.41100001 4278195204
0.068392232 0.0077331141 0.41200003 4279315480
0.069899656 0.0077518835 0.41300002 4278328585
0.071241081 0.0077518835 0.41300002 4279580188
0.072758257 0.0077706533 0.41400003 4278727187
0.074281923 0.0077894228 0.41500002 4278197001
0.075812072 0.0078081922 0.41600001 4278787855
0.077348739 0.0078269625 0.41700003 4278987797
0.078703158 0.0078269625 0.41700003 4279516191
0.080249548 0.0078457315 0.41800001 4278200584
0.081997685 0.0078832712 0.42000002 4278333199
0.083560333 0.0079020411 0.42100003 4278595601
0.085129462 0.007920811 0.42200002 4278859797
0.086705089 0.0079395799 0.42300001 4278198016
0.088495448 0.0079771196 0.42500001 4278595601
0.090087324 0.0079958895 0.42600003 4279582498
0.09168569 0.0080146594 0.42700002 4278198792
0.09329056 0.0080334293 0.42800003 4279253017
0.094680704 0.0080334293 0.42800003 4278595087
0.096295312 0.0080521982 0.42900002 4279385887
0.097688705 0.0080521982 0.42900002 4279320607
0.099082097 0.0080521982 0.42900002 4278199813
0.10070969 0.0080709681 0.43000001 4278992666
0.10210633 0.0080709681 0.43000001 4278993947
0.10374369 0.008089738 0.43100002 4279059740
0.10514357 0.008089738 0.43100002 4279388455
0.10679066 0.0081085078 0.43200001 4281688392
0.031400111 0.0088295368 0.40100002 4283261262
0.032702558 0.0088295368 0.40100002 4279118867
0.034005009 0.0088295368 0.40100002 4279384090
0.035307456 0.0088295368 0.40100002 4278991383
0.036609907 0.0088295368 0.40100002 4278926101
0.037912354 0.0088295368 0.40100002 4278795798
0.039214805 0.0088295368 0.40100002 4278928152
0.040517252 0.0088295368 0.40100002 4278731287
0.041819703 0.0088295368 0.40100002 4278533908
0.043229684 0.0088515552 0.40200001 4278665494
0.044535384 0.0088515552 0.40200001 4278731287
0.045841079 0.0088515552 0.40200001 4278468628
0.047264058 0.0088735744 0.40300003 4278731800
0.048573002 0.0088735744 0.40300003 4278666007
0.049881946 0.0088735744 0.40300003 4278600214
0.051317912 0.0088955928 0.40400001 4278468628
0.052630108 0.0088955928 0.40400001 4278600214
0.0539423 0.0088955928 0.40400001 4278595087
0.055391259 0.008917612 0.40500003 4279187224
0.056706704 0.008917612 0.40500003 4279648289
0.058022145 0.008917612 0.40500003 4278196998
0.059484098 0.0089396304 0.40600002 4278919439
0.06095254 0.0089616496 0.40700001 4279117588
0.062427491 0.0089836689 0.40800002 4279183381
0.063908935 0.0090056872 0.40900001 4278524170
0.065396868 0.0090277065 0.41000003 4278918928
0.066891305 0.0090497248 0.41100001 4278589963
0.068392232 0.009071744 0.41200003 4278657035
0.069730408 0.009071744 0.41200003 4278262279
0.071241081 0.0090937624 0.41300002 4279384092
0.072758257 0.0091157816 0.41400003 4279254301
0.074281923 0.0091378 0.41500002 4278327304
0.075629838 0.0091378 0.41500002 4278853648
0.077163242 0.0091598183 0.41600001 4279253019
0.078703158 0.0091818376 0.41700003 4278991131
0.080249548 0.0092038559 0.41800001 4279320607
0.08180245 0.0092258751 0.41900003 4278926103
0.083361842 0.0092478935 0.42000002 4278991896
0.08492773 0.0092699127 0.42100003 4279649311
0.086500116 0.0092919311 0.42200002 4278859795
0.088287227 0.0093359696 0.42400002 4279057174
0.089875855 0.0093579879 0.42500001 4279649313
0.091470972 0.0093800072 0.42600003 4278793750
0.093072586 0.0094020255 0.42700002 4278529808
0.094680704 0.0094240448 0.42800003 4278331915
0.096295312 0.0094460631 0.42900002 4278198016
0.097688705 0.0094460631 0.42900002 4278196992
0.099082097 0.0094460631 0.42900002 4279255838
0.10070969 0.0094680814 0.43000001 4278928156
0.10210633 0.0094680814 0.43000001 4278928156
0.10374369 0.0094901007 0.43100002 4279125535
0.10514357 0.0094901007 0.43100002 4279319842
0.10679066 0.009512119 0.43200001 4285895812
0.031400111 0.010132426 0.40100002 4283327055
0.032702558 0.010132426 0.40100002 4279711004
0.034005009 0.010132426 0.40100002 4279384092
0.035307456 0.010132426 0.40100002 4279189275
0.036609907 0.010132426 0.40100002 4278795285
0.037912354 0.010132426 0.40100002 4278730005
0.039214805 0.010132426 0.40100002 4278928154
0.040618293 0.010157694 0.40200001 4278731287
0.041923989 0.010157694 0.40200001 4278533908
0.043229684 0.010157694 0.40200001 4278468628
0.044535384 0.010157694 0.40200001 4278468628
0.045955114 0.010182963 0.40300003 4278600214
0.047264058 0.010182963 0.40300003 4278863386
0.048573002 0.010182963 0.40300003 4278600214
0.050005723 0.01020823 0.40400001 4278600214
0.051317912 0.01020823 0.40400001 4278797593
0.052630108 0.01020823 0.40400001 4278533908
0.0539423 0.01020823 0.40400001 4278396425
0.055391259 0.010233498 0.40500003 4278462990
0.056706704 0.010233498 0.40500003 4279779363
0.058022145 0.010233498 0.40500003 4278328585
0.059484098 0.010258766 0.40600002 4278458377
0.06095254 0.010284034 0.40700001 4278589193
0.062274482 0.010284034 0.40700001 4278654732
0.063752681 0.010309302 0.40800002 4278654732
0.065396868 0.010359838 0.41000003 4278785804
0.066891305 0.010385105 0.41100001 4278720011
0.068392232 0.010410374 0.41200003 4278720011
0.069730408 0.010410374 0.41200003 4278325767
0.071241081 0.010435641 0.41300002 4279054873
0.072758257 0.010460909 0.41400003 4278200074
0.074102931 0.010460909 0.41400003 4278330121
0.075629838 0.010486177 0.41500002 4278197764
0.077163242 0.010511445 0.41600001 4278196224
0.078514419 0.010511445 0.41600001 4278195456
0.080057569 0.010536713 0.41700003 4278194432
0.081607215 0.01056198 0.41800001 4278198019
0.083163366 0.010587249 0.41900003 4278199046
0.08492773 0.010637784 0.42100003 4278331917
0.086500116 0.010663052 0.42200002 4278858261
0.088078998 0.01068832 0.42300001 4278989847
0.089875855 0.010738856 0.42500001 4279516191
0.091470972 0.010764124 0.42600003 4279516191
0.093072586 0.010789392 0.42700002 4280108326
0.094680704 0.01081466 0.42800003 4279581982
0.096295312 0.010839928 0.42900002 4279780129
0.097688705 0.010839928 0.42900002 4279385371
0.099082097 0.010839928 0.42900002 4279255838
0.10070969 0.010865195 0.43000001 4279124765
0.10210633 0.010865195 0.43000001 4279256351
0.10374369 0.010890463 0.43100002 4278860826
0.10514357 0.010890463 0.43100002 4285237366
0.032784112 0.011463834 0.40200001 4279383322
0.034089811 0.011463834 0.40200001 4279318810
0.035395507 0.011463834 0.40200001 4278794517
0.036701199 0.011463834 0.40200001 4278991896
0.038006898 0.011463834 0.40200001 4278927384
0.039312594 0.011463834 0.40200001 4278928152
0.040618293 0.011463834 0.40200001 4278862613
0.041923989 0.011463834 0.40200001 4278796820
0.043229684 0.011463834 0.40200001 4278797334
0.044535384 0.011463834 0.40200001 4278731541
0.045955114 0.011492351 0.40300003 4278797334
0.047264058 0.011492351 0.40300003 4278731541
0.048573002 0.011492351 0.40300003 4278665494
0.050005723 0.011520868 0.40400001 4278665494
0.051317912 0.011520868 0.40400001 4278600214
0.052630108 0.011520868 0.40400001 4278468628
0.0539423 0.011520868 0.40400001 4278595089
0.055391259 0.011549385 0.40500003 4279450912
0.056706704 0.011549385 0.40500003 4278925338
0.058022145 0.011549385 0.40500003 4278196998
0.059484098 0.011577902 0.40600002 4278262281
0.060802784 0.011577902 0.40600002 4278459660
0.062274482 0.011606419 0.40700001 4278657039
0.063752681 0.011634936 0.40800002 4278789138
0.065237358 0.011663453 0.40900001 4279447582
0.066728555 0.01169197 0.41000003 4280039719
0.068226233 0.011720487 0.41100001 4279712035
0.069730408 0.011749004 0.41200003 4279647010
0.071241081 0.011777521 0.41300002 4279517473
0.072758257 0.011806038 0.41400003 4280109610
0.074102931 0.011806038 0.41400003 4279583779
0.075629838 0.011834555 0.41500002 4279254814
0.07697776 0.011834555 0.41500002 4279254814
0.078514419 0.011863071 0.41600001 4279254301
0.080057569 0.01189159 0.41700003 4279188508
0.081411988 0.01189159 0.41700003 4279189275
0.083163366 0.011948623 0.41900003 4279058459
0.084725998 0.01197714 0.42000002 4279058459
0.086295143 0.012005657 0.42100003 4279124252
0.088078998 0.01206269 0.42300001 4279058459
0.089664385 0.012091208 0.42400002 4279190045
0.091470972 0.012148242 0.42600003 4279190045
0.093072586 0.012176759 0.42700002 4279190045
0.094680704 0.012205277 0.42800003 4279321377
0.096070848 0.012205277 0.42800003 4279519010
0.097688705 0.012233793 0.42900002 4279584033
0.099082097 0.012233793 0.42900002 4279648543
0.10070969 0.01226231 0.43000001 4279779102
0.10210633 0.01226231 0.43000001 4282342470
0.10350298 0.01226231 0.43000001 4286223745
0.032784112 0.012769973 0.40200001 4279515676
0.034089811 0.012769973 0.40200001 4279253017
0.035395507 0.012769973 0.40200001 4279188762
0.036701199 0.012769973 0.40200001 4278991896
0.038006898 0.012769973 0.40200001 4279058970
0.039312594 0.012769973 0.40200001 4278993175
0.040618293 0.012769973 0.40200001 4278796820
0.041923989 0.012769973 0.40200001 4278796820
0.043229684 0.012769973 0.40200001 4278665748
0.04464617 0.012801739 0.40300003 4278665748
0.045955114 0.012801739 0.40300003 4278666261
0.047264058 0.012801739 0.40300003 4278666007
0.048573002 0.012801739 0.40300003 4278600214
0.050005723 0.012833506 0.40400001 4278731800
0.051317912 0.012833506 0.40400001 4278665494
0.052630108 0.012833506 0.40400001 4278203149
0.0539423 0.012833506 0.40400001 4278464015
0.055254489 0.012833506 0.40400001 4279386400
0.056706704 0.012865272 0.40500003 4279124765
0.058022145 0.012865272 0.40500003 4279124765
0.05933759 0.012865272 0.40500003 4279058459
0.060802784 0.012897038 0.40600002 4279255838
0.062274482 0.012928803 0.40700001 4279190045
0.063752681 0.01296057 0.40800002 4279124252
0.065237358 0.012992335 0.40900001 4279058972
0.066728555 0.013024103 0.41000003 4279058972
0.068226233 0.013055868 0.41100001 4278993179
0.069730408 0.013087635 0.41200003 4279058972
0.071241081 0.0131194 0.41300002 4278927386
0.072582506 0.0131194 0.41300002 4279058972
0.074102931 0.013151167 0.41400003 4278928156
0.075629838 0.013182933 0.41500002 4278862363
0.07697776 0.013182933 0.41500002 4278993949
0.078325681 0.013182933 0.41500002 4278993949
0.079865582 0.013214699 0.41600001 4279124765
0.081411988 0.013246465 0.41700003 4279256351
0.082964882 0.013278231 0.41800001 4279124765
0.084725998 0.013341763 0.42000002 4279387937
0.086295143 0.01337353 0.42100003 4279585062
0.088078998 0.013437062 0.42300001 4279452963
0.089664385 0.013468828 0.42400002 4279320607
0.091470972 0.01353236 0.42600003 4279582496
0.093072586 0.013564126 0.42700002 4279976229
0.094680704 0.013595892 0.42800003 4281357880
0.096070848 0.013595892 0.42800003 4283790940
0.097688705 0.013627659 0.42900002 4285763192
0.099082097 0.013627659 0.42900002 4286157950
0.10070969 0.013659424 0.43000001 4285434227
0.10210633 0.013659424 0.43000001 4285697401
0.034089811 0.014076112 0.40200001 4279581469
0.035395507 0.014076112 0.40200001 4279123482
0.036701199 0.014076112 0.40200001 4278861080
0.038006898 0.014076112 0.40200001 4279058970
0.039312594 0.014076112 0.40200001 4279059738
0.040618293 0.014076112 0.40200001 4278928152
0.041923989 0.014076112 0.40200001 4278862359
0.043337222 0.014111128 0.40300003 4278731541
0.04464617 0.014111128 0.40300003 4278797334
0.045955114 0.014111128 0.40300003 4278797080
0.047264058 0.014111128 0.40300003 4278862873
0.04869353 0.014146143 0.40400001 4279126047
0.050005723 0.014146143 0.40400001 4278994461
0.051317912 0.014146143 0.40400001 4279126045
0.052630108 0.014146143 0.40400001 4279520289
0.0539423 0.014146143 0.40400001 4279190043
0.055254489 0.014146143 0.40400001 4279321629
0.056566685 0.014146143 0.40400001 4279124763
0.058022145 0.014181159 0.40500003 4279387935
0.05933759 0.014181159 0.40500003 4279257119
0.060802784 0.014216173 0.40600002 4279257119
0.062121473 0.014216173 0.40600002 4278993947
0.06359642 0.014251187 0.40700001 4279257119
0.065077856 0.014286203 0.40800002 4279257119
0.066565797 0.014321218 0.40900001 4279126047
0.068060234 0.014356234 0.41000003 4279322912
0.069561154 0.014391249 0.41100001 4279257119
0.071068585 0.014426265 0.41200003 4279322912
0.072582506 0.01446128 0.41300002 4279388705
0.074102931 0.014496296 0.41400003 4279388705
0.075447597 0.014496296 0.41400003 4279322914
0.07679227 0.014496296 0.41400003 4279519523
0.078325681 0.01453131 0.41500002 4279452963
0.079673596 0.01453131 0.41500002 4279451680
0.081216753 0.014566325 0.41600001 4279254301
0.084725998 0.014706386 0.42000002 4282081355
0.086295143 0.014741402 0.42100003 4284382825
0.034089811 0.015382251 0.40200001 4281224761
0.035395507 0.015382251 0.40200001 4279120920
0.036701199 0.015382251 0.40200001 4279319578
0.038006898 0.015382251 0.40200001 4279255836
0.039312594 0.015382251 0.40200001 4279321627
0.040618293 0.015382251 0.40200001 4279257119
0.042028278 0.015420516 0.40300003 4279059740
0.043337222 0.015420516 0.40300003 4279125531
0.04464617 0.015420516 0.40300003 4279126045
0.045955114 0.015420516 0.40300003 4278994459
0.047264058 0.015420516 0.40300003 4279191838
0.04869353 0.015458779 0.40400001 4279257631
0.050005723 0.015458779 0.40400001 4279126047
0.051317912 0.015458779 0.40400001 4279257119
0.052630108 0.015458779 0.40400001 4279387935
0.0539423 0.015458779 0.40400001 4279519008
0.055254489 0.015458779 0.40400001 4279453215
0.056566685 0.015458779 0.40400001 4279584801
0.058022145 0.015497045 0.40500003 4279256349
0.05933759 0.015497045 0.40500003 4279387937
0.060653023 0.015497045 0.40500003 4279453730
0.062121473 0.015535308 0.40600002 4279650342
0.06359642 0.015573572 0.40700001 4279321377
0.065077856 0.015611837 0.40800002 4279385887
0.066565797 0.015650101 0.40900001 4279517473
0.068060234 0.015688365 0.41000003 4278859545
0.069561154 0.01572663 0.41100001 4279320096
0.071068585 0.015764894 0.41200003 4279779877
0.072582506 0.015803158 0.41300002 4280634418
0.073923938 0.015803158 0.41300002 4281818692
0.075447597 0.015841423 0.41400003 4283397211
0.07679227 0.015841423 0.41400003 4285369720
0.078136951 0.015841423 0.41400003 4286225029
0.079673596 0.015879687 0.41500002 4286225029
0.038006898 0.01668839 0.40200001 4279647262
0.039312594 0.01668839 0.40200001 4279121685
0.040618293 0.01668839 0.40200001 4279320348
0.042028278 0.016729904 0.40300003 4279650342
0.043337222 0.016729904 0.40300003 4279585064
0.04464617 0.016729904 0.40300003 4279519271
0.045955114 0.016729904 0.40300003 4279519010
0.047264058 0.016729904 0.40300003 4279190045
0.04869353 0.016771417 0.40400001 4279780899
0.050005723 0.016771417 0.40400001 4279319578
0.051317912 0.016771417 0.40400001 4279779877
0.052630108 0.016771417 0.40400001 4279845670
0.0539423 0.016771417 0.40400001 4280502832
0.055254489 0.016771417 0.40400001 4281687360
0.056566685 0.016771417 0.40400001 4282410570
0.057878878 0.016771417 0.40400001 4283989602
0.062121473 0.016854443 0.40600002 4286225029
0.06359642 0.016895955 0.40700001 4286422408
0.065077856 0.01693747 0.40800002 4286356615
0.066565797 0.016978983 0.40900001 4286225029
0.065900169 0.0076980777 0.41208714 4294967295
0.065900169 0.0076980777 0.41208714 4294901760
0.065865315 0.0072021335 0.41214028 4294901760
0.065830454 0.0067061894 0.41219345 4294901760
0.0657956 0.0062102452 0.41224658 4294901760
0.065760747 0.005714301 0.41229972 4294901760
0.065725893 0.0052183568 0.41235286 4294901760
0.065691032 0.0047224127 0.41240603 4294901760
0.065656178 0.0042264685 0.41245916 4294901760
0.065621324 0.0037305248 0.4125123 4294901760
0.065586463 0.0032345802 0.41256547 4294901760
0.065551609 0.0027386365 0.41261861 4294901760
0.065516755 0.0022426923 0.41267174 4294901760
0.065481901 0.0017467481 0.41272488 4294901760
0.06544704 0.0012508044 0.41277805 4294901760
0.065412186 0.00075485976 0.41283119 4294901760
0.065377332 0.00025891559 0.41288432 4294901760
0.065342471 -0.00023702811 0.41293749 4294901760
0.065307617 -0.00073297229 0.41299063 4294901760
0.065272763 -0.0012289174 0.41304377 4294901760
0.06523791 -0.0017248606 0.41309693 4294901760
0.065203048 -0.0022208048 0.41315007 4294901760
0.065168194 -0.002716749 0.41320321 4294901760
0.065133341 -0.0032126931 0.41325635 4294901760
0.065098479 -0.0037086373 0.41330951 4294901760
0.065063626 -0.0042045815 0.41336265 4294901760
0.065028772 -0.0047005257 0.41341579 4294901760
0.064993918 -0.0051964689 0.41346896 4294901760
0.064959057 -0.005692414 0.41352209 4294901760
0.064924203 -0.0061883582 0.41357523 4294901760
0.064889349 -0.0066843014 0.41362837 4294901760
0.064854488 -0.0071802465 0.41368154 4294901760
0.064819634 -0.0076761907 0.41373467 4294901760
0.06478478 -0.0081721339 0.41378781 4294901760
0.064749926 -0.00866808 0.41384098 4294901760
0.064715065 -0.0091640223 0.41389412 4294901760
0.064680211 -0.0096599665 0.41394725 4294901760
0.064645357 -0.010155912 0.41400039 4294901760
0.064610496 -0.010651855 0.41405356 4294901760
0.064575642 -0.011147799 0.4141067 4294901760
0.064540789 -0.011643743 0.41415983 4294901760
0.064505935 -0.012139687 0.414213 4294901760
0.064471073 -0.012635631 0.41426614 4294901760
0.06443622 -0.013131576 0.41431928 4294901760
0.064401366 -0.01362752 0.41437241 4294901760
0.064366505 -0.014123464 0.41442558 4294901760
0.064331651 -0.014619408 0.41447872 4294901760
0.064296797 -0.015115352 0.41453186 4294901760
0.064261943 -0.015611297 0.41458502 4294901760
0.064227082 -0.016107241 0.41463816 4294901760
0.064192228 -0.016603185 0.4146913 4294901760
0.064157374 -0.017099129 0.41474444 4294901760
0.064122513 -0.017595073 0.4147976 4294901760
0.064087659 -0.018091016 0.41485074 4294901760
0.064052805 -0.01858696 0.41490388 4294901760
0.064017951 -0.019082906 0.41495705 4294901760
0.06398309 -0.01957885 0.41501018 4294901760
0.063948236 -0.020074794 0.41506332 4294901760
0.063913383 -0.020570738 0.41511649 4294901760
0.063878521 -0.021066681 0.41516963 4294901760
0.063843668 -0.021562625 0.41522276 4294901760
0.063808814 -0.022058571 0.4152759 4294901760
0.06377396 -0.022554515 0.41532907 4294901760
0.063739099 -0.023050459 0.41538221 4294901760
0.063704245 -0.023546403 0.41543534 4294901760
0.063669391 -0.024042346 0.41548851 4294901760
0.06363453 -0.02453829 0.41554165 4294901760
0.063599676 -0.025034238 0.41559479 4294901760
0.063564822 -0.025530182 0.41564792 4294901760
0.063529968 -0.026026122 0.41570109 4294901760
0.063495107 -0.026522066 0.41575423 4294901760
0.063460253 -0.027018011 0.41580737 4294901760
0.063425399 -0.027513955 0.41586053 4294901760
0.063390538 -0.028009903 0.41591367 4294901760
0.063355684 -0.028505847 0.41596681 4294901760
0.06332083 -0.029001787 0.41601995 4294901760
0.063285977 -0.029497731 0.41607311 4294901760
0.063251115 -0.029993676 0.41612625 4294901760
0.063216262 -0.03048962 0.41617939 4294901760
0.063181408 -0.030985564 0.41623256 4294901760
0.063146546 -0.031481508 0.41628569 4294901760
0.063111693 -0.031977452 0.41633883 4294901760
0.063076839 -0.032473397 0.41639197 4294901760
0.063041985 -0.032969341 0.41644514 4294901760
0.063007124 -0.033465285 0.41649827 4294901760
0.06297227 -0.033961229 0.41655141 4294901760
0.062937416 -0.034457173 0.41660458 4294901760
0.062902555 -0.034953117 0.41665772 4294901760
0.062867701 -0.035449062 0.41671085 4294901760
0.062832847 -0.035945006 0.41676402 4294901760
0.062797993 -0.03644095 0.41681716 4294901760
0.062763132 -0.036936894 0.4168703 4294901760
0.062728278 -0.037432838 0.41692343 4294901760
0.062693425 -0.037928782 0.4169766 4294901760
0.062658563 -0.038424727 0.41702974 4294901760
0.062623709 -0.038920671 0.41708288 4294901760
0.062588856 -0.039416615 0.41713604 4294901760
0.062554002 -0.039912559 0.41718918 4294901760
0.062519141 -0.040408503 0.41724232 4294901760
0.062484287 -0.040904447 0.41729546 4294901760
0.062449433 -0.041400392 0.41734862 4294901760
0.062414575 -0.041896336 0.41740176 4294901760
0.065900169 0.0076980777 0.41208714 4278255360
0.066346504 0.0076908455 0.41231239 4278255360
0.066792838 0.0076836138 0.41253763 4278255360
0.067239173 0.0076763816 0.41276288 4278255360
0.067685507 0.0076691494 0.4129881 4278255360
0.068131842 0.0076619177 0.41321334 4278255360
0.068578176 0.0076546855 0.41343859 4278255360
0.069024503 0.0076474533 0.41366383 4278255360
0.069470838 0.0076402216 0.41388908 4278255360
0.069917172 0.0076329894 0.41411433 4278255360
0.070363507 0.0076257573 0.41433954 4278255360
0.070809841 0.0076185255 0.41456479 4278255360
0.071256176 0.0076112933 0.41479003 4278255360
0.07170251 0.0076040612 0.41501528 4278255360
0.072148845 0.007596829 0.41524053 4278255360
0.072595179 0.0075895973 0.41546577 4278255360
0.073041514 0.0075823651 0.41569102 4278255360
0.073487848 0.0075751329 0.41591623 4278255360
0.073934183 0.0075679012 0.41614148 4278255360
0.074380517 0.007560669 0.41636673 4278255360
0.074826851 0.0075534368 0.41659197 4278255360
0.075273186 0.0075462051 0.41681722 4278255360
0.07571952 0.0075389729 0.41704246 4278255360
0.076165847 0.0075317407 0.41726771 4278255360
0.076612182 0.007524509 0.41749293 4278255360
0.077058516 0.0075172768 0.41771817 4278255360
0.077504851 0.0075100446 0.41794342 4278255360
0.077951185 0.0075028129 0.41816866 4278255360
0.07839752 0.0074955807 0.41839391 4278255360
0.078843854 0.0074883485 0.41861916 4278255360
0.079290189 0.0074811168 0.4188444 4278255360
0.079736523 0.0074738846 0.41906962 4278255360
0.080182858 0.0074666524 0.41929486 4278255360
0.080629192 0.0074594207 0.41952011 4278255360
0.081075527 0.0074521885 0.41974536 4278255360
0.081521854 0.0074449563 0.4199706 4278255360
0.081968188 0.0074377246 0.42019585 4278255360
0.082414523 0.0074304924 0.42042106 4278255360
0.082860857 0.0074232602 0.42064631 4278255360
0.083307192 0.0074160285 0.42087156 4278255360
0.083753526 0.0074087963 0.4210968 4278255360
0.084199861 0.0074015642 0.42132205 4278255360
0.084646195 0.007394332 0.42154729 4278255360
0.08509253 0.0073871003 0.42177254 4278255360
0.085538864 0.0073798681 0.42199776 4278255360
0.085985199 0.0073726359 0.422223 4278255360
0.086431533 0.0073654042 0.42244825 4278255360
0.086877868 0.007358172 0.42267349 4278255360
0.087324202 0.0073509398 0.42289874 4278255360
0.087770537 0.0073437081 0.42312399 4278255360
0.088216871 0.0073364759 0.4233492 4278255360
0.088663198 0.0073292437 0.42357445 4278255360
0.089109533 0.007322012 0.42379969 4278255360
0.089555867 0.0073147798 0.42402494 4278255360
0.090002201 0.0073075476 0.42425019 4278255360
0.090448536 0.0073003159 0.42447543 4278255360
0.09089487 0.0072930837 0.42470068 4278255360
0.091341205 0.0072858515 0.42492589 4278255360
0.091787539 0.0072786198 0.42515114 4278255360
0.092233874 0.0072713876 0.42537639 4278255360
0.092680208 0.0072641554 0.42560163 4278255360
0.093126543 0.0072569232 0.42582688 4278255360
0.093572877 0.0072496915 0.42605212 4278255360
0.094019204 0.0072424593 0.42627737 4278255360
0.094465539 0.0072352272 0.42650259 4278255360
0.094911873 0.0072279954 0.42672783 4278255360
0.095358208 0.0072207632 0.42695308 4278255360
0.095804542 0.0072135311 0.42717832 4278255360
0.096250877 0.0072062993 0.42740357 4278255360
0.096697211 0.0071990672 0.42762882 4278255360
0.097143546 0.007191835 0.42785406 4278255360
0.09758988 0.0071846033 0.42807928 4278255360
0.098036215 0.0071773711 0.42830452 4278255360
0.098482549 0.0071701389 0.42852977 4278255360
0.098928884 0.0071629072 0.42875502 4278255360
0.099375218 0.007155675 0.42898026 4278255360
0.099821553 0.0071484428 0.42920551 4278255360
0.10026789 0.0071412111 0.42943072 4278255360
0.10071422 0.0071339789 0.42965597 4278255360
0.10116056 0.0071267467 0.42988122 4278255360
0.10160689 0.007119515 0.43010646 4278255360
0.10205323 0.0071122828 0.43033171 4278255360
0.10249955 0.0071050506 0.43055695 4278255360
0.10294589 0.0070978189 0.4307822 4278255360
0.10339222 0.0070905867 0.43100742 4278255360
0.10383856 0.0070833545 0.43123266 4278255360
0.10428489 0.0070761228 0.43145791 4278255360
0.10473122 0.0070688906 0.43168315 4278255360
0.10517756 0.0070616584 0.4319084 4278255360
0.10562389 0.0070544267 0.43213364 4278255360
0.10607022 0.0070471945 0.43235886 4278255360
0.10651656 0.0070399623 0.43258411 4278255360
0.10696289 0.0070327302 0.43280935 4278255360
0.10740922 0.0070254984 0.4330346 4278255360
0.10785556 0.0070182662 0.43325984 4278255360
0.10830189 0.0070110341 0.43348509 4278255360
0.10874823 0.0070038023 0.43371034 4278255360
0.10919456 0.0069965702 0.43393558 4278255360
0.1096409 0.006989338 0.4341608 4278255360
0.11008723 0.0069821062 0.43438604 4278255360
0.11053357 0.0069748741 0.43461129 4278255360
0.065900169 0.0076980777 0.41208714 4278190335
0.06566263 0.0077614291 0.41252252 4278190335
0.065425098 0.0078247804 0.41295791 4278190335
0.065187559 0.0078881318 0.41339332 4278190335
0.064950019 0.0079514831 0.4138287 4278190335
0.064712487 0.0080148345 0.41426408 4278190335
0.064474948 0.0080781858 0.41469947 4278190335
0.064237408 0.0081415372 0.41513485 4278190335
0.063999869 0.0082048886 0.41557026 4278190335
0.063762337 0.0082682399 0.41600564 4278190335
0.063524798 0.0083315913 0.41644102 4278190335
0.063287258 0.0083949426 0.41687641 4278190335
0.063049726 0.008458294 0.41731179 4278190335
0.062812187 0.0085216453 0.4177472 4278190335
0.062574647 0.0085849967 0.41818258 4278190335
0.062337112 0.008648348 0.41861796 4278190335
0.062099576 0.0087116994 0.41905335 4278190335
0.061862037 0.0087750508 0.41948873 4278190335
0.061624501 0.0088384021 0.41992414 4278190335
0.061386965 0.0089017535 0.42035952 4278190335
0.061149426 0.0089651048 0.4207949 4278190335
0.06091189 0.0090284562 0.42123029 4278190335
0.060674354 0.0090918075 0.42166567 4278190335
0.060436815 0.0091551598 0.42210108 4278190335
0.060199279 0.0092185102 0.42253646 4278190335
0.059961744 0.0092818625 0.42297184 4278190335
0.059724204 0.009345213 0.42340723 4278190335
0.059486669 0.0094085652 0.42384261 4278190335
0.059249129 0.0094719166 0.42427802 4278190335
0.059011593 0.0095352679 0.4247134 4278190335
0.058774054 0.0095986193 0.42514879 4278190335
0.058536518 0.0096619707 0.42558417 4278190335
0.058298983 0.0097253211 0.42601955 4278190335
0.058061443 0.0097886734 0.42645496 4278190335
0.057823908 0.0098520247 0.42689034 4278190335
0.057586372 0.0099153761 0.42732573 4278190335
0.057348832 0.0099787274 0.42776111 4278190335
0.057111297 0.010042079 0.42819649 4278190335
0.056873761 0.01010543 0.4286319 4278190335
0.056636222 0.010168782 0.42906728 4278190335
0.056398686 0.010232133 0.42950267 4278190335
0.05616115 0.010295484 0.42993805 4278190335
0.055923611 0.010358836 0.43037343 4278190335
0.055686072 0.010422187 0.43080884 4278190335
0.055448536 0.010485538 0.43124422 4278190335
0.055211 0.01054889 0.43167961 4278190335
0.054973461 0.010612241 0.43211499 4278190335
0.054735925 0.010675592 0.43255037 4278190335
0.054498389 0.010738944 0.43298578 4278190335
0.05426085 0.010802295 0.43342116 4278190335
0.054023314 0.010865646 0.43385655 4278190335
0.053785779 0.010928998 0.43429193 4278190335
0.053548239 0.010992349 0.43472731 4278190335
0.053310703 0.0110557 0.43516272 4278190335
0.053073164 0.011119052 0.43559811 4278190335
0.052835628 0.011182403 0.43603349 4278190335
0.052598093 0.011245755 0.43646887 4278190335
0.052360557 0.011309106 0.43690425 4278190335
0.052123018 0.011372457 0.43733966 4278190335
0.051885482 0.011435809 0.43777505 4278190335
0.051647943 0.01149916 0.43821043 4278190335
0.051410407 0.011562511 0.43864581 4278190335
0.051172867 0.011625864 0.43908119 4278190335
0.050935332 0.011689214 0.4395166 4278190335
0.050697796 0.011752565 0.43995199 4278190335
0.050460257 0.011815917 0.44038737 4278190335
0.050222721 0.011879269 0.44082275 4278190335
0.049985185 0.011942619 0.44125813 4278190335
0.049747646 0.012005972 0.44169354 4278190335
0.04951011 0.012069322 0.44212893 4278190335
0.049272574 0.012132674 0.44256431 4278190335
0.049035035 0.012196025 0.44299969 4278190335
0.048797496 0.012259377 0.44343507 4278190335
0.04855996 0.012322728 0.44387048 4278190335
0.048322424 0.01238608 0.44430587 4278190335
0.048084885 0.01244943 0.44474125 4278190335
0.047847349 0.012512783 0.44517663 4278190335
0.047609814 0.012576133 0.44561201 4278190335
0.047372274 0.012639485 0.44604743 4278190335
0.047134738 0.012702836 0.44648281 4278190335
0.046897203 0.012766188 0.44691819 4278190335
0.046659663 0.012829538 0.44735357 4278190335
0.046422128 0.012892891 0.44778895 4278190335
0.046184592 0.012956241 0.44822437 4278190335
0.045947053 0.013019593 0.44865975 4278190335
0.045709513 0.013082945 0.44909513 4278190335
0.045471977 0.013146296 0.44953051 4278190335
0.045234442 0.013209647 0.44996589 4278190335
0.044996902 0.013272999 0.45040131 4278190335
0.04475937 0.013336349 0.45083669 4278190335
0.044521831 0.013399702 0.45127207 4278190335
0.044284292 0.013463053 0.45170745 4278190335
0.044046756 0.013526404 0.45214283 4278190335
0.04380922 0.013589756 0.45257825 4278190335
0.043571681 0.013653107 0.45301363 4278190335
0.043334145 0.013716458 0.45344901 4278190335
0.043096609 0.01377981 0.45388439 4278190335
0.04285907 0.013843161 0.45431978 4278190335
0.042621531 0.013906512 0.45475519 4278190335
0.042383999 0.013969864 0.45519057 4278190335
0.042146459 0.014033215 0.45562595 4278190335
0.065900169 0.0076980777 0.41208714 4294967295
0.067325391 0.0073179696 0.40947482 4294967295
0.068750612 0.006937861 0.4068625 4294967295
0.070175834 0.0065577528 0.40425014 4294967295
0.071601056 0.0061776447 0.40163782 4294967295
0.073026285 0.0057975361 0.3990255 4294967295
0.074451506 0.005417428 0.39641318 4294967295
0.075876728 0.0050373198 0.39380085 4294967295
0.077301949 0.0046572117 0.3911885 4294967295
0.078727171 0.0042771031 0.38857618 4294967295
0.080152392 0.0038969947 0.38596386 4294967295
0.081577614 0.0035168868 0.38335153 4294967295
0.083002836 0.0031367783 0.38073921 4294967295
0.084428057 0.0027566701 0.37812689 4294967295
0.085853286 0.0023765615 0.37551454 4294967295
0.087278508 0.0019964534 0.37290221 4294967295
0.088703729 0.0016163453 0.37028989 4294967295
0.090128951 0.0012362367 0.36767757 4294967295
0.091554172 0.00085612852 0.36506522 4294967295
0.092979394 0.00047602039 0.36245289 4294967295
0.094404623 9.591179e-05 0.35984057 4294967295
0.095829844 -0.00028419588 0.35722825 4294967295
0.097255066 -0.00066430401 0.35461593 4294967295
0.098680288 -0.0010444131 0.3520036 4294967295
0.10010551 -0.0014245212 0.34939128 4294967295
0.10153073 -0.0018046293 0.34677893 4294967295
0.10295595 -0.0021847375 0.34416661 4294967295
0.10438117 -0.0025648465 0.34155428 4294967295
0.1058064 -0.0029449547 0.33894196 4294967295
0.10723162 -0.0033250619 0.33632964 4294967295
0.10865685 -0.0037051709 0.33371729 4294967295
0.11008207 -0.0040852791 0.33110496 4294967295
0.11150728 -0.0044653872 0.32849264 4294967295
0.11293251 -0.0048454963 0.32588029 4294967295
0.11435773 -0.0052256044 0.323268 4294967295
0.11578295 -0.0056057116 0.32065564 4294967295
0.11720818 -0.0059858207 0.31804332 4294967295
0.1186334 -0.0063659288 0.315431 4294967295
0.12005863 -0.0067460369 0.31281868 4294967295
0.12148385 -0.0071261451 0.31020635 4294967295
0.12290907 -0.0075062541 0.307594 4294967295
0.12433429 -0.0078863613 0.30498168 4294967295
0.12575951 -0.0082664695 0.30236936 4294967295
0.12718473 -0.0086465795 0.29975703 4294967295
0.12860996 -0.0090266857 0.29714471 4294967295
0.13003518 -0.0094067939 0.29453236 4294967295
0.1314604 -0.0097869039 0.29192004 4294967295
0.13288563 -0.010167012 0.28930771 4294967295
0.13431084 -0.01054712 0.28669539 4294967295
0.13573608 -0.010927228 0.28408307 4294967295
0.13716128 -0.011307336 0.28147072 4294967295
0.13858652 -0.011687445 0.27885842 4294967295
0.14001173 -0.012067553 0.27624607 4294967295
0.14143696 -0.012447661 0.27363375 4294967295
0.14286219 -0.012827771 0.27102143 4294967295
0.14428741 -0.013207879 0.26840907 4294967295
0.14571263 -0.013587987 0.26579678 4294967295
0.14713785 -0.013968093 0.26318443 4294967295
0.14856307 -0.014348201 0.26057211 4294967295
0.14998829 -0.01472831 0.25795978 4294967295
0.15141353 -0.01510842 0.25534743 4294967295
0.15283874 -0.015488528 0.25273514 4294967295
0.15426397 -0.015868636 0.25012279 4294967295
0.15568918 -0.016248744 0.24751046 4294967295
0.1571144 -0.016628852 0.24489814 4294967295
0.15853962 -0.01700896 0.24228582 4294967295
0.15996486 -0.01738907 0.23967347 4294967295
0.16139007 -0.017769178 0.23706114 4294967295
0.1628153 -0.018149287 0.23444882 4294967295
0.16424051 -0.018529393 0.2318365 4294967295
0.16566575 -0.018909501 0.22922418 4294967295
0.16709095 -0.019289609 0.22661184 4294967295
0.16851619 -0.019669719 0.2239995 4294967295
0.16994141 -0.020049827 0.22138718 4294967295
0.17136663 -0.020429935 0.21877486 4294967295
0.17279185 -0.020810043 0.21616253 4294967295
0.17421708 -0.021190152 0.2135502 4294967295
0.1756423 -0.02157026 0.21093787 4294967295
0.17706752 -0.021950368 0.20832555 4294967295
0.17849275 -0.022330478 0.20571321 4294967295
0.17991796 -0.022710586 0.20310088 4294967295
0.1813432 -0.023090694 0.20048855 4294967295
0.1827684 -0.0234708 0.19787623 4294967295
0.18419364 -0.02385091 0.19526391 4294967295
