# .PCD v0.7 - Point Cloud Data file format
VERSION 0.7
FIELDS x y z rgb
SIZE 4 4 4 4
TYPE F F F U
COUNT 1 1 1 1
WIDTH 938
HEIGHT 1
VIEWPOINT 0 0 0 1 0 0 0
POINTS 938
DATA ascii
-0.051567905 0.0061771953 0.39800003 4285105014
-0.050275199 0.0061771953 0.39800003 4284445801
-0.048982497 0.0061771953 0.39800003 4282339912
-0.047689788 0.0061771953 0.39800003 4282406218
-0.046397086 0.0061771953 0.39800003 4284511594
-0.045104381 0.0061771953 0.39800003 4286093445
-0.043701593 0.0061616744 0.39700001 4284055145
-0.042412139 0.0061616744 0.39700001 4283859309
-0.041122679 0.0061616744 0.39700001 4284846458
-0.039833225 0.0061616744 0.39700001 4287345818
-0.038543768 0.0061616744 0.39700001 4288003750
-0.037254311 0.0061616744 0.39700001 4287741350
-0.036055449 0.0061771953 0.39800003 4287477408
-0.052993421 0.0074891075 0.39900002 4282999890
-0.051697474 0.0074891075 0.39900002 4284117858
-0.050401516 0.0074891075 0.39900002 4283261012
-0.049105566 0.0074891075 0.39900002 4282404933
-0.047809612 0.0074891075 0.39900002 4282010175
-0.046513662 0.0074891075 0.39900002 4282207554
-0.045104381 0.0074703381 0.39800003 4281879872
-0.043811675 0.0074703381 0.39800003 4282078021
-0.042518973 0.0074703381 0.39800003 4281947202
-0.041226264 0.0074703381 0.39800003 4281947202
-0.039933562 0.0074703381 0.39800003 4280567342
-0.038640857 0.0074703381 0.39800003 4280901694
-0.037348151 0.0074703381 0.39800003 4280378428
-0.036055449 0.0074703381 0.39800003 4281100868
-0.034850083 0.0074891075 0.39900002 4282875998
-0.053126235 0.0088075176 0.40000001 4282671185
-0.05182704 0.0088075176 0.40000001 4283724127
-0.050527837 0.0088075176 0.40000001 4281749310
-0.049228635 0.0088075176 0.40000001 4281748027
-0.047929432 0.0088075176 0.40000001 4281155118
-0.046630234 0.0088075176 0.40000001 4281747255
-0.045217704 0.0087854993 0.39900002 4281747255
-0.043921754 0.0087854993 0.39900002 4282010427
-0.042518973 0.0087634809 0.39800003 4281748027
-0.041226264 0.0087634809 0.39800003 4282274369
-0.039933562 0.0087634809 0.39800003 4281749560
-0.038640857 0.0087634809 0.39800003 4280371752
-0.037348151 0.0087634809 0.39800003 4279129642
-0.036146037 0.0087854993 0.39900002 4279460660
-0.034850083 0.0087854993 0.39900002 4279461685
-0.053391866 0.010157694 0.40200001 4281947462
-0.052086174 0.010157694 0.40200001 4282671439
-0.050780475 0.010157694 0.40200001 4280434223
-0.04947478 0.010157694 0.40200001 4281420345
-0.04816908 0.010157694 0.40200001 4281748536
-0.046746813 0.010132426 0.40100002 4281419571
-0.045331031 0.010107159 0.40000001 4281484851
-0.044031832 0.010107159 0.40000001 4282603334
-0.042625804 0.010081891 0.39900002 4280958511
-0.04132985 0.010081891 0.39900002 4281419060
-0.040033896 0.010081891 0.39900002 4281090606
-0.038737942 0.010081891 0.39900002 4280302627
-0.037441991 0.010081891 0.39900002 4279456295
-0.036146037 0.010081891 0.39900002 4279327019
-0.034937426 0.010107159 0.40000001 4278801956
-0.033722326 0.010132426 0.40100002 4279262761
-0.032419875 0.010132426 0.40100002 4279329324
-0.031195026 0.010157694 0.40200001 4280380475
-0.02988933 0.010157694 0.40200001 4283275882
-0.028583631 0.010157694 0.40200001 4280382787
-0.027345791 0.010182963 0.40300003 4280120387
-0.026036849 0.010182963 0.40300003 4280382789
-0.024789261 0.01020823 0.40400001 4279855678
-0.023477068 0.01020823 0.40400001 4280184897
-0.022164876 0.01020823 0.40400001 4280578371
-0.020904299 0.010233498 0.40500003 4280577858
-0.053524684 0.011492351 0.40300003 4285498991
-0.052215744 0.011492351 0.40300003 4282144579
-0.050906796 0.011492351 0.40300003 4281157684
-0.049597852 0.011492351 0.40300003 4280695852
-0.048288908 0.011492351 0.40300003 4281287987
-0.046863385 0.011463834 0.40200001 4281090608
-0.045444362 0.011435317 0.40100002 4281551159
-0.044141915 0.011435317 0.40100002 4282077501
-0.042732634 0.0114068 0.40000001 4282339644
-0.04132985 0.011378283 0.39900002 4281023530
-0.040033896 0.011378283 0.39900002 4280893227
-0.038737942 0.011378283 0.39900002 4280500006
-0.037535828 0.0114068 0.40000001 4279389221
-0.036236629 0.0114068 0.40000001 4279193636
-0.034937426 0.0114068 0.40000001 4278931746
-0.033722326 0.011435317 0.40100002 4278998822
-0.032419875 0.011435317 0.40100002 4278999589
-0.031195026 0.011463834 0.40200001 4279328554
-0.02988933 0.011463834 0.40200001 4279265326
-0.028654736 0.011492351 0.40300003 4279135023
-0.027345791 0.011492351 0.40300003 4279726908
-0.026036849 0.011492351 0.40300003 4279135543
-0.024789261 0.011520868 0.40400001 4279726908
-0.023535181 0.011549385 0.40500003 4279331121
-0.022219742 0.011549385 0.40500003 4279396914
-0.020955915 0.011577902 0.40600002 4279396914
-0.019685593 0.011606419 0.40700001 4279396914
-0.053790316 0.012865272 0.40500003 4282405171
-0.052345309 0.012833506 0.40400001 4281880115
-0.051033117 0.012833506 0.40400001 4280959020
-0.049720924 0.012833506 0.40400001 4281156401
-0.048408728 0.012833506 0.40400001 4280826921
-0.046979964 0.012801739 0.40300003 4280761128
-0.045557689 0.012769973 0.40200001 4280695850
-0.044141915 0.012738207 0.40100002 4281748023
-0.042732634 0.012706441 0.40000001 4282009902
-0.041433431 0.012706441 0.40000001 4280826143
-0.040134232 0.012706441 0.40000001 4280893481
-0.03883503 0.012706441 0.40000001 4279974176
-0.037535828 0.012706441 0.40000001 4279388453
-0.036236629 0.012706441 0.40000001 4279258148
-0.035024773 0.012738207 0.40100002 4279127843
-0.033722326 0.012738207 0.40100002 4279194406
-0.032500722 0.012769973 0.40200001 4279195431
-0.031195026 0.012769973 0.40200001 4279064869
-0.02988933 0.012769973 0.40200001 4279264043
-0.028654736 0.012801739 0.40300003 4279133740
-0.027345791 0.012801739 0.40300003 4279331634
-0.026101455 0.012833506 0.40400001 4278936876
-0.024850622 0.012865272 0.40500003 4278871081
-0.023535181 0.012865272 0.40500003 4279068460
-0.022274604 0.012897038 0.40600002 4279002154
-0.02100753 0.012928803 0.40700001 4279133740
-0.019733962 0.01296057 0.40800002 4279331119
-0.053790316 0.014181159 0.40500003 4282338088
-0.052474879 0.014181159 0.40500003 4281615648
-0.051159438 0.014181159 0.40500003 4280893227
-0.049720924 0.014146143 0.40400001 4280761643
-0.048408728 0.014146143 0.40400001 4280630059
-0.046979964 0.014111128 0.40300003 4280761130
-0.045557689 0.014076112 0.40200001 4280563751
-0.044141915 0.014041097 0.40100002 4281419058
-0.042839468 0.014041097 0.40100002 4281746732
-0.041433431 0.014006081 0.40000001 4281351720
-0.040134232 0.014006081 0.40000001 4280761895
-0.03883503 0.014006081 0.40000001 4280105762
-0.037535828 0.014006081 0.40000001 4278927902
-0.036327224 0.014041097 0.40100002 4279192355
-0.035024773 0.014041097 0.40100002 4279061535
-0.033722326 0.014041097 0.40100002 4279391267
-0.032500722 0.014076112 0.40200001 4279260965
-0.031195026 0.014076112 0.40200001 4279788592
-0.029963681 0.014111128 0.40300003 4279264043
-0.028654736 0.014111128 0.40300003 4279198763
-0.027413648 0.014146143 0.40400001 4279922488
-0.026166065 0.014181159 0.40500003 4279198765
-0.024911981 0.014216173 0.40600002 4279067177
-0.023593292 0.014216173 0.40600002 4279132970
-0.022329466 0.014251187 0.40700001 4279395117
-0.021059146 0.014286203 0.40800002 4278933542
-0.019782327 0.014321218 0.40900001 4279132970
-0.053790316 0.015497045 0.40500003 4282797865
-0.052345309 0.015458779 0.40400001 4282535980
-0.051033117 0.015458779 0.40400001 4280892714
-0.049720924 0.015458779 0.40400001 4280695337
-0.048408728 0.015458779 0.40400001 4280695339
-0.046979964 0.015420516 0.40300003 4280826925
-0.045557689 0.015382251 0.40200001 4280958507
-0.044141915 0.015343987 0.40100002 4281418542
-0.042732634 0.015305722 0.40000001 4281615405
-0.041433431 0.015305722 0.40000001 4281089061
-0.040134232 0.015305722 0.40000001 4280761380
-0.03883503 0.015305722 0.40000001 4280303909
-0.037535828 0.015305722 0.40000001 4279257635
-0.036327224 0.015343987 0.40100002 4279258918
-0.035024773 0.015343987 0.40100002 4279193121
-0.033806417 0.015382251 0.40200001 4279325220
-0.032500722 0.015382251 0.40200001 4279326758
-0.031195026 0.015382251 0.40200001 4279591213
-0.029963681 0.015420516 0.40300003 4279132457
-0.028725838 0.015458779 0.40400001 4279461422
-0.027413648 0.015458779 0.40400001 4279198763
-0.026166065 0.015497045 0.40500003 4279067177
-0.024911981 0.015535308 0.40600002 4278738214
-0.023651402 0.015573572 0.40700001 4279066666
-0.022439193 0.015650101 0.40900001 4278206478
-0.021162378 0.015688365 0.41000003 4279260711
-0.019879064 0.01572663 0.41100001 4279263531
-0.018679494 0.015841423 0.41400003 4279329836
-0.053790316 0.01681293 0.40500003 4282863662
-0.052345309 0.016771417 0.40400001 4282140455
-0.051033117 0.016771417 0.40400001 4281089577
-0.049720924 0.016771417 0.40400001 4281089325
-0.048288908 0.016729904 0.40300003 4281352497
-0.046979964 0.016729904 0.40300003 4281286704
-0.045557689 0.01668839 0.40200001 4281615669
-0.044141915 0.016646877 0.40100002 4281418288
-0.042732634 0.016605362 0.40000001 4281549612
-0.041433431 0.016605362 0.40000001 4281286440
-0.040134232 0.016605362 0.40000001 4280432669
-0.03883503 0.016605362 0.40000001 4279844895
-0.037629671 0.016646877 0.40100002 4279126047
-0.036327224 0.016646877 0.40100002 4278995744
-0.035024773 0.016646877 0.40100002 4279325220
-0.033806417 0.01668839 0.40200001 4279260197
-0.032500722 0.01668839 0.40200001 4279260711
-0.031272627 0.016729904 0.40300003 4279129892
-0.029963681 0.016729904 0.40300003 4279395115
-0.028725838 0.016771417 0.40400001 4279329836
-0.027481504 0.01681293 0.40500003 4279198765
-0.026230671 0.016854443 0.40600002 4278804007
-0.024973338 0.016895955 0.40700001 4278605861
-0.023709515 0.01693747 0.40800002 4279264045
-0.022494059 0.017020497 0.41000003 4279326758
-0.021213992 0.01706201 0.41100001 4279523623
-0.019975798 0.017145038 0.41300002 4278200064
-0.018769732 0.017269578 0.41600001 4278200071
-0.017586051 0.017435631 0.42000002 4278200838
-0.01633776 0.017560171 0.42300001 4278201866
-0.015034606 0.017643198 0.42500001 4278199808
-0.013686333 0.017684711 0.42600003 4278337046
-0.012331564 0.017726226 0.42700002 4278202122
-0.010970299 0.017767739 0.42800003 4278468378
-0.051930897 0.017502142 0.39100003 4282338095
-0.052086174 0.017994529 0.40200001 4283788112
-0.050906796 0.018039292 0.40300003 4281682745
-0.049597852 0.018039292 0.40300003 4281352497
-0.048288908 0.018039292 0.40300003 4281615669
-0.046863385 0.017994529 0.40200001 4282339392
-0.045444362 0.017949766 0.40100002 4281944634
-0.044141915 0.017949766 0.40100002 4281352495
-0.042732634 0.017905002 0.40000001 4281089577
-0.041433431 0.017905002 0.40000001 4280957991
-0.040134232 0.017905002 0.40000001 4280696870
-0.03883503 0.017905002 0.40000001 4279911715
-0.037629671 0.017949766 0.40100002 4279126558
-0.036327224 0.017949766 0.40100002 4279258914
-0.035024773 0.017949766 0.40100002 4278997025
-0.033806417 0.017994529 0.40200001 4279391783
-0.032500722 0.017994529 0.40200001 4279064867
-0.031272627 0.018039292 0.40300003 4279394345
-0.029963681 0.018039292 0.40300003 4278474013
-0.028725838 0.018084053 0.40400001 4280118838
-0.027481504 0.018128816 0.40500003 4279329836
-0.026230671 0.018173579 0.40600002 4279066666
-0.0250347 0.018263103 0.40800002 4279329324
-0.023767626 0.018307867 0.40900001 4279394347
-0.022548921 0.018397391 0.41100001 4278201858
-0.020072535 0.018576441 0.41500002 4278987799
-0.018814852 0.018665968 0.41700003 4278920470
-0.017627923 0.018845016 0.42100003 4279248922
-0.01633776 0.01893454 0.42300001 4279117336
-0.015034606 0.019024067 0.42500001 4278198537
-0.001334838 0.020635517 0.46100003 4278931748
-0.054600324 0.018388448 0.38300002 4279968786
-0.053495653 0.01843646 0.384 4279836162
-0.051930897 0.018772542 0.39100003 4282340925
-0.05182704 0.019204644 0.40000001 4282473283
-0.050654158 0.019252658 0.40100002 4281617722
-0.049351711 0.019252658 0.40100002 4282076220
-0.04816908 0.019300669 0.40200001 4282142781
-0.046746813 0.019252658 0.40100002 4282340414
-0.045444362 0.019252658 0.40100002 4281419058
-0.044141915 0.019252658 0.40100002 4281352495
-0.042732634 0.019204644 0.40000001 4281089323
-0.041433431 0.019204644 0.40000001 4281089323
-0.040134232 0.019204644 0.40000001 4280105248
-0.038932119 0.019252658 0.40100002 4279846690
-0.037629671 0.019252658 0.40100002 4279323937
-0.036327224 0.019252658 0.40100002 4279193121
-0.035112113 0.019300669 0.40200001 4279325220
-0.033806417 0.019300669 0.40200001 4278602781
-0.032500722 0.019300669 0.40200001 4279460138
-0.031272627 0.019348681 0.40300003 4279264297
-0.029963681 0.019348681 0.40300003 4279198763
-0.028725838 0.019396693 0.40400001 4279527215
-0.027481504 0.019444704 0.40500003 4279329322
-0.026295278 0.019540727 0.40700001 4278802978
-0.0250347 0.019588739 0.40800002 4279329322
-0.023825739 0.019684762 0.41000003 4279065380
-0.0201209 0.019972831 0.41600001 4278660115
-0.018859971 0.020068854 0.41800001 4280698417
-0.017627923 0.020212891 0.42100003 4281159481
-0.016376384 0.020356925 0.42400002 4280764723
-0.015069982 0.020452948 0.42600003 4278199563
-0.012360444 0.020548971 0.42800003 4278202890
-0.01099593 0.020596983 0.42900002 4278204174
-0.0096249208 0.020644994 0.43000001 4279194406
-0.0042919298 0.021941308 0.45700002 4279327019
-0.0028137362 0.021989319 0.45800003 4280577086
-0.0013319424 0.022085343 0.46000001 4280181817
0.0001621384 0.022085343 0.46000001 4279064619
-0.055844311 0.019632854 0.38300002 4282274882
-0.054885443 0.019735375 0.38500002 4281945402
-0.053774279 0.019786635 0.38600001 4283327561
-0.052063711 0.020094201 0.39200002 4282275134
-0.051567905 0.020401767 0.39800003 4282011962
-0.050401516 0.020453027 0.39900002 4282010425
-0.049228635 0.020504287 0.40000001 4282207804
-0.04804926 0.020555547 0.40100002 4282340414
-0.046746813 0.020555547 0.40100002 4282340414
-0.045444362 0.020555547 0.40100002 4281814070
-0.044141915 0.020555547 0.40100002 4281352497
-0.042839468 0.020555547 0.40100002 4280958509
-0.041537017 0.020555547 0.40100002 4281156399
-0.040234569 0.020555547 0.40100002 4279186713
-0.038932119 0.020555547 0.40100002 4279649826
-0.037629671 0.020555547 0.40100002 4279323424
-0.036417812 0.020606807 0.40200001 4279323937
-0.035112113 0.020606807 0.40200001 4278996255
-0.033806417 0.020606807 0.40200001 4279260711
-0.032500722 0.020606807 0.40200001 4279788590
-0.031272627 0.020658068 0.40300003 4279394345
-0.030038033 0.020709328 0.40400001 4279198765
-0.028725838 0.020709328 0.40400001 4279265328
-0.027481504 0.02076059 0.40500003 4278935593
-0.026295278 0.02086311 0.40700001 4279132972
-0.0250347 0.020914372 0.40800002 4279264043
-0.023825739 0.021016894 0.41000003 4279591724
-0.021368841 0.021221938 0.41400003 4278199553
-0.020169269 0.021375719 0.41700003 4280700725
-0.018905092 0.021478241 0.41900003 4279318558
-0.017669793 0.021632021 0.42200002 4279646242
-0.016376384 0.021734543 0.42400002 4280107561
-0.013750589 0.021939587 0.42800003 4278335247
-0.012389324 0.021990847 0.42900002 4278201608
-0.0071970522 0.023221103 0.45300001 4278600988
-0.0057383478 0.023272365 0.45400003 4278600988
-0.0042919298 0.023426147 0.45700002 4278601501
-0.0028137362 0.023477409 0.45800003 4280312889
-0.0013290469 0.023528669 0.45900002 4279590193
0.0001621384 0.023579929 0.46000001 4279985721
0.0016562191 0.023579929 0.46000001 4283992428
-0.056135926 0.020986279 0.38500002 4281880126
-0.055028003 0.02104079 0.38600001 4282406470
-0.054052901 0.021149809 0.38800001 4282012480
-0.053064801 0.021258829 0.39000002 4282473031
-0.052196525 0.021422358 0.39300001 4282274882
-0.05130877 0.021585887 0.39600003 4282076992
-0.050275199 0.021694908 0.39800003 4282207292
-0.049105566 0.021749416 0.39900002 4282470464
-0.047929432 0.021803927 0.40000001 4282472000
-0.046630234 0.021803927 0.40000001 4282406205
-0.045331031 0.021803927 0.40000001 4281944632
-0.044141915 0.021858437 0.40100002 4281746739
-0.042839468 0.021858437 0.40100002 4281944118
-0.041537017 0.021858437 0.40100002 4280892714
-0.040234569 0.021858437 0.40100002 4280239914
-0.038932119 0.021858437 0.40100002 4279716389
-0.037723508 0.021912945 0.40200001 4278665496
-0.036417812 0.021912945 0.40200001 4279521316
-0.035112113 0.021912945 0.40200001 4279391267
-0.033806417 0.021912945 0.40200001 4279194658
-0.032500722 0.021912945 0.40200001 4279065380
-0.031272627 0.021967458 0.40300003 4279460138
-0.030038033 0.022021966 0.40400001 4279264558
-0.028725838 0.022021966 0.40400001 4279002156
-0.027549358 0.022130987 0.40600002 4279002669
-0.026295278 0.022185495 0.40700001 4279002156
-0.025096059 0.022294514 0.40900001 4279198250
-0.023883849 0.022403535 0.41100001 4279459627
-0.021420455 0.022621574 0.41500002 4278201353
-0.020169269 0.022730595 0.41700003 4278989847
-0.018950211 0.022894124 0.42000002 4278330382
-0.017711665 0.023057653 0.42300001 4278527761
-0.016415007 0.023166671 0.42500001 4281028663
-0.013782715 0.023384711 0.42900002 4278200327
-0.011047194 0.023493731 0.43100002 4278336533
-0.0086301267 0.024583928 0.45100003 4278864419
-0.0071811648 0.024638437 0.45200002 4278534943
-0.0057383478 0.024747457 0.45400003 4278798115
-0.0042825383 0.024856478 0.45600003 4278666527
-0.0028075927 0.024910986 0.45700002 4278536226
-0.0013290469 0.025020007 0.45900002 4279524146
0.00016178592 0.025020007 0.45900002 4279195435
0.0016562191 0.025074515 0.46000001 4287675555
-0.058332283 0.022121666 0.38300002 4282404921
-0.054192215 0.02246822 0.38900003 4282538574
-0.052196525 0.022699254 0.39300001 4282274882
-0.0511792 0.022814773 0.39500001 4282536771
-0.050148878 0.022930291 0.39700001 4282865224
-0.048982497 0.022988051 0.39800003 4283063117
-0.047809612 0.023045808 0.39900002 4282997574
-0.046513662 0.023045808 0.39900002 4282273851
-0.045331031 0.023103567 0.40000001 4281944886
-0.044031832 0.023103567 0.40000001 4281746739
-0.042839468 0.023161327 0.40100002 4282338876
-0.041537017 0.023161327 0.40100002 4280892714
-0.040234569 0.023161327 0.40100002 4279978024
-0.039029203 0.023219084 0.40200001 4279716902
-0.037723508 0.023219084 0.40200001 4279652391
-0.036417812 0.023219084 0.40200001 4279126558
-0.035112113 0.023219084 0.40200001 4279655209
-0.033806417 0.023219084 0.40200001 4279853102
-0.032500722 0.023219084 0.40200001 4279065382
-0.031272627 0.023276845 0.40300003 4279197738
-0.030038033 0.023334604 0.40400001 4279396142
-0.028725838 0.023334604 0.40400001 4279198763
-0.027549358 0.023450121 0.40600002 4278935591
-0.026295278 0.02350788 0.40700001 4279001386
-0.025096059 0.023623398 0.40900001 4279132205
-0.023883849 0.023738915 0.41100001 4278203657
-0.021420455 0.023969952 0.41500002 4278267669
-0.020169269 0.02408547 0.41700003 4279249435
-0.018950211 0.024258746 0.42000002 4279117336
-0.017711665 0.024432022 0.42300001 4279117338
-0.016415007 0.02454754 0.42500001 4278789400
-0.013782715 0.024778577 0.42900002 4278860828
-0.0096920719 0.025009612 0.43300003 4279654705
-0.0086109908 0.025991512 0.45000002 4280115256
-0.0071811648 0.026107032 0.45200002 4279720752
-0.0057383478 0.026222549 0.45400003 4279720750
-0.0042825383 0.026338067 0.45600003 4279918129
-0.0028075927 0.026395826 0.45700002 4278205715
-0.0013261514 0.026453586 0.45800003 4279787318
0.00016178592 0.026511343 0.45900002 4279391787
0.0016562191 0.026569102 0.46000001 4287674271
-0.0511792 0.024098167 0.39500001 4282867539
-0.050022561 0.024159176 0.39600003 4283590231
-0.048859421 0.024220183 0.39700001 4283655254
-0.047689788 0.024281193 0.39800003 4282603332
-0.046513662 0.0243422 0.39900002 4282932551
-0.045217704 0.0243422 0.39900002 4282273851
-0.044031832 0.024403207 0.40000001 4281748023
-0.042839468 0.024464216 0.40100002 4281682743
-0.041537017 0.024464216 0.40100002 4280762924
-0.040234569 0.024464216 0.40100002 4279912231
-0.038932119 0.024464216 0.40100002 4279716900
-0.037723508 0.024525223 0.40200001 4279586596
-0.036417812 0.024525223 0.40200001 4279587109
-0.035112113 0.024525223 0.40200001 4279325990
-0.033806417 0.024525223 0.40200001 4279721775
-0.032500722 0.024525223 0.40200001 4279262507
-0.031272627 0.024586232 0.40300003 4279132205
-0.029963681 0.024586232 0.40300003 4279396144
-0.028725838 0.02464724 0.40400001 4279264556
-0.027549358 0.024769256 0.40600002 4279198765
-0.026295278 0.024830263 0.40700001 4279001386
-0.025096059 0.024952279 0.40900001 4278803755
-0.023825739 0.025013288 0.41000003 4278867499
-0.022603786 0.025135305 0.41200003 4280904004
-0.021368841 0.025257321 0.41400003 4278203927
-0.020169269 0.025440345 0.41700003 4278792216
-0.018905092 0.025562361 0.41900003 4278331152
-0.017711665 0.025806392 0.42300001 4279120668
-0.016415007 0.025928408 0.42500001 4278595351
-0.015140734 0.026111433 0.42800003 4278269204
-0.013814842 0.026233448 0.43000001 4278201098
-0.012475962 0.026355464 0.43200001 4278200329
-0.011098457 0.026416473 0.43300003 4278199815
-0.0097144553 0.02647748 0.43400002 4278201611
-0.0071811648 0.027575625 0.45200002 4278200069
-0.0057383478 0.027697641 0.45400003 4278200843
-0.0042825383 0.027819658 0.45600003 4278201611
-0.0028075927 0.027880665 0.45700002 4279588144
-0.0013261514 0.027941674 0.45800003 4279590709
0.00016178592 0.028002681 0.45900002 4279851316
-0.058789194 0.024803249 0.38600001 4281943089
-0.047569964 0.025510078 0.39700001 4282866767
-0.046397086 0.025574338 0.39800003 4283261525
-0.045217704 0.025638593 0.39900002 4283261777
-0.044031832 0.025702849 0.40000001 4282736203
-0.042732634 0.025702849 0.40000001 4280960819
-0.041537017 0.025767108 0.40100002 4280568625
-0.040234569 0.025767108 0.40100002 4279914027
-0.038932119 0.025767108 0.40100002 4279585832
-0.037629671 0.025767108 0.40100002 4279521318
-0.036417812 0.025831364 0.40200001 4279061535
-0.035112113 0.025831364 0.40200001 4279456806
-0.033806417 0.025831364 0.40200001 4279589676
-0.032500722 0.025831364 0.40200001 4279394093
-0.031272627 0.025895622 0.40300003 4279329070
-0.029963681 0.025895622 0.40300003 4279593523
-0.028725838 0.025959879 0.40400001 4278606628
-0.027481504 0.026024137 0.40500003 4279132718
-0.026295278 0.02615265 0.40700001 4278803753
-0.022603786 0.026473936 0.41200003 4279524148
-0.021368841 0.026602451 0.41400003 4279589939
-0.0201209 0.026730964 0.41600001 4279589680
-0.018859971 0.026859477 0.41800001 4279852338
-0.017669793 0.027116507 0.42200002 4279852336
-0.015140734 0.027502051 0.42800003 4279458605
-0.013814842 0.027630564 0.43000001 4279590191
-0.012475962 0.027759077 0.43200001 4279458605
-0.011124087 0.027887592 0.43400002 4279524398
-0.0071811648 0.02904422 0.45200002 4279392301
-0.0057383478 0.029172735 0.45400003 4279590193
-0.0042825383 0.02930125 0.45600003 4279196205
-0.0028075927 0.029365506 0.45700002 4279459377
-0.0013261514 0.029429764 0.45800003 4278997804
0.00016178592 0.029494021 0.45900002 4286229907
-0.042732634 0.027002489 0.40000001 4280765493
-0.041433431 0.027002489 0.40000001 4280634420
-0.040234569 0.027069997 0.40100002 4280900157
-0.038932119 0.027069997 0.40100002 4279453994
-0.037629671 0.027069997 0.40100002 4279389482
-0.036327224 0.027069997 0.40100002 4279718445
-0.035024773 0.027069997 0.40100002 4279916846
-0.033806417 0.027137503 0.40200001 4279983922
-0.032500722 0.027137503 0.40200001 4279919924
-0.031195026 0.027137503 0.40200001 4279592496
-0.029963681 0.027205011 0.40300003 4279198763
-0.028725838 0.027272515 0.40400001 4279132970
-0.027481504 0.027340023 0.40500003 4279001386
-0.026295278 0.027475033 0.40700001 4279132972
-0.0250347 0.027542541 0.40800002 4278738214
-0.022548921 0.027745059 0.41100001 4279394095
-0.021317223 0.027880071 0.41300002 4279394095
-0.020072535 0.028015085 0.41500002 4279328302
-0.018814852 0.028150097 0.41700003 4279394095
-0.017669793 0.028487628 0.42200002 4279196203
-0.016415007 0.028690146 0.42500001 4279130410
-0.015140734 0.028892666 0.42800003 4279459888
-0.013814842 0.029027676 0.43000001 4278801956
-0.012504841 0.029230196 0.43300003 4279065382
-0.0071811648 0.030512815 0.45200002 4279262511
-0.0057383478 0.030647827 0.45400003 4279328304
-0.0042825383 0.030782839 0.45600003 4279130925
-0.0028075927 0.030850345 0.45700002 4279260209
-0.0013261514 0.030917853 0.45800003 4284450414
-0.040234569 0.028372888 0.40100002 4281358659
-0.038932119 0.028372888 0.40100002 4280438327
-0.037629671 0.028372888 0.40100002 4279452974
-0.036327224 0.028372888 0.40100002 4280308537
-0.035024773 0.028372888 0.40100002 4280112438
-0.033806417 0.028443642 0.40200001 4280376893
-0.032500722 0.028443642 0.40200001 4279984697
-0.031195026 0.028443642 0.40200001 4279590963
-0.029963681 0.028514398 0.40300003 4279459888
-0.027481504 0.028655909 0.40500003 4279591474
-0.026295278 0.028797418 0.40700001 4279723060
-0.0250347 0.028868174 0.40800002 4279788853
-0.023825739 0.029009685 0.41000003 4279394095
-0.022548921 0.029080439 0.41100001 4279393582
-0.021265609 0.029151196 0.41200003 4279328302
-0.020024167 0.029292706 0.41400003 4278999339
-0.018724613 0.029363461 0.41500002 4279327791
-0.016415007 0.030071015 0.42500001 4279327791
-0.0071970522 0.032052163 0.45300001 4280704065
-0.0057509872 0.032193676 0.45500001 4283598187
-0.033806417 0.029749781 0.40200001 4281950794
-0.032500722 0.029749781 0.40200001 4280965954
-0.031195026 0.029749781 0.40200001 4280637502
-0.029963681 0.029823786 0.40300003 4280704577
-0.032046761 0.019165108 0.40929234 4294967295
-0.032046761 0.019165108 0.40929234 4294901760
-0.031927042 0.018679654 0.40929103 4294901760
-0.031807326 0.0181942 0.40928972 4294901760
-0.031687606 0.017708745 0.40928841 4294901760
-0.031567886 0.017223291 0.4092871 4294901760
-0.031448171 0.016737837 0.40928578 4294901760
-0.031328451 0.016252384 0.40928447 4294901760
-0.031208733 0.015766928 0.40928316 4294901760
-0.031089015 0.015281474 0.40928185 4294901760
-0.030969296 0.01479602 0.40928054 4294901760
-0.030849578 0.014310566 0.40927923 4294901760
-0.03072986 0.013825112 0.40927789 4294901760
-0.030610142 0.013339657 0.40927657 4294901760
-0.030490423 0.012854204 0.40927526 4294901760
-0.030370705 0.012368749 0.40927395 4294901760
-0.030250987 0.011883294 0.40927264 4294901760
-0.030131269 0.01139784 0.40927133 4294901760
-0.03001155 0.010912387 0.40927002 4294901760
-0.029891832 0.010426932 0.40926871 4294901760
-0.029772114 0.0099414783 0.4092674 4294901760
-0.029652394 0.0094560236 0.40926608 4294901760
-0.029532677 0.0089705698 0.40926477 4294901760
-0.029412959 0.0084851161 0.40926346 4294901760
-0.029293239 0.0079996614 0.40926215 4294901760
-0.029173521 0.0075142076 0.40926084 4294901760
-0.029053804 0.0070287529 0.40925953 4294901760
-0.028934086 0.0065432992 0.40925822 4294901760
-0.028814366 0.0060578436 0.40925691 4294901760
-0.028694648 0.0055723898 0.40925559 4294901760
-0.028574931 0.005086937 0.40925428 4294901760
-0.028455213 0.0046014814 0.40925294 4294901760
-0.028335493 0.0041160276 0.40925163 4294901760
-0.028215775 0.0036305739 0.40925032 4294901760
-0.028096057 0.0031451192 0.40924901 4294901760
-0.027976338 0.0026596654 0.4092477 4294901760
-0.02785662 0.0021742117 0.40924639 4294901760
-0.027736902 0.001688756 0.40924507 4294901760
-0.027617183 0.0012033023 0.40924376 4294901760
-0.027497467 0.00071784854 0.40924245 4294901760
-0.027377747 0.00023239478 0.40924114 4294901760
-0.027258029 -0.00025306083 0.40923983 4294901760
-0.027138311 -0.00073851459 0.40923852 4294901760
-0.027018592 -0.0012239683 0.40923721 4294901760
-0.026898874 -0.001709424 0.40923589 4294901760
-0.026779156 -0.0021948759 0.40923458 4294901760
-0.026659437 -0.0026803296 0.40923327 4294901760
-0.026539719 -0.0031657852 0.40923196 4294901760
-0.026420001 -0.003651239 0.40923065 4294901760
-0.026300283 -0.0041366927 0.40922934 4294901760
-0.026180563 -0.0046221483 0.40922803 4294901760
-0.026060846 -0.0051076021 0.40922672 4294901760
-0.025941128 -0.0055930559 0.40922537 4294901760
-0.02582141 -0.0060785096 0.40922406 4294901760
-0.02570169 -0.0065639634 0.40922275 4294901760
-0.025581973 -0.0070494208 0.40922144 4294901760
-0.025462255 -0.0075348746 0.40922013 4294901760
-0.025342535 -0.0080203284 0.40921882 4294901760
-0.025222817 -0.0085057802 0.40921751 4294901760
-0.0251031 -0.008991234 0.4092162 4294901760
-0.024983382 -0.0094766878 0.40921488 4294901760
-0.024863662 -0.0099621452 0.40921357 4294901760
-0.024743944 -0.010447599 0.40921226 4294901760
-0.024624225 -0.010933053 0.40921095 4294901760
-0.024504509 -0.011418507 0.40920964 4294901760
-0.024384789 -0.01190396 0.40920833 4294901760
-0.024265071 -0.012389412 0.40920702 4294901760
-0.024145354 -0.01287487 0.4092057 4294901760
-0.024025634 -0.013360323 0.40920439 4294901760
-0.023905916 -0.013845777 0.40920308 4294901760
-0.023786198 -0.014331231 0.40920177 4294901760
-0.023666479 -0.014816685 0.40920043 4294901760
-0.023546763 -0.015302138 0.40919912 4294901760
-0.023427043 -0.015787596 0.40919781 4294901760
-0.023307323 -0.01627305 0.4091965 4294901760
-0.023187606 -0.016758503 0.40919518 4294901760
-0.023067888 -0.017243957 0.40919387 4294901760
-0.02294817 -0.017729411 0.40919256 4294901760
-0.022828452 -0.018214865 0.40919125 4294901760
-0.022708733 -0.018700318 0.40918994 4294901760
-0.022589013 -0.019185776 0.40918863 4294901760
-0.022469297 -0.01967123 0.40918732 4294901760
-0.022349577 -0.020156683 0.40918601 4294901760
-0.02222986 -0.020642137 0.40918469 4294901760
-0.022110142 -0.021127591 0.40918338 4294901760
-0.021990422 -0.021613045 0.40918207 4294901760
-0.021870704 -0.022098502 0.40918076 4294901760
-0.021750987 -0.022583956 0.40917945 4294901760
-0.021631267 -0.02306941 0.40917814 4294901760
-0.021511551 -0.02355486 0.40917683 4294901760
-0.021391831 -0.024040313 0.40917552 4294901760
-0.021272114 -0.024525767 0.4091742 4294901760
-0.021152396 -0.025011225 0.40917286 4294901760
-0.021032676 -0.025496678 0.40917155 4294901760
-0.020912958 -0.025982132 0.40917024 4294901760
-0.020793241 -0.026467586 0.40916893 4294901760
-0.020673521 -0.02695304 0.40916762 4294901760
-0.020553805 -0.027438493 0.40916631 4294901760
-0.020434085 -0.027923951 0.40916499 4294901760
-0.020314366 -0.028409405 0.40916368 4294901760
-0.020194648 -0.028894858 0.40916237 4294901760
-0.02007493 -0.029380312 0.40916106 4294901760
-0.032046761 0.019165108 0.40929234 4278255360
-0.03173288 0.019241482 0.40967399 4278255360
-0.031418998 0.019317856 0.41005561 4278255360
-0.031105118 0.019394232 0.41043726 4278255360
-0.030791238 0.019470606 0.41081887 4278255360
-0.030477356 0.01954698 0.41120052 4278255360
-0.030163474 0.019623354 0.41158214 4278255360
-0.029849594 0.019699728 0.41196379 4278255360
-0.029535713 0.019776102 0.41234541 4278255360
-0.029221833 0.019852478 0.41272706 4278255360
-0.028907951 0.019928852 0.41310871 4278255360
-0.028594069 0.020005226 0.41349033 4278255360
-0.028280189 0.0200816 0.41387197 4278255360
-0.027966307 0.020157974 0.41425359 4278255360
-0.027652428 0.020234348 0.41463524 4278255360
-0.027338546 0.020310724 0.41501686 4278255360
-0.027024664 0.020387098 0.41539851 4278255360
-0.026710784 0.020463472 0.41578016 4278255360
-0.026396902 0.020539846 0.41616178 4278255360
-0.026083022 0.02061622 0.41654342 4278255360
-0.025769141 0.020692594 0.41692504 4278255360
-0.025455259 0.02076897 0.41730669 4278255360
-0.025141379 0.020845344 0.41768831 4278255360
-0.024827497 0.020921718 0.41806996 4278255360
-0.024513617 0.020998092 0.41845158 4278255360
-0.024199735 0.021074466 0.41883323 4278255360
-0.023885854 0.02115084 0.41921487 4278255360
-0.023571972 0.021227216 0.41959649 4278255360
-0.023258092 0.02130359 0.41997814 4278255360
-0.022944212 0.021379964 0.42035976 4278255360
-0.02263033 0.021456338 0.42074141 4278255360
-0.022316448 0.021532713 0.42112303 4278255360
-0.022002568 0.021609087 0.42150468 4278255360
-0.021688687 0.021685462 0.42188632 4278255360
-0.021374807 0.021761836 0.42226794 4278255360
-0.021060925 0.021838211 0.42264959 4278255360
-0.020747043 0.021914585 0.42303121 4278255360
-0.020433161 0.021990959 0.42341286 4278255360
-0.020119283 0.022067335 0.42379448 4278255360
-0.019805402 0.022143709 0.42417613 4278255360
-0.01949152 0.022220083 0.42455775 4278255360
-0.019177638 0.022296457 0.42493939 4278255360
-0.018863758 0.022372831 0.42532104 4278255360
-0.018549876 0.022449205 0.42570266 4278255360
-0.018235996 0.022525579 0.42608431 4278255360
-0.017922115 0.022601955 0.42646593 4278255360
-0.017608233 0.022678329 0.42684758 4278255360
-0.017294353 0.022754703 0.4272292 4278255360
-0.016980473 0.022831077 0.42761084 4278255360
-0.016666591 0.022907451 0.42799246 4278255360
-0.016352709 0.022983827 0.42837411 4278255360
-0.016038829 0.023060201 0.42875576 4278255360
-0.015724948 0.023136575 0.42913738 4278255360
-0.015411068 0.023212949 0.42951903 4278255360
-0.015097184 0.023289323 0.42990065 4278255360
-0.014783304 0.023365699 0.43028229 4278255360
-0.014469422 0.023442071 0.43066391 4278255360
-0.014155542 0.023518447 0.43104556 4278255360
-0.013841661 0.023594821 0.43142718 4278255360
-0.013527781 0.023671195 0.43180883 4278255360
-0.013213899 0.023747569 0.43219048 4278255360
-0.012900017 0.023823943 0.4325721 4278255360
-0.012586137 0.023900319 0.43295375 4278255360
-0.012272255 0.023976693 0.43333536 4278255360
-0.011958376 0.024053067 0.43371701 4278255360
-0.011644494 0.024129441 0.43409863 4278255360
-0.011330612 0.024205815 0.43448028 4278255360
-0.011016732 0.024282191 0.43486193 4278255360
-0.01070285 0.024358563 0.43524355 4278255360
-0.01038897 0.024434939 0.4356252 4278255360
-0.010075089 0.024511313 0.43600681 4278255360
-0.0097612087 0.024587687 0.43638846 4278255360
-0.009447325 0.024664061 0.43677008 4278255360
-0.0091334451 0.024740435 0.43715173 4278255360
-0.0088195633 0.024816811 0.43753335 4278255360
-0.0085056834 0.024893185 0.437915 4278255360
-0.0081918035 0.024969559 0.43829665 4278255360
-0.0078779217 0.025045933 0.43867826 4278255360
-0.0075640418 0.025122307 0.43905991 4278255360
-0.0072501581 0.025198683 0.43944153 4278255360
-0.0069362782 0.025275057 0.43982318 4278255360
-0.0066223964 0.025351431 0.4402048 4278255360
-0.0063085165 0.025427805 0.44058645 4278255360
-0.0059946347 0.025504179 0.4409681 4278255360
-0.0056807548 0.025580553 0.44134971 4278255360
-0.005366873 0.025656927 0.44173136 4278255360
-0.0050529912 0.025733303 0.44211298 4278255360
-0.0047391113 0.025809677 0.44249463 4278255360
-0.0044252295 0.025886051 0.44287625 4278255360
-0.0041113496 0.025962425 0.4432579 4278255360
-0.0037974678 0.026038799 0.44363952 4278255360
-0.003483586 0.026115175 0.44402117 4278255360
-0.0031697061 0.026191549 0.44440281 4278255360
-0.0028558243 0.026267923 0.44478443 4278255360
-0.0025419444 0.026344297 0.44516608 4278255360
-0.0022280626 0.026420671 0.4455477 4278255360
-0.0019141827 0.026497046 0.44592935 4278255360
-0.001600299 0.02657342 0.44631097 4278255360
-0.0012864191 0.026649795 0.44669262 4278255360
-0.00097253732 0.02672617 0.44707423 4278255360
-0.0006586574 0.026802544 0.44745588 4278255360
-0.032046761 0.019165108 0.40929234 4278190335
-0.032144535 0.019139672 0.40978202 4278190335
-0.032242313 0.019114234 0.4102717 4278190335
-0.032340087 0.019088797 0.41076139 4278190335
-0.032437865 0.019063361 0.4112511 4278190335
-0.032535639 0.019037923 0.41174078 4278190335
-0.032633416 0.019012487 0.41223046 4278190335
-0.03273119 0.01898705 0.41272014 4278190335
-0.032828968 0.018961612 0.41320983 4278190335
-0.032926742 0.018936176 0.41369951 4278190335
-0.033024516 0.01891074 0.41418922 4278190335
-0.033122294 0.018885301 0.4146789 4278190335
-0.033220068 0.018859865 0.41516858 4278190335
-0.033317845 0.018834429 0.41565827 4278190335
-0.033415619 0.018808991 0.41614795 4278190335
-0.033513397 0.018783554 0.41663763 4278190335
-0.033611171 0.018758118 0.41712731 4278190335
-0.033708945 0.01873268 0.41761702 4278190335
-0.033806723 0.018707244 0.4181067 4278190335
-0.033904497 0.018681807 0.41859639 4278190335
-0.034002274 0.018656369 0.41908607 4278190335
-0.034100048 0.018630933 0.41957575 4278190335
-0.034197826 0.018605497 0.42006543 4278190335
-0.0342956 0.018580059 0.42055511 4278190335
-0.034393378 0.018554622 0.42104483 4278190335
-0.034491152 0.018529186 0.42153451 4278190335
-0.034588926 0.018503748 0.42202419 4278190335
-0.034686703 0.018478312 0.42251387 4278190335
-0.034784477 0.018452875 0.42300355 4278190335
-0.034882255 0.018427437 0.42349324 4278190335
-0.034980029 0.018402001 0.42398295 4278190335
-0.035077807 0.018376565 0.42447263 4278190335
-0.035175581 0.018351126 0.42496231 4278190335
-0.035273358 0.01832569 0.42545199 4278190335
-0.035371132 0.018300254 0.42594168 4278190335
-0.035468906 0.018274816 0.42643136 4278190335
-0.035566684 0.018249379 0.42692104 4278190335
-0.035664458 0.018223943 0.42741075 4278190335
-0.035762236 0.018198505 0.42790043 4278190335
-0.035860009 0.018173069 0.42839012 4278190335
-0.035957787 0.018147632 0.4288798 4278190335
-0.036055561 0.018122196 0.42936948 4278190335
-0.036153339 0.018096758 0.42985916 4278190335
-0.036251113 0.018071322 0.43034884 4278190335
-0.036348887 0.018045884 0.43083856 4278190335
-0.036446664 0.018020447 0.43132824 4278190335
-0.036544438 0.017995011 0.43181792 4278190335
-0.036642216 0.017969575 0.4323076 4278190335
-0.03673999 0.017944137 0.43279728 4278190335
-0.036837768 0.0179187 0.43328696 4278190335
-0.036935542 0.017893262 0.43377668 4278190335
-0.037033316 0.017867826 0.43426636 4278190335
-0.037131093 0.01784239 0.43475604 4278190335
-0.037228867 0.017816953 0.43524572 4278190335
-0.037326645 0.017791515 0.4357354 4278190335
-0.037424419 0.017766079 0.43622509 4278190335
-0.037522197 0.017740641 0.43671477 4278190335
-0.037619971 0.017715205 0.43720448 4278190335
-0.037717745 0.017689768 0.43769416 4278190335
-0.037815522 0.017664332 0.43818384 4278190335
-0.0379133 0.017638894 0.43867353 4278190335
-0.038011074 0.017613458 0.43916321 4278190335
-0.038108848 0.017588021 0.43965289 4278190335
-0.038206626 0.017562583 0.44014257 4278190335
-0.0383044 0.017537147 0.44063228 4278190335
-0.038402177 0.017511711 0.44112197 4278190335
-0.038499951 0.017486272 0.44161165 4278190335
-0.038597725 0.017460836 0.44210133 4278190335
-0.038695503 0.0174354 0.44259101 4278190335
-0.038793277 0.017409962 0.44308069 4278190335
-0.038891055 0.017384525 0.44357038 4278190335
-0.038988829 0.017359089 0.44406009 4278190335
-0.039086606 0.017333651 0.44454977 4278190335
-0.03918438 0.017308215 0.44503945 4278190335
-0.039282158 0.017282778 0.44552913 4278190335
-0.039379932 0.01725734 0.44601882 4278190335
-0.039477706 0.017231904 0.4465085 4278190335
-0.039575484 0.017206468 0.44699818 4278190335
-0.039673258 0.01718103 0.44748789 4278190335
-0.039771035 0.017155593 0.44797757 4278190335
-0.039868809 0.017130157 0.44846725 4278190335
-0.039966587 0.017104719 0.44895694 4278190335
-0.040064361 0.017079283 0.44944662 4278190335
-0.040162139 0.017053846 0.4499363 4278190335
-0.040259913 0.017028408 0.45042598 4278190335
-0.040357687 0.017002972 0.45091569 4278190335
-0.040455464 0.016977536 0.45140538 4278190335
-0.040553238 0.016952097 0.45189506 4278190335
-0.040651016 0.016926661 0.45238474 4278190335
-0.04074879 0.016901225 0.45287442 4278190335
-0.040846564 0.016875787 0.45336413 4278190335
-0.040944342 0.01685035 0.45385382 4278190335
-0.041042119 0.016824914 0.4543435 4278190335
-0.041139893 0.016799476 0.45483318 4278190335
-0.041237667 0.01677404 0.45532286 4278190335
-0.041335445 0.016748603 0.45581254 4278190335
-0.041433219 0.016723165 0.45630223 4278190335
-0.041530997 0.016697729 0.45679194 4278190335
-0.041628771 0.016672293 0.45728162 4278190335
-0.041726544 0.016646855 0.4577713 4278190335
-0.041824322 0.016621418 0.45826098 4278190335
-0.032046761 0.019165108 0.40929234 4294967295
-0.031460106 0.019317729 0.40635422 4294967295
-0.030873453 0.019470351 0.4034161 4294967295
-0.0302868 0.019622972 0.40047798 4294967295
-0.029700147 0.019775594 0.39753985 4294967295
-0.029113494 0.019928215 0.39460173 4294967295
-0.028526839 0.020080836 0.39166361 4294967295
-0.027940186 0.020233458 0.38872552 4294967295
-0.027353533 0.020386079 0.3857874 4294967295
-0.026766878 0.020538701 0.38284928 4294967295
-0.026180224 0.020691322 0.37991115 4294967295
-0.025593571 0.020843944 0.37697303 4294967295
-0.025006916 0.020996565 0.37403491 4294967295
-0.024420263 0.021149186 0.37109679 4294967295
-0.02383361 0.021301808 0.36815867 4294967295
-0.023246955 0.021454429 0.36522055 4294967295
-0.022660304 0.021607049 0.36228243 4294967295
-0.022073649 0.02175967 0.3593443 4294967295
-0.021486994 0.021912292 0.35640618 4294967295
-0.020900343 0.022064913 0.35346806 4294967295
-0.020313688 0.022217534 0.35052994 4294967295
-0.019727034 0.022370156 0.34759182 4294967295
-0.019140381 0.022522777 0.34465373 4294967295
-0.018553726 0.022675399 0.34171557 4294967295
-0.017967073 0.02282802 0.33877748 4294967295
-0.01738042 0.022980642 0.33583936 4294967295
-0.016793765 0.023133263 0.33290124 4294967295
-0.016207112 0.023285884 0.32996312 4294967295
-0.015620459 0.023438506 0.327025 4294967295
-0.015033806 0.023591127 0.32408687 4294967295
-0.014447151 0.023743749 0.32114875 4294967295
-0.013860498 0.02389637 0.31821063 4294967295
-0.013273844 0.024048992 0.31527251 4294967295
-0.01268719 0.024201613 0.31233439 4294967295
-0.012100536 0.024354234 0.30939627 4294967295
-0.011513883 0.024506856 0.30645818 4294967295
-0.010927228 0.024659477 0.30352002 4294967295
-0.010340575 0.024812099 0.30058193 4294967295
-0.009753922 0.02496472 0.29764381 4294967295
-0.0091672689 0.025117341 0.29470569 4294967295
-0.0085806139 0.025269963 0.29176757 4294967295
-0.0079939608 0.025422584 0.28882945 4294967295
-0.0074073076 0.025575206 0.28589132 4294967295
-0.0068206526 0.025727827 0.2829532 4294967295
-0.0062339995 0.025880449 0.28001508 4294967295
-0.0056473464 0.02603307 0.27707696 4294967295
-0.0050606914 0.026185691 0.27413884 4294967295
-0.0044740383 0.026338313 0.27120072 4294967295
-0.0038873851 0.026490934 0.26826262 4294967295
-0.0033007301 0.026643556 0.26532447 4294967295
-0.002714077 0.026796177 0.26238638 4294967295
-0.0021274239 0.026948798 0.25944823 4294967295
-0.0015407708 0.02710142 0.25651014 4294967295
-0.00095411763 0.027254039 0.25357202 4294967295
-0.00036746264 0.027406663 0.2506339 4294967295
0.00021919236 0.027559284 0.24769576 4294967295
0.00080584362 0.027711906 0.24475765 4294967295
0.0013924986 0.027864525 0.24181953 4294967295
0.0019791499 0.028017147 0.23888141 4294967295
0.0025658049 0.028169768 0.2359433 4294967295
0.0031524599 0.028322391 0.23300517 4294967295
0.0037391149 0.028475013 0.23006704 4294967295
0.0043257661 0.028627632 0.22712894 4294967295
0.0049124211 0.028780254 0.22419082 4294967295
0.0054990724 0.028932875 0.22125269 4294967295
0.0060857274 0.029085496 0.21831459 4294967295
0.0066723824 0.029238118 0.21537645 4294967295
0.0072590373 0.029390739 0.21243833 4294967295
0.0078456886 0.029543361 0.20950021 4294967295
0.0084323436 0.029695982 0.2065621 4294967295
0.0090189949 0.029848604 0.20362398 4294967295
0.0096056499 0.030001223 0.20068586 4294967295
0.010192305 0.030153846 0.19774774 4294967295
0.01077896 0.030306468 0.19480962 4294967295
0.011365611 0.030459089 0.19187149 4294967295
0.011952266 0.030611711 0.18893337 4294967295
0.012538917 0.03076433 0.18599527 4294967295
0.013125572 0.030916952 0.18305714 4294967295
0.013712224 0.031069573 0.18011902 4294967295
0.014298882 0.031222196 0.1771809 4294967295
0.014885534 0.031374816 0.17424278 4294967295
0.015472189 0.031527437 0.17130466 4294967295
0.01605884 0.031680059 0.16836655 4294967295
0.016645495 0.03183268 0.16542843 4294967295
0.017232146 0.031985302 0.16249031 4294967295
0.017818805 0.032137923 0.15955217 4294967295
0.018405456 0.032290544 0.15661407 4294967295
0.018992111 0.032443166 0.15367594 4294967295
0.019578762 0.032595787 0.15073782 4294967295
0.020165417 0.032748409 0.1477997 4294967295
0.020752069 0.03290103 0.14486161 4294967295
0.021338727 0.033053651 0.14192346 4294967295
0.021925379 0.033206273 0.13898534 4294967295
0.022512034 0.033358894 0.13604721 4294967295
0.023098685 0.033511516 0.13310912 4294967295
0.02368534 0.033664137 0.130171 4294967295
0.024271991 0.033816759 0.12723288 4294967295
0.02485865 0.03396938 0.12429476 4294967295
0.025445301 0.034122001 0.12135664 4294967295
0.026031956 0.034274623 0.11841851 4294967295
0.026618607 0.034427244 0.11548039 4294967295
