# .PCD v0.7 - Point Cloud Data file format
VERSION 0.7
FIELDS x y z rgb
SIZE 4 4 4 4
TYPE F F F U
COUNT 1 1 1 1
WIDTH 1068
HEIGHT 1
VIEWPOINT 0 0 0 1 0 0 0
POINTS 1068
DATA ascii
0.058753677 0.026715601 0.36100003 4278861078
0.059926208 0.026715601 0.36100003 4278795285
0.060929481 0.026641594 0.36000001 4278795285
0.061926268 0.026567591 0.35900003 4278861078
0.062916555 0.026493585 0.35800001 4278729492
0.063900352 0.026419582 0.35700002 4278795287
0.064877644 0.026345577 0.35600001 4278861080
0.06603393 0.026345577 0.35600001 4278728724
0.067001484 0.026271572 0.35500002 4278596625
0.068154521 0.026271572 0.35500002 4278197507
0.069112331 0.026197568 0.354 4279185943
0.070262127 0.026197568 0.354 4278925336
0.071411915 0.026197568 0.354 4278925336
0.072561711 0.026197568 0.354 4278196998
0.0737115 0.026197568 0.354 4278195714
0.074861296 0.026197568 0.354 4278195712
0.076011084 0.026197568 0.354 4278196224
0.07716088 0.026197568 0.354 4278527498
0.078310676 0.026197568 0.354 4278988816
0.084487319 0.025975555 0.35100001 4278924820
0.085383408 0.02590155 0.35000002 4278991894
0.08652021 0.02590155 0.35000002 4279255066
0.087406561 0.025827546 0.34900001 4278926101
0.088540114 0.025827546 0.34900001 4278794515
0.089673668 0.025827546 0.34900001 4278795285
0.090807222 0.025827546 0.34900001 4278795285
0.091940776 0.025827546 0.34900001 4278532113
0.093074329 0.025827546 0.34900001 4278795287
0.094207883 0.025827546 0.34900001 4278926101
0.095341429 0.025827546 0.34900001 4278860308
0.096474983 0.025827546 0.34900001 4278662929
0.097608536 0.025827546 0.34900001 4278728722
0.09874209 0.025827546 0.34900001 4278794515
0.10016183 0.02590155 0.35000002 4278663699
0.10129863 0.02590155 0.35000002 4278663699
0.10243542 0.02590155 0.35000002 4278532113
0.10357222 0.02590155 0.35000002 4278400527
0.10470902 0.02590155 0.35000002 4278532113
0.10614824 0.025975555 0.35100001 4278795285
0.10728829 0.025975555 0.35100001 4278532111
0.10842834 0.025975555 0.35100001 4278795283
0.10956839 0.025975555 0.35100001 4278992662
0.11070843 0.025975555 0.35100001 4278993177
0.11184848 0.025975555 0.35100001 4278993177
0.11298853 0.025975555 0.35100001 4279058970
0.11380343 0.02590155 0.35000002 4279190556
0.11494023 0.02590155 0.35000002 4279124761
0.11607704 0.02590155 0.35000002 4278993177
0.11721382 0.02590155 0.35000002 4279124250
0.11835063 0.02590155 0.35000002 4278992662
0.11914603 0.025827546 0.34900001 4278861076
0.12062424 0.02590155 0.35000002 4279058455
0.12176104 0.02590155 0.35000002 4279255834
0.12324897 0.025975555 0.35100001 4279124248
0.1250978 0.026123563 0.35300002 4279255066
0.12660195 0.026197568 0.354 4279780645
0.12775175 0.026197568 0.354 4280369702
0.12926568 0.026271572 0.35500002 4282079290
0.049646977 0.028043032 0.36300001 4279383322
0.050826006 0.028043032 0.36300001 4278924566
0.05186177 0.027965778 0.36200002 4278661648
0.053184059 0.028043032 0.36300001 4278728211
0.054363079 0.028043032 0.36300001 4278991894
0.055542104 0.028043032 0.36300001 4278795285
0.056721132 0.028043032 0.36300001 4278861078
0.057740647 0.027965778 0.36200002 4279058457
0.058916427 0.027965778 0.36200002 4278861078
0.059926208 0.027888525 0.36100003 4278795285
0.060929481 0.027811272 0.36000001 4278795285
0.061926268 0.027734019 0.35900003 4278729492
0.062916555 0.027656764 0.35800001 4278729492
0.063900352 0.027579511 0.35700002 4278795287
0.065059885 0.027579511 0.35700002 4278729494
0.06603393 0.027502256 0.35600001 4278794517
0.067190222 0.027502256 0.35600001 4279713055
0.068154521 0.027425004 0.35500002 4278458375
0.069307566 0.027425004 0.35500002 4279841822
0.07046061 0.027425004 0.35500002 4279055638
0.071411915 0.027347749 0.354 4278397197
0.072561711 0.027347749 0.354 4278720265
0.0737115 0.027347749 0.354 4278587912
0.074861296 0.027347749 0.354 4278522119
0.076011084 0.027347749 0.354 4278522119
0.07716088 0.027347749 0.354 4278522886
0.078310676 0.027347749 0.354 4278720265
0.079460464 0.027347749 0.354 4278654472
0.080610253 0.027347749 0.354 4278654472
0.081760049 0.027347749 0.354 4278523400
0.082909837 0.027347749 0.354 4278260998
0.083822183 0.027270496 0.35300002 4278194945
0.084728025 0.027193245 0.35200003 4278195716
0.085627362 0.027115989 0.35100001 4278262790
0.086767413 0.027115989 0.35100001 4278790670
0.087657012 0.027038736 0.35000002 4278791953
0.088793814 0.027038736 0.35000002 4279120918
0.089930616 0.027038736 0.35000002 4279318810
0.091067418 0.027038736 0.35000002 4279450396
0.092204221 0.027038736 0.35000002 4278990613
0.093341023 0.027038736 0.35000002 4279056406
0.094477825 0.027038736 0.35000002 4279056404
0.095614612 0.027038736 0.35000002 4279056404
0.096751414 0.027038736 0.35000002 4278859027
0.097888216 0.027038736 0.35000002 4279057176
0.099025026 0.027038736 0.35000002 4278991381
0.10016183 0.027038736 0.35000002 4278859795
0.10129863 0.027038736 0.35000002 4278925588
0.10243542 0.027038736 0.35000002 4278991381
0.10386813 0.027115989 0.35100001 4279057174
0.10500818 0.027115989 0.35100001 4278925588
0.10614824 0.027115989 0.35100001 4279254553
0.10728829 0.027115989 0.35100001 4278925586
0.10842834 0.027115989 0.35100001 4278860306
0.10956839 0.027115989 0.35100001 4278662927
0.11070843 0.027115989 0.35100001 4278662929
0.11184848 0.027115989 0.35100001 4278662929
0.11298853 0.027115989 0.35100001 4278860308
0.11412858 0.027115989 0.35100001 4278860308
0.11526863 0.027115989 0.35100001 4278926101
0.11640868 0.027115989 0.35100001 4279255836
0.11721382 0.027038736 0.35000002 4279124250
0.11835063 0.027038736 0.35000002 4279190043
0.11948743 0.027038736 0.35000002 4279058968
0.12096887 0.027115989 0.35100001 4279124761
0.12210892 0.027115989 0.35100001 4279124761
0.12360011 0.027193245 0.35200003 4278993175
0.1250978 0.027270496 0.35300002 4279190043
0.12660195 0.027347749 0.354 4279124250
0.12811263 0.027425004 0.35500002 4279058457
0.12926568 0.027425004 0.35500002 4279452445
0.13041872 0.027425004 0.35500002 4281092141
0.048735 0.02938346 0.36500001 4278854666
0.049783751 0.029302958 0.36400002 4279514906
0.050826006 0.029222455 0.36300001 4278660880
0.05200503 0.029222455 0.36300001 4278792466
0.053184059 0.029222455 0.36300001 4279123482
0.054363079 0.029222455 0.36300001 4278861078
0.055542104 0.029222455 0.36300001 4278729492
0.056721132 0.029222455 0.36300001 4279124250
0.057900153 0.029222455 0.36300001 4278861078
0.058916427 0.029141953 0.36200002 4279058457
0.060092207 0.029141953 0.36200002 4278861078
0.061098732 0.029061452 0.36100003 4278795285
0.061926268 0.028900446 0.35900003 4278992664
0.062916555 0.028819943 0.35800001 4278729492
0.064079344 0.028819943 0.35800001 4278729494
0.065059885 0.028739441 0.35700002 4278794517
0.06603393 0.028658936 0.35600001 4278991383
0.067190222 0.028658936 0.35600001 4278988564
0.068346508 0.028658936 0.35600001 4278656519
0.069307566 0.028578434 0.35500002 4279448600
0.07046061 0.028578434 0.35500002 4278990099
0.071613647 0.028578434 0.35500002 4278196224
0.072766684 0.028578434 0.35500002 4278851851
0.0737115 0.028497931 0.354 4279180816
0.074861296 0.028497931 0.354 4278851084
0.076011084 0.028497931 0.354 4279246355
0.077378854 0.028578434 0.35500002 4278917390
0.078531891 0.028578434 0.35500002 4278522886
0.079684928 0.028578434 0.35500002 4278522373
0.080837972 0.028578434 0.35500002 4278588166
0.081760049 0.028497931 0.354 4278851338
0.082909837 0.028497931 0.354 4278851084
0.084059633 0.028497931 0.354 4278719498
0.084968723 0.028417429 0.35300002 4278719498
0.085871316 0.028336927 0.35200003 4278588939
0.087014616 0.028336927 0.35200003 4279708955
0.088157907 0.028336927 0.35200003 4279251736
0.089047506 0.028256424 0.35100001 4279185943
0.090187557 0.028256424 0.35100001 4279448861
0.091327608 0.028256424 0.35100001 4278658832
0.092467658 0.028256424 0.35100001 4278198021
0.093607709 0.028256424 0.35100001 4278196480
0.094747759 0.028256424 0.35100001 4278195968
0.095887795 0.028256424 0.35100001 4278195968
0.097027846 0.028256424 0.35100001 4278197251
0.098167896 0.028256424 0.35100001 4278527500
0.099307947 0.028256424 0.35100001 4278988562
0.100448 0.028256424 0.35100001 4278791953
0.10158805 0.028256424 0.35100001 4279121172
0.10272808 0.028256424 0.35100001 4279582236
0.10386813 0.028256424 0.35100001 4279121683
0.10500818 0.028256424 0.35100001 4279450648
0.10614824 0.028256424 0.35100001 4279055890
0.10728829 0.028256424 0.35100001 4278924818
0.10873725 0.028336927 0.35200003 4278794002
0.10988055 0.028336927 0.35200003 4278794002
0.11102384 0.028336927 0.35200003 4278925588
0.11184848 0.028256424 0.35100001 4279057174
0.11298853 0.028256424 0.35100001 4278925588
0.11412858 0.028256424 0.35100001 4279057174
0.11526863 0.028256424 0.35100001 4278926101
0.11640868 0.028256424 0.35100001 4278860308
0.11754872 0.028256424 0.35100001 4278860308
0.11868877 0.028256424 0.35100001 4278531343
0.11982882 0.028256424 0.35100001 4278531343
0.12096887 0.028256424 0.35100001 4278597904
0.12245681 0.028336927 0.35200003 4278795537
0.12360011 0.028336927 0.35200003 4279058709
0.1250978 0.028417429 0.35300002 4279255064
0.12660195 0.028497931 0.354 4279255836
0.12811263 0.028578434 0.35500002 4278992664
0.12926568 0.028578434 0.35500002 4279058457
0.13041872 0.028578434 0.35500002 4279646746
0.048868522 0.030653136 0.36600003 4280432930
0.049920518 0.030569382 0.36500001 4279645209
0.050966024 0.030485632 0.36400002 4278858259
0.052148297 0.030485632 0.36400002 4278661394
0.053330574 0.030485632 0.36400002 4278991894
0.05451284 0.030485632 0.36400002 4278795285
0.055695117 0.030485632 0.36400002 4278795285
0.05687739 0.030485632 0.36400002 4279124250
0.058059659 0.030485632 0.36400002 4279058457
0.059079178 0.030401878 0.36300001 4278861078
0.060092207 0.030318128 0.36200002 4278663699
0.061098732 0.030234378 0.36100003 4278729492
0.062098764 0.030150624 0.36000001 4278663699
0.063092306 0.030066874 0.35900003 4278795285
0.064079344 0.02998312 0.35800001 4278991381
0.065059885 0.02989937 0.35700002 4278925588
0.066219419 0.02989937 0.35700002 4279187224
0.067190222 0.029815616 0.35600001 4278460937
0.068346508 0.029815616 0.35600001 4279183633
0.069502793 0.029815616 0.35600001 4279252758
0.07046061 0.029731866 0.35500002 4279120918
0.071613647 0.029731866 0.35500002 4278262277
0.072766684 0.029731866 0.35500002 4278786572
0.073919728 0.029731866 0.35500002 4279313686
0.075072773 0.029731866 0.35500002 4278984721
0.07622581 0.029731866 0.35500002 4278458377
0.077378854 0.029731866 0.35500002 4280300579
0.078531891 0.029731866 0.35500002 4278654984
0.079684928 0.029731866 0.35500002 4279116305
0.080837972 0.029731866 0.35500002 4279182098
0.081991017 0.029731866 0.35500002 4278983949
0.082909837 0.029648112 0.354 4279247123
0.084059633 0.029648112 0.354 4279247123
0.085209429 0.029648112 0.354 4279641881
0.086115263 0.029564362 0.35300002 4278458377
0.087261811 0.029564362 0.35300002 4279973410
0.088408351 0.029564362 0.35300002 4279253019
0.089554898 0.029564362 0.35300002 4279055640
0.090701446 0.029564362 0.35300002 4279384092
0.091587804 0.029480612 0.35200003 4279318299
0.092731103 0.029480612 0.35200003 4279318299
0.093874402 0.029480612 0.35200003 4279252504
0.095017701 0.029480612 0.35200003 4279252504
0.096160986 0.029480612 0.35200003 4279318297
0.097304285 0.029480612 0.35200003 4279581469
0.098447584 0.029480612 0.35200003 4279514906
0.099590883 0.029480612 0.35200003 4279712285
0.10073418 0.029480612 0.35200003 4279514393
0.10187748 0.029480612 0.35200003 4279382807
0.10302076 0.029480612 0.35200003 4278659086
0.10416406 0.029480612 0.35200003 4278461707
0.10530736 0.029480612 0.35200003 4278198278
0.10645066 0.029480612 0.35200003 4278196480
0.10759396 0.029480612 0.35200003 4278197506
0.10873725 0.029480612 0.35200003 4278526730
0.10988055 0.029480612 0.35200003 4278526728
0.11102384 0.029480612 0.35200003 4278988049
0.11216714 0.029480612 0.35200003 4279053842
0.11331044 0.029480612 0.35200003 4279252758
0.11445374 0.029480612 0.35200003 4279253271
0.11559703 0.029480612 0.35200003 4279122199
0.11674033 0.029480612 0.35200003 4279187992
0.11788362 0.029480612 0.35200003 4278990611
0.11902692 0.029480612 0.35200003 4279516955
0.12017022 0.029480612 0.35200003 4278990611
0.12131351 0.029480612 0.35200003 4278991381
0.12245681 0.029480612 0.35200003 4278991381
0.12395124 0.029564362 0.35300002 4279057174
0.12545218 0.029648112 0.354 4278859795
0.12660195 0.029648112 0.354 4278794002
0.12811263 0.029731866 0.35500002 4278991383
0.12926568 0.029731866 0.35500002 4278991381
0.13041872 0.029731866 0.35500002 4278991381
0.048070569 0.032103308 0.36900002 4283063885
0.04900204 0.031929307 0.36700001 4283393102
0.050057288 0.031842306 0.36600003 4280170526
0.051106039 0.031755306 0.36500001 4278857746
0.052291561 0.031755306 0.36500001 4278859027
0.053477082 0.031755306 0.36500001 4278860308
0.0546626 0.031755306 0.36500001 4278795285
0.055848122 0.031755306 0.36500001 4278795285
0.057033643 0.031755306 0.36500001 4279190043
0.058059659 0.031668305 0.36400002 4279058457
0.059079178 0.031581301 0.36300001 4279058457
0.060092207 0.031494305 0.36200002 4278795285
0.061098732 0.031407304 0.36100003 4278795285
0.062098764 0.0313203 0.36000001 4278926101
0.063092306 0.031233301 0.35900003 4278860308
0.064079344 0.031146299 0.35800001 4278596623
0.065242119 0.031146299 0.35800001 4279187990
0.066219419 0.031059299 0.35700002 4278725390
0.067378961 0.031059299 0.35700002 4278196484
0.068346508 0.030972296 0.35600001 4278195456
0.069502793 0.030972296 0.35600001 4279185943
0.070659086 0.030972296 0.35600001 4278790931
0.071815372 0.030972296 0.35600001 4278524168
0.072766684 0.030885298 0.35500002 4278720265
0.073919728 0.030885298 0.35500002 4278654472
0.075072773 0.030885298 0.35500002 4278655756
0.07622581 0.030885298 0.35500002 4278918926
0.077378854 0.030885298 0.35500002 4279050512
0.078531891 0.030885298 0.35500002 4278589191
0.079684928 0.030885298 0.35500002 4280102430
0.080837972 0.030885298 0.35500002 4278654986
0.081991017 0.030885298 0.35500002 4278853133
0.083144054 0.030885298 0.35500002 4279708955
0.084297091 0.030885298 0.35500002 4278393865
0.085209429 0.030798296 0.354 4278393095
0.086359218 0.030798296 0.354 4278260996
0.087509014 0.030798296 0.354 4279513371
0.088658802 0.030798296 0.354 4279055640
0.089808591 0.030798296 0.354 4278198280
0.090958387 0.030798296 0.354 4278590472
0.092108183 0.030798296 0.354 4278589961
0.092994541 0.030711295 0.35300002 4278195968
0.094141088 0.030711295 0.35300002 4278988562
0.095287628 0.030711295 0.35300002 4278396425
0.096434169 0.030711295 0.35300002 4278198532
0.097580716 0.030711295 0.35300002 4278922771
0.098727256 0.030711295 0.35300002 4279318297
0.099873804 0.030711295 0.35300002 4279318297
0.10102035 0.030711295 0.35300002 4278791953
0.1021669 0.030711295 0.35300002 4279318297
0.10331343 0.030711295 0.35300002 4279186711
0.10445998 0.030711295 0.35300002 4279055640
0.10560653 0.030711295 0.35300002 4279121433
0.10675307 0.030711295 0.35300002 4279318297
0.10789962 0.030711295 0.35300002 4279318297
0.10904616 0.030711295 0.35300002 4279317527
0.11019271 0.030711295 0.35300002 4279449113
0.11133925 0.030711295 0.35300002 4279579416
0.1124858 0.030711295 0.35300002 4279711002
0.11363234 0.030711295 0.35300002 4279053072
0.11477888 0.030711295 0.35300002 4278789900
0.11592543 0.030711295 0.35300002 4278197249
0.11707198 0.030711295 0.35300002 4278196480
0.11821851 0.030711295 0.35300002 4278195968
0.11936506 0.030711295 0.35300002 4278197508
0.12051161 0.030711295 0.35300002 4279120918
0.12165815 0.030711295 0.35300002 4279253271
0.1228047 0.030711295 0.35300002 4278859795
0.12395124 0.030711295 0.35300002 4279057174
0.12545218 0.030798296 0.354 4278991381
0.12660195 0.030798296 0.354 4279057174
0.12811263 0.030885298 0.35500002 4278991383
0.12926568 0.030885298 0.35500002 4278991383
0.13041872 0.030885298 0.35500002 4278990611
0.047380153 0.033663232 0.37300003 4283327057
0.048200838 0.033392478 0.37 4283261264
0.049135566 0.03321198 0.36800003 4283195471
0.050194055 0.033121731 0.36700001 4283590229
0.051246058 0.033031482 0.36600003 4279448600
0.052434828 0.033031482 0.36600003 4279055638
0.053623598 0.033031482 0.36600003 4278926103
0.0546626 0.03294123 0.36500001 4278926101
0.055848122 0.03294123 0.36500001 4279320859
0.057033643 0.03294123 0.36500001 4279452445
0.058219161 0.03294123 0.36500001 4279123480
0.059241932 0.032850981 0.36400002 4278861078
0.060258206 0.032760728 0.36300001 4278861078
0.061267979 0.032670479 0.36200002 4278860308
0.062271263 0.03258023 0.36100003 4278991894
0.063092306 0.032399733 0.35900003 4278991894
0.064258337 0.032399733 0.35900003 4278991894
0.065242119 0.03230948 0.35800001 4278991381
0.066219419 0.032219231 0.35700002 4278923539
0.067378961 0.032219231 0.35700002 4278790672
0.068538494 0.032219231 0.35700002 4279317016
0.069502793 0.032128979 0.35600001 4279187226
0.070659086 0.032128979 0.35600001 4278922004
0.071815372 0.032128979 0.35600001 4278654984
0.072971664 0.032128979 0.35600001 4278785291
0.073919728 0.03203873 0.35500002 4278719498
0.075072773 0.03203873 0.35500002 4278785291
0.07622581 0.03203873 0.35500002 4278719752
0.077378854 0.03203873 0.35500002 4278719752
0.078531891 0.03203873 0.35500002 4278719752
0.079684928 0.03203873 0.35500002 4278588166
0.080837972 0.03203873 0.35500002 4278850568
0.081991017 0.03203873 0.35500002 4278522884
0.083144054 0.03203873 0.35500002 4278523398
0.084297091 0.03203873 0.35500002 4278655754
0.085450135 0.03203873 0.35500002 4278524168
0.086603172 0.03203873 0.35500002 4278986002
0.087756217 0.03203873 0.35500002 4279251736
0.088909253 0.03203873 0.35500002 4278528013
0.090062298 0.03203873 0.35500002 4278393865
0.091215335 0.03203873 0.35500002 4278786058
0.092108183 0.031948481 0.354 4278917644
0.093257979 0.031948481 0.354 4278195202
0.094407767 0.031948481 0.354 4278328583
0.095557563 0.031948481 0.354 4279317529
0.096707352 0.031948481 0.354 4279317529
0.09785714 0.031948481 0.354 4278329351
0.099006936 0.031948481 0.354 4278723595
0.10015673 0.031948481 0.354 4279317014
0.10130653 0.031948481 0.354 4279448600
0.1021669 0.031858232 0.35300002 4278198018
0.10331343 0.031858232 0.35300002 4279185943
0.10445998 0.031858232 0.35300002 4279186713
0.10560653 0.031858232 0.35300002 4278923539
0.10675307 0.031858232 0.35300002 4279252504
0.10820528 0.031948481 0.354 4279515676
0.10935507 0.031948481 0.354 4279252504
0.11050487 0.031948481 0.354 4279186965
0.11165465 0.031948481 0.354 4279252758
0.11280444 0.031948481 0.354 4279318551
0.11395424 0.031948481 0.354 4279186965
0.11510403 0.031948481 0.354 4279121172
0.11625383 0.031948481 0.354 4279317781
0.11740362 0.031948481 0.354 4279383061
0.11821851 0.031858232 0.35300002 4279514393
0.11936506 0.031858232 0.35300002 4278459656
0.12051161 0.031858232 0.35300002 4279515160
0.12165815 0.031858232 0.35300002 4279319064
0.1228047 0.031858232 0.35300002 4279056404
0.12395124 0.031858232 0.35300002 4279056404
0.12545218 0.031948481 0.354 4278595853
0.12660195 0.031948481 0.354 4279122197
0.12811263 0.03203873 0.35500002 4279188762
0.12926568 0.03203873 0.35500002 4279188762
0.13041872 0.03203873 0.35500002 4279121685
0.046168651 0.034875143 0.37300003 4283261264
0.047253128 0.034781646 0.37200001 4283261264
0.048200838 0.034594648 0.37 4283392850
0.049135566 0.034407649 0.36800003 4283392850
0.050194055 0.034314148 0.36700001 4282800715
0.051246058 0.034220651 0.36600003 4283590994
0.052434828 0.034220651 0.36600003 4279578902
0.053623598 0.034220651 0.36600003 4279319324
0.054812364 0.034220651 0.36600003 4278991383
0.056001134 0.034220651 0.36600003 4279386654
0.057033643 0.03412715 0.36500001 4279320861
0.058219161 0.03412715 0.36500001 4278991894
0.059241932 0.034033652 0.36400002 4278926101
0.060258206 0.033940151 0.36300001 4278860308
0.061267979 0.033846654 0.36200002 4278926101
0.062271263 0.033753157 0.36100003 4278794515
0.063268043 0.033659656 0.36000001 4278794515
0.064258337 0.033566158 0.35900003 4278860308
0.065242119 0.033472657 0.35800001 4279188760
0.066404909 0.033472657 0.35800001 4278462220
0.067378961 0.03337916 0.35700002 4278789648
0.068538494 0.03337916 0.35700002 4278923541
0.069698036 0.03337916 0.35700002 4279187738
0.070659086 0.033285659 0.35600001 4278595601
0.071815372 0.033285659 0.35600001 4279713055
0.072971664 0.033285659 0.35600001 4279578650
0.07412795 0.033285659 0.35600001 4279709725
0.075072773 0.033192161 0.35500002 4279116820
0.07622581 0.033192161 0.35500002 4278590476
0.077378854 0.033192161 0.35500002 4278654984
0.078531891 0.033192161 0.35500002 4278588164
0.079684928 0.033192161 0.35500002 4278850568
0.080837972 0.033192161 0.35500002 4278916361
0.08222197 0.033285659 0.35600001 4278785545
0.083378255 0.033285659 0.35600001 4278785545
0.084297091 0.033192161 0.35500002 4278785545
0.085450135 0.033192161 0.35500002 4278786058
0.086603172 0.033192161 0.35500002 4279250199
0.087756217 0.033192161 0.35500002 4279383322
0.088909253 0.033192161 0.35500002 4279055127
0.090062298 0.033192161 0.35500002 4278458886
0.091215335 0.033192161 0.35500002 4278917129
0.092368379 0.033192161 0.35500002 4278522373
0.093521424 0.033192161 0.35500002 4279578904
0.094674461 0.033192161 0.35500002 4278856465
0.095827505 0.033192161 0.35500002 4278461453
0.096980534 0.033192161 0.35500002 4278198281
0.09785714 0.03309866 0.354 4279448348
0.099006936 0.03309866 0.354 4278196997
0.10015673 0.03309866 0.354 4279251221
0.10130653 0.03309866 0.354 4279515160
0.10245632 0.03309866 0.354 4278725390
0.1036061 0.03309866 0.354 4279712287
0.10475589 0.03309866 0.354 4278789902
0.10590569 0.03309866 0.354 4278789388
0.10705549 0.03309866 0.354 4279052560
0.10820528 0.03309866 0.354 4279250453
0.10935507 0.03309866 0.354 4278526728
0.11050487 0.03309866 0.354 4279645209
0.11165465 0.03309866 0.354 4278197763
0.1131231 0.033192161 0.35500002 4278988303
0.11427615 0.033192161 0.35500002 4278593545
0.11542919 0.033192161 0.35500002 4278527498
0.11658224 0.033192161 0.35500002 4279646746
0.11740362 0.03309866 0.354 4279646746
0.11855341 0.03309866 0.354 4279251221
0.1197032 0.03309866 0.354 4278920972
0.12085299 0.03309866 0.354 4279318551
0.12200279 0.03309866 0.354 4279253271
0.12315258 0.03309866 0.354 4279253269
0.12430238 0.03309866 0.354 4279253269
0.12545218 0.03309866 0.354 4279450648
0.12660195 0.03309866 0.354 4279253269
0.12811263 0.033192161 0.35500002 4279187478
0.12926568 0.033192161 0.35500002 4279055892
0.13041872 0.033192161 0.35500002 4279252504
0.046044871 0.035990309 0.37200001 4283392852
0.047126103 0.035893563 0.37100002 4283392852
0.048070569 0.035700068 0.36900002 4283261266
0.049135566 0.035603318 0.36800003 4283130193
0.050194055 0.035506569 0.36700001 4283130193
0.051386073 0.035506569 0.36700001 4283064398
0.052434828 0.035409823 0.36600003 4283064398
0.053623598 0.035409823 0.36600003 4283329105
0.054812364 0.035409823 0.36600003 4280960555
0.056001134 0.035409823 0.36600003 4279383061
0.057033643 0.035313074 0.36500001 4279515930
0.058219161 0.035313074 0.36500001 4279713309
0.059241932 0.035216328 0.36400002 4279253271
0.060258206 0.035119578 0.36300001 4279319578
0.061267979 0.035022829 0.36200002 4279056406
0.062271263 0.034926083 0.36100003 4279056406
0.063268043 0.034829333 0.36000001 4279187992
0.064258337 0.034732588 0.35900003 4279057176
0.065424368 0.034732588 0.35900003 4278925590
0.066404909 0.034635838 0.35800001 4279385117
0.067567699 0.034635838 0.35800001 4279121431
0.068538494 0.034539089 0.35700002 4279187224
0.069698036 0.034539089 0.35700002 4279121945
0.07085757 0.034539089 0.35700002 4279122199
0.071815372 0.034442339 0.35600001 4279122199
0.072971664 0.034442339 0.35600001 4279253271
0.07412795 0.034442339 0.35600001 4279450396
0.075072773 0.034345593 0.35500002 4279187226
0.07622581 0.034345593 0.35500002 4279187226
0.077378854 0.034345593 0.35500002 4279252506
0.078531891 0.034345593 0.35500002 4279186713
0.079684928 0.034345593 0.35500002 4279382809
0.081065685 0.034442339 0.35600001 4279317016
0.08222197 0.034442339 0.35600001 4279579418
0.083378255 0.034442339 0.35600001 4279513625
0.084534548 0.034442339 0.35600001 4279710490
0.085690841 0.034442339 0.35600001 4279315478
0.086847119 0.034442339 0.35600001 4279447832
0.088003412 0.034442339 0.35600001 4278196224
0.089159697 0.034442339 0.35600001 4278194944
0.09031599 0.034442339 0.35600001 4278195970
0.091215335 0.034345593 0.35500002 4278853644
0.092368379 0.034345593 0.35500002 4278919437
0.093521424 0.034345593 0.35500002 4279315219
0.094674461 0.034345593 0.35500002 4279184660
0.095827505 0.034345593 0.35500002 4279448602
0.096980534 0.034345593 0.35500002 4279514393
0.098133579 0.034345593 0.35500002 4279646492
0.099286623 0.034345593 0.35500002 4279251734
0.10043967 0.034345593 0.35500002 4279251221
0.1015927 0.034345593 0.35500002 4279514393
0.10274575 0.034345593 0.35500002 4279317527
0.10389878 0.034345593 0.35500002 4279251734
0.10505182 0.034345593 0.35500002 4279185943
0.10620487 0.034345593 0.35500002 4279251223
0.1073579 0.034345593 0.35500002 4279250451
0.10851095 0.034345593 0.35500002 4279513623
0.10966399 0.034345593 0.35500002 4278329351
0.11081703 0.034345593 0.35500002 4278987281
0.11197007 0.034345593 0.35500002 4279053072
0.1131231 0.034345593 0.35500002 4278195456
0.11427615 0.034345593 0.35500002 4279381012
0.11542919 0.034345593 0.35500002 4278723595
0.11658224 0.034345593 0.35500002 4279844895
0.11773527 0.034345593 0.35500002 4279121172
0.11888831 0.034345593 0.35500002 4278195456
0.1197032 0.034248844 0.354 4280105248
0.12085299 0.034248844 0.354 4279253271
0.12200279 0.034248844 0.354 4279187478
0.12315258 0.034248844 0.354 4279187478
0.12430238 0.034248844 0.354 4279319578
0.12545218 0.034248844 0.354 4279187990
0.12660195 0.034248844 0.354 4279253269
0.12811263 0.034345593 0.35500002 4279319062
0.12926568 0.034345593 0.35500002 4279319062
0.13041872 0.034345593 0.35500002 4279975457
0.13194238 0.034442339 0.35600001 4282538822
0.045797318 0.03699898 0.37 4283261779
0.046999078 0.03699898 0.37 4283459158
0.048070569 0.036898986 0.36900002 4283261779
0.049135566 0.036798988 0.36800003 4283261779
0.050194055 0.03669899 0.36700001 4283195986
0.051386073 0.03669899 0.36700001 4283195986
0.052434828 0.036598995 0.36600003 4283130191
0.053623598 0.036598995 0.36600003 4283195982
0.054812364 0.036598995 0.36600003 4283130189
0.056001134 0.036598995 0.36600003 4283064396
0.057033643 0.036498994 0.36500001 4283327822
0.058219161 0.036498994 0.36500001 4282604867
0.059241932 0.036398999 0.36400002 4282473796
0.060258206 0.036299001 0.36300001 4281816126
0.061267979 0.036199003 0.36200002 4281026610
0.062271263 0.036099009 0.36100003 4280434727
0.063268043 0.035999011 0.36000001 4279184658
0.064258337 0.035899013 0.35900003 4278988564
0.065424368 0.035899013 0.35900003 4278791955
0.066404909 0.035799015 0.35800001 4278989847
0.067567699 0.035799015 0.35800001 4279253019
0.068538494 0.035699017 0.35700002 4279055638
0.069698036 0.035699017 0.35700002 4279253017
0.07085757 0.035699017 0.35700002 4279056152
0.071815372 0.035599019 0.35600001 4279121945
0.072971664 0.035599019 0.35600001 4279187992
0.07412795 0.035599019 0.35600001 4279056406
0.075072773 0.035499025 0.35500002 4279122199
0.07622581 0.035499025 0.35500002 4279319578
0.077378854 0.035499025 0.35500002 4279187992
0.078531891 0.035499025 0.35500002 4279187992
0.079909392 0.035599019 0.35600001 4279187478
0.081065685 0.035599019 0.35600001 4279187478
0.08222197 0.035599019 0.35600001 4279253271
0.083378255 0.035599019 0.35600001 4279319064
0.084534548 0.035599019 0.35600001 4279253271
0.085690841 0.035599019 0.35600001 4279186965
0.086847119 0.035599019 0.35600001 4279186965
0.088003412 0.035599019 0.35600001 4279252758
0.089159697 0.035599019 0.35600001 4279318551
0.09031599 0.035599019 0.35600001 4279186965
0.091472276 0.035599019 0.35600001 4279449113
0.092628568 0.035599019 0.35600001 4279317527
0.093784861 0.035599019 0.35600001 4279777565
0.094674461 0.035499025 0.35500002 4279974176
0.095827505 0.035499025 0.35500002 4279382039
0.096980534 0.035499025 0.35500002 4278526730
0.098133579 0.035499025 0.35500002 4278197251
0.099286623 0.035499025 0.35500002 4278195968
0.10043967 0.035499025 0.35500002 4278195968
0.1015927 0.035499025 0.35500002 4278196224
0.10274575 0.035499025 0.35500002 4278196226
0.10389878 0.035499025 0.35500002 4278921234
0.10505182 0.035499025 0.35500002 4279053074
0.10620487 0.035499025 0.35500002 4279119637
0.1073579 0.035499025 0.35500002 4279646492
0.10851095 0.035499025 0.35500002 4279449367
0.10966399 0.035499025 0.35500002 4279449113
0.11081703 0.035499025 0.35500002 4279317527
0.11197007 0.035499025 0.35500002 4279317527
0.11344176 0.035599019 0.35600001 4279514393
0.11459805 0.035599019 0.35600001 4279447830
0.11575434 0.035599019 0.35600001 4279974174
0.11658224 0.035499025 0.35500002 4279317781
0.11773527 0.035499025 0.35500002 4279318551
0.11888831 0.035499025 0.35500002 4278195457
0.12004135 0.035499025 0.35500002 4279579418
0.12085299 0.035399023 0.354 4279318551
0.12200279 0.035399023 0.354 4279253269
0.12315258 0.035399023 0.354 4278990611
0.12430238 0.035399023 0.354 4279122197
0.12545218 0.035399023 0.354 4279187990
0.12660195 0.035399023 0.354 4279122197
0.12811263 0.035499025 0.35500002 4279056404
0.12926568 0.035499025 0.35500002 4279319064
0.13041872 0.035499025 0.35500002 4280038942
0.045797318 0.03820115 0.37 4283458904
0.046872053 0.038097903 0.36900002 4283327318
0.047940299 0.037994657 0.36800003 4283261525
0.049135566 0.037994657 0.36800003 4283327572
0.050194055 0.03789141 0.36700001 4283327572
0.051386073 0.03789141 0.36700001 4283261779
0.052434828 0.037788164 0.36600003 4283261777
0.053623598 0.037788164 0.36600003 4283195984
0.054812364 0.037788164 0.36600003 4283130189
0.056001134 0.037788164 0.36600003 4283130189
0.057033643 0.037684917 0.36500001 4282998603
0.058219161 0.037684917 0.36500001 4282867271
0.059241932 0.037581671 0.36400002 4282275134
0.060258206 0.037478425 0.36300001 4282670408
0.061267979 0.037375178 0.36200002 4282999373
0.062271263 0.037271935 0.36100003 4283525717
0.063268043 0.037168685 0.36000001 4283657303
0.064258337 0.037065443 0.35900003 4283920475
0.065424368 0.037065443 0.35900003 4284052063
0.066404909 0.036962193 0.35800001 4284249955
0.067567699 0.036962193 0.35800001 4284381541
0.068730474 0.036962193 0.35800001 4284381541
0.069698036 0.03685895 0.35700002 4283592023
0.07085757 0.03685895 0.35700002 4282934093
0.071815372 0.0367557 0.35600001 4281420854
0.072971664 0.0367557 0.35600001 4280105508
0.07412795 0.0367557 0.35600001 4279250969
0.075072773 0.036652453 0.35500002 4279185689
0.07622581 0.036652453 0.35500002 4279251736
0.077378854 0.036652453 0.35500002 4279185943
0.078531891 0.036652453 0.35500002 4279383320
0.079909392 0.0367557 0.35600001 4279318551
0.081065685 0.0367557 0.35600001 4279252758
0.08222197 0.0367557 0.35600001 4279319064
0.083378255 0.0367557 0.35600001 4279187478
0.084534548 0.0367557 0.35600001 4279121685
0.085690841 0.0367557 0.35600001 4279121685
0.086847119 0.0367557 0.35600001 4279253269
0.088003412 0.0367557 0.35600001 4279450648
0.089159697 0.0367557 0.35600001 4279122197
0.09031599 0.0367557 0.35600001 4279319576
0.091472276 0.0367557 0.35600001 4278924820
0.092628568 0.0367557 0.35600001 4279056406
0.093784861 0.0367557 0.35600001 4279187992
0.094941147 0.0367557 0.35600001 4279319064
0.095827505 0.036652453 0.35500002 4279252758
0.096980534 0.036652453 0.35500002 4279318297
0.098133579 0.036652453 0.35500002 4279384090
0.099286623 0.036652453 0.35500002 4279515160
0.10043967 0.036652453 0.35500002 4279383574
0.1015927 0.036652453 0.35500002 4279383574
0.10274575 0.036652453 0.35500002 4279448600
0.10389878 0.036652453 0.35500002 4279580186
0.10505182 0.036652453 0.35500002 4279579416
0.10620487 0.036652453 0.35500002 4279711004
0.1073579 0.036652453 0.35500002 4279645211
0.10851095 0.036652453 0.35500002 4278724109
0.10966399 0.036652453 0.35500002 4278526730
0.11081703 0.036652453 0.35500002 4278196994
0.11228547 0.0367557 0.35600001 4278196484
0.11344176 0.0367557 0.35600001 4278262277
0.11459805 0.0367557 0.35600001 4278459656
0.11575434 0.0367557 0.35600001 4278459656
0.11691063 0.0367557 0.35600001 4279184146
0.11773527 0.036652453 0.35500002 4278460423
0.11888831 0.036652453 0.35500002 4279184658
0.12004135 0.036652453 0.35500002 4279515160
0.12085299 0.036549207 0.354 4279384342
0.12200279 0.036549207 0.354 4279319062
0.12315258 0.036549207 0.354 4279056404
0.12430238 0.036549207 0.354 4279056404
0.12545218 0.036549207 0.354 4279056404
0.12660195 0.036549207 0.354 4279319576
0.12811263 0.036652453 0.35500002 4279318551
0.12926568 0.036652453 0.35500002 4279514393
0.13041872 0.036652453 0.35500002 4286090361
0.045673542 0.039296821 0.36900002 4283328342
0.046872053 0.039296821 0.36900002 4283591260
0.047940299 0.03919033 0.36800003 4283525467
0.04900204 0.039083831 0.36700001 4283327318
0.050194055 0.039083831 0.36700001 4283327318
0.051386073 0.039083831 0.36700001 4283459158
0.052434828 0.038977336 0.36600003 4283261777
0.053623598 0.038977336 0.36600003 4283261777
0.054812364 0.038977336 0.36600003 4283064398
0.056001134 0.038977336 0.36600003 4282800711
0.057033643 0.038870838 0.36500001 4283063883
0.058219161 0.038870838 0.36500001 4283195469
0.059241932 0.038764346 0.36400002 4282405955
0.060258206 0.038657848 0.36300001 4282603849
0.061437227 0.038657848 0.36300001 4283130963
0.062616251 0.038657848 0.36300001 4283394133
0.063795276 0.038657848 0.36300001 4283591512
0.064974301 0.038657848 0.36300001 4284052063
0.066153325 0.038657848 0.36300001 4283986272
0.06733235 0.038657848 0.36300001 4283986272
0.068511374 0.038657848 0.36300001 4283986272
0.069690399 0.038657848 0.36300001 4284052063
0.070869423 0.038657848 0.36300001 4284117856
0.073919728 0.037805885 0.35500002 4284052063
0.075072773 0.037805885 0.35500002 4284381541
0.07622581 0.037805885 0.35500002 4284315748
0.077378854 0.037805885 0.35500002 4284644713
0.078531891 0.037805885 0.35500002 4284776297
0.079909392 0.03791238 0.35600001 4284447332
0.081065685 0.03791238 0.35600001 4283263058
0.08222197 0.03791238 0.35600001 4281487163
0.083378255 0.03791238 0.35600001 4279514143
0.084534548 0.03791238 0.35600001 4278988310
0.085690841 0.03791238 0.35600001 4278725392
0.086847119 0.03791238 0.35600001 4278988049
0.088003412 0.03791238 0.35600001 4279514393
0.089159697 0.03791238 0.35600001 4279317527
0.09031599 0.03791238 0.35600001 4279449113
0.091472276 0.03791238 0.35600001 4279318810
0.092628568 0.03791238 0.35600001 4279253017
0.093784861 0.03791238 0.35600001 4279253271
0.094941147 0.03791238 0.35600001 4279515930
0.095827505 0.037805885 0.35500002 4279318551
0.096980534 0.037805885 0.35500002 4279186965
0.098133579 0.037805885 0.35500002 4279318551
0.099286623 0.037805885 0.35500002 4279384344
0.10043967 0.037805885 0.35500002 4279515930
0.1015927 0.037805885 0.35500002 4279318551
0.10274575 0.037805885 0.35500002 4279384344
0.10389878 0.037805885 0.35500002 4279384344
0.10505182 0.037805885 0.35500002 4279515930
0.10620487 0.037805885 0.35500002 4279384344
0.1073579 0.037805885 0.35500002 4279384090
0.10851095 0.037805885 0.35500002 4279516443
0.10966399 0.037805885 0.35500002 4279319064
0.11081703 0.037805885 0.35500002 4279384344
0.11228547 0.03791238 0.35600001 4279646492
0.11344176 0.03791238 0.35600001 4279448600
0.11459805 0.03791238 0.35600001 4279711002
0.11575434 0.03791238 0.35600001 4279908381
0.11691063 0.03791238 0.35600001 4279513109
0.11773527 0.037805885 0.35500002 4280105246
0.11888831 0.037805885 0.35500002 4279646746
0.12004135 0.037805885 0.35500002 4279384342
0.12119439 0.037805885 0.35500002 4279319062
0.12200279 0.03769939 0.354 4279056404
0.12315258 0.03769939 0.354 4279122197
0.12430238 0.03769939 0.354 4279187990
0.12545218 0.03769939 0.354 4279187990
0.12660195 0.03769939 0.354 4279516441
0.12811263 0.037805885 0.35500002 4280105500
0.085690841 0.03906906 0.35600001 4284184162
0.086847119 0.03906906 0.35600001 4284644713
0.088003412 0.03906906 0.35600001 4284710504
0.089159697 0.03906906 0.35600001 4284973163
0.09031599 0.03906906 0.35600001 4284842090
0.091472276 0.03906906 0.35600001 4283659102
0.092628568 0.03906906 0.35600001 4282672207
0.093784861 0.03906906 0.35600001 4281751105
0.094941147 0.03906906 0.35600001 4280895024
0.095827505 0.038959317 0.35500002 4280500006
0.096980534 0.038959317 0.35500002 4280105246
0.098133579 0.038959317 0.35500002 4279447830
0.099286623 0.038959317 0.35500002 4278922256
0.10043967 0.038959317 0.35500002 4278856465
0.1015927 0.038959317 0.35500002 4278922258
0.10274575 0.038959317 0.35500002 4279382809
0.10389878 0.038959317 0.35500002 4279119637
0.10505182 0.038959317 0.35500002 4279448600
0.10620487 0.038959317 0.35500002 4279382807
0.1073579 0.038959317 0.35500002 4279448600
0.10851095 0.038959317 0.35500002 4279514647
0.10966399 0.038959317 0.35500002 4279317779
0.11081703 0.038959317 0.35500002 4279712537
0.11197007 0.038959317 0.35500002 4279646744
0.11344176 0.03906906 0.35600001 4279777817
0.11459805 0.03906906 0.35600001 4279712026
0.11575434 0.03906906 0.35600001 4279909405
0.11691063 0.03906906 0.35600001 4279580440
0.11773527 0.038959317 0.35500002 4279777819
0.11888831 0.038959317 0.35500002 4279712026
0.12004135 0.038959317 0.35500002 4279712539
0.12119439 0.038959317 0.35500002 4279515930
0.12200279 0.03884957 0.354 4279647516
0.12315258 0.03884957 0.354 4279647514
0.12430238 0.03884957 0.354 4279647514
0.12545218 0.03884957 0.354 4279449367
0.12660195 0.03884957 0.354 4280171553
0.096980534 0.040112749 0.35500002 4284643428
0.098133579 0.040112749 0.35500002 4284511842
0.099286623 0.040112749 0.35500002 4284381026
0.10043967 0.040112749 0.35500002 4284578407
0.1015927 0.040112749 0.35500002 4284578407
0.10274575 0.040112749 0.35500002 4284775786
0.10389878 0.040112749 0.35500002 4284841579
0.10505182 0.040112749 0.35500002 4284973417
0.10620487 0.040112749 0.35500002 4285697140
0.1073579 0.040112749 0.35500002 4285697140
0.10851095 0.040112749 0.35500002 4285368434
0.10966399 0.040112749 0.35500002 4285303155
0.11081703 0.040112749 0.35500002 4285237362
0.11197007 0.040112749 0.35500002 4284973676
0.11344176 0.040225741 0.35600001 4284775784
0.11459805 0.040225741 0.35600001 4284446049
0.11575434 0.040225741 0.35600001 4283854682
0.11691063 0.040225741 0.35600001 4283065420
0.11773527 0.040112749 0.35500002 4282539074
0.11888831 0.040112749 0.35500002 4282209593
0.12004135 0.040112749 0.35500002 4282078007
0.12119439 0.040112749 0.35500002 4281288491
0.12234744 0.040112749 0.35500002 4281354284
0.12315258 0.039999753 0.354 4281419823
0.12430238 0.039999753 0.354 4284182877
0.12545218 0.039999753 0.354 4285893497
0.098133579 0.041266181 0.35500002 4284577637
0.099286623 0.041266181 0.35500002 4284577637
0.10043967 0.041266181 0.35500002 4284774503
0.1015927 0.041266181 0.35500002 4284774503
0.10274575 0.041266181 0.35500002 4284972395
0.10389878 0.041266181 0.35500002 4285038190
0.10505182 0.041266181 0.35500002 4285103981
0.10620487 0.041266181 0.35500002 4285103981
0.1073579 0.041266181 0.35500002 4285103981
0.10851095 0.041266181 0.35500002 4285169774
0.10966399 0.041266181 0.35500002 4285103981
0.11081703 0.041266181 0.35500002 4285301360
0.11197007 0.041266181 0.35500002 4285432433
0.1131231 0.041266181 0.35500002 4285498228
0.11427615 0.041266181 0.35500002 4285498226
0.11542919 0.041266181 0.35500002 4285301360
0.11658224 0.041266181 0.35500002 4285367155
0.11773527 0.041266181 0.35500002 4285367153
0.11888831 0.041266181 0.35500002 4285498739
0.12004135 0.041266181 0.35500002 4285367153
0.12119439 0.041266181 0.35500002 4285432946
0.12234744 0.041266181 0.35500002 4285432433
0.12315258 0.041149933 0.354 4285366640
0.12430238 0.041149933 0.354 4285694835
0.12545218 0.041149933 0.354 4285826421
0.11081703 0.042419609 0.35500002 4285629812
0.11197007 0.042419609 0.35500002 4285498226
0.1131231 0.042419609 0.35500002 4285366640
0.11427615 0.042419609 0.35500002 4285826421
0.11542919 0.042419609 0.35500002 4285629042
0.11658224 0.042419609 0.35500002 4285563249
0.11773527 0.042419609 0.35500002 4285563249
0.11888831 0.042419609 0.35500002 4285958007
0.12004135 0.042419609 0.35500002 4285694835
0.12119439 0.042419609 0.35500002 4285629042
0.12234744 0.042419609 0.35500002 4285366640
0.12350047 0.042419609 0.35500002 4285564019
0.12465352 0.042419609 0.35500002 4285498226
0.12580656 0.042419609 0.35500002 4285694835
0.11427615 0.043573041 0.35500002 4285563251
0.11542919 0.043573041 0.35500002 4285629042
0.11658224 0.043573041 0.35500002 4285629042
0.11773527 0.043573041 0.35500002 4285563249
0.11888831 0.043573041 0.35500002 4285628528
0.084351771 0.030181661 0.35698459 4294967295
0.084351771 0.030181661 0.35698459 4294901760
0.084351771 0.030181661 0.35748458 4294901760
0.084351771 0.030181661 0.35798457 4294901760
0.084351771 0.030181661 0.3584846 4294901760
0.084351771 0.030181661 0.35898459 4294901760
0.084351771 0.030181661 0.35948458 4294901760
0.084351771 0.030181661 0.35998458 4294901760
0.084351771 0.030181661 0.3604846 4294901760
0.084351771 0.030181661 0.36098459 4294901760
0.084351771 0.030181661 0.36148459 4294901760
0.084351771 0.030181661 0.36198458 4294901760
0.084351771 0.030181661 0.36248457 4294901760
0.084351771 0.030181661 0.3629846 4294901760
0.084351771 0.030181661 0.36348459 4294901760
0.084351771 0.030181661 0.36398458 4294901760
0.084351771 0.030181661 0.36448458 4294901760
0.084351771 0.030181661 0.36498457 4294901760
0.084351771 0.030181661 0.3654846 4294901760
0.084351771 0.030181661 0.36598459 4294901760
0.084351771 0.030181661 0.36648458 4294901760
0.084351771 0.030181661 0.36698458 4294901760
0.084351771 0.030181661 0.3674846 4294901760
0.084351771 0.030181661 0.36798459 4294901760
0.084351771 0.030181661 0.36848459 4294901760
0.084351771 0.030181661 0.36898458 4294901760
0.084351771 0.030181661 0.3694846 4294901760
0.084351771 0.030181661 0.3699846 4294901760
0.084351771 0.030181661 0.37048459 4294901760
0.084351771 0.030181661 0.37098458 4294901760
0.084351771 0.030181661 0.37148458 4294901760
0.084351771 0.030181661 0.3719846 4294901760
0.084351771 0.030181661 0.37248459 4294901760
0.084351771 0.030181661 0.37298459 4294901760
0.084351771 0.030181661 0.37348458 4294901760
0.084351771 0.030181661 0.37398458 4294901760
0.084351771 0.030181661 0.3744846 4294901760
0.084351771 0.030181661 0.37498459 4294901760
0.084351771 0.030181661 0.37548459 4294901760
0.084351771 0.030181661 0.37598458 4294901760
0.084351771 0.030181661 0.3764846 4294901760
0.084351771 0.030181661 0.3769846 4294901760
0.084351771 0.030181661 0.37748459 4294901760
0.084351771 0.030181661 0.37798458 4294901760
0.084351771 0.030181661 0.37848461 4294901760
0.084351771 0.030181661 0.3789846 4294901760
0.084351771 0.030181661 0.37948459 4294901760
0.084351771 0.030181661 0.37998459 4294901760
0.084351771 0.030181661 0.38048458 4294901760
0.084351771 0.030181661 0.3809846 4294901760
0.084351771 0.030181661 0.3814846 4294901760
0.084351771 0.030181661 0.38198459 4294901760
0.084351771 0.030181661 0.38248459 4294901760
0.084351771 0.030181661 0.38298458 4294901760
0.084351771 0.030181661 0.3834846 4294901760
0.084351771 0.030181661 0.3839846 4294901760
0.084351771 0.030181661 0.38448459 4294901760
0.084351771 0.030181661 0.38498458 4294901760
0.084351771 0.030181661 0.38548458 4294901760
0.084351771 0.030181661 0.3859846 4294901760
0.084351771 0.030181661 0.38648459 4294901760
0.084351771 0.030181661 0.38698459 4294901760
0.084351771 0.030181661 0.38748458 4294901760
0.084351771 0.030181661 0.3879846 4294901760
0.084351771 0.030181661 0.3884846 4294901760
0.084351771 0.030181661 0.38898459 4294901760
0.084351771 0.030181661 0.38948458 4294901760
0.084351771 0.030181661 0.38998461 4294901760
0.084351771 0.030181661 0.3904846 4294901760
0.084351771 0.030181661 0.39098459 4294901760
0.084351771 0.030181661 0.39148459 4294901760
0.084351771 0.030181661 0.39198458 4294901760
0.084351771 0.030181661 0.39248461 4294901760
0.084351771 0.030181661 0.3929846 4294901760
0.084351771 0.030181661 0.39348459 4294901760
0.084351771 0.030181661 0.39398459 4294901760
0.084351771 0.030181661 0.39448458 4294901760
0.084351771 0.030181661 0.3949846 4294901760
0.084351771 0.030181661 0.3954846 4294901760
0.084351771 0.030181661 0.39598459 4294901760
0.084351771 0.030181661 0.39648458 4294901760
0.084351771 0.030181661 0.39698461 4294901760
0.084351771 0.030181661 0.3974846 4294901760
0.084351771 0.030181661 0.39798459 4294901760
0.084351771 0.030181661 0.39848459 4294901760
0.084351771 0.030181661 0.39898458 4294901760
0.084351771 0.030181661 0.3994846 4294901760
0.084351771 0.030181661 0.3999846 4294901760
0.084351771 0.030181661 0.40048459 4294901760
0.084351771 0.030181661 0.40098459 4294901760
0.084351771 0.030181661 0.40148461 4294901760
0.084351771 0.030181661 0.4019846 4294901760
0.084351771 0.030181661 0.4024846 4294901760
0.084351771 0.030181661 0.40298459 4294901760
0.084351771 0.030181661 0.40348458 4294901760
0.084351771 0.030181661 0.40398461 4294901760
0.084351771 0.030181661 0.4044846 4294901760
0.084351771 0.030181661 0.40498459 4294901760
0.084351771 0.030181661 0.40548459 4294901760
0.084351771 0.030181661 0.40598461 4294901760
0.084351771 0.030181661 0.4064846 4294901760
0.084351771 0.030181661 0.4069846 4294901760
0.084351771 0.030181661 0.35698459 4278255360
0.084373958 0.029982451 0.35744265 4278255360
0.084396154 0.029783241 0.35790071 4278255360
0.084418342 0.029584032 0.35835877 4278255360
0.084440529 0.029384824 0.35881683 4278255360
0.084462725 0.029185614 0.35927489 4278255360
0.084484912 0.028986404 0.35973299 4278255360
0.0845071 0.028787194 0.36019105 4278255360
0.084529288 0.028587984 0.36064911 4278255360
0.084551483 0.028388774 0.36110717 4278255360
0.084573671 0.028189564 0.36156523 4278255360
0.084595859 0.027990354 0.36202329 4278255360
0.084618054 0.027791146 0.36248136 4278255360
0.084640242 0.027591936 0.36293942 4278255360
0.08466243 0.027392726 0.36339748 4278255360
0.084684625 0.027193516 0.36385554 4278255360
0.084706813 0.026994307 0.3643136 4278255360
0.084729001 0.026795097 0.36477169 4278255360
0.084751196 0.026595887 0.36522976 4278255360
0.084773384 0.026396677 0.36568782 4278255360
0.084795572 0.026197467 0.36614588 4278255360
0.084817767 0.025998259 0.36660394 4278255360
0.084839955 0.025799049 0.367062 4278255360
0.084862143 0.025599839 0.36752006 4278255360
0.084884331 0.025400629 0.36797813 4278255360
0.084906526 0.025201419 0.36843619 4278255360
0.084928714 0.025002211 0.36889425 4278255360
0.084950902 0.024803001 0.36935231 4278255360
0.084973097 0.024603792 0.3698104 4278255360
0.084995285 0.024404582 0.37026846 4278255360
0.085017473 0.024205372 0.37072653 4278255360
0.085039668 0.024006162 0.37118459 4278255360
0.085061856 0.023806952 0.37164265 4278255360
0.085084043 0.023607742 0.37210071 4278255360
0.085106239 0.023408532 0.37255877 4278255360
0.085128427 0.023209322 0.37301683 4278255360
0.085150614 0.023010112 0.3734749 4278255360
0.085172802 0.022810904 0.37393296 4278255360
0.085194997 0.022611694 0.37439102 4278255360
0.085217185 0.022412485 0.37484908 4278255360
0.085239373 0.022213275 0.37530717 4278255360
0.085261568 0.022014067 0.37576523 4278255360
0.085283756 0.021814857 0.3762233 4278255360
0.085305944 0.021615647 0.37668136 4278255360
0.085328139 0.021416437 0.37713942 4278255360
0.085350327 0.021217227 0.37759748 4278255360
0.085372515 0.021018017 0.37805554 4278255360
0.08539471 0.020818807 0.3785136 4278255360
0.085416898 0.020619597 0.37897167 4278255360
0.085439086 0.020420387 0.37942973 4278255360
0.085461274 0.020221177 0.37988782 4278255360
0.085483469 0.020021968 0.38034588 4278255360
0.085505657 0.01982276 0.38080394 4278255360
0.085527845 0.01962355 0.381262 4278255360
0.08555004 0.01942434 0.38172007 4278255360
0.085572228 0.01922513 0.38217813 4278255360
0.085594416 0.019025922 0.38263619 4278255360
0.085616611 0.018826712 0.38309425 4278255360
