# .PCD v0.7 - Point Cloud Data file format
VERSION 0.7
FIELDS x y z rgb
SIZE 4 4 4 4
TYPE F F F U
COUNT 1 1 1 1
WIDTH 1035
HEIGHT 1
VIEWPOINT 0 0 0 1 0 0 0
POINTS 1035
DATA ascii
-0.020600801 0.031614505 0.49200001 4279576858
-0.01904141 0.031678762 0.49300003 4280698669
-0.017475519 0.03174302 0.49400002 4279389221
-0.015903134 0.031807277 0.49500003 4279323428
-0.014266494 0.03174302 0.49400002 4279521320
-0.012713243 0.031871535 0.49600002 4280377145
-0.020517059 0.033078052 0.49000001 4279314195
-0.018964162 0.033145558 0.49100003 4279778848
-0.017404767 0.033213064 0.49200001 4278928670
-0.015838878 0.03328057 0.49300003 4278863390
-0.014237614 0.03328057 0.49300003 4278666781
-0.01266198 0.033348076 0.49400002 4279258664
-0.020475188 0.034599356 0.48900002 4278920722
-0.018886914 0.034599356 0.48900002 4279647775
-0.017334016 0.034670111 0.49000001 4278862363
-0.015742496 0.034670111 0.49000001 4278731291
-0.014179855 0.034740865 0.49100003 4278731804
-0.012585086 0.034740865 0.49100003 4278666011
-0.0058521037 0.032759719 0.46300003 4278797084
-0.004348279 0.032759719 0.46300003 4278731550
-0.0028444538 0.032759719 0.46300003 4278599964
-0.001340629 0.032759719 0.46300003 4278665757
-0.020391444 0.036040157 0.48700002 4278920722
-0.018848291 0.036114164 0.48800004 4279713568
-0.017263265 0.036114164 0.48800004 4278927384
-0.015678242 0.036114164 0.48800004 4278928154
-0.014093217 0.036114164 0.48800004 4278731289
-0.012508191 0.036114164 0.48800004 4278533910
-0.010923167 0.036114164 0.48800004 4278731802
-0.007355928 0.03426405 0.46300003 4278533910
-0.0058521037 0.03426405 0.46300003 4278731289
-0.004348279 0.03426405 0.46300003 4278731289
-0.0028444538 0.03426405 0.46300003 4278664984
-0.0013377335 0.034190048 0.46200001 4278400529
0.00016284335 0.034190048 0.46200001 4278862363
0.0016598196 0.034116041 0.46100003 4278533912
0.0031571484 0.034116041 0.46100003 4278731291
0.0046443804 0.034042038 0.46000001 4278533912
0.0061384616 0.034042038 0.46000001 4278797084
0.0076159495 0.033968035 0.45900002 4278731291
0.010505262 0.033672016 0.45500001 4278863390
0.011983102 0.033672016 0.45500001 4278797597
-0.020349573 0.037545215 0.48600003 4279184408
-0.018771045 0.037545215 0.48600003 4279779875
-0.017192515 0.037545215 0.48600003 4278993177
-0.015613986 0.037545215 0.48600003 4278993177
-0.014035458 0.037545215 0.48600003 4278796568
-0.012431297 0.037467964 0.48500001 4278731289
-0.010856016 0.037467964 0.48500001 4278731289
-0.007355928 0.035768386 0.46300003 4278797082
-0.0058521037 0.035768386 0.46300003 4278797082
-0.004348279 0.035768386 0.46300003 4278796568
-0.0028444538 0.035768386 0.46300003 4278201610
-0.0013377335 0.035691131 0.46200001 4279121945
0.00016284335 0.035691131 0.46200001 4279123998
0.0016598196 0.03561388 0.46100003 4278665498
0.0031571484 0.03561388 0.46100003 4278665498
0.0046443804 0.035536624 0.46000001 4278533912
0.0061384616 0.035536624 0.46000001 4278533910
0.0076159495 0.035459369 0.45900002 4278664982
0.0090869423 0.035382118 0.45800003 4278796568
0.01052835 0.035227612 0.45600003 4278664980
0.012009439 0.035227612 0.45600003 4278796566
0.013490528 0.035227612 0.45600003 4278796566
-0.020307701 0.039043777 0.48500001 4279316764
-0.018732419 0.039043777 0.48500001 4279320096
-0.017157139 0.039043777 0.48500001 4279058970
-0.015549731 0.038963273 0.48400003 4279058970
-0.013977698 0.038963273 0.48400003 4278862361
-0.012380033 0.03888277 0.48300001 4278796568
-0.010833632 0.038963273 0.48400003 4278665496
-0.007355928 0.037272722 0.46300003 4278731289
-0.0058521037 0.037272722 0.46300003 4278797082
-0.004348279 0.037272722 0.46300003 4278928154
-0.0028383103 0.037192214 0.46200001 4279386652
-0.0013377335 0.037192214 0.46200001 4279780129
0.00016284335 0.037192214 0.46200001 4278860826
0.0016598196 0.037111714 0.46100003 4278532374
0.0031571484 0.037111714 0.46100003 4278531861
0.0046443804 0.037031211 0.46000001 4279517727
0.0061384616 0.037031211 0.46000001 4279189273
0.0076159495 0.036950707 0.45900002 4279124248
0.0090869423 0.036870208 0.45800003 4278992662
0.010551439 0.036789704 0.45700002 4278730003
0.012035775 0.036789704 0.45700002 4278795796
0.013520112 0.036789704 0.45700002 4278993175
0.01500445 0.036789704 0.45700002 4278927382
0.016488785 0.036789704 0.45700002 4278599187
0.017973121 0.036789704 0.45700002 4278402322
0.019457459 0.036789704 0.45700002 4278665494
-0.020265831 0.040535841 0.48400003 4279448863
-0.018655173 0.040452085 0.48300001 4279451680
-0.017086387 0.040452085 0.48300001 4279058970
-0.015517603 0.040452085 0.48300001 4279124763
-0.013919939 0.040368337 0.48200002 4278862361
-0.012354402 0.040368337 0.48200002 4278796568
-0.010811249 0.040452085 0.48300001 4278862875
-0.0073718154 0.038860805 0.46400002 4278533910
-0.0058521037 0.038777053 0.46300003 4278862875
-0.004348279 0.038777053 0.46300003 4278862875
-0.0028444538 0.038777053 0.46300003 4278198273
-0.0013377335 0.038693301 0.46200001 4278461707
0.00016284335 0.038693301 0.46200001 4279056922
0.0016598196 0.038609549 0.46100003 4278196998
0.0031571484 0.038609549 0.46100003 4278524683
0.0046443804 0.038525797 0.46000001 4278524683
0.0061384616 0.038525797 0.46000001 4278327304
0.0076159495 0.038442045 0.45900002 4278327302
0.0091067832 0.038442045 0.45900002 4278262279
0.010574528 0.038358297 0.45800003 4278197256
0.012062112 0.038358297 0.45800003 4278196996
0.013520112 0.038274541 0.45700002 4278198277
0.015037282 0.038358297 0.45800003 4278989845
0.016488785 0.038274541 0.45700002 4278991894
0.017973121 0.038274541 0.45700002 4279190041
0.019457459 0.038274541 0.45700002 4279124248
0.020941796 0.038274541 0.45700002 4278992662
0.022377061 0.038190793 0.45600003 4278795796
0.023858149 0.038190793 0.45600003 4278664210
0.025283668 0.038107038 0.45500001 4278730003
0.026761509 0.038107038 0.45500001 4278730003
0.040900841 0.037520777 0.44800001 4278600984
0.042355947 0.037520777 0.44800001 4278995742
0.043811049 0.037520777 0.44800001 4279390502
0.045266159 0.037520777 0.44800001 4279456297
0.046721261 0.037520777 0.44800001 4279258664
0.048283901 0.037604529 0.44900003 4278928931
0.049742259 0.037604529 0.44900003 4279191590
-0.020182086 0.041934405 0.48200002 4279448861
-0.01861655 0.041934405 0.48200002 4279320607
-0.017051013 0.041934405 0.48200002 4278796568
-0.015453348 0.041847404 0.48100004 4278862361
-0.01386218 0.0417604 0.48000002 4278862363
-0.012277507 0.0416734 0.47900003 4278862363
-0.010788865 0.041934405 0.48200002 4278862363
-0.0073718154 0.040368386 0.46400002 4278796568
-0.0058647431 0.040368386 0.46400002 4278928154
-0.004348279 0.040281389 0.46300003 4278862361
-0.0028444538 0.040281389 0.46300003 4278199041
-0.0013377335 0.040194385 0.46200001 4280108067
0.00016284335 0.040194385 0.46200001 4279451932
0.0016634201 0.040194385 0.46200001 4278525449
0.0031571484 0.040107384 0.46100003 4278983951
0.0046544774 0.040107384 0.46100003 4278654734
0.0061384616 0.040020384 0.46000001 4278720527
0.0076325419 0.040020384 0.46000001 4278785806
0.0091067832 0.039933383 0.45900002 4278786318
0.010597616 0.039933383 0.45900002 4278786318
0.012062112 0.039846383 0.45800003 4278720525
0.013549698 0.039846383 0.45800003 4278654732
0.015037282 0.039846383 0.45800003 4278523916
0.016524866 0.039846383 0.45800003 4278195712
0.018012451 0.039846383 0.45800003 4278726927
0.019457459 0.039759383 0.45700002 4278199555
0.020941796 0.039759383 0.45700002 4278196992
0.022377061 0.039672382 0.45600003 4278196736
0.023858149 0.039672382 0.45600003 4278197504
0.025283668 0.039585378 0.45500001 4278198787
0.026761509 0.039585378 0.45500001 4278200072
0.028177287 0.039498381 0.45400003 4279188762
0.029651878 0.039498381 0.45400003 4279255066
0.031057913 0.039411377 0.45300001 4278532626
0.032529257 0.039411377 0.45300001 4278664212
0.033925544 0.039324377 0.45200002 4278993177
0.035315339 0.03923738 0.45100003 4278730005
0.036780186 0.03923738 0.45100003 4278664982
0.038160235 0.039150376 0.45000002 4278468117
0.039621834 0.039150376 0.45000002 4278336529
0.040992137 0.039063375 0.44900003 4278468115
0.042450495 0.039063375 0.44900003 4278402322
0.043908846 0.039063375 0.44900003 4278665494
0.0453672 0.039063375 0.44900003 4278797593
0.04682555 0.039063375 0.44900003 4278402835
0.048283901 0.039063375 0.44900003 4278798365
0.049853042 0.039150376 0.45000002 4278995744
0.051428676 0.03923738 0.45100003 4279389732
0.053010803 0.039324377 0.45200002 4279521318
0.054478899 0.039324377 0.45200002 4279323428
0.055946995 0.039324377 0.45200002 4278731037
0.057415091 0.039324377 0.45200002 4282345554
-0.020140216 0.043410223 0.48100004 4279843873
-0.018577926 0.043410223 0.48100004 4278991642
-0.016980261 0.043319974 0.48000002 4278665498
-0.015389093 0.043229725 0.47900003 4278731291
-0.013804421 0.043139473 0.47800002 4278731291
-0.012200613 0.042958971 0.47600001 4278731291
-0.0089554312 0.042236976 0.46800002 4278665498
-0.0073877033 0.041966226 0.46500003 4278731291
-0.0058647431 0.041875973 0.46400002 4278797084
-0.004348279 0.041785724 0.46300003 4278928154
-0.0028444538 0.041785724 0.46300003 4278198272
-0.0013377335 0.041695476 0.46200001 4279648027
0.00016284335 0.041695476 0.46200001 4279320346
0.0016634201 0.041695476 0.46200001 4278458377
0.0031571484 0.041605227 0.46100003 4280366374
0.0046544774 0.041605227 0.46100003 4279182100
0.0061384616 0.041514974 0.46000001 4278918674
0.0076325419 0.041514974 0.46000001 4279313945
0.0091067832 0.041424725 0.45900002 4279906336
0.010597616 0.041424725 0.45900002 4280432678
0.012088448 0.041424725 0.45900002 4279182100
0.013579281 0.041424725 0.45900002 4278984721
0.015037282 0.041334476 0.45800003 4278721295
0.016524866 0.041334476 0.45800003 4279381787
0.018012451 0.041334476 0.45800003 4279319324
0.019457459 0.041244224 0.45700002 4279188762
0.020941796 0.041244224 0.45700002 4279320348
0.022377061 0.041153975 0.45600003 4279319578
0.023858149 0.041153975 0.45600003 4279451164
0.025283668 0.041063726 0.45500001 4279385371
0.026761509 0.041063726 0.45500001 4280043301
0.028239351 0.041063726 0.45500001 4279253017
0.029651878 0.040973477 0.45400003 4278397710
0.031126473 0.040973477 0.45400003 4278199817
0.032529257 0.040883224 0.45300001 4278197508
0.033925544 0.040792976 0.45200002 4278196482
0.03539364 0.040792976 0.45200002 4278196994
0.036780186 0.040702727 0.45100003 4278198279
0.038245037 0.040702727 0.45100003 4278331663
0.039621834 0.040612474 0.45000002 4278793750
0.041083433 0.040612474 0.45000002 4278926103
0.042450495 0.040522225 0.44900003 4278795285
0.044006635 0.040612474 0.45000002 4278795798
0.045468237 0.040612474 0.45000002 4278927384
0.04692984 0.040612474 0.45000002 4278336017
0.048391439 0.040612474 0.45000002 4278468630
0.049963828 0.040702727 0.45100003 4278600216
0.051428676 0.040702727 0.45100003 4278731800
0.053010803 0.040792976 0.45200002 4278600214
0.054478899 0.040792976 0.45200002 4278797593
0.055946995 0.040792976 0.45200002 4278929181
0.057542115 0.040883224 0.45300001 4279520041
0.05901346 0.040883224 0.45300001 4282017357
-0.020098343 0.044879541 0.48000002 4280305192
-0.01850068 0.044786043 0.47900003 4279124252
-0.016944887 0.044786043 0.47900003 4278665498
-0.015324838 0.044599045 0.47700003 4278731291
-0.013746661 0.044505544 0.47600001 4278665244
-0.01214935 0.044318549 0.47400004 4278731037
-0.010520263 0.043944553 0.47000003 4278797084
-0.0089554312 0.043757554 0.46800002 4278731291
-0.0074035903 0.043570556 0.46600002 4278731291
-0.0058647431 0.043383557 0.46400002 4278862877
-0.0043576704 0.043383557 0.46400002 4278991896
-0.0028444538 0.04329006 0.46300003 4278197507
-0.0013377335 0.043196559 0.46200001 4279516443
0.00016284335 0.043196559 0.46200001 4279715104
0.0016634201 0.043196559 0.46200001 4278590474
0.0031571484 0.043103062 0.46100003 4279642651
0.0046544774 0.043103062 0.46100003 4279051027
0.0061518066 0.043103062 0.46100003 4279117588
0.0076325419 0.043009561 0.46000001 4278393097
0.0091266232 0.043009561 0.46000001 4279445531
0.010597616 0.042916063 0.45900002 4278589709
0.012088448 0.042916063 0.45900002 4279181330
0.013579281 0.042916063 0.45900002 4279249689
0.015070114 0.042916063 0.45900002 4278262027
0.016524866 0.042822566 0.45800003 4279712033
0.018012451 0.042822566 0.45800003 4279189021
0.019500036 0.042822566 0.45800003 4278266122
0.020941796 0.042729065 0.45700002 4278263558
0.022426134 0.042729065 0.45700002 4278195968
0.023858149 0.042635567 0.45600003 4279779875
0.025339238 0.042635567 0.45600003 4278198272
0.026761509 0.042542066 0.45500001 4278398992
0.028239351 0.042542066 0.45500001 4278925336
0.029651878 0.042448569 0.45400003 4278925336
0.031126473 0.042448569 0.45400003 4278793750
0.032529257 0.042355068 0.45300001 4278991129
0.034000598 0.042355068 0.45300001 4279254301
0.03539364 0.042261571 0.45200002 4279254301
0.036780186 0.04216807 0.45100003 4279516703
0.038245037 0.04216807 0.45100003 4279450912
0.039709885 0.04216807 0.45100003 4279187226
0.041083433 0.042074572 0.45000002 4278792468
0.042545035 0.042074572 0.45000002 4278266124
0.044006635 0.042074572 0.45000002 4278196224
0.045569282 0.04216807 0.45100003 4278195968
0.04703413 0.04216807 0.45100003 4278198276
0.048498977 0.04216807 0.45100003 4278730005
0.049963828 0.04216807 0.45100003 4278402324
0.051542707 0.042261571 0.45200002 4278665496
0.053010803 0.042261571 0.45200002 4278665496
0.054478899 0.042261571 0.45200002 4278731289
0.055946995 0.042261571 0.45200002 4278731289
0.057415091 0.042261571 0.45200002 4278928670
0.05901346 0.042355068 0.45300001 4278467351
-0.020056473 0.046342365 0.47900003 4280371752
-0.018462054 0.046245612 0.47800002 4279124252
-0.016874135 0.046148866 0.47700003 4278731291
-0.01529271 0.046052117 0.47600001 4278797084
-0.013717782 0.045955371 0.47500002 4278666011
-0.012123718 0.045761872 0.47300002 4278797597
-0.010520263 0.045471631 0.47000003 4278731291
-0.0089554312 0.045278132 0.46800002 4278797084
-0.0074035903 0.045084637 0.46600002 4278928156
-0.0058647431 0.044891141 0.46400002 4278862363
-0.0043576704 0.044891141 0.46400002 4279190045
-0.0028444538 0.044794392 0.46300003 4278199561
-0.0013377335 0.044697642 0.46200001 4279450396
0.00016284335 0.044697642 0.46200001 4279780129
0.0016634201 0.044697642 0.46200001 4278589963
0.0031571484 0.044600897 0.46100003 4278720525
0.0046544774 0.044600897 0.46100003 4278654732
0.0061518066 0.044600897 0.46100003 4278785804
0.0076325419 0.044504147 0.46000001 4278785804
0.0091266232 0.044504147 0.46000001 4278720011
0.010620704 0.044504147 0.46000001 4278654732
0.012088448 0.044407401 0.45900002 4278655502
0.013579281 0.044407401 0.45900002 4279381275
0.015070114 0.044407401 0.45900002 4278262281
0.016560946 0.044407401 0.45900002 4279647010
0.018012451 0.044310652 0.45800003 4279517475
0.019500036 0.044310652 0.45800003 4278525449
0.020941796 0.044213902 0.45700002 4278721547
0.022426134 0.044213902 0.45700002 4278195715
0.023858149 0.044117156 0.45600003 4278197252
0.025339238 0.044117156 0.45600003 4279056154
0.026761509 0.044020407 0.45500001 4278200331
0.028239351 0.044020407 0.45500001 4278660369
0.029651878 0.043923661 0.45400003 4279253019
0.031126473 0.043923661 0.45400003 4278266122
0.032529257 0.043826912 0.45300001 4279055892
0.034000598 0.043826912 0.45300001 4278728211
0.03539364 0.043730162 0.45200002 4278728211
0.036861736 0.043730162 0.45200002 4278727957
0.038245037 0.043633416 0.45100003 4278794263
0.039709885 0.043633416 0.45100003 4279123228
0.041174732 0.043633416 0.45100003 4278860826
0.042639583 0.043633416 0.45100003 4278795033
0.044104431 0.043633416 0.45100003 4278992412
0.045569282 0.043633416 0.45100003 4278991642
0.04703413 0.043633416 0.45100003 4279056152
0.048498977 0.043633416 0.45100003 4278398222
0.050074611 0.043730162 0.45200002 4278730005
0.051542707 0.043730162 0.45200002 4278599189
0.053010803 0.043730162 0.45200002 4278664982
0.054478899 0.043730162 0.45200002 4278664982
0.055946995 0.043730162 0.45200002 4278599189
0.057415091 0.043730162 0.45200002 4278664984
0.05888319 0.043730162 0.45200002 4279059742
0.060484808 0.043826912 0.45300001 4285371005
-0.020056473 0.047898684 0.47900003 4280436262
-0.018462054 0.047798686 0.47800002 4278991896
-0.016874135 0.047698688 0.47700003 4278731291
-0.015260583 0.047498692 0.47500002 4278797084
-0.013688903 0.047398698 0.47400004 4278533912
-0.012098087 0.047198702 0.47200003 4278731291
-0.010497879 0.046898708 0.46900001 4278731291
-0.0089362953 0.046698716 0.46700001 4278731291
-0.0074035903 0.046598718 0.46600002 4278664984
-0.0058647431 0.046398722 0.46400002 4278796570
-0.0043576704 0.046398722 0.46400002 4278200581
-0.0028444538 0.046298727 0.46300003 4278660880
-0.0013377335 0.046198729 0.46200001 4278925336
0.00016284335 0.046198729 0.46200001 4279255068
0.0016634201 0.046198729 0.46200001 4279251736
0.0031571484 0.046098731 0.46100003 4278854927
0.0046544774 0.046098731 0.46100003 4278458890
0.0061518066 0.046098731 0.46100003 4278391560
0.0076325419 0.045998733 0.46000001 4278786572
0.0091266232 0.045998733 0.46000001 4278786318
0.010620704 0.045998733 0.46000001 4278786318
0.012114785 0.045998733 0.46000001 4278654732
0.013579281 0.045898739 0.45900002 4278720527
0.015070114 0.045898739 0.45900002 4278654734
0.016560946 0.045898739 0.45900002 4280107561
0.018012451 0.045798741 0.45800003 4279056924
0.019500036 0.045798741 0.45800003 4278524681
0.020941796 0.045698743 0.45700002 4278786570
0.022426134 0.045698743 0.45700002 4278393863
0.023858149 0.045598745 0.45600003 4278922517
0.025339238 0.045598745 0.45600003 4278792214
0.026761509 0.045498747 0.45500001 4278199817
0.028239351 0.045498747 0.45500001 4278200331
0.029651878 0.045398753 0.45400003 4279318812
0.031126473 0.045398753 0.45400003 4278464017
0.032529257 0.045298751 0.45300001 4278989847
0.034000598 0.045298751 0.45300001 4278265357
0.03539364 0.045198757 0.45200002 4278265357
0.036861736 0.045198757 0.45200002 4278396943
0.038329836 0.045198757 0.45200002 4278396943
0.039797932 0.045198757 0.45200002 4278198018
0.041266028 0.045198757 0.45200002 4278991129
0.042734127 0.045198757 0.45200002 4278199043
0.044202223 0.045198757 0.45200002 4278728724
0.045670319 0.045198757 0.45200002 4278729494
0.047138415 0.045198757 0.45200002 4278531345
0.048606511 0.045198757 0.45200002 4279254301
0.050074611 0.045198757 0.45200002 4278795798
0.051542707 0.045198757 0.45200002 4278796566
0.053010803 0.045198757 0.45200002 4278664980
0.054478899 0.045198757 0.45200002 4278533398
0.055946995 0.045198757 0.45200002 4278796570
0.057415091 0.045198757 0.45200002 4278796316
0.05888319 0.045198757 0.45200002 4278729753
0.06035129 0.045198757 0.45200002 4283397728
-0.020098343 0.049558248 0.48000002 4279710488
-0.018462054 0.049351756 0.47800002 4279253271
-0.016874135 0.049248509 0.47700003 4279124765
-0.015260583 0.049042016 0.47500002 4278993179
-0.013660023 0.048835523 0.47300002 4278795800
-0.012072454 0.048629031 0.47100002 4278664984
-0.010497879 0.048422538 0.46900001 4278796570
-0.0089362953 0.048216045 0.46700001 4278862363
-0.0074035903 0.048112798 0.46600002 4278599191
-0.0058647431 0.047906306 0.46400002 4278599191
-0.004348279 0.047803063 0.46300003 4278861080
-0.0028444538 0.047803063 0.46300003 4278925849
-0.0013377335 0.047699813 0.46200001 4279123998
0.00016284335 0.047699813 0.46200001 4278992412
0.0016634201 0.047699813 0.46200001 4278927132
0.0031571484 0.047596566 0.46100003 4279058205
0.0046544774 0.047596566 0.46100003 4279254814
0.0061518066 0.047596566 0.46100003 4279056922
0.0076325419 0.04749332 0.46000001 4279254303
0.0091266232 0.04749332 0.46000001 4279385119
0.010620704 0.04749332 0.46000001 4279778850
0.012114785 0.04749332 0.46000001 4279054873
0.013579281 0.047390074 0.45900002 4278856213
0.015070114 0.047390074 0.45900002 4278723343
0.016560946 0.047390074 0.45900002 4279186459
0.018012451 0.047286831 0.45800003 4278195968
0.019500036 0.047286831 0.45800003 4278461453
0.020941796 0.047183581 0.45700002 4279315478
0.022426134 0.047183581 0.45700002 4279710236
0.023858149 0.047080338 0.45600003 4279711520
0.025339238 0.047080338 0.45600003 4279450398
0.026761509 0.046977088 0.45500001 4279187740
0.028239351 0.046977088 0.45500001 4279121945
0.029651878 0.046873845 0.45400003 4278661394
0.031126473 0.046873845 0.45400003 4278990359
0.032529257 0.046770595 0.45300001 4279187738
0.034000598 0.046770595 0.45300001 4278727189
0.035471946 0.046770595 0.45300001 4278199820
0.036861736 0.046667352 0.45200002 4279120666
0.038329836 0.046667352 0.45200002 4278265357
0.039797932 0.046667352 0.45200002 4278331663
0.041266028 0.046667352 0.45200002 4278397456
0.042734127 0.046667352 0.45200002 4279120666
0.044202223 0.046667352 0.45200002 4278198532
0.045670319 0.046667352 0.45200002 4278795033
0.047138415 0.046667352 0.45200002 4278200584
0.048606511 0.046667352 0.45200002 4279189021
0.050074611 0.046667352 0.45200002 4278795800
0.051542707 0.046667352 0.45200002 4278730003
0.053010803 0.046667352 0.45200002 4278795796
0.054478899 0.046667352 0.45200002 4278664982
0.055946995 0.046667352 0.45200002 4278664984
0.057415091 0.046667352 0.45200002 4278927386
0.05888319 0.046667352 0.45200002 4279519269
0.06035129 0.046667352 0.45200002 4281358143
-0.015260583 0.050585341 0.47500002 4278529042
-0.013660023 0.050372347 0.47300002 4279188771
-0.012072454 0.050159357 0.47100002 4279254564
-0.010497879 0.049946368 0.46900001 4279189793
-0.0089362953 0.049733374 0.46700001 4279452965
-0.0074035903 0.049626879 0.46600002 4279584551
-0.0058647431 0.04941389 0.46400002 4279189793
-0.004348279 0.049307395 0.46300003 4278663447
-0.0028444538 0.049307395 0.46300003 4278729240
-0.0013377335 0.0492009 0.46200001 4279058205
0.00016284335 0.0492009 0.46200001 4278860826
0.0016634201 0.0492009 0.46200001 4278927132
0.0031571484 0.049094405 0.46100003 4278729753
0.0046544774 0.049094405 0.46100003 4278795546
0.0061518066 0.049094405 0.46100003 4278729753
0.0076325419 0.048987906 0.46000001 4278927132
0.0091266232 0.048987906 0.46000001 4278795546
0.010620704 0.048987906 0.46000001 4278927132
0.012114785 0.048987906 0.46000001 4278927132
0.013579281 0.048881412 0.45900002 4278860826
0.015070114 0.048881412 0.45900002 4278992412
0.016560946 0.048881412 0.45900002 4279058205
0.018012451 0.04877492 0.45800003 4279321377
0.019500036 0.04877492 0.45800003 4279517473
0.020941796 0.048668422 0.45700002 4279780645
0.022426134 0.048668422 0.45700002 4279516189
0.023858149 0.048561927 0.45600003 4279055125
0.025339238 0.048561927 0.45600003 4278462990
0.026761509 0.048455428 0.45500001 4278197762
0.028177287 0.048348937 0.45400003 4278196224
0.029651878 0.048348937 0.45400003 4278195456
0.031057913 0.048242439 0.45300001 4278198020
0.032529257 0.048242439 0.45300001 4278726162
0.034000598 0.048242439 0.45300001 4279121433
0.03539364 0.048135944 0.45200002 4279056154
0.036861736 0.048135944 0.45200002 4278991129
0.038329836 0.048135944 0.45200002 4279648289
0.039797932 0.048135944 0.45200002 4279056152
0.041266028 0.048135944 0.45200002 4279187738
0.042734127 0.048135944 0.45200002 4279582496
0.044202223 0.048135944 0.45200002 4279121945
0.045670319 0.048135944 0.45200002 4278860826
0.047138415 0.048135944 0.45200002 4278200327
0.048498977 0.048029449 0.45100003 4278728470
0.049963828 0.048029449 0.45100003 4278993177
0.051428676 0.048029449 0.45100003 4278795796
0.052893527 0.048029449 0.45100003 4278795796
0.054358374 0.048029449 0.45100003 4278927384
0.055946995 0.048135944 0.45200002 4278664982
0.057415091 0.048135944 0.45200002 4278927386
0.05888319 0.048135944 0.45200002 4279190045
0.06035129 0.048135944 0.45200002 4280437043
-0.010497879 0.051470194 0.46900001 4283001687
-0.0089362953 0.051250704 0.46700001 4281555011
-0.0074035903 0.05114096 0.46600002 4279647012
-0.0058647431 0.050921474 0.46400002 4279186459
-0.004348279 0.05081173 0.46300003 4279187740
-0.0028444538 0.05081173 0.46300003 4279385119
-0.0013377335 0.050701983 0.46200001 4279648807
0.00016284335 0.050701983 0.46200001 4279517221
0.0016598196 0.05059224 0.46100003 4279452195
0.0031571484 0.05059224 0.46100003 4279320609
0.0046544774 0.05059224 0.46100003 4279321379
0.0061518066 0.05059224 0.46100003 4279124000
0.0076491348 0.05059224 0.46100003 4278860828
0.0091266232 0.050482493 0.46000001 4279124000
0.010620704 0.050482493 0.46000001 4278992412
0.012114785 0.050482493 0.46000001 4278795033
0.013579281 0.05037275 0.45900002 4278795546
0.015070114 0.05037275 0.45900002 4278795546
0.016560946 0.05037275 0.45900002 4278795546
0.018012451 0.050263006 0.45800003 4278795546
0.019500036 0.050263006 0.45800003 4278729753
0.020941796 0.050153259 0.45700002 4278729753
0.022426134 0.050153259 0.45700002 4278730007
0.023858149 0.050043516 0.45600003 4278795800
0.025283668 0.049933773 0.45500001 4278729494
0.026761509 0.049933773 0.45500001 4278925849
0.028177287 0.049824029 0.45400003 4279123230
0.029651878 0.049824029 0.45400003 4279189023
0.031057913 0.049714282 0.45300001 4279056154
0.032529257 0.049714282 0.45300001 4279187226
0.033925544 0.049604539 0.45200002 4279318558
0.03539364 0.049604539 0.45200002 4279054873
0.036861736 0.049604539 0.45200002 4278198793
0.038329836 0.049604539 0.45200002 4278197765
0.039797932 0.049604539 0.45200002 4278195456
0.041266028 0.049604539 0.45200002 4278195968
0.042734127 0.049604539 0.45200002 4278198537
0.044202223 0.049604539 0.45200002 4278331150
0.045670319 0.049604539 0.45200002 4279055640
0.04703413 0.049494796 0.45100003 4278197504
0.048498977 0.049494796 0.45100003 4278925849
0.049963828 0.049494796 0.45100003 4278730007
0.051428676 0.049494796 0.45100003 4278795798
0.052893527 0.049494796 0.45100003 4278795798
0.054358374 0.049494796 0.45100003 4278927384
0.055823222 0.049494796 0.45100003 4278927384
0.057415091 0.049604539 0.45200002 4278795800
0.05888319 0.049604539 0.45200002 4279189021
0.06035129 0.049604539 0.45200002 4285107581
-0.0058647431 0.052429054 0.46400002 4284447334
-0.004348279 0.052316062 0.46300003 4284249955
-0.0028444538 0.052316062 0.46300003 4284776299
-0.0013377335 0.052203067 0.46200001 4284448618
0.00016284335 0.052203067 0.46200001 4283922274
0.0016598196 0.052090075 0.46100003 4282146376
0.0031571484 0.052090075 0.46100003 4279843621
0.0046544774 0.052090075 0.46100003 4279055388
0.0061518066 0.052090075 0.46100003 4278858523
0.0076491348 0.052090075 0.46100003 4279056672
0.0091266232 0.051977079 0.46000001 4279517223
0.010620704 0.051977079 0.46000001 4279583781
0.012114785 0.051977079 0.46000001 4279583781
0.013579281 0.051864088 0.45900002 4279913516
0.015070114 0.051864088 0.45900002 4279584551
0.016560946 0.051864088 0.45900002 4279518758
0.018012451 0.051751096 0.45800003 4279058720
0.019500036 0.051751096 0.45800003 4278992927
0.020941796 0.0516381 0.45700002 4278992925
0.022377061 0.051525109 0.45600003 4278795800
0.023858149 0.051525109 0.45600003 4278993179
0.025283668 0.051412113 0.45500001 4278730007
0.026702695 0.051299121 0.45400003 4278533144
0.028177287 0.051299121 0.45400003 4278664730
0.029586565 0.051186126 0.45300001 4278533144
0.031057913 0.051186126 0.45300001 4278598167
0.032529257 0.051186126 0.45300001 4278795033
0.033925544 0.051073134 0.45200002 4278860826
0.03539364 0.051073134 0.45200002 4278795033
0.036861736 0.051073134 0.45200002 4278991642
0.038329836 0.051073134 0.45200002 4278991642
0.039797932 0.051073134 0.45200002 4279188508
0.041266028 0.051073134 0.45200002 4279056922
0.042734127 0.051073134 0.45200002 4279582496
0.044202223 0.051073134 0.45200002 4279581982
0.045569282 0.050960138 0.45100003 4279253019
0.04703413 0.050960138 0.45100003 4279253019
0.048498977 0.050960138 0.45100003 4278992414
0.049963828 0.050960138 0.45100003 4278730007
0.051428676 0.050960138 0.45100003 4278928154
0.052893527 0.050960138 0.45100003 4278862361
0.054358374 0.050960138 0.45100003 4278928154
0.055823222 0.050960138 0.45100003 4278796570
0.057415091 0.051073134 0.45200002 4279124511
0.05888319 0.051073134 0.45200002 4278333201
0.0031571484 0.05358791 0.46100003 4284315748
0.0046544774 0.05358791 0.46100003 4284381541
0.0061518066 0.05358791 0.46100003 4284775786
0.0076491348 0.05358791 0.46100003 4285367923
0.0091266232 0.053471666 0.46000001 4285434229
0.010620704 0.053471666 0.46000001 4284974964
0.012114785 0.053471666 0.46000001 4283329885
0.013579281 0.053355426 0.45900002 4281423173
0.015070114 0.053355426 0.45900002 4279713066
0.016560946 0.053355426 0.45900002 4278990111
0.018012451 0.053239185 0.45800003 4279056672
0.019457459 0.053122938 0.45700002 4279451428
0.020941796 0.053122938 0.45700002 4279714600
0.022377061 0.053006697 0.45600003 4279583527
0.023858149 0.053006697 0.45600003 4279583527
0.025283668 0.052890453 0.45500001 4279584297
0.026702695 0.052774213 0.45400003 4279123746
0.028177287 0.052774213 0.45400003 4279123998
0.029586565 0.052657969 0.45300001 4279255584
0.031057913 0.052657969 0.45300001 4279124252
0.032457449 0.052541725 0.45200002 4279124252
0.033925544 0.052541725 0.45200002 4278992666
0.03539364 0.052541725 0.45200002 4279124252
0.036861736 0.052541725 0.45200002 4279058459
0.038329836 0.052541725 0.45200002 4278861080
0.039797932 0.052541725 0.45200002 4278992412
0.041266028 0.052541725 0.45200002 4279058205
0.042734127 0.052541725 0.45200002 4279058205
0.044202223 0.052541725 0.45200002 4279123998
0.045569282 0.052425485 0.45100003 4279123228
0.04703413 0.052425485 0.45100003 4279058205
0.048498977 0.052425485 0.45100003 4278992412
0.049853042 0.052309241 0.45000002 4278927132
0.051428676 0.052425485 0.45100003 4278796316
0.052893527 0.052425485 0.45100003 4278862109
0.054358374 0.052425485 0.45100003 4278927902
0.055823222 0.052425485 0.45100003 4278796316
0.057415091 0.052541725 0.45200002 4279320355
0.05888319 0.052541725 0.45200002 4283265888
0.0031571484 0.055085748 0.46100003 4284512616
0.0046544774 0.055085748 0.46100003 4284446823
0.0061518066 0.055085748 0.46100003 4284578409
0.0076491348 0.055085748 0.46100003 4284841581
0.018012451 0.054727271 0.45800003 4285435515
0.019457459 0.054607779 0.45700002 4285698946
0.020941796 0.054607779 0.45700002 4285369981
0.022377061 0.05448829 0.45600003 4284514926
0.023805827 0.054368794 0.45500001 4282738515
0.025283668 0.054368794 0.45500001 4281555524
0.026702695 0.054249305 0.45400003 4280502582
0.028115222 0.054129809 0.45300001 4279318562
0.029586565 0.054129809 0.45300001 4279055388
0.030989353 0.05401032 0.45200002 4278791955
0.032457449 0.05401032 0.45200002 4279516191
0.033925544 0.05401032 0.45200002 4278924568
0.03539364 0.05401032 0.45200002 4279450912
0.036861736 0.05401032 0.45200002 4279385119
0.038329836 0.05401032 0.45200002 4279385635
0.039797932 0.05401032 0.45200002 4279320357
0.041266028 0.05401032 0.45200002 4279451943
0.042734127 0.05401032 0.45200002 4279583527
0.044104431 0.053890828 0.45100003 4279451941
0.045569282 0.053890828 0.45100003 4279517475
0.04703413 0.053890828 0.45100003 4279649061
0.048391439 0.053771336 0.45000002 4279386402
0.049853042 0.053771336 0.45000002 4279386402
0.051314641 0.053771336 0.45000002 4279452195
0.052893527 0.053890828 0.45100003 4279452195
0.054358374 0.053890828 0.45100003 4279452195
0.055823222 0.053890828 0.45100003 4278662679
0.057288069 0.053890828 0.45100003 4282410068
0.029586565 0.055601653 0.45300001 4283460701
0.030989353 0.055478916 0.45200002 4284118885
0.032457449 0.055478916 0.45200002 4281881923
0.033925544 0.055478916 0.45200002 4283132508
0.03539364 0.055478916 0.45200002 4284119916
0.036861736 0.055478916 0.45200002 4284646258
0.038329836 0.055478916 0.45200002 4285106296
0.039797932 0.055478916 0.45200002 4285040503
0.041266028 0.055478916 0.45200002 4285435261
0.042734127 0.055478916 0.45200002 4284974964
0.048391439 0.05523343 0.45000002 4283199066
0.049853042 0.05523343 0.45000002 4282606929
0.051314641 0.05523343 0.45000002 4281949769
0.052776244 0.05523343 0.45000002 4282015560
0.054358374 0.055356175 0.45100003 4283660646
0.055823222 0.055356175 0.45100003 4285699465
0.019063804 0.04491587 0.45983371 4294967295
0.019063804 0.04491587 0.45983371 4294901760
0.019097863 0.044418253 0.45979881 4294901760
0.019131921 0.043920636 0.45976394 4294901760
0.01916598 0.043423019 0.45972905 4294901760
0.019200038 0.042925403 0.45969415 4294901760
0.019234097 0.042427786 0.45965928 4294901760
0.019268155 0.041930169 0.45962438 4294901760
0.019302214 0.041432552 0.45958948 4294901760
0.019336272 0.040934935 0.45955461 4294901760
0.01937033 0.040437315 0.45951971 4294901760
0.019404389 0.039939698 0.45948482 4294901760
0.019438447 0.039442081 0.45944995 4294901760
0.019472506 0.038944464 0.45941505 4294901760
0.019506564 0.038446847 0.45938015 4294901760
0.019540623 0.037949231 0.45934525 4294901760
0.019574681 0.037451614 0.45931038 4294901760
0.01960874 0.036953997 0.45927548 4294901760
0.019642798 0.03645638 0.45924059 4294901760
0.019676857 0.035958763 0.45920572 4294901760
0.019710915 0.035461146 0.45917082 4294901760
0.019744974 0.034963526 0.45913592 4294901760
0.019779032 0.034465909 0.45910105 4294901760
0.019813091 0.033968292 0.45906615 4294901760
0.019847149 0.033470675 0.45903125 4294901760
0.019881207 0.032973059 0.45899639 4294901760
0.019915266 0.032475442 0.45896149 4294901760
0.019949324 0.031977825 0.45892659 4294901760
0.019983383 0.031480208 0.45889172 4294901760
0.020017441 0.030982591 0.45885682 4294901760
0.0200515 0.030484974 0.45882192 4294901760
0.020085558 0.029987358 0.45878705 4294901760
0.020119617 0.029489741 0.45875216 4294901760
0.020153675 0.028992124 0.45871726 4294901760
0.020187734 0.028494505 0.45868239 4294901760
0.020221792 0.027996888 0.45864749 4294901760
0.020255851 0.027499272 0.45861259 4294901760
0.020289909 0.027001655 0.45857772 4294901760
0.020323968 0.026504038 0.45854282 4294901760
0.020358026 0.026006421 0.45850793 4294901760
0.020392084 0.025508804 0.45847303 4294901760
0.020426143 0.025011186 0.45843816 4294901760
0.020460201 0.024513569 0.45840326 4294901760
0.02049426 0.024015952 0.45836836 4294901760
0.020528318 0.023518335 0.45833349 4294901760
0.020562377 0.023020718 0.45829859 4294901760
0.020596435 0.022523101 0.4582637 4294901760
0.020630494 0.022025483 0.45822883 4294901760
0.020664552 0.021527866 0.45819393 4294901760
0.020698611 0.021030251 0.45815903 4294901760
0.020732671 0.020532632 0.45812416 4294901760
0.020766728 0.020035015 0.45808926 4294901760
0.020800788 0.019537399 0.45805436 4294901760
0.020834845 0.019039782 0.4580195 4294901760
0.020868905 0.018542165 0.4579846 4294901760
0.020902963 0.018044546 0.4579497 4294901760
0.020937022 0.017546929 0.45791483 4294901760
0.02097108 0.017049313 0.45787993 4294901760
0.021005139 0.016551696 0.45784503 4294901760
0.021039195 0.016054079 0.45781016 4294901760
0.021073256 0.015556462 0.45777526 4294901760
0.021107314 0.015058843 0.45774037 4294901760
0.021141373 0.014561227 0.4577055 4294901760
0.021175431 0.01406361 0.4576706 4294901760
0.02120949 0.013565995 0.4576357 4294901760
0.021243548 0.013068378 0.4576008 4294901760
0.021277606 0.012570761 0.45756593 4294901760
0.021311665 0.012073141 0.45753103 4294901760
0.021345723 0.011575524 0.45749614 4294901760
0.021379782 0.011077907 0.45746127 4294901760
0.02141384 0.01058029 0.45742637 4294901760
0.021447899 0.010082673 0.45739147 4294901760
0.021481957 0.0095850565 0.4573566 4294901760
0.021516016 0.0090874396 0.4573217 4294901760
0.021550074 0.0085898228 0.4572868 4294901760
0.021584133 0.008092206 0.45725194 4294901760
0.021618191 0.0075945891 0.45721704 4294901760
0.02165225 0.0070969723 0.45718214 4294901760
0.021686308 0.0065993555 0.45714727 4294901760
0.021720367 0.0061017387 0.45711237 4294901760
0.021754425 0.0056041181 0.45707747 4294901760
0.021788483 0.0051065013 0.4570426 4294901760
0.021822542 0.0046088845 0.45700771 4294901760
0.0218566 0.0041112676 0.45697281 4294901760
0.021890659 0.0036136508 0.45693794 4294901760
0.021924717 0.003116034 0.45690304 4294901760
0.021958776 0.0026184171 0.45686814 4294901760
0.021992834 0.0021208003 0.45683327 4294901760
0.022026893 0.0016231835 0.45679837 4294901760
0.022060951 0.0011255667 0.45676348 4294901760
0.02209501 0.00062794983 0.45672858 4294901760
0.022129068 0.00013033301 0.45669371 4294901760
0.022163127 -0.00036728755 0.45665881 4294901760
0.022197185 -0.00086490437 0.45662391 4294901760
0.022231244 -0.0013625212 0.45658904 4294901760
0.022265302 -0.001860138 0.45655414 4294901760
0.02229936 -0.0023577511 0.45651925 4294901760
0.022333419 -0.002855368 0.45648438 4294901760
0.022367477 -0.0033529885 0.45644948 4294901760
0.022401536 -0.0038506053 0.45641458 4294901760
0.022435594 -0.0043482222 0.45637971 4294901760
0.022469653 -0.004845839 0.45634481 4294901760
0.019063804 0.04491587 0.45983371 4278255360
0.019526003 0.044960503 0.45964828 4278255360
0.019988202 0.045005139 0.45946288 4278255360
0.0204504 0.045049772 0.45927745 4278255360
0.020912599 0.045094408 0.45909205 4278255360
0.021374797 0.045139041 0.45890662 4278255360
0.021836996 0.045183677 0.45872119 4278255360
0.022299195 0.04522831 0.45853579 4278255360
0.022761393 0.045272946 0.45835036 4278255360
0.023223592 0.045317579 0.45816493 4278255360
0.023685791 0.045362215 0.45797953 4278255360
0.024147989 0.045406848 0.4577941 4278255360
0.024610188 0.045451485 0.4576087 4278255360
0.025072386 0.045496117 0.45742327 4278255360
0.025534585 0.045540754 0.45723784 4278255360
0.025996786 0.045585386 0.45705244 4278255360
0.026458982 0.045630023 0.45686701 4278255360
0.026921183 0.045674656 0.45668158 4278255360
0.02738338 0.045719292 0.45649618 4278255360
0.02784558 0.045763925 0.45631075 4278255360
0.028307777 0.045808561 0.45612535 4278255360
0.028769977 0.045853194 0.45593992 4278255360
0.029232174 0.04589783 0.45575449 4278255360
0.029694375 0.045942463 0.45556909 4278255360
0.030156571 0.045987099 0.45538366 4278255360
0.030618772 0.046031732 0.45519823 4278255360
0.031080969 0.046076365 0.45501283 4278255360
0.031543169 0.046121001 0.4548274 4278255360
0.032005366 0.046165634 0.454642 4278255360
0.032467566 0.04621027 0.45445657 4278255360
0.032929763 0.046254903 0.45427114 4278255360
0.033391964 0.04629954 0.45408574 4278255360
0.03385416 0.046344172 0.45390031 4278255360
0.034316361 0.046388809 0.45371491 4278255360
0.034778558 0.046433441 0.45352948 4278255360
0.035240758 0.046478078 0.45334405 4278255360
0.035702959 0.04652271 0.45315865 4278255360
0.036165155 0.046567347 0.45297322 4278255360
0.036627352 0.04661198 0.45278779 4278255360
0.037089549 0.046656616 0.45260239 4278255360
0.037551753 0.046701249 0.45241696 4278255360
0.03801395 0.046745885 0.45223156 4278255360
0.038476147 0.046790518 0.45204613 4278255360
0.038938347 0.046835154 0.4518607 4278255360
0.039400548 0.046879787 0.4516753 4278255360
0.039862745 0.046924423 0.45148987 4278255360
0.040324941 0.046969056 0.45130444 4278255360
0.040787142 0.047013693 0.45111904 4278255360
0.041249342 0.047058325 0.45093361 4278255360
0.041711539 0.047102962 0.45074821 4278255360
0.042173736 0.047147594 0.45056278 4278255360
0.042635936 0.047192227 0.45037735 4278255360
0.043098137 0.047236864 0.45019194 4278255360
0.043560334 0.047281496 0.45000651 4278255360
0.044022534 0.047326133 0.44982111 4278255360
0.044484731 0.047370765 0.44963568 4278255360
0.044946931 0.047415402 0.44945025 4278255360
0.045409128 0.047460034 0.44926485 4278255360
0.045871325 0.047504671 0.44907942 4278255360
0.046333525 0.047549304 0.44889399 4278255360
0.046795726 0.04759394 0.44870859 4278255360
0.047257923 0.047638573 0.44852316 4278255360
0.047720119 0.047683209 0.44833776 4278255360
0.04818232 0.047727842 0.44815233 4278255360
0.04864452 0.047772478 0.4479669 4278255360
0.049106717 0.047817111 0.4477815 4278255360
0.049568918 0.047861747 0.44759607 4278255360
0.050031118 0.04790638 0.44741064 4278255360
0.050493315 0.047951017 0.44722524 4278255360
0.050955512 0.047995649 0.44703981 4278255360
0.051417712 0.048040286 0.44685441 4278255360
0.051879909 0.048084918 0.44666898 4278255360
0.052342109 0.048129555 0.44648355 4278255360
0.052804306 0.048174188 0.44629815 4278255360
0.053266507 0.048218824 0.44611272 4278255360
0.053728703 0.048263457 0.44592732 4278255360
0.054190904 0.048308089 0.44574189 4278255360
0.054653101 0.048352726 0.44555646 4278255360
0.055115297 0.048397359 0.44537106 4278255360
0.055577502 0.048441995 0.44518563 4278255360
0.056039698 0.048486628 0.4450002 4278255360
0.056501895 0.048531264 0.4448148 4278255360
0.056964096 0.048575897 0.44462937 4278255360
0.057426292 0.048620533 0.44444397 4278255360
0.057888493 0.048665166 0.44425854 4278255360
0.058350693 0.048709802 0.44407311 4278255360
0.05881289 0.048754435 0.44388771 4278255360
0.059275087 0.048799071 0.44370228 4278255360
0.059737287 0.048843704 0.44351685 4278255360
0.060199484 0.048888341 0.44333145 4278255360
0.060661685 0.048932973 0.44314602 4278255360
0.061123885 0.04897761 0.44296062 4278255360
0.061586082 0.049022242 0.44277519 4278255360
0.062048282 0.049066879 0.44258976 4278255360
0.062510476 0.049111512 0.44240436 4278255360
0.06297268 0.049156148 0.44221893 4278255360
0.063434877 0.049200781 0.44203353 4278255360
0.063897073 0.049245417 0.4418481 4278255360
0.064359277 0.04929005 0.44166267 4278255360
0.064821474 0.049334683 0.44147727 4278255360
0.065283671 0.049379319 0.44129184 4278255360
0.019063804 0.04491587 0.45983371 4278190335
0.019193208 0.04489091 0.46031603 4278190335
0.019322613 0.044865951 0.46079835 4278190335
0.019452017 0.044840991 0.46128067 4278190335
0.01958142 0.044816032 0.46176299 4278190335
0.019710824 0.044791073 0.46224532 4278190335
0.019840229 0.044766113 0.46272764 4278190335
0.019969633 0.044741154 0.46320996 4278190335
0.020099036 0.044716191 0.46369228 4278190335
0.020228442 0.044691231 0.4641746 4278190335
0.020357845 0.044666272 0.46465689 4278190335
0.020487249 0.044641312 0.46513921 4278190335
0.020616654 0.044616353 0.46562153 4278190335
0.020746058 0.044591393 0.46610385 4278190335
0.020875461 0.044566434 0.46658617 4278190335
0.021004867 0.044541474 0.46706849 4278190335
0.02113427 0.044516515 0.46755081 4278190335
0.021263674 0.044491556 0.46803313 4278190335
0.021393079 0.044466596 0.46851546 4278190335
0.021522483 0.044441637 0.46899778 4278190335
0.021651886 0.044416677 0.4694801 4278190335
0.02178129 0.044391718 0.46996242 4278190335
0.021910695 0.044366755 0.47044474 4278190335
0.022040099 0.044341795 0.47092706 4278190335
0.022169502 0.044316836 0.47140938 4278190335
0.022298906 0.044291876 0.4718917 4278190335
0.022428311 0.044266917 0.47237402 4278190335
0.022557715 0.044241957 0.47285634 4278190335
0.022687119 0.044216998 0.47333866 4278190335
0.022816524 0.044192038 0.47382098 4278190335
0.022945927 0.044167079 0.47430331 4278190335
0.023075331 0.04414212 0.4747856 4278190335
0.023204736 0.04411716 0.47526792 4278190335
0.02333414 0.044092201 0.47575024 4278190335
0.023463544 0.044067241 0.47623256 4278190335
0.023592949 0.044042282 0.47671488 4278190335
0.023722352 0.044017319 0.4771972 4278190335
0.023851756 0.043992359 0.47767952 4278190335
0.02398116 0.0439674 0.47816184 4278190335
0.024110563 0.04394244 0.47864416 4278190335
0.024239969 0.043917481 0.47912648 4278190335
0.024369372 0.043892521 0.4796088 4278190335
0.024498776 0.043867562 0.48009112 4278190335
0.024628181 0.043842603 0.48057345 4278190335
0.024757585 0.043817643 0.48105577 4278190335
0.024886988 0.043792684 0.48153809 4278190335
0.025016394 0.043767724 0.48202041 4278190335
0.025145797 0.043742765 0.48250273 4278190335
0.025275201 0.043717805 0.48298505 4278190335
0.025404606 0.043692846 0.48346737 4278190335
0.02553401 0.043667883 0.48394966 4278190335
0.025663413 0.043642923 0.48443198 4278190335
0.025792819 0.043617964 0.4849143 4278190335
0.025922222 0.043593004 0.48539662 4278190335
0.026051626 0.043568045 0.48587894 4278190335
0.026181031 0.043543085 0.48636127 4278190335
0.026310435 0.043518126 0.48684359 4278190335
0.026439838 0.043493167 0.48732591 4278190335
0.026569242 0.043468207 0.48780823 4278190335
0.026698645 0.043443248 0.48829055 4278190335
0.026828051 0.043418288 0.48877287 4278190335
0.026957456 0.043393329 0.48925519 4278190335
0.027086858 0.043368369 0.48973751 4278190335
0.027216263 0.04334341 0.49021983 4278190335
0.027345667 0.04331845 0.49070215 4278190335
0.02747507 0.043293487 0.49118447 4278190335
0.027604476 0.043268528 0.49166679 4278190335
0.027733879 0.043243568 0.49214911 4278190335
0.027863283 0.043218609 0.49263144 4278190335
0.027992688 0.04319365 0.49311376 4278190335
0.028122092 0.04316869 0.49359608 4278190335
0.028251495 0.043143731 0.49407837 4278190335
0.028380901 0.043118771 0.49456072 4278190335
0.028510304 0.043093812 0.49504301 4278190335
0.028639708 0.043068852 0.49552533 4278190335
0.028769113 0.043043893 0.49600765 4278190335
0.028898515 0.043018933 0.49648997 4278190335
0.02902792 0.042993974 0.49697229 4278190335
0.029157324 0.042969014 0.49745461 4278190335
0.029286729 0.042944051 0.49793693 4278190335
0.029416133 0.042919092 0.49841926 4278190335
0.029545538 0.042894132 0.49890158 4278190335
0.02967494 0.042869173 0.4993839 4278190335
0.029804345 0.042844214 0.49986622 4278190335
0.029933749 0.042819254 0.50034851 4278190335
0.030063152 0.042794295 0.50083083 4278190335
0.030192558 0.042769335 0.50131315 4278190335
0.030321961 0.042744376 0.50179547 4278190335
0.030451365 0.042719416 0.50227779 4278190335
0.03058077 0.042694457 0.50276011 4278190335
0.030710174 0.042669497 0.50324243 4278190335
0.030839577 0.042644538 0.50372475 4278190335
0.030968983 0.042619579 0.50420707 4278190335
0.031098386 0.042594619 0.5046894 4278190335
0.03122779 0.042569656 0.50517172 4278190335
0.031357195 0.042544696 0.50565404 4278190335
0.031486597 0.042519737 0.50613636 4278190335
0.031616002 0.042494778 0.50661868 4278190335
0.031745408 0.042469818 0.507101 4278190335
0.031874813 0.042444859 0.50758332 4278190335
0.032004215 0.042419899 0.50806564 4278190335
0.019063804 0.04491587 0.45983371 4294967295
0.018287379 0.045065627 0.45693979 4294967295
0.017510954 0.045215387 0.45404589 4294967295
0.016734531 0.045365144 0.45115197 4294967295
0.015958106 0.045514904 0.44825804 4294967295
0.015181681 0.045664661 0.44536415 4294967295
0.014405257 0.045814421 0.44247022 4294967295
0.013628833 0.045964178 0.4395763 4294967295
0.012852408 0.046113934 0.4366824 4294967295
0.012075983 0.046263695 0.43378848 4294967295
0.011299558 0.046413451 0.43089455 4294967295
0.010523134 0.046563212 0.42800066 4294967295
0.0097467098 0.046712968 0.42510673 4294967295
0.0089702858 0.046862725 0.42221284 4294967295
0.0081938608 0.047012486 0.41931891 4294967295
0.0074174358 0.047162242 0.41642499 4294967295
0.0066410117 0.047312003 0.41353109 4294967295
0.0058645867 0.047461759 0.41063717 4294967295
0.0050881617 0.04761152 0.40774325 4294967295
0.0043117376 0.047761276 0.40484935 4294967295
0.0035353126 0.047911033 0.40195543 4294967295
0.0027588885 0.048060793 0.3990615 4294967295
0.0019824635 0.04821055 0.39616761 4294967295
0.0012060385 0.04836031 0.39327368 4294967295
0.00042961538 0.048510067 0.39037979 4294967295
-0.00034680963 0.048659824 0.38748586 4294967295
-0.0011232328 0.048809584 0.38459194 4294967295
-0.0018996596 0.048959341 0.38169801 4294967295
-0.0026760828 0.049109101 0.37880412 4294967295
-0.0034525078 0.049258858 0.37591019 4294967295
-0.0042289328 0.049408618 0.3730163 4294967295
-0.0050053578 0.049558375 0.37012237 4294967295
-0.0057817809 0.049708132 0.36722845 4294967295
-0.0065582078 0.049857892 0.36433452 4294967295
-0.0073346309 0.050007649 0.36144063 4294967295
-0.0081110541 0.050157409 0.3585467 4294967295
-0.0088874809 0.050307166 0.35565281 4294967295
-0.0096639041 0.050456926 0.35275888 4294967295
-0.010440329 0.050606683 0.34986496 4294967295
-0.011216752 0.05075644 0.34697106 4294967295
-0.011993179 0.0509062 0.34407714 4294967295
-0.012769602 0.051055957 0.34118325 4294967295
-0.013546027 0.051205717 0.33828932 4294967295
-0.014322452 0.051355474 0.3353954 4294967295
-0.015098877 0.05150523 0.33250147 4294967295
-0.015875299 0.051654991 0.32960758 4294967295
