# .PCD v0.7 - Point Cloud Data file format
VERSION 0.7
FIELDS x y z rgb
SIZE 4 4 4 4
TYPE F F F U
COUNT 1 1 1 1
WIDTH 879
HEIGHT 1
VIEWPOINT 0 0 0 1 0 0 0
POINTS 879
DATA ascii
0.062660545 0.056930527 0.33200002 4280954659
0.063738875 0.056930527 0.33200002 4281614640
0.061582208 0.05800923 0.33200002 4280757282
0.062660545 0.05800923 0.33200002 4280757282
0.063738875 0.05800923 0.33200002 4282404410
0.06481722 0.05800923 0.33200002 4282339130
0.065895557 0.05800923 0.33200002 4280238370
0.06050387 0.059087936 0.33200002 4281152040
0.061582208 0.059087936 0.33200002 4281217833
0.062660545 0.059087936 0.33200002 4281087017
0.063738875 0.059087936 0.33200002 4281483567
0.06481722 0.059087936 0.33200002 4281221931
0.065895557 0.059087936 0.33200002 4280108578
0.06050387 0.060166635 0.33200002 4281218862
0.061582208 0.060166635 0.33200002 4281284394
0.062660545 0.060166635 0.33200002 4281350700
0.063738875 0.060166635 0.33200002 4281024552
0.06481722 0.060166635 0.33200002 4280303393
0.06050387 0.061245337 0.33200002 4281153069
0.061582208 0.061245337 0.33200002 4281153069
0.062660545 0.061245337 0.33200002 4280890921
0.063738875 0.061245337 0.33200002 4280434725
0.06481722 0.061245337 0.33200002 4279976994
0.066094033 0.06142981 0.333 4279649822
0.06050387 0.06232404 0.33200002 4281218862
0.061582208 0.06232404 0.33200002 4281220399
0.062660545 0.06232404 0.33200002 4280826921
0.063738875 0.06232404 0.33200002 4279648541
0.06481722 0.06232404 0.33200002 4279584031
0.066094033 0.062511757 0.333 4279190041
0.06050387 0.063402742 0.33200002 4281613620
0.061582208 0.063402742 0.33200002 4281089325
0.062660545 0.063402742 0.33200002 4280434211
0.063738875 0.063402742 0.33200002 4279452697
0.06481722 0.063402742 0.33200002 4279190295
0.066094033 0.063593708 0.333 4279453213
0.059425537 0.064481445 0.33200002 4284508764
0.06050387 0.064481445 0.33200002 4281483058
0.061582208 0.064481445 0.33200002 4280959020
0.062660545 0.064481445 0.33200002 4280173090
0.063738875 0.064481445 0.33200002 4279321881
0.06481722 0.064481445 0.33200002 4279190808
0.060321633 0.065362677 0.33100003 4280957737
0.061396722 0.065362677 0.33100003 4280566313
0.062471811 0.065362677 0.33100003 4279780129
0.063546896 0.065362677 0.33100003 4279190556
0.064621985 0.065362677 0.33100003 4279914277
0.059067551 0.066237405 0.33000001 4280431393
0.060321633 0.066438131 0.33100003 4280959790
0.061396722 0.066438131 0.33100003 4281159218
0.062471811 0.066438131 0.33100003 4279582750
0.063546896 0.066438131 0.33100003 4279256351
0.06442675 0.066237405 0.33000001 4279256349
0.059067551 0.067309611 0.33000001 4280827688
0.060139388 0.067309611 0.33000001 4281947452
0.061211228 0.067309611 0.33000001 4281093425
0.062283073 0.067309611 0.33000001 4279779613
0.063354909 0.067309611 0.33000001 4279256347
0.06442675 0.067309611 0.33000001 4279519519
0.060139388 0.068381809 0.33000001 4282014011
0.061211228 0.068381809 0.33000001 4280501542
0.062283073 0.068381809 0.33000001 4280108576
0.063354909 0.068381809 0.33000001 4279585564
0.06442675 0.068381809 0.33000001 4279519773
0.060139388 0.069454014 0.33000001 4280763942
0.061211228 0.069454014 0.33000001 4280567848
0.062283073 0.069454014 0.33000001 4280043297
0.063354909 0.069454014 0.33000001 4279388957
0.064231522 0.06924355 0.32900003 4279718436
0.065300114 0.06924355 0.32900003 4278927636
0.066368707 0.06924355 0.32900003 4279584029
0.060139388 0.070526227 0.33000001 4280829485
0.061211228 0.070526227 0.33000001 4281160755
0.062283073 0.070526227 0.33000001 4280898094
0.063162923 0.070312507 0.32900003 4280046117
0.064231522 0.070312507 0.32900003 4279125785
0.065300114 0.070312507 0.32900003 4285571964
0.066368707 0.070312507 0.32900003 4279451932
0.067232318 0.070098795 0.32800001 4279845918
0.068297662 0.070098795 0.32800001 4280239649
0.059246548 0.071815394 0.33100003 4280762665
0.060139388 0.071598426 0.33000001 4282013245
0.061211228 0.071598426 0.33000001 4281621052
0.062283073 0.071598426 0.33000001 4281555513
0.063162923 0.071381465 0.32900003 4280373547
0.064231522 0.071381465 0.32900003 4279782178
0.065300114 0.071381465 0.32900003 4280440108
0.066368707 0.071381465 0.32900003 4281492030
0.067437299 0.071381465 0.32900003 4279320859
0.068505891 0.071381465 0.32900003 4279451932
0.069574483 0.071381465 0.32900003 4279779613
0.070643075 0.071381465 0.32900003 4279778330
0.059246548 0.072890848 0.33100003 4282276156
0.060139388 0.072670631 0.33000001 4282408255
0.061211228 0.072670631 0.33000001 4282212160
0.062283073 0.072670631 0.33000001 4281883708
0.063354909 0.072670631 0.33000001 4281621817
0.064231522 0.072450422 0.32900003 4280241448
0.065300114 0.072450422 0.32900003 4279716387
0.066368707 0.072450422 0.32900003 4283532381
0.067437299 0.072450422 0.32900003 4280571698
0.068505891 0.072450422 0.32900003 4279650596
0.069574483 0.072450422 0.32900003 4279321629
0.070643075 0.072450422 0.32900003 4279584801
0.071711667 0.072450422 0.32900003 4279715104
0.072780266 0.072450422 0.32900003 4280108576
0.059246548 0.073966302 0.33100003 4282538558
0.060139388 0.073742829 0.33000001 4282079804
0.061211228 0.073742829 0.33000001 4281948988
0.062283073 0.073742829 0.33000001 4282146367
0.063354909 0.073742829 0.33000001 4282081087
0.064231522 0.073519371 0.32900003 4281817915
0.065300114 0.073519371 0.32900003 4281359161
0.066368707 0.073519371 0.32900003 4280176168
0.067437299 0.073519371 0.32900003 4279125531
0.068505891 0.073519371 0.32900003 4279717670
0.069574483 0.073519371 0.32900003 4279520291
0.070643075 0.073519371 0.32900003 4279257119
0.071711667 0.073519371 0.32900003 4279190554
0.072780266 0.073519371 0.32900003 4279453726
0.073848851 0.073519371 0.32900003 4279781408
0.074917451 0.073519371 0.32900003 4279911711
0.075986043 0.073519371 0.32900003 4280435745
0.059246548 0.075041756 0.33100003 4283260744
0.060321633 0.075041756 0.33100003 4282474048
0.061211228 0.074815035 0.33000001 4282343746
0.062283073 0.074815035 0.33000001 4282277953
0.063354909 0.074815035 0.33000001 4282212673
0.06442675 0.074815035 0.33000001 4282081087
0.065300114 0.074588329 0.32900003 4281884478
0.066368707 0.074588329 0.32900003 4281227573
0.067437299 0.074588329 0.32900003 4280374317
0.068505891 0.074588329 0.32900003 4278927384
0.069574483 0.074588329 0.32900003 4279454498
0.070643075 0.074588329 0.32900003 4279520291
0.071711667 0.074588329 0.32900003 4279322912
0.072780266 0.074588329 0.32900003 4279257117
0.073848851 0.074588329 0.32900003 4279387933
0.074917451 0.074588329 0.32900003 4279453213
0.075986043 0.074588329 0.32900003 4279517723
0.077288836 0.074815035 0.33000001 4279845918
0.078360677 0.074815035 0.33000001 4280502821
0.079432517 0.074815035 0.33000001 4280172575
0.060321633 0.076117203 0.33100003 4282866756
0.061211228 0.07588724 0.33000001 4282409539
0.062283073 0.07588724 0.33000001 4282212673
0.063354909 0.07588724 0.33000001 4282212673
0.06442675 0.07588724 0.33000001 4282081087
0.06549859 0.07588724 0.33000001 4281884478
0.066368707 0.075657278 0.32900003 4281752892
0.067437299 0.075657278 0.32900003 4281358132
0.068505891 0.075657278 0.32900003 4281292852
0.069574483 0.075657278 0.32900003 4280242731
0.070643075 0.075657278 0.32900003 4279519521
0.071711667 0.075657278 0.32900003 4279388703
0.072780266 0.075657278 0.32900003 4279388957
0.073848851 0.075657278 0.32900003 4279717152
0.075145155 0.07588724 0.33000001 4279585566
0.076216996 0.07588724 0.33000001 4279519773
0.077288836 0.07588724 0.33000001 4279453980
0.078360677 0.07588724 0.33000001 4279321881
0.079432517 0.07588724 0.33000001 4279650076
0.080504358 0.07588724 0.33000001 4279780895
0.081576198 0.07588724 0.33000001 4279911711
0.061211228 0.076959446 0.33000001 4282868552
0.062283073 0.076959446 0.33000001 4282146113
0.063354909 0.076959446 0.33000001 4282015294
0.06442675 0.076959446 0.33000001 4281883708
0.06549859 0.076959446 0.33000001 4281621306
0.066570431 0.076959446 0.33000001 4281489720
0.067642272 0.076959446 0.33000001 4281752118
0.068505891 0.076726235 0.32900003 4281752118
0.069574483 0.076726235 0.32900003 4281161778
0.070857793 0.076959446 0.33000001 4280832815
0.071929634 0.076959446 0.33000001 4280570413
0.073001474 0.076959446 0.33000001 4280044580
0.074073315 0.076959446 0.33000001 4279519773
0.075145155 0.076959446 0.33000001 4279323164
0.076216996 0.076959446 0.33000001 4279323164
0.077288836 0.076959446 0.33000001 4279454750
0.078360677 0.076959446 0.33000001 4279519773
0.079432517 0.076959446 0.33000001 4279190808
0.080504358 0.076959446 0.33000001 4279387933
0.081576198 0.076959446 0.33000001 4279256347
0.082648039 0.076959446 0.33000001 4279715615
0.083719879 0.076959446 0.33000001 4279715102
0.08479172 0.076959446 0.33000001 4280304672
0.08586356 0.076959446 0.33000001 4279842324
0.062283073 0.078031644 0.33000001 4282539074
0.063354909 0.078031644 0.33000001 4282015294
0.06442675 0.078031644 0.33000001 4281687099
0.06549859 0.078031644 0.33000001 4281752892
0.066570431 0.078031644 0.33000001 4281621304
0.067642272 0.078031644 0.33000001 4281555509
0.068714112 0.078031644 0.33000001 4281489716
0.069785953 0.078031644 0.33000001 4281423925
0.070857793 0.078031644 0.33000001 4281358132
0.071929634 0.078031644 0.33000001 4281029680
0.073001474 0.078031644 0.33000001 4281161266
0.074073315 0.078031644 0.33000001 4280570926
0.075145155 0.078031644 0.33000001 4280241961
0.076216996 0.078031644 0.33000001 4279650592
0.077288836 0.078031644 0.33000001 4279585312
0.078123227 0.077795193 0.32900003 4279585566
0.079191819 0.077795193 0.32900003 4279388957
0.080260411 0.077795193 0.32900003 4279125531
0.081329003 0.077795193 0.32900003 4279322912
0.082397588 0.077795193 0.32900003 4279256349
0.083719879 0.078031644 0.33000001 4279387933
0.08479172 0.078031644 0.33000001 4279519006
0.08586356 0.078031644 0.33000001 4279846688
0.086935401 0.078031644 0.33000001 4280304672
0.088007249 0.078031644 0.33000001 4280303389
0.063354909 0.07910385 0.33000001 4282999109
0.06442675 0.07910385 0.33000001 4282276929
0.06549859 0.07910385 0.33000001 4282015294
0.066570431 0.07910385 0.33000001 4281883706
0.067642272 0.07910385 0.33000001 4281621304
0.068714112 0.07910385 0.33000001 4281621304
0.069785953 0.07910385 0.33000001 4281686327
0.070857793 0.07910385 0.33000001 4281488948
0.071929634 0.07910385 0.33000001 4281226546
0.073001474 0.07910385 0.33000001 4281423925
0.074073315 0.07910385 0.33000001 4281226546
0.075145155 0.07910385 0.33000001 4281358132
0.076216996 0.07910385 0.33000001 4280701229
0.077054627 0.07886415 0.32900003 4280307241
0.078123227 0.07886415 0.32900003 4279913764
0.079191819 0.07886415 0.32900003 4279519006
0.080260411 0.07886415 0.32900003 4279585566
0.081329003 0.07886415 0.32900003 4279388957
0.082397588 0.07886415 0.32900003 4279388957
0.083466187 0.07886415 0.32900003 4279387933
0.084534779 0.07886415 0.32900003 4279124761
0.085603371 0.07886415 0.32900003 4279125015
0.086671971 0.07886415 0.32900003 4279715356
0.087740563 0.07886415 0.32900003 4279715356
0.088539213 0.078624435 0.32800001 4280108576
0.089604549 0.078624435 0.32800001 4280370465
0.063354909 0.080176055 0.33000001 4285036130
0.06442675 0.080176055 0.33000001 4285497194
0.06549859 0.080176055 0.33000001 4284051545
0.066570431 0.080176055 0.33000001 4282473281
0.067642272 0.080176055 0.33000001 4281883195
0.068714112 0.080176055 0.33000001 4281620023
0.069785953 0.080176055 0.33000001 4281817402
0.070857793 0.080176055 0.33000001 4281554743
0.071929634 0.080176055 0.33000001 4281488948
0.073001474 0.080176055 0.33000001 4281554741
0.074073315 0.080176055 0.33000001 4281488948
0.075145155 0.080176055 0.33000001 4281356849
0.076216996 0.080176055 0.33000001 4279777565
0.077054627 0.079933099 0.32900003 4280634670
0.078123227 0.079933099 0.32900003 4280636206
0.079191819 0.079933099 0.32900003 4280570924
0.080260411 0.079933099 0.32900003 4280111656
0.081329003 0.079933099 0.32900003 4279585312
0.082397588 0.079933099 0.32900003 4279322910
0.083466187 0.079933099 0.32900003 4279454496
0.084534779 0.079933099 0.32900003 4279519519
0.085343175 0.079690143 0.32800001 4279453726
0.086408526 0.079690143 0.32800001 4279519773
0.087473869 0.079690143 0.32800001 4279388187
0.088539213 0.079690143 0.32800001 4279190295
0.089604549 0.079690143 0.32800001 4279715869
0.090393469 0.079447187 0.32700002 4279977504
0.091455564 0.079447187 0.32700002 4280173856
0.092517667 0.079447187 0.32700002 4280171803
0.067642272 0.081248261 0.33000001 4284708962
0.068714112 0.081248261 0.33000001 4282407490
0.069785953 0.081248261 0.33000001 4282013757
0.070857793 0.081248261 0.33000001 4282079804
0.071929634 0.081248261 0.33000001 4282014009
0.073001474 0.081248261 0.33000001 4281750837
0.074073315 0.081248261 0.33000001 4281685044
0.075145155 0.081248261 0.33000001 4281092909
0.076216996 0.081248261 0.33000001 4280235038
0.077054627 0.081002057 0.32900003 4280960296
0.078123227 0.081002057 0.32900003 4281160755
0.079191819 0.081002057 0.32900003 4281292854
0.080016449 0.080755845 0.32800001 4280964403
0.0810818 0.080755845 0.32800001 4280832815
0.082147136 0.080755845 0.32800001 4280570411
0.083212487 0.080755845 0.32800001 4280175907
0.084277831 0.080755845 0.32800001 4279781660
0.085343175 0.080755845 0.32800001 4279650844
0.086145088 0.08050964 0.32700002 4279453980
0.087207183 0.08050964 0.32700002 4279190808
0.088269278 0.08050964 0.32700002 4279321881
0.089331366 0.08050964 0.32700002 4279453467
0.09011703 0.080263428 0.32600001 4279453467
0.091175877 0.080263428 0.32600001 4279452697
0.092517667 0.08050964 0.32700002 4279977758
0.093579762 0.08050964 0.32700002 4279977758
0.094641857 0.08050964 0.32700002 4280435747
0.069785953 0.082320467 0.33000001 4285168229
0.070857793 0.082320467 0.33000001 4283128644
0.071929634 0.082320467 0.33000001 4282604351
0.073001474 0.082320467 0.33000001 4281684019
0.074073315 0.082320467 0.33000001 4281420847
0.075145155 0.082320467 0.33000001 4280957991
0.076216996 0.082320467 0.33000001 4282012214
0.077054627 0.082071014 0.32900003 4281881909
0.078123227 0.082071014 0.32900003 4281225774
0.078951113 0.081821553 0.32800001 4281225776
0.080016449 0.081821553 0.32800001 4280567848
0.0810818 0.081821553 0.32800001 4281225778
0.081896693 0.081572101 0.32700002 4280897579
0.082958788 0.081572101 0.32700002 4280964139
0.08402089 0.081572101 0.32700002 4280504100
0.085082985 0.081572101 0.32700002 4280241698
0.085881643 0.08132264 0.32600001 4279650846
0.08694049 0.08132264 0.32600001 4279519771
0.087999336 0.08132264 0.32600001 4279453978
0.089058183 0.08132264 0.32600001 4279519771
0.09011703 0.08132264 0.32600001 4279650846
0.091175877 0.08132264 0.32600001 4279716639
0.092234731 0.08132264 0.32600001 4279452695
0.093293577 0.08132264 0.32600001 4279452695
0.094352432 0.08132264 0.32600001 4279386389
0.095411271 0.08132264 0.32600001 4279911711
0.096470118 0.08132264 0.32600001 4280239653
0.073001474 0.083392665 0.33000001 4284839264
0.074073315 0.083392665 0.33000001 4283063365
0.075145155 0.083392665 0.33000001 4281879091
0.075986043 0.083139963 0.32900003 4282078775
0.077054627 0.083139963 0.32900003 4281685044
0.078123227 0.083139963 0.32900003 4281290288
0.078951113 0.082887255 0.32800001 4280432417
0.080016449 0.082887255 0.32800001 4280299547
0.080834597 0.082634553 0.32700002 4280760098
0.081896693 0.082634553 0.32700002 4279971094
0.082705088 0.082381845 0.32600001 4281026089
0.083763942 0.082381845 0.32600001 4281883704
0.084822789 0.082381845 0.32600001 4280963885
0.085618205 0.082129143 0.32500002 4280439079
0.086673804 0.082129143 0.32500002 4280308006
0.087729409 0.082129143 0.32500002 4280242983
0.088785 0.082129143 0.32500002 4279650846
0.089840598 0.082129143 0.32500002 4279453467
0.090896204 0.082129143 0.32500002 4279519258
0.091951802 0.082129143 0.32500002 4279716637
0.093293577 0.082381845 0.32600001 4279190293
0.094352432 0.082381845 0.32600001 4279321879
0.095411271 0.082381845 0.32600001 4279321881
0.096470118 0.082381845 0.32600001 4279649822
0.097229809 0.082129143 0.32500002 4279584029
0.097982988 0.081876434 0.324 4279977504
0.099035338 0.081876434 0.324 4280173856
0.099778786 0.081623733 0.32300001 4280565284
0.075986043 0.084208921 0.32900003 4282603584
0.077054627 0.084208921 0.32900003 4282538558
0.077885762 0.083952963 0.32800001 4282604351
0.078951113 0.083952963 0.32800001 4280694051
0.079772502 0.083697014 0.32700002 4281022503
0.080834597 0.083697014 0.32700002 4281088296
0.081646241 0.083441056 0.32600001 4280890917
0.082705088 0.083441056 0.32600001 4280364573
0.083763942 0.083441056 0.32600001 4280365338
0.0845626 0.083185099 0.32500002 4280102680
0.085618205 0.083185099 0.32500002 4281028395
0.08640711 0.082929142 0.324 4280964137
0.087459467 0.082929142 0.324 4280702249
0.08851181 0.082929142 0.324 4280307493
0.089564167 0.082929142 0.324 4280109860
0.090616517 0.082929142 0.324 4280110114
0.091668874 0.082929142 0.324 4279650846
0.093007408 0.083185099 0.32500002 4279650844
0.094063006 0.083185099 0.32500002 4279585051
0.095118605 0.083185099 0.32500002 4279453465
0.096174203 0.083185099 0.32500002 4279321879
0.096930631 0.082929142 0.324 4279124500
0.097982988 0.082929142 0.324 4278992916
0.098729677 0.082673192 0.32300001 4279650076
0.099778786 0.082673192 0.32300001 4279648539
0.10020357 0.082161285 0.32100001 4279976990
0.10124617 0.082161285 0.32100001 4280304161
0.077885762 0.085018672 0.32800001 4284247379
0.078951113 0.085018672 0.32800001 4283128896
0.079772502 0.084759474 0.32700002 4282471228
0.080834597 0.084759474 0.32700002 4280563233
0.081646241 0.084500261 0.32600001 4280365086
0.082705088 0.084500261 0.32600001 4280430366
0.083507001 0.084241062 0.32500002 4281154604
0.0845626 0.084241062 0.32500002 4280167709
0.08535476 0.083981857 0.324 4280364573
0.08640711 0.083981857 0.324 4280365340
0.087189533 0.083722658 0.32300001 4280895528
0.088238627 0.083722658 0.32300001 4280765993
0.089287736 0.083722658 0.32300001 4280898092
0.090336844 0.083722658 0.32300001 4280700967
0.091668874 0.083981857 0.324 4280570665
0.092721224 0.083981857 0.324 4280241700
0.094063006 0.084241062 0.32500002 4279584283
0.095118605 0.084241062 0.32500002 4279650076
0.096174203 0.084241062 0.32500002 4279519258
0.096930631 0.083981857 0.324 4279519258
0.097680576 0.083722658 0.32300001 4279584281
0.098729677 0.083722658 0.32300001 4279715867
0.099469878 0.083463453 0.32200003 4279517975
0.10020357 0.083204247 0.32100001 4279517975
0.10093077 0.082945049 0.32000002 4279780379
0.10165147 0.082685843 0.31900001 4279714072
0.10268757 0.082685843 0.31900001 4280238629
0.10339855 0.082426637 0.31800002 4280040739
0.079772502 0.085821919 0.32700002 4285760878
0.080587395 0.085559465 0.32600001 4282340412
0.081646241 0.085559465 0.32600001 4280892450
0.082451396 0.085297011 0.32500002 4280825891
0.083507001 0.085297011 0.32500002 4280430366
0.0845626 0.085297011 0.32500002 4280430366
0.08535476 0.085034557 0.324 4281482284
0.086140424 0.08477211 0.32300001 4281482536
0.087189533 0.08477211 0.32300001 4280430618
0.087965451 0.084509656 0.32200003 4280102166
0.089011304 0.084509656 0.32200003 4280432669
0.090057164 0.084509656 0.32200003 4281750835
0.091385946 0.08477211 0.32300001 4280897579
0.092721224 0.085034557 0.324 4280569641
0.093773581 0.085034557 0.324 4280636204
0.095118605 0.085297011 0.32500002 4280109342
0.095878281 0.085034557 0.324 4279781147
0.096631467 0.08477211 0.32300001 4279715867
0.097680576 0.08477211 0.32300001 4279781660
0.098424017 0.084509656 0.32200003 4279584281
0.099160962 0.084247202 0.32100001 4279650074
0.099891409 0.083984755 0.32000002 4279386902
0.10093077 0.083984755 0.32000002 4279584281
0.10165147 0.083722293 0.31900001 4279452184
0.10236568 0.083459847 0.31800002 4279649309
0.10339855 0.083459847 0.31800002 4279780127
0.10443141 0.083459847 0.31800002 4279779100
0.10513262 0.083197393 0.317 4280238370
0.081646241 0.086618669 0.32600001 4286154609
0.082451396 0.086352974 0.32500002 4284444504
0.083507001 0.086352974 0.32500002 4281615405
0.0845626 0.086352974 0.32500002 4281680685
0.08535476 0.086087264 0.324 4280956194
0.086140424 0.085821569 0.32300001 4280429337
0.086919598 0.085555874 0.32200003 4280560923
0.087965451 0.085555874 0.32200003 4280890401
0.089011304 0.085555874 0.32200003 4280561436
0.090057164 0.085555874 0.32200003 4280364827
0.091385946 0.085821569 0.32300001 4280498210
0.092721224 0.086087264 0.324 4280762917
0.093773581 0.086087264 0.324 4281226544
0.095118605 0.086352974 0.32500002 4281094958
0.096174203 0.086352974 0.32500002 4280832553
0.096631467 0.085821569 0.32300001 4280503586
0.097378157 0.085555874 0.32200003 4279977756
0.09811835 0.085290164 0.32100001 4279911965
0.099160962 0.085290164 0.32100001 4279780379
0.099891409 0.085024469 0.32000002 4279715356
0.10061535 0.084758759 0.31900001 4279452697
0.10133281 0.084493063 0.31800002 4279452697
0.10236568 0.084493063 0.31800002 4279584029
0.10339855 0.084493063 0.31800002 4279386650
0.10410301 0.084227361 0.317 4279451160
0.10513262 0.084227361 0.317 4279713818
0.10616223 0.084227361 0.317 4280171805
0.10719185 0.084227361 0.317 4280566049
0.10822146 0.084227361 0.317 4280367905
0.083507001 0.087408938 0.32500002 4285890667
0.0845626 0.087408938 0.32500002 4285430370
0.085618205 0.087408938 0.32500002 4281418278
0.086673804 0.087408938 0.32500002 4281286692
0.087729409 0.087408938 0.32500002 4281220901
0.088785 0.087408938 0.32500002 4280430618
0.089840598 0.087408938 0.32500002 4280693792
0.090896204 0.087408938 0.32500002 4280693792
0.091951802 0.087408938 0.32500002 4280495389
0.093007408 0.087408938 0.32500002 4280561436
0.094063006 0.087408938 0.32500002 4280500518
0.095118605 0.087408938 0.32500002 4280699180
0.096174203 0.087408938 0.32500002 4280897583
0.097229809 0.087408938 0.32500002 4280897581
0.097378157 0.086602084 0.32200003 4281029165
0.09811835 0.086333133 0.32100001 4281029165
0.098852053 0.086064182 0.32000002 4280240162
0.099891409 0.086064182 0.32000002 4279846172
0.10061535 0.085795231 0.31900001 4279650076
0.10133281 0.08552628 0.31800002 4279650076
0.10236568 0.08552628 0.31800002 4279584283
0.10307339 0.085257329 0.317 4279650076
0.10410301 0.085257329 0.317 4279648793
0.10513262 0.085257329 0.317 4279648279
0.10616223 0.085257329 0.317 4279714072
0.10719185 0.085257329 0.317 4279977244
0.10788008 0.084988378 0.31600001 4279779352
0.10890645 0.084988378 0.31600001 4279975709
0.10993282 0.084988378 0.31600001 4280499239
0.098852053 0.087103896 0.32000002 4281029165
0.099891409 0.087103896 0.32000002 4280898346
0.10029995 0.086559497 0.31800002 4280569895
0.10133281 0.086559497 0.31800002 4280043551
0.10204377 0.08628729 0.317 4279912994
0.10307339 0.08628729 0.317 4279912994
0.10410301 0.08628729 0.317 4279978526
0.10513262 0.08628729 0.317 4279386389
0.10616223 0.08628729 0.317 4279780377
0.10685371 0.086015098 0.31600001 4279517207
0.10788008 0.086015098 0.31600001 4279516953
0.10890645 0.086015098 0.31600001 4279780125
0.10993282 0.086015098 0.31600001 4279844893
0.11131032 0.08628729 0.317 4279975711
0.11233994 0.08628729 0.317 4280500004
0.11336955 0.08628729 0.317 4280828458
0.11439916 0.08628729 0.317 4281944636
0.10029995 0.087592714 0.31800002 4280897579
0.10101415 0.087317258 0.317 4281029165
0.10204377 0.087317258 0.317 4280832301
0.10307339 0.087317258 0.317 4280109092
0.10410301 0.087317258 0.317 4280109344
0.10513262 0.087317258 0.317 4280109596
0.10582734 0.087041818 0.31600001 4279846940
0.10685371 0.087041818 0.31600001 4279715356
0.10788008 0.087041818 0.31600001 4279386137
0.10890645 0.087041818 0.31600001 4279582746
0.1102807 0.087317258 0.317 4279648025
0.11131032 0.087317258 0.317 4279516439
0.11233994 0.087317258 0.317 4279844121
0.11336955 0.087317258 0.317 4280040989
0.11439916 0.087317258 0.317 4280171553
0.11542878 0.087317258 0.317 4280302114
0.11682578 0.087592714 0.31800002 4282206009
0.11785865 0.087592714 0.31800002 4285627497
0.10204377 0.088347219 0.317 4281159985
0.10307339 0.088347219 0.317 4280896811
0.10410301 0.088347219 0.317 4281359411
0.10480098 0.088068523 0.31600001 4280372514
0.10582734 0.088068523 0.31600001 4279912733
0.10685371 0.088068523 0.31600001 4279978526
0.10788008 0.088068523 0.31600001 4279978528
0.10925108 0.088347219 0.317 4279715356
0.1102807 0.088347219 0.317 4279320598
0.11131032 0.088347219 0.317 4279583000
0.11233994 0.088347219 0.317 4279582486
0.11336955 0.088347219 0.317 4279648025
0.11439916 0.088347219 0.317 4280042270
0.11579292 0.088625923 0.31800002 4279975707
0.11682578 0.088625923 0.31800002 4280303393
0.11785865 0.088625923 0.31800002 4280828710
0.11889151 0.088625923 0.31800002 4281943087
0.10685371 0.089095242 0.31600001 4280438307
0.10822146 0.089377187 0.317 4280503588
0.10925108 0.089377187 0.317 4279978528
0.1102807 0.089377187 0.317 4279715356
0.11166146 0.08965914 0.31800002 4279978528
0.11269433 0.08965914 0.31800002 4279517207
0.11372718 0.08965914 0.31800002 4279648793
0.11476005 0.08965914 0.31800002 4279648279
0.11579292 0.08965914 0.31800002 4279582486
0.11682578 0.08965914 0.31800002 4279779352
0.11785865 0.08965914 0.31800002 4279975961
0.11889151 0.08965914 0.31800002 4280171291
0.11992438 0.08965914 0.31800002 4280630559
0.10822146 0.090407155 0.317 4281291308
0.10925108 0.090407155 0.317 4280896296
0.1106286 0.090692356 0.31800002 4280437795
0.11166146 0.090692356 0.31800002 4280043551
0.11269433 0.090692356 0.31800002 4280175907
0.11372718 0.090692356 0.31800002 4279846942
0.11476005 0.090692356 0.31800002 4279977244
0.11579292 0.090692356 0.31800002 4279648277
0.11682578 0.090692356 0.31800002 4279582484
0.11785865 0.090692356 0.31800002 4279516693
0.11889151 0.090692356 0.31800002 4279845145
0.11992438 0.090692356 0.31800002 4280304413
0.12095724 0.090692356 0.31800002 4280434977
0.12199011 0.090692356 0.31800002 4280434463
0.11097648 0.092014015 0.31900001 4281554739
0.11201259 0.092014015 0.31900001 4281094958
0.11304871 0.092014015 0.31900001 4280503850
0.11408481 0.092014015 0.31900001 4279912481
0.11512093 0.092014015 0.31900001 4279978274
0.11615704 0.092014015 0.31900001 4279846688
0.11719315 0.092014015 0.31900001 4279977758
0.11822927 0.092014015 0.31900001 4279517207
0.11926538 0.092014015 0.31900001 4279714072
0.1203015 0.092014015 0.31900001 4279779352
0.12095724 0.091725573 0.31800002 4279647512
0.12199011 0.091725573 0.31800002 4279779098
0.10820629 0.09334217 0.32000002 4280171293
0.10924565 0.09334217 0.32000002 4280763428
0.11028501 0.09334217 0.32000002 4280960807
0.11097648 0.093050465 0.31900001 4280960807
0.11201259 0.093050465 0.31900001 4281158188
0.11304871 0.093050465 0.31900001 4281291571
0.11408481 0.093050465 0.31900001 4281028399
0.11512093 0.093050465 0.31900001 4280700204
0.11615704 0.093050465 0.31900001 4280371750
0.11719315 0.093050465 0.31900001 4279911713
0.11822927 0.093050465 0.31900001 4280109092
0.11926538 0.093050465 0.31900001 4280108576
0.1203015 0.093050465 0.31900001 4279779611
0.1213376 0.093050465 0.31900001 4279779100
0.12199011 0.092758775 0.31800002 4279713307
0.10513262 0.093497045 0.317 4280960044
0.10649713 0.093791991 0.31800002 4280434211
0.10786814 0.094086938 0.31900001 4280763430
0.10890425 0.094086938 0.31900001 4280434465
0.11028501 0.094381884 0.32000002 4280368159
0.11132438 0.094381884 0.32000002 4281353771
0.11236374 0.094381884 0.32000002 4281616943
0.1134031 0.094381884 0.32000002 4281157675
0.11444245 0.094381884 0.32000002 4280960809
0.11548182 0.094381884 0.32000002 4281420843
0.11652118 0.094381884 0.32000002 4281618735
0.11719315 0.094086938 0.31900001 4280963374
0.11822927 0.094086938 0.31900001 4280568616
0.11926538 0.094086938 0.31900001 4280174110
0.1203015 0.094086938 0.31900001 4280174110
0.1213376 0.094086938 0.31900001 4280437795
0.12237372 0.094086938 0.31900001 4279911199
0.10513262 0.094527014 0.317 4281746491
0.10649713 0.094825208 0.31800002 4281484853
0.10786814 0.095123403 0.31900001 4281090860
0.10890425 0.095123403 0.31900001 4280498721
0.11028501 0.095421597 0.32000002 4280696100
0.11132438 0.095421597 0.32000002 4280893479
0.11236374 0.095421597 0.32000002 4280695587
0.1134031 0.095421597 0.32000002 4281156392
0.11444245 0.095421597 0.32000002 4281485357
0.11548182 0.095421597 0.32000002 4281749042
0.11652118 0.095421597 0.32000002 4281091882
0.11756054 0.095421597 0.32000002 4281421358
0.1185999 0.095421597 0.32000002 4281553458
0.11926538 0.095123403 0.31900001 4281093929
0.1203015 0.095123403 0.31900001 4280897063
0.1213376 0.095123403 0.31900001 4280239903
0.12237372 0.095123403 0.31900001 4280305442
0.10513262 0.095556982 0.317 4282205506
0.10649713 0.095858425 0.31800002 4281943104
0.10753 0.095858425 0.31800002 4281680445
0.10890425 0.096159868 0.31900001 4281286452
0.11028501 0.096461311 0.32000002 4281024302
0.11132438 0.096461311 0.32000002 4280761895
0.11236374 0.096461311 0.32000002 4280235551
0.1134031 0.096461311 0.32000002 4281287724
0.11444245 0.096461311 0.32000002 4281353517
0.11548182 0.096461311 0.32000002 4281288237
0.11652118 0.096461311 0.32000002 4281618226
0.11756054 0.096461311 0.32000002 4281814835
0.1185999 0.096461311 0.32000002 4281682736
0.11963926 0.096461311 0.32000002 4281485355
0.1203015 0.096159868 0.31900001 4281749040
0.1213376 0.096159868 0.31900001 4281356077
0.12237372 0.096159868 0.31900001 4280831016
0.10649713 0.096891634 0.31800002 4282074694
0.10753 0.096891634 0.31800002 4281680449
0.10890425 0.097196326 0.31900001 4281614654
0.11028501 0.097501017 0.32000002 4281614652
0.11132438 0.097501017 0.32000002 4281417524
0.11271487 0.097805701 0.32100001 4281286706
0.11375748 0.097805701 0.32100001 4281484081
0.11480008 0.097805701 0.32100001 4281286956
0.11584269 0.097805701 0.32100001 4281353519
0.1168853 0.097805701 0.32100001 4281616691
0.11792791 0.097805701 0.32100001 4281682482
0.1185999 0.097501017 0.32000002 4281155368
0.11963926 0.097501017 0.32000002 4282274873
0.1203015 0.097196326 0.31900001 4281814833
0.1213376 0.097196326 0.31900001 4281420075
0.12237372 0.097196326 0.31900001 4281551661
0.11167226 0.098848671 0.32100001 4281744955
0.11271487 0.098848671 0.32100001 4281679932
0.11375748 0.098848671 0.32100001 4282074425
0.11480008 0.098848671 0.32100001 4282667328
0.11584269 0.098848671 0.32100001 4282865474
0.1168853 0.098848671 0.32100001 4282207544
0.11792791 0.098848671 0.32100001 4282075445
0.11897052 0.098848671 0.32100001 4282141238
0.12001313 0.098848671 0.32100001 4282405689
0.12105574 0.098848671 0.32100001 4282339894
0.12209834 0.098848671 0.32100001 4281814320
0.12314095 0.098848671 0.32100001 4281023782
0.088087901 0.081747256 0.32504755 4294967295
0.088087901 0.081747256 0.32504755 4294901760
0.088087901 0.081747256 0.32554755 4294901760
0.088087901 0.081747256 0.32604754 4294901760
0.088087901 0.081747256 0.32654756 4294901760
0.088087901 0.081747256 0.32704756 4294901760
0.088087901 0.081747256 0.32754755 4294901760
0.088087901 0.081747256 0.32804754 4294901760
0.088087901 0.081747256 0.32854757 4294901760
0.088087901 0.081747256 0.32904756 4294901760
0.088087901 0.081747256 0.32954755 4294901760
0.088087901 0.081747256 0.33004755 4294901760
0.088087901 0.081747256 0.33054754 4294901760
0.088087901 0.081747256 0.33104756 4294901760
0.088087901 0.081747256 0.33154756 4294901760
0.088087901 0.081747256 0.33204755 4294901760
0.088087901 0.081747256 0.33254755 4294901760
0.088087901 0.081747256 0.33304757 4294901760
0.088087901 0.081747256 0.33354756 4294901760
0.088087901 0.081747256 0.33404756 4294901760
0.088087901 0.081747256 0.33454755 4294901760
0.088087901 0.081747256 0.33504754 4294901760
0.088087901 0.081747256 0.33554757 4294901760
0.088087901 0.081747256 0.33604756 4294901760
0.088087901 0.081747256 0.33654755 4294901760
0.088087901 0.081747256 0.33704755 4294901760
0.088087901 0.081747256 0.33754754 4294901760
0.088087901 0.081747256 0.33804756 4294901760
0.088087901 0.081747256 0.33854756 4294901760
0.088087901 0.081747256 0.33904755 4294901760
0.088087901 0.081747256 0.33954754 4294901760
0.088087901 0.081747256 0.34004757 4294901760
0.088087901 0.081747256 0.34054756 4294901760
0.088087901 0.081747256 0.34104756 4294901760
0.088087901 0.081747256 0.34154755 4294901760
0.088087901 0.081747256 0.34204757 4294901760
0.088087901 0.081747256 0.34254757 4294901760
0.088087901 0.081747256 0.34304756 4294901760
0.088087901 0.081747256 0.34354755 4294901760
0.088087901 0.081747256 0.34404755 4294901760
0.088087901 0.081747256 0.34454757 4294901760
0.088087901 0.081747256 0.34504756 4294901760
0.088087901 0.081747256 0.34554756 4294901760
0.088087901 0.081747256 0.34604755 4294901760
0.088087901 0.081747256 0.34654754 4294901760
0.088087901 0.081747256 0.34704757 4294901760
0.088087901 0.081747256 0.34754756 4294901760
0.088087901 0.081747256 0.34804755 4294901760
0.088087901 0.081747256 0.34854755 4294901760
0.088087901 0.081747256 0.34904757 4294901760
0.088087901 0.081747256 0.34954756 4294901760
0.088087901 0.081747256 0.35004756 4294901760
0.088087901 0.081747256 0.35054755 4294901760
0.088087901 0.081747256 0.35104755 4294901760
0.088087901 0.081747256 0.35154757 4294901760
0.088087901 0.081747256 0.35204756 4294901760
0.088087901 0.081747256 0.35254756 4294901760
0.088087901 0.081747256 0.35304755 4294901760
0.088087901 0.081747256 0.35354757 4294901760
0.088087901 0.081747256 0.35404757 4294901760
0.088087901 0.081747256 0.35454756 4294901760
0.088087901 0.081747256 0.35504755 4294901760
0.088087901 0.081747256 0.35554755 4294901760
0.088087901 0.081747256 0.35604757 4294901760
0.088087901 0.081747256 0.35654756 4294901760
0.088087901 0.081747256 0.35704756 4294901760
0.088087901 0.081747256 0.35754755 4294901760
0.088087901 0.081747256 0.35804757 4294901760
0.088087901 0.081747256 0.35854757 4294901760
0.088087901 0.081747256 0.35904756 4294901760
0.088087901 0.081747256 0.35954756 4294901760
0.088087901 0.081747256 0.36004755 4294901760
0.088087901 0.081747256 0.36054757 4294901760
0.088087901 0.081747256 0.36104757 4294901760
0.088087901 0.081747256 0.36154756 4294901760
0.088087901 0.081747256 0.36204755 4294901760
0.088087901 0.081747256 0.36254758 4294901760
0.088087901 0.081747256 0.36304757 4294901760
0.088087901 0.081747256 0.36354756 4294901760
0.088087901 0.081747256 0.36404756 4294901760
0.088087901 0.081747256 0.36454755 4294901760
0.088087901 0.081747256 0.36504757 4294901760
0.088087901 0.081747256 0.36554757 4294901760
0.088087901 0.081747256 0.36604756 4294901760
0.088087901 0.081747256 0.36654755 4294901760
0.088087901 0.081747256 0.36704755 4294901760
0.088087901 0.081747256 0.36754757 4294901760
0.088087901 0.081747256 0.36804757 4294901760
0.088087901 0.081747256 0.36854756 4294901760
0.088087901 0.081747256 0.36904755 4294901760
0.088087901 0.081747256 0.36954755 4294901760
0.088087901 0.081747256 0.37004757 4294901760
0.088087901 0.081747256 0.37054756 4294901760
0.088087901 0.081747256 0.37104756 4294901760
0.088087901 0.081747256 0.37154758 4294901760
0.088087901 0.081747256 0.37204757 4294901760
0.088087901 0.081747256 0.37254757 4294901760
0.088087901 0.081747256 0.37304756 4294901760
0.088087901 0.081747256 0.37354755 4294901760
0.088087901 0.081747256 0.37404758 4294901760
0.088087901 0.081747256 0.37454757 4294901760
0.088087901 0.081747256 0.37504756 4294901760
0.088087901 0.081747256 0.32504755 4278255360
0.08817219 0.081787921 0.32553872 4278255360
0.088256478 0.081828587 0.32602987 4278255360
0.088340767 0.081869252 0.32652104 4278255360
0.088425055 0.081909917 0.32701221 4278255360
0.088509336 0.081950583 0.32750338 4278255360
0.088593625 0.081991248 0.32799453 4278255360
0.088677913 0.082031913 0.3284857 4278255360
0.088762201 0.082072578 0.32897687 4278255360
0.08884649 0.082113244 0.32946801 4278255360
0.088930778 0.082153909 0.32995918 4278255360
0.089015067 0.082194574 0.33045036 4278255360
0.089099355 0.082235239 0.33094153 4278255360
0.089183643 0.082275905 0.33143267 4278255360
0.089267924 0.08231657 0.33192384 4278255360
0.089352213 0.082357235 0.33241501 4278255360
0.089436501 0.082397901 0.33290619 4278255360
0.08952079 0.082438566 0.33339733 4278255360
0.089605078 0.082479231 0.3338885 4278255360
0.089689367 0.082519896 0.33437967 4278255360
0.089773655 0.082560562 0.33487082 4278255360
0.089857943 0.082601227 0.33536199 4278255360
0.089942232 0.082641892 0.33585316 4278255360
0.090026513 0.082682557 0.33634433 4278255360
0.090110801 0.082723223 0.33683547 4278255360
0.09019509 0.082763888 0.33732665 4278255360
0.090279378 0.082804553 0.33781782 4278255360
0.090363666 0.082845218 0.33830896 4278255360
0.090447955 0.082885884 0.33880013 4278255360
0.090532243 0.082926549 0.3392913 4278255360
0.090616532 0.082967214 0.33978248 4278255360
0.09070082 0.08300788 0.34027362 4278255360
0.090785101 0.083048545 0.34076479 4278255360
0.090869389 0.08308921 0.34125596 4278255360
0.090953678 0.083129875 0.34174711 4278255360
0.091037966 0.083170541 0.34223828 4278255360
0.091122255 0.083211206 0.34272945 4278255360
0.091206543 0.083251871 0.34322062 4278255360
0.091290832 0.083292536 0.34371176 4278255360
0.09137512 0.083333202 0.34420294 4278255360
0.091459408 0.083373867 0.34469411 4278255360
0.091543689 0.083414532 0.34518528 4278255360
0.091627978 0.083455198 0.34567642 4278255360
0.091712266 0.083495863 0.34616759 4278255360
0.091796555 0.083536528 0.34665877 4278255360
0.091880843 0.083577193 0.34714991 4278255360
0.091965131 0.083617859 0.34764108 4278255360
0.09204942 0.083658524 0.34813225 4278255360
0.092133708 0.083699189 0.34862342 4278255360
0.092217997 0.083739862 0.34911457 4278255360
0.092302278 0.083780527 0.34960574 4278255360
0.092386566 0.083821192 0.35009691 4278255360
0.092470855 0.083861858 0.35058805 4278255360
0.092555143 0.083902523 0.35107923 4278255360
0.092639431 0.083943188 0.3515704 4278255360
0.09272372 0.083983853 0.35206157 4278255360
0.092808008 0.084024519 0.35255271 4278255360
0.092892297 0.084065184 0.35304388 4278255360
0.092976585 0.084105849 0.35353506 4278255360
0.093060866 0.084146515 0.3540262 4278255360
0.093145154 0.08418718 0.35451737 4278255360
0.093229443 0.084227845 0.35500854 4278255360
0.093313731 0.08426851 0.35549971 4278255360
0.09339802 0.084309176 0.35599086 4278255360
0.093482308 0.084349841 0.35648203 4278255360
0.093566597 0.084390506 0.3569732 4278255360
0.093650885 0.084431171 0.35746437 4278255360
0.093735173 0.084471837 0.35795552 4278255360
0.093819454 0.084512502 0.35844669 4278255360
0.093903743 0.084553167 0.35893786 4278255360
0.093988031 0.084593832 0.359429 4278255360
0.09407232 0.084634498 0.35992017 4278255360
0.094156608 0.084675163 0.36041135 4278255360
0.094240896 0.084715828 0.36090252 4278255360
0.094325185 0.084756494 0.36139366 4278255360
0.094409473 0.084797159 0.36188483 4278255360
0.094493762 0.084837824 0.362376 4278255360
0.094578043 0.084878489 0.36286715 4278255360
0.094662331 0.084919155 0.36335832 4278255360
0.094746619 0.08495982 0.36384949 4278255360
0.094830908 0.085000485 0.36434066 4278255360
0.094915196 0.08504115 0.36483181 4278255360
0.094999485 0.085081816 0.36532298 4278255360
0.095083773 0.085122481 0.36581415 4278255360
0.095168062 0.085163146 0.36630529 4278255360
0.09525235 0.085203812 0.36679646 4278255360
0.095336638 0.085244477 0.36728764 4278255360
0.095420919 0.085285142 0.36777881 4278255360
0.095505208 0.085325807 0.36826995 4278255360
0.095589496 0.085366473 0.36876112 4278255360
0.095673785 0.085407138 0.36925229 4278255360
0.095758073 0.085447803 0.36974347 4278255360
0.095842361 0.085488468 0.37023461 4278255360
0.09592665 0.085529134 0.37072578 4278255360
0.096010938 0.085569799 0.37121695 4278255360
0.096095219 0.085610464 0.3717081 4278255360
0.096179508 0.085651129 0.37219927 4278255360
0.096263796 0.085691795 0.37269044 4278255360
0.096348085 0.08573246 0.37318161 4278255360
0.096432373 0.085773125 0.37367275 4278255360
0.096516661 0.085813791 0.37416393 4278255360
