# .PCD v0.7 - Point Cloud Data file format
VERSION 0.7
FIELDS x y z rgb
SIZE 4 4 4 4
TYPE F F F U
COUNT 1 1 1 1
WIDTH 860
HEIGHT 1
VIEWPOINT 0 0 0 1 0 0 0
POINTS 860
DATA ascii
0.061582208 0.056930527 0.33200002 4280824358
0.062660545 0.056930527 0.33200002 4280824358
0.063738875 0.056930527 0.33200002 4282798916
0.06481722 0.056930527 0.33200002 4282470464
0.06050387 0.05800923 0.33200002 4280626212
0.061582208 0.05800923 0.33200002 4280494626
0.062660545 0.05800923 0.33200002 4280495393
0.063738875 0.05800923 0.33200002 4282207290
0.06481722 0.05800923 0.33200002 4282143035
0.065895557 0.05800923 0.33200002 4280305192
0.059425537 0.059087936 0.33200002 4282732101
0.06050387 0.059087936 0.33200002 4281020970
0.061582208 0.059087936 0.33200002 4281218862
0.062660545 0.059087936 0.33200002 4281218603
0.063738875 0.059087936 0.33200002 4281418542
0.06481722 0.059087936 0.33200002 4280435495
0.065895557 0.059087936 0.33200002 4280042787
0.059425537 0.060166635 0.33200002 4281943609
0.06050387 0.060166635 0.33200002 4281022507
0.061582208 0.060166635 0.33200002 4281284909
0.062660545 0.060166635 0.33200002 4281548851
0.063738875 0.060166635 0.33200002 4280435497
0.06481722 0.060166635 0.33200002 4279977508
0.065895557 0.060166635 0.33200002 4279977508
0.059425537 0.061245337 0.33200002 4282009661
0.06050387 0.061245337 0.33200002 4281154352
0.061582208 0.061245337 0.33200002 4280628522
0.062660545 0.061245337 0.33200002 4280761645
0.063738875 0.061245337 0.33200002 4279649313
0.06481722 0.061245337 0.33200002 4279321629
0.065895557 0.061245337 0.33200002 4279519008
0.059425537 0.06232404 0.33200002 4280825903
0.06050387 0.06232404 0.33200002 4281023280
0.061582208 0.06232404 0.33200002 4280761645
0.062660545 0.06232404 0.33200002 4280171555
0.063738875 0.06232404 0.33200002 4279255836
0.06481722 0.06232404 0.33200002 4279256349
0.065895557 0.06232404 0.33200002 4279584801
0.059425537 0.063402742 0.33200002 4281747005
0.06050387 0.063402742 0.33200002 4281089073
0.061582208 0.063402742 0.33200002 4280499752
0.062660545 0.063402742 0.33200002 4280042274
0.063738875 0.063402742 0.33200002 4279125531
0.06481722 0.063402742 0.33200002 4279059738
0.065895557 0.063402742 0.33200002 4280110377
0.059246548 0.064287223 0.33100003 4281484085
0.060321633 0.064287223 0.33100003 4280695337
0.061396722 0.064287223 0.33100003 4280239399
0.062471811 0.064287223 0.33100003 4279385371
0.063546896 0.064287223 0.33100003 4279256347
0.059246548 0.065362677 0.33100003 4281353519
0.060321633 0.065362677 0.33100003 4280827688
0.061396722 0.065362677 0.33100003 4280437805
0.062471811 0.065362677 0.33100003 4279320859
0.063546896 0.065362677 0.33100003 4278862875
0.064621985 0.065362677 0.33100003 4278928668
0.058171455 0.066438131 0.33100003 4282602562
0.059246548 0.066438131 0.33100003 4280432930
0.060321633 0.066438131 0.33100003 4281157934
0.061211228 0.066237405 0.33000001 4279978278
0.062283073 0.066237405 0.33000001 4279519006
0.063354909 0.066237405 0.33000001 4279257117
0.058171455 0.067513585 0.33100003 4281286704
0.059067551 0.067309611 0.33000001 4281091630
0.060139388 0.067309611 0.33000001 4281684794
0.061211228 0.067309611 0.33000001 4279978278
0.062283073 0.067309611 0.33000001 4279255834
0.063354909 0.067309611 0.33000001 4279125785
0.064231522 0.067105643 0.32900003 4278928406
0.059067551 0.068381809 0.33000001 4282144831
0.060139388 0.068381809 0.33000001 4281225011
0.061211228 0.068381809 0.33000001 4279715619
0.062283073 0.068381809 0.33000001 4279125533
0.063162923 0.068174601 0.32900003 4279388703
0.064231522 0.068174601 0.32900003 4279257117
0.059067551 0.069454014 0.33000001 4281685564
0.060139388 0.069454014 0.33000001 4280239401
0.061211228 0.069454014 0.33000001 4280241709
0.062283073 0.069454014 0.33000001 4279519521
0.063162923 0.06924355 0.32900003 4279322912
0.064231522 0.06924355 0.32900003 4279849256
0.065300114 0.06924355 0.32900003 4279125535
0.059067551 0.070526227 0.33000001 4280369704
0.060139388 0.070526227 0.33000001 4281160503
0.061211228 0.070526227 0.33000001 4281161528
0.062283073 0.070526227 0.33000001 4280110377
0.063162923 0.070312507 0.32900003 4279455014
0.064231522 0.070312507 0.32900003 4282218316
0.065300114 0.070312507 0.32900003 4280570924
0.066368707 0.070312507 0.32900003 4279584801
0.067437299 0.070312507 0.32900003 4279452447
0.059067551 0.071598426 0.33000001 4281093427
0.060139388 0.071598426 0.33000001 4281686077
0.061211228 0.071598426 0.33000001 4281358907
0.062283073 0.071598426 0.33000001 4281294397
0.063162923 0.071381465 0.32900003 4279716898
0.064231522 0.071381465 0.32900003 4278993429
0.065300114 0.071381465 0.32900003 4283861859
0.066368707 0.071381465 0.32900003 4279584803
0.067437299 0.071381465 0.32900003 4279255838
0.068505891 0.071381465 0.32900003 4279519010
0.069785953 0.071598426 0.33000001 4279649059
0.070857793 0.071598426 0.33000001 4279647262
0.059246548 0.072890848 0.33100003 4281620284
0.060139388 0.072670631 0.33000001 4281752638
0.061211228 0.072670631 0.33000001 4281687872
0.062283073 0.072670631 0.33000001 4281293884
0.063354909 0.072670631 0.33000001 4280703030
0.064231522 0.072450422 0.32900003 4279255836
0.065300114 0.072450422 0.32900003 4280045867
0.066368707 0.072450422 0.32900003 4283334750
0.067437299 0.072450422 0.32900003 4279585062
0.068505891 0.072450422 0.32900003 4279124765
0.069574483 0.072450422 0.32900003 4279387937
0.070857793 0.072670631 0.33000001 4279387937
0.071929634 0.072670631 0.33000001 4279584033
0.073001474 0.072670631 0.33000001 4279517727
0.059246548 0.073966302 0.33100003 4281817661
0.060321633 0.073966302 0.33100003 4281686845
0.061211228 0.073742829 0.33000001 4281687358
0.062283073 0.073742829 0.33000001 4281818944
0.063354909 0.073742829 0.33000001 4281556286
0.064231522 0.073519371 0.32900003 4281162298
0.065300114 0.073519371 0.32900003 4280307502
0.066368707 0.073519371 0.32900003 4279584549
0.067437299 0.073519371 0.32900003 4279717672
0.068505891 0.073519371 0.32900003 4279586086
0.069574483 0.073519371 0.32900003 4279454498
0.070643075 0.073519371 0.32900003 4279059740
0.071711667 0.073519371 0.32900003 4279125531
0.072780266 0.073519371 0.32900003 4279125531
0.073848851 0.073519371 0.32900003 4279453213
0.074917451 0.073519371 0.32900003 4279649309
0.059246548 0.075041756 0.33100003 4282015042
0.060321633 0.075041756 0.33100003 4281818946
0.061211228 0.074815035 0.33000001 4281950530
0.062283073 0.074815035 0.33000001 4281950017
0.063354909 0.074815035 0.33000001 4281950017
0.06442675 0.074815035 0.33000001 4281621565
0.065300114 0.074588329 0.32900003 4281621565
0.066368707 0.074588329 0.32900003 4281490493
0.067437299 0.074588329 0.32900003 4279980072
0.068505891 0.074588329 0.32900003 4279520289
0.069574483 0.074588329 0.32900003 4279322910
0.070643075 0.074588329 0.32900003 4279388703
0.071711667 0.074588329 0.32900003 4279322910
0.072780266 0.074588329 0.32900003 4279125531
0.073624387 0.074361615 0.32800001 4279125533
0.074689731 0.074361615 0.32800001 4279257119
0.075524122 0.074134901 0.32700002 4279321631
0.076586209 0.074134901 0.32700002 4279715619
0.059246548 0.076117203 0.33100003 4282604869
0.060321633 0.076117203 0.33100003 4282015042
0.061396722 0.076117203 0.33100003 4281949765
0.062283073 0.07588724 0.33000001 4282015812
0.063354909 0.07588724 0.33000001 4281884478
0.06442675 0.07588724 0.33000001 4281884478
0.06549859 0.07588724 0.33000001 4281621819
0.066368707 0.075657278 0.32900003 4281556026
0.067437299 0.075657278 0.32900003 4280833587
0.068505891 0.075657278 0.32900003 4280373549
0.069574483 0.075657278 0.32900003 4279058968
0.070643075 0.075657278 0.32900003 4279322910
0.071711667 0.075657278 0.32900003 4279191838
0.072780266 0.075657278 0.32900003 4279323424
0.073624387 0.075427316 0.32800001 4279257631
0.074689731 0.075427316 0.32800001 4279191838
0.075524122 0.075197354 0.32700002 4279125531
0.076586209 0.075197354 0.32700002 4279322910
0.077410847 0.074967392 0.32600001 4279453726
0.078228995 0.074737437 0.32500002 4279782178
0.079284593 0.074737437 0.32500002 4279649826
0.080340199 0.074737437 0.32500002 4279845922
0.059246548 0.077192657 0.33100003 4284575838
0.060321633 0.077192657 0.33100003 4282867017
0.061396722 0.077192657 0.33100003 4282146628
0.062471811 0.077192657 0.33100003 4282015042
0.063354909 0.076959446 0.33000001 4281621819
0.06442675 0.076959446 0.33000001 4281490747
0.06549859 0.076959446 0.33000001 4281490747
0.066570431 0.076959446 0.33000001 4281359161
0.067437299 0.076726235 0.32900003 4281293368
0.068505891 0.076726235 0.32900003 4281161782
0.069574483 0.076726235 0.32900003 4280898610
0.070643075 0.076726235 0.32900003 4280636206
0.071711667 0.076726235 0.32900003 4279716387
0.072559044 0.076493025 0.32800001 4279585312
0.073624387 0.076493025 0.32800001 4278928152
0.074689731 0.076493025 0.32800001 4279586336
0.075524122 0.076259814 0.32700002 4279454748
0.076352 0.076026604 0.32600001 4279059990
0.077410847 0.076026604 0.32600001 4278993945
0.078228995 0.075793393 0.32500002 4279322910
0.079284593 0.075793393 0.32500002 4279125531
0.080092989 0.075560182 0.324 4279387933
0.061396722 0.078268111 0.33100003 4283065933
0.062471811 0.078268111 0.33100003 4282146115
0.063354909 0.078031644 0.33000001 4281687358
0.06442675 0.078031644 0.33000001 4281621565
0.06549859 0.078031644 0.33000001 4281556026
0.066570431 0.078031644 0.33000001 4281424440
0.067437299 0.077795193 0.32900003 4281359161
0.068505891 0.077795193 0.32900003 4281161782
0.069574483 0.077795193 0.32900003 4281490233
0.070643075 0.077795193 0.32900003 4281292852
0.071711667 0.077795193 0.32900003 4280898608
0.072559044 0.077558726 0.32800001 4280636206
0.073624387 0.077558726 0.32800001 4280373545
0.074689731 0.077558726 0.32800001 4279717152
0.075524122 0.077322267 0.32700002 4279125783
0.076352 0.077085808 0.32600001 4279388955
0.077410847 0.077085808 0.32600001 4279389471
0.078228995 0.076849349 0.32500002 4279323424
0.079284593 0.076849349 0.32500002 4278994459
0.080092989 0.076612882 0.324 4278928666
0.080894895 0.076376431 0.32300001 4278928152
0.081944004 0.076376431 0.32300001 4279059740
0.062471811 0.079343565 0.33100003 4283787860
0.063546896 0.079343565 0.33100003 4282013757
0.06442675 0.07910385 0.33000001 4281883454
0.06549859 0.07910385 0.33000001 4281752892
0.066570431 0.07910385 0.33000001 4281621304
0.067437299 0.07886415 0.32900003 4281489718
0.068505891 0.07886415 0.32900003 4281358645
0.069574483 0.07886415 0.32900003 4281490233
0.070643075 0.07886415 0.32900003 4281358134
0.071711667 0.07886415 0.32900003 4281161782
0.072780266 0.07886415 0.32900003 4281030196
0.073624387 0.078624435 0.32800001 4280701999
0.074689731 0.078624435 0.32800001 4280833583
0.075524122 0.078384727 0.32700002 4280308006
0.076586209 0.078384727 0.32700002 4280111397
0.077410847 0.078145012 0.32600001 4279520543
0.078228995 0.077905312 0.32500002 4279257631
0.079284593 0.077905312 0.32500002 4279126045
0.080092989 0.077665597 0.324 4279191838
0.081145339 0.077665597 0.324 4279060765
0.081944004 0.07742589 0.32300001 4279126558
0.082993105 0.07742589 0.32300001 4279257119
0.087207183 0.078384727 0.32700002 4279584801
0.088539213 0.078624435 0.32800001 4279911199
0.089604549 0.078624435 0.32800001 4280173860
0.06442675 0.080176055 0.33000001 4284776036
0.06549859 0.080176055 0.33000001 4281882171
0.066570431 0.080176055 0.33000001 4281817148
0.067642272 0.080176055 0.33000001 4281752122
0.068505891 0.079933099 0.32900003 4282015294
0.069574483 0.079933099 0.32900003 4281358134
0.070643075 0.079933099 0.32900003 4281357880
0.071711667 0.079933099 0.32900003 4281292854
0.072780266 0.079933099 0.32900003 4281358647
0.073624387 0.079690143 0.32800001 4280963889
0.074689731 0.079690143 0.32800001 4281095475
0.075524122 0.079447187 0.32700002 4280502823
0.076586209 0.079447187 0.32700002 4280503336
0.077410847 0.079204224 0.32600001 4280505131
0.078228995 0.078961268 0.32500002 4280176936
0.079284593 0.078961268 0.32500002 4279848738
0.080092989 0.078718305 0.324 4279388187
0.081145339 0.078718305 0.324 4278994713
0.081944004 0.078475356 0.32300001 4279455010
0.082993105 0.078475356 0.32300001 4279455010
0.084302403 0.078718305 0.324 4279191838
0.085618205 0.078961268 0.32500002 4279520289
0.08694049 0.079204224 0.32600001 4278993945
0.088269278 0.079447187 0.32700002 4279124761
0.089331366 0.079447187 0.32700002 4279584799
0.09011703 0.079204224 0.32600001 4279649824
0.067642272 0.081248261 0.33000001 4283065418
0.068505891 0.081002057 0.32900003 4282540101
0.069574483 0.081002057 0.32900003 4281686329
0.070643075 0.081002057 0.32900003 4281752122
0.071711667 0.081002057 0.32900003 4281555513
0.072780266 0.081002057 0.32900003 4281358134
0.073848851 0.081002057 0.32900003 4281489720
0.074689731 0.080755845 0.32800001 4279908381
0.075755075 0.080755845 0.32800001 4279711002
0.076586209 0.08050964 0.32700002 4281291317
0.077410847 0.080263428 0.32600001 4280963887
0.078469701 0.080263428 0.32600001 4280833585
0.079284593 0.080017224 0.32500002 4280701999
0.080092989 0.079771012 0.324 4280373545
0.081145339 0.079771012 0.324 4279717152
0.081944004 0.079524808 0.32300001 4279453726
0.082993105 0.079524808 0.32300001 4278994459
0.084302403 0.079771012 0.324 4279323424
0.08535476 0.079771012 0.324 4279191838
0.086673804 0.080017224 0.32500002 4279126045
0.087999336 0.080263428 0.32600001 4278928666
0.089058183 0.080263428 0.32600001 4279059738
0.089840598 0.080017224 0.32500002 4279125531
0.090896204 0.080017224 0.32500002 4279453726
0.091951802 0.080017224 0.32500002 4279780897
0.093007408 0.080017224 0.32500002 4280043301
0.094063006 0.080017224 0.32500002 4280105762
0.069574483 0.082071014 0.32900003 4283525971
0.070643075 0.082071014 0.32900003 4282079550
0.071711667 0.082071014 0.32900003 4282211390
0.072780266 0.082071014 0.32900003 4281553460
0.073848851 0.082071014 0.32900003 4280696870
0.074917451 0.082071014 0.32900003 4280564003
0.075755075 0.081821553 0.32800001 4281421620
0.076586209 0.081572101 0.32700002 4281357110
0.077648312 0.081572101 0.32700002 4281094962
0.078469701 0.08132264 0.32600001 4281094708
0.079284593 0.081073187 0.32500002 4281028915
0.080092989 0.080823727 0.324 4280897842
0.081145339 0.080823727 0.324 4280438829
0.081944004 0.080574274 0.32300001 4280307754
0.082993105 0.080574274 0.32300001 4280177449
0.084042214 0.080574274 0.32300001 4279125531
0.08535476 0.080823727 0.324 4279586596
0.08640711 0.080823727 0.324 4279126045
0.087459467 0.080823727 0.324 4279191838
0.088785 0.081073187 0.32500002 4279191838
0.089840598 0.081073187 0.32500002 4279126045
0.090616517 0.080823727 0.324 4279125531
0.091668874 0.080823727 0.324 4279453726
0.092721224 0.080823727 0.324 4279321629
0.093773581 0.080823727 0.324 4279519010
0.094825923 0.080823727 0.324 4279846438
0.095582359 0.080574274 0.32300001 4280304422
0.096631467 0.080574274 0.32300001 4280894762
0.071929634 0.083392665 0.33000001 4285168741
0.072780266 0.083139963 0.32900003 4283261514
0.073848851 0.083139963 0.32900003 4281945654
0.074917451 0.083139963 0.32900003 4281814583
0.075755075 0.082887255 0.32800001 4281684792
0.076586209 0.082634553 0.32700002 4281291317
0.077648312 0.082634553 0.32700002 4280828204
0.078469701 0.082381845 0.32600001 4280037407
0.079284593 0.082129143 0.32500002 4279116820
0.080092989 0.081876434 0.324 4279774750
0.081145339 0.081876434 0.324 4280171555
0.081944004 0.081623733 0.32300001 4280700204
0.082993105 0.081623733 0.32300001 4280636719
0.084042214 0.081623733 0.32300001 4280570926
0.085091323 0.081623733 0.32300001 4280373545
0.086140424 0.081623733 0.32300001 4280440362
0.087459467 0.081876434 0.324 4279585053
0.08851181 0.081876434 0.324 4279321881
0.089564167 0.081876434 0.324 4279453726
0.090616517 0.081876434 0.324 4279585312
0.091668874 0.081876434 0.324 4279453726
0.092721224 0.081876434 0.324 4279387933
0.093773581 0.081876434 0.324 4279124761
0.094533257 0.081623733 0.32300001 4279256349
0.095582359 0.081623733 0.32300001 4279453215
0.096631467 0.081623733 0.32300001 4279781408
0.097680576 0.081623733 0.32300001 4280108578
0.098424017 0.081371032 0.32200003 4280435749
0.075755075 0.083952963 0.32800001 4282604349
0.076586209 0.083697014 0.32700002 4282145081
0.077648312 0.083697014 0.32700002 4281157423
0.078469701 0.083441056 0.32600001 4280366372
0.079284593 0.083185099 0.32500002 4280892718
0.080092989 0.082929142 0.324 4280761132
0.081145339 0.082929142 0.324 4280235301
0.081944004 0.082673192 0.32300001 4280300579
0.082993105 0.082673192 0.32300001 4280039201
0.084042214 0.082673192 0.32300001 4280698667
0.085091323 0.082673192 0.32300001 4281029680
0.086140424 0.082673192 0.32300001 4280569641
0.087189533 0.082673192 0.32300001 4280768044
0.088238627 0.082673192 0.32300001 4280570665
0.089287736 0.082673192 0.32300001 4279979557
0.090336844 0.082673192 0.32300001 4279519006
0.091385946 0.082673192 0.32300001 4279650846
0.092435054 0.082673192 0.32300001 4279585566
0.093484156 0.082673192 0.32300001 4279388955
0.094533257 0.082673192 0.32300001 4279059992
0.095582359 0.082673192 0.32300001 4279059992
0.096631467 0.082673192 0.32300001 4279190808
0.097378157 0.082417242 0.32200003 4279190554
0.098424017 0.082417242 0.32200003 4279452443
0.099469878 0.082417242 0.32200003 4279845918
0.10051574 0.082417242 0.32200003 4280042783
0.10156158 0.082417242 0.32200003 4280370469
0.077410847 0.084500261 0.32600001 4282998855
0.078469701 0.084500261 0.32600001 4282143548
0.079284593 0.084241062 0.32500002 4281287472
0.080092989 0.083981857 0.324 4279971614
0.081145339 0.083981857 0.324 4280562983
0.081944004 0.083722658 0.32300001 4280497958
0.082993105 0.083722658 0.32300001 4280432163
0.083782025 0.083463453 0.32200003 4280103198
0.084827885 0.083463453 0.32200003 4279840280
0.085873738 0.083463453 0.32200003 4280500258
0.086919598 0.083463453 0.32200003 4281358130
0.087965451 0.083463453 0.32200003 4280832813
0.089011304 0.083463453 0.32200003 4280570411
0.090336844 0.083722658 0.32300001 4280373032
0.091385946 0.083722658 0.32300001 4280307239
0.092435054 0.083722658 0.32300001 4279715869
0.093484156 0.083722658 0.32300001 4279650844
0.094533257 0.083722658 0.32300001 4279388185
0.095582359 0.083722658 0.32300001 4279388187
0.096332304 0.083463453 0.32200003 4279388187
0.097378157 0.083463453 0.32200003 4279256601
0.098424017 0.083463453 0.32200003 4279125015
0.099469878 0.083463453 0.32200003 4278992916
0.10051574 0.083463453 0.32200003 4279321881
0.10124617 0.083204247 0.32100001 4279517977
0.10228878 0.083204247 0.32100001 4279977758
0.10333139 0.083204247 0.32100001 4280239653
0.079040639 0.085034557 0.324 4283852881
0.080092989 0.085034557 0.324 4282339128
0.081145339 0.085034557 0.324 4281155368
0.081944004 0.08477211 0.32300001 4279511315
0.082993105 0.08477211 0.32300001 4280102682
0.083782025 0.084509656 0.32200003 4280365086
0.084827885 0.084509656 0.32200003 4280694565
0.085873738 0.084509656 0.32200003 4280366372
0.086919598 0.084509656 0.32200003 4279379729
0.087965451 0.084509656 0.32200003 4280300829
0.089011304 0.084509656 0.32200003 4281291058
0.090057164 0.084509656 0.32200003 4281029167
0.091103025 0.084509656 0.32200003 4280570413
0.092435054 0.08477211 0.32300001 4280636204
0.093484156 0.08477211 0.32300001 4280242213
0.094240583 0.084509656 0.32200003 4279650846
0.095286444 0.084509656 0.32200003 4279585566
0.096332304 0.084509656 0.32200003 4279453980
0.097378157 0.084509656 0.32200003 4279125785
0.098424017 0.084509656 0.32200003 4279059992
0.099469878 0.084509656 0.32200003 4279125015
0.10020357 0.084247202 0.32100001 4279125015
0.10124617 0.084247202 0.32100001 4279189525
0.10197013 0.083984755 0.32000002 4279386904
0.10300949 0.083984755 0.32000002 4279517723
0.10372369 0.083722293 0.31900001 4279648541
0.1047598 0.083722293 0.31900001 4279911201
0.10579592 0.083722293 0.31900001 4280435756
0.081145339 0.086087264 0.324 4284708192
0.081944004 0.085821569 0.32300001 4281419310
0.082993105 0.085821569 0.32300001 4281748275
0.084042214 0.085821569 0.32300001 4280564001
0.085091323 0.085821569 0.32300001 4280102430
0.086140424 0.085821569 0.32300001 4280036639
0.087189533 0.085821569 0.32300001 4280496676
0.088238627 0.085821569 0.32300001 4280562467
0.089287736 0.085821569 0.32300001 4280233502
0.090336844 0.085821569 0.32300001 4280036635
0.091385946 0.085821569 0.32300001 4280105760
0.092435054 0.085821569 0.32300001 4280765995
0.093484156 0.085821569 0.32300001 4280701227
0.094240583 0.085555874 0.32200003 4280833067
0.095286444 0.085555874 0.32200003 4280241700
0.096332304 0.085555874 0.32200003 4279847455
0.097378157 0.085555874 0.32200003 4279519260
0.098424017 0.085555874 0.32200003 4279519260
0.099160962 0.085290164 0.32100001 4279388187
0.10020357 0.085290164 0.32100001 4279519773
0.10093077 0.085024469 0.32000002 4279124502
0.10197013 0.085024469 0.32000002 4279190295
0.10300949 0.085024469 0.32000002 4279321111
0.10372369 0.084758759 0.31900001 4279321111
0.1047598 0.084758759 0.31900001 4279320857
0.10546428 0.084493063 0.31800002 4279649311
0.10649713 0.084493063 0.31800002 4279779361
0.10753 0.084493063 0.31800002 4280302887
0.10822146 0.084227361 0.317 4281091380
0.10925108 0.084227361 0.317 4281616700
0.097378157 0.086602084 0.32200003 4280767790
0.098424017 0.086602084 0.32200003 4280175907
0.099160962 0.086333133 0.32100001 4279584799
0.10020357 0.086333133 0.32100001 4279453728
0.10093077 0.086064182 0.32000002 4279520289
0.10197013 0.086064182 0.32000002 4279388703
0.10268757 0.085795231 0.31900001 4279453980
0.10372369 0.085795231 0.31900001 4279190808
0.10443141 0.08552628 0.31800002 4279190554
0.10546428 0.08552628 0.31800002 4279124250
0.10649713 0.08552628 0.31800002 4279320861
0.10753 0.08552628 0.31800002 4279451934
0.10822146 0.085257329 0.317 4279844643
0.10925108 0.085257329 0.317 4280040739
0.1102807 0.085257329 0.317 4281026098
0.11131032 0.085257329 0.317 4281486138
0.10020357 0.087376095 0.32100001 4280373032
0.10093077 0.087103896 0.32000002 4279782178
0.10165147 0.086831696 0.31900001 4279651105
0.10268757 0.086831696 0.31900001 4279651105
0.10372369 0.086831696 0.31900001 4279519519
0.10443141 0.086559497 0.31800002 4279387933
0.10546428 0.086559497 0.31800002 4279256347
0.10649713 0.086559497 0.31800002 4279124248
0.10753 0.086559497 0.31800002 4279058457
0.10822146 0.08628729 0.317 4279320348
0.10925108 0.08628729 0.317 4279648543
0.1102807 0.08628729 0.317 4279911201
0.11131032 0.08628729 0.317 4279778848
0.11233994 0.08628729 0.317 4280631590
0.10061535 0.087868161 0.31900001 4280307241
0.10165147 0.087868161 0.31900001 4280373547
0.10268757 0.087868161 0.31900001 4280110375
0.10339855 0.087592714 0.31800002 4279847203
0.10443141 0.087592714 0.31800002 4279585314
0.10546428 0.087592714 0.31800002 4279453728
0.10649713 0.087592714 0.31800002 4279321627
0.10753 0.087592714 0.31800002 4279585053
0.10822146 0.087317258 0.317 4279124248
0.10925108 0.087317258 0.317 4278861076
0.1106286 0.087592714 0.31800002 4279123732
0.11166146 0.087592714 0.31800002 4279386391
0.11269433 0.087592714 0.31800002 4279779865
0.11372718 0.087592714 0.31800002 4279778328
0.11476005 0.087592714 0.31800002 4280303141
0.10546428 0.088625923 0.31800002 4279912994
0.10649713 0.088625923 0.31800002 4279782432
0.10753 0.088625923 0.31800002 4279848738
0.10822146 0.088347219 0.317 4279124761
0.10959573 0.088625923 0.31800002 4279453980
0.1106286 0.088625923 0.31800002 4279386904
0.11166146 0.088625923 0.31800002 4279189525
0.11269433 0.088625923 0.31800002 4279123478
0.11372718 0.088625923 0.31800002 4279451930
0.11476005 0.088625923 0.31800002 4279648027
0.11615704 0.088904612 0.31900001 4279648027
0.11719315 0.088904612 0.31900001 4280237084
0.11822927 0.088904612 0.31900001 4281287208
0.11926538 0.088904612 0.31900001 4283719500
0.10649713 0.08965914 0.31800002 4280438309
0.10753 0.08965914 0.31800002 4280110114
0.10856286 0.08965914 0.31800002 4279650592
0.10959573 0.08965914 0.31800002 4279979557
0.1106286 0.08965914 0.31800002 4279453213
0.11166146 0.08965914 0.31800002 4279321627
0.11269433 0.08965914 0.31800002 4279124248
0.11408481 0.089941084 0.31900001 4279058455
0.11512093 0.089941084 0.31900001 4279386137
0.11615704 0.089941084 0.31900001 4279254551
0.11719315 0.089941084 0.31900001 4279516955
0.11822927 0.089941084 0.31900001 4279648029
0.11926538 0.089941084 0.31900001 4280369186
0.11992438 0.08965914 0.31800002 4280432415
0.10856286 0.090692356 0.31800002 4280569643
0.10959573 0.090692356 0.31800002 4280109862
0.11097648 0.09097755 0.31900001 4280109862
0.11201259 0.09097755 0.31900001 4279912483
0.11304871 0.09097755 0.31900001 4279912481
0.11408481 0.09097755 0.31900001 4279584029
0.11512093 0.09097755 0.31900001 4279320857
0.11615704 0.09097755 0.31900001 4279320857
0.11719315 0.09097755 0.31900001 4279188760
0.11822927 0.09097755 0.31900001 4279386139
0.11926538 0.09097755 0.31900001 4279779613
0.1203015 0.09097755 0.31900001 4279976479
0.12095724 0.090692356 0.31800002 4280172577
0.11097648 0.092014015 0.31900001 4280898606
0.11201259 0.092014015 0.31900001 4280503848
0.11304871 0.092014015 0.31900001 4279978274
0.11408481 0.092014015 0.31900001 4279847201
0.11512093 0.092014015 0.31900001 4279912996
0.11615704 0.092014015 0.31900001 4279781410
0.11719315 0.092014015 0.31900001 4279320859
0.11822927 0.092014015 0.31900001 4279452445
0.11926538 0.092014015 0.31900001 4279386137
0.1203015 0.092014015 0.31900001 4279320344
0.1213376 0.092014015 0.31900001 4279516953
0.10854443 0.09363386 0.32100001 4280304676
0.10958704 0.09363386 0.32100001 4280829735
0.11062965 0.09363386 0.32100001 4280697635
0.11132438 0.09334217 0.32000002 4280763942
0.11236374 0.09334217 0.32000002 4280896298
0.1134031 0.09334217 0.32000002 4280897581
0.11444245 0.09334217 0.32000002 4280832301
0.11548182 0.09334217 0.32000002 4280109862
0.11615704 0.093050465 0.31900001 4279781410
0.11719315 0.093050465 0.31900001 4279912996
0.11822927 0.093050465 0.31900001 4279912996
0.11926538 0.093050465 0.31900001 4279386652
0.1203015 0.093050465 0.31900001 4279386650
0.1213376 0.093050465 0.31900001 4279254551
0.12237372 0.093050465 0.31900001 4279451160
0.12340983 0.093050465 0.31900001 4279713559
0.10854443 0.094676822 0.32100001 4280238118
0.10958704 0.094676822 0.32100001 4280172325
0.11062965 0.094676822 0.32100001 4280960557
0.11132438 0.094381884 0.32000002 4281026602
0.11236374 0.094381884 0.32000002 4281487153
0.1134031 0.094381884 0.32000002 4280895016
0.11444245 0.094381884 0.32000002 4281027116
0.11548182 0.094381884 0.32000002 4281358132
0.11652118 0.094381884 0.32000002 4280767022
0.11719315 0.094086938 0.31900001 4280767022
0.11822927 0.094086938 0.31900001 4279780897
0.11926538 0.094086938 0.31900001 4279649311
0.1203015 0.094086938 0.31900001 4279846690
0.1213376 0.094086938 0.31900001 4279715615
0.12237372 0.094086938 0.31900001 4279320598
0.12340983 0.094086938 0.31900001 4279517207
0.10854443 0.095719784 0.32100001 4280303661
0.10958704 0.095719784 0.32100001 4279843108
0.11062965 0.095719784 0.32100001 4280434473
0.11167226 0.095719784 0.32100001 4280500006
0.11236374 0.095421597 0.32000002 4280500006
0.1134031 0.095421597 0.32000002 4281289009
0.11444245 0.095421597 0.32000002 4281748790
0.11548182 0.095421597 0.32000002 4280763178
0.11652118 0.095421597 0.32000002 4280698669
0.11756054 0.095421597 0.32000002 4280896811
0.11822927 0.095123403 0.31900001 4281225774
0.11926538 0.095123403 0.31900001 4280897579
0.1203015 0.095123403 0.31900001 4280371748
0.1213376 0.095123403 0.31900001 4280043037
0.12237372 0.095123403 0.31900001 4279977758
0.12340983 0.095123403 0.31900001 4279846172
0.10750182 0.096762747 0.32100001 4281615936
0.10854443 0.096762747 0.32100001 4280894009
0.10958704 0.096762747 0.32100001 4280565809
0.11062965 0.096762747 0.32100001 4280697135
0.11167226 0.096762747 0.32100001 4280434213
0.11271487 0.096762747 0.32100001 4280697385
0.11375748 0.096762747 0.32100001 4280960044
0.11444245 0.096461311 0.32000002 4281091630
0.11548182 0.096461311 0.32000002 4281420595
0.11652118 0.096461311 0.32000002 4281486901
0.11756054 0.096461311 0.32000002 4281552692
0.1185999 0.096461311 0.32000002 4281158188
0.11926538 0.096159868 0.31900001 4281355565
0.1203015 0.096159868 0.31900001 4281421872
0.1213376 0.096159868 0.31900001 4281093929
0.12237372 0.096159868 0.31900001 4280700454
0.12340983 0.096159868 0.31900001 4280240930
0.10854443 0.097805701 0.32100001 4281418559
0.10958704 0.097805701 0.32100001 4281287488
0.11062965 0.097805701 0.32100001 4281090109
0.11167226 0.097805701 0.32100001 4281090358
0.11271487 0.097805701 0.32100001 4281090610
0.11375748 0.097805701 0.32100001 4280827688
0.11480008 0.097805701 0.32100001 4281156653
0.11548182 0.097501017 0.32000002 4281682736
0.11652118 0.097501017 0.32000002 4281485357
0.11756054 0.097501017 0.32000002 4281287978
0.1185999 0.097501017 0.32000002 4281814322
0.11926538 0.097196326 0.31900001 4281814835
0.1203015 0.097196326 0.31900001 4281814835
0.1213376 0.097196326 0.31900001 4281420847
0.12237372 0.097196326 0.31900001 4281487151
0.12340983 0.097196326 0.31900001 4281028395
0.10854443 0.098848671 0.32100001 4281680447
0.10958704 0.098848671 0.32100001 4281877826
0.11062965 0.098848671 0.32100001 4281483068
0.11167226 0.098848671 0.32100001 4281548861
0.11271487 0.098848671 0.32100001 4281548861
0.11375748 0.098848671 0.32100001 4282403386
0.11480008 0.098848671 0.32100001 4283128131
0.11584269 0.098848671 0.32100001 4282996545
0.1168853 0.098848671 0.32100001 4282075443
0.11792791 0.098848671 0.32100001 4281813552
0.11897052 0.098848671 0.32100001 4281945908
0.12001313 0.098848671 0.32100001 4282209591
0.12105574 0.098848671 0.32100001 4282143798
0.12209834 0.098848671 0.32100001 4281944884
0.12314095 0.098848671 0.32100001 4280892450
0.12418356 0.098848671 0.32100001 4281618989
0.087225564 0.081231073 0.32465601 4294967295
0.087225564 0.081231073 0.32465601 4294901760
0.087225564 0.081231073 0.325156 4294901760
0.087225564 0.081231073 0.325656 4294901760
0.087225564 0.081231073 0.32615602 4294901760
0.087225564 0.081231073 0.32665601 4294901760
0.087225564 0.081231073 0.32715601 4294901760
0.087225564 0.081231073 0.327656 4294901760
0.087225564 0.081231073 0.32815602 4294901760
0.087225564 0.081231073 0.32865602 4294901760
0.087225564 0.081231073 0.32915601 4294901760
0.087225564 0.081231073 0.329656 4294901760
0.087225564 0.081231073 0.330156 4294901760
0.087225564 0.081231073 0.33065602 4294901760
0.087225564 0.081231073 0.33115602 4294901760
0.087225564 0.081231073 0.33165601 4294901760
0.087225564 0.081231073 0.332156 4294901760
0.087225564 0.081231073 0.33265603 4294901760
0.087225564 0.081231073 0.33315602 4294901760
0.087225564 0.081231073 0.33365601 4294901760
0.087225564 0.081231073 0.33415601 4294901760
0.087225564 0.081231073 0.334656 4294901760
0.087225564 0.081231073 0.33515602 4294901760
0.087225564 0.081231073 0.33565602 4294901760
0.087225564 0.081231073 0.33615601 4294901760
0.087225564 0.081231073 0.336656 4294901760
0.087225564 0.081231073 0.337156 4294901760
0.087225564 0.081231073 0.33765602 4294901760
0.087225564 0.081231073 0.33815601 4294901760
0.087225564 0.081231073 0.33865601 4294901760
0.087225564 0.081231073 0.339156 4294901760
0.087225564 0.081231073 0.33965603 4294901760
0.087225564 0.081231073 0.34015602 4294901760
0.087225564 0.081231073 0.34065601 4294901760
0.087225564 0.081231073 0.34115601 4294901760
0.087225564 0.081231073 0.34165603 4294901760
0.087225564 0.081231073 0.34215602 4294901760
0.087225564 0.081231073 0.34265602 4294901760
0.087225564 0.081231073 0.34315601 4294901760
0.087225564 0.081231073 0.343656 4294901760
0.087225564 0.081231073 0.34415603 4294901760
0.087225564 0.081231073 0.34465602 4294901760
0.087225564 0.081231073 0.34515601 4294901760
0.087225564 0.081231073 0.34565601 4294901760
0.087225564 0.081231073 0.346156 4294901760
0.087225564 0.081231073 0.34665602 4294901760
0.087225564 0.081231073 0.34715602 4294901760
0.087225564 0.081231073 0.34765601 4294901760
0.087225564 0.081231073 0.34815601 4294901760
0.087225564 0.081231073 0.34865603 4294901760
0.087225564 0.081231073 0.34915602 4294901760
0.087225564 0.081231073 0.34965602 4294901760
0.087225564 0.081231073 0.35015601 4294901760
0.087225564 0.081231073 0.350656 4294901760
0.087225564 0.081231073 0.35115603 4294901760
0.087225564 0.081231073 0.35165602 4294901760
0.087225564 0.081231073 0.35215601 4294901760
0.087225564 0.081231073 0.35265601 4294901760
0.087225564 0.081231073 0.35315603 4294901760
0.087225564 0.081231073 0.35365602 4294901760
0.087225564 0.081231073 0.35415602 4294901760
0.087225564 0.081231073 0.35465601 4294901760
0.087225564 0.081231073 0.355156 4294901760
0.087225564 0.081231073 0.35565603 4294901760
0.087225564 0.081231073 0.35615602 4294901760
0.087225564 0.081231073 0.35665601 4294901760
0.087225564 0.081231073 0.35715601 4294901760
0.087225564 0.081231073 0.35765603 4294901760
0.087225564 0.081231073 0.35815603 4294901760
0.087225564 0.081231073 0.35865602 4294901760
0.087225564 0.081231073 0.35915601 4294901760
0.087225564 0.081231073 0.35965601 4294901760
0.087225564 0.081231073 0.36015603 4294901760
0.087225564 0.081231073 0.36065602 4294901760
0.087225564 0.081231073 0.36115602 4294901760
0.087225564 0.081231073 0.36165601 4294901760
0.087225564 0.081231073 0.36215603 4294901760
0.087225564 0.081231073 0.36265603 4294901760
0.087225564 0.081231073 0.36315602 4294901760
0.087225564 0.081231073 0.36365601 4294901760
0.087225564 0.081231073 0.36415601 4294901760
0.087225564 0.081231073 0.36465603 4294901760
0.087225564 0.081231073 0.36515602 4294901760
0.087225564 0.081231073 0.36565602 4294901760
0.087225564 0.081231073 0.36615601 4294901760
0.087225564 0.081231073 0.36665601 4294901760
0.087225564 0.081231073 0.36715603 4294901760
0.087225564 0.081231073 0.36765602 4294901760
0.087225564 0.081231073 0.36815602 4294901760
0.087225564 0.081231073 0.36865601 4294901760
0.087225564 0.081231073 0.369156 4294901760
0.087225564 0.081231073 0.36965603 4294901760
0.087225564 0.081231073 0.37015602 4294901760
0.087225564 0.081231073 0.37065601 4294901760
0.087225564 0.081231073 0.37115604 4294901760
0.087225564 0.081231073 0.37165603 4294901760
0.087225564 0.081231073 0.37215602 4294901760
0.087225564 0.081231073 0.37265602 4294901760
0.087225564 0.081231073 0.37315601 4294901760
0.087225564 0.081231073 0.37365603 4294901760
0.087225564 0.081231073 0.37415603 4294901760
0.087225564 0.081231073 0.37465602 4294901760
0.087225564 0.081231073 0.32465601 4278255360
0.087360755 0.081123695 0.32512525 4278255360
0.087495938 0.081016317 0.32559451 4278255360
0.087631129 0.080908947 0.32606375 4278255360
0.08776632 0.080801569 0.32653302 4278255360
0.087901503 0.080694191 0.32700226 4278255360
0.088036694 0.080586813 0.32747149 4278255360
0.088171884 0.080479436 0.32794076 4278255360
0.088307068 0.080372065 0.32841 4278255360
0.088442259 0.080264688 0.32887924 4278255360
0.088577449 0.08015731 0.3293485 4278255360
0.088712633 0.080049932 0.32981774 4278255360
0.088847823 0.079942554 0.33028701 4278255360
0.088983014 0.079835184 0.33075625 4278255360
0.089118205 0.079727806 0.33122548 4278255360
0.089253388 0.079620428 0.33169475 4278255360
0.089388579 0.079513051 0.33216399 4278255360
0.08952377 0.079405673 0.33263323 4278255360
0.089658953 0.079298303 0.33310249 4278255360
0.089794144 0.079190925 0.33357173 4278255360
0.089929335 0.079083547 0.334041 4278255360
0.090064518 0.078976169 0.33451024 4278255360
0.090199709 0.078868791 0.33497947 4278255360
0.0903349 0.078761421 0.33544874 4278255360
0.090470083 0.078654043 0.33591798 4278255360
0.090605274 0.078546666 0.33638722 4278255360
0.090740465 0.078439288 0.33685648 4278255360
0.090875648 0.07833191 0.33732572 4278255360
0.091010839 0.07822454 0.33779499 4278255360
0.09114603 0.078117162 0.33826423 4278255360
0.091281213 0.078009784 0.33873346 4278255360
0.091416404 0.077902406 0.33920273 4278255360
0.091551594 0.077795029 0.33967197 4278255360
0.091686778 0.077687658 0.34014124 4278255360
0.091821969 0.077580281 0.34061047 4278255360
0.091957159 0.077472903 0.34107971 4278255360
0.09209235 0.077365525 0.34154898 4278255360
0.092227533 0.077258147 0.34201822 4278255360
0.092362724 0.077150777 0.34248745 4278255360
0.092497915 0.077043399 0.34295672 4278255360
0.092633098 0.076936021 0.34342596 4278255360
0.092768289 0.076828644 0.34389523 4278255360
0.09290348 0.076721266 0.34436446 4278255360
0.093038663 0.076613896 0.3448337 4278255360
0.093173854 0.076506518 0.34530297 4278255360
0.093309045 0.07639914 0.34577221 4278255360
0.093444228 0.076291762 0.34624147 4278255360
0.093579419 0.076184385 0.34671071 4278255360
0.09371461 0.076077014 0.34717995 4278255360
0.093849793 0.075969636 0.34764922 4278255360
0.093984984 0.075862259 0.34811845 4278255360
0.094120175 0.075754881 0.34858769 4278255360
0.094255358 0.075647503 0.34905696 4278255360
0.094390549 0.075540133 0.3495262 4278255360
0.09452574 0.075432755 0.34999546 4278255360
0.094660923 0.075325377 0.3504647 4278255360
0.094796114 0.075218 0.35093394 4278255360
0.094931304 0.075110622 0.35140321 4278255360
0.095066488 0.075003251 0.35187244 4278255360
0.095201679 0.074895874 0.35234168 4278255360
0.095336869 0.074788496 0.35281095 4278255360
0.095472053 0.074681118 0.35328019 4278255360
0.095607243 0.07457374 0.35374945 4278255360
0.095742434 0.07446637 0.35421869 4278255360
0.095877618 0.074358992 0.35468793 4278255360
0.096012808 0.074251615 0.3551572 4278255360
0.096147999 0.074144237 0.35562643 4278255360
0.09628319 0.074036859 0.35609567 4278255360
0.096418373 0.073929489 0.35656494 4278255360
0.096553564 0.073822111 0.35703418 4278255360
0.096688755 0.073714733 0.35750344 4278255360
0.096823938 0.073607355 0.35797268 4278255360
0.096959129 0.073499978 0.35844192 4278255360
0.09709432 0.073392607 0.35891119 4278255360
0.097229503 0.07328523 0.35938042 4278255360
0.097364694 0.073177852 0.35984969 4278255360
0.097499885 0.073070474 0.36031893 4278255360
0.097635068 0.072963096 0.36078817 4278255360
0.097770259 0.072855726 0.36125743 4278255360
0.09790545 0.072748348 0.36172667 4278255360
0.098040633 0.07264097 0.36219591 4278255360
0.098175824 0.072533593 0.36266518 4278255360
0.098311014 0.072426215 0.36313441 4278255360
0.098446198 0.072318844 0.36360365 4278255360
0.098581389 0.072211467 0.36407292 4278255360
0.098716579 0.072104089 0.36454216 4278255360
0.09885177 0.071996711 0.36501142 4278255360
0.098986953 0.071889333 0.36548066 4278255360
0.099122144 0.071781963 0.3659499 4278255360
0.099257335 0.071674585 0.36641917 4278255360
0.099392518 0.071567208 0.3668884 4278255360
0.099527709 0.07145983 0.36735767 4278255360
0.0996629 0.071352452 0.36782691 4278255360
0.099798083 0.071245082 0.36829615 4278255360
0.099933274 0.071137704 0.36876541 4278255360
0.10006846 0.071030326 0.36923465 4278255360
0.10020365 0.070922948 0.36970389 4278255360
0.10033884 0.070815571 0.37017316 4278255360
0.10047403 0.0707082 0.37064239 4278255360
0.10060921 0.070600823 0.37111166 4278255360
0.1007444 0.070493445 0.3715809 4278255360
