# .PCD v0.7 - Point Cloud Data file format
VERSION 0.7
FIELDS x y z rgb
SIZE 4 4 4 4
TYPE F F F U
COUNT 1 1 1 1
WIDTH 1018
HEIGHT 1
VIEWPOINT 0 0 0 1 0 0 0
POINTS 1018
DATA ascii
-0.0074671404 0.0072946781 0.47000003 4286790198
-0.026731314 0.0086340588 0.46000001 4287407506
-0.0252921 0.0086528286 0.46100003 4287537807
-0.02379477 0.0086528286 0.46100003 4287998358
-0.022345807 0.0086715985 0.46200001 4288059785
-0.020890351 0.0086903684 0.46300003 4286871656
-0.019470271 0.0087279081 0.46500003 4287587155
-0.017998572 0.0087466771 0.46600002 4286991422
-0.016520379 0.008765447 0.46700001 4287317049
-0.01503569 0.0087842168 0.46800002 4286724912
-0.013515625 0.0087842168 0.46800002 4286592553
-0.012021191 0.0088029858 0.46900001 4286722854
-0.010520263 0.0088217556 0.47000003 4287248428
-0.008993702 0.0088217556 0.47000003 4288564031
-0.0074671404 0.0088217556 0.47000003 4288038466
-0.0059532197 0.0088405255 0.47100002 4287446327
-0.031213557 0.010128645 0.46000001 4286947982
-0.029719478 0.010128645 0.46000001 4286418042
-0.028225396 0.010128645 0.46000001 4286404428
-0.026731314 0.010128645 0.46000001 4286534467
-0.025237234 0.010128645 0.46000001 4287258188
-0.02379477 0.010150664 0.46100003 4287061581
-0.022345807 0.010172683 0.46200001 4286529590
-0.020890351 0.010194702 0.46300003 4286527278
-0.019428398 0.01021672 0.46400002 4286922034
-0.01795995 0.01023874 0.46500003 4285738017
-0.016520379 0.010282777 0.46700001 4284692011
-0.015003562 0.010282777 0.46700001 4285484093
-0.013515625 0.010304797 0.46800002 4284295454
-0.012021191 0.010326815 0.46900001 4285936168
-0.010520263 0.010348834 0.47000003 4286460452
-0.008993702 0.010348834 0.47000003 4286524453
-0.0074830279 0.010370852 0.47100002 4291330440
-0.0059532197 0.010370852 0.47100002 4286987579
-0.0044328026 0.010392872 0.47200003 4285675826
-0.031213557 0.011623232 0.46000001 4286873971
-0.029654872 0.011597965 0.45900002 4285482556
-0.028164037 0.011597965 0.45900002 4286659116
-0.026673203 0.011597965 0.45900002 4286723624
-0.025237234 0.011623232 0.46000001 4287117096
-0.023743154 0.011623232 0.46000001 4287117866
-0.022297442 0.0116485 0.46100003 4287513394
-0.020845231 0.011673768 0.46200001 4286855212
-0.019428398 0.011724303 0.46400002 4288251509
-0.01795995 0.011749572 0.46500003 4288192139
-0.016485004 0.01177484 0.46600002 4287077256
-0.015003562 0.011800108 0.46700001 4287208844
-0.013515625 0.011825375 0.46800002 4287472268
-0.012021191 0.011850643 0.46900001 4285625439
-0.010520263 0.011875912 0.47000003 4285540640
-0.008993702 0.011875912 0.47000003 4286264104
-0.0074830279 0.011901179 0.47100002 4286524457
-0.0059658596 0.011926447 0.47200003 4287511350
-0.0044328026 0.011926447 0.47200003 4286790707
-0.031145703 0.013089303 0.45900002 4284693810
-0.029654872 0.013089303 0.45900002 4285871658
-0.028164037 0.013089303 0.45900002 4286789671
-0.026673203 0.013089303 0.45900002 4286722336
-0.025182372 0.013089303 0.45900002 4287116067
-0.023691539 0.013089303 0.45900002 4287445034
-0.022249073 0.013117819 0.46000001 4287642411
-0.020800112 0.013146337 0.46100003 4287181862
-0.019386528 0.013203371 0.46300003 4288382583
-0.017921325 0.013231887 0.46400002 4287537029
-0.016485004 0.013288922 0.46600002 4286815621
-0.015003562 0.013317439 0.46700001 4286881160
-0.013515625 0.013345956 0.46800002 4287472527
-0.012021191 0.013374473 0.46900001 4288915862
-0.010520263 0.01340299 0.47000003 4285017119
-0.009012837 0.013431507 0.47100002 4285672996
-0.0074830279 0.013431507 0.47100002 4285869346
-0.0059658596 0.013460024 0.47200003 4285934623
-0.0044328026 0.013460024 0.47200003 4285739559
-0.032707639 0.014612407 0.46000001 4285431147
-0.031145703 0.014580641 0.45900002 4285413935
-0.029654872 0.014580641 0.45900002 4285476385
-0.028102677 0.014548875 0.45800003 4286065946
-0.026615093 0.014548875 0.45800003 4286328348
-0.02512751 0.014548875 0.45800003 4286787102
-0.023691539 0.014580641 0.45900002 4287116069
-0.022249073 0.014612407 0.46000001 4289092174
-0.020800112 0.014644174 0.46100003 4287313966
-0.019344656 0.014675939 0.46200001 4286069039
-0.017921325 0.014739471 0.46400002 4289895052
-0.016485004 0.014803004 0.46600002 4287594866
-0.015003562 0.01483477 0.46700001 4285615427
-0.013515625 0.014866536 0.46800002 4285938482
-0.012046823 0.014930069 0.47000003 4286594868
-0.010520263 0.014930069 0.47000003 4287053874
-0.009012837 0.014961834 0.47100002 4286988081
-0.0074989158 0.014993601 0.47200003 4285739557
-0.0059784986 0.015025367 0.47300002 4285871656
-0.004442194 0.015025367 0.47300002 4284431403
-0.032707639 0.016106993 0.46000001 4282402355
-0.031145703 0.016071979 0.45900002 4285019947
-0.029590266 0.016036965 0.45800003 4285411875
-0.028102677 0.016036965 0.45800003 4285606937
-0.026615093 0.016036965 0.45800003 4285671703
-0.02512751 0.016036965 0.45800003 4286394143
-0.023639925 0.016036965 0.45800003 4286590752
-0.022200705 0.016071979 0.45900002 4287181610
-0.020754991 0.016106993 0.46000001 4288695622
-0.019344656 0.016177025 0.46200001 4287248176
-0.017921325 0.016247055 0.46400002 4287249716
-0.016485004 0.016317084 0.46600002 4287052850
-0.01503569 0.016387116 0.46800002 4287447608
-0.013544505 0.01642213 0.46900001 4285607205
-0.012046823 0.016457146 0.47000003 4286529590
-0.010542646 0.016492162 0.47100002 4285479980
-0.0090319728 0.016527178 0.47200003 4285017632
-0.0075148032 0.016562192 0.47300002 4285215011
-0.0059784986 0.016562192 0.47300002 4284886560
-0.0044515859 0.016597208 0.47400004 4283903778
-0.032707639 0.017601579 0.46000001 4282136103
-0.031077849 0.017525053 0.45800003 4284822822
-0.029590266 0.017525053 0.45800003 4284689181
-0.028041318 0.017486788 0.45700002 4284950554
-0.02655698 0.017486788 0.45700002 4284884502
-0.02512751 0.017525053 0.45800003 4285475094
-0.023639925 0.017525053 0.45800003 4286000155
-0.022200705 0.017563317 0.45900002 4286656288
-0.020800112 0.017639846 0.46100003 4287181862
-0.019344656 0.01767811 0.46200001 4287511343
-0.017921325 0.017754639 0.46400002 4286919206
-0.016485004 0.017831167 0.46600002 4286527528
-0.01503569 0.017907696 0.46800002 4284884250
-0.013573385 0.017984224 0.47000003 4284294171
-0.012072454 0.018022489 0.47100002 4284032282
-0.01056503 0.018060753 0.47200003 4285088304
-0.0090511087 0.018099017 0.47300002 4284497450
-0.0075148032 0.018099017 0.47300002 4283704087
-0.0059911385 0.018137282 0.47400004 4284953638
-0.0044515859 0.018137282 0.47400004 4285281320
-0.0029181761 0.018175546 0.47500002 4288643189
-0.031077849 0.01901314 0.45800003 4284953634
-0.029525656 0.018971628 0.45700002 4284295191
-0.028041318 0.018971628 0.45700002 4284491802
-0.02655698 0.018971628 0.45700002 4283965460
-0.02512751 0.01901314 0.45800003 4285081879
-0.023639925 0.01901314 0.45800003 4285606683
-0.022200705 0.019054655 0.45900002 4285803035
-0.020800112 0.019137681 0.46100003 4285802522
-0.019386528 0.019220708 0.46300003 4285671449
-0.01795995 0.019303735 0.46500003 4286264615
-0.016520379 0.019386761 0.46700001 4284820769
-0.015067817 0.019469788 0.46900001 4283833874
-0.013573385 0.019511301 0.47000003 4283637013
-0.012098087 0.019594328 0.47200003 4283637013
-0.010587414 0.019635841 0.47300002 4282523154
-0.0090511087 0.019635841 0.47300002 4283052069
-0.0075306911 0.019677356 0.47400004 4283376669
-0.006003778 0.019718869 0.47500002 4283770395
-0.0044609774 0.019718869 0.47500002 4285016867
-0.0029243196 0.019760381 0.47600001 4284951589
-0.029525656 0.020456467 0.45700002 4285411105
-0.028041318 0.020456467 0.45700002 4283900437
-0.02655698 0.020456467 0.45700002 4283834644
-0.02512751 0.02050123 0.45800003 4284096530
-0.023691539 0.020545991 0.45900002 4285148187
-0.022249073 0.020590754 0.46000001 4285346336
-0.020845231 0.020680279 0.46200001 4285411875
-0.019386528 0.020725042 0.46300003 4286205500
-0.017998572 0.020859329 0.46600002 4284165665
-0.016555754 0.020948855 0.46800002 4283505938
-0.015067817 0.020993616 0.46900001 4284425757
-0.013602264 0.021083141 0.47100002 4284622363
-0.012098087 0.021127906 0.47200003 4284622876
-0.010587414 0.021172667 0.47300002 4288586129
-0.0090702446 0.02121743 0.47400004 4287866774
-0.0075465781 0.021262191 0.47500002 4282788904
-0.006003778 0.021262191 0.47500002 4283310878
-0.0044703684 0.021306954 0.47600001 4284229150
-0.0029243196 0.021306954 0.47600001 4285412654
-0.0013811664 0.021351717 0.47700003 4285153591
-0.029525656 0.021941308 0.45700002 4285277466
-0.028041318 0.021941308 0.45700002 4284298271
-0.026615093 0.021989319 0.45800003 4283774241
-0.025182372 0.022037331 0.45900002 4282915598
-0.023743154 0.022085343 0.46000001 4283768851
-0.022297442 0.022133354 0.46100003 4284820767
-0.020845231 0.022181366 0.46200001 4284032021
-0.019428398 0.022277389 0.46400002 4284101925
-0.017998572 0.022373412 0.46600002 4283772192
-0.016555754 0.022469435 0.46800002 4283901979
-0.015099945 0.02256546 0.47000003 4284493603
-0.013631144 0.022661483 0.47200003 4284229402
-0.012123718 0.022709493 0.47300002 4283704089
-0.010609797 0.022757506 0.47400004 4287275920
-0.0090893796 0.022805518 0.47500002 4287013777
-0.0075465781 0.022805518 0.47500002 4288060303
-0.0060164174 0.022853527 0.47600001 4282787362
-0.0044797603 0.022901541 0.47700003 4283573016
-0.0029304633 0.022901541 0.47700003 4285150250
-0.0013840619 0.022949552 0.47800002 4286462512
0.00016848295 0.022949552 0.47800002 4286725686
-0.032423224 0.023374887 0.45600003 4284822820
-0.030942136 0.023374887 0.45600003 4285673248
-0.029525656 0.023426147 0.45700002 4285213467
-0.028041318 0.023426147 0.45700002 4282328078
-0.026615093 0.023477409 0.45800003 4282131728
-0.025182372 0.023528669 0.45900002 4283972138
-0.023743154 0.023579929 0.46000001 4283310356
-0.022345807 0.023682451 0.46200001 4285543976
-0.020890351 0.023733713 0.46300003 4286928196
-0.019470271 0.023836233 0.46500003 4284234024
-0.018037196 0.023938753 0.46700001 4283182881
-0.01659113 0.024041275 0.46900001 4280094725
-0.015099945 0.024092536 0.47000003 4283582270
-0.013631144 0.024195058 0.47200003 4280225544
-0.012123718 0.024246318 0.47300002 4285491298
-0.010609797 0.02429758 0.47400004 4287013259
-0.0090893796 0.02434884 0.47500002 4287145359
-0.0075624655 0.0244001 0.47600001 4288460196
-0.0060290569 0.024451362 0.47700003 4281477410
-0.0044797603 0.024451362 0.47700003 4283573016
-0.0029366068 0.024502622 0.47800002 4284229661
-0.0013840619 0.024502622 0.47800002 4285935650
0.00016883542 0.024553884 0.47900003 4287249200
0.0017246283 0.024553884 0.47900003 4286922038
-0.035385404 0.024856478 0.45600003 4282336291
-0.033904314 0.024856478 0.45600003 4284494368
-0.032423224 0.024856478 0.45600003 4285280804
-0.030942136 0.024856478 0.45600003 4286002983
-0.029525656 0.024910986 0.45700002 4283703308
-0.028041318 0.024910986 0.45700002 4281804049
-0.026615093 0.024965497 0.45800003 4281869328
-0.025182372 0.025020007 0.45900002 4284035616
-0.023743154 0.025074515 0.46000001 4285213728
-0.022345807 0.025183534 0.46200001 4286003242
-0.02093547 0.025292555 0.46400002 4284954406
-0.019470271 0.025347065 0.46500003 4281935644
-0.018037196 0.025456084 0.46700001 4280358931
-0.01659113 0.025565105 0.46900001 4279177998
-0.015132072 0.025674123 0.47100002 4282403138
-0.013631144 0.025728634 0.47200003 4284311903
-0.01214935 0.025837654 0.47400004 4279179279
-0.010632181 0.025892163 0.47500002 4287407506
-0.0091085145 0.025946673 0.47600001 4287277715
-0.0075783534 0.026001183 0.47700003 4287474324
-0.0060290569 0.026001183 0.47700003 4282930500
-0.0044891518 0.026055692 0.47800002 4283311389
-0.0029366068 0.026055692 0.47800002 4283835934
-0.0013869575 0.026110204 0.47900003 4285869600
0.00016883542 0.026110204 0.47900003 4286657061
0.0017282286 0.026164712 0.48000002 4286723124
0.0032872695 0.026164712 0.48000002 4286592819
-0.035385404 0.026338067 0.45600003 4282728229
-0.033904314 0.026338067 0.45600003 4285215525
-0.03235212 0.026280308 0.45500001 4285739557
-0.030942136 0.026338067 0.45600003 4285740324
-0.02946105 0.026338067 0.45600003 4283179022
-0.028041318 0.026395826 0.45700002 4280817667
-0.026615093 0.026453586 0.45800003 4282922016
-0.025182372 0.026511343 0.45900002 4284821537
-0.023743154 0.026569102 0.46000001 4286659889
-0.022345807 0.026684619 0.46200001 4285938732
-0.02093547 0.026800139 0.46400002 4284234538
-0.019512143 0.026915656 0.46600002 4280426007
-0.018037196 0.026973415 0.46700001 4279703313
-0.01659113 0.027088933 0.46900001 4279969567
-0.015132072 0.02720445 0.47100002 4280232739
-0.013660023 0.027319968 0.47300002 4279113235
-0.01214935 0.027377728 0.47400004 4281284657
-0.010632181 0.027435487 0.47500002 4279905569
-0.0091085145 0.027493244 0.47600001 4287605398
-0.0075783534 0.027551005 0.47700003 4287342738
-0.0060416963 0.027608763 0.47800002 4286681982
-0.0044891518 0.027608763 0.47800002 4283312159
-0.0029366068 0.027608763 0.47800002 4283638555
-0.0013869575 0.027666522 0.47900003 4286133547
0.00016883542 0.027666522 0.47900003 4286460713
0.0017282286 0.027724281 0.48000002 4291396989
0.0032872695 0.027724281 0.48000002 4286987834
0.0048564067 0.027782042 0.48100004 4287530618
-0.037109032 0.028002681 0.45900002 4282400027
-0.035307802 0.027758649 0.45500001 4283514401
-0.033829961 0.027758649 0.45500001 4285542693
-0.032281019 0.027697641 0.45400003 4286264358
-0.03087428 0.027758649 0.45500001 4284558363
-0.029396441 0.027758649 0.45500001 4281209088
-0.027979959 0.027819658 0.45600003 4283647784
-0.02655698 0.027880665 0.45700002 4283578913
-0.02512751 0.027941674 0.45800003 4285872680
-0.023743154 0.028063688 0.46000001 4285936420
-0.022345807 0.028185705 0.46200001 4284431144
-0.02093547 0.028307721 0.46400002 4280554761
-0.019470271 0.02836873 0.46500003 4279966739
-0.018037196 0.028490745 0.46700001 4286351738
-0.01659113 0.028612761 0.46900001 4285499511
-0.015132072 0.028734777 0.47100002 4282670412
-0.013660023 0.028856793 0.47300002 4284115553
-0.01214935 0.028917802 0.47400004 4281549112
-0.010632181 0.02897881 0.47500002 4279311635
-0.0091276504 0.029100826 0.47700003 4288065436
-0.0075783534 0.029100826 0.47700003 4287211154
-0.0060416963 0.029161833 0.47800002 4287998873
-0.0044891518 0.029161833 0.47800002 4283114010
-0.0029427505 0.029222842 0.47900003 4283901468
-0.0013869575 0.029222842 0.47900003 4285411107
0.0001691879 0.02928385 0.48000002 4285672994
0.0017282286 0.02928385 0.48000002 4286460713
0.0032872695 0.02928385 0.48000002 4286723887
-0.03686649 0.02930125 0.45600003 4282399002
-0.035230204 0.029172735 0.45400003 4284561958
-0.033681259 0.029108478 0.45300001 4285540638
-0.032281019 0.029172735 0.45400003 4286330408
-0.030806426 0.029172735 0.45400003 4283046924
-0.029396441 0.029236991 0.45500001 4281539591
-0.027918598 0.029236991 0.45500001 4281935371
-0.026498869 0.02930125 0.45600003 4283707930
-0.02512751 0.029429764 0.45800003 4285476639
-0.023743154 0.029558277 0.46000001 4285937190
-0.022345807 0.029686792 0.46200001 4284369724
-0.02093547 0.029815305 0.46400002 4284440911
-0.019470271 0.029879564 0.46500003 4281286192
-0.018037196 0.030008078 0.46700001 4286154874
-0.01659113 0.030136591 0.46900001 4283524184
-0.015132072 0.030265106 0.47100002 4284247139
-0.013660023 0.030393621 0.47300002 4282404160
-0.01214935 0.030457878 0.47400004 4282404160
-0.010654564 0.030586392 0.47600001 4281154093
-0.0091276504 0.030650649 0.47700003 4288393379
-0.0075942408 0.030714905 0.47800002 4287474074
-0.0060416963 0.030714905 0.47800002 4288262047
-0.0044985432 0.030779164 0.47900003 4283179292
-0.0029427505 0.030779164 0.47900003 4284229148
-0.001389853 0.03084342 0.48000002 4285148705
0.0001691879 0.03084342 0.48000002 4285476900
0.0017282286 0.03084342 0.48000002 4285279008
0.003294118 0.030907677 0.48100004 4286134832
-0.037927102 0.030445309 0.45100003 4281940509
-0.036623947 0.030580319 0.45300001 4283512352
-0.035075005 0.030512815 0.45200002 4285216808
-0.033606909 0.030512815 0.45200002 4286263588
-0.032209914 0.030580319 0.45300001 4286592553
-0.03073857 0.030580319 0.45300001 4282653711
-0.029331835 0.030647827 0.45400003 4281540109
-0.027918598 0.030715333 0.45500001 4282789399
-0.026498869 0.030782839 0.45600003 4284035612
-0.025072645 0.030850345 0.45700002 4285607455
-0.023691539 0.030985359 0.45900002 4284555537
-0.022297442 0.031120371 0.46100003 4280884241
-0.020890351 0.031255383 0.46300003 4280559131
-0.019470271 0.031390395 0.46500003 4280626466
-0.018037196 0.031525407 0.46700001 4280692772
-0.01659113 0.031660419 0.46900001 4290892220
-0.015132072 0.031795431 0.47100002 4283323959
-0.013660023 0.031930447 0.47300002 4281941284
-0.01214935 0.031997953 0.47400004 4282599216
-0.010654564 0.032132965 0.47600001 4279640082
-0.0091276504 0.032200471 0.47700003 4288393379
-0.0075942408 0.032267977 0.47800002 4287342488
-0.0060543362 0.032335483 0.47900003 4288327327
-0.0044985432 0.032335483 0.47900003 4283967522
-0.0029427505 0.032335483 0.47900003 4284754976
-0.001389853 0.032402989 0.48000002 4285476898
0.0001691879 0.032402989 0.48000002 4285542691
0.0017318293 0.032470495 0.48100004 4285019695
0.003294118 0.032470495 0.48100004 4286409055
-0.037927102 0.031910654 0.45100003 4281742619
-0.036543101 0.031981409 0.45200002 4284692261
-0.035075005 0.031981409 0.45200002 4285871656
-0.033606909 0.031981409 0.45200002 4287973691
-0.03213881 0.031981409 0.45200002 4287314993
-0.03073857 0.032052163 0.45300001 4285609256
-0.029267225 0.032052163 0.45300001 4281733377
-0.027857238 0.032122921 0.45400003 4283313690
-0.026498869 0.03226443 0.45600003 4283968024
-0.025072645 0.032335185 0.45700002 4285804580
-0.023691539 0.032476697 0.45900002 4284817687
-0.022297442 0.032618206 0.46100003 4280621067
-0.020890351 0.032759719 0.46300003 4281151520
-0.019470271 0.032901227 0.46500003 4280626464
-0.018037196 0.033042736 0.46700001 4280033559
-0.01659113 0.033184249 0.46900001 4282007851
-0.015132072 0.033325758 0.47100002 4284110647
-0.013660023 0.03346727 0.47300002 4285756746
-0.012174981 0.033608783 0.47500002 4281480212
-0.010654564 0.033679534 0.47600001 4280561952
-0.0091276504 0.033750292 0.47700003 4288130461
-0.0075942408 0.033821046 0.47800002 4287540121
-0.0060543362 0.033891805 0.47900003 4287076488
-0.0044985432 0.033891805 0.47900003 4284952871
-0.0029488937 0.033962559 0.48000002 4285082142
-0.001389853 0.033962559 0.48000002 4285607201
0.0001691879 0.033962559 0.48000002 4286597178
0.0017318293 0.034033313 0.48100004 4287535240
-0.039304607 0.033301994 0.45000002 4281414165
-0.037843008 0.033301994 0.45000002 4282661152
-0.036462255 0.033376001 0.45100003 4285676074
-0.034997404 0.033376001 0.45100003 4286264358
-0.033532556 0.033376001 0.45100003 4286787104
-0.03213881 0.033450004 0.45200002 4287181349
-0.030670714 0.033450004 0.45200002 4287641898
-0.029267225 0.033524007 0.45300001 4287313446
-0.027857238 0.033598013 0.45400003 4286460452
-0.026440756 0.033672016 0.45500001 4285672221
-0.025072645 0.033820026 0.45700002 4286001186
-0.023691539 0.033968035 0.45900002 4285936166
-0.022297442 0.034116041 0.46100003 4281014542
-0.020890351 0.03426405 0.46300003 4281348645
-0.019470271 0.03441206 0.46500003 4280559901
-0.018037196 0.034560069 0.46700001 4280099350
-0.01659113 0.034708075 0.46900001 4280690710
-0.015132072 0.034856085 0.47100002 4281478677
-0.013660023 0.035004094 0.47300002 4281677589
-0.012174981 0.035152104 0.47500002 4282467875
-0.010654564 0.035226107 0.47600001 4279508498
-0.0091276504 0.035300113 0.47700003 4287539092
-0.0075942408 0.035374116 0.47800002 4287671191
-0.0060543362 0.035448123 0.47900003 4284443223
-0.0044985432 0.035448123 0.47900003 4285082914
-0.0029488937 0.035522126 0.48000002 4285146650
-0.001389853 0.035522126 0.48000002 4284883482
0.00016954038 0.035596132 0.48100004 4290748565
0.0017318293 0.035596132 0.48100004 4287605396
0.0033009665 0.035670135 0.48200002 4287408533
-0.039304607 0.034764089 0.45000002 4282729773
-0.037843008 0.034764089 0.45000002 4283645737
-0.036462255 0.034841344 0.45100003 4285608736
-0.034997404 0.034841344 0.45100003 4286263073
-0.033532556 0.034841344 0.45100003 4286655518
-0.032067709 0.034841344 0.45100003 4287115556
-0.030670714 0.034918595 0.45200002 4287377956
-0.029267225 0.03499585 0.45300001 4289617480
-0.027857238 0.035073105 0.45400003 4287511593
-0.026440756 0.035150357 0.45500001 4288234546
-0.025072645 0.035304863 0.45700002 4287249970
-0.023691539 0.035459369 0.45900002 4285672996
-0.022297442 0.03561388 0.46100003 4280686860
-0.020890351 0.035768386 0.46300003 4279112453
-0.019470271 0.035922892 0.46500003 4280428315
-0.018037196 0.036077399 0.46700001 4281415210
-0.01659113 0.036231905 0.46900001 4281941806
-0.015132072 0.036386412 0.47100002 4285362263
-0.013660023 0.036540922 0.47300002 4281810204
-0.012174981 0.036695428 0.47500002 4282270503
-0.010654564 0.03677268 0.47600001 4283194703
-0.0091467863 0.036927186 0.47800002 4287736219
-0.0075942408 0.036927186 0.47800002 4287801494
-0.0060543362 0.037004441 0.47900003 4283846975
-0.0044985432 0.037004441 0.47900003 4285607201
-0.0029488937 0.037081696 0.48000002 4285738271
-0.001389853 0.037081696 0.48000002 4284491550
-0.039304607 0.036226183 0.45000002 4282070560
-0.037843008 0.036226183 0.45000002 4283905575
-0.036462255 0.03630669 0.45100003 4285279519
-0.034997404 0.03630669 0.45100003 4285803807
-0.033532556 0.03630669 0.45100003 4286328096
-0.032067709 0.03630669 0.45100003 4286524448
-0.030670714 0.03638719 0.45200002 4286982946
-0.029267225 0.03646769 0.45300001 4287773745
-0.027857238 0.036548197 0.45400003 4288895574
-0.026440756 0.036628697 0.45500001 4287642159
-0.025072645 0.036789704 0.45700002 4286787877
-0.023691539 0.036950707 0.45900002 4285936420
-0.022297442 0.037111714 0.46100003 4281344790
-0.020890351 0.037272722 0.46300003 4279966994
-0.019470271 0.037433725 0.46500003 4280230938
-0.018037196 0.037594728 0.46700001 4279967764
-0.01659113 0.037755735 0.46900001 4284508501
-0.015132072 0.037916739 0.47100002 4281876781
-0.013660023 0.038077746 0.47300002 4282599986
-0.012174981 0.038238753 0.47500002 4282271539
-0.010676947 0.038399756 0.47700003 4288327325
-0.0091467863 0.038480259 0.47800002 4287671193
-0.0075942408 0.038480259 0.47800002 4288984483
-0.0060543362 0.038560763 0.47900003 4283710510
-0.0044985432 0.038560763 0.47900003 4285935139
-0.0029427505 0.038560763 0.47900003 4286066725
-0.001389853 0.038641263 0.48000002 4284297769
-0.039304607 0.037688281 0.45000002 4282136355
-0.037843008 0.037688281 0.45000002 4283709227
-0.036462255 0.037772033 0.45100003 4285149734
-0.034997404 0.037772033 0.45100003 4285477670
-0.033532556 0.037772033 0.45100003 4285671967
-0.032067709 0.037772033 0.45100003 4286065955
-0.030670714 0.037855785 0.45200002 4286524705
-0.029267225 0.037939534 0.45300001 4286919208
-0.027857238 0.038023289 0.45400003 4288498247
-0.026440756 0.038107038 0.45500001 4287707954
-0.025072645 0.038274541 0.45700002 4286262305
-0.023691539 0.038442045 0.45900002 4284359452
-0.022297442 0.038609549 0.46100003 4281019684
-0.020890351 0.038777053 0.46300003 4279836698
-0.019512143 0.039028309 0.46600002 4279836698
-0.01807582 0.039195813 0.46800002 4279507733
-0.016626507 0.039363317 0.47000003 4280099350
-0.0151642 0.039530821 0.47200003 4282796861
-0.013688903 0.039698325 0.47400004 4281677612
-0.012200613 0.039865825 0.47600001 4281411355
-0.010676947 0.039949577 0.47700003 4287530356
-0.0091467863 0.040033329 0.47800002 4287866256
-0.0076101287 0.040117081 0.47900003 4289043855
-0.0060543362 0.040117081 0.47900003 4285543726
-0.0044985432 0.040117081 0.47900003 4286459430
-0.0029427505 0.040117081 0.47900003 4286591016
-0.001389853 0.040200833 0.48000002 4287788395
-0.039304607 0.039150376 0.45000002 4283914315
-0.037843008 0.039150376 0.45000002 4283316270
-0.036462255 0.03923738 0.45100003 4284363046
-0.034997404 0.03923738 0.45100003 4284690212
-0.033532556 0.03923738 0.45100003 4285016351
-0.03213881 0.039324377 0.45200002 4285344031
-0.030670714 0.039324377 0.45200002 4286131489
-0.029267225 0.039411377 0.45300001 4286263075
-0.027857238 0.039498381 0.45400003 4287116587
-0.026498869 0.039672382 0.45600003 4287511343
-0.025072645 0.039759383 0.45700002 4285213215
-0.023691539 0.039933383 0.45900002 4290160021
-0.022345807 0.040194385 0.46200001 4288392348
-0.02093547 0.040368386 0.46400002 4279377943
-0.019512143 0.04054239 0.46600002 4279969314
-0.01807582 0.040716391 0.46800002 4279640602
-0.016626507 0.040890392 0.47000003 4281284909
-0.0151642 0.041064397 0.47200003 4283785043
-0.013688903 0.041238397 0.47400004 4281079308
-0.012200613 0.041412398 0.47600001 4286006074
-0.010676947 0.041499399 0.47700003 4285805100
-0.0091467863 0.041586399 0.47800002 4290156426
-0.0076101287 0.0416734 0.47900003 4285215527
-0.0060543362 0.0416734 0.47900003 4286591786
-0.0044985432 0.0416734 0.47900003 4286918954
-0.0029427505 0.0416734 0.47900003 4286591016
-0.039304607 0.040612474 0.45000002 4288918180
-0.037927102 0.040702727 0.45100003 4282858549
-0.036462255 0.040702727 0.45100003 4284035882
-0.034997404 0.040702727 0.45100003 4283968036
-0.033532556 0.040702727 0.45100003 4284294943
-0.03213881 0.040792976 0.45200002 4284425243
-0.03073857 0.040883224 0.45300001 4285476385
-0.029331835 0.040973477 0.45400003 4285607455
-0.027918598 0.041063726 0.45500001 4286066979
-0.026498869 0.041153975 0.45600003 4286593323
-0.02512751 0.041334476 0.45800003 4285412654
-0.023743154 0.041514974 0.46000001 4289831828
-0.022345807 0.041695476 0.46200001 4287407508
-0.02093547 0.041875973 0.46400002 4286091394
-0.019512143 0.042056475 0.46600002 4279641380
-0.01807582 0.042236976 0.46800002 4280693552
-0.016661881 0.042507723 0.47100002 4281481775
-0.015196327 0.042688224 0.47300002 4280884759
-0.013717782 0.042868722 0.47500002 4286859584
-0.012200613 0.042958971 0.47600001 4287053620
-0.010676947 0.043049224 0.47700003 4287512890
-0.0091467863 0.043139473 0.47800002 4288435282
-0.0076101287 0.043229725 0.47900003 4286919211
-0.0060543362 0.043229725 0.47900003 4287182126
-0.0044985432 0.043229725 0.47900003 4287116844
-0.0029427505 0.043229725 0.47900003 4286199340
-0.03939195 0.04216807 0.45100003 4287999391
-0.037927102 0.04216807 0.45100003 4282599484
-0.036462255 0.04216807 0.45100003 4284365876
-0.034997404 0.04216807 0.45100003 4283970091
-0.033606909 0.042261571 0.45200002 4284230692
-0.032209914 0.042355068 0.45300001 4284295202
-0.03073857 0.042355068 0.45300001 4284689953
-0.029331835 0.042448569 0.45400003 4285150502
-0.027918598 0.042542066 0.45500001 4285347111
-0.026498869 0.042635567 0.45600003 4285676076
-0.02512751 0.042822566 0.45800003 4285675824
-0.023743154 0.043009561 0.46000001 4290156426
-0.022345807 0.043196559 0.46200001 4287539092
-0.02093547 0.043383557 0.46400002 4287605400
-0.019512143 0.043570556 0.46600002 4287934879
-0.018114444 0.043851051 0.46900001 4288000158
-0.016661881 0.04403805 0.47100002 4283454025
-0.015196327 0.044225048 0.47300002 4283972919
-0.013717782 0.044412047 0.47500002 4285805100
-0.012200613 0.044505544 0.47600001 4286919983
-0.010699331 0.044692542 0.47800002 4287646788
-0.0091467863 0.044692542 0.47800002 4286460717
-0.0076101287 0.044786043 0.47900003 4287182380
-0.0060543362 0.044786043 0.47900003 4287313966
-0.0044985432 0.044786043 0.47900003 4287183923
-0.0029427505 0.044786043 0.47900003 4290876553
-0.037927102 0.043633416 0.45100003 4288525989
-0.036462255 0.043633416 0.45100003 4283845444
-0.035075005 0.043730162 0.45200002 4284432700
-0.033681259 0.043826912 0.45300001 4284628532
-0.032209914 0.043826912 0.45300001 4284166698
-0.030806426 0.043923661 0.45400003 4284362794
-0.029396441 0.044020407 0.45500001 4283904298
-0.027979959 0.044117156 0.45600003 4285093708
-0.02655698 0.044213902 0.45700002 4283249194
-0.02512751 0.044310652 0.45800003 4284559657
-0.023743154 0.044504147 0.46000001 4286205766
-0.022345807 0.044697642 0.46200001 4287933332
-0.02093547 0.044891141 0.46400002 4287671191
-0.019512143 0.045084637 0.46600002 4287540121
-0.018114444 0.045374881 0.46900001 4287540121
-0.016661881 0.045568377 0.47100002 4288458913
-0.015228455 0.045858625 0.47400004 4283255615
-0.013717782 0.045955371 0.47500002 4285084457
-0.012226244 0.046148866 0.47700003 4290480250
-0.010699331 0.046245612 0.47800002 4290541426
-0.0091467863 0.046245612 0.47800002 4287511093
-0.0076101287 0.046342365 0.47900003 4286918956
-0.0060543362 0.046342365 0.47900003 4287842370
-0.0044985432 0.046342365 0.47900003 4286658612
-0.0029427505 0.046342365 0.47900003 4289097062
-0.037927102 0.045098759 0.45100003 4287671707
-0.036543101 0.045198757 0.45200002 4289378731
-0.035152603 0.045298751 0.45300001 4284571477
-0.033681259 0.045298751 0.45300001 4284564538
-0.032281019 0.045398753 0.45400003 4284365874
-0.03087428 0.045498747 0.45500001 4285749076
-0.02946105 0.045598745 0.45600003 4288980633
-0.028041318 0.045698743 0.45700002 4287866772
-0.026615093 0.045798741 0.45800003 4286220665
-0.025182372 0.045898739 0.45900002 4284759866
-0.023743154 0.045998733 0.46000001 4285086515
-0.022345807 0.046198729 0.46200001 4288916893
-0.02093547 0.046398722 0.46400002 4287605398
-0.019512143 0.046598718 0.46600002 4287671453
-0.018114444 0.046898708 0.46900001 4287539867
-0.016661881 0.047098704 0.47100002 4287539867
-0.015228455 0.047398698 0.47400004 4288591780
-0.013717782 0.047498692 0.47500002 4284892990
-0.012226244 0.047698688 0.47700003 4286597698
-0.010699331 0.047798686 0.47800002 4287707954
-0.0091467863 0.047798686 0.47800002 4287838255
-0.0076101287 0.047898684 0.47900003 4292909204
-0.0060543362 0.047898684 0.47900003 4290150781
-0.0044985432 0.047898684 0.47900003 4286854960
-0.0029427505 0.047898684 0.47900003 4286921268
-0.037927102 0.046564106 0.45100003 4287540637
-0.036543101 0.046667352 0.45200002 4287803039
-0.035152603 0.046770595 0.45300001 4288130207
-0.033755612 0.046873845 0.45400003 4284170559
-0.03235212 0.046977088 0.45500001 4284169267
-0.030942136 0.047080338 0.45600003 4283115557
-0.029525656 0.047183581 0.45700002 4289768609
-0.028041318 0.047183581 0.45700002 4287802262
-0.026615093 0.047286831 0.45800003 4288525987
-0.025182372 0.047390074 0.45900002 4284238917
-0.02379477 0.047596566 0.46100003 4284956732
-0.022345807 0.047699813 0.46200001 4285945676
-0.02093547 0.047906306 0.46400002 4288652690
-0.019512143 0.048112798 0.46600002 4287276433
-0.018114444 0.048422538 0.46900001 4287605398
-0.016661881 0.048629031 0.47100002 4287868057
-0.015228455 0.048938774 0.47400004 4288587669
-0.013717782 0.049042016 0.47500002 4286792249
-0.012226244 0.049248509 0.47700003 4287445809
-0.010676947 0.049248509 0.47700003 4287707693
-0.0091467863 0.049351756 0.47800002 4288036656
-0.0075942408 0.049351756 0.47800002 4287774517
-0.0060543362 0.049455002 0.47900003 4287446325
-0.0044985432 0.049455002 0.47900003 4288959816
-0.0029427505 0.049455002 0.47900003 4287643958
-0.0013869575 0.049455002 0.47900003 4289373335
-0.038011197 0.048135944 0.45200002 4287671455
-0.036543101 0.048135944 0.45200002 4287671453
-0.035307802 0.048455428 0.45500001 4287934365
-0.033829961 0.048455428 0.45500001 4285295970
-0.032423224 0.048561927 0.45600003 4284170811
-0.031009993 0.048668422 0.45700002 4285087800
-0.029525656 0.048668422 0.45700002 4288972415
-0.028102677 0.04877492 0.45800003 4288262813
-0.026673203 0.048881412 0.45900002 4287605398
-0.025237234 0.048987906 0.46000001 4288523934
-0.02379477 0.049094405 0.46100003 4282530609
-0.022345807 0.0492009 0.46200001 4285415480
-0.02093547 0.04941389 0.46400002 4287519313
-0.019512143 0.049626879 0.46600002 4286341715
-0.018114444 0.049946368 0.46900001 4286077777
-0.016661881 0.050159357 0.47100002 4286397752
-0.015228455 0.050478846 0.47400004 4286921264
-0.013717782 0.050585341 0.47500002 4287576620
-0.012200613 0.050691836 0.47600001 4287838509
-0.010676947 0.05079833 0.47700003 4288167472
-0.0091467863 0.050904825 0.47800002 4287839277
-0.0075942408 0.050904825 0.47800002 4287182630
-0.0060543362 0.051011324 0.47900003 4286853667
-0.0044985432 0.051011324 0.47900003 4287116585
-0.0029427505 0.051011324 0.47900003 4287380786
-0.0013869575 0.051011324 0.47900003 4289242267
-0.035385404 0.050043516 0.45600003 4287868832
-0.033978667 0.050153259 0.45700002 4288853930
-0.032494329 0.050153259 0.45700002 4282662969
-0.031077849 0.050263006 0.45800003 4284891704
-0.029590266 0.050263006 0.45800003 4284429357
-0.028164037 0.05037275 0.45900002 4288851352
-0.026731314 0.050482493 0.46000001 4287604883
-0.025237234 0.050482493 0.46000001 4287408281
-0.02379477 0.05059224 0.46100003 4288459942
-0.022394177 0.05081173 0.46300003 4283903274
-0.02093547 0.050921474 0.46400002 4286332475
-0.019512143 0.05114096 0.46600002 4286593073
-0.018114444 0.051470194 0.46900001 4287446329
-0.016661881 0.051689684 0.47100002 4287642677
-0.015196327 0.051909175 0.47300002 4287707954
-0.013717782 0.052128665 0.47500002 4287839279
-0.012200613 0.052238405 0.47600001 4287904302
-0.010676947 0.052348152 0.47700003 4287905585
-0.0091467863 0.052457895 0.47800002 4286197793
-0.0075942408 0.052457895 0.47800002 4285805350
-0.0060543362 0.052567642 0.47900003 4286200110
-0.0044985432 0.052567642 0.47900003 4285673766
-0.0029427505 0.052567642 0.47900003 4285346347
-0.037109032 0.051864088 0.45900002 4287935397
-0.035540603 0.051751096 0.45800003 4287803811
-0.03405302 0.051751096 0.45800003 4287934627
-0.032565434 0.051751096 0.45800003 4286748043
-0.031145703 0.051864088 0.45900002 4284366394
-0.029654872 0.051864088 0.45900002 4285285951
-0.028225396 0.051977079 0.46000001 4283970091
-0.026731314 0.051977079 0.46000001 4289701785
-0.0252921 0.052090075 0.46100003 4288392600
-0.023846386 0.052203067 0.46200001 4288784794
-0.022394177 0.052316062 0.46300003 4285082923
-0.02093547 0.052429054 0.46400002 4285869355
-0.019512143 0.052655045 0.46600002 4286986294
-0.018114444 0.052994024 0.46900001 4287840315
-0.016661881 0.053220011 0.47100002 4287577136
-0.015196327 0.053445999 0.47300002 4287511600
-0.013717782 0.053671986 0.47500002 4286788649
-0.012200613 0.053784978 0.47600001 4286262821
-0.010676947 0.053897973 0.47700003 4285477418
-0.0091276504 0.053897973 0.47700003 4285018666
-0.0075942408 0.054010965 0.47800002 4284625191
-0.0060416963 0.054010965 0.47800002 4285414707
-0.0044985432 0.05412396 0.47900003 4284759614
-0.0029427505 0.05412396 0.47900003 4288978325
-0.037109032 0.053355426 0.45900002 4287738018
-0.035618201 0.053355426 0.45900002 4287934627
-0.03412737 0.053355426 0.45900002 4287868834
-0.032636534 0.053355426 0.45900002 4288789161
-0.031213557 0.053471666 0.46000001 4283644983
-0.029719478 0.053471666 0.46000001 4284694841
-0.028225396 0.053471666 0.46000001 4285150513
-0.026789427 0.05358791 0.46100003 4284491300
-0.0252921 0.05358791 0.46100003 4284689962
-0.023846386 0.053704154 0.46200001 4284951849
-0.022394177 0.053820398 0.46300003 4286526510
-0.02093547 0.053936638 0.46400002 4287775040
-0.019512143 0.054169126 0.46600002 4291858823
-0.01807582 0.05440161 0.46800002 4288368964
-0.016626507 0.054634098 0.47000003 4286526760
-0.015196327 0.054982822 0.47300002 4286004525
-0.013688903 0.05509907 0.47400004 4285084972
-0.012174981 0.05521531 0.47500002 4284362794
-0.010654564 0.055331551 0.47600001 4283907639
-0.0091276504 0.055447794 0.47700003 4284303940
-0.0075942408 0.055564038 0.47800002 4284042825
-0.0060416963 0.055564038 0.47800002 4286676088
-0.0044985432 0.055680282 0.47900003 4288194717
-0.037189879 0.054966252 0.46000001 4287803811
-0.035618201 0.054846764 0.45900002 4287803811
-0.034201719 0.054966252 0.46000001 4288000418
-0.032707639 0.054966252 0.46000001 4287934111
-0.031213557 0.054966252 0.46000001 4285688675
-0.029784087 0.055085748 0.46100003 4284630331
-0.028286757 0.055085748 0.46100003 4285612859
-0.026789427 0.055085748 0.46100003 4284887339
-0.025346963 0.055205237 0.46200001 4284952101
-0.023846386 0.055205237 0.46200001 4285476902
-0.022394177 0.05532473 0.46300003 4286395174
-0.02093547 0.055444222 0.46400002 4286788649
-0.019512143 0.055683207 0.46600002 4286853418
-0.01807582 0.055922192 0.46800002 4287447349
-0.016626507 0.056161173 0.47000003 4286725936
-0.0151642 0.056400158 0.47200003 4285022775
-0.013688903 0.056639142 0.47400004 4288125328
-0.012174981 0.056758635 0.47500002 4289115559
-0.010654564 0.056878123 0.47600001 4288393633
-0.0091276504 0.056997616 0.47700003 4287867289
-0.0075783534 0.056997616 0.47700003 4287670680
-0.0060416963 0.057117108 0.47800002 4287605146
-0.037189879 0.056460839 0.46000001 4287934627
-0.035695799 0.056460839 0.46000001 4288066213
-0.034201719 0.056460839 0.46000001 4288000420
-0.032778744 0.056583583 0.46100003 4287868834
-0.031281415 0.056583583 0.46100003 4289444524
-0.029784087 0.056583583 0.46100003 4284436296
-0.028348114 0.05670632 0.46200001 4284232493
-0.026847538 0.05670632 0.46200001 4284362794
-0.025346963 0.05670632 0.46200001 4284229663
-0.023898002 0.056829065 0.46300003 4284754722
-0.022394177 0.056829065 0.46300003 4285674279
-0.02093547 0.056951806 0.46400002 4286200110
-0.019470271 0.057074547 0.46500003 4286329899
-0.018037196 0.057320025 0.46700001 4286724914
-0.01659113 0.05756551 0.46900001 4287264104
-0.0151642 0.057933733 0.47200003 4288523420
-0.013660023 0.058056474 0.47300002 4287867805
-0.01214935 0.058179218 0.47400004 4288065438
-0.010632181 0.058301955 0.47500002 4287802779
-0.0091085145 0.058424696 0.47600001 4287802525
-0.0075783534 0.058547437 0.47700003 4287736732
-0.035695799 0.057955429 0.46000001 4288000418
-0.034276072 0.058081422 0.46100003 4288263590
-0.032778744 0.058081422 0.46100003 4287934625
-0.031281415 0.058081422 0.46100003 4288196770
-0.029848693 0.058207411 0.46200001 4282796865
-0.028348114 0.058207411 0.46200001 4284628794
-0.026847538 0.058207411 0.46200001 4284693814
-0.025346963 0.058207411 0.46200001 4284231978
-0.023898002 0.058333404 0.46300003 4284691757
-0.022394177 0.058333404 0.46300003 4284888361
-0.02093547 0.05845939 0.46400002 4285611314
-0.019470271 0.058585383 0.46500003 4285741365
-0.018037196 0.058837362 0.46700001 4285019699
-0.016555754 0.058963351 0.46800002 4288523934
-0.015132072 0.059341323 0.47100002 4287736732
-0.013660023 0.059593301 0.47300002 4287670939
-0.01214935 0.059719294 0.47400004 4287736732
-0.010632181 0.059845284 0.47500002 4287868834
-0.034276072 0.059579253 0.46100003 4288000418
-0.032778744 0.059579253 0.46100003 4288000418
-0.031349268 0.059708491 0.46200001 4287934625
-0.029848693 0.059708491 0.46200001 4288460455
-0.028348114 0.059708491 0.46200001 4283582020
-0.026847538 0.059708491 0.46200001 4284367938
-0.025401827 0.059837732 0.46300003 4284629564
-0.023898002 0.059837732 0.46300003 4284629564
-0.022394177 0.059837732 0.46300003 4285024322
-0.02093547 0.05996697 0.46400002 4284103222
-0.019428398 0.05996697 0.46400002 4285358681
-0.017998572 0.06022545 0.46600002 4288720286
-0.016520379 0.060354687 0.46700001 4287736986
-0.032849845 0.061209582 0.46200001 4288000418
-0.031349268 0.061209582 0.46200001 4287868832
-0.029848693 0.061209582 0.46200001 4287868832
-0.028348114 0.061209582 0.46200001 4288263590
-0.026847538 0.061209582 0.46200001 4288393379
-0.025401827 0.061342072 0.46300003 4288326555
-0.023898002 0.061342072 0.46300003 4288062869
-0.022394177 0.061342072 0.46300003 4288786592
-0.020890351 0.061342072 0.46300003 4288458913
-0.019428398 0.061474558 0.46400002 4287802525
-0.029848693 0.062710665 0.46200001 4287934627
-0.028348114 0.062710665 0.46200001 4287868832
-0.026847538 0.062710665 0.46200001 4287803039
-0.025401827 0.0628464 0.46300003 4287803293
-0.023898002 0.0628464 0.46300003 4287671707
-0.022394177 0.0628464 0.46300003 4287803293
-0.020890351 0.0628464 0.46300003 4287868832
-0.017807424 0.037541073 0.46673885 4294967295
-0.017807424 0.037541073 0.46673885 4294901760
-0.017807424 0.037541073 0.46723884 4294901760
-0.017807424 0.037541073 0.46773884 4294901760
-0.017807424 0.037541073 0.46823886 4294901760
-0.017807424 0.037541073 0.46873885 4294901760
-0.017807424 0.037541073 0.46923885 4294901760
-0.017807424 0.037541073 0.46973884 4294901760
-0.017807424 0.037541073 0.47023883 4294901760
-0.017807424 0.037541073 0.47073886 4294901760
-0.017807424 0.037541073 0.47123885 4294901760
-0.017807424 0.037541073 0.47173885 4294901760
-0.017807424 0.037541073 0.47223884 4294901760
-0.017807424 0.037541073 0.47273886 4294901760
-0.017807424 0.037541073 0.47323886 4294901760
-0.017807424 0.037541073 0.47373885 4294901760
-0.017807424 0.037541073 0.47423884 4294901760
-0.017807424 0.037541073 0.47473884 4294901760
-0.017807424 0.037541073 0.47523886 4294901760
-0.017807424 0.037541073 0.47573885 4294901760
-0.017807424 0.037541073 0.47623885 4294901760
-0.017807424 0.037541073 0.47673884 4294901760
-0.017807424 0.037541073 0.47723883 4294901760
-0.017807424 0.037541073 0.47773886 4294901760
-0.017807424 0.037541073 0.47823885 4294901760
-0.017807424 0.037541073 0.47873884 4294901760
-0.017807424 0.037541073 0.47923884 4294901760
-0.017807424 0.037541073 0.47973883 4294901760
-0.017807424 0.037541073 0.48023885 4294901760
-0.017807424 0.037541073 0.48073885 4294901760
-0.017807424 0.037541073 0.48123884 4294901760
-0.017807424 0.037541073 0.48173884 4294901760
-0.017807424 0.037541073 0.48223883 4294901760
-0.017807424 0.037541073 0.48273885 4294901760
-0.017807424 0.037541073 0.48323885 4294901760
-0.017807424 0.037541073 0.48373884 4294901760
-0.017807424 0.037541073 0.48423883 4294901760
-0.017807424 0.037541073 0.48473886 4294901760
-0.017807424 0.037541073 0.48523885 4294901760
-0.017807424 0.037541073 0.48573884 4294901760
-0.017807424 0.037541073 0.48623884 4294901760
-0.017807424 0.037541073 0.48673883 4294901760
-0.017807424 0.037541073 0.48723885 4294901760
-0.017807424 0.037541073 0.48773885 4294901760
-0.017807424 0.037541073 0.48823884 4294901760
-0.017807424 0.037541073 0.48873883 4294901760
-0.017807424 0.037541073 0.48923883 4294901760
-0.017807424 0.037541073 0.48973885 4294901760
-0.017807424 0.037541073 0.49023885 4294901760
-0.017807424 0.037541073 0.49073884 4294901760
-0.017807424 0.037541073 0.49123883 4294901760
-0.017807424 0.037541073 0.49173886 4294901760
-0.017807424 0.037541073 0.49223885 4294901760
-0.017807424 0.037541073 0.49273884 4294901760
-0.017807424 0.037541073 0.49323884 4294901760
-0.017807424 0.037541073 0.49373883 4294901760
-0.017807424 0.037541073 0.49423885 4294901760
-0.017807424 0.037541073 0.49473885 4294901760
-0.017807424 0.037541073 0.49523884 4294901760
-0.017807424 0.037541073 0.49573883 4294901760
-0.017807424 0.037541073 0.49623883 4294901760
-0.017807424 0.037541073 0.49673885 4294901760
-0.017807424 0.037541073 0.49723884 4294901760
-0.017807424 0.037541073 0.49773884 4294901760
-0.017807424 0.037541073 0.49823883 4294901760
-0.017807424 0.037541073 0.49873883 4294901760
-0.017807424 0.037541073 0.49923885 4294901760
-0.017807424 0.037541073 0.49973884 4294901760
-0.017807424 0.037541073 0.50023884 4294901760
-0.017807424 0.037541073 0.50073886 4294901760
-0.017807424 0.037541073 0.50123882 4294901760
-0.017807424 0.037541073 0.50173885 4294901760
-0.017807424 0.037541073 0.50223881 4294901760
-0.017807424 0.037541073 0.50273883 4294901760
-0.017807424 0.037541073 0.50323886 4294901760
-0.017807424 0.037541073 0.50373882 4294901760
-0.017807424 0.037541073 0.50423884 4294901760
-0.017807424 0.037541073 0.50473881 4294901760
-0.017807424 0.037541073 0.50523883 4294901760
-0.017807424 0.037541073 0.50573885 4294901760
-0.017807424 0.037541073 0.50623882 4294901760
-0.017807424 0.037541073 0.50673884 4294901760
-0.017807424 0.037541073 0.50723886 4294901760
-0.017807424 0.037541073 0.50773883 4294901760
-0.017807424 0.037541073 0.50823885 4294901760
-0.017807424 0.037541073 0.50873882 4294901760
-0.017807424 0.037541073 0.50923884 4294901760
-0.017807424 0.037541073 0.50973886 4294901760
-0.017807424 0.037541073 0.51023883 4294901760
-0.017807424 0.037541073 0.51073885 4294901760
-0.017807424 0.037541073 0.51123881 4294901760
-0.017807424 0.037541073 0.51173884 4294901760
-0.017807424 0.037541073 0.51223886 4294901760
-0.017807424 0.037541073 0.51273882 4294901760
-0.017807424 0.037541073 0.51323885 4294901760
-0.017807424 0.037541073 0.51373881 4294901760
-0.017807424 0.037541073 0.51423883 4294901760
-0.017807424 0.037541073 0.51473886 4294901760
-0.017807424 0.037541073 0.51523882 4294901760
-0.017807424 0.037541073 0.51573884 4294901760
-0.017807424 0.037541073 0.51623881 4294901760
-0.017807424 0.037541073 0.51673883 4294901760
-0.017807424 0.037541073 0.46673885 4278255360
-0.018120069 0.037514336 0.46712813 4278255360
-0.018432714 0.0374876 0.46751741 4278255360
-0.018745361 0.037460864 0.46790668 4278255360
-0.019058006 0.037434127 0.46829596 4278255360
-0.019370651 0.037407387 0.46868524 4278255360
-0.019683296 0.037380651 0.46907452 4278255360
-0.019995943 0.037353914 0.4694638 4278255360
-0.020308588 0.037327178 0.46985307 4278255360
-0.020621233 0.037300441 0.47024235 4278255360
-0.020933878 0.037273705 0.47063163 4278255360
-0.021246523 0.037246969 0.47102091 4278255360
-0.02155917 0.037220232 0.47141019 4278255360
-0.021871815 0.037193496 0.47179946 4278255360
-0.022184459 0.037166756 0.47218874 4278255360
-0.022497106 0.037140019 0.47257802 4278255360
-0.022809751 0.037113283 0.4729673 4278255360
-0.023122396 0.037086546 0.4733566 4278255360
-0.023435041 0.03705981 0.47374588 4278255360
-0.023747686 0.037033074 0.47413516 4278255360
-0.024060331 0.037006337 0.47452444 4278255360
-0.024372976 0.036979601 0.47491372 4278255360
-0.024685623 0.036952864 0.47530299 4278255360
-0.024998268 0.036926124 0.47569227 4278255360
-0.025310913 0.036899388 0.47608155 4278255360
-0.02562356 0.036872651 0.47647083 4278255360
-0.025936205 0.036845915 0.47686011 4278255360
-0.02624885 0.036819179 0.47724938 4278255360
-0.026561495 0.036792442 0.47763866 4278255360
-0.02687414 0.036765706 0.47802794 4278255360
-0.027186787 0.036738969 0.47841722 4278255360
-0.027499432 0.036712233 0.4788065 4278255360
-0.027812077 0.036685493 0.47919577 4278255360
-0.028124724 0.036658756 0.47958505 4278255360
-0.028437369 0.03663202 0.47997433 4278255360
-0.028750014 0.036605284 0.48036361 4278255360
-0.029062659 0.036578547 0.48075289 4278255360
-0.029375304 0.036551811 0.48114216 4278255360
-0.029687949 0.036525074 0.48153144 4278255360
-0.030000594 0.036498338 0.48192072 4278255360
-0.03031324 0.036471602 0.48231 4278255360
-0.030625885 0.036444865 0.48269928 4278255360
-0.03093853 0.036418125 0.48308855 4278255360
-0.031251177 0.036391389 0.48347783 4278255360
-0.031563822 0.036364652 0.48386711 4278255360
-0.031876467 0.036337916 0.48425639 4278255360
-0.032189112 0.036311179 0.48464566 4278255360
-0.032501757 0.036284443 0.48503494 4278255360
-0.032814402 0.036257707 0.48542422 4278255360
-0.033127047 0.03623097 0.4858135 4278255360
-0.033439696 0.036204234 0.48620278 4278255360
-0.033752337 0.036177494 0.48659205 4278255360
-0.034064986 0.036150757 0.48698136 4278255360
-0.034377627 0.036124021 0.48737064 4278255360
-0.034690276 0.036097284 0.48775992 4278255360
-0.035002921 0.036070548 0.4881492 4278255360
-0.035315566 0.036043812 0.48853847 4278255360
-0.035628211 0.036017075 0.48892775 4278255360
-0.035940856 0.035990339 0.48931703 4278255360
-0.036253504 0.035963602 0.48970631 4278255360
-0.036566149 0.035936862 0.49009559 4278255360
-0.036878794 0.035910126 0.49048486 4278255360
-0.037191439 0.035883389 0.49087414 4278255360
-0.037504084 0.035856653 0.49126342 4278255360
-0.037816729 0.035829917 0.4916527 4278255360
-0.038129374 0.03580318 0.49204198 4278255360
-0.038442023 0.035776444 0.49243125 4278255360
-0.038754664 0.035749707 0.49282053 4278255360
-0.039067313 0.035722971 0.49320981 4278255360
-0.039379954 0.035696231 0.49359909 4278255360
-0.039692603 0.035669494 0.49398836 4278255360
-0.040005244 0.035642758 0.49437764 4278255360
-0.040317893 0.035616022 0.49476692 4278255360
-0.040630538 0.035589285 0.4951562 4278255360
-0.040943183 0.035562549 0.49554548 4278255360
-0.041255828 0.035535812 0.49593475 4278255360
-0.041568473 0.035509076 0.49632403 4278255360
