# .PCD v0.7 - Point Cloud Data file format
VERSION 0.7
FIELDS x y z rgb
SIZE 4 4 4 4
TYPE F F F U
COUNT 1 1 1 1
WIDTH 916
HEIGHT 1
VIEWPOINT 0 0 0 1 0 0 0
POINTS 916
DATA ascii
-0.012333329 0.038986184 0.551 4280373549
-0.010562816 0.039056942 0.55200005 4280241963
-0.0088175805 0.039269205 0.55500001 4280438829
-0.0070781377 0.039622981 0.56 4280173860
-0.0052780407 0.039764494 0.56200004 4279446803
-0.0034649502 0.039906003 0.56400001 4279511828
-0.0016388684 0.040047519 0.56600004 4279641877
-0.014020452 0.040480424 0.54700005 4279649824
-0.01226618 0.04055443 0.54800004 4279192351
-0.010505409 0.040628433 0.54900002 4279192351
-0.0087699182 0.040850446 0.55200005 4279389730
-0.0070654987 0.041368477 0.55900002 4279587109
-0.0052780407 0.041590489 0.56200004 4279718695
-0.0034649502 0.041738499 0.56400001 4279784488
-0.0016388684 0.041886508 0.56600004 4279652393
0.002048671 0.042108521 0.56900001 4279781930
-0.013969189 0.042103175 0.54500002 4279255838
-0.012199028 0.042103175 0.54500002 4279126047
-0.010467138 0.042257685 0.54700005 4278797595
-0.0087063685 0.042334937 0.54800004 4278863386
-0.0070781377 0.043261975 0.56 4279192351
-0.0052780407 0.043416485 0.56200004 4279126560
-0.0034710935 0.043648243 0.565 4279126560
-0.0016388684 0.043725502 0.56600004 4278863388
0.00019985321 0.043802753 0.56700003 4279323939
0.002048671 0.04395726 0.56900001 4279060767
-0.013943558 0.043793432 0.54400003 4279320607
-0.012176645 0.043793432 0.54400003 4279257119
-0.010428866 0.043873936 0.54500002 4278993947
-0.0086745927 0.043954436 0.546 4278993947
-0.0070781377 0.045081474 0.56 4278993947
-0.0052780407 0.045242481 0.56200004 4278862361
-0.0034772374 0.045564491 0.56600004 4278862361
-0.0016417638 0.045644995 0.56700003 4279454498
0.00019985321 0.045644995 0.56700003 4278993947
-0.013943558 0.045560945 0.54400003 4279452193
-0.012176645 0.045560945 0.54400003 4279059742
-0.010428866 0.045644693 0.54500002 4279059740
-0.0086745927 0.045728445 0.546 4278928154
-0.0070781377 0.046900969 0.56 4278928154
-0.0052780407 0.047068477 0.56200004 4278928154
-0.0034772374 0.047403485 0.56600004 4279059740
-0.0016417638 0.047487233 0.56700003 4279056922
0.00019985321 0.047487233 0.56700003 4278794515
-0.013943558 0.047328454 0.54400003 4279123998
-0.012176645 0.047328454 0.54400003 4279257121
-0.010428866 0.047415454 0.54500002 4279059742
-0.0086745927 0.047502454 0.546 4278862361
-0.0052780407 0.048894472 0.56200004 4278993947
-0.0031577738 0.044718426 0.514 4278993177
-0.0014883007 0.044718426 0.514 4279122199
0.00018117203 0.044718426 0.514 4279319576
0.0018470443 0.044631429 0.51300001 4279058457
0.0035132691 0.044631429 0.51300001 4278992666
0.0051693977 0.044544429 0.51200002 4278992666
0.0068190307 0.044457428 0.51100004 4279124252
-0.015681591 0.049005721 0.54300004 4279911461
-0.013892295 0.048915472 0.54200006 4279255584
-0.012176645 0.04909597 0.54400003 4279125281
-0.010428866 0.049186219 0.54500002 4278927902
-0.0086745927 0.049276467 0.546 4278928156
-0.0048272465 0.04638847 0.514 4279257121
-0.0031577738 0.04638847 0.514 4278927386
-0.0014883007 0.04638847 0.514 4278197763
0.00018081957 0.046298221 0.51300001 4279122199
0.0018470443 0.046298221 0.51300001 4278198533
0.0035064209 0.046207972 0.51200002 4278589963
0.0051593012 0.046117723 0.51100004 4278851851
0.0068190307 0.046117723 0.51100004 4278589963
0.008445573 0.045937221 0.509 4278524681
0.010078967 0.045846973 0.50800002 4278328070
0.011705863 0.045756724 0.50700003 4278197510
0.013326264 0.045666475 0.50600004 4278593806
0.014940167 0.045576219 0.505 4278794004
0.016547576 0.04548597 0.50400001 4278861080
0.018184567 0.04548597 0.50400001 4278992925
0.019782232 0.045395721 0.50300002 4278795546
0.021373402 0.045305472 0.50200003 4278731291
0.022912249 0.04512497 0.5 4278533912
0.024487179 0.045034721 0.49900001 4278665498
0.02605561 0.044944473 0.49800003 4278731291
0.028820088 0.04422247 0.49000001 4278731291
0.032840487 0.043229725 0.47900003 4279126308
0.034324467 0.043139473 0.47800002 4278796832
0.035877012 0.043139473 0.47800002 4279125029
0.03742956 0.043139473 0.47800002 4279913775
0.039145209 0.043319974 0.48000002 4283071326
0.040789053 0.043410223 0.48100004 4285965702
0.042351339 0.043410223 0.48100004 4285043833
0.044004925 0.043500472 0.48200002 4281490241
0.045570463 0.043500472 0.48200002 4280437553
0.04723379 0.043590721 0.48300001 4281884485
-0.015652712 0.050676487 0.54200006 4279845668
-0.013892295 0.050676487 0.54200006 4279190304
-0.012176645 0.050863482 0.54400003 4279059488
-0.010428866 0.050956979 0.54500002 4278993695
-0.0086745927 0.051050477 0.546 4278796316
-0.0048272465 0.048058506 0.514 4278664984
-0.0031577738 0.048058506 0.514 4279125535
-0.0014883007 0.048058506 0.514 4278198532
0.00018081957 0.047965009 0.51300001 4279450910
0.0018470443 0.047965009 0.51300001 4278262792
0.0035064209 0.047871511 0.51200002 4279050514
0.0051593012 0.047778014 0.51100004 4278785804
0.0068056863 0.047684517 0.51000005 4278851597
0.008445573 0.047591012 0.509 4278851597
0.010078967 0.047497515 0.50800002 4278851597
0.011705863 0.047404017 0.50700003 4278851597
0.013326264 0.04731052 0.50600004 4278720525
0.014940167 0.047217015 0.505 4278458890
0.016580408 0.047217015 0.505 4279515678
0.018184567 0.047123518 0.50400001 4278200843
0.019782232 0.047030021 0.50300002 4278197248
0.021373402 0.046936523 0.50200003 4278197504
0.022912249 0.046749521 0.5 4278198532
0.024487179 0.046656024 0.49900001 4278398222
0.026003288 0.046469025 0.49700001 4278925336
0.027506409 0.046282031 0.49500003 4278991896
0.028878905 0.045908034 0.49100003 4279058459
0.030411609 0.045814533 0.49000001 4278795800
0.031872503 0.045627534 0.48800004 4278599191
0.033114728 0.045160037 0.48300001 4278468119
0.034611702 0.045066539 0.48200002 4278731291
0.03617724 0.045066539 0.48200002 4278533398
0.037742779 0.045066539 0.48200002 4278928154
0.039389864 0.045160037 0.48300001 4279059742
0.04095865 0.045160037 0.48300001 4279322660
0.042527433 0.045160037 0.48300001 4279058720
0.044187516 0.045253538 0.48400003 4279781930
0.045854095 0.045347035 0.48500001 4282544466
0.047429375 0.045347035 0.48500001 4285702017
0.04940882 0.045721035 0.48900002 4282411345
0.051205669 0.045908034 0.49100003 4279648037
0.05290797 0.046001531 0.49200001 4279976490
-0.015652712 0.052437499 0.54200006 4279649059
-0.013841031 0.052244 0.54000002 4279059488
-0.012176645 0.052630994 0.54400003 4278993695
-0.010428866 0.05272774 0.54500002 4278993695
-0.0086745927 0.052824486 0.546 4278927902
-0.0065093595 0.0498253 0.51500005 4279059488
-0.0048366385 0.0498253 0.51500005 4278993949
-0.0031577738 0.049728546 0.514 4279125535
-0.0014883007 0.049728546 0.514 4278199817
0.00018081957 0.049631801 0.51300001 4279188508
0.001843444 0.049535051 0.51200002 4278722828
0.0035064209 0.049535051 0.51200002 4279511578
0.0051593012 0.049438305 0.51100004 4279116820
0.0068056863 0.049341559 0.51000005 4280234788
0.008445573 0.049244806 0.509 4278787855
0.010078967 0.049148057 0.50800002 4279511578
0.011705863 0.049051311 0.50700003 4279840030
0.013326264 0.048954565 0.50600004 4279642651
0.014969753 0.048954565 0.50600004 4278721295
0.016580408 0.048857812 0.505 4279712033
0.018184567 0.048761066 0.50400001 4279188508
0.019782232 0.048664317 0.50300002 4278793750
0.021373402 0.048567571 0.50200003 4279517473
0.022958076 0.048470825 0.50100005 4278991383
0.024487179 0.048277326 0.49900001 4279385371
0.02605561 0.048180576 0.49800003 4279121945
0.027506409 0.047890335 0.49500003 4279450398
0.028996538 0.047696836 0.49300003 4278529296
0.030473674 0.047503341 0.49100003 4278196480
0.031937815 0.047309846 0.48900002 4278196224
0.033320412 0.047019601 0.48600003 4278198789
0.034827128 0.046922851 0.48500001 4278660880
0.036402408 0.046922851 0.48500001 4278925336
0.037977692 0.046922851 0.48500001 4279320861
0.039552972 0.046922851 0.48500001 4279321629
0.041213054 0.047019601 0.48600003 4279255836
0.042791583 0.047019601 0.48600003 4278993177
0.044461407 0.047116347 0.48700002 4278862361
0.046043184 0.047116347 0.48700002 4278928156
0.047722753 0.047213096 0.48800004 4279125281
0.049610902 0.047503341 0.49100003 4278860574
0.051309954 0.047600087 0.49200001 4279848234
0.053015511 0.047696836 0.49300003 4279453476
0.054727562 0.047793586 0.49400002 4279190306
-0.015594952 0.053998515 0.54000002 4279188762
-0.013815399 0.053898517 0.53900003 4279058972
-0.012176645 0.054398503 0.54400003 4278993949
-0.0099313436 0.051898576 0.51900005 4278993695
-0.0082297418 0.051798575 0.51800001 4278927902
-0.0065219989 0.051598582 0.51600003 4278862109
-0.0048366385 0.051498584 0.51500005 4278993695
-0.0031577738 0.051398583 0.514 4278201611
-0.0014883007 0.051398583 0.514 4278197506
0.00018081957 0.051298589 0.51300001 4279319324
0.001843444 0.051198591 0.51200002 4278787851
0.0035064209 0.051198591 0.51200002 4278393095
0.0051593012 0.051098596 0.51100004 4278984719
0.0068056863 0.050998598 0.51000005 4279576856
0.008445573 0.050898597 0.509 4278327304
0.010078967 0.050798602 0.50800002 4278458890
0.011705863 0.050698604 0.50700003 4279314967
0.013326264 0.05059861 0.50600004 4278525451
0.014969753 0.05059861 0.50600004 4278721547
0.016580408 0.050498608 0.505 4279778080
0.018184567 0.050398611 0.50400001 4278792468
0.019782232 0.050298616 0.50300002 4278329351
0.021373402 0.050198622 0.50200003 4278198020
0.022958076 0.050098624 0.50100005 4278200326
0.024487179 0.049898628 0.49900001 4278198784
0.02605561 0.04979863 0.49800003 4279057176
0.027561978 0.049598634 0.49600002 4278596371
0.029055353 0.049398642 0.49400002 4279320094
0.030597804 0.049298644 0.49300003 4279254301
0.032068443 0.049098648 0.49100003 4279386141
0.033526093 0.048898656 0.48900002 4279254555
0.035042554 0.048798658 0.48800004 4279649313
0.036627579 0.048798658 0.48800004 4279385117
0.038212605 0.048798658 0.48800004 4278858259
0.03979763 0.048798658 0.48800004 4278397197
0.041467454 0.048898656 0.48900002 4278197248
0.043055728 0.048898656 0.48900002 4278197248
0.044735294 0.04899865 0.49000001 4279187738
0.046326816 0.04899865 0.49000001 4279058459
0.048016131 0.049098648 0.49100003 4279124765
0.049812984 0.049298644 0.49300003 4279058972
0.051518533 0.049398642 0.49400002 4278795800
0.053123046 0.049398642 0.49400002 4278993949
0.054838348 0.04949864 0.49500003 4279125535
0.056560136 0.049598634 0.49600002 4278661144
-0.015566073 0.055649783 0.53900003 4279123482
-0.013738505 0.055340044 0.53600001 4279256351
-0.0099887494 0.053894594 0.52200001 4278993949
-0.0082456302 0.053584859 0.51900005 4278862363
-0.0065346383 0.053378362 0.51700002 4278928156
-0.0048460299 0.05327512 0.51600003 4278862363
-0.0031639175 0.053171873 0.51500005 4278664214
-0.0014883007 0.053068623 0.514 4279252504
0.00018081957 0.052965377 0.51300001 4279385117
0.001843444 0.05286213 0.51200002 4278196997
0.0034995724 0.052758887 0.51100004 4278983437
0.0051593012 0.052758887 0.51100004 4278852365
0.0068056863 0.052655641 0.51000005 4278851597
0.008445573 0.052552391 0.509 4278720525
0.010078967 0.052449144 0.50800002 4278786318
0.011705863 0.052345902 0.50700003 4278852365
0.013326264 0.052242655 0.50600004 4278524168
0.014969753 0.052242655 0.50600004 4278195713
0.016580408 0.052139405 0.505 4279318299
0.018184567 0.052036159 0.50400001 4278197001
0.019782232 0.051932916 0.50300002 4278656269
0.021373402 0.05182967 0.50200003 4278722828
0.022958076 0.051726423 0.50100005 4278791183
0.02453625 0.051623173 0.5 4279713568
0.02610793 0.051519927 0.49900001 4278595087
0.027617546 0.051313434 0.49700001 4279450396
0.029114172 0.051106945 0.49500003 4278595087
0.030659867 0.051003698 0.49400002 4278333199
0.032199066 0.050900452 0.49300003 4278859797
0.033663213 0.050693959 0.49100003 4278926103
0.03525798 0.050693959 0.49100003 4278729494
0.03677769 0.050590709 0.49000001 4279058459
0.038369212 0.050590709 0.49000001 4279190045
0.040042285 0.050693959 0.49100003 4279123482
0.041637056 0.050693959 0.49100003 4279451934
0.043231826 0.050693959 0.49100003 4279780897
0.044917889 0.050797205 0.49200001 4278198528
0.046515908 0.050797205 0.49200001 4279320859
0.048211716 0.050900452 0.49300003 4279320859
0.049914021 0.051003698 0.49400002 4279124248
0.051622823 0.051106945 0.49500003 4279124248
0.053230584 0.051106945 0.49500003 4278796566
0.054838348 0.051106945 0.49500003 4278664982
0.056560136 0.051210191 0.49600002 4278200846
-0.015566073 0.05740105 0.53900003 4279254553
-0.013738505 0.057081562 0.53600001 4279190045
-0.0082615176 0.055377636 0.52000004 4278796570
-0.0065472778 0.055164643 0.51800001 4278599189
-0.0048460299 0.054951653 0.51600003 4278862361
-0.0031639175 0.054845162 0.51500005 4278268943
-0.0014883007 0.054738659 0.514 4278529808
0.00018081957 0.054632165 0.51300001 4279188508
0.001843444 0.054525673 0.51200002 4279320348
0.0034995724 0.054419179 0.51100004 4279649313
0.0051593012 0.054419179 0.51100004 4279713057
0.0068056863 0.054312684 0.51000005 4279316762
0.008445573 0.054206181 0.509 4278854416
0.010078967 0.05409969 0.50800002 4278525453
0.011705863 0.053993195 0.50700003 4278787601
0.013326264 0.0538867 0.50600004 4278852111
0.014969753 0.0538867 0.50600004 4278393863
0.016580408 0.053780202 0.505 4279514908
0.018184567 0.053673707 0.50400001 4279513371
0.019782232 0.053567212 0.50300002 4278328585
0.021373402 0.053460717 0.50200003 4279908899
0.022958076 0.053354222 0.50100005 4278791953
0.02453625 0.053247724 0.5 4278397195
0.02610793 0.053141229 0.49900001 4279581469
0.027617546 0.052928239 0.49700001 4279186713
0.029172987 0.052821744 0.49600002 4278200072
0.030721933 0.052715249 0.49500003 4279187224
0.032264378 0.052608754 0.49400002 4278726160
0.033800334 0.05250226 0.49300003 4278594576
0.035329789 0.052395761 0.49200001 4278200072
0.036927804 0.052395761 0.49200001 4278793750
0.038525824 0.052395761 0.49200001 4278464785
0.040123839 0.052395761 0.49200001 4278397710
0.041806657 0.05250226 0.49300003 4279517727
0.043407921 0.05250226 0.49300003 4279255068
0.045009185 0.05250226 0.49300003 4278595855
0.046704996 0.052608754 0.49400002 4279255066
0.048309509 0.052608754 0.49400002 4279320859
0.050015066 0.052715249 0.49500003 4279124250
0.051727112 0.052821744 0.49600002 4279058457
0.053338118 0.052821744 0.49600002 4278795798
0.054949131 0.052821744 0.49600002 4278730005
0.056560136 0.052821744 0.49600002 4278991131
-0.013789768 0.059042573 0.53800005 4279909918
-0.0082774051 0.057176914 0.52100003 4278861078
-0.0065599177 0.056957427 0.51900005 4278992664
-0.0048554214 0.056737933 0.51700002 4278795285
-0.0031700609 0.05662819 0.51600003 4278663699
-0.0014883007 0.0564087 0.514 4279123480
0.00018081957 0.056298956 0.51300001 4279255066
0.001843444 0.056189213 0.51200002 4279058457
0.0034995724 0.05607947 0.51100004 4279058457
0.0051593012 0.05607947 0.51100004 4279058459
0.0068056863 0.055969726 0.51000005 4279124252
0.008445573 0.055859976 0.509 4279386400
0.010078967 0.055750232 0.50800002 4279123230
0.011705863 0.055640489 0.50700003 4279188256
0.013326264 0.055530746 0.50600004 4279384865
0.014940167 0.055420995 0.505 4279121693
0.016547576 0.055311255 0.50400001 4279121179
0.018184567 0.055311255 0.50400001 4278593552
0.019782232 0.055201512 0.50300002 4278198280
0.021373402 0.055091769 0.50200003 4278195712
0.022958076 0.054982025 0.50100005 4278197511
0.02453625 0.054872274 0.5 4278462736
0.02610793 0.054762531 0.49900001 4279186972
0.027673116 0.054652788 0.49800003 4279713570
0.029231803 0.054543041 0.49700001 4279450396
0.030783996 0.054433297 0.49600002 4279254301
0.032329693 0.054323554 0.49500003 4279649059
0.033868894 0.054213811 0.49400002 4279254301
0.035473406 0.054213811 0.49400002 4278924566
0.037002861 0.054104067 0.49300003 4278198787
0.038604129 0.054104067 0.49300003 4278858773
0.040286943 0.054213811 0.49400002 4279252504
0.041891459 0.054213811 0.49400002 4279647775
0.043495968 0.054213811 0.49400002 4279188508
0.04519178 0.054323554 0.49500003 4279319324
0.046799541 0.054323554 0.49500003 4279190043
0.048505094 0.054433297 0.49600002 4279190556
0.050116103 0.054433297 0.49600002 4279190556
0.051727112 0.054433297 0.49600002 4278993177
0.053338118 0.054433297 0.49600002 4278664212
0.054949131 0.054433297 0.49600002 4278730005
0.056560136 0.054433297 0.49600002 4279451680
-0.0065599177 0.05864371 0.51900005 4279054355
-0.0048554214 0.058417719 0.51700002 4279121685
-0.0031700609 0.058304727 0.51600003 4279122199
-0.0014911965 0.058191735 0.51500005 4279254555
0.00018117203 0.058078736 0.514 4279255068
0.001843444 0.057852753 0.51200002 4279255584
0.0034995724 0.057739761 0.51100004 4279255584
0.0051593012 0.057739761 0.51100004 4279321377
0.0068056863 0.057626769 0.51000005 4279123998
0.008445573 0.05751377 0.509 4279189791
0.010059127 0.057287782 0.50700003 4278992925
0.011682775 0.057174791 0.50600004 4278663960
0.013326264 0.057174791 0.50600004 4278927132
0.014940167 0.057061791 0.505 4279058718
0.016547576 0.0569488 0.50400001 4279190558
0.018148487 0.056835808 0.50300002 4278992412
0.019742904 0.056722816 0.50200003 4278992412
0.021373402 0.056722816 0.50200003 4278991642
0.022958076 0.056609824 0.50100005 4279188510
0.02453625 0.056496825 0.5 4279845670
0.02610793 0.056383833 0.49900001 4279187740
0.027673116 0.056270842 0.49800003 4279319326
0.029231803 0.056157846 0.49700001 4278199817
0.030783996 0.056044854 0.49600002 4278196736
0.032329693 0.055931862 0.49500003 4278195968
0.033937454 0.055931862 0.49500003 4278198790
0.035473406 0.055818867 0.49400002 4278660880
0.037077915 0.055818867 0.49400002 4279319324
0.038682431 0.055818867 0.49400002 4279779875
0.040368497 0.055931862 0.49500003 4279582496
0.041976258 0.055931862 0.49500003 4279451934
0.043584019 0.055931862 0.49500003 4279977508
0.045283075 0.056044854 0.49600002 4279450396
0.046894085 0.056044854 0.49600002 4279255834
0.048505094 0.056044854 0.49600002 4279059738
0.050217144 0.056157846 0.49700001 4279059738
0.051831398 0.056157846 0.49700001 4278862359
0.053445652 0.056157846 0.49700001 4278992662
0.055059914 0.056157846 0.49700001 4278926099
0.056674168 0.056157846 0.49700001 4279450910
0.001843444 0.059516292 0.51200002 4282210884
0.0034995724 0.059400052 0.51100004 4280172073
0.0051492047 0.059283808 0.51000005 4279450148
0.0067923414 0.05916756 0.509 4279188260
0.0084289815 0.05905132 0.50800002 4279451945
0.010059127 0.05893508 0.50700003 4279583529
0.011682775 0.058818836 0.50600004 4279124000
0.013299926 0.058702588 0.505 4279189793
0.014910583 0.058586348 0.50400001 4279255584
0.016547576 0.058586348 0.50400001 4279058205
0.018148487 0.058470108 0.50300002 4279123998
0.019742904 0.058353864 0.50200003 4278992925
0.021330826 0.058237623 0.50100005 4278992925
0.022912249 0.058121376 0.5 4278663447
0.024487179 0.058005136 0.49900001 4278992666
0.02610793 0.058005136 0.49900001 4279058459
0.027673116 0.057888892 0.49800003 4278992666
0.029231803 0.057772648 0.49700001 4278861080
0.030783996 0.057656407 0.49600002 4279255068
0.032329693 0.057540167 0.49500003 4278991896
0.033937454 0.057540167 0.49500003 4279451680
0.035545215 0.057540167 0.49500003 4279385887
0.037152976 0.057540167 0.49500003 4279516705
0.038760737 0.057540167 0.49500003 4278661396
0.040368497 0.057540167 0.49500003 4278200331
0.042061061 0.057656407 0.49600002 4278197504
0.043672066 0.057656407 0.49600002 4278196992
0.045374371 0.057772648 0.49700001 4279713568
0.046988629 0.057772648 0.49700001 4279255836
0.048602883 0.057772648 0.49700001 4279190556
0.050217144 0.057772648 0.49700001 4279124763
0.051831398 0.057772648 0.49700001 4278993177
0.053445652 0.057772648 0.49700001 4278992664
0.055059914 0.057772648 0.49700001 4278860310
0.056674168 0.057772648 0.49700001 4278790931
0.010059127 0.060582373 0.50700003 4285368184
0.011659686 0.060343385 0.505 4282475343
0.013299926 0.060343385 0.505 4280041772
0.014910583 0.060223896 0.50400001 4279120668
0.016514745 0.060104404 0.50300002 4279450146
0.018112408 0.059984915 0.50200003 4279648809
0.019742904 0.059984915 0.50200003 4279451430
0.021330826 0.059865423 0.50100005 4279649061
0.022912249 0.059745926 0.5 4279451680
0.024487179 0.059626438 0.49900001 4279124252
0.02605561 0.059506945 0.49800003 4279189791
0.027673116 0.059506945 0.49800003 4278795287
0.029231803 0.059387453 0.49700001 4279124252
0.030783996 0.05926796 0.49600002 4279058459
0.032395005 0.05926796 0.49600002 4279058459
0.033937454 0.059148472 0.49500003 4278992666
0.035545215 0.059148472 0.49500003 4279321631
0.037152976 0.059148472 0.49500003 4279058459
0.038760737 0.059148472 0.49500003 4279190045
0.040450048 0.05926796 0.49600002 4279124252
0.042061061 0.05926796 0.49600002 4279255068
0.043760113 0.059387453 0.49700001 4279254555
0.045374371 0.059387453 0.49700001 4279320348
0.047083173 0.059506945 0.49800003 4279255838
0.048700679 0.059506945 0.49800003 4279190045
0.050318185 0.059506945 0.49800003 4279190043
0.051935688 0.059506945 0.49800003 4278992664
0.053445652 0.059387453 0.49700001 4278861078
0.055059914 0.059387453 0.49700001 4278926103
0.056674168 0.059387453 0.49700001 4280434475
0.011659686 0.061984181 0.505 4285433464
0.01327359 0.061861441 0.50400001 4285367925
0.014910583 0.061861441 0.50400001 4285564534
0.016514745 0.061738703 0.50300002 4285432948
0.018112408 0.061615963 0.50200003 4285368438
0.019703576 0.061493225 0.50100005 4284513127
0.021330826 0.061493225 0.50100005 4283132758
0.022912249 0.061370477 0.5 4281093690
0.024487179 0.061247736 0.49900001 4280238379
0.02605561 0.061124999 0.49800003 4279317277
0.027617546 0.061002254 0.49700001 4279252252
0.029231803 0.061002254 0.49700001 4279515937
0.030783996 0.060879517 0.49600002 4279582246
0.032395005 0.060879517 0.49600002 4279648037
0.033937454 0.060756776 0.49500003 4279648291
0.035545215 0.060756776 0.49500003 4279779875
0.037152976 0.060756776 0.49500003 4279649061
0.038839042 0.060879517 0.49600002 4279452195
0.040450048 0.060879517 0.49600002 4279386402
0.042145859 0.061002254 0.49700001 4279452195
0.043760113 0.061002254 0.49700001 4279386400
0.045465667 0.061124999 0.49800003 4279386400
0.047083173 0.061124999 0.49800003 4279320607
0.048700679 0.061124999 0.49800003 4279189021
0.050318185 0.061124999 0.49800003 4279320861
0.051935688 0.061124999 0.49800003 4279320861
0.053553194 0.061124999 0.49800003 4278991642
0.0551707 0.061124999 0.49800003 4278726675
0.056674168 0.061002254 0.49700001 4283986272
0.016481912 0.063247018 0.50200003 4285235056
0.018112408 0.063247018 0.50200003 4284972397
0.019703576 0.063121028 0.50100005 4284906604
0.021330826 0.063121028 0.50100005 4284840809
0.022912249 0.062995031 0.5 4284643430
0.024487179 0.062869042 0.49900001 4284643430
0.02605561 0.062743053 0.49800003 4284578407
0.027617546 0.062617064 0.49700001 4284578407
0.029231803 0.062617064 0.49700001 4284709993
0.030783996 0.062491074 0.49600002 4284775786
0.032395005 0.062491074 0.49600002 4285433716
0.033937454 0.062365085 0.49500003 4285171571
0.035545215 0.062365085 0.49500003 4284909169
0.037152976 0.062365085 0.49500003 4284514413
0.038839042 0.062491074 0.49600002 4283395162
0.040450048 0.062491074 0.49600002 4282341960
0.042145859 0.062617064 0.49700001 4280895026
0.043760113 0.062617064 0.49700001 4280238379
0.045465667 0.062743053 0.49800003 4279514656
0.047083173 0.062743053 0.49800003 4279120670
0.048700679 0.062743053 0.49800003 4279186461
0.050318185 0.062743053 0.49800003 4279055388
0.051935688 0.062743053 0.49800003 4278858009
0.053553194 0.062743053 0.49800003 4280435760
0.0551707 0.062743053 0.49800003 4284710254
0.020991292 0.052496929 0.50757873 4294967295
0.020991292 0.052496929 0.50757873 4294901760
0.021036284 0.05199904 0.50756967 4294901760
0.021081276 0.051501151 0.50756067 4294901760
0.021126268 0.051003259 0.50755161 4294901760
0.021171261 0.05050537 0.50754255 4294901760
0.021216253 0.050007481 0.50753355 4294901760
0.021261245 0.049509592 0.50752449 4294901760
0.021306235 0.0490117 0.50751543 4294901760
0.021351228 0.048513811 0.50750643 4294901760
0.02139622 0.048015922 0.50749737 4294901760
0.021441212 0.047518034 0.50748831 4294901760
0.021486204 0.047020145 0.50747931 4294901760
0.021531196 0.046522252 0.50747025 4294901760
0.021576189 0.046024363 0.50746119 4294901760
0.021621181 0.045526475 0.50745219 4294901760
0.021666173 0.045028586 0.50744313 4294901760
0.021711165 0.044530697 0.50743407 4294901760
0.021756157 0.044032805 0.50742507 4294901760
0.021801149 0.043534916 0.50741601 4294901760
0.02184614 0.043037027 0.50740695 4294901760
0.021891132 0.042539138 0.50739795 4294901760
0.021936124 0.04204125 0.50738889 4294901760
0.021981116 0.041543357 0.50737983 4294901760
0.022026109 0.041045468 0.50737083 4294901760
0.022071101 0.04054758 0.50736177 4294901760
0.022116093 0.040049691 0.50735271 4294901760
0.022161085 0.039551802 0.50734371 4294901760
0.022206077 0.039053909 0.50733465 4294901760
0.02225107 0.038556021 0.50732565 4294901760
0.022296062 0.038058132 0.50731659 4294901760
0.022341054 0.037560239 0.50730753 4294901760
0.022386044 0.037062354 0.50729853 4294901760
0.022431036 0.036564462 0.50728947 4294901760
0.022476029 0.036066573 0.50728041 4294901760
0.022521021 0.035568684 0.50727141 4294901760
0.022566013 0.035070792 0.50726235 4294901760
0.022611005 0.034572903 0.50725329 4294901760
0.022655997 0.034075014 0.50724429 4294901760
0.02270099 0.033577126 0.50723523 4294901760
0.022745982 0.033079237 0.50722617 4294901760
0.022790974 0.032581344 0.50721717 4294901760
0.022835966 0.032083459 0.50720811 4294901760
0.022880958 0.031585567 0.50719905 4294901760
0.022925951 0.031087678 0.50719005 4294901760
0.022970941 0.030589789 0.50718099 4294901760
0.023015933 0.030091899 0.50717193 4294901760
0.023060925 0.029594008 0.50716293 4294901760
0.023105917 0.029096119 0.50715387 4294901760
0.02315091 0.02859823 0.50714481 4294901760
0.023195902 0.02810034 0.50713581 4294901760
0.023240894 0.027602451 0.50712675 4294901760
0.023285886 0.027104562 0.50711769 4294901760
0.023330878 0.026606673 0.50710869 4294901760
0.023375871 0.026108785 0.50709963 4294901760
0.023420863 0.025610892 0.50709057 4294901760
0.023465855 0.025113003 0.50708157 4294901760
0.023510847 0.024615113 0.50707251 4294901760
0.023555838 0.024117224 0.50706345 4294901760
0.02360083 0.023619335 0.50705445 4294901760
0.023645822 0.023121446 0.50704539 4294901760
0.023690814 0.022623554 0.50703633 4294901760
0.023735806 0.022125665 0.50702733 4294901760
0.023780799 0.021627776 0.50701827 4294901760
0.023825791 0.021129888 0.50700921 4294901760
0.023870783 0.020631999 0.50700021 4294901760
0.023915775 0.02013411 0.50699115 4294901760
0.023960767 0.019636218 0.50698209 4294901760
0.02400576 0.019138329 0.50697309 4294901760
0.024050752 0.01864044 0.50696403 4294901760
0.024095744 0.018142551 0.50695497 4294901760
0.024140734 0.017644659 0.50694597 4294901760
0.024185726 0.01714677 0.50693691 4294901760
0.024230719 0.016648877 0.50692785 4294901760
0.024275711 0.016150989 0.50691885 4294901760
0.024320703 0.0156531 0.50690979 4294901760
0.024365695 0.015155211 0.50690079 4294901760
0.024410687 0.014657322 0.50689173 4294901760
0.02445568 0.014159434 0.50688267 4294901760
0.024500672 0.013661545 0.50687367 4294901760
0.024545664 0.013163652 0.50686461 4294901760
0.024590656 0.012665763 0.50685555 4294901760
0.024635646 0.012167875 0.50684655 4294901760
0.024680639 0.011669986 0.50683749 4294901760
0.024725631 0.011172097 0.50682843 4294901760
0.024770623 0.010674208 0.50681943 4294901760
0.024815615 0.010176316 0.50681037 4294901760
0.024860607 0.0096784271 0.50680131 4294901760
0.0249056 0.0091805384 0.50679231 4294901760
0.024950592 0.0086826496 0.50678325 4294901760
0.024995584 0.0081847608 0.50677419 4294901760
0.025040576 0.0076868683 0.50676519 4294901760
0.025085568 0.0071889795 0.50675613 4294901760
0.025130561 0.006691087 0.50674707 4294901760
0.025175553 0.0061931983 0.50673807 4294901760
0.025220543 0.0056953095 0.50672901 4294901760
0.025265535 0.0051974207 0.50671995 4294901760
0.025310528 0.0046995319 0.50671095 4294901760
0.02535552 0.0042016394 0.50670189 4294901760
0.025400512 0.0037037507 0.50669283 4294901760
0.025445504 0.0032058619 0.50668383 4294901760
0.025490496 0.0027079731 0.50667477 4294901760
0.020991292 0.052496929 0.50757873 4278255360
0.021351308 0.05253572 0.50723392 4278255360
0.021711322 0.052574515 0.50688916 4278255360
0.022071337 0.052613307 0.50654435 4278255360
0.022431351 0.052652102 0.50619954 4278255360
0.022791367 0.052690893 0.50585473 4278255360
0.023151383 0.052729685 0.50550997 4278255360
0.023511397 0.05276848 0.50516516 4278255360
0.023871413 0.052807271 0.50482035 4278255360
0.024231426 0.052846067 0.50447559 4278255360
0.024591442 0.052884858 0.50413078 4278255360
0.024951456 0.05292365 0.50378597 4278255360
0.025311472 0.052962445 0.50344115 4278255360
0.025671486 0.053001236 0.5030964 4278255360
0.026031502 0.053040028 0.50275159 4278255360
0.026391517 0.053078823 0.50240678 4278255360
0.026751531 0.053117614 0.50206196 4278255360
0.027111547 0.053156409 0.50171721 4278255360
0.027471561 0.053195201 0.5013724 4278255360
0.027831577 0.053233992 0.50102758 4278255360
0.028191593 0.053272787 0.50068283 4278255360
0.028551606 0.053311579 0.50033802 4278255360
0.02891162 0.053350374 0.49999321 4278255360
0.029271636 0.053389166 0.49964842 4278255360
0.029631652 0.053427957 0.49930361 4278255360
0.029991668 0.053466752 0.49895883 4278255360
0.030351682 0.053505544 0.49861404 4278255360
0.030711697 0.053544339 0.49826923 4278255360
0.031071711 0.05358313 0.49792445 4278255360
0.031431727 0.053621922 0.49757963 4278255360
0.031791743 0.053660717 0.49723485 4278255360
0.032151759 0.053699508 0.49689004 4278255360
0.032511771 0.0537383 0.49654526 4278255360
0.032871787 0.053777095 0.49620044 4278255360
0.033231802 0.053815886 0.49585566 4278255360
0.033591814 0.053854682 0.49551088 4278255360
0.033951834 0.053893473 0.49516606 4278255360
0.034311846 0.053932264 0.49482128 4278255360
0.034671862 0.05397106 0.49447647 4278255360
0.035031877 0.054009851 0.49413168 4278255360
0.035391893 0.054048646 0.49378687 4278255360
0.035751905 0.054087438 0.49344209 4278255360
0.036111921 0.054126229 0.49309731 4278255360
0.036471937 0.054165024 0.49275249 4278255360
0.036831953 0.054203816 0.49240771 4278255360
0.037191965 0.054242611 0.4920629 4278255360
0.037551984 0.054281402 0.49171811 4278255360
0.037911996 0.054320194 0.4913733 4278255360
0.038272012 0.054358989 0.49102852 4278255360
0.038632028 0.05439778 0.4906837 4278255360
0.03899204 0.054436572 0.49033892 4278255360
0.039352056 0.054475367 0.48999414 4278255360
0.039712071 0.054514159 0.48964933 4278255360
0.040072083 0.054552954 0.48930454 4278255360
0.040432103 0.054591745 0.48895973 4278255360
0.040792115 0.054630537 0.48861495 4278255360
0.041152135 0.054669332 0.48827013 4278255360
0.041512147 0.054708123 0.48792535 4278255360
0.041872159 0.054746918 0.48758054 4278255360
0.042232178 0.05478571 0.48723575 4278255360
0.04259219 0.054824501 0.48689097 4278255360
0.04295221 0.054863296 0.48654616 4278255360
0.043312222 0.054902088 0.48620138 4278255360
0.043672234 0.054940883 0.48585656 4278255360
0.044032253 0.054979675 0.48551178 4278255360
0.044392265 0.055018466 0.48516697 4278255360
0.044752285 0.055057261 0.48482218 4278255360
0.045112297 0.055096053 0.4844774 4278255360
0.045472313 0.055134848 0.48413259 4278255360
0.045832328 0.055173639 0.4837878 4278255360
0.046192341 0.055212431 0.48344299 4278255360
0.046552356 0.055251226 0.48309821 4278255360
0.046912372 0.055290017 0.4827534 4278255360
0.047272388 0.055328809 0.48240861 4278255360
0.047632404 0.055367604 0.4820638 4278255360
0.047992416 0.055406395 0.48171902 4278255360
0.048352432 0.055445191 0.48137423 4278255360
0.048712447 0.055483982 0.48102942 4278255360
0.049072459 0.055522773 0.48068464 4278255360
0.049432479 0.055561569 0.48033983 4278255360
0.049792491 0.05560036 0.47999504 4278255360
0.050152507 0.055639155 0.47965023 4278255360
0.050512522 0.055677947 0.47930545 4278255360
0.050872535 0.055716738 0.47896063 4278255360
0.05123255 0.055755533 0.47861585 4278255360
0.051592566 0.055794325 0.47827107 4278255360
0.051952582 0.05583312 0.47792625 4278255360
0.052312598 0.055871911 0.47758147 4278255360
0.05267261 0.055910703 0.47723666 4278255360
0.053032625 0.055949498 0.47689188 4278255360
0.053392641 0.055988289 0.47654706 4278255360
0.053752657 0.056027085 0.47620228 4278255360
0.054112673 0.056065876 0.4758575 4278255360
0.054472689 0.056104667 0.47551268 4278255360
0.054832701 0.056143463 0.4751679 4278255360
0.055192716 0.056182254 0.47482309 4278255360
0.055552732 0.056221046 0.4744783 4278255360
0.055912748 0.056259841 0.47413349 4278255360
0.056272764 0.056298632 0.47378871 4278255360
0.056632776 0.056337427 0.4734439 4278255360
0.056992792 0.056376219 0.47309911 4278255360
0.020991292 0.052496929 0.50757873 4278190335
0.021244504 0.052511986 0.50800961 4278190335
0.021497715 0.052527048 0.50844049 4278190335
0.021750925 0.052542105 0.50887138 4278190335
0.022004137 0.052557163 0.50930226 4278190335
0.022257349 0.052572221 0.50973314 4278190335
0.02251056 0.052587282 0.51016402 4278190335
0.022763772 0.05260234 0.5105949 4278190335
0.023016982 0.052617397 0.51102579 4278190335
0.023270193 0.052632459 0.51145667 4278190335
0.023523405 0.052647516 0.51188755 4278190335
0.023776617 0.052662574 0.51231843 4278190335
0.024029829 0.052677631 0.51274931 4278190335
0.02428304 0.052692693 0.51318014 4278190335
0.024536252 0.05270775 0.51361102 4278190335
0.024789462 0.052722808 0.5140419 4278190335
0.025042674 0.052737869 0.51447278 4278190335
0.025295885 0.052752927 0.51490366 4278190335
0.025549097 0.052767985 0.51533455 4278190335
0.025802307 0.052783046 0.51576543 4278190335
0.026055519 0.052798104 0.51619631 4278190335
0.02630873 0.052813161 0.51662719 4278190335
0.026561942 0.052828219 0.51705807 4278190335
0.026815154 0.05284328 0.51748896 4278190335
0.027068365 0.052858338 0.51791984 4278190335
0.027321577 0.052873395 0.51835072 4278190335
0.027574787 0.052888457 0.5187816 4278190335
0.027827999 0.052903514 0.51921248 4278190335
0.02808121 0.052918572 0.51964337 4278190335
0.028334422 0.05293363 0.52007425 4278190335
0.028587634 0.052948691 0.52050513 4278190335
0.028840844 0.052963749 0.52093601 4278190335
0.029094055 0.052978806 0.52136689 4278190335
0.029347267 0.052993868 0.52179778 4278190335
0.029600479 0.053008925 0.52222866 4278190335
0.02985369 0.053023983 0.52265954 4278190335
0.030106902 0.05303904 0.52309042 4278190335
0.030360114 0.053054102 0.5235213 4278190335
0.030613324 0.053069159 0.52395213 4278190335
0.030866535 0.053084217 0.52438301 4278190335
0.031119747 0.053099278 0.52481389 4278190335
0.031372957 0.053114336 0.52524477 4278190335
0.031626169 0.053129394 0.52567565 4278190335
0.03187938 0.053144451 0.52610654 4278190335
0.032132592 0.053159513 0.52653742 4278190335
0.032385804 0.05317457 0.5269683 4278190335
0.032639015 0.053189628 0.52739918 4278190335
0.032892227 0.053204689 0.52783006 4278190335
0.033145435 0.053219747 0.52826095 4278190335
0.033398651 0.053234804 0.52869183 4278190335
0.033651859 0.053249866 0.52912271 4278190335
0.03390507 0.053264923 0.52955359 4278190335
0.034158282 0.053279981 0.52998447 4278190335
0.034411494 0.053295039 0.53041536 4278190335
0.034664705 0.0533101 0.53084624 4278190335
0.034917917 0.053325158 0.53127712 4278190335
0.035171129 0.053340215 0.531708 4278190335
0.035424341 0.053355277 0.53213888 4278190335
0.035677552 0.053370334 0.53256977 4278190335
0.03593076 0.053385392 0.53300065 4278190335
0.036183976 0.053400449 0.53343153 4278190335
0.036437184 0.053415511 0.53386241 4278190335
0.036690399 0.053430568 0.53429329 4278190335
0.036943607 0.053445626 0.53472412 4278190335
0.037196819 0.053460687 0.535155 4278190335
0.03745003 0.053475745 0.53558588 4278190335
0.037703242 0.053490803 0.53601676 4278190335
0.037956454 0.05350586 0.53644764 4278190335
0.038209666 0.053520922 0.53687853 4278190335
0.038462877 0.053535979 0.53730941 4278190335
0.038716085 0.053551037 0.53774029 4278190335
0.038969301 0.053566098 0.53817117 4278190335
0.039222509 0.053581156 0.53860205 4278190335
0.039475724 0.053596213 0.53903294 4278190335
0.039728932 0.053611271 0.53946382 4278190335
0.039982144 0.053626332 0.5398947 4278190335
0.040235355 0.05364139 0.54032558 4278190335
0.040488567 0.053656448 0.54075646 4278190335
0.040741779 0.053671509 0.54118735 4278190335
0.040994991 0.053686567 0.54161823 4278190335
0.041248202 0.053701624 0.54204911 4278190335
0.04150141 0.053716682 0.54247999 4278190335
0.041754626 0.053731743 0.54291087 4278190335
0.042007834 0.053746801 0.54334176 4278190335
0.042261049 0.053761858 0.54377264 4278190335
0.042514257 0.05377692 0.54420352 4278190335
0.042767473 0.053791977 0.5446344 4278190335
0.043020681 0.053807035 0.54506528 4278190335
0.043273892 0.053822096 0.54549611 4278190335
0.043527104 0.053837154 0.54592699 4278190335
0.043780312 0.053852212 0.54635787 4278190335
0.044033527 0.053867269 0.54678875 4278190335
0.044286739 0.053882331 0.54721963 4278190335
0.044539951 0.053897388 0.54765052 4278190335
0.044793159 0.053912446 0.5480814 4278190335
0.045046374 0.053927507 0.54851228 4278190335
0.045299582 0.053942565 0.54894316 4278190335
0.045552798 0.053957622 0.54937404 4278190335
0.045806006 0.05397268 0.54980493 4278190335
0.046059217 0.053987741 0.55023581 4278190335
0.046312429 0.054002799 0.55066669 4278190335
0.020991292 0.052496929 0.50757873 4294967295
0.019472023 0.052406576 0.50499344 4294967295
0.017952755 0.052316226 0.50240815 4294967295
0.016433489 0.052225873 0.49982288 4294967295
0.014914219 0.05213552 0.49723762 4294967295
0.013394951 0.052045166 0.49465233 4294967295
0.011875683 0.051954817 0.49206707 4294967295
0.010356415 0.051864464 0.48948178 4294967295
0.0088371467 0.051774111 0.48689651 4294967295
0.0073178783 0.051683757 0.48431122 4294967295
0.0057986099 0.051593408 0.48172596 4294967295
0.0042793415 0.051503055 0.47914067 4294967295
0.002760075 0.051412702 0.47655541 4294967295
0.0012408067 0.051322352 0.47397012 4294967295
-0.00027846172 0.051231999 0.47138482 4294967295
-0.001797732 0.051141646 0.46879956 4294967295
-0.0033169985 0.051051293 0.46621427 4294967295
-0.0048362669 0.050960943 0.46362901 4294967295
-0.0063555352 0.05087059 0.46104372 4294967295
-0.0078748036 0.050780237 0.45845845 4294967295
-0.009394072 0.050689884 0.45587316 4294967295
-0.010913339 0.050599534 0.4532879 4294967295
-0.012432609 0.050509181 0.45070261 4294967295
-0.013951875 0.050418828 0.44811732 4294967295
-0.015471142 0.050328478 0.44553205 4294967295
-0.016990412 0.050238125 0.44294679 4294967295
-0.018509679 0.050147772 0.4403615 4294967295
-0.020028949 0.050057419 0.43777621 4294967295
-0.021548215 0.049967069 0.43519095 4294967295
-0.023067482 0.049876716 0.43260568 4294967295
-0.024586756 0.049786363 0.43002039 4294967295
-0.026106022 0.04969601 0.4274351 4294967295
-0.027625289 0.04960566 0.42484984 4294967295
-0.029144559 0.049515307 0.42226455 4294967295
-0.030663826 0.049424954 0.41967928 4294967295
-0.032183092 0.049334601 0.41709399 4294967295
-0.033702362 0.049244251 0.4145087 4294967295
-0.035221629 0.049153898 0.41192344 4294967295
-0.036740899 0.049063545 0.40933818 4294967295
-0.038260166 0.048973195 0.40675288 4294967295
-0.039779436 0.048882842 0.40416759 4294967295
-0.041298702 0.048792489 0.40158233 4294967295
-0.042817969 0.048702136 0.39899707 4294967295
-0.044337239 0.048611786 0.39641178 4294967295
-0.045856509 0.048521433 0.39382648 4294967295
-0.047375772 0.04843108 0.39124122 4294967295
-0.048895042 0.048340727 0.38865593 4294967295
-0.050414313 0.048250377 0.38607067 4294967295
-0.051933575 0.048160024 0.38348538 4294967295
-0.053452846 0.048069671 0.38090008 4294967295
-0.054972116 0.047979318 0.37831482 4294967295
-0.056491386 0.047888968 0.37572956 4294967295
-0.058010649 0.047798615 0.37314427 4294967295
-0.059529919 0.047708262 0.37055898 4294967295
-0.061049189 0.047617912 0.36797369 4294967295
-0.062568456 0.047527559 0.36538842 4294967295
-0.064087719 0.047437206 0.36280316 4294967295
-0.065606996 0.047346853 0.36021787 4294967295
-0.067126259 0.047256503 0.35763261 4294967295
-0.068645522 0.04716615 0.35504735 4294967295
-0.0701648 0.047075797 0.35246205 4294967295
-0.071684062 0.046985444 0.34987676 4294967295
-0.07320334 0.046895094 0.34729147 4294967295
-0.074722603 0.046804741 0.34470621 4294967295
-0.076241866 0.046714388 0.34212095 4294967295
-0.077761129 0.046624038 0.33953565 4294967295
-0.079280406 0.046533685 0.33695036 4294967295
-0.080799684 0.046443332 0.33436507 4294967295
-0.082318947 0.046352979 0.33177981 4294967295
-0.08383821 0.046262629 0.32919455 4294967295
-0.085357472 0.046172276 0.32660925 4294967295
-0.08687675 0.046081923 0.32402399 4294967295
-0.088396013 0.04599157 0.3214387 4294967295
-0.08991529 0.04590122 0.31885344 4294967295
-0.091434553 0.045810867 0.31626815 4294967295
-0.092953816 0.045720514 0.31368285 4294967295
-0.094473094 0.045630164 0.31109759 4294967295
-0.095992357 0.045539811 0.30851233 4294967295
-0.097511619 0.045449458 0.30592704 4294967295
-0.099030897 0.045359105 0.30334175 4294967295
-0.10055016 0.045268755 0.30075645 4294967295
-0.10206942 0.045178402 0.29817119 4294967295
-0.1035887 0.045088049 0.29558593 4294967295
-0.10510796 0.0449977 0.29300064 4294967295
-0.10662723 0.044907346 0.29041538 4294967295
-0.1081465 0.044816993 0.28783008 4294967295
-0.10966577 0.04472664 0.28524482 4294967295
-0.11118503 0.044636287 0.28265953 4294967295
-0.11270431 0.044545937 0.28007424 4294967295
-0.11422357 0.044455584 0.27748898 4294967295
-0.11574283 0.044365231 0.27490371 4294967295
-0.11726211 0.044274881 0.27231842 4294967295
-0.11878137 0.044184528 0.26973313 4294967295
-0.12030065 0.044094175 0.26714784 4294967295
-0.12181991 0.044003822 0.26456261 4294967295
-0.12333918 0.043913472 0.26197731 4294967295
-0.12485844 0.043823119 0.25939202 4294967295
-0.12637772 0.043732766 0.25680673 4294967295
-0.12789698 0.043642417 0.25422147 4294967295
-0.12941626 0.043552063 0.25163618 4294967295
-0.13093552 0.04346171 0.24905092 4294967295
