# .PCD v0.7 - Point Cloud Data file format
VERSION 0.7
FIELDS x y z rgb
SIZE 4 4 4 4
TYPE F F F U
COUNT 1 1 1 1
WIDTH 1011
HEIGHT 1
VIEWPOINT 0 0 0 1 0 0 0
POINTS 1011
DATA ascii
0.0062553659 -0.016197145 0.377 4287186235
0.0074798628 -0.016197145 0.377 4287316794
0.0087043596 -0.016197145 0.377 4287119415
0.009928856 -0.016197145 0.377 4286858301
0.0025613308 -0.014853091 0.37400001 4286946185
0.0037962764 -0.01493252 0.37600002 4287061327
0.0050175255 -0.01493252 0.37600002 4286398000
0.0062553659 -0.014972233 0.377 4287840567
0.0074798628 -0.014972233 0.377 4287840819
0.0087043596 -0.014972233 0.377 4287643183
0.009928856 -0.014972233 0.377 4287774769
0.011153352 -0.014972233 0.377 4287643956
0.01237785 -0.014972233 0.377 4286593326
0.00013041566 -0.013492065 0.37 4286489484
0.0013357768 -0.013528531 0.37100002 4286675820
0.0025544823 -0.013601461 0.37300003 4286669910
0.0037760835 -0.013637925 0.37400001 4286790700
0.0050041811 -0.013674391 0.37500003 4287446831
0.0062387735 -0.013710856 0.37600002 4287972151
0.0074798628 -0.013747321 0.377 4289816149
0.0087043596 -0.013747321 0.377 4287445802
0.009928856 -0.013747321 0.377 4287774767
0.011182938 -0.013783786 0.37800002 4287315243
0.012410683 -0.013783786 0.37800002 4288235577
0.013638427 -0.013783786 0.37800002 4287711034
-0.0046007899 -0.012090603 0.36400002 4286687378
-0.0034185173 -0.012090603 0.36400002 4286555277
-0.002242388 -0.012123819 0.36500001 4286883472
-0.0010597629 -0.012157035 0.36600003 4287798412
0.0001300632 -0.012256683 0.36900002 4286938217
0.0013321763 -0.012289898 0.37 4287652684
0.0025476338 -0.01235633 0.37200001 4287121462
0.003765987 -0.012389546 0.37300003 4287578417
0.0049908361 -0.012422762 0.37400001 4288498749
0.0062387735 -0.012489194 0.37600002 4287775026
0.0074600223 -0.012489194 0.37600002 4286590495
0.0087043596 -0.01252241 0.377 4286919460
0.009928856 -0.01252241 0.377 4287643181
0.011182938 -0.012555626 0.37800002 4292909703
0.012410683 -0.012555626 0.37800002 4290214248
0.013638427 -0.012555626 0.37800002 4287643956
-0.0057512871 -0.010847996 0.36200002 4287080338
-0.00458815 -0.010877962 0.36300001 4286615162
-0.0034185173 -0.01090793 0.36400002 4287000151
-0.0022362445 -0.01090793 0.36400002 4287787614
-0.0010597629 -0.010967864 0.36600003 4287458135
0.00012935825 -0.01099783 0.36700001 4286993989
0.0013285758 -0.011057764 0.36900002 4287119917
0.0025339369 -0.011087731 0.37 4287513392
0.0037558903 -0.011147664 0.37200001 4286658085
0.0049908361 -0.011207598 0.37400001 4285804834
0.0062221815 -0.011237565 0.37500003 4286008641
0.0074600223 -0.011267532 0.37600002 4284295456
0.0087043596 -0.011297498 0.377 4286458912
0.009928856 -0.011297498 0.377 4286788131
0.011182938 -0.011327466 0.37800002 4287050022
0.012410683 -0.011327466 0.37800002 4289880920
0.013638427 -0.011327466 0.37800002 4289814357
0.014866171 -0.011327466 0.37800002 4288037946
-0.0080580739 -0.0096183857 0.36000001 4286621072
-0.0068887929 -0.0096183857 0.36000001 4287344023
-0.0057353997 -0.0096451044 0.36100003 4284766278
-0.004575511 -0.0096718213 0.36200002 4286730817
-0.0034091256 -0.009698539 0.36300001 4287382069
-0.0022362445 -0.0097252568 0.36400002 4287446579
-0.0010568673 -0.0097519746 0.36500001 4287513140
0.00012900577 -0.0097786924 0.36600003 4288171324
0.0013213749 -0.0098054102 0.36700001 4288106042
0.0025270884 -0.0098588457 0.36900002 4286461217
0.0037457941 -0.0099122813 0.37100002 4288385663
0.0049774921 -0.0099657169 0.37300003 4287208324
0.0062055886 -0.0099924337 0.37400001 4286881160
0.0074600223 -0.010045869 0.37600002 4288195737
0.0087043596 -0.010072587 0.377 4283965460
0.0099551929 -0.010099305 0.37800002 4285869857
0.011182938 -0.010099305 0.37800002 4286657061
0.012410683 -0.010099305 0.37800002 4287116842
0.013638427 -0.010099305 0.37800002 4287840308
0.014866171 -0.010099305 0.37800002 4288827460
-0.0080580739 -0.0084487088 0.36000001 4286751886
-0.0068887929 -0.0084487088 0.36000001 4286683265
-0.0057353997 -0.0084721772 0.36100003 4286072889
-0.0045628715 -0.0084721772 0.36100003 4286988084
-0.0033997342 -0.0084956456 0.36200002 4287445804
-0.0022301008 -0.008519114 0.36300001 4287247655
-0.0010539718 -0.0085425833 0.36400002 4287773997
0.00012865329 -0.0085660517 0.36500001 4287773995
0.0013177744 -0.0085895211 0.36600003 4287708204
0.0025202399 -0.0086364578 0.36800003 4286984999
0.0037356974 -0.0086833946 0.37 4288646782
0.0049641472 -0.0087303324 0.37200001 4287077256
0.0062055886 -0.0087772692 0.37400001 4286684808
0.0074600223 -0.0088242069 0.37600002 4287145359
0.0087043596 -0.0088476753 0.377 4282852887
0.0099551929 -0.0088711446 0.37800002 4284951328
0.011182938 -0.0088711446 0.37800002 4286525993
0.012443515 -0.0088946121 0.37900001 4286591016
0.013674506 -0.0088946121 0.37900001 4286853161
0.014905499 -0.0088946121 0.37900001 4287116333
-0.0080356905 -0.0072588129 0.35900003 4286948754
-0.0068887929 -0.0072790319 0.36000001 4282994492
-0.0057195118 -0.0072790319 0.36000001 4286069807
-0.0045628715 -0.0072992519 0.36100003 4286987309
-0.0033903427 -0.0072992519 0.36100003 4287182630
-0.0022239573 -0.0073194713 0.36200002 4287445030
-0.0010510762 -0.0073396903 0.36300001 4287576103
0.00012830083 -0.0073599103 0.36400002 4287773995
0.0013141739 -0.0073801298 0.36500001 4287380011
0.002506543 -0.0074003497 0.36600003 4288168757
0.0037256009 -0.0074610082 0.36900002 4287315509
0.0049508028 -0.0075014471 0.37100002 4288969072
0.0061889961 -0.0075418861 0.37300003 4287799949
0.0074600223 -0.0076025445 0.37600002 4288193424
0.0087043596 -0.007622764 0.377 4286072889
0.0099551929 -0.0076429839 0.37800002 4287910728
0.011212522 -0.0076632029 0.37900001 4289421398
0.012443515 -0.0076632029 0.37900001 4286262821
0.013674506 -0.0076632029 0.37900001 4286591786
0.014905499 -0.0076632029 0.37900001 4286658092
-0.0092017232 -0.0060923845 0.35900003 4286686865
-0.0080356905 -0.0060923845 0.35900003 4288000158
-0.0068696574 -0.0060923845 0.35900003 4283844665
-0.0057195118 -0.006109355 0.36000001 4286002983
-0.0045502316 -0.006109355 0.36000001 4286328866
-0.0033903427 -0.0061263256 0.36100003 4286984481
-0.0022178141 -0.0061263256 0.36100003 4287181860
-0.0010481807 -0.0061432957 0.36200002 4287181345
0.00012759588 -0.0061432957 0.36200002 4286852380
0.0013069729 -0.0061602662 0.36300001 4292579464
0.0024996945 -0.0061942069 0.36500001 4289555551
0.0037256009 -0.0062620887 0.36900002 4287906103
0.0049508028 -0.0062960298 0.37100002 4287971896
0.0061889961 -0.0063299704 0.37300003 4287517001
0.0074798628 -0.0063978522 0.377 4286791477
0.0087274481 -0.0064148228 0.37800002 4287446577
0.0099815289 -0.0064317929 0.37900001 4287578163
0.011242107 -0.0064487639 0.38000003 4287183405
0.012476347 -0.0064487639 0.38000003 4286723878
0.013710587 -0.0064487639 0.38000003 4286069287
0.014944828 -0.0064487639 0.38000003 4285414705
-0.0092017232 -0.0049259574 0.35900003 4286818451
-0.0080356905 -0.0049259574 0.35900003 4287207299
-0.0068696574 -0.0049259574 0.35900003 4284365872
-0.0057036243 -0.0049259574 0.35900003 4285674018
-0.0045502316 -0.0049396786 0.36000001 4286066977
-0.003380951 -0.0049396786 0.36000001 4286328350
-0.0022116704 -0.0049396786 0.36000001 4286722338
-0.0010452853 -0.0049533998 0.36100003 4286853667
0.0001272434 -0.0049533998 0.36100003 4287051046
0.0013033724 -0.0049671209 0.36200002 4287445034
0.0024859975 -0.0049808421 0.36300001 4291460202
0.0036448294 -0.0049533998 0.36100003 4289223242
0.0049641472 -0.0051043341 0.37200001 4288038198
0.0061889961 -0.0051180557 0.37300003 4287248682
0.0074997037 -0.0051866625 0.37800002 4287774769
0.0087505365 -0.0052003837 0.37900001 4287183659
0.010007866 -0.0052141049 0.38000003 4285342738
0.011271691 -0.0052278261 0.38100001 4285146134
0.01250918 -0.0052278261 0.38100001 4285608225
0.013782749 -0.0052415477 0.38200003 4285282086
0.014944828 -0.0052141049 0.38000003 4289497466
-0.0091760904 -0.003749057 0.35800001 4286489997
-0.0080133062 -0.003749057 0.35800001 4284374348
-0.0068505215 -0.003749057 0.35800001 4284889906
-0.0057036243 -0.0037595294 0.35900003 4285280543
-0.0045375922 -0.0037595294 0.35900003 4285344283
-0.0033715598 -0.0037595294 0.35900003 4285540633
-0.0022116704 -0.0037700015 0.36000001 4285934875
-0.0010423897 -0.0037700015 0.36000001 4286196764
0.0001272434 -0.003780474 0.36100003 4286722338
0.0012997721 -0.003780474 0.36100003 4286590752
0.002479149 -0.003790946 0.36200002 4287511593
0.0036448294 -0.003780474 0.36100003 4287905581
0.0049508028 -0.0038851961 0.37100002 4287906351
0.0061889961 -0.0039061406 0.37300003 4287380266
0.0075393845 -0.0039794459 0.38000003 4286985506
0.0087967133 -0.0039899182 0.38100001 4285345305
0.010060539 -0.0040003904 0.38200003 4284096015
0.011301276 -0.0040003904 0.38200003 4284557081
0.012574845 -0.0040108627 0.38300002 4284820251
0.013818828 -0.0040108627 0.38300002 4285216808
-0.0091760904 -0.0025858786 0.35800001 4286424204
-0.0080133062 -0.0025858786 0.35800001 4283057205
-0.0068505215 -0.0025858786 0.35800001 4284299052
-0.0056877369 -0.0025858786 0.35800001 4285279008
-0.0045375922 -0.0025931017 0.35900003 4285212443
-0.0033715598 -0.0025931017 0.35900003 4285014548
-0.0022055269 -0.0025931017 0.35900003 4285277720
-0.0010423897 -0.0026003248 0.36000001 4285934621
0.00012689093 -0.0026003248 0.36000001 4285803289
0.0012997721 -0.0026075481 0.36100003 4286591522
0.002479149 -0.002614771 0.36200002 4286590750
0.0036448294 -0.0026075481 0.36100003 4287181858
0.0048307027 -0.002614771 0.36200002 4287708202
0.0062055886 -0.0027014485 0.37400001 4286985508
0.0075790659 -0.0027592336 0.38200003 4285605908
0.0088198027 -0.0027592336 0.38200003 4283967511
0.010086875 -0.0027664567 0.38300002 4283048469
0.011360444 -0.0027736798 0.384 4284163609
0.012607677 -0.0027736798 0.384 4284229400
0.013854909 -0.0027736798 0.384 4284295706
0.015180798 -0.002788126 0.38600001 4285414705
-0.011469533 -0.0014187261 0.35700002 4287278998
-0.010309996 -0.0014187261 0.35700002 4286752656
-0.0091504594 -0.0014187261 0.35700002 4287147414
-0.0079909237 -0.0014187261 0.35700002 4283054379
-0.0068313861 -0.0014187261 0.35700002 4284495402
-0.0056877369 -0.0014227 0.35800001 4285344801
-0.0045249527 -0.0014227 0.35800001 4285278238
-0.0033715598 -0.0014266741 0.35900003 4284751894
-0.0022055269 -0.0014266741 0.35900003 4284817685
-0.0010423897 -0.0014306481 0.36000001 4285278490
0.00012689093 -0.0014306481 0.36000001 4285936420
0.0012997721 -0.0014346222 0.36100003 4285672221
0.002479149 -0.0014385962 0.36200002 4285803035
0.0036549256 -0.0014385962 0.36200002 4286459164
0.0048307027 -0.0014385962 0.36200002 4286524700
0.0062055886 -0.0014862844 0.37400001 4286459934
0.0075989058 -0.0015220506 0.38300002 4284685581
0.0088428911 -0.0015220506 0.38300002 4289114526
0.010113211 -0.0015260245 0.384 4288589979
0.011390029 -0.0015299987 0.38500002 4282717707
0.01264051 -0.0015299987 0.38500002 4283966743
0.01389099 -0.0015299987 0.38500002 4284099099
0.015180798 -0.0015339727 0.38600001 4284493855
0.016477104 -0.0015379468 0.38700002 4284633407
-0.011469533 -0.00025879653 0.35700002 4282339382
-0.010309996 -0.00025879653 0.35700002 4282076210
-0.0091504594 -0.00025879653 0.35700002 4282733373
-0.0079909237 -0.00025879653 0.35700002 4283970600
-0.0068313861 -0.00025879653 0.35700002 4284756007
-0.0056718495 -0.00025879653 0.35700002 4285738019
-0.0045249527 -0.00025952145 0.35800001 4286461740
-0.0033621681 -0.00025952145 0.35800001 4284621078
-0.0022055269 -0.00026024636 0.35900003 4284358419
-0.0010423897 -0.00026097128 0.36000001 4284226833
0.0001272434 -0.0002616962 0.36100003 4285411107
0.0012997721 -0.0002616962 0.36100003 4285476900
0.002479149 -0.00026242112 0.36200002 4285871656
0.0036650221 -0.00026314604 0.36300001 4286200362
0.0048440467 -0.00026314604 0.36300001 4286068774
0.006371513 -0.00027836935 0.384 4285607453
0.0075989058 -0.00027764443 0.38300002 4286993989
0.0088659786 -0.00027836935 0.384 4287409301
0.010139548 -0.0002790943 0.38500002 4287672986
0.011419613 -0.00027981919 0.38600001 4282722332
0.012673343 -0.00027981919 0.38600001 4283572503
0.013927069 -0.00027981919 0.38600001 4284362784
0.015220128 -0.00028054413 0.38700002 4284757540
0.016477104 -0.00028054413 0.38700002 4284888361
-0.010309996 0.000901133 0.35700002 4282272043
-0.0091248276 0.00089860882 0.35600001 4282007331
-0.0079685394 0.00089860882 0.35600001 4284298021
-0.0068122507 0.00089860882 0.35600001 4285149734
-0.0056718495 0.000901133 0.35700002 4285606174
-0.0045249527 0.00090365717 0.35800001 4286527530
-0.0033621681 0.00090365717 0.35800001 4283766284
-0.0022055269 0.00090618141 0.35900003 4283899413
-0.0010423897 0.00090870552 0.36000001 4284162837
0.0001272434 0.00091122976 0.36100003 4284360216
0.0013033724 0.00091375393 0.36200002 4285543976
0.0024859975 0.00091627805 0.36300001 4285347109
0.0036751186 0.00091880228 0.36400002 4285479467
0.0048440467 0.00091627805 0.36300001 4284690464
0.0060230712 0.00091627805 0.36300001 4283507987
0.0076187463 0.0009692859 0.384 4289833109
0.0088890679 0.00097181014 0.38500002 4287278232
0.010139548 0.00097181014 0.38500002 4287278230
0.011419613 0.00097433425 0.38600001 4284307013
0.012706175 0.00097685843 0.38700002 4283311387
0.013963151 0.00097685843 0.38700002 4284231458
0.015220128 0.00097685843 0.38700002 4284823849
0.016477104 0.00097685843 0.38700002 4285676844
0.017734082 0.00097685843 0.38700002 4286660661
-0.0090991966 0.002049516 0.35500002 4282661154
-0.007946156 0.002049516 0.35500002 4284823333
-0.0068122507 0.0020552892 0.35600001 4285215011
-0.0056559616 0.0020552892 0.35600001 4286330151
-0.0045123133 0.0020610625 0.35700002 4285410076
-0.0033621681 0.0020668358 0.35800001 4288454284
-0.0022055269 0.002072609 0.35900003 4287668877
-0.0010452853 0.0020841558 0.36100003 4287592034
0.00012759588 0.0020899288 0.36200002 4283705368
0.0013069729 0.0020957021 0.36300001 4283965458
0.002492846 0.0021014756 0.36400002 4285281318
0.003685215 0.0021072486 0.36500001 4284888615
0.0048573916 0.0021014756 0.36400002 4283970087
0.0063383286 0.0022053947 0.38200003 4280556560
0.0076187463 0.002216941 0.384 4285690983
0.0088890679 0.0022227145 0.38500002 4287409818
0.010165884 0.0022284877 0.38600001 4287278232
0.011449198 0.002234261 0.38700002 4288257934
0.012706175 0.002234261 0.38700002 4283248161
0.013999231 0.0022400343 0.38800001 4284033565
0.015259456 0.0022400343 0.38800001 4283638807
0.016519681 0.0022400343 0.38800001 4285741867
-0.0090991966 0.0032029471 0.35500002 4282789145
-0.007946156 0.0032029471 0.35500002 4285019427
-0.0067931153 0.0032029471 0.35500002 4285476639
-0.0056400741 0.0032029471 0.35500002 4286921516
-0.0045123133 0.0032209919 0.35700002 4288636245
-0.0033621681 0.0032300141 0.35800001 4287668877
-0.0022055269 0.0032390368 0.35900003 4287537037
-0.0010452853 0.0032570816 0.36100003 4283380260
0.00012759588 0.0032661038 0.36200002 4283905059
0.0013105734 0.0032841486 0.36400002 4284491802
0.0024996945 0.0032931708 0.36500001 4286004527
0.003705408 0.0033112157 0.36700001 4281798148
0.004870736 0.0032931708 0.36500001 4281475093
0.0063383286 0.0034465517 0.38200003 4283850321
0.0075989058 0.0034555739 0.38300002 4279640084
0.0088890679 0.0034736188 0.38500002 4288199334
0.010165884 0.003482641 0.38600001 4287147416
0.011449198 0.0034916636 0.38700002 4288524704
0.012739007 0.0035006858 0.38800001 4282461211
0.013999231 0.0035006858 0.38800001 4283967513
0.015298785 0.0035097084 0.38900003 4284296476
0.016562259 0.0035097084 0.38900003 4285806633
-0.0090991966 0.0043563787 0.35500002 4283774241
-0.007946156 0.0043563787 0.35500002 4285412129
-0.0067931153 0.0043563787 0.35500002 4285869598
-0.0056400741 0.0043563787 0.35500002 4287252532
-0.004461755 0.0043318355 0.35300002 4290353027
-0.0033621681 0.0043931929 0.35800001 4284172093
-0.0022055269 0.0044054645 0.35900003 4285022009
-0.0010481807 0.0044422788 0.36200002 4284232743
0.00012794834 0.0044545503 0.36300001 4284297505
0.0013141739 0.0044790935 0.36500001 4285674018
0.002506543 0.004491365 0.36600003 4286925881
0.0037256009 0.0045281793 0.36900002 4281799947
0.0050442144 0.004638623 0.37800002 4280753685
0.0063217357 0.0046754372 0.38100001 4279704342
0.0075989058 0.0046999799 0.38300002 4282271039
0.0088890679 0.0047245231 0.38500002 4287738270
0.010192221 0.0047490662 0.38700002 4287147929
0.011478783 0.0047613373 0.38800001 4288853921
0.01277184 0.0047736093 0.38900003 4281869842
0.014035312 0.0047736093 0.38900003 4284164120
0.015338113 0.0047858804 0.39000002 4284295706
0.016604833 0.0047858804 0.39000002 4285411357
-0.012558319 0.0055098101 0.35500002 4283257648
-0.011405277 0.0055098101 0.35500002 4281348624
-0.010252237 0.0055098101 0.35500002 4281541129
-0.0090991966 0.0055098101 0.35500002 4284233765
-0.007946156 0.0055098101 0.35500002 4285476639
-0.0067931153 0.0055098101 0.35500002 4286263840
-0.0056400741 0.0055098101 0.35500002 4286332200
-0.0044996734 0.0055253301 0.35600001 4287257159
-0.0033621681 0.0055563715 0.35800001 4285349941
-0.0022055269 0.0055718925 0.35900003 4284822568
-0.0010481807 0.005618454 0.36200002 4284625443
0.00012794834 0.0056339744 0.36300001 4284755742
0.0013141739 0.0056650154 0.36500001 4285476385
0.0025133914 0.0056960569 0.36700001 4285543976
0.0037558903 0.0057736598 0.37200001 4282268720
0.0050442144 0.0058667837 0.37800002 4283788123
0.0063051437 0.0058978247 0.38000003 4280428582
0.0075989058 0.0059443866 0.38300002 4281415730
0.0088890679 0.0059754276 0.38500002 4286553226
0.010192221 0.006006469 0.38700002 4287016089
0.011508367 0.00603751 0.38900003 4288128660
0.012804672 0.0060530305 0.39000002 4282327059
0.014071392 0.0060530305 0.39000002 4283571470
0.015377442 0.0060685514 0.39100003 4284953121
0.016647412 0.0060685514 0.39100003 4285477152
0.017963205 0.0060840719 0.39200002 4286066461
0.019236421 0.0060840719 0.39200002 4287183659
0.020561956 0.006099592 0.39300001 4287183405
-0.012558319 0.0066632414 0.35500002 4281217040
-0.011405277 0.0066632414 0.35500002 4281348626
-0.010252237 0.0066632414 0.35500002 4283973673
-0.0090991966 0.0066632414 0.35500002 4285020199
-0.007946156 0.0066632414 0.35500002 4285935139
-0.0067931153 0.0066632414 0.35500002 4285868315
-0.0056559616 0.0066820108 0.35600001 4286069028
-0.0044996734 0.0066820108 0.35600001 4285477920
-0.0033621681 0.0067195501 0.35800001 4285479978
-0.0022116704 0.0067570894 0.36000001 4284690462
-0.0010481807 0.0067946292 0.36200002 4284690203
0.00012794834 0.0068133986 0.36300001 4285280543
0.0013141739 0.0068509378 0.36500001 4286530610
0.0025133914 0.0068884776 0.36700001 4284033817
0.0037760835 0.0070198653 0.37400001 4285630325
0.0050442144 0.0070949444 0.37800002 4281881409
0.0063051437 0.0071324836 0.38000003 4282010429
0.0075790659 0.0071700229 0.38200003 4281878329
0.0088890679 0.0072263321 0.38500002 4285302645
0.010218557 0.0072826408 0.38800001 4287147162
0.011537951 0.0073201805 0.39000002 4283453248
0.012837506 0.0073389504 0.39100003 4283114008
0.014107473 0.0073389504 0.39100003 4284030739
0.01541677 0.0073577198 0.39200002 4284951837
0.016689988 0.0073577198 0.39200002 4285476898
0.017963205 0.0073577198 0.39200002 4285804580
0.019285493 0.0073764892 0.39300001 4285803810
0.020561956 0.0073764892 0.39300001 4286003246
-0.013749982 0.0078386907 0.35600001 4281349396
-0.012558319 0.0078166723 0.35500002 4280164100
-0.011405277 0.0078166723 0.35500002 4280162563
-0.010252237 0.0078166723 0.35500002 4285089072
-0.0090991966 0.0078166723 0.35500002 4285019168
-0.007946156 0.0078166723 0.35500002 4286065696
-0.0068122507 0.0078386907 0.35600001 4287184175
-0.0056559616 0.0078386907 0.35600001 4285278488
-0.0045123133 0.0078607099 0.35700002 4285213980
-0.0033621681 0.0078827282 0.35800001 4285151267
-0.0022116704 0.0079267658 0.36000001 4284559130
-0.0010481807 0.0079708034 0.36200002 4284492054
0.00012794834 0.0079928227 0.36300001 4285148957
0.0013141739 0.0080368603 0.36500001 4285807398
0.0025133914 0.0080808979 0.36700001 4286998868
0.0037760835 0.0082350289 0.37400001 4283918424
0.0050308695 0.0083010858 0.377 4281417778
0.0062885508 0.0083451234 0.37900001 4284313952
0.0075790659 0.0084111802 0.38200003 4280496674
0.0088890679 0.0084772361 0.38500002 4285038706
0.010244895 0.0085653113 0.38900003 4288199080
0.011567537 0.0086093489 0.39100003 4282724385
0.012870338 0.0086313672 0.39200002 4283441428
0.014143554 0.0086313672 0.39200002 4284425495
0.01541677 0.0086313672 0.39200002 4285082912
0.016732562 0.0086533865 0.39300001 4285542691
0.018009027 0.0086533865 0.39300001 4285542691
0.019285493 0.0086533865 0.39300001 4285152046
0.020561956 0.0086533865 0.39300001 4288188284
-0.014906271 0.0089953709 0.35600001 4282336291
-0.013749982 0.0089953709 0.35600001 4281151765
-0.012558319 0.0089701032 0.35500002 4280492811
-0.011405277 0.0089701032 0.35500002 4280162052
-0.010252237 0.0089701032 0.35500002 4284560675
-0.0090991966 0.0089701032 0.35500002 4285282340
-0.0079685394 0.0089953709 0.35600001 4286263073
-0.0068122507 0.0089953709 0.35600001 4287315761
-0.0056559616 0.0089953709 0.35600001 4285475869
-0.0045123133 0.0090206396 0.35700002 4285938734
-0.0033715598 0.009071175 0.35900003 4285875508
-0.0022116704 0.0090964427 0.36000001 4284164888
-0.0010452853 0.0091217114 0.36100003 4284755996
0.00012794834 0.0091722459 0.36300001 4285017884
0.0013177744 0.0092480499 0.36600003 4285283882
0.0025202399 0.0092985863 0.36800003 4285157693
0.003765987 0.0094249258 0.37300003 4283585352
0.0050175255 0.0095007289 0.37600002 4291089095
0.0062719584 0.0095512653 0.37800002 4282733627
0.007559225 0.0096270684 0.38100001 4282139437
0.0088890679 0.0097281402 0.38500002 4282075704
0.010271231 0.0098544797 0.39000002 4287537037
0.01159712 0.0099050151 0.39200002 4283378463
0.01290317 0.0099302828 0.39300001 4284098075
0.014179633 0.0099302828 0.39300001 4284819738
0.015456098 0.0099302828 0.39300001 4285475615
0.016732562 0.0099302828 0.39300001 4286265385
0.018009027 0.0099302828 0.39300001 4285281318
0.019285493 0.0099302828 0.39300001 4287402625
-0.014906271 0.010152051 0.35600001 4281875486
-0.013749982 0.010152051 0.35600001 4280822800
-0.012558319 0.010123535 0.35500002 4280688911
-0.011405277 0.010123535 0.35500002 4281015562
-0.010252237 0.010123535 0.35500002 4284887841
-0.0090991966 0.010123535 0.35500002 4285280543
-0.0079685394 0.010152051 0.35600001 4286527010
-0.0068122507 0.010152051 0.35600001 4287052841
-0.0056718495 0.010180569 0.35700002 4284818709
-0.0045249527 0.010209085 0.35800001 4286070836
-0.0033715598 0.010237603 0.35900003 4285218353
-0.0022116704 0.01026612 0.36000001 4283836954
-0.0010452853 0.010294638 0.36100003 4284624410
0.00012830083 0.010380188 0.36400002 4285346847
0.0013177744 0.010437222 0.36600003 4284165917
0.0025270884 0.010522773 0.36900002 4282328855
0.0037558903 0.010608324 0.37200001 4281938472
0.0050041811 0.010693875 0.37500003 4287862149
0.0062553659 0.010750908 0.377 4288191850
0.0075195436 0.010807943 0.37900001 4286479684
0.0088659786 0.010950527 0.384 4283847225
0.010350239 0.011207181 0.39300001 4281675291
0.01165629 0.011235698 0.39400002 4283705886
0.012936003 0.011235698 0.39400002 4284689181
0.014215714 0.011235698 0.39400002 4285409822
0.015495427 0.011235698 0.39400002 4285671967
0.016775141 0.011235698 0.39400002 4286003242
0.018009027 0.011207181 0.39300001 4289829511
-0.012558319 0.011276967 0.35500002 4280754189
-0.011405277 0.011276967 0.35500002 4283512870
-0.010252237 0.011276967 0.35500002 4285741605
-0.0090991966 0.011276967 0.35500002 4285870109
-0.0079685394 0.011308732 0.35600001 4286986276
-0.0068122507 0.011308732 0.35600001 4286788129
-0.0056718495 0.011340499 0.35700002 4285278236
-0.0045249527 0.011372264 0.35800001 4286006324
-0.0033715598 0.011404031 0.35900003 4284758572
-0.0022116704 0.011435797 0.36000001 4284099872
-0.0010452853 0.011467564 0.36100003 4284755226
0.00012830083 0.011562862 0.36400002 4285148955
0.0013177744 0.011626394 0.36600003 4283048721
0.0025270884 0.011721692 0.36900002 4282067480
0.0037558903 0.011816991 0.37200001 4281609246
0.0049908361 0.011880523 0.37400001 4284637261
0.0062221815 0.011912289 0.37500003 4281610763
0.0074798628 0.01197582 0.377 4282531088
0.0088659786 0.012198183 0.384 4282466072
0.010402913 0.01254761 0.39500001 4281608464
0.011685873 0.01254761 0.39500001 4284033054
0.012968834 0.01254761 0.39500001 4285017119
0.014251795 0.01254761 0.39500001 4285474588
0.015534755 0.01254761 0.39500001 4286000162
0.016817717 0.01254761 0.39500001 4285084459
-0.0148644 0.012430398 0.35500002 4281480733
-0.013711359 0.012430398 0.35500002 4280690960
-0.012558319 0.012430398 0.35500002 4281344529
-0.011405277 0.012430398 0.35500002 4285155126
-0.010252237 0.012430398 0.35500002 4285937701
-0.0090991966 0.012430398 0.35500002 4286330401
-0.0079685394 0.012465413 0.35600001 4288564283
-0.0068122507 0.012465413 0.35600001 4287905585
-0.0056718495 0.012500429 0.35700002 4287510827
-0.0045249527 0.012535443 0.35800001 4286987050
-0.0033715598 0.012570458 0.35900003 4284227601
-0.0022116704 0.012605473 0.36000001 4284820253
-0.0010452853 0.012640489 0.36100003 4284555537
0.00012865329 0.012780549 0.36500001 4285608223
0.0013213749 0.01285058 0.36700001 4282654992
0.0025270884 0.012920611 0.36900002 4282067480
0.0037457941 0.012990641 0.37100002 4281740572
0.0049774921 0.013060671 0.37300003 4284110147
0.0062055886 0.013095686 0.37400001 4281282066
0.0074401824 0.013130702 0.37500003 4281939476
0.0088659786 0.013445838 0.384 4281478927
0.01042925 0.013866021 0.39600003 4281477132
0.011715459 0.013866021 0.39600003 4284754462
0.013001667 0.013866021 0.39600003 4285672996
0.014287875 0.013866021 0.39600003 4286065444
0.015574085 0.013866021 0.39600003 4286131235
0.016860293 0.013866021 0.39600003 4285020976
-0.013711359 0.013583829 0.35500002 4281217815
-0.012558319 0.013583829 0.35500002 4281144583
-0.011405277 0.013583829 0.35500002 4285284400
-0.010252237 0.013583829 0.35500002 4286461989
-0.0090991966 0.013583829 0.35500002 4287051303
-0.0079685394 0.013622093 0.35600001 4289222213
-0.0068122507 0.013622093 0.35600001 4288366134
-0.0056718495 0.013660357 0.35700002 4287969321
-0.0045249527 0.013698622 0.35800001 4288035114
-0.0033621681 0.013698622 0.35800001 4287772714
-0.0022055269 0.013736886 0.35900003 4287773486
-0.0010452853 0.013813416 0.36100003 4289618770
0.00012865329 0.013966472 0.36500001 4286527782
0.0013213749 0.014043001 0.36700001 4282589201
0.0025270884 0.014119529 0.36900002 4281869592
0.0037457941 0.014196058 0.37100002 4281015827
0.0049641472 0.014234321 0.37200001 4283584832
0.0062055886 0.014310851 0.37400001 4285230413
0.0074401824 0.014349115 0.37500003 4284572479
0.0091661299 0.015190929 0.39700001 4281411855
0.010455586 0.015190929 0.39700001 4281736457
0.011745043 0.015190929 0.39700001 4285279519
0.013001667 0.015152666 0.39600003 4285935393
0.014287875 0.015152666 0.39600003 4286459684
0.015574085 0.015152666 0.39600003 4286657063
0.016860293 0.015152666 0.39600003 4286472531
-0.0148644 0.01473726 0.35500002 4281614374
-0.013711359 0.01473726 0.35500002 4281416482
-0.012558319 0.01473726 0.35500002 4282657561
-0.011405277 0.01473726 0.35500002 4285152298
-0.010252237 0.01473726 0.35500002 4286526499
-0.0090991966 0.01473726 0.35500002 4287051303
-0.0079685394 0.014778772 0.35600001 4287312933
-0.0068122507 0.014778772 0.35600001 4287509540
-0.0056718495 0.014820287 0.35700002 4288035368
-0.0045123133 0.014820287 0.35700002 4289418307
-0.0033621681 0.0148618 0.35800001 4287906110
-0.0022055269 0.014903313 0.35900003 4288233783
-0.0010423897 0.014944826 0.36000001 4287970861
0.00012935825 0.01523542 0.36700001 4288432697
0.0013249754 0.015276935 0.36800003 4281733127
0.0025339369 0.01535996 0.37 4282001691
0.0037457941 0.015401474 0.37100002 4281676835
0.0049641472 0.015442987 0.37200001 4285495396
0.0061889961 0.015484502 0.37300003 4282138667
0.0078766728 0.016480822 0.39700001 4283782981
0.0091661299 0.016480822 0.39700001 4284304444
0.010455586 0.016480822 0.39700001 4282718989
0.011745043 0.016480822 0.39700001 4285869855
0.0130345 0.016480822 0.39700001 4286263327
0.014287875 0.016439309 0.39600003 4286722338
0.015574085 0.016439309 0.39600003 4286722338
0.016860293 0.016439309 0.39600003 4289108364
-0.016017441 0.015890691 0.35500002 4281089577
-0.0148644 0.015890691 0.35500002 4281416745
-0.013711359 0.015890691 0.35500002 4282205746
-0.012558319 0.015890691 0.35500002 4284170028
-0.011405277 0.015890691 0.35500002 4285152296
-0.010252237 0.015890691 0.35500002 4286460454
-0.0090991966 0.015890691 0.35500002 4286787620
-0.0079685394 0.015935453 0.35600001 4286983200
-0.0068122507 0.015935453 0.35600001 4287442981
-0.0056718495 0.015980216 0.35700002 4287903530
-0.0045123133 0.015980216 0.35700002 4287509542
-0.0033621681 0.016024979 0.35800001 4293108636
-0.0021993832 0.016024979 0.35800001 4288172108
-0.0010394942 0.016069742 0.35900003 4288036656
0.00012935825 0.016427841 0.36700001 4288432954
0.0013285758 0.016517365 0.36900002 4282391055
0.0025339369 0.016562128 0.37 4281673496
0.0037457941 0.016606892 0.37100002 4281347359
0.0049641472 0.016651653 0.37200001 4280952860
0.0065540308 0.017681191 0.39500001 4283122998
0.0078568328 0.017725954 0.39600003 4288714376
0.0091430414 0.017725954 0.39600003 4282327059
0.01042925 0.017725954 0.39600003 4284623390
0.011715459 0.017725954 0.39600003 4286723878
0.013001667 0.017725954 0.39600003 4286788131
0.014287875 0.017725954 0.39600003 4286918690
0.015574085 0.017725954 0.39600003 4286920235
-0.016017441 0.017044123 0.35500002 4287343510
-0.0148644 0.017044123 0.35500002 4288000154
-0.013711359 0.017044123 0.35500002 4286289025
-0.012558319 0.017044123 0.35500002 4283052580
-0.011405277 0.017044123 0.35500002 4284691747
-0.010252237 0.017044123 0.35500002 4285869600
-0.0091248276 0.017092135 0.35600001 4286262305
-0.0079685394 0.017092135 0.35600001 4286590241
-0.0068122507 0.017092135 0.35600001 4286918436
-0.0056718495 0.017140146 0.35700002 4286983200
-0.0045123133 0.017140146 0.35700002 4287377958
-0.0033621681 0.017188158 0.35800001 4287970872
-0.0021993832 0.017188158 0.35800001 4292974740
-0.0010394942 0.017236169 0.35900003 4287708206
0.00012971072 0.017668275 0.36800003 4288629308
0.0013285758 0.017716285 0.36900002 4282587405
0.0025407854 0.01781231 0.37100002 4280751372
0.0037558903 0.017860319 0.37200001 4281018653
0.005177659 0.018628506 0.38800001 4284570192
0.0065208455 0.018868564 0.39300001 4284295974
0.007817151 0.018916577 0.39400002 4286333756
0.0091199521 0.018964587 0.39500001 4284357908
0.010402913 0.018964587 0.39500001 4285739559
0.011715459 0.0190126 0.39600003 4286985508
0.013001667 0.0190126 0.39600003 4287115554
0.014287875 0.0190126 0.39600003 4287510827
0.015574085 0.0190126 0.39600003 4286724139
-0.0148644 0.018197555 0.35500002 4287015060
-0.013711359 0.018197555 0.35500002 4287935649
-0.012558319 0.018197555 0.35500002 4283974202
-0.011437405 0.018248815 0.35600001 4284100390
-0.010281117 0.018248815 0.35600001 4285475869
-0.0091248276 0.018248815 0.35600001 4285474072
-0.0079685394 0.018248815 0.35600001 4285933338
-0.0068313861 0.018300075 0.35700002 4286393889
-0.0056718495 0.018300075 0.35700002 4286787620
-0.0045249527 0.018351335 0.35800001 4286918436
-0.0033621681 0.018351335 0.35800001 4286719774
-0.0022055269 0.018402597 0.35900003 4287508774
-0.0010394942 0.018402597 0.35900003 4288101679
0.00012971072 0.018863944 0.36800003 4289024064
0.0013285758 0.018915204 0.36900002 4284755240
0.0025407854 0.019017726 0.37100002 4281079056
0.0037558903 0.019068986 0.37200001 4281348642
0.005177659 0.019889157 0.38800001 4282922539
0.006487661 0.020042941 0.39100003 4287383612
0.0077973106 0.020145461 0.39300001 4287842620
0.0090968646 0.020196723 0.39400002 4289816926
0.010376576 0.020196723 0.39400002 4286986798
0.011685873 0.020247983 0.39500001 4287181349
0.012968834 0.020247983 0.39500001 4287378728
0.014251795 0.020247983 0.39500001 4287774769
-0.0148644 0.019350985 0.35500002 4287211926
-0.013749982 0.019405494 0.35600001 4288132258
-0.012593693 0.019405494 0.35600001 4282658088
-0.011437405 0.019405494 0.35600001 4284035112
-0.010281117 0.019405494 0.35600001 4284951326
-0.0091248276 0.019405494 0.35600001 4285015064
-0.0079909237 0.019460006 0.35700002 4285409049
-0.0068313861 0.019460006 0.35700002 4285671451
-0.0056877369 0.019514514 0.35800001 4286262303
-0.0045249527 0.019514514 0.35800001 4286524959
-0.0033715598 0.019569024 0.35900003 4287182632
-0.0022055269 0.019569024 0.35900003 4287247655
-0.0010423897 0.019623535 0.36000001 4287838507
0.00012935825 0.020005103 0.36700001 4287773484
0.0013249754 0.020059614 0.36800003 4284295976
0.0025407854 0.020223143 0.37100002 4281210644
0.0037558903 0.020277651 0.37200001 4281737238
0.005177659 0.021149809 0.38800001 4285020462
0.0064710681 0.021258829 0.39000002 4287250481
0.0077576302 0.021313339 0.39100003 4288431929
0.0090506868 0.021367848 0.39200002 4289817689
0.010350239 0.021422358 0.39300001 4287381038
0.01165629 0.021476869 0.39400002 4288168757
0.012936003 0.021476869 0.39400002 4287577390
0.014215714 0.021476869 0.39400002 4288107589
-0.014906271 0.020562174 0.35600001 4287146646
-0.013749982 0.020562174 0.35600001 4287605660
-0.012593693 0.020562174 0.35600001 4283184948
-0.011437405 0.020562174 0.35600001 4283444006
-0.010309996 0.020619934 0.35700002 4284294425
-0.0091504594 0.020619934 0.35700002 4284425495
-0.0079909237 0.020619934 0.35700002 4284555285
-0.0068505215 0.020677693 0.35800001 4284751894
-0.0056877369 0.020677693 0.35800001 4285080341
-0.0045375922 0.020735452 0.35900003 4285869598
-0.003380951 0.020793211 0.36000001 4286329120
-0.0022116704 0.020793211 0.36000001 4286394143
-0.0010481807 0.020908728 0.36200002 4286655518
0.00012900577 0.021139765 0.36600003 4286327326
0.0013213749 0.021197524 0.36700001 4287331955
0.0026161186 0.022063907 0.38200003 4282266414
0.0038770481 0.022179425 0.384 4284101675
0.0051643145 0.022352701 0.38700002 4285280806
0.0064544762 0.02246822 0.38900003 4287577136
0.0077377893 0.022525977 0.39000002 4287314216
0.0090275994 0.022583738 0.39100003 4291264874
0.010323904 0.022641497 0.39200002 4287975228
0.011626705 0.022699254 0.39300001 4288439384
0.01290317 0.022699254 0.39300001 4289492068
0.014179633 0.022699254 0.39300001 4288310364
-0.014906271 0.021718854 0.35600001 4286883220
-0.013749982 0.021718854 0.35600001 4287935908
-0.012629069 0.021779863 0.35700002 4282922287
-0.011469533 0.021779863 0.35700002 4283904298
-0.010309996 0.021779863 0.35700002 4284362530
-0.0091760904 0.02184087 0.35800001 4284296224
-0.0080133062 0.02184087 0.35800001 4284360986
-0.0068696574 0.021901879 0.35900003 4284886560
-0.0057036243 0.021901879 0.35900003 4284688154
-0.0045502316 0.021962887 0.36000001 4285082910
-0.0033903427 0.022023896 0.36100003 4285805604
-0.0022178141 0.022023896 0.36100003 4286002981
-0.0010510762 0.02214591 0.36300001 4286463532
0.00012865329 0.022267926 0.36500001 4285740324
0.0013177744 0.022328936 0.36600003 4289309852
0.0026161186 0.023305064 0.38200003 4288787876
0.0038871446 0.023488088 0.38500002 4284169013
0.0051509701 0.023549095 0.38600001 4286002994
0.0064378832 0.023671111 0.38800001 4288235323
0.0077179489 0.02373212 0.38900003 4288696126
0.00900451 0.023793127 0.39000002 4287906353
0.010297568 0.023854136 0.39100003 4289682769
0.012870338 0.023915144 0.39200002 4289624939
0.014179633 0.023976151 0.39300001 4288368964
0.01541677 0.023915144 0.39200002 4288769632
-0.014906271 0.022875536 0.35600001 4287015576
-0.013788607 0.022939794 0.35700002 4287015576
-0.012629069 0.022939794 0.35700002 4284110413
-0.01150166 0.023004051 0.35800001 4284234290
-0.010338875 0.023004051 0.35800001 4284560425
-0.0092017232 0.023068309 0.35900003 4284297253
-0.0080356905 0.023068309 0.35900003 4284494370
-0.0068887929 0.023132564 0.36000001 4284822820
-0.0057195118 0.023132564 0.36000001 4285019429
-0.0045628715 0.023196824 0.36100003 4285545773
-0.0033997342 0.02326108 0.36200002 4285085220
-0.0022301008 0.023325335 0.36300001 4285676844
-0.0010539718 0.023389595 0.36400002 4285281316
0.00012900577 0.023518108 0.36600003 4286004266
0.0013213749 0.023582365 0.36700001 4289770398
0.0025202399 0.023646623 0.36800003 4287868055
0.0038871446 0.024738993 0.38500002 4287931797
0.0051643145 0.024867509 0.38700002 4282658854
0.0064378832 0.024931764 0.38800001 4289749850
0.0077179489 0.024996022 0.38900003 4287773999
0.0089814216 0.024996022 0.38900003 4288364081
0.010271231 0.025060279 0.39000002 4288758839
0.011537951 0.025060279 0.39000002 4288430646
0.012870338 0.025188792 0.39200002 4288299060
0.014143554 0.025188792 0.39200002 4288167990
0.01541677 0.025188792 0.39200002 4287774772
-0.013788607 0.024099724 0.35700002 4287344025
-0.012664445 0.024167228 0.35800001 4288722598
-0.011533787 0.024234736 0.35900003 4284702548
-0.010367756 0.024234736 0.35900003 4284956214
-0.0092273541 0.024302242 0.36000001 4284692527
-0.0080580739 0.024302242 0.36000001 4284823849
-0.0069079287 0.024369748 0.36100003 4285021226
-0.0057353997 0.024369748 0.36100003 4284364327
-0.004575511 0.024437254 0.36200002 4284037677
-0.0034091256 0.02450476 0.36300001 4285946189
-0.0022301008 0.02450476 0.36300001 4283970087
-0.0010539718 0.024572266 0.36400002 4284427810
0.00012900577 0.02470728 0.36600003 4286136629
0.0013213749 0.024774784 0.36700001 4288912005
0.0025202399 0.024842292 0.36800003 4288130457
0.0038972411 0.026057404 0.38600001 4287540121
0.0051643145 0.02612491 0.38700002 4288523159
0.0064378832 0.026192416 0.38800001 4287250229
0.007698108 0.026192416 0.38800001 4287970093
0.0089814216 0.026259923 0.38900003 4288363824
0.010271231 0.026327427 0.39000002 4288363822
0.011537951 0.026327427 0.39000002 4288627248
0.012837506 0.026394935 0.39100003 4288100907
0.014143554 0.026462441 0.39200002 4288234035
0.01541677 0.026462441 0.39200002 4288102964
-0.01382723 0.025330408 0.35800001 4287475357
-0.012664445 0.025330408 0.35800001 4287672736
-0.011565915 0.025471918 0.36000001 4287472018
-0.010396635 0.025471918 0.36000001 4285286978
-0.0092529859 0.025542675 0.36100003 4284561454
-0.0080804573 0.025542675 0.36100003 4285021744
-0.0069270642 0.025613429 0.36200002 4282916622
-0.0057512871 0.025613429 0.36200002 4289639587
-0.00458815 0.025684183 0.36300001 4288328608
-0.0034185173 0.02575494 0.36400002 4288591528
-0.0022362445 0.02575494 0.36400002 4283387203
-0.0010568673 0.025825694 0.36500001 4283968804
0.00012900577 0.025896451 0.36600003 4285085742
0.0013213749 0.025967205 0.36700001 4284891956
0.0025202399 0.026037961 0.36800003 4288850069
0.0039073378 0.027382312 0.38700002 4289310368
0.0051643145 0.027382312 0.38700002 4285943877
0.0064378832 0.027453067 0.38800001 4288102962
0.007698108 0.027453067 0.38800001 4288562228
0.0089814216 0.027523823 0.38900003 4288363822
0.010271231 0.027594578 0.39000002 4288560683
0.011537951 0.027594578 0.39000002 4288627246
0.012837506 0.027665334 0.39100003 4287772196
0.014107473 0.027665334 0.39100003 4287970861
0.01541677 0.027736088 0.39200002 4287774772
-0.012699821 0.026567591 0.35900003 4287541922
-0.011598043 0.026715601 0.36100003 4288593838
-0.010425515 0.026715601 0.36100003 4284568395
-0.0092786169 0.026789604 0.36200002 4284431155
-0.0081028407 0.026789604 0.36200002 4284693292
-0.0069461991 0.026863607 0.36300001 4284692779
-0.0057671745 0.026863607 0.36300001 4289441690
-0.0046007899 0.026937613 0.36400002 4288000922
-0.0034279088 0.027011616 0.36500001 4287935647
-0.002242388 0.027011616 0.36500001 4286091646
-0.0010597629 0.027085623 0.36600003 4285550666
0.00012935825 0.027159626 0.36700001 4284165413
0.0013213749 0.027159626 0.36700001 4285610285
0.0026572095 0.028713718 0.38800001 4287585358
0.0039073378 0.028639715 0.38700002 4287579964
0.0051643145 0.028639715 0.38700002 4287971896
0.0064378832 0.028713718 0.38800001 4291524716
0.007698108 0.028713718 0.38800001 4288431414
0.0089814216 0.028787725 0.38900003 4288429097
0.010244895 0.028787725 0.38900003 4288627244
0.011537951 0.028861728 0.39000002 4287641898
0.012837506 0.028935732 0.39100003 4286787104
0.014107473 0.028935732 0.39100003 4286985256
0.01541677 0.029009737 0.39200002 4286395949
-0.01163017 0.027965778 0.36200002 4287935908
-0.010483273 0.028043032 0.36300001 4288522137
-0.0093042487 0.028043032 0.36300001 4284499776
-0.0081476076 0.028120287 0.36400002 4284495915
-0.006965335 0.028120287 0.36400002 4285284148
-0.005783062 0.028120287 0.36400002 4285751892
-0.0046134293 0.028197538 0.36500001 4288262815
-0.0034373004 0.028274793 0.36600003 4287672477
-0.0022485317 0.028274793 0.36600003 4288264614
-0.0010626584 0.028352046 0.36700001 4285427815
0.00012971072 0.028429301 0.36800003 4282985254
0.0013249754 0.028429301 0.36800003 4285938734
0.0025270884 0.028506553 0.36900002 4286331946
0.0039073378 0.029897118 0.38700002 4288236093
0.0051643145 0.029897118 0.38700002 4290013528
0.0064212908 0.029897118 0.38700002 4288364081
0.007698108 0.029974369 0.38800001 4288626226
0.0089814216 0.030051624 0.38900003 4288363822
0.010244895 0.030051624 0.38900003 4287510310
0.011537951 0.030128878 0.39000002 4286394920
0.012804672 0.030128878 0.39000002 4286395947
0.014107473 0.030206133 0.39100003 4286070322
0.01541677 0.030283384 0.39200002 4287723885
-0.011694426 0.029302958 0.36400002 4288133287
-0.010512154 0.029302958 0.36400002 4288526248
-0.0093298806 0.029302958 0.36400002 4282729275
-0.008169991 0.02938346 0.36500001 4284299054
-0.0069844704 0.02938346 0.36500001 4284560941
-0.0057989494 0.02938346 0.36500001 4284232489
-0.0046260692 0.029463964 0.36600003 4289704608
-0.0034373004 0.029463964 0.36600003 4287869854
-0.0022546751 0.029544465 0.36700001 4287738270
-0.001065554 0.029624971 0.36800003 4288723881
0.00012971072 0.029624971 0.36800003 4285299565
0.0013285758 0.029705472 0.36900002 4284951589
0.0025339369 0.029785974 0.37 4286461483
0.0038063726 0.030349491 0.377 4287510314
0.0051643145 0.031154519 0.38700002 4288233265
0.0064212908 0.031154519 0.38700002 4288956216
0.007698108 0.031235021 0.38800001 4288233263
0.0089583332 0.031235021 0.38800001 4286592040
0.010244895 0.031315524 0.38900003 4286134830
0.011537951 0.031396028 0.39000002 4285545008
0.012804672 0.031396028 0.39000002 4284757290
0.014107473 0.031476531 0.39100003 4286612337
-0.011694426 0.030485632 0.36400002 4288067494
-0.010541032 0.030569382 0.36500001 4287870115
-0.0093555115 0.030569382 0.36500001 4285233772
-0.0081923753 0.030653136 0.36600003 4284100907
-0.0070036063 0.030653136 0.36600003 4284297769
-0.0058148373 0.030653136 0.36600003 4285610801
-0.0046387082 0.030736886 0.36700001 4288376419
-0.0034466919 0.030736886 0.36700001 4287736723
-0.0022608186 0.03082064 0.36800003 4287474324
-0.001065554 0.03082064 0.36800003 4288197533
0.0001300632 0.03090439 0.36900002 4287862404
0.0013321763 0.03098814 0.37 4285607203
0.0025407854 0.031071894 0.37100002 4287118643
0.0037962764 0.031490654 0.37600002 4288892480
0.0051509701 0.03232817 0.38600001 4288037171
0.0064212908 0.032411922 0.38700002 4286657833
0.007678268 0.032411922 0.38700002 4286467906
0.0089583332 0.032495674 0.38800001 4285226831
0.010244895 0.032579426 0.38900003 4285228374
0.011537951 0.032663178 0.39000002 4286745978
0.012804672 0.032663178 0.39000002 4286749576
-0.011726553 0.031755306 0.36500001 4288132774
-0.010569912 0.031842306 0.36600003 4287935908
-0.0093811434 0.031842306 0.36600003 4288986286
-0.0081923753 0.031842306 0.36600003 4284563255
-0.0070227417 0.031929307 0.36700001 4284429357
-0.0058307247 0.031929307 0.36700001 4286006326
-0.0046387082 0.031929307 0.36700001 4285478185
-0.0034560836 0.032016307 0.36800003 4284362796
-0.0022608186 0.032016307 0.36800003 4284561974
-0.0010684495 0.032103308 0.36900002 4284755753
0.00013041566 0.032190308 0.37 4286133549
0.0013357768 0.032277312 0.37100002 4287579187
0.0025476338 0.032364309 0.37200001 4293765265
0.0037760835 0.032538313 0.37400001 4288102710
0.0051509701 0.033582322 0.38600001 4288366654
0.0064212908 0.033669323 0.38700002 4288309858
0.007678268 0.033669323 0.38700002 4288520336
0.0089583332 0.033756323 0.38800001 4287144845
0.010218557 0.033756323 0.38800001 4287144845
-0.010569912 0.033031482 0.36600003 4287870115
-0.0094067743 0.033121731 0.36700001 4288922290
-0.0082147587 0.033121731 0.36700001 4283249709
-0.0070227417 0.033121731 0.36700001 4284561458
-0.0058466126 0.03321198 0.36800003 4285217326
-0.0046513481 0.03321198 0.36800003 4285018916
-0.0034560836 0.03321198 0.36800003 4285213728
-0.0022669621 0.033302229 0.36900002 4285213730
-0.0010684495 0.033302229 0.36900002 4285671971
0.00013041566 0.033392478 0.37 4286591016
0.0013357768 0.03348273 0.37100002 4287116837
0.0025476338 0.033572979 0.37200001 4287707689
0.0037760835 0.033753481 0.37400001 4287707691
0.0049774921 0.033663232 0.37300003 4288103480
-0.010598792 0.034314148 0.36700001 4288067496
-0.0094067743 0.034314148 0.36700001 4288133289
-0.0082371421 0.034407649 0.36800003 4283976512
-0.0070418776 0.034407649 0.36800003 4284496946
-0.0058466126 0.034407649 0.36800003 4285152046
-0.0046639876 0.034501147 0.36900002 4285545773
-0.0034654748 0.034501147 0.36900002 4285082140
-0.0022669621 0.034501147 0.36900002 4285147420
-0.0010713449 0.034594648 0.37 4285672994
0.00013041566 0.034594648 0.37 4285935650
0.0013357768 0.034688145 0.37100002 4286854694
0.0025476338 0.034781646 0.37200001 4287116067
0.003765987 0.034875143 0.37300003 4287247653
0.0049774921 0.034875143 0.37300003 4287380268
-0.0094324071 0.035603318 0.36800003 4288133289
-0.0082371421 0.035603318 0.36800003 4285887337
-0.0070418776 0.035603318 0.36800003 4284169013
-0.0058624996 0.035700068 0.36900002 4284363046
-0.0046639876 0.035700068 0.36900002 4284362530
-0.0034654748 0.035700068 0.36900002 4284425757
-0.0022731056 0.035796814 0.37 4284622622
-0.0010713449 0.035796814 0.37 4284687384
0.00013076815 0.035893563 0.37100002 4285476898
0.0013357768 0.035893563 0.37100002 4286134569
0.0025476338 0.035990309 0.37200001 4286790959
0.003765987 0.036087058 0.37300003 4286856241
0.0049774921 0.036087058 0.37300003 4286922034
-0.0094324071 0.036798988 0.36800003 4288067496
-0.0082595255 0.036898986 0.36900002 4289444011
-0.0070610126 0.036898986 0.36900002 4283842362
-0.0058624996 0.036898986 0.36900002 4284693812
-0.004676627 0.03699898 0.37 4284561454
-0.0034748663 0.03699898 0.37 4284363046
-0.0022731056 0.03699898 0.37 4284428325
-0.0010713449 0.03699898 0.37 4285546545
0.00013076815 0.037098981 0.37100002 4285085992
0.0013357768 0.037098981 0.37100002 4285874738
0.0025476338 0.037198976 0.37200001 4286006326
0.0037558903 0.037198976 0.37200001 4285546293
0.0049774921 0.037298974 0.37300003 4286275924
-0.009458038 0.038097903 0.36900002 4288264360
-0.0082595255 0.038097903 0.36900002 4289052846
-0.0070610126 0.038097903 0.36900002 4284179799
-0.005878387 0.03820115 0.37 4284695357
-0.004676627 0.03820115 0.37 4284563001
-0.0034748663 0.03820115 0.37 4284891706
-0.0022731056 0.03820115 0.37 4284628534
-0.0010742405 0.038304396 0.37100002 4285087798
0.00013076815 0.038304396 0.37100002 4284956466
0.0013393773 0.038407642 0.37200001 4284232489
0.0025476338 0.038407642 0.37200001 4285089345
0.0037558903 0.038407642 0.37200001 4287404426
-0.007080148 0.039403316 0.37 4288395946
-0.005878387 0.039403316 0.37 4287734420
-0.004676627 0.039403316 0.37 4285759603
-0.0034748663 0.039403316 0.37 4285692525
-0.0022792493 0.039509814 0.37100002 4285692525
-0.0010742405 0.039509814 0.37100002 4286218097
0.00013076815 0.039509814 0.37100002 4287139453
0.0013393773 0.039616309 0.37200001 4288326293
0.0025476338 0.039616309 0.37200001 4287867285
0.0037558903 0.039616309 0.37200001 4287080340
-0.007080148 0.040605485 0.37 4287935910
-0.005878387 0.040605485 0.37 4287804322
-0.004676627 0.040605485 0.37 4287475357
-0.003484258 0.040715229 0.37100002 4287409305
-0.0022792493 0.040715229 0.37100002 4287343512
-0.0010742405 0.040715229 0.37100002 4287277719
0.00013076815 0.040715229 0.37100002 4287211926
0.0013393773 0.040824972 0.37200001 4287211926
0.0025476338 0.040824972 0.37200001 4286947984
