# .PCD v0.7 - Point Cloud Data file format
VERSION 0.7
FIELDS x y z rgb
SIZE 4 4 4 4
TYPE F F F U
COUNT 1 1 1 1
WIDTH 1016
HEIGHT 1
VIEWPOINT 0 0 0 1 0 0 0
POINTS 1016
DATA ascii
0.050966024 -0.018003969 0.36400002 4281155890
0.05200503 -0.017954506 0.36300001 4281222196
0.053037547 -0.017905045 0.36200002 4281616189
0.054213319 -0.017905045 0.36200002 4281221431
0.020393642 -0.016959934 0.36700001 4281942306
0.043041959 -0.016959934 0.36700001 4280890921
0.046618003 -0.016959934 0.36700001 4281813050
0.047679752 -0.016913721 0.36600003 4281813050
0.048735 -0.016867507 0.36500001 4282010429
0.049920518 -0.016867507 0.36500001 4282339394
0.050966024 -0.016821297 0.36400002 4281615671
0.05200503 -0.016775083 0.36300001 4281484083
0.053184059 -0.016775083 0.36300001 4279838746
0.054213319 -0.016728871 0.36200002 4280759848
0.13448535 -0.017699331 0.38300002 4280966454
0.039250832 -0.015681585 0.36500001 4281154089
0.044233974 -0.015767513 0.36700001 4281484851
0.045425989 -0.015767513 0.36700001 4281221679
0.046618003 -0.015767513 0.36700001 4281747253
0.047810022 -0.015767513 0.36700001 4281878839
0.048868522 -0.015724549 0.36600003 4282207806
0.049920518 -0.015681585 0.36500001 4281944634
0.051106039 -0.015681585 0.36500001 4281418288
0.05200503 -0.01559566 0.36300001 4281023530
0.053184059 -0.01559566 0.36300001 4281417774
0.054213319 -0.015552697 0.36200002 4279576086
0.13075338 -0.016454924 0.38300002 4280966967
0.13199738 -0.016454924 0.38300002 4281228858
0.13324136 -0.016454924 0.38300002 4281557310
0.036879793 -0.014495664 0.36500001 4280890919
0.043041959 -0.014575092 0.36700001 4281024302
0.044233974 -0.014575092 0.36700001 4281024302
0.045425989 -0.014575092 0.36700001 4280958509
0.046618003 -0.014575092 0.36700001 4281155888
0.047810022 -0.014575092 0.36700001 4281353267
0.04900204 -0.014575092 0.36700001 4281682232
0.050057288 -0.014535379 0.36600003 4281484853
0.051246058 -0.014535379 0.36600003 4281286704
0.05200503 -0.014416235 0.36300001 4280694565
0.053184059 -0.014416235 0.36300001 4281023530
0.054213319 -0.014376522 0.36200002 4282207804
0.12512065 -0.01513109 0.38100001 4280769590
0.12668979 -0.015170805 0.38200003 4280900663
0.13075338 -0.015210519 0.38300002 4281359161
0.13199738 -0.015210519 0.38300002 4281556540
0.13324136 -0.015210519 0.38300002 4281817663
0.043041959 -0.01338267 0.36700001 4280958511
0.044233974 -0.01338267 0.36700001 4280958511
0.045549769 -0.013419136 0.36800003 4281221683
0.046745032 -0.013419136 0.36800003 4281353267
0.047940299 -0.013419136 0.36800003 4281748025
0.049135566 -0.013419136 0.36800003 4281615669
0.050194055 -0.01338267 0.36700001 4281418290
0.051386073 -0.01338267 0.36700001 4280694567
0.052864619 -0.0134556 0.36900002 4280825637
0.054063134 -0.0134556 0.36900002 4281484081
0.055261642 -0.0134556 0.36900002 4281944632
0.11799673 -0.013783786 0.37800002 4279850022
0.11953987 -0.013820251 0.37900001 4280178219
0.12077086 -0.013820251 0.37900001 4280506414
0.12232377 -0.013856716 0.38000003 4280702510
0.12544906 -0.013929646 0.38200003 4281227323
0.12668979 -0.013929646 0.38200003 4281293116
0.13075338 -0.013966111 0.38300002 4281686845
0.13234201 -0.014002576 0.384 4281620282
0.035694271 -0.012123819 0.36500001 4281088811
0.036879793 -0.012123819 0.36500001 4282340162
0.038065314 -0.012123819 0.36500001 4283196756
0.039250832 -0.012123819 0.36500001 4280891946
0.043041959 -0.012190251 0.36700001 4280497190
0.044233974 -0.012190251 0.36700001 4281155890
0.045549769 -0.012223467 0.36800003 4281353269
0.046745032 -0.012223467 0.36800003 4281748025
0.047940299 -0.012223467 0.36800003 4281813818
0.049135566 -0.012223467 0.36800003 4281813818
0.050330825 -0.012223467 0.36800003 4281023532
0.051526092 -0.012223467 0.36800003 4280497188
0.052864619 -0.012256683 0.36900002 4281089325
0.054063134 -0.012256683 0.36900002 4281418290
0.055261642 -0.012256683 0.36900002 4281878839
0.10788859 -0.01252241 0.377 4279981869
0.11431349 -0.012555626 0.37800002 4280112942
0.11554123 -0.012555626 0.37800002 4280178735
0.11676899 -0.012555626 0.37800002 4280901172
0.11799673 -0.012555626 0.37800002 4280637487
0.12108953 -0.012622058 0.38000003 4280767794
0.12544906 -0.01268849 0.38200003 4282015812
0.019463226 -0.011147664 0.37200001 4282007583
0.038065314 -0.010937897 0.36500001 4282142531
0.039250832 -0.010937897 0.36500001 4282143814
0.04054714 -0.010967864 0.36600003 4282538054
0.04173591 -0.010967864 0.36600003 4282406468
0.043041959 -0.01099783 0.36700001 4281879611
0.044233974 -0.01099783 0.36700001 4280959024
0.045549769 -0.011027797 0.36800003 4281682747
0.046745032 -0.011027797 0.36800003 4281814333
0.047940299 -0.011027797 0.36800003 4281682747
0.049269084 -0.011057764 0.36900002 4281353267
0.050330825 -0.011027797 0.36800003 4280365602
0.051526092 -0.011027797 0.36800003 4281089325
0.052864619 -0.011057764 0.36900002 4281089323
0.054063134 -0.011057764 0.36900002 4281352495
0.055261642 -0.011057764 0.36900002 4281813046
0.058916427 -0.010847996 0.36200002 4280036637
0.060092207 -0.010847996 0.36200002 4279251484
0.061267979 -0.010847996 0.36200002 4279515937
0.062443756 -0.010847996 0.36200002 4282542415
0.063619532 -0.010847996 0.36200002 4285106546
0.089060701 -0.011087731 0.37 4282079552
0.092916429 -0.011117698 0.37100002 4279648291
0.10515992 -0.011267532 0.37600002 4279652393
0.10911308 -0.011297498 0.377 4280112942
0.11033757 -0.011297498 0.377 4279915563
0.111858 -0.011327466 0.37800002 4280440623
0.11308575 -0.011327466 0.37800002 4280966454
0.11431349 -0.011327466 0.37800002 4280373549
0.11830889 -0.011357432 0.37900001 4281161268
0.11953987 -0.011357432 0.37900001 4281161268
0.12108953 -0.011387399 0.38000003 4282278466
0.019463226 -0.0099389981 0.37200001 4281942560
0.020615915 -0.0099122813 0.37100002 4281483560
0.021762107 -0.0098855626 0.37 4281286188
0.02283974 -0.009832128 0.36800003 4280759846
0.026281916 -0.0097786924 0.36600003 4281089323
0.034414209 -0.0097252568 0.36400002 4281023280
0.035596479 -0.0097252568 0.36400002 4281286452
0.036778755 -0.0097252568 0.36400002 4281287476
0.038065314 -0.0097519746 0.36500001 4282144068
0.039250832 -0.0097519746 0.36500001 4282012228
0.04054714 -0.0097786924 0.36600003 4282012228
0.04173591 -0.0097786924 0.36600003 4282012480
0.043041959 -0.0098054102 0.36700001 4281683515
0.044233974 -0.0098054102 0.36700001 4281420604
0.045549769 -0.009832128 0.36800003 4280696883
0.046745032 -0.009832128 0.36800003 4280499504
0.048070569 -0.0098588457 0.36900002 4280960053
0.049269084 -0.0098588457 0.36900002 4280695850
0.050467592 -0.0098588457 0.36900002 4280826921
0.051666107 -0.0098588457 0.36900002 4281352495
0.052864619 -0.0098588457 0.36900002 4281286702
0.054063134 -0.0098588457 0.36900002 4281286702
0.055261642 -0.0098588457 0.36900002 4281813046
0.059079178 -0.009698539 0.36300001 4280694305
0.060258206 -0.009698539 0.36300001 4279119383
0.061437227 -0.009698539 0.36300001 4278989593
0.062443756 -0.0096718213 0.36200002 4279055900
0.063619532 -0.0096718213 0.36200002 4284384621
0.064795315 -0.0096718213 0.36200002 4285434227
0.085224465 -0.0098588457 0.36900002 4281751105
0.086422972 -0.0098588457 0.36900002 4279909414
0.087621488 -0.0098588457 0.36900002 4279778596
0.089060701 -0.0098855626 0.37 4279713057
0.090262458 -0.0098855626 0.37 4279648289
0.091711424 -0.0099122813 0.37100002 4279056922
0.10515992 -0.010045869 0.37600002 4279849258
0.10638116 -0.010045869 0.37600002 4280440625
0.10788859 -0.010072587 0.377 4280572211
0.10911308 -0.010072587 0.377 4280834100
0.11063025 -0.010099305 0.37800002 4280505135
0.111858 -0.010099305 0.37800002 4280701231
0.11308575 -0.010099305 0.37800002 4282082370
0.12108953 -0.01015274 0.38000003 4282539074
0.12232377 -0.01015274 0.38000003 4285433198
0.020615915 -0.008706864 0.37100002 4281088550
0.036778755 -0.0085425833 0.36400002 4281090356
0.038065314 -0.0085660517 0.36500001 4282208837
0.039250832 -0.0085660517 0.36500001 4282143816
0.040436354 -0.0085660517 0.36500001 4281683265
0.04173591 -0.0085895211 0.36600003 4281880642
0.043041959 -0.0086129894 0.36700001 4281748286
0.044233974 -0.0086129894 0.36700001 4280960053
0.045425989 -0.0086129894 0.36700001 4280499504
0.046745032 -0.0086364578 0.36800003 4280499767
0.048070569 -0.0086599262 0.36900002 4280499767
0.049269084 -0.0086599262 0.36900002 4280894009
0.050467592 -0.0086599262 0.36900002 4280630577
0.051666107 -0.0086599262 0.36900002 4281156401
0.052864619 -0.0086599262 0.36900002 4280959022
0.054063134 -0.0086599262 0.36900002 4281024302
0.055261642 -0.0086599262 0.36900002 4281155888
0.057900153 -0.008519114 0.36300001 4281748023
0.059079178 -0.008519114 0.36300001 4282077242
0.060258206 -0.008519114 0.36300001 4279053074
0.061437227 -0.008519114 0.36300001 4278858261
0.062616251 -0.008519114 0.36300001 4278858521
0.063795276 -0.008519114 0.36300001 4279450146
0.064974301 -0.008519114 0.36300001 4285369722
0.080212444 -0.0086364578 0.36800003 4284973676
0.081407711 -0.0086364578 0.36800003 4281487161
0.08260297 -0.0086364578 0.36800003 4279580188
0.085224465 -0.0086599262 0.36900002 4279647264
0.086422972 -0.0086599262 0.36900002 4279713570
0.087621488 -0.0086599262 0.36900002 4279056922
0.089060701 -0.0086833946 0.37 4278859543
0.090262458 -0.0086833946 0.37 4278795287
0.091711424 -0.008706864 0.37100002 4278795287
0.10122624 -0.0088007385 0.37500003 4280045867
0.10271741 -0.0088242069 0.37600002 4280440112
0.10543959 -0.0088476753 0.377 4280834100
0.11584689 -0.0088946121 0.37900001 4281159220
0.11707789 -0.0088946121 0.37900001 4282539335
0.039250832 -0.0073801298 0.36500001 4283986018
0.040436354 -0.0073801298 0.36500001 4283328088
0.04173591 -0.0074003497 0.36600003 4282406218
0.04292468 -0.0074003497 0.36600003 4280234536
0.045425989 -0.0074205687 0.36700001 4280102950
0.046745032 -0.0074407887 0.36800003 4280499765
0.048070569 -0.0074610082 0.36900002 4280499767
0.049269084 -0.0074610082 0.36900002 4280631353
0.050467592 -0.0074610082 0.36900002 4280631351
0.051666107 -0.0074610082 0.36900002 4280236332
0.052864619 -0.0074610082 0.36900002 4280630575
0.054063134 -0.0074610082 0.36900002 4280827438
0.055261642 -0.0074610082 0.36900002 4280893231
0.057900153 -0.0073396903 0.36300001 4281353780
0.059241932 -0.0073599103 0.36400002 4281090606
0.060424209 -0.0073599103 0.36400002 4278987281
0.061606478 -0.0073599103 0.36400002 4278922771
0.062788747 -0.0073599103 0.36400002 4278661396
0.063971028 -0.0073599103 0.36400002 4278990361
0.065153301 -0.0073599103 0.36400002 4279383840
0.066335566 -0.0073599103 0.36400002 4285435513
0.072842374 -0.0074205687 0.36700001 4285631093
0.074236117 -0.0074407887 0.36800003 4285499507
0.075431384 -0.0074407887 0.36800003 4285763192
0.076626651 -0.0074407887 0.36800003 4285434741
0.077821918 -0.0074407887 0.36800003 4281356860
0.079017177 -0.0074407887 0.36800003 4279186461
0.081407711 -0.0074407887 0.36800003 4279385119
0.08260297 -0.0074407887 0.36800003 4279188510
0.084025949 -0.0074610082 0.36900002 4278991131
0.085224465 -0.0074610082 0.36900002 4278925336
0.086422972 -0.0074610082 0.36900002 4278859543
0.087858938 -0.0074812272 0.37 4279057176
0.089060701 -0.0074812272 0.37 4278991896
0.094628833 -0.0075418861 0.37300003 4278599189
0.095840342 -0.0075418861 0.37300003 4279586086
0.097312033 -0.0075621055 0.37400001 4279717672
0.098790236 -0.0075823255 0.37500003 4280111660
0.10000824 -0.0075823255 0.37500003 4280637491
0.10421509 -0.007622764 0.377 4280832301
0.11215391 -0.0076632029 0.37900001 4281553208
0.022963868 -0.0062790592 0.37 4280760096
0.024035003 -0.0062451186 0.36800003 4281549351
0.025161708 -0.006228148 0.36700001 4281812005
0.037961025 -0.0061772368 0.36400002 4281615669
0.039250832 -0.0061942069 0.36500001 4282470716
0.046745032 -0.0062451186 0.36800003 4280301876
0.048070569 -0.0062620887 0.36900002 4280565562
0.049269084 -0.0062620887 0.36900002 4280433976
0.050467592 -0.0062620887 0.36900002 4280631353
0.051666107 -0.0062620887 0.36900002 4280565044
0.052864619 -0.0062620887 0.36900002 4280499504
0.054063134 -0.0062620887 0.36900002 4280696368
0.055261642 -0.0062620887 0.36900002 4280301094
0.058059659 -0.0061772368 0.36400002 4280959022
0.059404682 -0.0061942069 0.36500001 4280893229
0.060590208 -0.0061942069 0.36500001 4279381525
0.061775722 -0.0061942069 0.36500001 4278790672
0.062961243 -0.0061942069 0.36500001 4278791955
0.064146765 -0.0061942069 0.36500001 4278989847
0.065332286 -0.0061942069 0.36500001 4279055386
0.066517808 -0.0061942069 0.36500001 4280041770
0.067703329 -0.0061942069 0.36500001 4285434741
0.069077589 -0.0062111774 0.36600003 4284974444
0.070266359 -0.0062111774 0.36600003 4285434481
0.071650356 -0.006228148 0.36700001 4285368688
0.072842374 -0.006228148 0.36700001 4285433714
0.074236117 -0.0062451186 0.36800003 4282408003
0.075431384 -0.0062451186 0.36800003 4279777826
0.076626651 -0.0062451186 0.36800003 4279383838
0.077821918 -0.0062451186 0.36800003 4279450144
0.079017177 -0.0062451186 0.36800003 4279121179
0.080212444 -0.0062451186 0.36800003 4278991131
0.081628926 -0.0062620887 0.36900002 4278859543
0.082827434 -0.0062620887 0.36900002 4278793750
0.084025949 -0.0062620887 0.36900002 4278859543
0.085224465 -0.0062620887 0.36900002 4278793750
0.09195862 -0.0063129999 0.37200001 4279848488
0.093166873 -0.0063129999 0.37200001 4279716389
0.094628833 -0.0063299704 0.37300003 4280242733
0.096097283 -0.006346941 0.37400001 4280702514
0.097312033 -0.006346941 0.37400001 4280965686
0.10027492 -0.0063808816 0.37600002 4280964403
0.025161708 -0.0050357278 0.36700001 4281482525
0.026281916 -0.0050220066 0.36600003 4281022235
0.036778755 -0.0049945638 0.36400002 4281220395
0.037961025 -0.0049945638 0.36400002 4281220134
0.039250832 -0.0050082849 0.36500001 4280430098
0.040436354 -0.0050082849 0.36500001 4283128381
0.041621875 -0.0050082849 0.36500001 4281418280
0.046745032 -0.0050494494 0.36800003 4280564533
0.048070569 -0.0050631706 0.36900002 4280433462
0.049269084 -0.0050631706 0.36900002 4280038704
0.050467592 -0.0050631706 0.36900002 4280762427
0.051666107 -0.0050631706 0.36900002 4280762427
0.052864619 -0.0050631706 0.36900002 4280630839
0.054063134 -0.0050631706 0.36900002 4280564784
0.055261642 -0.0050631706 0.36900002 4280761391
0.059730191 -0.0050357278 0.36700001 4279578139
0.060922209 -0.0050357278 0.36700001 4279908383
0.061944973 -0.0050220066 0.36600003 4278988051
0.063133746 -0.0050220066 0.36600003 4278791955
0.064322516 -0.0050220066 0.36600003 4278792468
0.065332286 -0.0050082849 0.36500001 4278858261
0.066700049 -0.0050220066 0.36600003 4278660882
0.067888819 -0.0050220066 0.36600003 4279253019
0.069077589 -0.0050220066 0.36600003 4279515678
0.070458338 -0.0050357278 0.36700001 4279318297
0.071650356 -0.0050357278 0.36700001 4279252504
0.073040858 -0.0050494494 0.36800003 4279712285
0.074236117 -0.0050494494 0.36800003 4279514393
0.075431384 -0.0050494494 0.36800003 4279253017
0.076626651 -0.0050494494 0.36800003 4278989845
0.077821918 -0.0050494494 0.36800003 4278858259
0.079231896 -0.0050631706 0.36900002 4278858259
0.080430411 -0.0050631706 0.36900002 4278596371
0.081628926 -0.0050631706 0.36900002 4278925336
0.082827434 -0.0050631706 0.36900002 4279057176
0.087858938 -0.0050768917 0.37 4280110377
0.089301407 -0.0050906129 0.37100002 4280176170
0.090750366 -0.0051043341 0.37200001 4280702001
0.09195862 -0.0051043341 0.37200001 4281030966
0.093417332 -0.0051180557 0.37300003 4281687872
0.096097283 -0.0051317769 0.37400001 4279382557
0.025161708 -0.003843307 0.36700001 4281943078
0.026281916 -0.003832835 0.36600003 4281087515
0.027395627 -0.0038223625 0.36500001 4281353517
0.028581148 -0.0038223625 0.36500001 4281024554
0.034414209 -0.0038118905 0.36400002 4280958257
0.035596479 -0.0038118905 0.36400002 4280364573
0.036778755 -0.0038118905 0.36400002 4281351202
0.037961025 -0.0038118905 0.36400002 4281614626
0.039250832 -0.0038223625 0.36500001 4281218837
0.040436354 -0.0038223625 0.36500001 4281613595
0.041621875 -0.0038223625 0.36500001 4280956183
0.04292468 -0.003832835 0.36600003 4283195205
0.045425989 -0.003843307 0.36700001 4280498219
0.046745032 -0.0038537795 0.36800003 4280695351
0.048070569 -0.0038642515 0.36900002 4280630328
0.049269084 -0.0038642515 0.36900002 4280565048
0.050467592 -0.0038642515 0.36900002 4280630841
0.051666107 -0.0038642515 0.36900002 4280762427
0.052864619 -0.0038642515 0.36900002 4280565562
0.054063134 -0.0038642515 0.36900002 4279709735
0.055261642 -0.0038642515 0.36900002 4280760878
0.059176192 -0.0038851961 0.37100002 4280302377
0.060055695 -0.0038642515 0.36900002 4279183894
0.061088212 -0.0038537795 0.36800003 4279383322
0.062283471 -0.0038537795 0.36800003 4279055127
0.063306242 -0.003843307 0.36700001 4278660369
0.064498261 -0.003843307 0.36700001 4278660882
0.065690279 -0.003843307 0.36700001 4278727959
0.066700049 -0.003832835 0.36600003 4278859545
0.068074308 -0.003843307 0.36700001 4278661394
0.069266327 -0.003843307 0.36700001 4278989845
0.070458338 -0.003843307 0.36700001 4278792720
0.071650356 -0.003843307 0.36700001 4278595341
0.073040858 -0.0038537795 0.36800003 4278792720
0.074236117 -0.0038537795 0.36800003 4278726673
0.075431384 -0.0038537795 0.36800003 4278858259
0.076834872 -0.0038642515 0.36900002 4278792466
0.078033388 -0.0038642515 0.36900002 4279318810
0.079231896 -0.0038642515 0.36900002 4279319324
0.080430411 -0.0038642515 0.36900002 4279320348
0.081628926 -0.0038642515 0.36900002 4279320348
0.084253661 -0.0038747236 0.37 4280175657
0.085455418 -0.0038747236 0.37 4280438829
0.086657174 -0.0038747236 0.37 4280373036
0.088096403 -0.0038851961 0.37100002 4280701231
0.089301407 -0.0038851961 0.37100002 4280634924
0.026281916 -0.0026436637 0.36600003 4281219101
0.027395627 -0.0026364403 0.36500001 4281153823
0.028581148 -0.0026364403 0.36500001 4281023009
0.034414209 -0.0026292175 0.36400002 4280955681
0.035596479 -0.0026292175 0.36400002 4280626198
0.036778755 -0.0026292175 0.36400002 4281349401
0.037961025 -0.0026292175 0.36400002 4280559885
0.039143298 -0.0026292175 0.36400002 4282073376
0.040436354 -0.0026364403 0.36500001 4282139169
0.041621875 -0.0026364403 0.36500001 4282206248
0.04292468 -0.0026436637 0.36600003 4283194178
0.044233974 -0.0026508868 0.36700001 4280826925
0.045425989 -0.0026508868 0.36700001 4280366120
0.046745032 -0.0026581099 0.36800003 4280367154
0.048070569 -0.002665333 0.36900002 4280564535
0.049269084 -0.002665333 0.36900002 4280433462
0.050467592 -0.002665333 0.36900002 4280499255
0.051666107 -0.002665333 0.36900002 4280499515
0.052864619 -0.002665333 0.36900002 4280631101
0.055821285 -0.0027520105 0.38100001 4280565562
0.05705877 -0.0027520105 0.38100001 4280301612
0.058439955 -0.0027014485 0.37400001 4280565036
0.059495199 -0.0026942254 0.37300003 4279183642
0.0603812 -0.0026797792 0.37100002 4279381787
0.06142021 -0.0026725559 0.37 4279317275
0.062452719 -0.002665333 0.36900002 4279120666
0.063478738 -0.0026581099 0.36800003 4278923541
0.064674005 -0.0026581099 0.36800003 4278726162
0.065869272 -0.0026581099 0.36800003 4278530580
0.06688229 -0.0026508868 0.36700001 4278202641
0.068074308 -0.0026508868 0.36700001 4279452195
0.069266327 -0.0026508868 0.36700001 4278200844
0.070650324 -0.0026581099 0.36800003 4279056152
0.071845591 -0.0026581099 0.36800003 4278858773
0.073040858 -0.0026581099 0.36800003 4278727441
0.074236117 -0.0026581099 0.36800003 4278727441
0.075636357 -0.002665333 0.36900002 4279320348
0.076834872 -0.002665333 0.36900002 4279320348
0.078033388 -0.002665333 0.36900002 4279254555
0.081628926 -0.002665333 0.36900002 4280175403
0.083051898 -0.0026725559 0.37 4280700977
0.084253661 -0.0026725559 0.37 4280372266
0.08689139 -0.0026797792 0.37100002 4279579416
0.088096403 -0.0026797792 0.37100002 4279776283
0.027395627 -0.0014505181 0.36500001 4280890136
0.028581148 -0.0014505181 0.36500001 4281022237
0.034414209 -0.0014465442 0.36400002 4282798387
0.035596479 -0.0014465442 0.36400002 4281678364
0.036778755 -0.0014465442 0.36400002 4282665513
0.037961025 -0.0014465442 0.36400002 4282468134
0.039143298 -0.0014465442 0.36400002 4282204708
0.040436354 -0.0014505181 0.36500001 4282271271
0.041621875 -0.0014505181 0.36500001 4282404662
0.04292468 -0.0014544923 0.36600003 4283852883
0.044233974 -0.0014584663 0.36700001 4280167971
0.045425989 -0.0014584663 0.36700001 4280496938
0.046745032 -0.0014624404 0.36800003 4280300078
0.048070569 -0.0014664143 0.36900002 4280300080
0.049269084 -0.0014664143 0.36900002 4280366386
0.050467592 -0.0014664143 0.36900002 4280235570
0.051666107 -0.0014664143 0.36900002 4280433722
0.052864619 -0.0014664143 0.36900002 4280565308
0.055821285 -0.0015141026 0.38100001 4280631101
0.05690901 -0.0015101286 0.38000003 4278984729
0.057990242 -0.0015061545 0.37900001 4279775520
0.05875247 -0.0014942324 0.37600002 4279183383
0.059654702 -0.0014862844 0.37400001 4279249687
0.060543951 -0.0014783364 0.37200001 4279119383
0.061586212 -0.0014743623 0.37100002 4279316762
0.062791213 -0.0014743623 0.37100002 4279448348
0.06382373 -0.0014703883 0.37 4279515678
0.064849749 -0.0014664143 0.36900002 4278858261
0.066048265 -0.0014664143 0.36900002 4279187738
0.067064531 -0.0014624404 0.36800003 4278793750
0.068259798 -0.0014624404 0.36800003 4278400277
0.069455065 -0.0014624404 0.36800003 4279255586
0.070650324 -0.0014624404 0.36800003 4278860056
0.071845591 -0.0014624404 0.36800003 4278794263
0.073239334 -0.0014664143 0.36900002 4278728211
0.074437842 -0.0014664143 0.36900002 4279122197
0.075636357 -0.0014664143 0.36900002 4279451162
0.076834872 -0.0014664143 0.36900002 4280306471
0.079231896 -0.0014664143 0.36900002 4280700717
0.081850141 -0.0014703883 0.37 4280634159
0.083051898 -0.0014703883 0.37 4281093940
0.084253661 -0.0014703883 0.37 4279382039
0.085686386 -0.0014743623 0.37100002 4281617974
0.08689139 -0.0014743623 0.37100002 4281420595
0.089542113 -0.0014783364 0.37200001 4279708955
0.028502844 -0.00026387096 0.36400002 4279970067
0.029685117 -0.00026387096 0.36400002 4280498210
0.03086739 -0.00026387096 0.36400002 4283919959
0.034414209 -0.00026387096 0.36400002 4283258938
0.035596479 -0.00026387096 0.36400002 4282863662
0.036778755 -0.00026387096 0.36400002 4282862890
0.037961025 -0.00026387096 0.36400002 4282008353
0.039143298 -0.00026387096 0.36400002 4283259199
0.040436354 -0.00026459587 0.36500001 4284444504
0.041621875 -0.00026459587 0.36500001 4283788121
0.04292468 -0.00026532082 0.36600003 4283196754
0.044233974 -0.00026604571 0.36700001 4280431913
0.045425989 -0.00026604571 0.36700001 4281023282
0.046745032 -0.00026677066 0.36800003 4280431662
0.048070569 -0.00026749558 0.36900002 4280365871
0.049269084 -0.00026749558 0.36900002 4280366386
0.050467592 -0.00026749558 0.36900002 4280301363
0.051666107 -0.00026749558 0.36900002 4280301622
0.052864619 -0.00026749558 0.36900002 4280367931
0.055821285 -0.00027619459 0.38100001 4280565308
0.05690901 -0.00027546968 0.38000003 4280696634
0.057990242 -0.00027474476 0.37900001 4278986004
0.058908723 -0.00027329492 0.377 4279183896
0.059814211 -0.00027184509 0.37500003 4279052820
0.060869459 -0.00027112017 0.37400001 4279381785
0.061918214 -0.00027039525 0.37300003 4279382809
0.062960461 -0.00026967033 0.37200001 4279646494
0.063996226 -0.00026894541 0.37100002 4279186713
0.065201238 -0.00026894541 0.37100002 4279647777
0.06622725 -0.00026822046 0.37 4279385117
0.067429006 -0.00026822046 0.37 4279450910
0.068445288 -0.00026749558 0.36900002 4279977254
0.069643795 -0.00026749558 0.36900002 4279846438
0.070842311 -0.00026749558 0.36900002 4279714852
0.072040819 -0.00026749558 0.36900002 4279386141
0.073239334 -0.00026749558 0.36900002 4280109864
0.074437842 -0.00026749558 0.36900002 4280241450
0.075636357 -0.00026749558 0.36900002 4280634924
0.076834872 -0.00026749558 0.36900002 4280700463
0.078033388 -0.00026749558 0.36900002 4280898096
0.079231896 -0.00026749558 0.36900002 4280634924
0.081850141 -0.00026822046 0.37 4281554491
0.083051898 -0.00026822046 0.37 4279644443
0.085686386 -0.00026894541 0.37100002 4279906334
0.08689139 -0.00026894541 0.37100002 4281156401
0.036778755 0.00091880228 0.36400002 4284247893
0.037961025 0.00091880228 0.36400002 4284248411
0.039143298 0.00091880228 0.36400002 4283919705
0.040436354 0.00092132646 0.36500001 4284051291
0.041621875 0.00092132646 0.36500001 4283525717
0.04292468 0.00092385069 0.36600003 4283459924
0.045425989 0.00092637481 0.36700001 4280496936
0.046745032 0.00092889904 0.36800003 4280496938
0.048070569 0.00093142322 0.36900002 4280234283
0.049269084 0.00093142322 0.36900002 4280234798
0.050467592 0.00093142322 0.36900002 4280235568
0.051666107 0.00093142322 0.36900002 4280762427
0.052864619 0.00093142322 0.36900002 4280696380
0.0559678 0.00096423761 0.38200003 4280696380
0.05705877 0.00096171338 0.38100001 4280762427
0.058143254 0.0009591892 0.38000003 4280697135
0.059064981 0.00095414085 0.37800002 4279183896
0.060133215 0.00095161662 0.377 4278856211
0.061032213 0.00094656833 0.37500003 4279053590
0.062084213 0.00094404409 0.37400001 4278988564
0.063129716 0.00094151992 0.37300003 4279778080
0.064341217 0.00094151992 0.37300003 4279581984
0.065376982 0.00093899574 0.37200001 4279516705
0.06640625 0.00093647157 0.37100002 4279648289
0.067611255 0.00093647157 0.37100002 4280306219
0.06863077 0.00093394733 0.37 4280437807
0.069832534 0.00093394733 0.37 4280108842
0.07103429 0.00093394733 0.37 4280306219
0.072040819 0.00093142322 0.36900002 4280240426
0.073239334 0.00093142322 0.36900002 4280701231
0.074437842 0.00093142322 0.36900002 4280701231
0.075636357 0.00093142322 0.36900002 4280832563
0.076834872 0.00093142322 0.36900002 4280700977
0.078033388 0.00093142322 0.36900002 4280963635
0.080648378 0.00093394733 0.37 4281290552
0.081850141 0.00093394733 0.37 4281093173
0.083051898 0.00093394733 0.37 4281092405
0.03086739 0.0021014756 0.36400002 4280892726
0.032049663 0.0021014756 0.36400002 4280893231
0.033231933 0.0021014756 0.36400002 4283985498
0.034414209 0.0021014756 0.36400002 4284314204
0.035596479 0.0021014756 0.36400002 4284183131
0.036778755 0.0021014756 0.36400002 4284182877
0.037961025 0.0021014756 0.36400002 4284117084
0.039143298 0.0021014756 0.36400002 4284182879
0.040436354 0.0021072486 0.36500001 4283985500
0.041621875 0.0021072486 0.36500001 4283788891
0.04292468 0.0021130221 0.36600003 4283525719
0.044233974 0.0021187954 0.36700001 4283524949
0.045425989 0.0021187954 0.36700001 4280431913
0.046745032 0.0021245687 0.36800003 4281221431
0.048070569 0.0021303419 0.36900002 4280300076
0.049269084 0.0021303419 0.36900002 4280234285
0.050467592 0.0021303419 0.36900002 4280301361
0.051666107 0.0021303419 0.36900002 4281354564
0.052864619 0.0021303419 0.36900002 4280762427
0.0559678 0.0022053947 0.38200003 4280170036
0.05705877 0.0021996212 0.38100001 4279972911
0.058143254 0.0021938481 0.38000003 4280301872
0.059221238 0.0021880746 0.37900001 4279512607
0.060292721 0.0021823014 0.37800002 4278987797
0.061357714 0.0021765281 0.377 4279250969
0.062416214 0.0021707548 0.37600002 4279646240
0.06346821 0.0021649816 0.37500003 4279713057
0.064513713 0.0021592083 0.37400001 4279581982
0.065552726 0.002153435 0.37300003 4279713568
0.066585235 0.0021476618 0.37200001 4280437805
0.067793489 0.0021476618 0.37200001 4280372012
0.06881626 0.0021418885 0.37100002 4280372012
0.070021272 0.0021418885 0.37100002 4280372012
0.07103429 0.0021361152 0.37 4280503600
0.072236054 0.0021361152 0.37 4280503600
0.073437817 0.0021361152 0.37 4280832563
0.074639574 0.0021361152 0.37 4280569391
0.075636357 0.0021303419 0.36900002 4280832565
0.076834872 0.0021303419 0.36900002 4280964151
0.078033388 0.0021303419 0.36900002 4280699182
0.079446614 0.0021361152 0.37 4281552694
0.080648378 0.0021361152 0.37 4281223989
0.0559678 0.0034465517 0.38200003 4279841325
0.05705877 0.0034375291 0.38100001 4280433462
0.058296259 0.0034375291 0.38100001 4280630839
0.059377495 0.0034285069 0.38000003 4280631351
0.060452227 0.0034194842 0.37900001 4279118615
0.061357714 0.0034014394 0.377 4279449115
0.06258221 0.0034014394 0.377 4279910949
0.063637458 0.0033924172 0.37600002 4279121433
0.064686216 0.003383395 0.37500003 4279713570
0.065728471 0.0033743724 0.37400001 4279911463
0.066764235 0.0033653502 0.37300003 4280438323
0.067975737 0.0033653502 0.37300003 4280240944
0.069001749 0.0033563275 0.37200001 4280240944
0.070021272 0.0033473053 0.37100002 4280241198
0.071226276 0.0033473053 0.37100002 4280503600
0.072236054 0.0033382827 0.37 4280766772
0.073437817 0.0033382827 0.37 4280964149
0.074639574 0.0033382827 0.37 4281358393
0.07584133 0.0033382827 0.37 4281751868
0.077043094 0.0033382827 0.37 4281686075
0.05705877 0.0046754372 0.38100001 4280499255
0.058296259 0.0046754372 0.38100001 4280499769
0.059377495 0.0046631657 0.38000003 4280762941
0.060452227 0.0046508941 0.37900001 4280961086
0.061520468 0.004638623 0.37800002 4279975209
0.06258221 0.0046263509 0.377 4279713570
0.063637458 0.0046140798 0.37600002 4279516705
0.064686216 0.0046018083 0.37500003 4279911463
0.065904215 0.0046018083 0.37500003 4280437807
0.066943221 0.0045895367 0.37400001 4280437553
0.067975737 0.0045772656 0.37300003 4280241198
0.069001749 0.0045649935 0.37200001 4280438577
0.07021001 0.0045649935 0.37200001 4280570163
0.071226276 0.0045527224 0.37100002 4281292600
0.062831968 -0.0057578059 0.36926255 4294967295
0.062831968 -0.0057578059 0.36926255 4294901760
0.062825255 -0.0062563689 0.36922526 4294901760
0.062818542 -0.006754932 0.36918798 4294901760
0.062811829 -0.007253495 0.3691507 4294901760
0.062805116 -0.0077520581 0.36911342 4294901760
0.062798403 -0.0082506211 0.36907613 4294901760
0.06279169 -0.0087491842 0.36903888 4294901760
0.062784977 -0.0092477472 0.3690016 4294901760
0.062778264 -0.0097463103 0.36896431 4294901760
0.062771551 -0.010244874 0.36892703 4294901760
0.062764838 -0.010743437 0.36888975 4294901760
0.062758125 -0.011242 0.36885247 4294901760
0.062751412 -0.011740563 0.36881518 4294901760
0.062744699 -0.012239126 0.3687779 4294901760
0.062737986 -0.01273769 0.36874062 4294901760
0.062731273 -0.013236253 0.36870334 4294901760
0.06272456 -0.013734815 0.36866605 4294901760
0.062717848 -0.014233379 0.3686288 4294901760
0.062711135 -0.014731942 0.36859152 4294901760
0.062704422 -0.015230505 0.36855423 4294901760
0.062697709 -0.015729068 0.36851695 4294901760
0.062690996 -0.016227629 0.36847967 4294901760
0.062684283 -0.016726194 0.36844239 4294901760
0.06267757 -0.017224757 0.3684051 4294901760
0.062670857 -0.01772332 0.36836782 4294901760
0.062664136 -0.018221883 0.36833054 4294901760
0.062657423 -0.018720446 0.36829326 4294901760
0.06265071 -0.019219011 0.36825597 4294901760
0.062643997 -0.019717572 0.36821872 4294901760
0.062637284 -0.020216135 0.36818144 4294901760
0.062630571 -0.0207147 0.36814415 4294901760
0.062623858 -0.021213261 0.36810687 4294901760
0.062617145 -0.021711823 0.36806959 4294901760
0.062610433 -0.022210389 0.36803231 4294901760
0.06260372 -0.022708952 0.36799502 4294901760
0.062597007 -0.023207515 0.36795774 4294901760
0.062590294 -0.023706079 0.36792046 4294901760
0.062583581 -0.024204642 0.36788318 4294901760
0.062576868 -0.024703205 0.36784589 4294901760
0.062570155 -0.025201764 0.36780864 4294901760
0.062563442 -0.025700331 0.36777136 4294901760
0.062556729 -0.026198894 0.36773407 4294901760
0.062550016 -0.026697453 0.36769679 4294901760
0.062543303 -0.02719602 0.36765951 4294901760
0.06253659 -0.027694583 0.36762223 4294901760
0.062529877 -0.028193146 0.36758494 4294901760
0.062523164 -0.028691709 0.36754766 4294901760
0.062516451 -0.029190272 0.36751038 4294901760
0.062509738 -0.029688835 0.3674731 4294901760
0.062503025 -0.030187398 0.36743581 4294901760
0.062496312 -0.030685961 0.36739856 4294901760
0.062489599 -0.031184524 0.36736128 4294901760
0.062482886 -0.031683087 0.36732399 4294901760
0.062476173 -0.032181647 0.36728671 4294901760
0.06246946 -0.032680213 0.36724943 4294901760
0.062462747 -0.033178777 0.36721215 4294901760
0.062456034 -0.03367734 0.36717486 4294901760
0.062449321 -0.034175903 0.36713758 4294901760
0.062442608 -0.034674466 0.3671003 4294901760
0.062435895 -0.035173025 0.36706302 4294901760
0.062429182 -0.035671592 0.36702573 4294901760
0.062422469 -0.036170155 0.36698845 4294901760
0.062415756 -0.036668718 0.3669512 4294901760
0.06240904 -0.037167281 0.36691391 4294901760
0.062402327 -0.03766584 0.36687663 4294901760
0.062395614 -0.038164403 0.36683935 4294901760
0.062388901 -0.03866297 0.36680207 4294901760
0.062382188 -0.039161533 0.36676478 4294901760
0.062375475 -0.039660096 0.3667275 4294901760
0.062368762 -0.040158659 0.36669022 4294901760
0.062362049 -0.040657222 0.36665294 4294901760
0.062355336 -0.041155782 0.36661565 4294901760
0.062348623 -0.041654348 0.36657837 4294901760
0.06234191 -0.042152911 0.36654112 4294901760
0.062335197 -0.042651474 0.36650383 4294901760
0.062328484 -0.043150038 0.36646655 4294901760
0.062321771 -0.043648601 0.36642927 4294901760
0.062315058 -0.044147164 0.36639199 4294901760
0.062308345 -0.044645723 0.3663547 4294901760
0.062301632 -0.04514429 0.36631742 4294901760
0.062294919 -0.045642853 0.36628014 4294901760
0.062288206 -0.046141416 0.36624286 4294901760
0.062281493 -0.046639979 0.36620557 4294901760
0.06227478 -0.047138542 0.36616829 4294901760
0.062268067 -0.047637101 0.36613104 4294901760
0.062261354 -0.048135668 0.36609375 4294901760
0.062254641 -0.048634231 0.36605647 4294901760
0.062247928 -0.049132794 0.36601919 4294901760
0.062241212 -0.049631357 0.36598191 4294901760
0.062234499 -0.05012992 0.36594462 4294901760
0.062227786 -0.050628483 0.36590734 4294901760
0.062221073 -0.051127046 0.36587006 4294901760
0.06221436 -0.051625609 0.36583278 4294901760
0.062207647 -0.052124172 0.36579549 4294901760
0.062200934 -0.052622736 0.36575821 4294901760
0.062194221 -0.053121299 0.36572096 4294901760
0.062187508 -0.053619862 0.36568367 4294901760
0.062180795 -0.054118425 0.36564639 4294901760
0.062174082 -0.054616988 0.36560911 4294901760
0.062167369 -0.055115551 0.36557183 4294901760
0.062160656 -0.055614114 0.36553454 4294901760
0.062831968 -0.0057578059 0.36926255 4278255360
0.063327134 -0.0057695848 0.36933091 4278255360
0.063822299 -0.0057813637 0.36939928 4278255360
0.064317465 -0.0057931426 0.36946762 4278255360
0.06481263 -0.005804922 0.36953598 4278255360
0.065307796 -0.0058167009 0.36960435 4278255360
0.065802954 -0.0058284798 0.36967272 4278255360
0.06629812 -0.0058402587 0.36974105 4278255360
0.066793285 -0.0058520376 0.36980942 4278255360
0.067288451 -0.0058638165 0.36987779 4278255360
0.067783616 -0.0058755958 0.36994615 4278255360
0.068278782 -0.0058873747 0.37001449 4278255360
0.068773948 -0.0058991536 0.37008286 4278255360
0.069269113 -0.0059109326 0.37015122 4278255360
0.069764279 -0.0059227115 0.37021959 4278255360
0.070259444 -0.0059344904 0.37028795 4278255360
0.070754603 -0.0059462697 0.37035629 4278255360
0.071249768 -0.0059580486 0.37042466 4278255360
0.071744934 -0.0059698275 0.37049302 4278255360
0.072240099 -0.0059816064 0.37056139 4278255360
0.072735265 -0.0059933853 0.37062973 4278255360
0.07323043 -0.0060051642 0.37069809 4278255360
0.073725596 -0.0060169436 0.37076646 4278255360
0.074220762 -0.0060287225 0.37083483 4278255360
0.074715927 -0.0060405014 0.37090316 4278255360
0.075211093 -0.0060522803 0.37097153 4278255360
0.075706251 -0.0060640592 0.3710399 4278255360
0.076201417 -0.0060758381 0.37110826 4278255360
0.076696582 -0.006087617 0.37117663 4278255360
0.077191748 -0.0060993964 0.37124497 4278255360
0.077686913 -0.0061111753 0.37131333 4278255360
0.078182079 -0.0061229542 0.3713817 4278255360
0.078677244 -0.0061347331 0.37145007 4278255360
0.07917241 -0.006146512 0.3715184 4278255360
0.079667568 -0.0061582909 0.37158677 4278255360
0.080162734 -0.0061700703 0.37165514 4278255360
0.080657899 -0.0061818492 0.3717235 4278255360
0.081153065 -0.0061936281 0.37179184 4278255360
0.081648231 -0.006205407 0.37186021 4278255360
0.082143396 -0.0062171859 0.37192857 4278255360
0.082638562 -0.0062289648 0.37199694 4278255360
0.083133727 -0.0062407441 0.37206531 4278255360
0.083628893 -0.006252523 0.37213364 4278255360
0.084124058 -0.0062643019 0.37220201 4278255360
0.084619224 -0.0062760809 0.37227038 4278255360
0.08511439 -0.0062878598 0.37233874 4278255360
0.085609555 -0.0062996387 0.37240708 4278255360
0.086104713 -0.0063114176 0.37247545 4278255360
0.086599879 -0.0063231969 0.37254381 4278255360
0.087095045 -0.0063349758 0.37261218 4278255360
0.08759021 -0.0063467547 0.37268054 4278255360
0.088085376 -0.0063585336 0.37274888 4278255360
0.088580541 -0.0063703125 0.37281725 4278255360
0.089075699 -0.0063820914 0.37288561 4278255360
0.089570872 -0.0063938708 0.37295398 4278255360
0.090066031 -0.0064056497 0.37302232 4278255360
0.090561196 -0.0064174286 0.37309068 4278255360
0.091056362 -0.0064292075 0.37315905 4278255360
0.091551527 -0.0064409864 0.37322742 4278255360
0.092046693 -0.0064527653 0.37329575 4278255360
0.092541859 -0.0064645447 0.37336412 4278255360
0.093037024 -0.0064763236 0.37343249 4278255360
0.09353219 -0.0064881025 0.37350085 4278255360
0.094027355 -0.0064998814 0.37356922 4278255360
0.094522521 -0.0065116603 0.37363756 4278255360
0.095017686 -0.0065234392 0.37370592 4278255360
0.095512852 -0.0065352186 0.37377429 4278255360
0.096008018 -0.0065469975 0.37384266 4278255360
0.096503176 -0.0065587764 0.37391099 4278255360
0.096998341 -0.0065705553 0.37397936 4278255360
0.097493507 -0.0065823342 0.37404773 4278255360
0.097988673 -0.0065941131 0.37411609 4278255360
0.098483838 -0.0066058924 0.37418443 4278255360
0.098979004 -0.0066176713 0.3742528 4278255360
0.099474162 -0.0066294502 0.37432116 4278255360
0.099969327 -0.0066412291 0.37438953 4278255360
0.10046449 -0.0066530081 0.3744579 4278255360
0.10095966 -0.006664787 0.37452623 4278255360
0.10145482 -0.0066765659 0.3745946 4278255360
0.10194999 -0.0066883452 0.37466297 4278255360
0.10244516 -0.0067001241 0.37473133 4278255360
0.10294032 -0.006711903 0.37479967 4278255360
0.10343549 -0.0067236819 0.37486804 4278255360
0.10393065 -0.0067354608 0.3749364 4278255360
0.10442582 -0.0067472397 0.37500477 4278255360
0.10492098 -0.0067590191 0.37507311 4278255360
0.10541615 -0.006770798 0.37514147 4278255360
0.10591131 -0.0067825769 0.37520984 4278255360
0.10640647 -0.0067943558 0.3752782 4278255360
0.10690164 -0.0068061347 0.37534657 4278255360
0.1073968 -0.0068179136 0.37541491 4278255360
0.10789197 -0.006829693 0.37548327 4278255360
0.10838713 -0.0068414719 0.37555164 4278255360
0.10888229 -0.0068532508 0.37562001 4278255360
0.10937746 -0.0068650297 0.37568834 4278255360
0.10987262 -0.0068768086 0.37575671 4278255360
0.11036779 -0.0068885875 0.37582508 4278255360
0.11086296 -0.0069003664 0.37589344 4278255360
0.11135812 -0.0069121458 0.37596178 4278255360
0.11185329 -0.0069239247 0.37603015 4278255360
0.11234845 -0.0069357036 0.37609851 4278255360
0.062831968 -0.0057578059 0.36926255 4278190335
0.062823087 -0.0057949647 0.36976108 4278190335
0.062814206 -0.0058321231 0.37025961 4278190335
0.062805325 -0.0058692819 0.37075818 4278190335
0.062796444 -0.0059064403 0.37125671 4278190335
0.062787563 -0.0059435992 0.37175524 4278190335
0.062778682 -0.005980758 0.37225378 4278190335
0.0627698 -0.0060179164 0.37275231 4278190335
0.062760919 -0.0060550752 0.37325084 4278190335
0.062752038 -0.0060922336 0.37374941 4278190335
0.062743157 -0.0061293924 0.37424794 4278190335
0.062734276 -0.0061665513 0.37474647 4278190335
0.062725395 -0.0062037096 0.375245 4278190335
0.062716506 -0.0062408685 0.37574354 4278190335
0.062707625 -0.0062780268 0.37624207 4278190335
0.062698744 -0.0063151857 0.37674063 4278190335
0.062689863 -0.0063523445 0.37723917 4278190335
0.062680982 -0.0063895029 0.3777377 4278190335
0.062672101 -0.0064266617 0.37823623 4278190335
0.06266322 -0.0064638201 0.37873477 4278190335
0.062654339 -0.006500979 0.3792333 4278190335
0.062645458 -0.0065381378 0.37973186 4278190335
0.062636577 -0.0065752962 0.3802304 4278190335
0.062627696 -0.006612455 0.38072893 4278190335
0.062618814 -0.0066496134 0.38122746 4278190335
0.062609933 -0.0066867722 0.381726 4278190335
0.062601052 -0.0067239311 0.38222453 4278190335
0.062592171 -0.0067610894 0.38272309 4278190335
0.06258329 -0.0067982483 0.38322163 4278190335
0.062574409 -0.0068354066 0.38372016 4278190335
0.062565528 -0.0068725655 0.38421869 4278190335
0.062556647 -0.0069097243 0.38471723 4278190335
0.062547766 -0.0069468827 0.38521576 4278190335
0.062538885 -0.0069840415 0.38571432 4278190335
0.062530003 -0.0070211999 0.38621286 4278190335
0.062521122 -0.0070583588 0.38671139 4278190335
0.062512241 -0.0070955176 0.38720992 4278190335
0.06250336 -0.007132676 0.38770846 4278190335
0.062494475 -0.0071698348 0.38820699 4278190335
0.062485594 -0.0072069932 0.38870555 4278190335
0.062476713 -0.007244152 0.38920408 4278190335
0.062467832 -0.0072813109 0.38970262 4278190335
0.062458951 -0.0073184692 0.39020115 4278190335
0.06245007 -0.0073556281 0.39069968 4278190335
0.062441185 -0.0073927864 0.39119822 4278190335
0.062432304 -0.0074299453 0.39169678 4278190335
0.062423423 -0.0074671041 0.39219531 4278190335
0.062414542 -0.0075042625 0.39269385 4278190335
0.062405661 -0.0075414213 0.39319238 4278190335
0.06239678 -0.0075785797 0.39369091 4278190335
0.062387899 -0.0076157385 0.39418948 4278190335
0.062379017 -0.0076528974 0.39468801 4278190335
0.062370136 -0.0076900558 0.39518654 4278190335
0.062361255 -0.0077272141 0.39568508 4278190335
0.062352374 -0.007764373 0.39618361 4278190335
0.062343493 -0.0078015318 0.39668214 4278190335
0.062334612 -0.0078386907 0.39718068 4278190335
0.062325727 -0.0078758486 0.39767924 4278190335
0.062316846 -0.0079130074 0.39817777 4278190335
0.062307965 -0.0079501662 0.39867631 4278190335
0.062299084 -0.0079873251 0.39917484 4278190335
0.062290203 -0.0080244839 0.39967337 4278190335
0.062281322 -0.0080616418 0.40017194 4278190335
0.062272441 -0.0080988016 0.40067047 4278190335
0.06226356 -0.0081359595 0.401169 4278190335
0.062254678 -0.0081731183 0.40166754 4278190335
0.062245797 -0.0082102772 0.40216607 4278190335
0.062236916 -0.008247436 0.4026646 4278190335
0.062228035 -0.0082845949 0.40316316 4278190335
0.06221915 -0.0083217528 0.4036617 4278190335
0.062210269 -0.0083589116 0.40416023 4278190335
0.062201388 -0.0083960705 0.40465876 4278190335
0.062192507 -0.0084332293 0.4051573 4278190335
0.062183626 -0.0084703881 0.40565586 4278190335
0.062174745 -0.008507546 0.40615439 4278190335
0.062165864 -0.0085447049 0.40665293 4278190335
0.062156983 -0.0085818637 0.40715146 4278190335
0.062148102 -0.0086190216 0.40764999 4278190335
0.062139221 -0.0086561805 0.40814853 4278190335
0.062130339 -0.0086933393 0.40864706 4278190335
0.062121458 -0.0087304981 0.40914562 4278190335
0.062112577 -0.008767657 0.40964416 4278190335
0.062103692 -0.0088048149 0.41014269 4278190335
0.062094811 -0.0088419737 0.41064122 4278190335
0.06208593 -0.0088791326 0.41113976 4278190335
0.062077049 -0.0089162914 0.41163832 4278190335
0.062068168 -0.0089534502 0.41213685 4278190335
0.062059287 -0.0089906082 0.41263539 4278190335
0.062050406 -0.0090277679 0.41313392 4278190335
0.062041525 -0.0090649258 0.41363245 4278190335
0.062032644 -0.0091020847 0.41413099 4278190335
0.062023763 -0.0091392435 0.41462952 4278190335
0.062014882 -0.0091764024 0.41512808 4278190335
0.062006 -0.0092135612 0.41562662 4278190335
0.061997116 -0.0092507191 0.41612515 4278190335
0.061988235 -0.0092878779 0.41662368 4278190335
0.061979353 -0.0093250368 0.41712222 4278190335
0.061970472 -0.0093621956 0.41762078 4278190335
0.061961591 -0.0093993545 0.41811931 4278190335
0.06195271 -0.0094365124 0.41861784 4278190335
0.061943829 -0.0094736712 0.41911638 4278190335
0.062831968 -0.0057578059 0.36926255 4294967295
0.062885255 -0.0055348538 0.36627132 4294967295
0.062938541 -0.0053119021 0.36328009 4294967295
0.062991835 -0.0050889505 0.36028886 4294967295
0.063045122 -0.0048659984 0.35729763 4294967295
0.063098408 -0.0046430463 0.3543064 4294967295
0.063151695 -0.0044200947 0.35131517 4294967295
0.063204989 -0.0041971426 0.34832394 4294967295
0.063258275 -0.0039741909 0.34533271 4294967295
0.063311562 -0.0037512388 0.34234148 4294967295
0.063364848 -0.0035282869 0.33935025 4294967295
0.063418142 -0.0033053353 0.33635902 4294967295
0.063471429 -0.0030823834 0.33336779 4294967295
0.063524716 -0.0028594316 0.33037657 4294967295
0.063578002 -0.0026364794 0.32738534 4294967295
0.063631296 -0.0024135276 0.32439411 4294967295
0.063684583 -0.0021905759 0.32140288 4294967295
0.063737869 -0.0019676238 0.31841165 4294967295
0.063791156 -0.0017446717 0.31542042 4294967295
0.06384445 -0.0015217201 0.31242919 4294967295
0.063897736 -0.001298768 0.30943796 4294967295
0.063951023 -0.0010758163 0.30644673 4294967295
0.064004309 -0.0008528647 0.3034555 4294967295
0.064057603 -0.0006299126 0.30046427 4294967295
0.06411089 -0.00040696096 0.29747304 4294967295
0.064164177 -0.00018400885 0.29448181 4294967295
0.064217463 3.8942788e-05 0.29149058 4294967295
0.06427075 0.00026189536 0.28849936 4294967295
0.064324044 0.000484847 0.28550813 4294967295
0.06437733 0.00070779864 0.2825169 4294967295
0.064430617 0.00093075074 0.27952564 4294967295
0.064483903 0.0011537024 0.27653444 4294967295
0.064537197 0.001376654 0.27354321 4294967295
0.064590484 0.0015996066 0.27055198 4294967295
0.06464377 0.0018225582 0.26756072 4294967295
0.064697057 0.0020455099 0.26456952 4294967295
0.064750351 0.0022684624 0.26157826 4294967295
0.064803638 0.0024914136 0.25858706 4294967295
0.064856924 0.0027143657 0.25559583 4294967295
0.064910211 0.0029373169 0.2526046 4294967295
0.064963505 0.0031602699 0.24961336 4294967295
0.065016791 0.0033832211 0.24662215 4294967295
0.065070078 0.0036061732 0.2436309 4294967295
0.065123364 0.0038291253 0.24063967 4294967295
0.065176658 0.0040520765 0.23764844 4294967295
0.065229945 0.0042750286 0.23465721 4294967295
0.065283231 0.0044979807 0.23166598 4294967295
0.065336518 0.0047209328 0.22867475 4294967295
0.065389812 0.004943884 0.22568353 4294967295
0.065443099 0.0051668361 0.2226923 4294967295
0.065496385 0.0053897882 0.21970107 4294967295
0.065549672 0.0056127403 0.21670984 4294967295
0.065602958 0.0058356915 0.21371861 4294967295
0.065656252 0.0060586436 0.21072739 4294967295
0.065709539 0.0062815966 0.20773613 4294967295
0.065762825 0.0065045478 0.20474492 4294967295
0.065816112 0.0067274999 0.20175369 4294967295
0.065869406 0.0069504511 0.19876246 4294967295
0.065922692 0.0071734032 0.19577123 4294967295
0.065975979 0.0073963543 0.19278 4294967295
0.066029266 0.0076193074 0.18978876 4294967295
0.06608256 0.0078422595 0.18679753 4294967295
0.066135846 0.0080652107 0.18380632 4294967295
0.066189133 0.0082881628 0.18081509 4294967295
0.066242419 0.0085111139 0.17782386 4294967295
0.066295713 0.008734066 0.17483263 4294967295
0.066349 0.0089570191 0.17184138 4294967295
0.066402286 0.0091799702 0.16885015 4294967295
0.066455573 0.0094029224 0.16585892 4294967295
0.066508867 0.0096258735 0.16286771 4294967295
0.066562153 0.0098488256 0.15987648 4294967295
0.06661544 0.010071778 0.15688525 4294967295
0.066668727 0.010294731 0.15389401 4294967295
0.066722021 0.010517682 0.15090278 4294967295
0.066775307 0.010740633 0.14791155 4294967295
0.066828594 0.010963584 0.14492032 4294967295
0.06688188 0.011186537 0.1419291 4294967295
0.066935167 0.011409489 0.13893788 4294967295
0.066988461 0.01163244 0.13594665 4294967295
0.067041747 0.011855393 0.1329554 4294967295
0.067095034 0.012078346 0.12996417 4294967295
0.06714832 0.012301297 0.12697294 4294967295
0.067201614 0.012524248 0.12398173 4294967295
0.067254901 0.012747199 0.1209905 4294967295
0.067308187 0.012970152 0.11799926 4294967295
0.067361474 0.013193105 0.11500803 4294967295
0.067414768 0.013416057 0.1120168 4294967295
0.067468055 0.013639008 0.10902557 4294967295
0.067521341 0.013861959 0.10603434 4294967295
0.067574628 0.014084912 0.10304311 4294967295
0.067627922 0.014307863 0.10005188 4294967295
0.067681208 0.014530816 0.097060651 4294967295
0.067734495 0.014753767 0.094069421 4294967295
0.067787781 0.014976718 0.091078192 4294967295
