# .PCD v0.7 - Point Cloud Data file format
VERSION 0.7
FIELDS x y z rgb
SIZE 4 4 4 4
TYPE F F F U
COUNT 1 1 1 1
WIDTH 924
HEIGHT 1
VIEWPOINT 0 0 0 1 0 0 0
POINTS 924
DATA ascii
-0.0014130172 0.031357478 0.48800004 4280565797
0.00017236017 0.031421736 0.48900002 4280631331
-0.0092615997 0.032673012 0.48400003 4281024302
-0.0076895659 0.032673012 0.48400003 4280695339
-0.006104894 0.032605506 0.48300001 4280958511
0.0033489058 0.033010546 0.48900002 4280239912
-0.012380033 0.034174822 0.48300001 4280432165
-0.010788865 0.034104068 0.48200002 4280892718
-0.009204193 0.034033313 0.48100004 4280497960
-0.0076419036 0.034033313 0.48100004 4280695339
-0.0060669756 0.033962559 0.48000002 4280893231
-0.0045079347 0.033962559 0.48000002 4281686847
-0.012328771 0.035596132 0.48100004 4279708703
-0.010744099 0.035522126 0.48000002 4279970592
-0.0091659222 0.035448123 0.47900003 4279642397
-0.0075942408 0.035374116 0.47800002 4280563751
-0.0060416963 0.035374116 0.47800002 4280761643
-0.0044797603 0.035300113 0.47700003 4280174121
-0.0029366068 0.035374116 0.47800002 4279255838
-0.0013840619 0.035374116 0.47800002 4278994459
0.00016883542 0.035448123 0.47900003 4278797593
0.0017318293 0.035596132 0.48100004 4278732570
-0.012277507 0.037004441 0.47900003 4280366887
-0.010699331 0.036927186 0.47800002 4280233764
-0.0091276504 0.036849935 0.47700003 4280167971
-0.0075624655 0.03677268 0.47600001 4280037409
-0.0060164174 0.03677268 0.47600001 4280893231
-0.0044609774 0.036695428 0.47500002 4280108328
-0.0029181761 0.036695428 0.47500002 4279255838
-0.0013753753 0.036695428 0.47500002 4278928154
0.00016777799 0.03677268 0.47600001 4278862875
0.0017138268 0.03677268 0.47600001 4278731802
-0.012251875 0.038480259 0.47800002 4280498471
-0.010676947 0.038399756 0.47700003 4280234788
-0.0091085145 0.038319252 0.47600001 4279377941
-0.0075465781 0.038238753 0.47500002 4279970592
-0.0059911385 0.038158249 0.47400004 4280761132
-0.004442194 0.038077746 0.47300002 4280239914
-0.0029058892 0.038077746 0.47300002 4279124252
-0.0013666888 0.037997242 0.47200003 4279059742
0.0001663681 0.037997242 0.47200003 4278862877
0.0016994249 0.037997242 0.47200003 4278797084
0.0032324817 0.037997242 0.47200003 4278731289
-0.012251875 0.040033329 0.47800002 4280366887
-0.010676947 0.039949577 0.47700003 4280167971
-0.0090893796 0.039782073 0.47500002 4279377943
-0.0075306911 0.039698325 0.47400004 4280365090
-0.0059784986 0.039614569 0.47300002 4280891948
-0.0044328026 0.039530821 0.47200003 4280042533
-0.002893602 0.039447065 0.47100002 4279255066
-0.0013608977 0.039363317 0.47000003 4278993947
0.00016531067 0.039279561 0.46900001 4278797082
0.001685023 0.039195813 0.46800002 4278797082
0.0031982393 0.039112058 0.46700001 4278797082
0.0046443804 0.038525797 0.46000001 4278731289
0.0061251172 0.038442045 0.45900002 4278731289
0.0075827646 0.038274541 0.45700002 4278927384
-0.012251875 0.041586399 0.47800002 4281287989
-0.010654564 0.041412398 0.47600001 4280496936
-0.0090893796 0.041325398 0.47500002 4279706906
-0.0075148032 0.041151397 0.47300002 4280103202
-0.0059658596 0.041064397 0.47200003 4280828206
-0.0044140196 0.040890392 0.47000003 4279779875
-0.0028813148 0.040803391 0.46900001 4279124250
-0.0013551066 0.040716391 0.46800002 4278993947
0.00016460572 0.040629391 0.46700001 4278993947
0.0016742216 0.04045539 0.46500003 4278928154
0.0031776938 0.040368386 0.46400002 4278862361
0.0046342839 0.039933383 0.45900002 4278928154
0.0060984283 0.039759383 0.45700002 4278862361
0.0075661722 0.039672382 0.45600003 4278927384
0.0090075806 0.039498381 0.45400003 4278200072
0.010459085 0.039411377 0.45300001 4278991381
0.011904093 0.039324377 0.45200002 4278991894
0.01337219 0.039324377 0.45200002 4278199297
0.014807455 0.03923738 0.45100003 4278198530
0.021837264 0.038715374 0.44500002 4278795796
0.023282623 0.038715374 0.44500002 4278795796
0.033592638 0.037323359 0.42900002 4278666009
0.03490448 0.037236359 0.42800003 4278600216
0.036294624 0.037236359 0.42800003 4278666009
0.04008688 0.036888354 0.42400002 4278863390
0.041366238 0.036801353 0.42300001 4278797343
0.042639103 0.036714353 0.42200002 4278402333
0.04400976 0.036714353 0.42200002 4279586094
0.045272879 0.036627352 0.42100003 4283138402
0.046640292 0.036627352 0.42100003 4285835915
0.047893666 0.036540352 0.42000002 4286164364
0.049257826 0.036540352 0.42000002 4283598953
0.050621986 0.036540352 0.42000002 4280767288
0.051986147 0.036540352 0.42000002 4280240174
-0.012251875 0.043139473 0.47800002 4280959022
-0.010654564 0.042958971 0.47600001 4280431397
-0.0090702446 0.042778477 0.47400004 4280496422
-0.0075148032 0.042688224 0.47300002 4280497960
-0.0059532197 0.042507723 0.47100002 4280828206
-0.0044046277 0.042327221 0.46900001 4279584549
-0.0028751716 0.042236976 0.46800002 4278797084
-0.0013493155 0.042056475 0.46600002 4278863390
0.00016390078 0.041966226 0.46500003 4278863390
0.0016670206 0.041785724 0.46300003 4278797084
0.0031639969 0.041695476 0.46200001 4278797084
0.0046241879 0.041334476 0.45800003 4278797084
0.0060984283 0.041244224 0.45700002 4278533910
0.0075495797 0.041063726 0.45500001 4279124250
0.0090075806 0.040973477 0.45400003 4278198281
0.010459085 0.040883224 0.45300001 4278727957
0.011904093 0.040792976 0.45200002 4278794263
0.013342606 0.040702727 0.45100003 4278328074
0.014774622 0.040612474 0.45000002 4278655756
0.016200142 0.040522225 0.44900003 4278851597
0.017619165 0.040431976 0.44800001 4278589709
0.019031694 0.040341727 0.44700003 4278524429
0.020437727 0.040251475 0.44600001 4278524429
0.021837264 0.040161226 0.44500002 4278262279
0.023282623 0.040161226 0.44500002 4278196226
0.024672417 0.040070977 0.44400004 4278198535
0.026114529 0.040070977 0.44400004 4278331917
0.027494578 0.039980724 0.44300002 4278465298
0.028868129 0.039890476 0.44200003 4278860826
0.030303748 0.039890476 0.44200003 4278861080
0.03249947 0.039078228 0.43300003 4278599189
0.033670943 0.038807474 0.43000001 4278468117
0.03498603 0.038717225 0.42900002 4278533910
0.036379423 0.038717225 0.42900002 4278468117
0.037684768 0.038626976 0.42800003 4278468117
0.038983613 0.038536727 0.42700002 4278468117
0.040181424 0.038356226 0.42500001 4278862875
0.041464031 0.038265977 0.42400002 4278665496
0.042841185 0.038265977 0.42400002 4278665498
0.044114046 0.038175724 0.42300001 4278731291
0.045380417 0.038085476 0.42200002 4278928416
0.046751074 0.038085476 0.42200002 4279257896
0.048007697 0.037995227 0.42100003 4278796832
0.049375109 0.037995227 0.42100003 4279191336
0.050742518 0.037995227 0.42100003 4281821259
0.052109923 0.037995227 0.42100003 4285308288
0.055105284 0.038175724 0.42300001 4283004767
0.05647919 0.038175724 0.42300001 4280635706
-0.015485475 0.045066539 0.48200002 4279840028
-0.01386218 0.044879541 0.48000002 4280892716
-0.012251875 0.044692542 0.47800002 4280958507
-0.010654564 0.044505544 0.47600001 4280102430
-0.0090702446 0.044318549 0.47400004 4281286192
-0.0074989158 0.044131551 0.47200003 4280893231
-0.0059405803 0.043944553 0.47000003 4280959794
-0.0044046277 0.043851051 0.46900001 4278728724
-0.0028690279 0.043664053 0.46700001 4278797084
-0.00134642 0.043477058 0.46500003 4278797084
0.00016354831 0.043383557 0.46400002 4278797597
0.0016634201 0.043196559 0.46200001 4278731804
0.0031502999 0.043009561 0.46000001 4278731291
0.0046241879 0.042822566 0.45800003 4278731291
0.0060850838 0.042635567 0.45600003 4278533912
0.0075495797 0.042542066 0.45500001 4279255836
0.0089877397 0.042355068 0.45300001 4278195200
0.010435997 0.042261571 0.45200002 4278991129
0.011904093 0.042261571 0.45200002 4278333199
0.013342606 0.04216807 0.45100003 4278458377
0.014774622 0.042074572 0.45000002 4278983951
0.016200142 0.041981071 0.44900003 4279049744
0.017619165 0.041887574 0.44800001 4278720779
0.019031694 0.041794073 0.44700003 4278851597
0.020437727 0.041700576 0.44600001 4278720525
0.021837264 0.041607074 0.44500002 4278654734
0.023282623 0.041607074 0.44500002 4278654734
0.024672417 0.041513577 0.44400004 4278720525
0.026055712 0.041420076 0.44300002 4278393097
0.027494578 0.041420076 0.44300002 4279319326
0.028868129 0.041326579 0.44200003 4279187740
0.030235186 0.041233078 0.44100001 4278199817
0.031452131 0.040952582 0.43800002 4278197764
0.032649584 0.040672086 0.43500003 4278196224
0.033827551 0.040391587 0.43200001 4278196736
0.035149135 0.040298089 0.43100002 4278200077
0.036464226 0.040204588 0.43000001 4278727959
0.037772816 0.040111091 0.42900002 4278531861
0.039074913 0.040017594 0.42800003 4279189791
0.040370513 0.039924093 0.42700002 4278927386
0.041659616 0.039830595 0.42600003 4278664984
0.042942226 0.039737094 0.42500001 4278599191
0.044322625 0.039737094 0.42500001 4278664982
0.045595489 0.039643597 0.42400002 4278731289
0.046861857 0.039550096 0.42300001 4278665496
0.048235759 0.039550096 0.42300001 4278731289
0.049609669 0.039550096 0.42300001 4278731289
0.050983571 0.039550096 0.42300001 4278928670
0.052357472 0.039550096 0.42300001 4278402326
0.053985428 0.039737094 0.42500001 4278598937
0.055235557 0.039643597 0.42400002 4279387431
0.056746233 0.039737094 0.42500001 4280900670
0.058536936 0.040017594 0.42800003 4284979838
0.060067099 0.040111091 0.42900002 4284520055
0.061603755 0.040204588 0.43000001 4279979822
0.063000396 0.040204588 0.43000001 4279452963
-0.017121764 0.046826106 0.48400003 4280036637
-0.015517603 0.046729356 0.48300001 4281023532
-0.01389106 0.046535861 0.48100004 4280168225
-0.012277507 0.046342365 0.47900003 4280234018
-0.010676947 0.046148866 0.47700003 4280694569
-0.0090702446 0.045858625 0.47400004 4281023534
-0.0074989158 0.045665126 0.47200003 4280827184
-0.0059405803 0.045471631 0.47000003 4280762415
-0.0043952363 0.045278132 0.46800002 4279517727
-0.0028628844 0.045084637 0.46600002 4278993179
-0.00134642 0.044987891 0.46500003 4278797084
0.00016319583 0.044794392 0.46300003 4278797597
0.0016598196 0.044600897 0.46100003 4278666011
0.0031434514 0.044407401 0.45900002 4278797597
0.004614091 0.044213902 0.45700002 4278731291
0.0060850838 0.044117156 0.45600003 4278665498
0.0075329873 0.043923661 0.45400003 4279320861
0.0089877397 0.043826912 0.45300001 4278197761
0.010435997 0.043730162 0.45200002 4279056922
0.011877757 0.043633416 0.45100003 4278200329
0.013342606 0.043633416 0.45100003 4278788625
0.014774622 0.043536667 0.45000002 4279578139
0.016200142 0.043439921 0.44900003 4278327302
0.017619165 0.043343168 0.44800001 4279577369
0.019031694 0.043246422 0.44700003 4278458890
0.020437727 0.043149672 0.44600001 4279840543
0.021837264 0.043052927 0.44500002 4279051027
0.023282623 0.043052927 0.44500002 4279313432
0.024672417 0.042956181 0.44400004 4279313432
0.026055712 0.042859428 0.44300002 4279511578
0.027432514 0.042762682 0.44200003 4278859543
0.028802816 0.042665932 0.44100001 4278729494
0.030166626 0.042569187 0.44000003 4278926103
0.031452131 0.042375688 0.43800002 4278991896
0.032724638 0.042182192 0.43600002 4278860056
0.033984162 0.041988697 0.43400002 4278860056
0.035312239 0.041891947 0.43300003 4279056922
0.036633827 0.041795198 0.43200001 4279187738
0.037948914 0.041698452 0.43100002 4279253019
0.039257504 0.041601703 0.43000001 4278397710
0.040559601 0.041504957 0.42900002 4278198535
0.041855201 0.041408207 0.42800003 4278196736
0.043144308 0.041311458 0.42700002 4278196224
0.044426914 0.041214712 0.42600003 4278199303
0.045810562 0.041214712 0.42600003 4278595601
0.047083426 0.041117962 0.42500001 4279057176
0.048463825 0.041117962 0.42500001 4279123482
0.049844228 0.041117962 0.42500001 4279190045
0.051224627 0.041117962 0.42500001 4279124763
0.052605029 0.041117962 0.42500001 4278599189
0.054112453 0.041214712 0.42600003 4278862361
0.055496104 0.041214712 0.42600003 4278993947
0.057013273 0.041311458 0.42700002 4278862363
0.058673706 0.041504957 0.42900002 4278796570
0.060207114 0.041601703 0.43000001 4278731037
0.061603755 0.041601703 0.43000001 4278665496
0.063146912 0.041698452 0.43100002 4279126045
0.064546801 0.041698452 0.43100002 4278862873
0.065946691 0.041698452 0.43100002 4278663449
-0.0090702446 0.047398698 0.47400004 4281681200
-0.0074989158 0.047198702 0.47200003 4281286702
-0.0059405803 0.046998709 0.47000003 4280959020
-0.0043952363 0.046798714 0.46800002 4279452447
-0.0028628844 0.046598718 0.46600002 4279058972
-0.0013435245 0.046398722 0.46400002 4278862877
0.00016319583 0.046298727 0.46300003 4278665244
0.0016598196 0.046098731 0.46100003 4278797597
0.0031434514 0.045898739 0.45900002 4278731804
0.004614091 0.045698743 0.45700002 4278600218
0.0060717394 0.045498747 0.45500001 4278468632
0.0075329873 0.045398753 0.45400003 4278200072
0.0089877397 0.045298751 0.45300001 4278198024
0.010435997 0.045198757 0.45200002 4279254303
0.011877757 0.045098759 0.45100003 4278198789
0.013342606 0.045098759 0.45100003 4278590474
0.014774622 0.044998761 0.45000002 4278590474
0.016200142 0.044898767 0.44900003 4279775516
0.017619165 0.044798765 0.44800001 4279117586
0.019031694 0.044698771 0.44700003 4278590222
0.020437727 0.044598773 0.44600001 4278393097
0.021837264 0.044498775 0.44500002 4278655756
0.023230303 0.044398781 0.44400004 4279381275
0.024672417 0.044398781 0.44400004 4278328074
0.026055712 0.044298783 0.44300002 4278920720
0.027432514 0.044198785 0.44200003 4278926103
0.028802816 0.044098787 0.44100001 4278201353
0.030166626 0.043998789 0.44000003 4278657289
0.031523935 0.043898791 0.43900001 4278262277
0.032799695 0.043698795 0.43700001 4278858775
0.034062468 0.043498803 0.43500003 4278197504
0.035393793 0.043398805 0.43400002 4278398992
0.036718626 0.043298811 0.43300003 4278991383
0.038036961 0.043198809 0.43200001 4278794004
0.0393488 0.043098815 0.43100002 4279386141
0.040654145 0.042998817 0.43000001 4278729494
0.041952994 0.042898819 0.42900002 4278992412
0.043346386 0.042898819 0.42900002 4279123228
0.044635493 0.042798825 0.42800003 4279451680
0.045918096 0.042698827 0.42700002 4279516189
0.047304995 0.042698827 0.42700002 4279253017
0.04857786 0.042598829 0.42600003 4278331402
0.049961511 0.042598829 0.42600003 4278331402
0.051345158 0.042598829 0.42600003 4278196992
0.052728806 0.042598829 0.42600003 4278196992
0.054239478 0.042698827 0.42700002 4278200074
0.055626374 0.042698827 0.42700002 4279058205
0.057146799 0.042798825 0.42800003 4278993947
0.058673706 0.042898819 0.42900002 4278862361
0.060207114 0.042998817 0.43000001 4278664982
0.061747022 0.043098815 0.43100002 4278599189
0.063146912 0.043098815 0.43100002 4278533910
0.064546801 0.043098815 0.43100002 4278731289
0.065946691 0.043098815 0.43100002 4278862363
-0.0074989158 0.048732277 0.47200003 4282206259
-0.0059405803 0.048525784 0.47000003 4280366622
-0.0044046277 0.048422538 0.46900001 4279452447
-0.0028628844 0.048112798 0.46600002 4278993949
-0.00134642 0.048009556 0.46500003 4278928670
0.00016319583 0.047803063 0.46300003 4278731291
0.0016598196 0.047596566 0.46100003 4278731291
0.0031434514 0.047390074 0.45900002 4278600218
0.004614091 0.047183581 0.45700002 4278600218
0.0060717394 0.046977088 0.45500001 4278204689
0.0075329873 0.046873845 0.45400003 4279385371
0.0089877397 0.046770595 0.45300001 4279514906
0.010435997 0.046667352 0.45200002 4279385889
0.011877757 0.046564106 0.45100003 4278199303
0.013342606 0.046564106 0.45100003 4278917644
0.014774622 0.046460856 0.45000002 4278983697
0.016200142 0.046357613 0.44900003 4278786572
0.017619165 0.046254363 0.44800001 4278720779
0.019031694 0.04615112 0.44700003 4278851597
0.020437727 0.04604787 0.44600001 4278851597
0.021837264 0.045944627 0.44500002 4278655502
0.023230303 0.045841381 0.44400004 4278920211
0.024616847 0.045738135 0.44300002 4278657037
0.026055712 0.045738135 0.44300002 4279644443
0.027432514 0.045634888 0.44200003 4279648289
0.028802816 0.045531642 0.44100001 4278198021
0.030166626 0.045428395 0.44000003 4278721547
0.031523935 0.045325149 0.43900001 4278195716
0.032874752 0.045221902 0.43800002 4278198276
0.034140769 0.04501541 0.43600002 4279450910
0.035475347 0.044912163 0.43500003 4278198787
0.036803428 0.044808917 0.43400002 4278199301
0.038125012 0.04470567 0.43300003 4279121945
0.039440095 0.044602424 0.43200001 4278198273
0.040748693 0.044499177 0.43100002 4278531861
0.042148579 0.044499177 0.43100002 4278795033
0.043447427 0.044395931 0.43000001 4278597654
0.044739779 0.044292685 0.42900002 4279058459
0.046133172 0.044292685 0.42900002 4279124252
0.047415782 0.044189438 0.42800003 4279058459
0.048805926 0.044189438 0.42800003 4279190043
0.050196074 0.044189438 0.42800003 4279255836
0.051586218 0.044189438 0.42800003 4279386652
0.052976359 0.044189438 0.42800003 4279386141
0.054366503 0.044189438 0.42800003 4278660880
0.055886921 0.044292685 0.42900002 4279253019
0.057280317 0.044292685 0.42900002 4279124763
0.058810472 0.044395931 0.43000001 4279585314
0.060207114 0.044395931 0.43000001 4278927384
0.061747022 0.044499177 0.43100002 4278795798
0.063146912 0.044499177 0.43100002 4278204431
0.064546801 0.044499177 0.43100002 4278533396
0.065793678 0.044395931 0.43000001 4278664212
0.067190319 0.044395931 0.43000001 4278202636
-0.0074989158 0.050265856 0.47200003 4280297233
-0.0059405803 0.050052863 0.47000003 4280957989
-0.0044140196 0.050052863 0.47000003 4279255066
-0.0028690279 0.049733374 0.46700001 4278993947
-0.00134642 0.049520388 0.46500003 4278862877
0.00016319583 0.049307395 0.46300003 4278797084
0.0016598196 0.049094405 0.46100003 4278731291
0.0031434514 0.048881412 0.45900002 4278468632
0.004614091 0.048668422 0.45700002 4278402839
0.0060850838 0.048561927 0.45600003 4278533912
0.0075329873 0.048348937 0.45400003 4278266636
0.0089877397 0.048242439 0.45300001 4278462990
0.010435997 0.048135944 0.45200002 4279188510
0.011904093 0.048135944 0.45200002 4279123230
0.013342606 0.048029449 0.45100003 4279251223
0.014774622 0.047922954 0.45000002 4278658062
0.016200142 0.047816459 0.44900003 4278195974
0.017619165 0.04770996 0.44800001 4278524170
0.019031694 0.047603469 0.44700003 4278851597
0.020437727 0.047496971 0.44600001 4278916877
0.021837264 0.047390476 0.44500002 4278851597
0.023230303 0.047283981 0.44400004 4278851597
0.024616847 0.047177486 0.44300002 4278588939
0.025996897 0.047070991 0.44200003 4279512857
0.027432514 0.047070991 0.44200003 4278793750
0.028802816 0.046964493 0.44100001 4278198277
0.030166626 0.046858002 0.44000003 4278720779
0.031523935 0.046751503 0.43900001 4278524683
0.032874752 0.046645008 0.43800002 4278726162
0.034219075 0.046538509 0.43700001 4279055127
0.035556898 0.046432018 0.43600002 4278200072
0.036888227 0.046325523 0.43500003 4278595087
0.038213059 0.046219025 0.43400002 4279121947
0.039531395 0.04611253 0.43300003 4278266638
0.040843233 0.046006035 0.43200001 4279779877
0.042246372 0.046006035 0.43200001 4278595089
0.043548469 0.04589954 0.43100002 4278660369
0.044844069 0.045793042 0.43000001 4278594574
0.046240706 0.045793042 0.43000001 4278197504
0.047526564 0.04568655 0.42900002 4278198787
0.048919957 0.04568655 0.42900002 4278991129
0.050313354 0.04568655 0.42900002 4278201612
0.051706742 0.04568655 0.42900002 4279190043
0.053100135 0.04568655 0.42900002 4279255836
0.054493528 0.04568655 0.42900002 4278595087
0.05601719 0.045793042 0.43000001 4279647777
0.057413835 0.045793042 0.43000001 4279190558
0.058947243 0.04589954 0.43100002 4278927384
0.060347132 0.04589954 0.43100002 4278927384
0.061747022 0.04589954 0.43100002 4278927384
0.063146912 0.04589954 0.43100002 4278466831
0.064546801 0.04589954 0.43100002 4278598417
0.065793678 0.045793042 0.43000001 4278532626
0.067190319 0.045793042 0.43000001 4278201612
-0.0075148032 0.051909175 0.47300002 4279968266
-0.0059532197 0.051689684 0.47100002 4279311621
-0.0044328026 0.051799431 0.47200003 4279385369
-0.0028751716 0.051360451 0.46800002 4278927384
-0.0013493155 0.05114096 0.46600002 4278795798
0.00016319583 0.05081173 0.46300003 4278599189
0.0016598196 0.05059224 0.46100003 4278468117
0.0031434514 0.05037275 0.45900002 4278402324
0.004614091 0.050153259 0.45700002 4278533396
0.0060850838 0.050043516 0.45600003 4278664982
0.0075495797 0.049933773 0.45500001 4278597906
0.0090075806 0.049824029 0.45400003 4278861080
0.010459085 0.049714282 0.45300001 4278992666
0.011904093 0.049604539 0.45200002 4278992412
0.013342606 0.049494796 0.45100003 4279058459
0.014774622 0.049385048 0.45000002 4278992666
0.016200142 0.049275305 0.44900003 4279123482
0.017619165 0.049165558 0.44800001 4279123228
0.018989118 0.048946071 0.44600001 4279451682
0.020391902 0.048836328 0.44500002 4279516191
0.021837264 0.048836328 0.44500002 4279777826
0.023230303 0.048726585 0.44400004 4278922517
0.024616847 0.048616838 0.44300002 4278526478
0.025996897 0.048507094 0.44200003 4279646240
0.027370447 0.048397347 0.44100001 4278196224
0.028802816 0.048397347 0.44100001 4278330380
0.030166626 0.048287604 0.44000003 4279315480
0.031523935 0.048177857 0.43900001 4279842338
0.032874752 0.048068114 0.43800002 4279515678
0.034219075 0.04795837 0.43700001 4279253017
0.035556898 0.047848627 0.43600002 4279451164
0.036888227 0.047738884 0.43500003 4279319578
0.038301107 0.047738884 0.43500003 4278266636
0.039622691 0.047629137 0.43400002 4278661396
0.040937781 0.047519393 0.43300003 4279187738
0.042246372 0.047409646 0.43200001 4278331917
0.04364951 0.047409646 0.43200001 4278196737
0.044948358 0.047299903 0.43100002 4279975975
0.046348244 0.047299903 0.43100002 4279055386
0.047637347 0.047190156 0.43000001 4278792216
0.049033988 0.047190156 0.43000001 4278594322
0.050430629 0.047190156 0.43000001 4279647264
0.051827271 0.047190156 0.43000001 4278925336
0.053223912 0.047190156 0.43000001 4279320859
0.054620549 0.047190156 0.43000001 4278199301
0.05601719 0.047190156 0.43000001 4280108840
0.057547357 0.047299903 0.43100002 4279058972
0.058947243 0.047299903 0.43100002 4278862363
0.060347132 0.047299903 0.43100002 4278796568
0.061747022 0.047299903 0.43100002 4278599187
0.063146912 0.047299903 0.43100002 4278533394
0.064546801 0.047299903 0.43100002 4278466831
0.065946691 0.047299903 0.43100002 4278597908
0.067190319 0.047190156 0.43000001 4278860056
-0.0108784 0.054914918 0.48600003 4280032262
-0.0059532197 0.053220011 0.47100002 4280231440
-0.0028813148 0.052994024 0.46900001 4279644436
-0.0013493155 0.052655045 0.46600002 4279582236
0.00016354831 0.052429054 0.46400002 4278990613
0.0016634201 0.052203067 0.46200001 4279123482
0.0031502999 0.051977079 0.46000001 4278992666
0.0046241879 0.051751096 0.45800003 4278598421
0.0060984283 0.0516381 0.45700002 4278795800
0.0075495797 0.051412113 0.45500001 4278730005
0.0090075806 0.051299121 0.45400003 4278598419
0.010459085 0.051186126 0.45300001 4278795800
0.011904093 0.051073134 0.45200002 4278927386
0.013342606 0.050960138 0.45100003 4278795800
0.014774622 0.050847143 0.45000002 4278993177
0.016200142 0.050734151 0.44900003 4278795800
0.017619165 0.050621156 0.44800001 4278664984
0.018989118 0.050395168 0.44600001 4278664730
0.020391902 0.050282177 0.44500002 4278598937
0.021788191 0.050169185 0.44400004 4278533144
0.023177981 0.050056189 0.44300002 4278664730
0.024616847 0.050056189 0.44300002 4278795546
0.025996897 0.049943198 0.44200003 4279058205
0.027370447 0.049830202 0.44100001 4278991642
0.028802816 0.049830202 0.44100001 4279254814
0.030166626 0.04971721 0.44000003 4279647775
0.031523935 0.049604215 0.43900001 4279120666
0.032874752 0.049491223 0.43800002 4278199047
0.034219075 0.049378227 0.43700001 4278195456
0.035556898 0.049265232 0.43600002 4278194944
0.036973029 0.049265232 0.43600002 4278195968
0.038301107 0.04915224 0.43500003 4278198276
0.039622691 0.049039245 0.43400002 4278989847
0.040937781 0.048926253 0.43300003 4279385117
0.042344164 0.048926253 0.43300003 4279385371
0.04364951 0.048813257 0.43200001 4279188762
0.044948358 0.048700266 0.43100002 4279386654
0.046348244 0.048700266 0.43100002 4279254814
0.047748134 0.048700266 0.43100002 4279320094
0.049033988 0.04858727 0.43000001 4279649059
0.050430629 0.04858727 0.43000001 4278199044
0.051827271 0.04858727 0.43000001 4278529296
0.053223912 0.04858727 0.43000001 4279123482
0.054747578 0.048700266 0.43100002 4278196992
0.056147467 0.048700266 0.43100002 4279450910
0.057547357 0.048700266 0.43100002 4278993949
0.059084009 0.048813257 0.43200001 4278862363
0.060487147 0.048813257 0.43200001 4278664982
0.061890285 0.048813257 0.43200001 4278664982
0.063293427 0.048813257 0.43200001 4278796568
0.064546801 0.048700266 0.43100002 4278598419
0.065946691 0.048700266 0.43100002 4278795287
0.067190319 0.04858727 0.43000001 4278991896
-0.001352211 0.054285366 0.46700001 4278983687
0.00016390078 0.054052882 0.46500003 4278786822
0.0016634201 0.053704154 0.46200001 4278590213
0.0031502999 0.053471666 0.46000001 4278788103
0.0046342839 0.053355426 0.45900002 4278856463
0.0060984283 0.053122938 0.45700002 4279251221
0.0075661722 0.053006697 0.45600003 4279187478
0.0090075806 0.052774213 0.45400003 4279187478
0.010459085 0.052657969 0.45300001 4279254814
0.011904093 0.052541725 0.45200002 4279452193
0.013342606 0.052425485 0.45100003 4279386400
0.014774622 0.052309241 0.45000002 4279320607
0.016200142 0.052192997 0.44900003 4278992925
0.017619165 0.052076753 0.44800001 4278992925
0.018989118 0.051844269 0.44600001 4278992925
0.020391902 0.051728029 0.44500002 4278927386
0.021788191 0.051611785 0.44400004 4278599191
0.023177981 0.051495541 0.44300002 4278664984
0.024561279 0.051379301 0.44200003 4278665498
0.025996897 0.051379301 0.44200003 4278665498
0.027370447 0.051263057 0.44100001 4278796568
0.028737504 0.051146813 0.44000003 4278795798
0.030166626 0.051146813 0.44000003 4279058457
0.031523935 0.051030569 0.43900001 4278861080
0.032874752 0.050914329 0.43800002 4278861080
0.034219075 0.050798085 0.43700001 4278795287
0.035556898 0.050681841 0.43600002 4279058459
0.036973029 0.050681841 0.43600002 4279189275
0.038301107 0.0505656 0.43500003 4279254301
0.039622691 0.050449356 0.43400002 4279451680
0.040937781 0.050333116 0.43300003 4279121431
0.042344164 0.050333116 0.43300003 4278199817
0.04364951 0.050216869 0.43200001 4278196737
0.045052644 0.050216869 0.43200001 4278195200
0.046348244 0.050100628 0.43100002 4278196224
0.047748134 0.050100628 0.43100002 4278200074
0.049148023 0.050100628 0.43100002 4279253019
0.050547913 0.050100628 0.43100002 4279648289
0.051947802 0.050100628 0.43100002 4279517473
0.053347688 0.050100628 0.43100002 4279254301
0.054747578 0.050100628 0.43100002 4278197248
0.056277737 0.050216869 0.43200001 4279451164
0.057680875 0.050216869 0.43200001 4279124765
0.059084009 0.050216869 0.43200001 4278928154
0.060487147 0.050216869 0.43200001 4278862361
0.061890285 0.050216869 0.43200001 4278796568
0.063293427 0.050216869 0.43200001 4278664982
0.064696558 0.050216869 0.43200001 4278467603
0.065946691 0.050100628 0.43100002 4278729494
0.06734658 0.050100628 0.43100002 4278201612
0.0016634201 0.055205237 0.46200001 4279244809
0.0031502999 0.054966252 0.46000001 4279376908
0.0046342839 0.054846764 0.45900002 4279376908
0.0061117732 0.054727271 0.45800003 4279377678
0.0075661722 0.05448829 0.45600003 4279641877
0.0090274205 0.054368794 0.45500001 4279051023
0.010482173 0.054249305 0.45400003 4285369720
0.011930429 0.054129809 0.45300001 4284514924
0.013342606 0.053890828 0.45100003 4280963133
0.014774622 0.053771336 0.45000002 4279318308
0.016200142 0.053651847 0.44900003 4278990109
0.017619165 0.053532351 0.44800001 4279385637
0.018989118 0.053293366 0.44600001 4279451430
0.020391902 0.053173877 0.44500002 4279254562
0.021788191 0.053054389 0.44400004 4279124000
0.023177981 0.052934892 0.44300002 4279123998
0.024561279 0.052815404 0.44200003 4279058718
0.025938079 0.052695908 0.44100001 4278796570
0.027370447 0.052695908 0.44100001 4278664214
0.028737504 0.052576419 0.44000003 4278795800
0.030166626 0.052576419 0.44000003 4278992666
0.031523935 0.052456923 0.43900001 4279058459
0.032874752 0.052337434 0.43800002 4278992666
0.034219075 0.052217942 0.43700001 4278795800
0.035556898 0.052098449 0.43600002 4278730007
0.036888227 0.051978961 0.43500003 4278795800
0.038301107 0.051978961 0.43500003 4278730005
0.039622691 0.051859464 0.43400002 4278927386
0.040937781 0.051739976 0.43300003 4279058972
0.042246372 0.051620483 0.43200001 4278927386
0.04364951 0.051620483 0.43200001 4278861080
0.045052644 0.051620483 0.43200001 4278991896
0.046348244 0.051500991 0.43100002 4279320348
0.047748134 0.051500991 0.43100002 4279254301
0.049148023 0.051500991 0.43100002 4279450912
0.050547913 0.051500991 0.43100002 4279319326
0.051947802 0.051500991 0.43100002 4278199820
0.053347688 0.051500991 0.43100002 4278197765
0.054874599 0.051620483 0.43200001 4279055638
0.056277737 0.051620483 0.43200001 4279386141
0.057680875 0.051620483 0.43200001 4279124763
0.05922078 0.051739976 0.43300003 4278993947
0.060627166 0.051739976 0.43300003 4278796568
0.062033553 0.051739976 0.43300003 4278862361
0.063439943 0.051739976 0.43300003 4278533396
0.064696558 0.051620483 0.43200001 4278664212
0.066099696 0.051620483 0.43200001 4278728724
0.06734658 0.051500991 0.43100002 4278660369
0.0046342839 0.056338102 0.45900002 4279507981
0.0061117732 0.056215361 0.45800003 4279705360
0.017579837 0.054865211 0.44700003 4285894528
0.018989118 0.054742467 0.44600001 4285764480
0.020391902 0.054619726 0.44500002 4284909171
0.021788191 0.054496989 0.44400004 4282146896
0.023177981 0.054374244 0.44300002 4279910445
0.024561279 0.054251507 0.44200003 4279186976
0.025938079 0.054128762 0.44100001 4279187488
0.027370447 0.054128762 0.44100001 4279319842
0.028737504 0.054006021 0.44000003 4279649320
0.030098066 0.053883281 0.43900001 4279320609
0.031523935 0.053883281 0.43900001 4279320607
0.032874752 0.05376054 0.43800002 4279058205
0.034219075 0.053637799 0.43700001 4278860826
0.035556898 0.053515058 0.43600002 4278992666
0.036888227 0.053392321 0.43500003 4278861080
0.038213059 0.053269576 0.43400002 4278795800
0.039622691 0.053269576 0.43400002 4278795800
0.040937781 0.053146835 0.43300003 4278993179
0.042246372 0.053024095 0.43200001 4278795800
0.04364951 0.053024095 0.43200001 4278795800
0.045052644 0.053024095 0.43200001 4278927386
0.046348244 0.052901354 0.43100002 4278927386
0.047748134 0.052901354 0.43100002 4278795800
0.049148023 0.052901354 0.43100002 4278927386
0.050547913 0.052901354 0.43100002 4278993179
0.051947802 0.052901354 0.43100002 4279189275
0.053471465 0.053024095 0.43200001 4279123482
0.054874599 0.053024095 0.43200001 4279255068
0.056277737 0.053024095 0.43200001 4279124250
0.057814401 0.053146835 0.43300003 4279058968
0.05922078 0.053146835 0.43300003 4278795796
0.060627166 0.053146835 0.43300003 4278795796
0.062033553 0.053146835 0.43300003 4278795796
0.063439943 0.053146835 0.43300003 4278795796
0.064846322 0.053146835 0.43300003 4278664212
0.066099696 0.053024095 0.43200001 4278727189
-0.0110127 0.061987113 0.49200001 4280492550
0.024561279 0.05568761 0.44200003 4284973680
0.025938079 0.055561621 0.44100001 4285302645
0.027308384 0.055435631 0.44000003 4284973678
0.028737504 0.055435631 0.44000003 4284842604
0.030098066 0.055309638 0.43900001 4283461723
0.031452131 0.055183649 0.43800002 4281027895
0.032874752 0.055183649 0.43800002 4279318812
0.034219075 0.05505766 0.43700001 4278924568
0.035556898 0.05493167 0.43600002 4279187486
0.036888227 0.054805681 0.43500003 4279516705
0.038213059 0.054679688 0.43400002 4279648289
0.039622691 0.054679688 0.43400002 4279320094
0.040937781 0.054553702 0.43300003 4279386400
0.042246372 0.054427709 0.43200001 4279715365
0.04364951 0.054427709 0.43200001 4279255586
0.045052644 0.054427709 0.43200001 4279255586
0.046348244 0.05430172 0.43100002 4279255584
0.047748134 0.05430172 0.43100002 4279189791
0.049148023 0.05430172 0.43100002 4279255584
0.050547913 0.05430172 0.43100002 4279321377
0.051947802 0.05430172 0.43100002 4279255838
0.053471465 0.054427709 0.43200001 4279190045
0.054874599 0.054427709 0.43200001 4279124250
0.056408014 0.054553702 0.43300003 4278992664
0.057814401 0.054553702 0.43300003 4278927384
0.05922078 0.054553702 0.43300003 4279058970
0.060627166 0.054553702 0.43300003 4278992664
0.062033553 0.054553702 0.43300003 4278861078
0.063439943 0.054553702 0.43300003 4278795285
0.064846322 0.054553702 0.43300003 4278991896
0.066252708 0.054553702 0.43300003 4279251484
0.027308384 0.056865234 0.44000003 4284644715
0.028737504 0.056865234 0.44000003 4284710506
0.030166626 0.056865234 0.44000003 4284710506
0.031452131 0.056606755 0.43800002 4284447334
0.032874752 0.056606755 0.43800002 4284447334
0.034219075 0.056477513 0.43700001 4284447334
0.035556898 0.056348275 0.43600002 4284644711
0.036888227 0.056219038 0.43500003 4284775784
0.038213059 0.056089796 0.43400002 4284973676
0.039622691 0.056089796 0.43400002 4284842604
0.040937781 0.055960558 0.43300003 4284843376
0.042246372 0.055831317 0.43200001 4284053860
0.04364951 0.055831317 0.43200001 4283461721
0.045052644 0.055831317 0.43200001 4282540619
0.046348244 0.055702079 0.43100002 4281027897
0.047748134 0.055702079 0.43100002 4280172588
0.049148023 0.055702079 0.43100002 4279581734
0.050547913 0.055702079 0.43100002 4279515941
0.051947802 0.055702079 0.43100002 4278858009
0.053471465 0.055831317 0.43200001 4279318560
0.054874599 0.055831317 0.43200001 4279318812
0.056408014 0.055960558 0.43300003 4279516705
0.057814401 0.055960558 0.43300003 4279385889
0.05922078 0.055960558 0.43300003 4279517475
0.060767181 0.056089796 0.43400002 4279582496
0.062176816 0.056089796 0.43400002 4279319324
0.063586451 0.056089796 0.43400002 4278858775
0.064846322 0.055960558 0.43300003 4280304942
0.066252708 0.055960558 0.43300003 4284053092
0.063586451 0.057499908 0.43400002 4284645229
0.027900722 0.046396662 0.44473287 4294967295
0.027900722 0.046396662 0.44473287 4294901760
0.027900722 0.046396662 0.44523287 4294901760
0.027900722 0.046396662 0.44573286 4294901760
0.027900722 0.046396662 0.44623289 4294901760
0.027900722 0.046396662 0.44673288 4294901760
0.027900722 0.046396662 0.44723287 4294901760
0.027900722 0.046396662 0.44773287 4294901760
0.027900722 0.046396662 0.44823289 4294901760
0.027900722 0.046396662 0.44873288 4294901760
0.027900722 0.046396662 0.44923288 4294901760
0.027900722 0.046396662 0.44973287 4294901760
0.027900722 0.046396662 0.45023286 4294901760
0.027900722 0.046396662 0.45073289 4294901760
0.027900722 0.046396662 0.45123288 4294901760
0.027900722 0.046396662 0.45173287 4294901760
0.027900722 0.046396662 0.45223287 4294901760
0.027900722 0.046396662 0.45273286 4294901760
0.027900722 0.046396662 0.45323288 4294901760
0.027900722 0.046396662 0.45373288 4294901760
0.027900722 0.046396662 0.45423287 4294901760
0.027900722 0.046396662 0.45473287 4294901760
0.027900722 0.046396662 0.45523289 4294901760
0.027900722 0.046396662 0.45573288 4294901760
0.027900722 0.046396662 0.45623288 4294901760
0.027900722 0.046396662 0.45673287 4294901760
0.027900722 0.046396662 0.45723289 4294901760
0.027900722 0.046396662 0.45773289 4294901760
0.027900722 0.046396662 0.45823288 4294901760
0.027900722 0.046396662 0.45873287 4294901760
0.027900722 0.046396662 0.45923287 4294901760
0.027900722 0.046396662 0.45973289 4294901760
0.027900722 0.046396662 0.46023288 4294901760
0.027900722 0.046396662 0.46073288 4294901760
0.027900722 0.046396662 0.46123287 4294901760
0.027900722 0.046396662 0.46173286 4294901760
0.027900722 0.046396662 0.46223289 4294901760
0.027900722 0.046396662 0.46273288 4294901760
0.027900722 0.046396662 0.46323287 4294901760
0.027900722 0.046396662 0.46373287 4294901760
0.027900722 0.046396662 0.46423289 4294901760
0.027900722 0.046396662 0.46473289 4294901760
0.027900722 0.046396662 0.46523288 4294901760
0.027900722 0.046396662 0.46573287 4294901760
0.027900722 0.046396662 0.4662329 4294901760
0.027900722 0.046396662 0.46673289 4294901760
0.027900722 0.046396662 0.46723288 4294901760
0.027900722 0.046396662 0.46773288 4294901760
0.027900722 0.046396662 0.46823287 4294901760
0.027900722 0.046396662 0.46873289 4294901760
0.027900722 0.046396662 0.46923289 4294901760
0.027900722 0.046396662 0.46973288 4294901760
0.027900722 0.046396662 0.47023287 4294901760
0.027900722 0.046396662 0.47073287 4294901760
0.027900722 0.046396662 0.47123289 4294901760
0.027900722 0.046396662 0.47173288 4294901760
0.027900722 0.046396662 0.47223288 4294901760
0.027900722 0.046396662 0.47273287 4294901760
0.027900722 0.046396662 0.47323287 4294901760
0.027900722 0.046396662 0.47373289 4294901760
0.027900722 0.046396662 0.47423288 4294901760
0.027900722 0.046396662 0.47473288 4294901760
0.027900722 0.046396662 0.47523287 4294901760
0.027900722 0.046396662 0.47573289 4294901760
0.027900722 0.046396662 0.47623289 4294901760
0.027900722 0.046396662 0.47673288 4294901760
0.027900722 0.046396662 0.47723287 4294901760
0.027900722 0.046396662 0.4777329 4294901760
0.027900722 0.046396662 0.47823289 4294901760
0.027900722 0.046396662 0.47873288 4294901760
0.027900722 0.046396662 0.47923288 4294901760
0.027900722 0.046396662 0.47973287 4294901760
0.027900722 0.046396662 0.48023289 4294901760
0.027900722 0.046396662 0.48073289 4294901760
0.027900722 0.046396662 0.48123288 4294901760
0.027900722 0.046396662 0.48173288 4294901760
0.027900722 0.046396662 0.48223287 4294901760
0.027900722 0.046396662 0.48273289 4294901760
0.027900722 0.046396662 0.48323289 4294901760
0.027900722 0.046396662 0.48373288 4294901760
0.027900722 0.046396662 0.48423287 4294901760
0.027900722 0.046396662 0.4847329 4294901760
0.027900722 0.046396662 0.48523289 4294901760
0.027900722 0.046396662 0.48573288 4294901760
0.027900722 0.046396662 0.48623288 4294901760
0.027900722 0.046396662 0.48673287 4294901760
0.027900722 0.046396662 0.48723289 4294901760
0.027900722 0.046396662 0.48773289 4294901760
0.027900722 0.046396662 0.48823288 4294901760
0.027900722 0.046396662 0.48873287 4294901760
0.027900722 0.046396662 0.4892329 4294901760
0.027900722 0.046396662 0.48973289 4294901760
0.027900722 0.046396662 0.49023288 4294901760
0.027900722 0.046396662 0.49073288 4294901760
0.027900722 0.046396662 0.49123287 4294901760
0.027900722 0.046396662 0.4917329 4294901760
0.027900722 0.046396662 0.49223289 4294901760
0.027900722 0.046396662 0.49273288 4294901760
0.027900722 0.046396662 0.49323288 4294901760
0.027900722 0.046396662 0.4937329 4294901760
0.027900722 0.046396662 0.49423289 4294901760
0.027900722 0.046396662 0.49473289 4294901760
0.027900722 0.046396662 0.44473287 4278255360
0.028168861 0.046372924 0.44515422 4278255360
0.028437 0.046349186 0.44557559 4278255360
0.028705139 0.046325453 0.44599694 4278255360
0.028973278 0.046301715 0.44641829 4278255360
0.029241417 0.046277978 0.44683963 4278255360
0.029509556 0.04625424 0.44726098 4278255360
0.029777694 0.046230502 0.44768235 4278255360
0.030045833 0.046206769 0.4481037 4278255360
0.030313972 0.046183031 0.44852504 4278255360
0.030582109 0.046159294 0.44894642 4278255360
0.030850248 0.046135556 0.44936776 4278255360
0.031118387 0.046111822 0.44978911 4278255360
0.031386528 0.046088085 0.45021045 4278255360
0.031654667 0.046064347 0.4506318 4278255360
0.031922806 0.046040609 0.45105317 4278255360
0.032190941 0.046016872 0.45147452 4278255360
0.03245908 0.045993138 0.45189586 4278255360
0.032727219 0.045969401 0.45231724 4278255360
0.032995358 0.045945663 0.45273858 4278255360
0.033263497 0.045921925 0.45315993 4278255360
0.033531636 0.045898188 0.45358127 4278255360
0.033799775 0.045874454 0.45400262 4278255360
0.034067914 0.045850717 0.45442399 4278255360
0.034336053 0.045826979 0.45484534 4278255360
0.034604192 0.045803241 0.45526668 4278255360
0.034872331 0.045779504 0.45568806 4278255360
0.03514047 0.04575577 0.4561094 4278255360
0.035408609 0.045732033 0.45653075 4278255360
0.035676748 0.045708295 0.4569521 4278255360
0.035944887 0.045684557 0.45737347 4278255360
0.036213025 0.045660824 0.45779482 4278255360
0.036481164 0.045637086 0.45821616 4278255360
0.036749303 0.045613348 0.45863751 4278255360
0.037017442 0.045589611 0.45905888 4278255360
0.037285581 0.045565873 0.45948023 4278255360
0.03755372 0.04554214 0.45990157 4278255360
0.037821859 0.045518402 0.46032292 4278255360
0.038089998 0.045494664 0.46074426 4278255360
0.038358137 0.045470927 0.46116564 4278255360
0.038626276 0.045447189 0.46158698 4278255360
0.038894415 0.045423456 0.46200833 4278255360
0.039162554 0.045399718 0.4624297 4278255360
0.039430693 0.04537598 0.46285105 4278255360
0.039698832 0.045352243 0.46327239 4278255360
0.039966971 0.045328505 0.46369374 4278255360
0.04023511 0.045304772 0.46411508 4278255360
0.040503249 0.045281034 0.46453646 4278255360
0.040771388 0.045257296 0.4649578 4278255360
0.041039526 0.045233559 0.46537915 4278255360
0.041307665 0.045209825 0.46580052 4278255360
0.041575804 0.045186087 0.46622187 4278255360
0.04184394 0.04516235 0.46664321 4278255360
0.042112079 0.045138612 0.46706456 4278255360
0.042380221 0.045114875 0.4674859 4278255360
0.04264836 0.045091141 0.46790728 4278255360
0.042916495 0.045067403 0.46832862 4278255360
0.043184634 0.045043666 0.46874997 4278255360
0.043452773 0.045019928 0.46917135 4278255360
0.043720912 0.044996191 0.46959269 4278255360
0.043989055 0.044972457 0.47001404 4278255360
0.044257194 0.044948719 0.47043538 4278255360
0.044525329 0.044924982 0.47085673 4278255360
0.044793468 0.044901244 0.4712781 4278255360
0.045061607 0.044877507 0.47169945 4278255360
0.045329746 0.044853773 0.47212079 4278255360
0.045597885 0.044830035 0.47254217 4278255360
0.045866024 0.044806298 0.47296351 4278255360
0.046134163 0.04478256 0.47338486 4278255360
0.046402302 0.044758826 0.4738062 4278255360
0.046670441 0.044735089 0.47422755 4278255360
0.046938576 0.044711351 0.47464892 4278255360
0.047206718 0.044687614 0.47507027 4278255360
0.047474857 0.044663876 0.47549161 4278255360
0.047742996 0.044640142 0.47591299 4278255360
0.048011135 0.044616405 0.47633433 4278255360
0.048279271 0.044592667 0.47675568 4278255360
0.048547409 0.04456893 0.47717702 4278255360
0.048815548 0.044545192 0.47759837 4278255360
0.049083691 0.044521458 0.47801974 4278255360
0.049351826 0.044497721 0.47844109 4278255360
0.049619965 0.044473983 0.47886243 4278255360
0.049888104 0.044450246 0.47928381 4278255360
0.050156243 0.044426508 0.47970515 4278255360
0.050424382 0.044402774 0.4801265 4278255360
0.050692521 0.044379037 0.48054785 4278255360
0.05096066 0.044355299 0.48096919 4278255360
0.051228799 0.044331562 0.48139057 4278255360
0.051496938 0.044307828 0.48181191 4278255360
0.051765077 0.04428409 0.48223326 4278255360
0.052033216 0.044260353 0.48265463 4278255360
0.052301355 0.044236615 0.48307598 4278255360
0.052569494 0.044212878 0.48349732 4278255360
0.052837633 0.04418914 0.48391867 4278255360
0.053105772 0.044165406 0.48434001 4278255360
0.05337391 0.044141669 0.48476139 4278255360
0.053642049 0.044117931 0.48518273 4278255360
0.053910188 0.044094194 0.48560408 4278255360
0.054178327 0.04407046 0.48602545 4278255360
0.054446466 0.044046722 0.4864468 4278255360
0.054714605 0.044022985 0.48686814 4278255360
