# .PCD v0.7 - Point Cloud Data file format
VERSION 0.7
FIELDS x y z rgb
SIZE 4 4 4 4
TYPE F F F U
COUNT 1 1 1 1
WIDTH 920
HEIGHT 1
VIEWPOINT 0 0 0 1 0 0 0
POINTS 920
DATA ascii
-0.058435585 0.066105828 0.26500002 4279323164
-0.057574868 0.066105828 0.26500002 4279651359
-0.056714147 0.066105828 0.26500002 4279847201
-0.055642653 0.065856367 0.264 4280236319
-0.058435585 0.066966839 0.26500002 4279521316
-0.057574868 0.066966839 0.26500002 4279126045
-0.056500126 0.06671413 0.264 4279717670
-0.055642653 0.06671413 0.264 4280111143
-0.054785181 0.06671413 0.264 4280634922
-0.058435585 0.067827851 0.26500002 4279521570
-0.057357602 0.067571893 0.264 4279323937
-0.056500126 0.067571893 0.264 4279060767
-0.055642653 0.067571893 0.264 4279520289
-0.054785181 0.067571893 0.264 4279914531
-0.05372344 0.067315944 0.26300001 4280634920
-0.067680538 0.070244089 0.27100003 4279712024
-0.066800326 0.070244089 0.27100003 4279119889
-0.065920115 0.070244089 0.27100003 4279845922
-0.058215071 0.068429656 0.264 4279192092
-0.057357602 0.068429656 0.264 4279455012
-0.056500126 0.068429656 0.264 4279455012
-0.055642653 0.068429656 0.264 4279257631
-0.054577664 0.068170458 0.26300001 4279125785
-0.05372344 0.068170458 0.26300001 4279782432
-0.052869216 0.068170458 0.26300001 4280044580
-0.069440953 0.071124591 0.27100003 4280044580
-0.068560742 0.071124591 0.27100003 4279977506
-0.067680538 0.071124591 0.27100003 4280172575
-0.066800326 0.071124591 0.27100003 4279186195
-0.065920115 0.071124591 0.27100003 4280042533
-0.06503991 0.071124591 0.27100003 4279911713
-0.057357602 0.069287419 0.264 4279257631
-0.056500126 0.069287419 0.264 4279323424
-0.055431888 0.069024965 0.26300001 4279586596
-0.054577664 0.069024965 0.26300001 4279586596
-0.05372344 0.069024965 0.26300001 4279586082
-0.052869216 0.069024965 0.26300001 4279585566
-0.051817216 0.068762518 0.26200002 4280045604
-0.069440953 0.072005101 0.27100003 4280240162
-0.068560742 0.072005101 0.27100003 4280238881
-0.067680538 0.072005101 0.27100003 4279117840
-0.066800326 0.072005101 0.27100003 4280039967
-0.065920115 0.072005101 0.27100003 4280437543
-0.06503991 0.072005101 0.27100003 4279977504
-0.063922949 0.07173939 0.27000001 4280043297
-0.055431888 0.06987948 0.26300001 4279586596
-0.054577664 0.06987948 0.26300001 4279586596
-0.053519171 0.069613785 0.26200002 4279850020
-0.052668195 0.069613785 0.26200002 4279388955
-0.051817216 0.069613785 0.26200002 4279454748
-0.050966244 0.069613785 0.26200002 4279914529
-0.049923982 0.069348082 0.26100001 4280438055
-0.070321165 0.07288561 0.27100003 4279978274
-0.069440953 0.07288561 0.27100003 4280108830
-0.068560742 0.07288561 0.27100003 4280370465
-0.067680538 0.07288561 0.27100003 4279314965
-0.066800326 0.07288561 0.27100003 4279973662
-0.065920115 0.07288561 0.27100003 4280108065
-0.064799905 0.072616652 0.27000001 4279911199
-0.063922949 0.072616652 0.27000001 4279516953
-0.063045986 0.072616652 0.27000001 4279977504
-0.062169023 0.072616652 0.27000001 4280043297
-0.054577664 0.070734002 0.26300001 4279586336
-0.053519171 0.070465051 0.26200002 4279389471
-0.052668195 0.070465051 0.26200002 4279586596
-0.051817216 0.070465051 0.26200002 4279126045
-0.050771713 0.0701961 0.26100001 4279323424
-0.049923982 0.0701961 0.26100001 4279651105
-0.049076252 0.0701961 0.26100001 4280111143
-0.071464106 0.074038312 0.27200001 4279912481
-0.070321165 0.073766112 0.27100003 4279912481
-0.069440953 0.073766112 0.27100003 4280109860
-0.068560742 0.073766112 0.27100003 4279713307
-0.067680538 0.073766112 0.27100003 4279118353
-0.066800326 0.073766112 0.27100003 4280238116
-0.065920115 0.073766112 0.27100003 4280238629
-0.064799905 0.073493913 0.27000001 4278988051
-0.063922949 0.073493913 0.27000001 4278985230
-0.063045986 0.073493913 0.27000001 4279249172
-0.06193877 0.073221713 0.26900002 4280108578
-0.061065063 0.073221713 0.26900002 4279977506
-0.053519171 0.071316317 0.26200002 4279191838
-0.052668195 0.071316317 0.26200002 4279652389
-0.051817216 0.071316317 0.26200002 4279652389
-0.050771713 0.07104411 0.26100001 4279586596
-0.049923982 0.07104411 0.26100001 4279323424
-0.049076252 0.07104411 0.26100001 4279520289
-0.048043747 0.070771918 0.26000002 4279716898
-0.047199264 0.070771918 0.26000002 4280110373
-0.046354782 0.070771918 0.26000002 4282144064
-0.071464106 0.07492207 0.27200001 4280109090
-0.070580646 0.07492207 0.27200001 4279911711
-0.069440953 0.074646622 0.27100003 4280306469
-0.068560742 0.074646622 0.27100003 4279712537
-0.067680538 0.074646622 0.27100003 4279513109
-0.066800326 0.074646622 0.27100003 4280172836
-0.065920115 0.074646622 0.27100003 4280108580
-0.064799905 0.074371174 0.27000001 4279118351
-0.063922949 0.074371174 0.27000001 4279443473
-0.062812485 0.074095726 0.26900002 4279246094
-0.06193877 0.074095726 0.26900002 4278787851
-0.061065063 0.074095726 0.26900002 4280436778
-0.059967585 0.073820271 0.26800001 4279847201
-0.052668195 0.072167583 0.26200002 4278994459
-0.051619437 0.071892127 0.26100001 4279191838
-0.050771713 0.071892127 0.26100001 4279586596
-0.049923982 0.071892127 0.26100001 4279652904
-0.048888225 0.071616687 0.26000002 4279586596
-0.048043747 0.071616687 0.26000002 4279257631
-0.047199264 0.071616687 0.26000002 4279717668
-0.046354782 0.071616687 0.26000002 4279912996
-0.045335259 0.071341231 0.259 4281356599
-0.072347552 0.075805821 0.27200001 4280306471
-0.071464106 0.075805821 0.27200001 4280043297
-0.070580646 0.075805821 0.27200001 4280438055
-0.069697186 0.075805821 0.27200001 4280042783
-0.068560742 0.075527124 0.27100003 4279184398
-0.067680538 0.075527124 0.27100003 4279645209
-0.066800326 0.075527124 0.27100003 4280305446
-0.065920115 0.075527124 0.27100003 4280042272
-0.064799905 0.07524842 0.27000001 4279051529
-0.063922949 0.07524842 0.27000001 4279574287
-0.062812485 0.074969731 0.26900002 4279508496
-0.06193877 0.074969731 0.26900002 4279311887
-0.060838051 0.074691027 0.26800001 4279181328
-0.059967585 0.074691027 0.26800001 4279515930
-0.058876611 0.074412331 0.26700002 4279780125
-0.058009397 0.074412331 0.26700002 4280043551
-0.052668195 0.073018841 0.26200002 4279125531
-0.051619437 0.072740138 0.26100001 4279322910
-0.050771713 0.072740138 0.26100001 4279323424
-0.049923982 0.072740138 0.26100001 4279258144
-0.048888225 0.072461449 0.26000002 4279850281
-0.048043747 0.072461449 0.26000002 4279652389
-0.047199264 0.072461449 0.26000002 4279389217
-0.046176493 0.072182745 0.259 4279323424
-0.045335259 0.072182745 0.259 4279849256
-0.044494029 0.072182745 0.259 4280173354
-0.072347552 0.076689579 0.27200001 4280306471
-0.071464106 0.076689579 0.27200001 4280109090
-0.070580646 0.076689579 0.27200001 4280306469
-0.069697186 0.076689579 0.27200001 4280240162
-0.068560742 0.076407634 0.27100003 4279513363
-0.067680538 0.076407634 0.27100003 4279315730
-0.066800326 0.076407634 0.27100003 4280239653
-0.065676868 0.076125681 0.27000001 4279844123
-0.064799905 0.076125681 0.27000001 4279445774
-0.063922949 0.076125681 0.27000001 4280430366
-0.062812485 0.075843737 0.26900002 4279706643
-0.06193877 0.075843737 0.26900002 4279311117
-0.060838051 0.075561784 0.26800001 4279442705
-0.059743829 0.075279839 0.26700002 4279181328
-0.058876611 0.075279839 0.26700002 4279249685
-0.057792127 0.074997894 0.266 4279845920
-0.056714147 0.07471595 0.26500002 4279911711
-0.055642653 0.074433997 0.264 4279781149
-0.054577664 0.074152052 0.26300001 4279912735
-0.05372344 0.074152052 0.26300001 4279716387
-0.052668195 0.073870108 0.26200002 4279256349
-0.051817216 0.073870108 0.26200002 4279124761
-0.050771713 0.073588155 0.26100001 4279387933
-0.049732704 0.073306218 0.26000002 4279257631
-0.048888225 0.073306218 0.26000002 4279389730
-0.048043747 0.073306218 0.26000002 4279718695
-0.047017727 0.073024265 0.259 4279587363
-0.046176493 0.073024265 0.259 4279324191
-0.045335259 0.073024265 0.259 4279323424
-0.044494029 0.073024265 0.259 4279717670
-0.043652795 0.073024265 0.259 4280045867
-0.071464106 0.077573337 0.27200001 4280109092
-0.070580646 0.077573337 0.27200001 4279977506
-0.069697186 0.077573337 0.27200001 4279713820
-0.068560742 0.077288143 0.27100003 4279976227
-0.067680538 0.077288143 0.27100003 4279843360
-0.066800326 0.077288143 0.27100003 4280042022
-0.065676868 0.077002943 0.27000001 4280238370
-0.064799905 0.077002943 0.27000001 4279182350
-0.063686199 0.076717749 0.26900002 4280957737
-0.062812485 0.076717749 0.26900002 4279641877
-0.06170851 0.076432548 0.26800001 4279707670
-0.060838051 0.076432548 0.26800001 4279312400
-0.059743829 0.076147355 0.26700002 4279376912
-0.058876611 0.076147355 0.26700002 4279180303
-0.057792127 0.075862154 0.266 4278788621
-0.056714147 0.075576961 0.26500002 4279975198
-0.055642653 0.07529176 0.264 4279517723
-0.054577664 0.075006567 0.26300001 4279846688
-0.05372344 0.075006567 0.26300001 4279912996
-0.052668195 0.074721374 0.26200002 4279584801
-0.051619437 0.074436173 0.26100001 4279650594
-0.050771713 0.074436173 0.26100001 4279519006
-0.049732704 0.07415098 0.26000002 4279388703
-0.048888225 0.07415098 0.26000002 4279257119
-0.048043747 0.07415098 0.26000002 4279389730
-0.047017727 0.073865779 0.259 4279652902
-0.046176493 0.073865779 0.259 4279784488
-0.045335259 0.073865779 0.259 4279586596
-0.044494029 0.073865779 0.259 4279323424
-0.043652795 0.073865779 0.259 4279455010
-0.070580646 0.078457095 0.27200001 4280503336
-0.069697186 0.078457095 0.27200001 4279909664
-0.068560742 0.078168653 0.27100003 4279448602
-0.067680538 0.078168653 0.27100003 4279975457
-0.066800326 0.078168653 0.27100003 4280305192
-0.065676868 0.077880204 0.27000001 4280172577
-0.064799905 0.077880204 0.27000001 4279182096
-0.063686199 0.077591762 0.26900002 4280037405
-0.062812485 0.077591762 0.26900002 4280169504
-0.06170851 0.077303305 0.26800001 4279446035
-0.060838051 0.077303305 0.26800001 4279773463
-0.059743829 0.077014871 0.26700002 4279509264
-0.058656093 0.076726414 0.266 4279376908
-0.057792127 0.076726414 0.266 4279574289
-0.056714147 0.076437972 0.26500002 4279181328
-0.055642653 0.076149523 0.264 4279711772
-0.054577664 0.075861081 0.26300001 4279845922
-0.05372344 0.075861081 0.26300001 4279977506
-0.052668195 0.07557264 0.26200002 4279978276
-0.051619437 0.07528419 0.26100001 4279781410
-0.050771713 0.07528419 0.26100001 4279715615
-0.049732704 0.074995749 0.26000002 4279584029
-0.048888225 0.074995749 0.26000002 4279190041
-0.048043747 0.074995749 0.26000002 4279322910
-0.047017727 0.074707299 0.259 4279586082
-0.046176493 0.074707299 0.259 4279586596
-0.045335259 0.074707299 0.259 4279849768
-0.044494029 0.074707299 0.259 4279784488
-0.043652795 0.074707299 0.259 4279389730
-0.070580646 0.079340838 0.27200001 4280436260
-0.069697186 0.079340838 0.27200001 4280174373
-0.068560742 0.079049148 0.27100003 4280042020
-0.067680538 0.079049148 0.27100003 4279778332
-0.066800326 0.079049148 0.27100003 4280305444
-0.065676868 0.07875745 0.27000001 4280633128
-0.064799905 0.07875745 0.27000001 4278985230
-0.063686199 0.07846576 0.26900002 4279246607
-0.062812485 0.07846576 0.26900002 4278983949
-0.06170851 0.078174062 0.26800001 4280037918
-0.060838051 0.078174062 0.26800001 4279840539
-0.059743829 0.077882372 0.26700002 4279642901
-0.058656093 0.077590674 0.266 4280102682
-0.057792127 0.077590674 0.266 4279246346
-0.056714147 0.077298984 0.26500002 4279377678
-0.055642653 0.077007286 0.264 4279246094
-0.054577664 0.076715589 0.26300001 4279314195
-0.05372344 0.076715589 0.26300001 4280239653
-0.052668195 0.076423898 0.26200002 4279845922
-0.051619437 0.076132201 0.26100001 4279912483
-0.050771713 0.076132201 0.26100001 4279846688
-0.049732704 0.07584051 0.26000002 4279781408
-0.048888225 0.07584051 0.26000002 4279781408
-0.047858957 0.075548813 0.259 4279453213
-0.047017727 0.075548813 0.259 4279256347
-0.046176493 0.075548813 0.259 4279520289
-0.045335259 0.075548813 0.259 4279389471
-0.044322237 0.075257123 0.25800002 4279652904
-0.043484252 0.075257123 0.25800002 4280969536
-0.070580646 0.080224596 0.27200001 4280827434
-0.069697186 0.080224596 0.27200001 4280437032
-0.068560742 0.079929657 0.27100003 4280174373
-0.067680538 0.079929657 0.27100003 4280240164
-0.066800326 0.079929657 0.27100003 4279976992
-0.065676868 0.079634711 0.27000001 4280042785
-0.064799905 0.079634711 0.27000001 4279381271
-0.063686199 0.079339772 0.26900002 4279377682
-0.062812485 0.079339772 0.26900002 4279246096
-0.06170851 0.079044826 0.26800001 4279312914
-0.060611043 0.07874988 0.26700002 4280366883
-0.059743829 0.07874988 0.26700002 4278458886
-0.058656093 0.078454934 0.266 4279050512
-0.057792127 0.078454934 0.266 4280366370
-0.056714147 0.078159995 0.26500002 4279181326
-0.055642653 0.077865049 0.264 4279246096
-0.054577664 0.077570111 0.26300001 4279442451
-0.05372344 0.077570111 0.26300001 4278787853
-0.052668195 0.077275164 0.26200002 4279974944
-0.051619437 0.076980218 0.26100001 4279845918
-0.050771713 0.076980218 0.26100001 4280175653
-0.049732704 0.07668528 0.26000002 4279715615
-0.048888225 0.07668528 0.26000002 4279584029
-0.047858957 0.076390333 0.259 4279716385
-0.047017727 0.076390333 0.259 4279453213
-0.046176493 0.076390333 0.259 4279190554
-0.045335259 0.076390333 0.259 4279388703
-0.044322237 0.076095395 0.25800002 4279587111
-0.043484252 0.076095395 0.25800002 4279718699
-0.072347552 0.081108354 0.27200001 4281022768
-0.071464106 0.081108354 0.27200001 4280891443
-0.070580646 0.081108354 0.27200001 4281023280
-0.069697186 0.081108354 0.27200001 4280762665
-0.068560742 0.080810167 0.27100003 4280764460
-0.067680538 0.080810167 0.27100003 4280174373
-0.066800326 0.080810167 0.27100003 4280108580
-0.065676868 0.080511972 0.27000001 4280240166
-0.064559907 0.080213785 0.26900002 4280239653
-0.063686199 0.080213785 0.26900002 4279905821
-0.062578976 0.079915583 0.26800001 4279246607
-0.06170851 0.079915583 0.26800001 4279509268
-0.060611043 0.079617396 0.26700002 4279640852
-0.059743829 0.079617396 0.26700002 4279246607
-0.058656093 0.079319201 0.266 4279641879
-0.057792127 0.079319201 0.266 4279774746
-0.056714147 0.079021007 0.26500002 4279642647
-0.055642653 0.078722812 0.264 4279838742
-0.054785181 0.078722812 0.264 4279443473
-0.05372344 0.078424625 0.26300001 4279311119
-0.052668195 0.078126438 0.26200002 4279312402
-0.051817216 0.078126438 0.26200002 4279515158
-0.050771713 0.077828236 0.26100001 4279911713
-0.049732704 0.077530049 0.26000002 4279649824
-0.048888225 0.077530049 0.26000002 4279715617
-0.047858957 0.077231854 0.259 4279715615
-0.047017727 0.077231854 0.259 4279715615
-0.046176493 0.077231854 0.259 4279651105
-0.045335259 0.077231854 0.259 4279124761
-0.044322237 0.07693366 0.25800002 4279257631
-0.043484252 0.07693366 0.25800002 4279587109
-0.071464106 0.081992112 0.27200001 4281088308
-0.070580646 0.081992112 0.27200001 4281154354
-0.069697186 0.081992112 0.27200001 4281088559
-0.068560742 0.081690677 0.27100003 4280761128
-0.067680538 0.081690677 0.27100003 4280894762
-0.066800326 0.081690677 0.27100003 4280764460
-0.065676868 0.081389233 0.27000001 4280437032
-0.064559907 0.08108779 0.26900002 4280108580
-0.063686199 0.08108779 0.26900002 4280108067
-0.062578976 0.080786347 0.26800001 4280172323
-0.06170851 0.080786347 0.26800001 4279443986
-0.060611043 0.080484904 0.26700002 4279376912
-0.059743829 0.080484904 0.26700002 4279376912
-0.058656093 0.080183461 0.266 4279772438
-0.057792127 0.080183461 0.266 4279312914
-0.056714147 0.079882026 0.26500002 4279312402
-0.055642653 0.079580575 0.264 4279378195
-0.054785181 0.079580575 0.264 4279904539
-0.05372344 0.07927914 0.26300001 4279378195
-0.052668195 0.078977704 0.26200002 4279311889
-0.051817216 0.078977704 0.26200002 4280172325
-0.050771713 0.078676254 0.26100001 4278593804
-0.049732704 0.078374818 0.26000002 4279977254
-0.048888225 0.078374818 0.26000002 4279845920
-0.047858957 0.078073367 0.259 4279715102
-0.047017727 0.078073367 0.259 4279715102
-0.046176493 0.078073367 0.259 4279846942
-0.045160219 0.077771932 0.25800002 4279584283
-0.044322237 0.077771932 0.25800002 4279256347
-0.043484252 0.077771932 0.25800002 4279190554
-0.071464106 0.082875863 0.27200001 4281153071
-0.070580646 0.082875863 0.27200001 4281021483
-0.069697186 0.082875863 0.27200001 4280955690
-0.068560742 0.082571179 0.27100003 4280889897
-0.067680538 0.082571179 0.27100003 4280627747
-0.066553831 0.08226648 0.27000001 4280893481
-0.065676868 0.08226648 0.27000001 4280108326
-0.064559907 0.081961796 0.26900002 4280174373
-0.063449442 0.081657097 0.26800001 4280174373
-0.062578976 0.081657097 0.26800001 4280173860
-0.061478257 0.081352413 0.26700002 4280171555
-0.060611043 0.081352413 0.26700002 4279511063
-0.059520062 0.081047714 0.266 4279508498
-0.058656093 0.081047714 0.266 4279574291
-0.057574868 0.08074303 0.26500002 4279180303
-0.056714147 0.08074303 0.26500002 4279706647
-0.055642653 0.080438331 0.264 4279906334
-0.054785181 0.080438331 0.264 4280038688
-0.05372344 0.080133647 0.26300001 4280497958
-0.052869216 0.080133647 0.26300001 4279443988
-0.051817216 0.079828963 0.26200002 4279908129
-0.050771713 0.079524264 0.26100001 4279778850
-0.049923982 0.079524264 0.26100001 4278856978
-0.048888225 0.07921958 0.26000002 4279646494
-0.048043747 0.07921958 0.26000002 4279780125
-0.047017727 0.078914881 0.259 4279715102
-0.046176493 0.078914881 0.259 4279846688
-0.045335259 0.078914881 0.259 4279649822
-0.044322237 0.078610197 0.25800002 4279453213
-0.043484252 0.078610197 0.25800002 4279387933
-0.071464106 0.083759621 0.27200001 4281218862
-0.070580646 0.083759621 0.27200001 4280955690
-0.069697186 0.083759621 0.27200001 4281021483
-0.068813734 0.083759621 0.27200001 4280889638
-0.067680538 0.083451688 0.27100003 4280560673
-0.066553831 0.083143741 0.27000001 4280495393
-0.065676868 0.083143741 0.27000001 4280169504
-0.064319901 0.082527861 0.26800001 4280435749
-0.063449442 0.082527861 0.26800001 4280108580
-0.062345475 0.082219921 0.26700002 4280108580
-0.061478257 0.082219921 0.26700002 4280174373
-0.060611043 0.082219921 0.26700002 4280108580
-0.059520062 0.081911981 0.266 4279971612
-0.058656093 0.081911981 0.266 4279246607
-0.057574868 0.081604041 0.26500002 4279442705
-0.056714147 0.081604041 0.26500002 4279640854
-0.055642653 0.081296101 0.264 4280302114
-0.054785181 0.081296101 0.264 4279645211
-0.05372344 0.080988161 0.26300001 4279116303
-0.052869216 0.080988161 0.26300001 4279181328
-0.051817216 0.080680229 0.26200002 4280369704
-0.050771713 0.080372281 0.26100001 4279976742
-0.049923982 0.080372281 0.26100001 4279779877
-0.048888225 0.080064349 0.26000002 4279120920
-0.048043747 0.080064349 0.26000002 4278988049
-0.047017727 0.079756401 0.259 4279779613
-0.046176493 0.079756401 0.259 4279715104
-0.045335259 0.079756401 0.259 4279781410
-0.044322237 0.079448462 0.25800002 4279519008
-0.043484252 0.079448462 0.25800002 4279453215
-0.064319901 0.083398618 0.26800001 4280364575
-0.063212693 0.083087437 0.26700002 4279974944
-0.062345475 0.083087437 0.26700002 4280108580
-0.061478257 0.083087437 0.26700002 4279845922
-0.060384035 0.082776241 0.266 4279911713
-0.059520062 0.082776241 0.266 4279911713
-0.058656093 0.082776241 0.266 4280172323
-0.057574868 0.08246506 0.26500002 4279443475
-0.056714147 0.08246506 0.26500002 4279376912
-0.055642653 0.082153864 0.264 4279180301
-0.054785181 0.082153864 0.264 4279905819
-0.05372344 0.081842676 0.26300001 4279905819
-0.052869216 0.081842676 0.26300001 4279378191
-0.051817216 0.081531495 0.26200002 4280107295
-0.050966244 0.081531495 0.26200002 4279976992
-0.049923982 0.081220299 0.26100001 4279649313
-0.048888225 0.080909111 0.26000002 4279648543
-0.048043747 0.080909111 0.26000002 4280105762
-0.047017727 0.080597922 0.259 4278724109
-0.046176493 0.080597922 0.259 4279779615
-0.045335259 0.080597922 0.259 4279649311
-0.044322237 0.080286734 0.25800002 4279517725
-0.043484252 0.080286734 0.25800002 4279584031
-0.064079911 0.083954945 0.26700002 4280232221
-0.063212693 0.083954945 0.26700002 4280036639
-0.062345475 0.083954945 0.26700002 4280104994
-0.061478257 0.083954945 0.26700002 4280043301
-0.060384035 0.083640508 0.266 4279911713
-0.059520062 0.083640508 0.266 4280240676
-0.058656093 0.083640508 0.266 4279911711
-0.057574868 0.083326072 0.26500002 4280171807
-0.056714147 0.083326072 0.26500002 4279444498
-0.055853423 0.083326072 0.26500002 4279442705
-0.054785181 0.083011627 0.264 4279639569
-0.053927708 0.083011627 0.264 4279311889
-0.052869216 0.08269719 0.26300001 4279575572
-0.051817216 0.082382761 0.26200002 4279976479
-0.050966244 0.082382761 0.26200002 4279977506
-0.049923982 0.082068317 0.26100001 4279780897
-0.048888225 0.08175388 0.26000002 4279450650
-0.048043747 0.08175388 0.26000002 4280173090
-0.047017727 0.081439443 0.259 4280238883
-0.046176493 0.081439443 0.259 4278659086
-0.045335259 0.081439443 0.259 4278856463
-0.044494029 0.081439443 0.259 4279648541
-0.043652795 0.081439443 0.259 4279715102
-0.064079911 0.084822461 0.26700002 4280363040
-0.063212693 0.084822461 0.26700002 4280034588
-0.062345475 0.084822461 0.26700002 4280363553
-0.061478257 0.084822461 0.26700002 4279842074
-0.060384035 0.084504768 0.266 4280370467
-0.059520062 0.084504768 0.266 4280174369
-0.058656093 0.084504768 0.266 4280174369
-0.057574868 0.084187083 0.26500002 4280108578
-0.056714147 0.084187083 0.26500002 4280174371
-0.055853423 0.084187083 0.26500002 4280168221
-0.054785181 0.08386939 0.264 4279443473
-0.053927708 0.08386939 0.264 4279574291
-0.052869216 0.083551712 0.26300001 4279641877
-0.052014988 0.083551712 0.26300001 4280042274
-0.050966244 0.083234027 0.26200002 4279911201
-0.049923982 0.082916334 0.26100001 4279250453
-0.049076252 0.082916334 0.26100001 4279249172
-0.048043747 0.082598649 0.26000002 4278986252
-0.047199264 0.082598649 0.26000002 4280304163
-0.046176493 0.082280956 0.259 4280042274
-0.045335259 0.082280956 0.259 4278988562
-0.044494029 0.082280956 0.259 4279118867
-0.043652795 0.082280956 0.259 4280042272
-0.063212693 0.085689962 0.26700002 4280428833
-0.062345475 0.085689962 0.26700002 4280034588
-0.061478257 0.085689962 0.26700002 4279904026
-0.060384035 0.085369021 0.266 4279313682
-0.059520062 0.085369021 0.266 4280107813
-0.058656093 0.085369021 0.266 4280174119
-0.057574868 0.085048094 0.26500002 4280108580
-0.056714147 0.085048094 0.26500002 4279976992
-0.055853423 0.085048094 0.26500002 4280173858
-0.054785181 0.084727146 0.264 4279711256
-0.053927708 0.084727146 0.264 4279444498
-0.052869216 0.084406219 0.26300001 4280630309
-0.052014988 0.084406219 0.26300001 4280042274
-0.050966244 0.084085286 0.26200002 4279779615
-0.049923982 0.083764344 0.26100001 4279510293
-0.049076252 0.083764344 0.26100001 4279443986
-0.048043747 0.083443411 0.26000002 4279312398
-0.047199264 0.083443411 0.26000002 4278985484
-0.046176493 0.083122469 0.259 4279844895
-0.045335259 0.083122469 0.259 4279976994
-0.044494029 0.083122469 0.259 4280304424
-0.043652795 0.083122469 0.259 4279053842
-0.063212693 0.086557478 0.26700002 4280297247
-0.062345475 0.086557478 0.26700002 4279968795
-0.061478257 0.086557478 0.26700002 4279772186
-0.060384035 0.086233288 0.266 4279903772
-0.059520062 0.086233288 0.266 4279445272
-0.058656093 0.086233288 0.266 4280040485
-0.057574868 0.085909106 0.26500002 4280371752
-0.056714147 0.085909106 0.26500002 4280240166
-0.055853423 0.085909106 0.26500002 4280108580
-0.054785181 0.085584916 0.264 4279976994
-0.053927708 0.085584916 0.264 4280042020
-0.052869216 0.085260734 0.26300001 4280107045
-0.052014988 0.085260734 0.26300001 4279844895
-0.050966244 0.084936552 0.26200002 4280108067
-0.050115265 0.084936552 0.26200002 4279444500
-0.049076252 0.084612362 0.26100001 4279443475
-0.048043747 0.08428818 0.26000002 4279640600
-0.047199264 0.08428818 0.26000002 4279444502
-0.046176493 0.08396399 0.259 4279712287
-0.045335259 0.08396399 0.259 4279384092
-0.044494029 0.08396399 0.259 4279910947
-0.043652795 0.08396399 0.259 4279713055
-0.064079911 0.087424986 0.26700002 4280428833
-0.063212693 0.087424986 0.26700002 4280297247
-0.062345475 0.087424986 0.26700002 4280297247
-0.061478257 0.087424986 0.26700002 4280099868
-0.060611043 0.087424986 0.26700002 4279903002
-0.059520062 0.087097548 0.266 4279837979
-0.058656093 0.087097548 0.266 4279838233
-0.057792127 0.087097548 0.266 4279711004
-0.056714147 0.086770117 0.26500002 4280239653
-0.055853423 0.086770117 0.26500002 4280109094
-0.054785181 0.086442679 0.264 4279977508
-0.053927708 0.086442679 0.264 4280109094
-0.052869216 0.086115249 0.26300001 4280043301
-0.052014988 0.086115249 0.26300001 4279119635
-0.050966244 0.085787818 0.26200002 4279317016
-0.050115265 0.085787818 0.26200002 4280236321
-0.049076252 0.08546038 0.26100001 4279444500
-0.048228528 0.08546038 0.26100001 4279509268
-0.047199264 0.085132949 0.26000002 4279772951
-0.046354782 0.085132949 0.26000002 4279644443
-0.045335259 0.084805511 0.259 4279908129
-0.044494029 0.084805511 0.259 4279449113
-0.043652795 0.084805511 0.259 4279975457
-0.064079911 0.088292502 0.26700002 4280429346
-0.063212693 0.088292502 0.26700002 4280363040
-0.062345475 0.088292502 0.26700002 4280297247
-0.061478257 0.088292502 0.26700002 4280034075
-0.060611043 0.088292502 0.26700002 4280034075
-0.059520062 0.087961815 0.266 4280099868
-0.058656093 0.087961815 0.266 4279968536
-0.057792127 0.087961815 0.266 4280034840
-0.056714147 0.087631136 0.26500002 4280365088
-0.055853423 0.087631136 0.26500002 4280173606
-0.054785181 0.087300442 0.264 4280239912
-0.053927708 0.087300442 0.264 4280108580
-0.052869216 0.086969763 0.26300001 4280108580
-0.052014988 0.086969763 0.26300001 4280108580
-0.050966244 0.086639084 0.26200002 4279713057
-0.050115265 0.086639084 0.26200002 4279315732
-0.049076252 0.086308397 0.26100001 4280235551
-0.048228528 0.086308397 0.26100001 4279642901
-0.047199264 0.085977718 0.26000002 4280236321
-0.046354782 0.085977718 0.26000002 4279052560
-0.0455103 0.085977718 0.26000002 4280368932
-0.044494029 0.085647024 0.259 4280633641
-0.043652795 0.085647024 0.259 4279317781
-0.064079911 0.089160003 0.26700002 4280363553
-0.063212693 0.089160003 0.26700002 4280363040
-0.062345475 0.089160003 0.26700002 4280165661
-0.061478257 0.089160003 0.26700002 4280034075
-0.060611043 0.089160003 0.26700002 4279836696
-0.059743829 0.089160003 0.26700002 4279968282
-0.058656093 0.088826068 0.266 4279968282
-0.057792127 0.088826068 0.266 4280165915
-0.056714147 0.08849214 0.26500002 4280297501
-0.055853423 0.08849214 0.26500002 4280234788
-0.054785181 0.088158198 0.264 4280303657
-0.053927708 0.088158198 0.264 4280108326
-0.052869216 0.08782427 0.26300001 4280174373
-0.052014988 0.08782427 0.26300001 4279977508
-0.050966244 0.087490343 0.26200002 4279977508
-0.050115265 0.087490343 0.26200002 4279976740
-0.049076252 0.087156408 0.26100001 4278856465
-0.048228528 0.087156408 0.26100001 4279776283
-0.047380798 0.087156408 0.26100001 4280500518
-0.046354782 0.08682248 0.26000002 4279974944
-0.0455103 0.08682248 0.26000002 4279777819
-0.044494029 0.086488537 0.259 4279975711
-0.043652795 0.086488537 0.259 4279251475
-0.064319901 0.090364695 0.26800001 4280297249
-0.063212693 0.090027519 0.26700002 4280297247
-0.062345475 0.090027519 0.26700002 4280099868
-0.061478257 0.090027519 0.26700002 4280099868
-0.060611043 0.090027519 0.26700002 4280099868
-0.059743829 0.090027519 0.26700002 4280034075
-0.058656093 0.089690328 0.266 4280296731
-0.057792127 0.089690328 0.266 4280100122
-0.056714147 0.089353152 0.26500002 4280165915
-0.055853423 0.089353152 0.26500002 4280231967
-0.054785181 0.089015968 0.264 4280496422
-0.053927708 0.089015968 0.264 4280566313
-0.052869216 0.088678785 0.26300001 4280633641
-0.052014988 0.088678785 0.26300001 4280174373
-0.051160768 0.088678785 0.26300001 4280043301
-0.050115265 0.088341609 0.26200002 4280043301
-0.049264286 0.088341609 0.26200002 4279977254
-0.048228528 0.088004425 0.26100001 4279382039
-0.047380798 0.088004425 0.26100001 4279052820
-0.046354782 0.087667249 0.26000002 4279844643
-0.0455103 0.087667249 0.26000002 4279515676
-0.044665825 0.087667249 0.26000002 4279317014
-0.043652795 0.087330058 0.259 4279317014
-0.062345475 0.090895027 0.26700002 4280034075
-0.061478257 0.090895027 0.26700002 4280099868
-0.060611043 0.090895027 0.26700002 4280034075
-0.059743829 0.090895027 0.26700002 4280164891
-0.058656093 0.090554595 0.266 4280164891
-0.057792127 0.090554595 0.266 4280296731
-0.056714147 0.090214163 0.26500002 4280296731
-0.055853423 0.090214163 0.26500002 4280626212
-0.054785181 0.089873731 0.264 4280889384
-0.053927708 0.089873731 0.264 4281022505
-0.052869216 0.089533307 0.26300001 4280891944
-0.052014988 0.089533307 0.26300001 4280632104
-0.051160768 0.089533307 0.26300001 4280305192
-0.050115265 0.089192875 0.26200002 4279977254
-0.049264286 0.089192875 0.26200002 4279978024
-0.048228528 0.088852443 0.26100001 4279977254
-0.047380798 0.088852443 0.26100001 4280371500
-0.046354782 0.088512011 0.26000002 4279184406
-0.0455103 0.088512011 0.26000002 4279712033
-0.044665825 0.088512011 0.26000002 4279976227
-0.043652795 0.088171579 0.259 4280173606
-0.042811561 0.088171579 0.259 4279382807
-0.062578976 0.092106216 0.26800001 4280034075
-0.061478257 0.091762543 0.26700002 4280034329
-0.060611043 0.091762543 0.26700002 4279968536
-0.059743829 0.091762543 0.26700002 4280100122
-0.058876611 0.091762543 0.26700002 4280428317
-0.057792127 0.091418855 0.266 4280428317
-0.056928158 0.091418855 0.266 4280296731
-0.056064188 0.091418855 0.266 4280888614
-0.054785181 0.090731494 0.264 4281217579
-0.053927708 0.090731494 0.264 4281217579
-0.052869216 0.090387821 0.26300001 4281481521
-0.052014988 0.090387821 0.26300001 4283195469
-0.051160768 0.090387821 0.26300001 4280697385
-0.050115265 0.090044141 0.26200002 4280503084
-0.049264286 0.090044141 0.26200002 4280108842
-0.048228528 0.08970046 0.26100001 4280043049
-0.047380798 0.08970046 0.26100001 4280043049
-0.046354782 0.08935678 0.26000002 4279975205
-0.0455103 0.08935678 0.26000002 4278856213
-0.044665825 0.08935678 0.26000002 4279843873
-0.043652795 0.0890131 0.259 4279976229
-0.042811561 0.0890131 0.259 4279778848
-0.062578976 0.09297698 0.26800001 4280165661
-0.061478257 0.092630051 0.26700002 4280230938
-0.060611043 0.092630051 0.26700002 4280034329
-0.059743829 0.092630051 0.26700002 4280165915
-0.058876611 0.092630051 0.26700002 4280297501
-0.058009397 0.092630051 0.26700002 4280100122
-0.057142179 0.092630051 0.26700002 4280363294
-0.056274962 0.092630051 0.26700002 4280626212
-0.055407744 0.092630051 0.26700002 4281020970
-0.05454053 0.092630051 0.26700002 4281284144
-0.052869216 0.091242336 0.26300001 4281414960
-0.052014988 0.091242336 0.26300001 4286614658
-0.051160768 0.091242336 0.26300001 4286155134
-0.050115265 0.090895407 0.26200002 4283261264
-0.049264286 0.090895407 0.26200002 4280895794
-0.048228528 0.090548478 0.26100001 4280306221
-0.047380798 0.090548478 0.26100001 4280108842
-0.046354782 0.090201549 0.26000002 4280043049
-0.0455103 0.090201549 0.26000002 4280108328
-0.044665825 0.090201549 0.26000002 4279513623
-0.043652795 0.089854613 0.259 4279053072
-0.042811561 0.089854613 0.259 4280042020
-0.041970331 0.089854613 0.259 4279318297
-0.062578976 0.093847729 0.26800001 4280100122
-0.061478257 0.093497559 0.26700002 4280100122
-0.060611043 0.093497559 0.26700002 4280165915
-0.059743829 0.093497559 0.26700002 4280099868
-0.058876611 0.093497559 0.26700002 4280165661
-0.058009397 0.093497559 0.26700002 4280231967
-0.057142179 0.093497559 0.26700002 4280297760
-0.056274962 0.093497559 0.26700002 4280889384
-0.055407744 0.093497559 0.26700002 4281086763
-0.05454053 0.093497559 0.26700002 4281414958
-0.053673312 0.093497559 0.26700002 4283849048
-0.052014988 0.092096843 0.26300001 4286482304
-0.051160768 0.092096843 0.26300001 4286680453
-0.050115265 0.091746666 0.26200002 4286614407
-0.049264286 0.091746666 0.26200002 4285694071
-0.048413314 0.091746666 0.26200002 4281552442
-0.047380798 0.091396488 0.26100001 4280633905
-0.046533067 0.091396488 0.26100001 4279978026
-0.0455103 0.091046311 0.26000002 4279781158
-0.044665825 0.091046311 0.26000002 4280108840
-0.043652795 0.090696126 0.259 4280042020
-0.042811561 0.090696126 0.259 4278789902
-0.041970331 0.090696126 0.259 4280107045
-0.050115265 0.092597939 0.26200002 4286942602
-0.049264286 0.092597939 0.26200002 4286811016
-0.048413314 0.092597939 0.26200002 4286878857
-0.047380798 0.092244506 0.26100001 4282471748
-0.046533067 0.092244506 0.26100001 4281028145
-0.0455103 0.09189108 0.26000002 4280503084
-0.044665825 0.09189108 0.26000002 4280108840
-0.043652795 0.091537647 0.259 4280043047
-0.042811561 0.091537647 0.259 4279976229
-0.041970331 0.091537647 0.259 4278987797
-0.0455103 0.092735849 0.26000002 4281223729
-0.044665825 0.092735849 0.26000002 4280502571
-0.043652795 0.092379168 0.259 4280108842
-0.042811561 0.092379168 0.259 4279977256
-0.041970331 0.092379168 0.259 4279977256
-0.055746209 0.080877304 0.26450089 4294967295
-0.055746209 0.080877304 0.26450089 4294901760
-0.055746209 0.080877304 0.26500088 4294901760
-0.055746209 0.080877304 0.26550087 4294901760
-0.055746209 0.080877304 0.2660009 4294901760
-0.055746209 0.080877304 0.26650089 4294901760
-0.055746209 0.080877304 0.26700088 4294901760
-0.055746209 0.080877304 0.26750088 4294901760
-0.055746209 0.080877304 0.2680009 4294901760
-0.055746209 0.080877304 0.26850089 4294901760
-0.055746209 0.080877304 0.26900089 4294901760
-0.055746209 0.080877304 0.26950088 4294901760
-0.055746209 0.080877304 0.27000087 4294901760
-0.055746209 0.080877304 0.2705009 4294901760
-0.055746209 0.080877304 0.27100089 4294901760
-0.055746209 0.080877304 0.27150089 4294901760
-0.055746209 0.080877304 0.27200088 4294901760
-0.055746209 0.080877304 0.27250087 4294901760
-0.055746209 0.080877304 0.2730009 4294901760
-0.055746209 0.080877304 0.27350089 4294901760
-0.055746209 0.080877304 0.27400088 4294901760
-0.055746209 0.080877304 0.27450088 4294901760
-0.055746209 0.080877304 0.2750009 4294901760
-0.055746209 0.080877304 0.27550089 4294901760
-0.055746209 0.080877304 0.27600089 4294901760
-0.055746209 0.080877304 0.27650088 4294901760
-0.055746209 0.080877304 0.2770009 4294901760
-0.055746209 0.080877304 0.2775009 4294901760
-0.055746209 0.080877304 0.27800089 4294901760
-0.055746209 0.080877304 0.27850088 4294901760
-0.055746209 0.080877304 0.27900088 4294901760
-0.055746209 0.080877304 0.2795009 4294901760
-0.055746209 0.080877304 0.2800009 4294901760
-0.055746209 0.080877304 0.28050089 4294901760
-0.055746209 0.080877304 0.28100088 4294901760
-0.055746209 0.080877304 0.28150088 4294901760
-0.055746209 0.080877304 0.2820009 4294901760
-0.055746209 0.080877304 0.28250089 4294901760
-0.055746209 0.080877304 0.28300089 4294901760
-0.055746209 0.080877304 0.28350088 4294901760
-0.055746209 0.080877304 0.2840009 4294901760
-0.055746209 0.080877304 0.2845009 4294901760
-0.055746209 0.080877304 0.28500089 4294901760
-0.055746209 0.080877304 0.28550088 4294901760
-0.055746209 0.080877304 0.28600091 4294901760
-0.055746209 0.080877304 0.2865009 4294901760
-0.055746209 0.080877304 0.28700089 4294901760
-0.055746209 0.080877304 0.28750089 4294901760
-0.055746209 0.080877304 0.28800088 4294901760
-0.055746209 0.080877304 0.28850091 4294901760
-0.055746209 0.080877304 0.2890009 4294901760
-0.055746209 0.080877304 0.28950089 4294901760
-0.055746209 0.080877304 0.29000089 4294901760
-0.055746209 0.080877304 0.29050088 4294901760
-0.055746209 0.080877304 0.2910009 4294901760
-0.055746209 0.080877304 0.2915009 4294901760
-0.055746209 0.080877304 0.29200089 4294901760
-0.055746209 0.080877304 0.29250088 4294901760
-0.055746209 0.080877304 0.29300088 4294901760
-0.055746209 0.080877304 0.2935009 4294901760
-0.055746209 0.080877304 0.29400089 4294901760
-0.055746209 0.080877304 0.29450089 4294901760
-0.055746209 0.080877304 0.29500088 4294901760
-0.055746209 0.080877304 0.2955009 4294901760
-0.055746209 0.080877304 0.2960009 4294901760
-0.055746209 0.080877304 0.29650089 4294901760
-0.055746209 0.080877304 0.29700089 4294901760
-0.055746209 0.080877304 0.29750091 4294901760
-0.055746209 0.080877304 0.2980009 4294901760
-0.055746209 0.080877304 0.2985009 4294901760
-0.055746209 0.080877304 0.29900089 4294901760
-0.055746209 0.080877304 0.29950088 4294901760
-0.055746209 0.080877304 0.30000091 4294901760
-0.055746209 0.080877304 0.3005009 4294901760
-0.055746209 0.080877304 0.30100089 4294901760
-0.055746209 0.080877304 0.30150089 4294901760
-0.055746209 0.080877304 0.30200088 4294901760
-0.055746209 0.080877304 0.3025009 4294901760
-0.055746209 0.080877304 0.3030009 4294901760
-0.055746209 0.080877304 0.30350089 4294901760
-0.055746209 0.080877304 0.30400088 4294901760
-0.055746209 0.080877304 0.30450091 4294901760
-0.055746209 0.080877304 0.3050009 4294901760
-0.055746209 0.080877304 0.30550089 4294901760
-0.055746209 0.080877304 0.30600089 4294901760
-0.055746209 0.080877304 0.30650088 4294901760
-0.055746209 0.080877304 0.30700091 4294901760
-0.055746209 0.080877304 0.3075009 4294901760
-0.055746209 0.080877304 0.30800089 4294901760
-0.055746209 0.080877304 0.30850089 4294901760
-0.055746209 0.080877304 0.30900091 4294901760
-0.055746209 0.080877304 0.3095009 4294901760
-0.055746209 0.080877304 0.3100009 4294901760
-0.055746209 0.080877304 0.31050089 4294901760
-0.055746209 0.080877304 0.31100088 4294901760
-0.055746209 0.080877304 0.31150091 4294901760
-0.055746209 0.080877304 0.3120009 4294901760
-0.055746209 0.080877304 0.31250089 4294901760
-0.055746209 0.080877304 0.31300089 4294901760
-0.055746209 0.080877304 0.31350091 4294901760
-0.055746209 0.080877304 0.3140009 4294901760
-0.055746209 0.080877304 0.3145009 4294901760
-0.055746209 0.080877304 0.26450089 4278255360
-0.055508733 0.080857538 0.26494044 4278255360
-0.05527126 0.080837764 0.26538002 4278255360
-0.055033784 0.080817997 0.26581958 4278255360
-0.054796312 0.080798231 0.26625913 4278255360
-0.054558836 0.080778457 0.26669869 4278255360
-0.05432136 0.080758691 0.26713827 4278255360
-0.054083887 0.080738924 0.26757783 4278255360
-0.053846411 0.080719151 0.26801738 4278255360
-0.053608939 0.080699384 0.26845694 4278255360
-0.053371463 0.080679618 0.26889652 4278255360
-0.053133987 0.080659844 0.26933607 4278255360
-0.052896515 0.080640078 0.26977563 4278255360
-0.052659038 0.080620311 0.27021518 4278255360
-0.052421566 0.080600537 0.27065477 4278255360
-0.05218409 0.080580771 0.27109432 4278255360
-0.051946618 0.080561005 0.27153388 4278255360
-0.051709142 0.080541231 0.27197343 4278255360
-0.051471666 0.080521464 0.27241302 4278255360
-0.051234193 0.080501698 0.27285257 4278255360
-0.050996717 0.080481924 0.27329212 4278255360
-0.050759245 0.080462158 0.27373168 4278255360
-0.050521769 0.080442391 0.27417126 4278255360
-0.050284293 0.080422617 0.27461082 4278255360
-0.05004682 0.080402851 0.27505037 4278255360
-0.049809344 0.080383085 0.27548993 4278255360
-0.049571872 0.080363311 0.27592951 4278255360
-0.049334396 0.080343544 0.27636907 4278255360
-0.04909692 0.080323778 0.27680862 4278255360
-0.048859447 0.080304004 0.2772482 4278255360
-0.048621971 0.080284238 0.27768776 4278255360
-0.048384499 0.080264471 0.27812731 4278255360
-0.048147023 0.080244698 0.27856687 4278255360
-0.04790955 0.080224931 0.27900645 4278255360
-0.047672074 0.080205165 0.27944601 4278255360
-0.047434598 0.080185391 0.27988556 4278255360
-0.047197126 0.080165625 0.28032511 4278255360
-0.04695965 0.080145858 0.2807647 4278255360
-0.046722174 0.080126084 0.28120425 4278255360
-0.046484701 0.080106318 0.28164381 4278255360
-0.046247225 0.080086552 0.28208336 4278255360
-0.046009753 0.080066778 0.28252295 4278255360
-0.045772277 0.080047011 0.2829625 4278255360
-0.045534804 0.080027245 0.28340206 4278255360
-0.045297328 0.080007471 0.28384161 4278255360
-0.045059852 0.079987705 0.28428119 4278255360
-0.04482238 0.079967938 0.28472075 4278255360
-0.044584904 0.079948165 0.2851603 4278255360
-0.044347432 0.079928398 0.28559986 4278255360
-0.044109955 0.079908632 0.28603944 4278255360
-0.043872483 0.079888865 0.286479 4278255360
-0.043635007 0.079869092 0.28691855 4278255360
-0.043397531 0.079849325 0.28735811 4278255360
-0.043160059 0.079829559 0.28779769 4278255360
-0.042922582 0.079809785 0.28823724 4278255360
-0.042685106 0.079790018 0.2886768 4278255360
-0.042447634 0.079770252 0.28911638 4278255360
-0.042210162 0.079750478 0.28955594 4278255360
-0.041972686 0.079730712 0.28999549 4278255360
-0.04173521 0.079710945 0.29043505 4278255360
-0.041497737 0.079691172 0.29087463 4278255360
-0.041260261 0.079671405 0.29131418 4278255360
-0.041022785 0.079651639 0.29175374 4278255360
-0.040785313 0.079631865 0.29219329 4278255360
-0.040547837 0.079612099 0.29263288 4278255360
-0.040310364 0.079592332 0.29307243 4278255360
-0.040072888 0.079572558 0.29351199 4278255360
-0.039835416 0.079552792 0.29395154 4278255360
-0.03959794 0.079533026 0.29439113 4278255360
-0.039360464 0.079513252 0.29483068 4278255360
-0.039122991 0.079493485 0.29527023 4278255360
-0.038885515 0.079473719 0.29570979 4278255360
-0.038648039 0.079453945 0.29614937 4278255360
-0.038410567 0.079434179 0.29658893 4278255360
-0.038173094 0.079414412 0.29702848 4278255360
-0.037935618 0.079394639 0.29746807 4278255360
-0.037698142 0.079374872 0.29790762 4278255360
-0.03746067 0.079355106 0.29834718 4278255360
-0.037223194 0.079335332 0.29878673 4278255360
-0.036985718 0.079315566 0.29922631 4278255360
-0.036748245 0.079295799 0.29966587 4278255360
-0.036510769 0.079276025 0.30010542 4278255360
-0.036273293 0.079256259 0.30054498 4278255360
-0.036035821 0.079236493 0.30098456 4278255360
-0.035798348 0.079216719 0.30142412 4278255360
-0.035560869 0.079196952 0.30186367 4278255360
-0.035323396 0.079177186 0.30230322 4278255360
-0.035085924 0.079157412 0.30274281 4278255360
-0.034848448 0.079137646 0.30318236 4278255360
-0.034610972 0.079117879 0.30362192 4278255360
-0.034373499 0.079098105 0.30406147 4278255360
-0.034136023 0.079078339 0.30450106 4278255360
-0.033898547 0.079058573 0.30494061 4278255360
-0.033661075 0.079038799 0.30538017 4278255360
-0.033423603 0.079019032 0.30581972 4278255360
-0.033186127 0.078999266 0.3062593 4278255360
-0.03294865 0.078979492 0.30669886 4278255360
-0.032711178 0.078959726 0.30713841 4278255360
-0.032473702 0.078939959 0.30757797 4278255360
-0.032236226 0.078920186 0.30801755 4278255360
-0.031998754 0.078900419 0.30845711 4278255360
