# .PCD v0.7 - Point Cloud Data file format
VERSION 0.7
FIELDS x y z rgb
SIZE 4 4 4 4
TYPE F F F U
COUNT 1 1 1 1
WIDTH 1064
HEIGHT 1
VIEWPOINT 0 0 0 1 0 0 0
POINTS 1064
DATA ascii
0.045270287 0.018532483 0.38600001 4278531345
0.046524014 0.018532483 0.38600001 4278599189
0.047653969 0.018484471 0.38500002 4278402837
0.04877742 0.01843646 0.384 4278205976
0.050024655 0.01843646 0.384 4278535195
0.033411406 0.020196723 0.39400002 4279904024
0.034691118 0.020196723 0.39400002 4279574291
0.035970829 0.020196723 0.39400002 4279639830
0.037155997 0.020145461 0.39300001 4279639317
0.038334671 0.020094201 0.39200002 4279441938
0.039506849 0.020042941 0.39100003 4279246096
0.040672526 0.019991679 0.39000002 4279576084
0.041831709 0.019940419 0.38900003 4278790670
0.0429844 0.019889157 0.38800001 4278660367
0.04413059 0.019837897 0.38700002 4278727441
0.045270287 0.019786635 0.38600001 4278794004
0.046403486 0.019735375 0.38500002 4278597908
0.047653969 0.019735375 0.38500002 4278598421
0.04877742 0.019684114 0.384 4278533910
0.050024655 0.019684114 0.384 4278337044
0.051271889 0.019684114 0.384 4278337044
0.052519117 0.019684114 0.384 4278271249
0.057508048 0.019684114 0.384 4278469398
0.058602277 0.019632854 0.38300002 4278469398
0.059846263 0.019632854 0.38300002 4278666007
0.061090246 0.019632854 0.38300002 4278468628
0.062334232 0.019632854 0.38300002 4278600214
0.077010468 0.019889157 0.38800001 4278600214
0.078270689 0.019889157 0.38800001 4278600214
0.033411406 0.021476869 0.39400002 4279706645
0.034691118 0.021476869 0.39400002 4279508498
0.035970829 0.021476869 0.39400002 4279902743
0.037155997 0.021422358 0.39300001 4279837463
0.038334671 0.021367848 0.39200002 4279640084
0.039506849 0.021313339 0.39100003 4279443475
0.040672526 0.021258829 0.39000002 4279443986
0.041831709 0.021204319 0.38900003 4278789902
0.042873617 0.0210953 0.38700002 4278922769
0.04413059 0.0210953 0.38700002 4278727441
0.045270287 0.02104079 0.38600001 4278595855
0.046403486 0.020986279 0.38500002 4278925590
0.047653969 0.020986279 0.38500002 4278663699
0.04877742 0.020931769 0.384 4278335247
0.050024655 0.020931769 0.384 4278335247
0.051271889 0.020931769 0.384 4278336017
0.052519117 0.020931769 0.384 4278204431
0.057508048 0.020931769 0.384 4278270736
0.058755282 0.020931769 0.384 4278270736
0.060002517 0.020931769 0.384 4278270736
0.061249748 0.020931769 0.384 4278203915
0.062496983 0.020931769 0.384 4278336015
0.063744217 0.020931769 0.384 4278336015
0.064991444 0.020931769 0.384 4278401808
0.066411175 0.020986279 0.38500002 4278203917
0.067661658 0.020986279 0.38500002 4278204174
0.069091134 0.02104079 0.38600001 4278204431
0.070344858 0.02104079 0.38600001 4278204431
0.071784079 0.0210953 0.38700002 4278204943
0.073041059 0.0210953 0.38700002 4278270736
0.074490011 0.021149809 0.38800001 4278204943
0.075750239 0.021149809 0.38800001 4278336529
0.077010468 0.021149809 0.38800001 4278204429
0.078270689 0.021149809 0.38800001 4278204172
0.07953091 0.021149809 0.38800001 4278336015
0.033411406 0.022757014 0.39400002 4279508496
0.034691118 0.022757014 0.39400002 4279836950
0.035970829 0.022757014 0.39400002 4280034329
0.037155997 0.022699254 0.39300001 4279837463
0.038334671 0.022641497 0.39200002 4279969049
0.039506849 0.022583738 0.39100003 4279904026
0.04056824 0.02246822 0.38900003 4279443986
0.041724171 0.02241046 0.38800001 4278856211
0.042873617 0.022352701 0.38700002 4278857748
0.044016559 0.022294942 0.38600001 4278924820
0.045270287 0.022294942 0.38600001 4279187992
0.046403486 0.022237184 0.38500002 4278860308
0.047653969 0.022237184 0.38500002 4278729492
0.04877742 0.022179425 0.384 4278400527
0.050024655 0.022179425 0.384 4278400527
0.051271889 0.022179425 0.384 4278335247
0.052519117 0.022179425 0.384 4278466833
0.053766351 0.022179425 0.384 4278335247
0.055013586 0.022179425 0.384 4278795798
0.05626082 0.022179425 0.384 4278335247
0.057508048 0.022179425 0.384 4278335247
0.058755282 0.022179425 0.384 4278269454
0.060002517 0.022179425 0.384 4278203661
0.061249748 0.022179425 0.384 4278200586
0.062496983 0.022179425 0.384 4278199303
0.063744217 0.022179425 0.384 4278268689
0.064991444 0.022179425 0.384 4278268943
0.066411175 0.022237184 0.38500002 4278334734
0.067661658 0.022237184 0.38500002 4278400527
0.069091134 0.022294942 0.38600001 4278269454
0.070344858 0.022294942 0.38600001 4278269454
0.071784079 0.022352701 0.38700002 4278269454
0.073041059 0.022352701 0.38700002 4278269454
0.074490011 0.02241046 0.38800001 4278335247
0.075750239 0.02241046 0.38800001 4278335247
0.077010468 0.02241046 0.38800001 4278466833
0.078270689 0.02241046 0.38800001 4278335247
0.07973589 0.02246822 0.38900003 4278532626
0.080999367 0.02246822 0.38900003 4278203661
0.082262844 0.02246822 0.38900003 4278334734
0.10021015 0.022814773 0.39500001 4278598417
0.10251589 0.022757014 0.39400002 4278598419
0.1037956 0.022757014 0.39400002 4278466833
0.10507532 0.022757014 0.39400002 4278532626
0.10635503 0.022757014 0.39400002 4278466833
0.10763474 0.022757014 0.39400002 4278466831
0.10891445 0.022757014 0.39400002 4278664210
0.11019417 0.022757014 0.39400002 4278532624
0.11147388 0.022757014 0.39400002 4278598419
0.11303977 0.022814773 0.39500001 4278203661
0.11432273 0.022814773 0.39500001 4278664214
0.033496205 0.024098167 0.39500001 4279771668
0.034691118 0.02403716 0.39400002 4279902741
0.037061453 0.023915144 0.39200002 4279969047
0.038236879 0.023854136 0.39100003 4279903254
0.039405808 0.023793127 0.39000002 4279706645
0.04056824 0.02373212 0.38900003 4279575572
0.041724171 0.023671111 0.38800001 4278987281
0.042873617 0.023610104 0.38700002 4279055127
0.044016559 0.023549095 0.38600001 4278727187
0.045153007 0.023488088 0.38500002 4278596371
0.046403486 0.023488088 0.38500002 4278597908
0.047653969 0.023488088 0.38500002 4278598421
0.04877742 0.023427079 0.384 4278532628
0.050024655 0.023427079 0.384 4278335249
0.051271889 0.023427079 0.384 4278466835
0.052519117 0.023427079 0.384 4278532626
0.053766351 0.023427079 0.384 4278334734
0.055013586 0.023427079 0.384 4278532113
0.05626082 0.023427079 0.384 4278334734
0.057508048 0.023427079 0.384 4278597906
0.058755282 0.023427079 0.384 4278400527
0.060002517 0.023427079 0.384 4278400529
0.061249748 0.023427079 0.384 4278198789
0.062496983 0.023427079 0.384 4278331404
0.063744217 0.023427079 0.384 4278399505
0.065160699 0.023488088 0.38500002 4278662931
0.066411175 0.023488088 0.38500002 4278530832
0.067661658 0.023488088 0.38500002 4278595855
0.069091134 0.023549095 0.38600001 4278464269
0.070344858 0.023549095 0.38600001 4278464269
0.071784079 0.023610104 0.38700002 4278727441
0.073041059 0.023610104 0.38700002 4278661648
0.074490011 0.023671111 0.38800001 4278530062
0.075750239 0.023671111 0.38800001 4278661648
0.077010468 0.023671111 0.38800001 4278530062
0.078270689 0.023671111 0.38800001 4278661648
0.07973589 0.02373212 0.38900003 4278596625
0.080999367 0.02373212 0.38900003 4278465552
0.082262844 0.02373212 0.38900003 4278530832
0.083741032 0.023793127 0.39000002 4278859797
0.085007749 0.023793127 0.39000002 4278333453
0.086274475 0.023793127 0.39000002 4278596371
0.087765656 0.023854136 0.39100003 4278859797
0.08903563 0.023854136 0.39100003 4278596625
0.093320444 0.023976151 0.39300001 4278859797
0.094596907 0.023976151 0.39300001 4278333453
0.096117325 0.02403716 0.39400002 4278924820
0.097397037 0.02403716 0.39400002 4279056406
0.098676749 0.02403716 0.39400002 4278465039
0.10021015 0.024098167 0.39500001 4278465039
0.10149312 0.024098167 0.39500001 4278859797
0.10251589 0.02403716 0.39400002 4278596625
0.1037956 0.02403716 0.39400002 4278727957
0.10507532 0.02403716 0.39400002 4278728211
0.10635503 0.02403716 0.39400002 4278859795
0.10763474 0.02403716 0.39400002 4278859025
0.10919088 0.024098167 0.39500001 4278859025
0.11047384 0.024098167 0.39500001 4278399244
0.11175681 0.024098167 0.39500001 4278597906
0.11332595 0.024159176 0.39600003 4278400529
0.11461216 0.024159176 0.39600003 4278532115
0.033496205 0.025381563 0.39500001 4279771670
0.034691118 0.025317308 0.39400002 4280034327
0.03587953 0.02525305 0.39300001 4280034327
0.037061453 0.025188792 0.39200002 4279705362
0.038236879 0.025124537 0.39100003 4279507983
0.039405808 0.025060279 0.39000002 4279443473
0.04056824 0.024996022 0.38900003 4279575570
0.041724171 0.024931764 0.38800001 4279053844
0.042873617 0.024867509 0.38700002 4279120918
0.044016559 0.024803249 0.38600001 4278727441
0.045153007 0.024738993 0.38500002 4278728211
0.046403486 0.024738993 0.38500002 4278729494
0.047653969 0.024738993 0.38500002 4278466835
0.04877742 0.024674736 0.384 4278466835
0.050024655 0.024674736 0.384 4278466835
0.051271889 0.024674736 0.384 4278269456
0.052519117 0.024674736 0.384 4278466835
0.053766351 0.024674736 0.384 4278335249
0.055156853 0.024738993 0.38500002 4278466835
0.056407336 0.024738993 0.38500002 4278466835
0.057508048 0.024674736 0.384 4278466833
0.058755282 0.024674736 0.384 4278532626
0.060002517 0.024674736 0.384 4278400529
0.061249748 0.024674736 0.384 4278197509
0.062496983 0.024674736 0.384 4278791701
0.063910216 0.024738993 0.38500002 4278858773
0.065160699 0.024738993 0.38500002 4278198532
0.066411175 0.024738993 0.38500002 4278195203
0.067837402 0.024803249 0.38600001 4278326019
0.069091134 0.024803249 0.38600001 4278326021
0.070344858 0.024803249 0.38600001 4278391300
0.071784079 0.024867509 0.38700002 4278325767
0.073041059 0.024867509 0.38700002 4278259974
0.074490011 0.024931764 0.38800001 4278325767
0.075750239 0.024931764 0.38800001 4278259974
0.077010468 0.024931764 0.38800001 4278259974
0.078472421 0.024996022 0.38900003 4278195205
0.07973589 0.024996022 0.38900003 4278195968
0.080999367 0.024996022 0.38900003 4278922769
0.082262844 0.024996022 0.38900003 4278725390
0.083741032 0.025060279 0.39000002 4278922771
0.085007749 0.025060279 0.39000002 4278988051
0.086274475 0.025060279 0.39000002 4278922258
0.087765656 0.025124537 0.39100003 4278922258
0.08903563 0.025124537 0.39100003 4278988051
0.090305597 0.025124537 0.39100003 4278922258
0.091809772 0.025188792 0.39200002 4278790672
0.093320444 0.02525305 0.39300001 4278790672
0.094596907 0.02525305 0.39300001 4278593293
0.096117325 0.025317308 0.39400002 4279053844
0.097397037 0.025317308 0.39400002 4278856465
0.098927192 0.025381563 0.39500001 4278593293
0.10021015 0.025381563 0.39500001 4278593293
0.10149312 0.025381563 0.39500001 4278461707
0.10277608 0.025381563 0.39500001 4278789648
0.10405904 0.025381563 0.39500001 4278921488
0.10534201 0.025381563 0.39500001 4278921488
0.10662497 0.025381563 0.39500001 4278921234
0.10790792 0.025381563 0.39500001 4278987027
0.10919088 0.025381563 0.39500001 4278921488
0.11075353 0.025445823 0.39600003 4278193920
0.11203974 0.025445823 0.39600003 4278728211
0.11361212 0.025510078 0.39700001 4278662931
0.11519101 0.025574338 0.39800003 4278531343
0.11736172 0.025767108 0.40100002 4278728720
0.11925601 0.025895622 0.40300003 4278728722
0.12056496 0.025895622 0.40300003 4278926101
0.029497208 0.026529947 0.39300001 4282273599
0.033411406 0.026597453 0.39400002 4279903256
0.034691118 0.026597453 0.39400002 4279573776
0.03587953 0.026529947 0.39300001 4279705362
0.036966912 0.026394935 0.39100003 4279573776
0.038139086 0.026327427 0.39000002 4279705362
0.039304767 0.026259923 0.38900003 4279443471
0.04046395 0.026192416 0.38800001 4279379475
0.041616637 0.02612491 0.38700002 4279055125
0.042873617 0.02612491 0.38700002 4278858259
0.044016559 0.026057404 0.38600001 4278727441
0.045153007 0.025989898 0.38500002 4278728211
0.046403486 0.025989898 0.38500002 4278861078
0.047653969 0.025989898 0.38500002 4278335247
0.04877742 0.02592239 0.384 4278466833
0.050024655 0.02592239 0.384 4278269454
0.051271889 0.02592239 0.384 4278466833
0.052519117 0.02592239 0.384 4278335247
0.053766351 0.02592239 0.384 4278335249
0.055013586 0.02592239 0.384 4278532628
0.056407336 0.025989898 0.38500002 4278269456
0.057508048 0.02592239 0.384 4278466835
0.058755282 0.02592239 0.384 4278400529
0.060002517 0.02592239 0.384 4278794517
0.061249748 0.02592239 0.384 4278195204
0.062659733 0.025989898 0.38500002 4279119383
0.063910216 0.025989898 0.38500002 4278989847
0.065160699 0.025989898 0.38500002 4278196742
0.066411175 0.025989898 0.38500002 4278259974
0.067837402 0.026057404 0.38600001 4278456839
0.069091134 0.026057404 0.38600001 4278522119
0.070527099 0.02612491 0.38700002 4278587912
0.071784079 0.02612491 0.38700002 4278654218
0.073041059 0.02612491 0.38700002 4278456839
0.074490011 0.026192416 0.38800001 4278522632
0.075750239 0.026192416 0.38800001 4278587912
0.077010468 0.026192416 0.38800001 4278522632
0.078472421 0.026259923 0.38900003 4278522632
0.07973589 0.026259923 0.38900003 4278197254
0.080999367 0.026259923 0.38900003 4278857748
0.082262844 0.026259923 0.38900003 4278858773
0.083741032 0.026327427 0.39000002 4278990359
0.085007749 0.026327427 0.39000002 4278858259
0.086274475 0.026327427 0.39000002 4279187224
0.087765656 0.026394935 0.39100003 4278858259
0.08903563 0.026394935 0.39100003 4279055638
0.090536557 0.026462441 0.39200002 4278989845
0.091809772 0.026462441 0.39200002 4278858259
0.093320444 0.026529947 0.39300001 4279318810
0.094596907 0.026529947 0.39300001 4279121431
0.096117325 0.026597453 0.39400002 4279121431
0.097397037 0.026597453 0.39400002 4279121431
0.098927192 0.026664959 0.39500001 4278989845
0.10021015 0.026664959 0.39500001 4278990359
0.10149312 0.026664959 0.39500001 4278924566
0.10277608 0.026664959 0.39500001 4278859027
0.10432249 0.026732467 0.39600003 4278990613
0.1056087 0.026732467 0.39600003 4278661648
0.10689491 0.026732467 0.39600003 4278924820
0.10818111 0.026732467 0.39600003 4278727187
0.10946732 0.026732467 0.39600003 4278858259
0.11103321 0.026799971 0.39700001 4278198021
0.11232267 0.026799971 0.39700001 4278794002
0.11389831 0.026867479 0.39800003 4278859795
0.11548043 0.026934985 0.39900002 4278728209
0.11736172 0.027069997 0.40100002 4278728722
0.11925601 0.027205011 0.40300003 4278728722
0.12056496 0.027205011 0.40300003 4278794517
0.026807161 0.027665334 0.39100003 4284513389
0.028148938 0.027736088 0.39200002 4284315496
0.029497208 0.027806843 0.39300001 4284051811
0.030851981 0.027877599 0.39400002 4284116834
0.033411406 0.027877599 0.39400002 4279312916
0.034603067 0.027806843 0.39300001 4279640084
0.035788238 0.027736088 0.39200002 4279705362
0.036966912 0.027665334 0.39100003 4279705362
0.038139086 0.027594578 0.39000002 4279640080
0.039304767 0.027523823 0.38900003 4279443984
0.04046395 0.027453067 0.38800001 4279445781
0.041616637 0.027382312 0.38700002 4279120918
0.042762831 0.027311556 0.38600001 4279121431
0.044016559 0.027311556 0.38600001 4278661648
0.045153007 0.027240802 0.38500002 4278794004
0.046403486 0.027240802 0.38500002 4278729492
0.047530189 0.027170045 0.384 4278400527
0.04877742 0.027170045 0.384 4278598419
0.050024655 0.027170045 0.384 4278466833
0.051271889 0.027170045 0.384 4278466833
0.052519117 0.027170045 0.384 4278466833
0.053766351 0.027170045 0.384 4278335247
0.055013586 0.027170045 0.384 4278466833
0.056407336 0.027240802 0.38500002 4278598419
0.057657812 0.027240802 0.38500002 4278335247
0.058908295 0.027240802 0.38500002 4278400527
0.060158778 0.027240802 0.38500002 4278333966
0.061409254 0.027240802 0.38500002 4278591757
0.062659733 0.027240802 0.38500002 4278923541
0.063910216 0.027240802 0.38500002 4279120666
0.065160699 0.027240802 0.38500002 4278393097
0.066583671 0.027311556 0.38600001 4279181846
0.067837402 0.027311556 0.38600001 4278786318
0.069091134 0.027311556 0.38600001 4278852111
0.070527099 0.027382312 0.38700002 4279182100
0.071784079 0.027382312 0.38700002 4278524170
0.073041059 0.027382312 0.38700002 4279183381
0.074490011 0.027453067 0.38800001 4278524168
0.075750239 0.027453067 0.38800001 4278852363
0.077010468 0.027453067 0.38800001 4278984721
0.078472421 0.027523823 0.38900003 4278589963
0.07973589 0.027523823 0.38900003 4279053590
0.080999367 0.027523823 0.38900003 4278727187
0.082474314 0.027594578 0.39000002 4278265611
0.083741032 0.027594578 0.39000002 4278197254
0.085007749 0.027594578 0.39000002 4278327302
0.08649569 0.027665334 0.39100003 4279447578
0.087765656 0.027665334 0.39100003 4278594576
0.08903563 0.027665334 0.39100003 4279252506
0.090536557 0.027736088 0.39200002 4278198274
0.091809772 0.027736088 0.39200002 4278199559
0.093320444 0.027806843 0.39300001 4279055127
0.094596907 0.027806843 0.39300001 4278199561
0.096117325 0.027877599 0.39400002 4278331915
0.097397037 0.027877599 0.39400002 4278792466
0.098927192 0.027948353 0.39500001 4278792466
0.10021015 0.027948353 0.39500001 4278200329
0.10175007 0.028019112 0.39600003 4278266122
0.10303628 0.028019112 0.39600003 4278197248
0.10432249 0.028019112 0.39600003 4278727441
0.1056087 0.028019112 0.39600003 4278199555
0.10716484 0.028089866 0.39700001 4278199555
0.10845429 0.028089866 0.39700001 4278727441
0.10974374 0.028089866 0.39700001 4278726162
0.11131289 0.028160622 0.39800003 4278593039
0.1126056 0.028160622 0.39800003 4278728470
0.11418448 0.028231377 0.39900002 4278662677
0.11576986 0.028302131 0.40000001 4278531343
0.11736172 0.028372888 0.40100002 4278662929
0.11896009 0.028443642 0.40200001 4278662931
0.12056496 0.028514398 0.40300003 4278926103
0.032213245 0.029231749 0.39500001 4284052065
0.033411406 0.029157747 0.39400002 4284973167
0.034603067 0.02908374 0.39300001 4282010429
0.035696942 0.028935732 0.39100003 4279443475
0.036872365 0.028861728 0.39000002 4279902741
0.038041294 0.028787725 0.38900003 4280034325
0.039203726 0.028713718 0.38800001 4279312912
0.040359661 0.028639715 0.38700002 4279314195
0.041616637 0.028639715 0.38700002 4279186711
0.042762831 0.028565709 0.38600001 4278858773
0.044016559 0.028565709 0.38600001 4278531091
0.045153007 0.028491706 0.38500002 4278728724
0.046403486 0.028491706 0.38500002 4278730005
0.047530189 0.028417701 0.384 4278466833
0.04877742 0.028417701 0.384 4278532626
0.050024655 0.028417701 0.384 4278532626
0.051271889 0.028417701 0.384 4278466833
0.052519117 0.028417701 0.384 4278466833
0.053766351 0.028417701 0.384 4278335247
0.055013586 0.028417701 0.384 4278335247
0.05626082 0.028417701 0.384 4278335247
0.057657812 0.028491706 0.38500002 4278597906
0.058908295 0.028491706 0.38500002 4278465550
0.060158778 0.028491706 0.38500002 4278267658
0.061409254 0.028491706 0.38500002 4278263304
0.062659733 0.028491706 0.38500002 4278660628
0.063910216 0.028491706 0.38500002 4278461455
0.065160699 0.028491706 0.38500002 4278194696
0.066583671 0.028565709 0.38600001 4278919187
0.067837402 0.028565709 0.38600001 4278985750
0.069091134 0.028565709 0.38600001 4278458890
0.070527099 0.028639715 0.38700002 4279051025
0.071784079 0.028639715 0.38700002 4278194948
0.07322979 0.028713718 0.38800001 4278524683
0.074490011 0.028713718 0.38800001 4278721549
0.075750239 0.028713718 0.38800001 4279840541
0.077208951 0.028787725 0.38900003 4278722828
0.078472421 0.028787725 0.38900003 4278392584
0.07973589 0.028787725 0.38900003 4279449115
0.080999367 0.028787725 0.38900003 4278529294
0.082474314 0.028861728 0.39000002 4278195970
0.083741032 0.028861728 0.39000002 4278391812
0.085007749 0.028861728 0.39000002 4278524170
0.08649569 0.028935732 0.39100003 4278788623
0.087765656 0.028935732 0.39100003 4279120918
0.08903563 0.028935732 0.39100003 4279121431
0.090536557 0.029009737 0.39200002 4278396427
0.091809772 0.029009737 0.39200002 4278791185
0.093320444 0.02908374 0.39300001 4279120920
0.094596907 0.02908374 0.39300001 4278198276
0.096117325 0.029157747 0.39400002 4278988564
0.09764424 0.029231749 0.39500001 4278330634
0.098927192 0.029231749 0.39500001 4278460683
0.10046386 0.029305754 0.39600003 4278856465
0.10175007 0.029305754 0.39600003 4279185943
0.10303628 0.029305754 0.39600003 4278988564
0.10458592 0.029379759 0.39700001 4278988564
0.10587539 0.029379759 0.39700001 4278856976
0.10716484 0.029379759 0.39700001 4278198276
0.10872748 0.029453764 0.39800003 4278858773
0.11002018 0.029453764 0.39800003 4279054357
0.11131289 0.029453764 0.39800003 4278922771
0.11288852 0.029527768 0.39900002 4278596371
0.11418448 0.029527768 0.39900002 4278728470
0.11576986 0.029601771 0.40000001 4278662931
0.11736172 0.029675776 0.40100002 4278794517
0.11896009 0.029749781 0.40200001 4279255068
0.12056496 0.029823786 0.40300003 4278991896
0.12217632 0.029897789 0.40400001 4279119385
0.03451502 0.030283384 0.39200002 4284776301
0.035696942 0.030206133 0.39100003 4284906604
0.03677782 0.030051624 0.38900003 4279442451
0.038041294 0.030051624 0.38900003 4279902741
0.039203726 0.029974369 0.38800001 4279511061
0.040359661 0.029897118 0.38700002 4279512857
0.041616637 0.029897118 0.38700002 4279317527
0.042762831 0.029819863 0.38600001 4279121431
0.044016559 0.029819863 0.38600001 4278531345
0.045153007 0.02974261 0.38500002 4278861080
0.046403486 0.02974261 0.38500002 4278335249
0.047530189 0.029665355 0.384 4278532628
0.04877742 0.029665355 0.384 4278269456
0.050024655 0.029665355 0.384 4278335249
0.051271889 0.029665355 0.384 4278532626
0.052519117 0.029665355 0.384 4278269454
0.053766351 0.029665355 0.384 4278269454
0.055013586 0.029665355 0.384 4278335247
0.05626082 0.029665355 0.384 4278532626
0.057508048 0.029665355 0.384 4278598419
0.058908295 0.02974261 0.38500002 4278531345
0.060158778 0.02974261 0.38500002 4278265609
0.061409254 0.02974261 0.38500002 4278460683
0.062659733 0.02974261 0.38500002 4278989847
0.063910216 0.02974261 0.38500002 4278658064
0.065329939 0.029819863 0.38600001 4278260746
0.066583671 0.029819863 0.38600001 4278391562
0.067837402 0.029819863 0.38600001 4278391562
0.069270127 0.029897118 0.38700002 4278588939
0.070527099 0.029897118 0.38700002 4278391560
0.071784079 0.029897118 0.38700002 4278391560
0.07322979 0.029974369 0.38800001 4278522632
0.074490011 0.029974369 0.38800001 4278523146
0.075750239 0.029974369 0.38800001 4278194691
0.077208951 0.030051624 0.38900003 4278260998
0.078472421 0.030051624 0.38900003 4278194434
0.07973589 0.030051624 0.38900003 4278856976
0.081207588 0.030128878 0.39000002 4278858259
0.082474314 0.030128878 0.39000002 4278195205
0.083741032 0.030128878 0.39000002 4278720265
0.085007749 0.030128878 0.39000002 4278195716
0.08649569 0.030206133 0.39100003 4279447578
0.087765656 0.030206133 0.39100003 4278330121
0.08903563 0.030206133 0.39100003 4278198789
0.090536557 0.030283384 0.39200002 4279120918
0.091809772 0.030283384 0.39200002 4278462988
0.093320444 0.030360637 0.39300001 4278198534
0.094596907 0.030360637 0.39300001 4279317529
0.096117325 0.030437892 0.39400002 4279383322
0.09764424 0.030515144 0.39500001 4279317529
0.098927192 0.030515144 0.39500001 4279054357
0.10046386 0.030592399 0.39600003 4279054357
0.10175007 0.030592399 0.39600003 4278396427
0.10329647 0.030669652 0.39700001 4279054103
0.10458592 0.030669652 0.39700001 4279054103
0.10587539 0.030669652 0.39700001 4278330634
0.10743479 0.030746907 0.39800003 4278594576
0.10872748 0.030746907 0.39800003 4278727189
0.11002018 0.030746907 0.39800003 4278195968
0.11159257 0.030824158 0.39900002 4279317527
0.11288852 0.030824158 0.39900002 4278727957
0.11447065 0.030901412 0.40000001 4278925336
0.11576986 0.030901412 0.40000001 4278662931
0.11736172 0.030978667 0.40100002 4278794517
0.11896009 0.03105592 0.40200001 4278860310
0.12056496 0.031133173 0.40300003 4279188762
0.035605643 0.031396028 0.39000002 4284710254
0.036683276 0.031235021 0.38800001 4285697149
0.037943501 0.031235021 0.38800001 4279379479
0.039102685 0.031154519 0.38700002 4279314967
0.040359661 0.031154519 0.38700002 4279184408
0.041509099 0.031074015 0.38600001 4279121433
0.042762831 0.031074015 0.38600001 4278596371
0.043902528 0.030993514 0.38500002 4278465298
0.045153007 0.030993514 0.38500002 4278729494
0.046282958 0.03091301 0.384 4278598421
0.047530189 0.03091301 0.384 4278532628
0.04877742 0.03091301 0.384 4278532628
0.050024655 0.03091301 0.384 4278335249
0.051271889 0.03091301 0.384 4278532628
0.052519117 0.03091301 0.384 4278532628
0.053766351 0.03091301 0.384 4278532113
0.055013586 0.03091301 0.384 4278400527
0.05626082 0.03091301 0.384 4278532113
0.057508048 0.03091301 0.384 4278532113
0.058908295 0.030993514 0.38500002 4278465298
0.060158778 0.030993514 0.38500002 4278197506
0.061409254 0.030993514 0.38500002 4279580188
0.062659733 0.030993514 0.38500002 4278858259
0.063910216 0.030993514 0.38500002 4278592269
0.065329939 0.031074015 0.38600001 4278588939
0.066583671 0.031074015 0.38600001 4278720013
0.067837402 0.031074015 0.38600001 4278522634
0.069270127 0.031154519 0.38700002 4278654220
0.070527099 0.031154519 0.38700002 4278654220
0.071784079 0.031154519 0.38700002 4278654220
0.07322979 0.031235021 0.38800001 4278587914
0.074490011 0.031235021 0.38800001 4278587914
0.075750239 0.031235021 0.38800001 4278522634
0.077208951 0.031315524 0.38900003 4278654218
0.078472421 0.031315524 0.38900003 4278391300
0.07973589 0.031315524 0.38900003 4278922771
0.081207588 0.031396028 0.39000002 4278792466
0.082474314 0.031396028 0.39000002 4279052820
0.083741032 0.031396028 0.39000002 4279512857
0.085225724 0.031476531 0.39100003 4279381271
0.08649569 0.031476531 0.39100003 4279184406
0.087765656 0.031476531 0.39100003 4279054355
0.08903563 0.031476531 0.39100003 4278988562
0.090536557 0.031557031 0.39200002 4278988562
0.091809772 0.031557031 0.39200002 4278922769
0.093320444 0.031637534 0.39300001 4278725390
0.094837613 0.031718038 0.39400002 4278922769
0.096117325 0.031718038 0.39400002 4279449113
0.09764424 0.031798538 0.39500001 4279185941
0.098927192 0.031798538 0.39500001 4279383320
0.10046386 0.031879045 0.39600003 4279120918
0.10175007 0.031879045 0.39600003 4278594574
0.10329647 0.031959545 0.39700001 4278594576
0.10458592 0.031959545 0.39700001 4278791955
0.10614207 0.032040048 0.39800003 4279055127
0.10743479 0.032040048 0.39800003 4278923541
0.10872748 0.032040048 0.39800003 4278660369
0.11029661 0.032120552 0.39900002 4278197507
0.11159257 0.032120552 0.39900002 4279318812
0.11317145 0.032201052 0.40000001 4278794263
0.11447065 0.032201052 0.40000001 4278531091
0.11576986 0.032201052 0.40000001 4278860310
0.11736172 0.032281555 0.40100002 4278860310
0.11866418 0.032281555 0.40100002 4278991642
0.12026579 0.032362059 0.40200001 4279054873
0.036683276 0.032495674 0.38800001 4284841840
0.037845708 0.032411922 0.38700002 4283723359
0.039102685 0.032411922 0.38700002 4278525453
0.040255371 0.03232817 0.38600001 4279184408
0.041509099 0.03232817 0.38600001 4279121693
0.042762831 0.03232817 0.38600001 4278727959
0.043902528 0.032244418 0.38500002 4278202636
0.045153007 0.032244418 0.38500002 4278861078
0.046282958 0.032160666 0.384 4278664210
0.047530189 0.032160666 0.384 4278795796
0.04877742 0.032160666 0.384 4278598419
0.050024655 0.032160666 0.384 4278532626
0.051271889 0.032160666 0.384 4278795798
0.052519117 0.032160666 0.384 4278664212
0.053766351 0.032160666 0.384 4278597906
0.055013586 0.032160666 0.384 4278729492
0.05626082 0.032160666 0.384 4278663699
0.057508048 0.032160666 0.384 4278663699
0.058908295 0.032244418 0.38500002 4278201098
0.060158778 0.032244418 0.38500002 4278331917
0.061409254 0.032244418 0.38500002 4278726162
0.062659733 0.032244418 0.38500002 4278990359
0.064076215 0.03232817 0.38600001 4278990359
0.065329939 0.03232817 0.38600001 4279318299
0.066583671 0.03232817 0.38600001 4279316764
0.067837402 0.03232817 0.38600001 4279513373
0.069270127 0.032411922 0.38700002 4279250203
0.070527099 0.032411922 0.38700002 4279513375
0.071784079 0.032411922 0.38700002 4279381787
0.07322979 0.032495674 0.38800001 4279381787
0.074490011 0.032495674 0.38800001 4279644959
0.075750239 0.032495674 0.38800001 4279513373
0.077208951 0.032579426 0.38900003 4279644445
0.078472421 0.032579426 0.38900003 4279250199
0.07973589 0.032579426 0.38900003 4278725392
0.081207588 0.032663178 0.39000002 4279251736
0.082474314 0.032663178 0.39000002 4278725392
0.083741032 0.032663178 0.39000002 4279251736
0.085225724 0.03274693 0.39100003 4279317016
0.08649569 0.03274693 0.39100003 4279382809
0.087765656 0.03274693 0.39100003 4279053844
0.08903563 0.03274693 0.39100003 4279316762
0.090536557 0.032830682 0.39200002 4279514141
0.091809772 0.032830682 0.39200002 4279448348
0.093320444 0.03291443 0.39300001 4279514395
0.094837613 0.032998186 0.39400002 4279514395
0.096117325 0.032998186 0.39400002 4279514395
0.09764424 0.033081934 0.39500001 4279514395
0.098927192 0.033081934 0.39500001 4279448602
0.10046386 0.033165686 0.39600003 4279514395
0.10200701 0.033249438 0.39700001 4279711774
0.10329647 0.033249438 0.39700001 4279580188
0.10484937 0.03333319 0.39800003 4279383068
0.10614207 0.03333319 0.39800003 4279383068
0.10743479 0.03333319 0.39800003 4279712033
0.10900066 0.033416942 0.39900002 4279054357
0.11029661 0.033416942 0.39900002 4279581982
0.11159257 0.033416942 0.39900002 4278925336
0.11317145 0.033500694 0.40000001 4278465298
0.11447065 0.033500694 0.40000001 4278991642
0.11576986 0.033500694 0.40000001 4278925849
0.11706904 0.033500694 0.40000001 4278991896
0.11836825 0.033500694 0.40000001 4279186974
0.12026579 0.033668198 0.40200001 4285041270
0.12066424 0.033416942 0.39900002 4285696888
0.035331756 0.033669323 0.38700002 4284907633
0.036588732 0.033669323 0.38700002 4284841840
0.037845708 0.033669323 0.38700002 4284776047
0.039102685 0.033669323 0.38700002 4285368184
0.040255371 0.033582322 0.38600001 4278854931
0.041509099 0.033582322 0.38600001 4279121179
0.042762831 0.033582322 0.38600001 4278924568
0.043902528 0.033495322 0.38500002 4278992666
0.045153007 0.033495322 0.38500002 4278795798
0.046282958 0.033408321 0.384 4278730003
0.047530189 0.033408321 0.384 4278664210
0.04877742 0.033408321 0.384 4278598417
0.050024655 0.033408321 0.384 4278598417
0.051271889 0.033408321 0.384 4278467603
0.05238235 0.033321321 0.38300002 4278533396
0.053766351 0.033408321 0.384 4278664212
0.055013586 0.033408321 0.384 4278730005
0.05626082 0.033408321 0.384 4278532628
0.057508048 0.033408321 0.384 4278532626
0.058755282 0.033408321 0.384 4278267660
0.060158778 0.033495322 0.38500002 4278990359
0.061409254 0.033495322 0.38500002 4278989845
0.062659733 0.033495322 0.38500002 4279188762
0.064076215 0.033582322 0.38600001 4278926103
0.065329939 0.033582322 0.38600001 4278925849
0.066583671 0.033582322 0.38600001 4279123228
0.067837402 0.033582322 0.38600001 4278991642
0.069270127 0.033669323 0.38700002 4278991642
0.070527099 0.033669323 0.38700002 4278465552
0.071784079 0.033669323 0.38700002 4279057176
0.07322979 0.033756323 0.38800001 4278991383
0.074490011 0.033756323 0.38800001 4279057176
0.075750239 0.033756323 0.38800001 4279057176
0.077208951 0.033843327 0.38900003 4279057176
0.078472421 0.033843327 0.38900003 4278991383
0.07973589 0.033843327 0.38900003 4278991383
0.081207588 0.033930324 0.39000002 4279057176
0.082474314 0.033930324 0.39000002 4279188762
0.083741032 0.033930324 0.39000002 4279188762
0.085225724 0.034017328 0.39100003 4278925590
0.08649569 0.034017328 0.39100003 4278859797
0.087765656 0.034017328 0.39100003 4278991383
0.08903563 0.034017328 0.39100003 4279187992
0.090536557 0.034104329 0.39200002 4279385117
0.091809772 0.034104329 0.39200002 4279385117
0.093320444 0.034191329 0.39300001 4279121945
0.094837613 0.034278329 0.39400002 4279385117
0.096117325 0.034278329 0.39400002 4279122199
0.09764424 0.03436533 0.39500001 4279187992
0.099177644 0.03445233 0.39600003 4279319578
0.10046386 0.03445233 0.39600003 4279385371
0.10200701 0.034539331 0.39700001 4279319578
0.10329647 0.034539331 0.39700001 4279187992
0.10484937 0.034626335 0.39800003 4279122199
0.10614207 0.034626335 0.39800003 4279319324
0.10770471 0.034713335 0.39900002 4279319324
0.10900066 0.034713335 0.39900002 4279319578
0.11029661 0.034713335 0.39900002 4279188762
0.11159257 0.034713335 0.39900002 4279254555
0.11288852 0.034713335 0.39900002 4279189275
0.11418448 0.034713335 0.39900002 4279255068
0.11548043 0.034713335 0.39900002 4279320094
0.11706904 0.034800332 0.40000001 4279252765
0.11807233 0.034713335 0.39900002 4285302130
0.12036183 0.034626335 0.39800003 4285827706
0.036588732 0.034926727 0.38700002 4285170292
0.037845708 0.034926727 0.38700002 4285038706
0.039001644 0.034836479 0.38600001 4284776047
0.040255371 0.034836479 0.38600001 4285237112
0.041509099 0.034836479 0.38600001 4281882439
0.042652048 0.03474623 0.38500002 4279317277
0.043902528 0.03474623 0.38500002 4279188508
0.045153007 0.03474623 0.38500002 4278992412
0.046282958 0.034655977 0.384 4278730007
0.047530189 0.034655977 0.384 4279190558
0.04877742 0.034655977 0.384 4279124765
0.050024655 0.034655977 0.384 4279058972
0.051138371 0.034565728 0.38300002 4278993179
0.05238235 0.034565728 0.38300002 4278927386
0.053766351 0.034655977 0.384 4278993179
0.055013586 0.034655977 0.384 4279058972
0.05626082 0.034655977 0.384 4278927386
0.057508048 0.034655977 0.384 4278993177
0.058755282 0.034655977 0.384 4279058970
0.060158778 0.03474623 0.38500002 4278992664
0.061409254 0.03474623 0.38500002 4279189273
0.062659733 0.03474623 0.38500002 4279123480
0.064076215 0.034836479 0.38600001 4278861078
0.065329939 0.034836479 0.38600001 4278992664
0.066583671 0.034836479 0.38600001 4278861078
0.067837402 0.034836479 0.38600001 4278992664
0.069270127 0.034926727 0.38700002 4279058459
0.070527099 0.034926727 0.38700002 4278992666
0.071784079 0.034926727 0.38700002 4279124252
0.07322979 0.035016976 0.38800001 4279058459
0.074490011 0.035016976 0.38800001 4278861080
0.075750239 0.035016976 0.38800001 4279124252
0.077208951 0.035107229 0.38900003 4278992666
0.078472421 0.035107229 0.38900003 4278992666
0.07973589 0.035107229 0.38900003 4279189275
0.081207588 0.035197478 0.39000002 4279123482
0.082474314 0.035197478 0.39000002 4279189275
0.083741032 0.035197478 0.39000002 4279255068
0.085225724 0.03528773 0.39100003 4279189275
0.08649569 0.03528773 0.39100003 4279189275
0.087765656 0.03528773 0.39100003 4279123482
0.08903563 0.03528773 0.39100003 4278991896
0.090536557 0.035377979 0.39200002 4279189275
0.091809772 0.035377979 0.39200002 4279123482
0.093320444 0.035468228 0.39300001 4279254555
0.094837613 0.035558477 0.39400002 4279254555
0.096117325 0.035558477 0.39400002 4279386141
0.09764424 0.035648726 0.39500001 4279451164
0.099177644 0.035738979 0.39600003 4279451164
0.10046386 0.035738979 0.39600003 4279582236
0.10200701 0.035829227 0.39700001 4279516443
0.10329647 0.035829227 0.39700001 4279451164
0.10484937 0.03591948 0.39800003 4279319578
0.10614207 0.03591948 0.39800003 4279187738
0.10770471 0.036009729 0.39900002 4279713309
0.10900066 0.036009729 0.39900002 4279318551
0.11029661 0.036009729 0.39900002 4279251988
0.11159257 0.036009729 0.39900002 4279712285
0.11288852 0.036009729 0.39900002 4280632622
0.11418448 0.036009729 0.39900002 4282671435
0.11548043 0.036009729 0.39900002 4285302643
0.11677638 0.036009729 0.39900002 4285631097
0.11777641 0.03591948 0.39800003 4285367925
0.11876994 0.035829227 0.39700001 4285696890
0.12036183 0.03591948 0.39800003 4285959292
0.039001644 0.036090631 0.38600001 4284973426
0.040255371 0.036090631 0.38600001 4285170805
0.041509099 0.036090631 0.38600001 4284973680
0.042652048 0.035997134 0.38500002 4285434491
0.043902528 0.035997134 0.38500002 4283461725
0.045153007 0.035997134 0.38500002 4279777828
0.046282958 0.035903633 0.384 4279253019
0.047530189 0.035903633 0.384 4279516705
0.04877742 0.035903633 0.384 4279254816
0.050024655 0.035903633 0.384 4279189023
0.051138371 0.035810135 0.38300002 4279058207
0.05238235 0.035810135 0.38300002 4279058207
0.053766351 0.035903633 0.384 4279189023
0.055013586 0.035903633 0.384 4279189023
0.05626082 0.035903633 0.384 4279320607
0.057508048 0.035903633 0.384 4279123228
0.058755282 0.035903633 0.384 4279189021
0.060158778 0.035997134 0.38500002 4279254814
0.061409254 0.035997134 0.38500002 4279320094
0.062659733 0.035997134 0.38500002 4279254301
0.064076215 0.036090631 0.38600001 4279320348
0.065329939 0.036090631 0.38600001 4279320348
0.066583671 0.036090631 0.38600001 4279386141
0.067837402 0.036090631 0.38600001 4279188508
0.069270127 0.036184132 0.38700002 4279254301
0.070527099 0.036184132 0.38700002 4279319324
0.071784079 0.036184132 0.38700002 4279516703
0.073041059 0.036184132 0.38700002 4279385117
0.074490011 0.036277629 0.38800001 4279516703
0.075750239 0.036277629 0.38800001 4279516703
0.077208951 0.03637113 0.38900003 4279319324
0.078472421 0.03637113 0.38900003 4279319324
0.07973589 0.03637113 0.38900003 4279319324
0.081207588 0.036464628 0.39000002 4279450910
0.082474314 0.036464628 0.39000002 4279320094
0.083741032 0.036464628 0.39000002 4279254301
0.085225724 0.036558129 0.39100003 4279320094
0.08649569 0.036558129 0.39100003 4279056922
0.087765656 0.036558129 0.39100003 4279385119
0.08903563 0.036558129 0.39100003 4279055125
0.090536557 0.036651626 0.39200002 4279712026
0.091809772 0.036651626 0.39200002 4279251475
0.093320444 0.036745124 0.39300001 4279711774
0.094837613 0.036838625 0.39400002 4279974946
0.096361272 0.036932122 0.39500001 4280501036
0.09764424 0.036932122 0.39500001 4281553726
0.099177644 0.037025623 0.39600003 4282606414
0.10046386 0.037025623 0.39600003 4283724895
0.10200701 0.03711912 0.39700001 4284909171
0.10329647 0.03711912 0.39700001 4285369722
0.10484937 0.037212621 0.39800003 4285763708
0.10614207 0.037212621 0.39800003 4285763710
0.10770471 0.037306119 0.39900002 4285632124
0.10900066 0.037306119 0.39900002 4285763710
0.11029661 0.037306119 0.39900002 4285434743
0.11159257 0.037306119 0.39900002 4285697399
0.11288852 0.037306119 0.39900002 4285630323
0.11418448 0.037306119 0.39900002 4285761909
0.11519101 0.037212621 0.39800003 4285761909
0.1164837 0.037212621 0.39800003 4285564532
0.11777641 0.037212621 0.39800003 4285630325
0.11876994 0.03711912 0.39700001 4285761911
0.1200594 0.03711912 0.39700001 4285564532
0.096361272 0.038215518 0.39500001 4285565817
0.09764424 0.038215518 0.39500001 4285565817
0.099177644 0.038312268 0.39600003 4285368438
0.10046386 0.038312268 0.39600003 4285434231
0.10200701 0.038409013 0.39700001 4285434231
0.10329647 0.038409013 0.39700001 4285434231
0.10484937 0.038505763 0.39800003 4285368438
0.10640876 0.038602512 0.39900002 4285631097
0.10770471 0.038602512 0.39900002 4285631097
0.10900066 0.038602512 0.39900002 4285433718
0.11029661 0.038602512 0.39900002 4285696888
0.11159257 0.038602512 0.39900002 4285630325
0.11288852 0.038602512 0.39900002 4285761911
0.11389831 0.038505763 0.39800003 4285827191
0.11519101 0.038505763 0.39800003 4285827191
0.1164837 0.038505763 0.39800003 4285892986
0.11748049 0.038409013 0.39700001 4285564021
0.11876994 0.038409013 0.39700001 4285826939
0.10329647 0.039698906 0.39700001 4285630327
0.10484937 0.039798908 0.39800003 4285499511
0.10640876 0.039898902 0.39900002 4285631097
0.10770471 0.039898902 0.39900002 4285631097
0.10900066 0.039898902 0.39900002 4285631097
0.11029661 0.039898902 0.39900002 4285696890
0.11159257 0.039898902 0.39900002 4285893499
0.11288852 0.039898902 0.39900002 4285892986
0.11389831 0.039798908 0.39800003 4285892986
0.11519101 0.039798908 0.39800003 4285827193
0.10770471 0.041195296 0.39900002 4285827706
0.072739184 0.028497139 0.39015365 4294967295
0.072739184 0.028497139 0.39015365 4294901760
0.072739184 0.028497139 0.39065364 4294901760
0.072739184 0.028497139 0.39115363 4294901760
0.072739184 0.028497139 0.39165366 4294901760
0.072739184 0.028497139 0.39215365 4294901760
0.072739184 0.028497139 0.39265364 4294901760
0.072739184 0.028497139 0.39315364 4294901760
0.072739184 0.028497139 0.39365366 4294901760
0.072739184 0.028497139 0.39415365 4294901760
0.072739184 0.028497139 0.39465365 4294901760
0.072739184 0.028497139 0.39515364 4294901760
0.072739184 0.028497139 0.39565364 4294901760
0.072739184 0.028497139 0.39615366 4294901760
0.072739184 0.028497139 0.39665365 4294901760
0.072739184 0.028497139 0.39715365 4294901760
0.072739184 0.028497139 0.39765364 4294901760
0.072739184 0.028497139 0.39815366 4294901760
0.072739184 0.028497139 0.39865366 4294901760
0.072739184 0.028497139 0.39915365 4294901760
0.072739184 0.028497139 0.39965364 4294901760
0.072739184 0.028497139 0.40015364 4294901760
0.072739184 0.028497139 0.40065366 4294901760
0.072739184 0.028497139 0.40115365 4294901760
0.072739184 0.028497139 0.40165365 4294901760
0.072739184 0.028497139 0.40215364 4294901760
0.072739184 0.028497139 0.40265363 4294901760
0.072739184 0.028497139 0.40315366 4294901760
0.072739184 0.028497139 0.40365365 4294901760
0.072739184 0.028497139 0.40415365 4294901760
0.072739184 0.028497139 0.40465364 4294901760
0.072739184 0.028497139 0.40515366 4294901760
0.072739184 0.028497139 0.40565366 4294901760
0.072739184 0.028497139 0.40615365 4294901760
0.072739184 0.028497139 0.40665364 4294901760
0.072739184 0.028497139 0.40715367 4294901760
0.072739184 0.028497139 0.40765366 4294901760
0.072739184 0.028497139 0.40815365 4294901760
0.072739184 0.028497139 0.40865365 4294901760
0.072739184 0.028497139 0.40915364 4294901760
0.072739184 0.028497139 0.40965366 4294901760
0.072739184 0.028497139 0.41015366 4294901760
0.072739184 0.028497139 0.41065365 4294901760
0.072739184 0.028497139 0.41115364 4294901760
0.072739184 0.028497139 0.41165364 4294901760
0.072739184 0.028497139 0.41215366 4294901760
0.072739184 0.028497139 0.41265365 4294901760
0.072739184 0.028497139 0.41315365 4294901760
0.072739184 0.028497139 0.41365364 4294901760
0.072739184 0.028497139 0.41415367 4294901760
0.072739184 0.028497139 0.41465366 4294901760
0.072739184 0.028497139 0.41515365 4294901760
0.072739184 0.028497139 0.41565365 4294901760
0.072739184 0.028497139 0.41615364 4294901760
0.072739184 0.028497139 0.41665366 4294901760
0.072739184 0.028497139 0.41715366 4294901760
0.072739184 0.028497139 0.41765365 4294901760
0.072739184 0.028497139 0.41815364 4294901760
0.072739184 0.028497139 0.41865367 4294901760
0.072739184 0.028497139 0.41915366 4294901760
0.072739184 0.028497139 0.41965365 4294901760
0.072739184 0.028497139 0.42015365 4294901760
0.072739184 0.028497139 0.42065364 4294901760
0.072739184 0.028497139 0.42115366 4294901760
0.072739184 0.028497139 0.42165366 4294901760
0.072739184 0.028497139 0.42215365 4294901760
0.072739184 0.028497139 0.42265365 4294901760
0.072739184 0.028497139 0.42315367 4294901760
0.072739184 0.028497139 0.42365366 4294901760
0.072739184 0.028497139 0.42415366 4294901760
0.072739184 0.028497139 0.42465365 4294901760
0.072739184 0.028497139 0.42515364 4294901760
0.072739184 0.028497139 0.42565367 4294901760
0.072739184 0.028497139 0.42615366 4294901760
0.072739184 0.028497139 0.42665365 4294901760
0.072739184 0.028497139 0.42715365 4294901760
0.072739184 0.028497139 0.42765367 4294901760
0.072739184 0.028497139 0.42815366 4294901760
0.072739184 0.028497139 0.42865366 4294901760
0.072739184 0.028497139 0.42915365 4294901760
0.072739184 0.028497139 0.42965364 4294901760
0.072739184 0.028497139 0.43015367 4294901760
0.072739184 0.028497139 0.43065366 4294901760
0.072739184 0.028497139 0.43115366 4294901760
0.072739184 0.028497139 0.43165365 4294901760
0.072739184 0.028497139 0.43215364 4294901760
0.072739184 0.028497139 0.43265367 4294901760
0.072739184 0.028497139 0.43315366 4294901760
0.072739184 0.028497139 0.43365365 4294901760
0.072739184 0.028497139 0.43415365 4294901760
0.072739184 0.028497139 0.43465364 4294901760
0.072739184 0.028497139 0.43515366 4294901760
0.072739184 0.028497139 0.43565366 4294901760
0.072739184 0.028497139 0.43615365 4294901760
0.072739184 0.028497139 0.43665367 4294901760
0.072739184 0.028497139 0.43715367 4294901760
0.072739184 0.028497139 0.43765366 4294901760
0.072739184 0.028497139 0.43815365 4294901760
0.072739184 0.028497139 0.43865365 4294901760
0.072739184 0.028497139 0.43915367 4294901760
0.072739184 0.028497139 0.43965366 4294901760
0.072739184 0.028497139 0.44015366 4294901760
0.072739184 0.028497139 0.39015365 4278255360
0.072607815 0.028446099 0.39063337 4278255360
0.072476439 0.028395059 0.3911131 4278255360
0.072345071 0.028344017 0.39159283 4278255360
0.072213694 0.028292976 0.39207256 4278255360
0.072082326 0.028241936 0.39255229 4278255360
0.07195095 0.028190896 0.39303198 4278255360
0.071819581 0.028139856 0.39351171 4278255360
0.071688205 0.028088814 0.39399144 4278255360
0.071556836 0.028037773 0.39447117 4278255360
0.071425468 0.027986733 0.3949509 4278255360
0.071294092 0.027935693 0.39543062 4278255360
0.071162723 0.027884651 0.39591035 4278255360
0.071031347 0.027833611 0.39639008 4278255360
0.070899978 0.027782571 0.39686981 4278255360
0.070768602 0.02773153 0.39734954 4278255360
0.070637234 0.02768049 0.39782926 4278255360
0.070505857 0.027629448 0.39830896 4278255360
0.070374489 0.027578408 0.39878869 4278255360
0.070243113 0.027527368 0.39926842 4278255360
0.070111744 0.027476327 0.39974815 4278255360
0.069980375 0.027425287 0.40022787 4278255360
0.069848999 0.027374245 0.4007076 4278255360
0.069717631 0.027323205 0.40118733 4278255360
0.069586255 0.027272165 0.40166706 4278255360
0.069454886 0.027221125 0.40214679 4278255360
0.06932351 0.027170084 0.40262651 4278255360
0.069192141 0.027119042 0.40310624 4278255360
0.069060765 0.027068002 0.40358594 4278255360
0.068929397 0.027016962 0.40406567 4278255360
0.06879802 0.026965922 0.4045454 4278255360
0.068666652 0.02691488 0.40502512 4278255360
0.068535283 0.026863839 0.40550485 4278255360
0.068403907 0.026812799 0.40598458 4278255360
0.068272538 0.026761759 0.40646431 4278255360
0.068141162 0.026710719 0.40694404 4278255360
0.068009794 0.026659677 0.40742376 4278255360
0.067878418 0.026608637 0.40790349 4278255360
0.067747049 0.026557596 0.40838322 4278255360
0.067615673 0.026506556 0.40886292 4278255360
0.067484304 0.026455516 0.40934265 4278255360
0.067352936 0.026404474 0.40982237 4278255360
0.06722156 0.026353434 0.4103021 4278255360
0.067090191 0.026302394 0.41078183 4278255360
0.066958815 0.026251353 0.41126156 4278255360
0.066827446 0.026200313 0.41174129 4278255360
0.06669607 0.026149271 0.41222101 4278255360
0.066564701 0.026098231 0.41270074 4278255360
0.066433325 0.026047191 0.41318047 4278255360
0.066301957 0.02599615 0.4136602 4278255360
0.066170588 0.025945108 0.41413993 4278255360
0.066039212 0.025894068 0.41461962 4278255360
0.065907843 0.025843028 0.41509935 4278255360
0.065776467 0.025791988 0.41557908 4278255360
0.065645099 0.025740948 0.41605881 4278255360
0.065513723 0.025689906 0.41653854 4278255360
0.065382354 0.025638865 0.41701826 4278255360
0.065250978 0.025587825 0.41749799 4278255360
0.065119609 0.025536785 0.41797772 4278255360
0.064988241 0.025485745 0.41845745 4278255360
0.064856865 0.025434703 0.41893718 4278255360
0.064725488 0.025383662 0.4194169 4278255360
0.06459412 0.025332622 0.4198966 4278255360
0.064462751 0.025281582 0.42037633 4278255360
0.064331375 0.025230542 0.42085606 4278255360
0.064200006 0.0251795 0.42133579 4278255360
0.06406863 0.02512846 0.42181551 4278255360
0.063937262 0.025077419 0.42229524 4278255360
0.063805886 0.025026379 0.42277497 4278255360
0.063674517 0.024975337 0.4232547 4278255360
0.063543141 0.024924297 0.42373443 4278255360
0.063411772 0.024873257 0.42421415 4278255360
0.063280404 0.024822216 0.42469388 4278255360
0.063149028 0.024771176 0.42517358 4278255360
0.063017659 0.024720134 0.42565331 4278255360
0.062886283 0.024669094 0.42613304 4278255360
0.062754914 0.024618054 0.42661276 4278255360
0.062623538 0.024567014 0.42709249 4278255360
0.062492169 0.024515973 0.42757222 4278255360
0.062360797 0.024464931 0.42805195 4278255360
0.062229425 0.024413891 0.42853168 4278255360
0.062098052 0.024362851 0.4290114 4278255360
0.06196668 0.024311811 0.42949113 4278255360
0.061835308 0.024260771 0.42997086 4278255360
0.061703935 0.02420973 0.43045056 4278255360
0.061572567 0.024158688 0.43093029 4278255360
0.061441191 0.024107648 0.43141001 4278255360
0.061309822 0.024056608 0.43188974 4278255360
0.06117845 0.024005566 0.43236947 4278255360
0.061047077 0.023954526 0.4328492 4278255360
0.060915705 0.023903485 0.43332893 4278255360
0.060784332 0.023852445 0.43380865 4278255360
0.06065296 0.023801405 0.43428838 4278255360
