# .PCD v0.7 - Point Cloud Data file format
VERSION 0.7
FIELDS x y z rgb
SIZE 4 4 4 4
TYPE F F F U
COUNT 1 1 1 1
WIDTH 1066
HEIGHT 1
VIEWPOINT 0 0 0 1 0 0 0
POINTS 1066
DATA ascii
0.0014077864 0.060695712 0.39100003 4286748295
0.0026709065 0.060540475 0.39000002 4283519816
0.0039376272 0.060540475 0.39000002 4284296485
0.0052043479 0.060540475 0.39000002 4284558628
0.0064544762 0.060385246 0.38900003 4284031771
0.0077179489 0.060385246 0.38900003 4283767829
0.0089814216 0.060385246 0.38900003 4283899413
0.010244895 0.060385246 0.38900003 4284425757
0.011478783 0.060230009 0.38800001 4283898899
0.012739007 0.060230009 0.38800001 4283701520
0.013999231 0.060230009 0.38800001 4283439634
0.015259456 0.060230009 0.38800001 4284165415
0.016519681 0.060230009 0.38800001 4284964175
0.017734082 0.06007478 0.38700002 4286149476
0.018991059 0.06007478 0.38700002 4286744441
0.020195713 0.059919547 0.38600001 4287075459
0.021393875 0.059764318 0.38500002 4282139964
0.022585537 0.059609082 0.384 4279704089
0.02383277 0.059609082 0.384 4279112205
0.025014691 0.059453852 0.38300002 4279112203
0.026258677 0.059453852 0.38300002 4279573006
0.02750266 0.059453852 0.38300002 4281217831
0.028671589 0.059298623 0.38200003 4279770385
0.029912326 0.059298623 0.38200003 4279638801
0.031153062 0.059298623 0.38200003 4278980099
0.032308999 0.059143387 0.38100001 4280230166
0.033546485 0.059143387 0.38100001 4282403386
0.034783974 0.059143387 0.38100001 4281811251
0.035926919 0.058988158 0.38000003 4279702797
0.037063368 0.058832921 0.37900001 4279898380
0.038193323 0.058677692 0.37800002 4281277714
0.039316773 0.058522459 0.377 4280753423
0.040433735 0.058367226 0.37600002 4281215255
0.041544203 0.058211997 0.37500003 4282001176
0.042648166 0.058056764 0.37400001 4284030739
0.04386292 0.058056764 0.37400001 4283308300
0.045077674 0.058056764 0.37400001 4281014794
0.046168651 0.057901535 0.37300003 4281083154
0.047380153 0.057901535 0.37300003 4280820497
0.048721932 0.058056764 0.37400001 4280951054
0.049936686 0.058056764 0.37400001 4281538058
0.051151432 0.058056764 0.37400001 4281932305
0.00013781765 0.061966106 0.39100003 4286551945
0.0014077864 0.061966106 0.39100003 4286288773
0.0026709065 0.061807621 0.39000002 4287340430
0.0039376272 0.061807621 0.39000002 4283119920
0.0051910039 0.061649144 0.38900003 4283773739
0.0064544762 0.061649144 0.38900003 4283639839
0.0077179489 0.061649144 0.38900003 4283375897
0.0089814216 0.061649144 0.38900003 4283835673
0.010218557 0.061490659 0.38800001 4284360988
0.011478783 0.061490659 0.38800001 4284226322
0.012739007 0.061490659 0.38800001 4284029456
0.013999231 0.061490659 0.38800001 4283898899
0.015259456 0.061490659 0.38800001 4289037175
0.016477104 0.061332181 0.38700002 4286484349
0.017734082 0.061332181 0.38700002 4286287742
0.018941985 0.061173696 0.38600001 4286156156
0.020195713 0.061173696 0.38600001 4286156156
0.021393875 0.061015218 0.38500002 4286813834
0.022644356 0.061015218 0.38500002 4279641629
0.02383277 0.060856733 0.384 4279506710
0.025080003 0.060856733 0.384 4279243791
0.026258677 0.060698256 0.38300002 4279308814
0.02750266 0.060698256 0.38300002 4281217579
0.028746644 0.060698256 0.38300002 4281745208
0.029912326 0.060539775 0.38200003 4278586631
0.031153062 0.060539775 0.38200003 4280363807
0.032393802 0.060539775 0.38200003 4279836948
0.033546485 0.060381293 0.38100001 4280297497
0.034783974 0.060381293 0.38100001 4280099350
0.035926919 0.060222812 0.38000003 4280356362
0.037063368 0.060064331 0.37900001 4285353800
0.038193323 0.059905849 0.37800002 4283180571
0.039316773 0.059747368 0.377 4282327059
0.040433735 0.059588887 0.37600002 4281607699
0.041544203 0.059430409 0.37500003 4282721299
0.042762201 0.059430409 0.37500003 4284557083
0.04386292 0.059271924 0.37400001 4282585606
0.045077674 0.059271924 0.37400001 4281410833
0.046292424 0.059271924 0.37400001 4281017872
0.047507178 0.059271924 0.37400001 4281280533
0.048721932 0.059271924 0.37400001 4281212941
0.049936686 0.059271924 0.37400001 4282062603
0.051151432 0.059271924 0.37400001 4282129680
0.0026709065 0.063074775 0.39000002 4286420359
0.0039275307 0.062913045 0.38900003 4286944904
0.0051910039 0.062913045 0.38900003 4283916116
0.0064544762 0.062913045 0.38900003 4283052330
0.0077179489 0.062913045 0.38900003 4282260246
0.0089583332 0.062751316 0.38800001 4283048215
0.010218557 0.062751316 0.38800001 4284165665
0.011478783 0.062751316 0.38800001 4284819742
0.012739007 0.062751316 0.38800001 4284226835
0.013999231 0.062751316 0.38800001 4284226835
0.015220128 0.062589586 0.38700002 4283637013
0.016477104 0.062589586 0.38700002 4286747261
0.017734082 0.062589586 0.38700002 4286287740
0.018941985 0.062427852 0.38600001 4286353537
0.020195713 0.062427852 0.38600001 4286287744
0.021393875 0.062266126 0.38500002 4286287744
0.022644356 0.062266126 0.38500002 4286616709
0.02383277 0.062104393 0.384 4280694317
0.025080003 0.062104393 0.384 4279047442
0.026327236 0.062104393 0.384 4279638296
0.02750266 0.061942663 0.38300002 4280626214
0.028746644 0.061942663 0.38300002 4282272574
0.02999063 0.061942663 0.38300002 4279113486
0.031153062 0.061780937 0.38200003 4282601285
0.032393802 0.061780937 0.38200003 4279178766
0.033546485 0.061619204 0.38100001 4279440395
0.034783974 0.061619204 0.38100001 4280357643
0.035926919 0.061457474 0.38000003 4284228380
0.037063368 0.06129574 0.37900001 4287845448
0.038193323 0.061134014 0.37800002 4285017119
0.039316773 0.060972281 0.377 4283441169
0.040433735 0.060810551 0.37600002 4283049237
0.04386292 0.060487092 0.37400001 4282718219
0.045077674 0.060487092 0.37400001 4281542673
0.046292424 0.060487092 0.37400001 4281280785
0.047507178 0.060487092 0.37400001 4281280271
0.048721932 0.060487092 0.37400001 4282196240
0.049936686 0.060487092 0.37400001 4282653711
0.051151432 0.060487092 0.37400001 4282326543
0.0039275307 0.064176947 0.38900003 4286551429
0.0051910039 0.064176947 0.38900003 4286419843
0.0064544762 0.064176947 0.38900003 4286613629
0.0077179489 0.064176947 0.38900003 4283646780
0.0089583332 0.064011961 0.38800001 4282984223
0.010218557 0.064011961 0.38800001 4285747525
0.011478783 0.064011961 0.38800001 4284557083
0.012739007 0.064011961 0.38800001 4284753179
0.013963151 0.063846983 0.38700002 4284357908
0.015220128 0.063846983 0.38700002 4284423701
0.016477104 0.063846983 0.38700002 4285818201
0.017688256 0.063682005 0.38600001 4286286970
0.018941985 0.063682005 0.38600001 4286288257
0.020195713 0.063682005 0.38600001 4286222464
0.021393875 0.063517027 0.38500002 4286222464
0.022644356 0.063517027 0.38500002 4286090878
0.023894835 0.063517027 0.38500002 4286682761
0.025080003 0.063352041 0.384 4286155904
0.026327236 0.063352041 0.384 4280167208
0.02750266 0.06318707 0.38300002 4279179800
0.028746644 0.06318707 0.38300002 4279574039
0.02999063 0.06318707 0.38300002 4279573526
0.031153062 0.063022092 0.38200003 4279375894
0.032393802 0.063022092 0.38200003 4279637777
0.033546485 0.062857106 0.38100001 4281932051
0.034783974 0.062857106 0.38100001 4284492581
0.035926919 0.062692128 0.38000003 4285145623
0.037063368 0.06252715 0.37900001 4285210133
0.038193323 0.062362172 0.37800002 4285079060
0.039316773 0.06219719 0.377 4287647554
0.040541269 0.06219719 0.377 4284951328
0.041654985 0.062032212 0.37600002 4284818457
0.042762201 0.061867233 0.37500003 4283374352
0.043980204 0.061867233 0.37500003 4282458127
0.045077674 0.061702251 0.37400001 4281542673
0.046292424 0.061702251 0.37400001 4281346064
0.047507178 0.061702251 0.37400001 4281804562
0.048721932 0.061702251 0.37400001 4282522893
0.049936686 0.061702251 0.37400001 4282522893
0.051288206 0.061867233 0.37500003 4282262033
0.0039275307 0.065440848 0.38900003 4286551945
0.0051910039 0.065440848 0.38900003 4286552199
0.0064544762 0.065440848 0.38900003 4286419843
0.0077179489 0.065440848 0.38900003 4285890935
0.0089583332 0.065272614 0.38800001 4282525219
0.010218557 0.065272614 0.38800001 4281866258
0.011478783 0.065272614 0.38800001 4284362017
0.012706175 0.065104388 0.38700002 4284753177
0.013963151 0.065104388 0.38700002 4284948503
0.015220128 0.065104388 0.38700002 4284882710
0.016477104 0.065104388 0.38700002 4283965460
0.017688256 0.064936161 0.38600001 4288185718
0.018941985 0.064936161 0.38600001 4286156156
0.020195713 0.064936161 0.38600001 4286222464
0.021449441 0.064936161 0.38600001 4286288257
0.022644356 0.064767934 0.38500002 4286354050
0.023894835 0.064767934 0.38500002 4286288257
0.025080003 0.0645997 0.384 4286222464
0.026327236 0.0645997 0.384 4285959808
0.027574468 0.0645997 0.384 4286617738
0.028746644 0.064431474 0.38300002 4286683533
0.02999063 0.064431474 0.38300002 4286551945
0.031153062 0.064263247 0.38200003 4286747271
0.032393802 0.064263247 0.38200003 4280887069
0.033546485 0.06409502 0.38100001 4284294173
0.034783974 0.06409502 0.38100001 4284883482
0.035926919 0.063926794 0.38000003 4285079060
0.037063368 0.06375856 0.37900001 4285736477
0.038193323 0.063590333 0.37800002 4285801500
0.039421067 0.063590333 0.37800002 4285801500
0.040541269 0.063422106 0.377 4285144340
0.041654985 0.06325388 0.37600002 4284685329
0.042762201 0.063085653 0.37500003 4282917651
0.043980204 0.063085653 0.37500003 4282132498
0.045198202 0.063085653 0.37500003 4281609234
0.046416204 0.063085653 0.37500003 4281280269
0.047634203 0.063085653 0.37500003 4282326541
0.048852205 0.063085653 0.37500003 4282915084
0.050070208 0.063085653 0.37500003 4282589199
0.051288206 0.063085653 0.37500003 4281737488
0.0051910039 0.066704743 0.38900003 4286617738
0.0064544762 0.066704743 0.38900003 4286485636
0.0077179489 0.066704743 0.38900003 4286485636
0.0089583332 0.066533267 0.38800001 4285295200
0.010218557 0.066533267 0.38800001 4282788643
0.011478783 0.066533267 0.38800001 4283903524
0.012706175 0.066361792 0.38700002 4284492574
0.013963151 0.066361792 0.38700002 4285277466
0.015220128 0.066361792 0.38700002 4285080087
0.016434528 0.06619031 0.38600001 4285014294
0.017688256 0.06619031 0.38600001 4284161042
0.018941985 0.06619031 0.38600001 4287730563
0.020195713 0.06619031 0.38600001 4286418042
0.021393875 0.066018835 0.38500002 4286550144
0.022644356 0.066018835 0.38500002 4286353535
0.023894835 0.066018835 0.38500002 4286222464
0.025145316 0.066018835 0.38500002 4286288257
0.026327236 0.065847352 0.384 4286090878
0.027574468 0.065847352 0.384 4286157441
0.028746644 0.065675877 0.38300002 4286157441
0.02999063 0.065675877 0.38300002 4286157441
0.031153062 0.065504402 0.38200003 4286090878
0.032393802 0.065504402 0.38200003 4286746496
0.033546485 0.065332919 0.38100001 4283702806
0.034692679 0.065161444 0.38000003 4284554263
0.035926919 0.065161444 0.38000003 4285539865
0.037063368 0.064989969 0.37900001 4285539350
0.038193323 0.064818494 0.37800002 4285932568
0.039421067 0.064818494 0.37800002 4285800982
0.040541269 0.064647011 0.377 4285144340
0.041654985 0.064475536 0.37600002 4284095247
0.042876232 0.064475536 0.37600002 4282329877
0.043980204 0.064304061 0.37500003 4281608464
0.045198202 0.064304061 0.37500003 4281214476
0.046416204 0.064304061 0.37500003 4281345292
0.047634203 0.064304061 0.37500003 4283047184
0.048852205 0.064304061 0.37500003 4282980364
0.050070208 0.064304061 0.37500003 4282524692
0.051288206 0.064304061 0.37500003 4281016075
0.0064544762 0.067968652 0.38900003 4286551945
0.0077179489 0.067968652 0.38900003 4286551175
0.0089583332 0.067793921 0.38800001 4286616709
0.010218557 0.067793921 0.38800001 4283256644
0.011449198 0.067619197 0.38700002 4283771940
0.012706175 0.067619197 0.38700002 4284099360
0.013963151 0.067619197 0.38700002 4284818968
0.015180798 0.067444466 0.38600001 4285277720
0.016434528 0.067444466 0.38600001 4285276693
0.017688256 0.067444466 0.38600001 4285276439
0.018941985 0.067444466 0.38600001 4284227353
0.020143393 0.067269742 0.38500002 4288248944
0.021393875 0.067269742 0.38500002 4286418296
0.022644356 0.067269742 0.38500002 4286090363
0.023894835 0.067269742 0.38500002 4286353535
0.025080003 0.067095011 0.384 4286354048
0.026327236 0.067095011 0.384 4286288255
0.027574468 0.067095011 0.384 4286288255
0.028746644 0.066920288 0.38300002 4286288257
0.02999063 0.066920288 0.38300002 4286222464
0.031153062 0.066745564 0.38200003 4286222464
0.032308999 0.066570833 0.38100001 4286287744
0.033546485 0.066570833 0.38100001 4285422673
0.034692679 0.06639611 0.38000003 4284556831
0.035832375 0.066221379 0.37900001 4285670168
0.037063368 0.066221379 0.37900001 4285735959
0.038193323 0.066046655 0.37800002 4285932311
0.039316773 0.065871924 0.377 4285669398
0.040541269 0.065871924 0.377 4284487952
0.041654985 0.065697201 0.37600002 4283241737
0.042876232 0.065697201 0.37600002 4281935119
0.044097483 0.065697201 0.37600002 4281411085
0.04531873 0.065697201 0.37600002 4281345294
0.046416204 0.065522477 0.37500003 4281738254
0.047634203 0.065522477 0.37500003 4283439632
0.048852205 0.065522477 0.37500003 4283111180
0.050070208 0.065522477 0.37500003 4282198553
0.051288206 0.065522477 0.37500003 4280754189
0.0089583332 0.069054574 0.38800001 4286288773
0.010218557 0.069054574 0.38800001 4287011467
0.011449198 0.068876602 0.38700002 4283512368
0.012706175 0.068876602 0.38700002 4283836450
0.013963151 0.068876602 0.38700002 4284295708
0.015180798 0.068698622 0.38600001 4284754458
0.016434528 0.068698622 0.38600001 4285408795
0.017688256 0.068698622 0.38600001 4285671197
0.018892914 0.06852065 0.38500002 4285605406
0.020143393 0.06852065 0.38500002 4285144855
0.021393875 0.06852065 0.38500002 4286603606
0.022644356 0.06852065 0.38500002 4287664770
0.02383277 0.068342671 0.384 4286484349
0.025080003 0.068342671 0.384 4286286970
0.026327236 0.068342671 0.384 4286090363
0.02750266 0.068164699 0.38300002 4286353535
0.028746644 0.068164699 0.38300002 4286156158
0.029912326 0.067986719 0.38200003 4286287744
0.031153062 0.067986719 0.38200003 4286353537
0.032308999 0.067808747 0.38100001 4286156158
0.033458438 0.067630768 0.38000003 4287270015
0.034692679 0.067630768 0.38000003 4283904809
0.035832375 0.067452788 0.37900001 4285932318
0.036965575 0.067274816 0.37800002 4285932313
0.038193323 0.067274816 0.37800002 4285866520
0.039316773 0.067096837 0.377 4285998109
0.040541269 0.067096837 0.377 4285145373
0.041765768 0.067096837 0.377 4284291091
0.042876232 0.066918865 0.37600002 4283505938
0.044097483 0.066918865 0.37600002 4282851858
0.04531873 0.066918865 0.37600002 4282261518
0.046416204 0.066740893 0.37500003 4283048467
0.047761224 0.066918865 0.37600002 4283438862
0.048982475 0.066918865 0.37600002 4283243536
0.050070208 0.066740893 0.37500003 4281147152
0.051288206 0.066740893 0.37500003 4280162313
0.010218557 0.070315219 0.38800001 4286485382
0.011449198 0.070133999 0.38700002 4288059276
0.012706175 0.070133999 0.38700002 4282984739
0.013927069 0.069952771 0.38600001 4284099106
0.015180798 0.069952771 0.38600001 4284954156
0.016391952 0.069771551 0.38500002 4285213217
0.017642433 0.069771551 0.38500002 4285802785
0.018892914 0.069771551 0.38500002 4285802272
0.020143393 0.069771551 0.38500002 4285670686
0.021338305 0.069590323 0.384 4285670688
0.022585537 0.069590323 0.384 4285079839
0.02383277 0.069590323 0.384 4286668629
0.025080003 0.069590323 0.384 4288055417
0.026327236 0.069590323 0.384 4287205246
0.02750266 0.069409102 0.38300002 4286548345
0.028746644 0.069409102 0.38300002 4286549630
0.029912326 0.069227874 0.38200003 4286549630
0.031071508 0.069046646 0.38100001 4286680701
0.032308999 0.069046646 0.38100001 4286875257
0.033458438 0.068865426 0.38000003 4287129180
0.034601379 0.068684198 0.37900001 4286005559
0.035832375 0.068684198 0.37900001 4286460713
0.036965575 0.068502977 0.37800002 4286129949
0.038193323 0.068502977 0.37800002 4286129692
0.039316773 0.06832175 0.377 4288433992
0.040541269 0.06832175 0.377 4287121727
0.041765768 0.06832175 0.377 4285342234
0.042876232 0.068140522 0.37600002 4285013269
0.044097483 0.068140522 0.37600002 4284423699
0.04531873 0.068140522 0.37600002 4283504655
0.046663754 0.06832175 0.377 4283242253
0.047761224 0.068140522 0.37600002 4283439632
0.048982475 0.068140522 0.37600002 4282981393
0.050337244 0.06832175 0.377 4279634690
0.051561739 0.06832175 0.377 4279571207
0.010218557 0.071575873 0.38800001 4286420359
0.011449198 0.071391404 0.38700002 4286550662
0.012706175 0.071391404 0.38700002 4285624935
0.013927069 0.071206927 0.38600001 4283770143
0.015180798 0.071206927 0.38600001 4283506456
0.016391952 0.071022458 0.38500002 4285346345
0.017642433 0.071022458 0.38500002 4285145627
0.018843841 0.070837982 0.384 4288041292
0.020091072 0.070837982 0.384 4285738017
0.021338305 0.070837982 0.384 4285999133
0.022585537 0.070837982 0.384 4288631882
0.02383277 0.070837982 0.384 4284884252
0.025014691 0.070653506 0.38300002 4285540642
0.026258677 0.070653506 0.38300002 4285805102
0.02750266 0.070653506 0.38300002 4285873205
0.028746644 0.070653506 0.38300002 4285217328
0.029912326 0.070469037 0.38200003 4285217326
0.031071508 0.07028456 0.38100001 4286005559
0.032308999 0.07028456 0.38100001 4286267961
0.033458438 0.070100084 0.38000003 4286264363
0.034601379 0.069915608 0.37900001 4285605404
0.035737831 0.069731139 0.37800002 4285997852
0.036965575 0.069731139 0.37800002 4286063129
0.038092278 0.069546662 0.377 4285998106
0.039316773 0.069546662 0.377 4288172355
0.040541269 0.069546662 0.377 4285474840
0.041765768 0.069546662 0.377 4285406226
0.042990264 0.069546662 0.377 4284881168
0.044214763 0.069546662 0.377 4284552716
0.045439258 0.069546662 0.377 4283766800
0.046663754 0.069546662 0.377 4283308048
0.047888249 0.069546662 0.377 4282783760
0.049112748 0.069546662 0.377 4282917914
0.050337244 0.069546662 0.377 4280162063
0.051561739 0.069546662 0.377 4279440395
0.011449198 0.072648801 0.38700002 4286551175
0.012673343 0.072461076 0.38600001 4286813834
0.013927069 0.072461076 0.38600001 4284037427
0.01514147 0.072273359 0.38500002 4284558374
0.016391952 0.072273359 0.38500002 4285607975
0.017596608 0.072085634 0.384 4286000166
0.018843841 0.072085634 0.384 4285538330
0.020091072 0.072085634 0.384 4286063902
0.021338305 0.072085634 0.384 4285276180
0.022526722 0.071897909 0.38300002 4288108872
0.023770707 0.071897909 0.38300002 4286330154
0.025014691 0.071897909 0.38300002 4286460200
0.026258677 0.071897909 0.38300002 4286327076
0.02750266 0.071897909 0.38300002 4286129697
0.028671589 0.071710192 0.38200003 4286130469
0.029912326 0.071710192 0.38200003 4286065444
0.031071508 0.071522467 0.38100001 4286065444
0.032308999 0.071522467 0.38100001 4285999651
0.033458438 0.071334742 0.38000003 4285736477
0.034601379 0.071147017 0.37900001 4285341719
0.035737831 0.0709593 0.37800002 4285537558
0.036965575 0.0709593 0.37800002 4285603348
0.038092278 0.070771568 0.377 4285734164
0.039316773 0.070771568 0.377 4285537555
0.040541269 0.070771568 0.377 4285274129
0.041765768 0.070771568 0.377 4285208593
0.042990264 0.070771568 0.377 4284618509
0.044214763 0.070771568 0.377 4284027401
0.045439258 0.070771568 0.377 4283438348
0.046663754 0.070771568 0.377 4282914573
0.047888249 0.070771568 0.377 4282522643
0.049112748 0.070771568 0.377 4282195990
0.012673343 0.073715232 0.38600001 4286616455
0.01389099 0.073524266 0.38500002 4287532162
0.01514147 0.073524266 0.38500002 4285483328
0.016391952 0.073524266 0.38500002 4285869605
0.017596608 0.073333286 0.384 4286065444
0.018843841 0.073333286 0.384 4287249716
0.020091072 0.073333286 0.384 4285472535
0.021282736 0.07314232 0.38300002 4285800984
0.022526722 0.07314232 0.38300002 4285209615
0.023770707 0.07314232 0.38300002 4286130719
0.025014691 0.07314232 0.38300002 4286328098
0.026258677 0.07314232 0.38300002 4286262821
0.02750266 0.07314232 0.38300002 4286262823
0.028746644 0.07314232 0.38300002 4286197030
0.029912326 0.072951347 0.38200003 4285999651
0.031071508 0.072760373 0.38100001 4285671969
0.032308999 0.072760373 0.38100001 4285409572
0.033458438 0.072569408 0.38000003 4283834392
0.034601379 0.072378427 0.37900001 4283703319
0.035737831 0.072187461 0.37800002 4284882451
0.036867782 0.071996488 0.377 4285210133
0.038092278 0.071996488 0.377 4285406226
0.039316773 0.071996488 0.377 4285471762
0.040541269 0.071996488 0.377 4285077007
0.041765768 0.071996488 0.377 4284815377
0.042990264 0.071996488 0.377 4284092937
0.044214763 0.071996488 0.377 4283633413
0.045439258 0.071996488 0.377 4282848008
0.046663754 0.071996488 0.377 4282783760
0.047888249 0.071996488 0.377 4282261268
0.049112748 0.071996488 0.377 4282526238
0.01389099 0.074775167 0.38500002 4286878084
0.01514147 0.074775167 0.38500002 4284566851
0.016349375 0.074580938 0.384 4285804582
0.017596608 0.074580938 0.384 4285540640
0.018843841 0.074580938 0.384 4285210133
0.020038752 0.074386723 0.38300002 4285144340
0.021282736 0.074386723 0.38300002 4285209363
0.022526722 0.074386723 0.38300002 4285078547
0.023770707 0.074386723 0.38300002 4284422929
0.025014691 0.074386723 0.38300002 4284293657
0.026258677 0.074386723 0.38300002 4283775792
0.02750266 0.074386723 0.38300002 4283446573
0.028746644 0.074386723 0.38300002 4283905841
0.029912326 0.074192502 0.38200003 4284433468
0.031153062 0.074192502 0.38200003 4285951332
0.032308999 0.07399828 0.38100001 4287664518
0.033458438 0.073804058 0.38000003 4287664775
0.034601379 0.073609836 0.37900001 4282201646
0.035737831 0.073415615 0.37800002 4284032284
0.036867782 0.073221393 0.377 4284554517
0.038092278 0.073221393 0.377 4285079062
0.039316773 0.073221393 0.377 4284946963
0.040541269 0.073221393 0.377 4284356366
0.041765768 0.073221393 0.377 4284028173
0.042990264 0.073221393 0.377 4283438089
0.044214763 0.073221393 0.377 4282977797
0.045439258 0.073221393 0.377 4282323463
0.046663754 0.073221393 0.377 4282390287
0.047888249 0.073221393 0.377 4282261783
0.01389099 0.076026075 0.38500002 4286878597
0.01514147 0.076026075 0.38500002 4284372300
0.016349375 0.075828597 0.384 4285016867
0.017596608 0.075828597 0.384 4285344033
0.018843841 0.075828597 0.384 4285343004
0.020038752 0.075631134 0.38300002 4284685074
0.021282736 0.075631134 0.38300002 4284422929
0.022526722 0.075631134 0.38300002 4284094736
0.023770707 0.075631134 0.38300002 4283438862
0.025014691 0.075631134 0.38300002 4285681220
0.026258677 0.075631134 0.38300002 4286417529
0.02750266 0.075631134 0.38300002 4286286458
0.028746644 0.075631134 0.38300002 4286352251
0.029912326 0.075433664 0.38200003 4286549630
0.031153062 0.075433664 0.38200003 4286484351
0.032308999 0.075236186 0.38100001 4286221179
0.033458438 0.075038724 0.38000003 4286878082
0.034601379 0.074841246 0.37900001 4281611819
0.035737831 0.074643783 0.37800002 4283381034
0.036867782 0.074446306 0.377 4283572503
0.038092278 0.074446306 0.377 4284162325
0.039316773 0.074446306 0.377 4284227605
0.040541269 0.074446306 0.377 4283898640
0.041765768 0.074446306 0.377 4283373323
0.042990264 0.074446306 0.377 4282848008
0.044214763 0.074446306 0.377 4282717194
0.045439258 0.074446306 0.377 4282390285
0.046663754 0.074446306 0.377 4282523158
0.048015274 0.074643783 0.37800002 4282263582
0.011449198 0.077678412 0.38700002 4286748554
0.012706175 0.077678412 0.38700002 4286551175
0.013927069 0.077477694 0.38600001 4286550662
0.01514147 0.077276975 0.38500002 4286153078
0.016391952 0.077276975 0.38500002 4284822318
0.017596608 0.077076249 0.384 4284885283
0.018843841 0.077076249 0.384 4284752412
0.020091072 0.077076249 0.384 4284292374
0.021282736 0.076875538 0.38300002 4284095765
0.022526722 0.076875538 0.38300002 4283635727
0.023770707 0.076875538 0.38300002 4282914832
0.025014691 0.076875538 0.38300002 4282127887
0.026258677 0.076875538 0.38300002 4282857264
0.02750266 0.076875538 0.38300002 4285096023
0.028746644 0.076875538 0.38300002 4286019950
0.02999063 0.076875538 0.38300002 4285889134
0.031153062 0.076674819 0.38200003 4286414710
0.032393802 0.076674819 0.38200003 4285493608
0.033458438 0.076273374 0.38000003 4283515448
0.034601379 0.076072656 0.37900001 4281473298
0.035737831 0.075871937 0.37800002 4281798922
0.036867782 0.075671218 0.377 4284100390
0.038092278 0.075671218 0.377 4283112465
0.039316773 0.075671218 0.377 4283638296
0.040541269 0.075671218 0.377 4283243538
0.041765768 0.075671218 0.377 4282717707
0.042990264 0.075671218 0.377 4282323979
0.044214763 0.075671218 0.377 4282587664
0.045439258 0.075671218 0.377 4282786842
0.046663754 0.075671218 0.377 4282590746
0.048015274 0.075871937 0.37800002 4281475611
0.011449198 0.078935817 0.38700002 4286485382
0.012706175 0.078935817 0.38700002 4286682761
0.013927069 0.07873185 0.38600001 4286748041
0.01514147 0.078527883 0.38500002 4287274385
0.016391952 0.078527883 0.38500002 4284105534
0.017596608 0.078323908 0.384 4284297773
0.018843841 0.078323908 0.384 4284163616
0.020091072 0.078323908 0.384 4283834651
0.021338305 0.078323908 0.384 4283703065
0.022585537 0.078323908 0.384 4283178004
0.02383277 0.078323908 0.384 4282850838
0.025080003 0.078323908 0.384 4282654742
0.026327236 0.078323908 0.384 4282327322
0.027574468 0.078323908 0.384 4282524190
0.028746644 0.078119941 0.38300002 4282655522
0.02999063 0.078119941 0.38300002 4282260764
0.031153062 0.077915974 0.38200003 4282064672
0.032393802 0.077915974 0.38200003 4282394150
0.03381063 0.078323908 0.384 4282459939
0.034510083 0.077100098 0.37800002 4282525219
0.035737831 0.077100098 0.37800002 4282327324
0.036867782 0.076896131 0.377 4282786842
0.038092278 0.076896131 0.377 4284168747
0.039316773 0.076896131 0.377 4283774759
0.040541269 0.076896131 0.377 4282850838
0.041765768 0.076896131 0.377 4282521873
0.042990264 0.076896131 0.377 4282195475
0.044214763 0.076896131 0.377 4282261268
0.045439258 0.076896131 0.377 4282525723
0.046663754 0.076896131 0.377 4281079822
0.011478783 0.08040043 0.38800001 4286485382
0.012706175 0.080193214 0.38700002 4286682761
0.013927069 0.079985999 0.38600001 4286682761
0.015180798 0.079985999 0.38600001 4286551175
0.016391952 0.079778783 0.38500002 4287206277
0.017596608 0.07957156 0.384 4282859315
0.018843841 0.07957156 0.384 4283903274
0.020091072 0.07957156 0.384 4283903274
0.021338305 0.07957156 0.384 4283311137
0.022585537 0.07957156 0.384 4283180321
0.02383277 0.07957156 0.384 4282853153
0.025080003 0.07957156 0.384 4283116838
0.026327236 0.07957156 0.384 4282591266
0.027574468 0.07957156 0.384 4283577391
0.028746644 0.079364344 0.38300002 4283448633
0.02999063 0.079364344 0.38300002 4285687648
0.031153062 0.079157129 0.38200003 4287072640
0.032393802 0.079157129 0.38200003 4287731856
0.03381063 0.07957156 0.384 4284375643
0.035057861 0.07957156 0.384 4282269240
0.035643287 0.078121036 0.377 4282399797
0.036867782 0.078121036 0.377 4282004267
0.038092278 0.078121036 0.377 4281609248
0.039316773 0.078121036 0.377 4280885525
0.040541269 0.078121036 0.377 4281017111
0.041765768 0.078121036 0.377 4280950804
0.042990264 0.078121036 0.377 4280885011
0.044214763 0.078121036 0.377 4280753425
0.045439258 0.078121036 0.377 4280424720
0.012706175 0.081450626 0.38700002 4286682761
0.013963151 0.081450626 0.38700002 4286551175
0.015180798 0.081240155 0.38600001 4286748554
0.016391952 0.081029691 0.38500002 4286879627
0.017596608 0.080819219 0.384 4286945674
0.018843841 0.080819219 0.384 4285362020
0.020091072 0.080819219 0.384 4284042821
0.021338305 0.080819219 0.384 4283185461
0.022585537 0.080819219 0.384 4282724397
0.02383277 0.080819219 0.384 4282330922
0.025080003 0.080819219 0.384 4283845446
0.026327236 0.080819219 0.384 4286087798
0.027574468 0.080819219 0.384 4287141002
0.028746644 0.080608755 0.38300002 4286680964
0.029912326 0.080398291 0.38200003 4286549378
0.031153062 0.080398291 0.38200003 4286615939
0.032393802 0.080398291 0.38200003 4286550146
0.03381063 0.080819219 0.384 4286549892
0.013963151 0.082708031 0.38700002 4286419589
0.015220128 0.082708031 0.38700002 4286551175
0.016391952 0.082280599 0.38500002 4286682761
0.017596608 0.082066879 0.384 4286551175
0.018843841 0.082066879 0.384 4286682761
0.020091072 0.082066879 0.384 4286748041
0.021338305 0.082066879 0.384 4287076236
0.022585537 0.082066879 0.384 4287208076
0.02383277 0.082066879 0.384 4286681732
0.025080003 0.082066879 0.384 4286615939
0.026327236 0.082066879 0.384 4286484869
0.027574468 0.082066879 0.384 4286484869
0.028746644 0.081853166 0.38300002 4286615685
0.029912326 0.081639446 0.38200003 4286549892
0.031153062 0.081639446 0.38200003 4286419330
0.032393802 0.081639446 0.38200003 4286419330
0.03381063 0.082066879 0.384 4286419076
0.016349375 0.083314531 0.384 4286551175
0.017596608 0.083314531 0.384 4286682761
0.018843841 0.083314531 0.384 4286682761
0.020091072 0.083314531 0.384 4286485382
0.021338305 0.083314531 0.384 4286748041
0.022585537 0.083314531 0.384 4286748041
0.02383277 0.083314531 0.384 4286748041
0.025080003 0.083314531 0.384 4286616455
0.026327236 0.083314531 0.384 4286550662
0.027574468 0.083314531 0.384 4286616455
0.028821699 0.083314531 0.384 4286484869
0.029912326 0.082880601 0.38200003 4286879881
0.031071508 0.082663633 0.38100001 4286814088
0.032393802 0.082880601 0.38200003 4286485123
0.03381063 0.083314531 0.384 4286419330
0.018843841 0.084562182 0.384 4286748295
0.020091072 0.084562182 0.384 4286616709
0.021338305 0.084562182 0.384 4286814088
0.022585537 0.084562182 0.384 4286814088
0.02383277 0.084562182 0.384 4286814088
0.025080003 0.084562182 0.384 4286748295
0.026327236 0.084562182 0.384 4286550916
0.027574468 0.084562182 0.384 4286550916
0.028821699 0.084562182 0.384 4286748295
0.030068934 0.084562182 0.384 4286748295
0.031316165 0.084562182 0.384 4286616455
0.0325634 0.084562182 0.384 4286419076
0.03381063 0.084562182 0.384 4286484869
0.032139398 0.026816269 0.37900001 4285550400
0.033370391 0.026816269 0.37900001 4285611055
0.034601379 0.026816269 0.37900001 4285940018
0.035832375 0.026816269 0.37900001 4285545260
0.037063368 0.026816269 0.37900001 4285151015
0.03829436 0.026816269 0.37900001 4284757802
0.025080003 0.028417701 0.384 4287138683
0.026258677 0.028343696 0.38300002 4286145621
0.027430853 0.028269693 0.38200003 4285154874
0.02859653 0.028195687 0.38100001 4284228380
0.029755717 0.028121684 0.38000003 4285676596
0.030989956 0.028121684 0.38000003 4285544492
0.032139398 0.028047679 0.37900001 4285740072
0.033370391 0.028047679 0.37900001 4285738789
0.034601379 0.028047679 0.37900001 4285277466
0.035832375 0.028047679 0.37900001 4285343002
0.037063368 0.028047679 0.37900001 4285081627
0.03829436 0.028047679 0.37900001 4285017630
0.039525352 0.028047679 0.37900001 4284360984
0.015298785 0.030051624 0.38900003 4284960064
0.016562259 0.030051624 0.38900003 4285153593
0.01782573 0.030051624 0.38900003 4284297771
0.019089203 0.030051624 0.38900003 4284166185
0.020352677 0.030051624 0.38900003 4284560173
0.02156058 0.029974369 0.38800001 4284624937
0.022820804 0.029974369 0.38800001 4284558628
0.0239569 0.029819863 0.38600001 4285018664
0.025080003 0.029665355 0.384 4285150250
0.026258677 0.029588103 0.38300002 4285215275
0.027430853 0.02951085 0.38200003 4285149482
0.02859653 0.029433595 0.38100001 4285082914
0.029755717 0.029356342 0.38000003 4286332979
0.030989956 0.029356342 0.38000003 4285672996
0.032139398 0.029279089 0.37900001 4284882710
0.033370391 0.029279089 0.37900001 4289950824
0.034601379 0.029279089 0.37900001 4285211416
0.035832375 0.029279089 0.37900001 4285144340
0.037063368 0.029279089 0.37900001 4284750865
0.03829436 0.029279089 0.37900001 4284555796
0.039525352 0.029279089 0.37900001 4284293909
0.040756345 0.029279089 0.37900001 4283443225
0.011478783 0.031235021 0.38800001 4286013265
0.012739007 0.031235021 0.38800001 4285809976
0.013999231 0.031235021 0.38800001 4285676078
0.015298785 0.031315524 0.38900003 4285610285
0.016562259 0.031315524 0.38900003 4285676848
0.01782573 0.031315524 0.38900003 4285216297
0.019089203 0.031315524 0.38900003 4285017121
0.020352677 0.031315524 0.38900003 4285148453
0.02156058 0.031235021 0.38800001 4285017382
0.022761988 0.031154519 0.38700002 4283835421
0.0239569 0.031074015 0.38600001 4284105786
0.025145316 0.030993514 0.38500002 4285818714
0.026258677 0.030832509 0.38300002 4287005555
0.027430853 0.030752007 0.38200003 4287400828
0.02859653 0.030671503 0.38100001 4286073662
0.029755717 0.030591002 0.38000003 4285148703
0.030989956 0.030591002 0.38000003 4285605658
0.032139398 0.030510496 0.37900001 4285409052
0.033370391 0.030510496 0.37900001 4285345053
0.034601379 0.030510496 0.37900001 4285275926
0.035832375 0.030510496 0.37900001 4285342232
0.037063368 0.030510496 0.37900001 4284487695
0.03829436 0.030510496 0.37900001 4284095247
0.039525352 0.030510496 0.37900001 4283964944
0.040756345 0.030510496 0.37900001 4283375889
0.041987337 0.030510496 0.37900001 4283574813
0.010218557 0.032495674 0.38800001 4283847491
0.011478783 0.032495674 0.38800001 4285806896
0.012739007 0.032495674 0.38800001 4285476135
0.013999231 0.032495674 0.38800001 4285803814
0.015259456 0.032495674 0.38800001 4285409054
0.016519681 0.032495674 0.38800001 4285146650
0.017779905 0.032495674 0.38800001 4285213726
0.02156058 0.032495674 0.38800001 4287403143
0.022761988 0.032411922 0.38700002 4286747009
0.025145316 0.032244418 0.38500002 4286353537
0.026327236 0.032160666 0.384 4286222464
0.027430853 0.031993162 0.38200003 4286090876
0.02859653 0.03190941 0.38100001 4284563505
0.029755717 0.031825658 0.38000003 4284951326
0.030989956 0.031825658 0.38000003 4285408795
0.032139398 0.031741906 0.37900001 4285342232
0.033370391 0.031741906 0.37900001 4284948498
0.034601379 0.031741906 0.37900001 4285014291
0.035832375 0.031741906 0.37900001 4284619536
0.037063368 0.031741906 0.37900001 4284028173
0.03829436 0.031741906 0.37900001 4283373069
0.039525352 0.031741906 0.37900001 4282980364
0.040756345 0.031741906 0.37900001 4283047184
0.041987337 0.031741906 0.37900001 4283507735
0.0089583332 0.033756323 0.38800001 4285953128
0.010218557 0.033756323 0.38800001 4284890419
0.011478783 0.033756323 0.38800001 4285542180
0.012739007 0.033756323 0.38800001 4289621859
0.013999231 0.033756323 0.38800001 4287186233
0.015259456 0.033756323 0.38800001 4285211416
0.016519681 0.033756323 0.38800001 4284948501
0.017779905 0.033756323 0.38800001 4284292628
0.01904013 0.033756323 0.38800001 4287202936
0.02156058 0.033756323 0.38800001 4286222464
0.022761988 0.033669323 0.38700002 4286222464
0.025145316 0.033495322 0.38500002 4286616189
0.026327236 0.033408321 0.384 4286944127
0.02750266 0.033321321 0.38300002 4286812541
0.028671589 0.033234321 0.38200003 4284955953
0.029834021 0.033147316 0.38100001 4284686873
0.030989956 0.03306032 0.38000003 4285145625
0.032139398 0.032973316 0.37900001 4284750867
0.033370391 0.032973316 0.37900001 4284553745
0.034601379 0.032973316 0.37900001 4284422159
0.035832375 0.032973316 0.37900001 4284028171
0.037063368 0.032973316 0.37900001 4283700237
0.03829436 0.032973316 0.37900001 4282782987
0.039525352 0.032973316 0.37900001 4282587151
0.040756345 0.032973316 0.37900001 4282717967
0.042098124 0.03306032 0.38000003 4283769110
0.007698108 0.035016976 0.38800001 4286288773
0.0089583332 0.035016976 0.38800001 4284697407
0.010218557 0.035016976 0.38800001 4285215013
0.011478783 0.035016976 0.38800001 4285935139
0.012739007 0.035016976 0.38800001 4290543733
0.013999231 0.035016976 0.38800001 4285344031
0.015220128 0.034926727 0.38700002 4285145882
0.016519681 0.035016976 0.38800001 4284816917
0.017779905 0.035016976 0.38800001 4283437319
0.01904013 0.035016976 0.38800001 4288123266
0.020300355 0.035016976 0.38800001 4287468418
0.021505011 0.034926727 0.38700002 4286211928
0.022761988 0.034926727 0.38700002 4284300333
0.0239569 0.034836479 0.38600001 4284494116
0.025145316 0.03474623 0.38500002 4284492833
0.026327236 0.034655977 0.384 4284427040
0.02750266 0.034565728 0.38300002 4284820515
0.028671589 0.034475479 0.38200003 4285409826
0.029834021 0.034385227 0.38100001 4284488724
0.030989956 0.034294982 0.38000003 4284488724
0.032224201 0.034294982 0.38000003 4284357908
0.033370391 0.034204729 0.37900001 4284226068
0.034601379 0.034204729 0.37900001 4283897616
0.035832375 0.034204729 0.37900001 4283307276
0.037063368 0.034204729 0.37900001 4282847497
0.03829436 0.034204729 0.37900001 4282454795
0.039629642 0.034294982 0.38000003 4282192906
0.040863883 0.034294982 0.38000003 4282388488
0.042098124 0.034294982 0.38000003 4284031769
0.043446396 0.034385227 0.38100001 4284163609
0.007698108 0.036277629 0.38800001 4286749578
0.0089583332 0.036277629 0.38800001 4284365874
0.010218557 0.036277629 0.38800001 4285082914
0.011478783 0.036277629 0.38800001 4285014294
0.012706175 0.036184132 0.38700002 4285211418
0.013963151 0.036184132 0.38700002 4284883228
0.015220128 0.036184132 0.38700002 4284883228
0.016477104 0.036184132 0.38700002 4284160529
0.017734082 0.036184132 0.38700002 4285937453
0.018991059 0.036184132 0.38700002 4284556318
0.020248035 0.036184132 0.38700002 4284622624
0.021505011 0.036184132 0.38700002 4284886048
0.022761988 0.036184132 0.38700002 4284623390
0.0239569 0.036090631 0.38600001 4284031769
0.025145316 0.035997134 0.38500002 4283834903
0.026327236 0.035903633 0.384 4283834390
0.02750266 0.035810135 0.38300002 4284031769
0.028671589 0.035716638 0.38200003 4284359704
0.029834021 0.035623137 0.38100001 4284030739
0.030989956 0.03552964 0.38000003 4283571472
0.032224201 0.03552964 0.38000003 4283834903
0.033458438 0.03552964 0.38000003 4283505940
0.034601379 0.035436139 0.37900001 4283111182
0.035832375 0.035436139 0.37900001 4282914573
0.03716116 0.03552964 0.38000003 4282520074
0.038395401 0.03552964 0.38000003 4282327574
0.039629642 0.03552964 0.38000003 4284501562
0.040863883 0.03552964 0.38000003 4284961081
0.042208906 0.035623137 0.38100001 4283705368
0.043446396 0.035623137 0.38100001 4284424984
0.007698108 0.037538283 0.38800001 4286617992
0.0089583332 0.037538283 0.38800001 4284630331
0.010218557 0.037538283 0.38800001 4284491036
0.011478783 0.037538283 0.38800001 4284949273
0.012706175 0.037441533 0.38700002 4284751894
0.013963151 0.037441533 0.38700002 4284160788
0.016477104 0.037441533 0.38700002 4284292628
0.017734082 0.037441533 0.38700002 4284884252
0.018991059 0.037441533 0.38700002 4284096278
0.0239569 0.037344784 0.38600001 4283314987
0.025145316 0.037248038 0.38500002 4282921512
0.026327236 0.037151288 0.384 4283185200
0.02750266 0.037054539 0.38300002 4283250479
0.028671589 0.036957793 0.38200003 4284038444
0.029912326 0.036957793 0.38200003 4283903776
0.031071508 0.036861043 0.38100001 4282782987
0.032224201 0.036764298 0.38000003 4282782733
0.033458438 0.036764298 0.38000003 4283506710
0.034692679 0.036764298 0.38000003 4283243538
0.035926919 0.036764298 0.38000003 4283046159
0.03716116 0.036764298 0.38000003 4282060291
0.038395401 0.036764298 0.38000003 4284043575
0.039629642 0.036764298 0.38000003 4283715376
0.042208906 0.036861043 0.38100001 4284371507
0.043446396 0.036861043 0.38100001 4284096530
0.044801168 0.036957793 0.38200003 4284424982
0.0077179489 0.03889893 0.38900003 4286157187
0.011478783 0.038798932 0.38800001 4284360218
0.012739007 0.038798932 0.38800001 4284293911
0.028746644 0.038298946 0.38300002 4282988069
0.031071508 0.03809895 0.38100001 4282193676
0.032308999 0.03809895 0.38100001 4282390285
0.033458438 0.037998956 0.38000003 4282914832
0.034692679 0.037998956 0.38000003 4283638296
0.035926919 0.037998956 0.38000003 4284491290
0.03716116 0.037998956 0.38000003 4283504395
0.038395401 0.037998956 0.38000003 4284172331
0.042208906 0.03809895 0.38100001 4285954123
0.043446396 0.03809895 0.38100001 4286145857
0.044801168 0.038198952 0.38200003 4283637774
0.046041902 0.038198952 0.38200003 4284687384
0.0077179489 0.040162832 0.38900003 4286617738
0.0089814216 0.040162832 0.38900003 4283248678
0.02156058 0.040059585 0.38800001 4286878857
0.028746644 0.039543353 0.38300002 4282528803
0.031153062 0.039440107 0.38200003 4282193680
0.032308999 0.03933686 0.38100001 4282193678
0.033546485 0.03933686 0.38100001 4282258701
0.034692679 0.039233614 0.38000003 4282389774
0.035926919 0.039233614 0.38000003 4283899153
0.03716116 0.039233614 0.38000003 4284556568
0.038496442 0.03933686 0.38100001 4284032021
0.044683885 0.03933686 0.38100001 4284106792
0.045921374 0.03933686 0.38100001 4284424980
0.04715886 0.03933686 0.38100001 4284753177
0.006487661 0.041639723 0.39100003 4286223493
0.031153062 0.040681265 0.38200003 4282980625
0.032308999 0.040574767 0.38100001 4282849039
0.033546485 0.040574767 0.38100001 4282258186
0.034783974 0.040574767 0.38100001 4282389772
0.035926919 0.040468272 0.38000003 4282520588
0.037258953 0.040574767 0.38100001 4283637265
0.038496442 0.040574767 0.38100001 4284621589
0.039733931 0.040574767 0.38100001 4283964683
0.040971417 0.040574767 0.38100001 4286412107
0.045800846 0.040468272 0.38000003 4283506960
0.047035087 0.040468272 0.38000003 4284424982
0.006487661 0.042910121 0.39100003 4286157700
0.0077576302 0.042910121 0.39100003 4286022003
0.01782573 0.042690631 0.38900003 4287074180
0.02999063 0.042032164 0.38300002 4283244311
0.031153062 0.04192242 0.38200003 4283637013
0.032393802 0.04192242 0.38200003 4283438864
0.033546485 0.041812673 0.38100001 4283045389
0.034783974 0.041812673 0.38100001 4282914832
0.036021464 0.041812673 0.38100001 4282587918
0.038395401 0.04170293 0.38000003 4283768849
0.039629642 0.04170293 0.38000003 4284490003
0.045680314 0.041593187 0.37900001 4283250461
0.046911307 0.041593187 0.37900001 4283703571
0.0065042535 0.044293512 0.39200002 4286485382
0.032393802 0.043163579 0.38200003 4283046672
0.033546485 0.043050583 0.38100001 4283176462
0.034783974 0.043050583 0.38100001 4283308048
0.03716116 0.042937592 0.38000003 4282527770
0.039629642 0.042937592 0.38000003 4283900437
0.040863883 0.042937592 0.38000003 4284292113
0.0077576302 0.045450918 0.39100003 4282855973
0.010271231 0.045334674 0.39000002 4284695091
0.032393802 0.044404734 0.38200003 4280619534
0.040756345 0.044056002 0.37900001 4284227605
0.041876554 0.043939762 0.37800002 4283964946
0.043104298 0.043939762 0.37800002 4282528024
0.0090275994 0.046721317 0.39100003 4284825909
0.040648807 0.045167923 0.37800002 4283506708
0.041765768 0.045048431 0.377 4284162325
0.042876232 0.044928938 0.37600002 4283704341
0.047634203 0.044809449 0.37500003 4285342484
0.0052310373 0.048114456 0.39200002 4286288773
0.0065042535 0.048114456 0.39200002 4284170550
0.014071392 0.047868975 0.39000002 4281213722
0.015338113 0.047868975 0.39000002 4286944904
0.041654985 0.046150602 0.37600002 4283900437
0.042876232 0.046150602 0.37600002 4284554513
0.048721932 0.045905117 0.37400001 4285472787
0.049936686 0.045905117 0.37400001 4285210387
0.051014666 0.04578238 0.37300003 4285079830
0.041654985 0.047372267 0.37600002 4283507223
0.046168651 0.046994295 0.37300003 4290475367
0.047380153 0.046994295 0.37300003 4284618761
0.048591658 0.046994295 0.37300003 4285341201
0.049803168 0.046994295 0.37300003 4285078801
0.051014666 0.046994295 0.37300003 4284685072
0.014107473 0.050532516 0.39100003 4286943875
0.042648166 0.048335448 0.37400001 4284948498
0.043745644 0.04820621 0.37300003 4285341201
0.047253128 0.048076969 0.37200001 4285406996
0.048461385 0.048076969 0.37200001 4285209617
0.049669642 0.048076969 0.37200001 4284750095
0.050877895 0.048076969 0.37200001 4284290314
0.014071392 0.051670425 0.39000002 4286813054
0.016562259 0.051537938 0.38900003 4287008896
0.01782573 0.051537938 0.38900003 4287006068
0.042648166 0.049550612 0.37400001 4284751892
0.043745644 0.049418125 0.37300003 4284948498
0.044836614 0.049285635 0.37200001 4284881422
0.046044871 0.049285635 0.37200001 4284946961
0.047253128 0.049285635 0.37200001 4284815888
0.048461385 0.049285635 0.37200001 4284421900
0.049669642 0.049285635 0.37200001 4283962378
0.043745644 0.050630037 0.37300003 4284423701
0.044836614 0.050494298 0.37200001 4285079830
0.046044871 0.050494298 0.37200001 4285079314
0.047253128 0.050494298 0.37200001 4284816915
0.042648166 0.051980942 0.37400001 4283243284
0.042648166 0.053196106 0.37400001 4283638042
0.042648166 0.05441127 0.37400001 4283637524
0.041654985 0.060810551 0.37600002 4283901720
0.042762201 0.060648825 0.37500003 4283701774
0.028955519 0.054048125 0.38242167 4294967295
0.028955519 0.054048125 0.38242167 4294901760
0.028955519 0.053551067 0.38247585 4294901760
0.028955519 0.053054009 0.38253 4294901760
0.028955519 0.052556954 0.38258418 4294901760
0.028955519 0.052059896 0.38263834 4294901760
0.028955519 0.051562838 0.38269252 4294901760
0.028955519 0.05106578 0.38274667 4294901760
0.028955519 0.050568722 0.38280085 4294901760
0.028955519 0.050071664 0.382855 4294901760
0.028955519 0.04957461 0.38290918 4294901760
0.028955519 0.049077552 0.38296333 4294901760
0.028955519 0.048580494 0.38301751 4294901760
0.028955519 0.048083436 0.38307166 4294901760
0.028955519 0.047586381 0.38312584 4294901760
0.028955519 0.047089323 0.38318002 4294901760
0.028955519 0.046592265 0.38323417 4294901760
0.028955519 0.046095207 0.38328835 4294901760
0.028955519 0.045598149 0.3833425 4294901760
0.028955519 0.045101091 0.38339669 4294901760
0.028955519 0.044604037 0.38345084 4294901760
0.028955519 0.044106979 0.38350502 4294901760
0.028955519 0.043609921 0.38355917 4294901760
0.028955519 0.043112863 0.38361335 4294901760
0.028955519 0.042615805 0.3836675 4294901760
0.028955519 0.042118751 0.38372168 4294901760
0.028955519 0.041621692 0.38377583 4294901760
0.028955519 0.041124634 0.38383001 4294901760
0.028955519 0.040627576 0.38388419 4294901760
0.028955519 0.040130518 0.38393834 4294901760
0.028955519 0.03963346 0.38399252 4294901760
0.028955519 0.039136402 0.38404667 4294901760
0.028955519 0.038639348 0.38410085 4294901760
0.028955519 0.03814229 0.38415501 4294901760
0.028955519 0.037645232 0.38420919 4294901760
0.028955519 0.037148178 0.38426334 4294901760
0.028955519 0.03665112 0.38431752 4294901760
0.028955519 0.036154062 0.38437167 4294901760
0.028955519 0.035657004 0.38442585 4294901760
0.028955519 0.035159945 0.38448003 4294901760
0.028955519 0.034662887 0.38453418 4294901760
0.028955519 0.034165829 0.38458836 4294901760
0.028955519 0.033668775 0.38464251 4294901760
0.028955519 0.033171717 0.38469669 4294901760
0.028955519 0.032674659 0.38475084 4294901760
0.028955519 0.032177605 0.38480502 4294901760
0.028955519 0.031680547 0.38485917 4294901760
0.028955519 0.031183487 0.38491336 4294901760
0.028955519 0.030686431 0.38496751 4294901760
0.028955519 0.030189374 0.38502169 4294901760
0.028955519 0.029692315 0.38507584 4294901760
0.028955519 0.029195258 0.38513002 4294901760
0.028955519 0.028698202 0.3851842 4294901760
0.028955519 0.028201144 0.38523835 4294901760
0.028955519 0.027704088 0.38529253 4294901760
0.028955519 0.027207028 0.38534668 4294901760
0.028955519 0.026709972 0.38540086 4294901760
0.028955519 0.026212914 0.38545501 4294901760
0.028955519 0.025715858 0.38550919 4294901760
0.028955519 0.0252188 0.38556334 4294901760
0.028955519 0.024721744 0.38561752 4294901760
0.028955519 0.024224684 0.38567168 4294901760
0.028955519 0.023727627 0.38572586 4294901760
0.028955519 0.023230569 0.38578001 4294901760
0.028955519 0.022733513 0.38583419 4294901760
0.028955519 0.022236455 0.38588837 4294901760
0.028955519 0.021739401 0.38594252 4294901760
0.028955519 0.021242339 0.3859967 4294901760
0.028955519 0.020745285 0.38605085 4294901760
0.028955519 0.020248227 0.38610503 4294901760
0.028955519 0.019751169 0.38615918 4294901760
0.028955519 0.019254111 0.38621336 4294901760
0.028955519 0.018757056 0.38626751 4294901760
0.028955519 0.018259995 0.38632169 4294901760
0.028955519 0.01776294 0.38637584 4294901760
0.028955519 0.017265882 0.38643003 4294901760
0.028955519 0.016768824 0.38648421 4294901760
0.028955519 0.01627177 0.38653836 4294901760
0.028955519 0.015774712 0.38659254 4294901760
0.028955519 0.015277654 0.38664669 4294901760
0.028955519 0.014780596 0.38670087 4294901760
0.028955519 0.014283538 0.38675502 4294901760
0.028955519 0.01378648 0.3868092 4294901760
0.028955519 0.013289426 0.38686335 4294901760
0.028955519 0.012792367 0.38691753 4294901760
0.028955519 0.012295309 0.38697168 4294901760
0.028955519 0.011798251 0.38702586 4294901760
0.028955519 0.011301193 0.38708001 4294901760
0.028955519 0.010804135 0.38713419 4294901760
