# .PCD v0.7 - Point Cloud Data file format
VERSION 0.7
FIELDS x y z rgb
SIZE 4 4 4 4
TYPE F F F U
COUNT 1 1 1 1
WIDTH 855
HEIGHT 1
VIEWPOINT 0 0 0 1 0 0 0
POINTS 855
DATA ascii
-0.020906946 0.041816399 0.59100002 4279388707
-0.018987376 0.041816399 0.59100002 4278929183
-0.02080082 0.043514602 0.588 4278927902
-0.018890994 0.043514602 0.588 4278928670
-0.016923411 0.043366596 0.58600003 4278929183
-0.014917555 0.043070577 0.58200002 4278666011
-0.0071792542 0.042034514 0.56800002 4278665244
-0.0053156065 0.041886508 0.56600004 4278731037
-0.0034710935 0.041812502 0.565 4278663960
-0.0016330772 0.041738499 0.56400001 4278533398
-0.020730069 0.04527057 0.58600003 4279124511
-0.018794613 0.045193318 0.58500004 4278993949
-0.016836772 0.045038808 0.583 4278862877
-0.014866293 0.04480705 0.58000004 4278797084
-0.012915301 0.044575289 0.57700002 4278797084
-0.011002934 0.044420782 0.57500005 4278862877
-0.0090558939 0.044034515 0.57000005 4278731291
-0.0071792542 0.043880004 0.56800002 4278731289
-0.0053156065 0.043725502 0.56600004 4278203149
-0.0034649502 0.043570992 0.56400001 4279256351
-0.0016301817 0.043493737 0.56300002 4278993949
0.00019809084 0.043416485 0.56200004 4278928156
-0.020659318 0.04701354 0.58400005 4279059740
-0.018730355 0.046933033 0.583 4278928154
-0.016779013 0.046772029 0.58100003 4278928152
-0.014815029 0.046530519 0.57800001 4278862873
-0.012892918 0.046369519 0.57600003 4278862875
-0.010964662 0.046128009 0.57300001 4278797082
-0.0090400064 0.045805998 0.56900001 4278862875
-0.0071666148 0.045644995 0.56700003 4278928668
-0.0053062146 0.045483984 0.565 4278201610
-0.0034649502 0.045403484 0.56400001 4279123482
-0.0016272862 0.045242481 0.56200004 4279124763
0.00019773837 0.045161977 0.56100005 4279124763
0.0020090658 0.044920471 0.55800003 4278993947
0.0038009053 0.04467896 0.55500001 4278862361
0.012698668 0.044276446 0.55000001 4278665496
0.014511405 0.04435695 0.551 4278731289
-0.020623941 0.048827261 0.583 4278928154
-0.018698229 0.048743509 0.58200002 4278993947
-0.016750135 0.048576009 0.58000004 4278993947
-0.014789398 0.048324749 0.57700002 4278928154
-0.01284815 0.048073493 0.574 4278797082
-0.010945526 0.047905993 0.57200003 4278994461
-0.0090400064 0.047654737 0.56900001 4278862875
-0.0071666148 0.047487233 0.56700003 4279059740
-0.0053062146 0.047319729 0.565 4278196224
-0.0034588068 0.047152225 0.56300002 4279188508
-0.0016272862 0.047068477 0.56200004 4278199303
0.00019773837 0.046984725 0.56100005 4278197511
0.0020090658 0.046733469 0.55800003 4278328583
0.003807754 0.046565969 0.55600005 4278196226
0.0055833533 0.046314709 0.55300003 4278198275
0.0073661543 0.046230961 0.55200005 4279186195
0.0091424575 0.046147205 0.551 4279319064
0.010912267 0.046063453 0.55000001 4279845922
0.012744846 0.046230961 0.55200005 4279255836
0.014537742 0.046230961 0.55200005 4278993177
0.016389808 0.046398461 0.55400002 4278927382
-0.020588567 0.050634485 0.58200002 4278928156
-0.018666102 0.050547484 0.58100003 4278928668
-0.016721256 0.050373487 0.57900006 4278797082
-0.014763767 0.050112482 0.57600003 4278928668
-0.012825768 0.049851477 0.57300001 4278862875
-0.010926391 0.04967748 0.57100004 4278731289
-0.009024119 0.049416475 0.56800002 4278731289
-0.0071539758 0.049242474 0.56600004 4279126049
-0.0052968231 0.04906847 0.56400001 4278198790
-0.0034588068 0.048981469 0.56300002 4279451164
-0.0016272862 0.048894472 0.56200004 4278195968
0.00019773837 0.048807472 0.56100005 4278918926
0.0020126663 0.048633467 0.55900002 4278853135
0.0038146025 0.048459467 0.55700004 4278720779
0.0056035458 0.048285462 0.55500001 4278852365
0.0073928433 0.048198462 0.55400002 4278786572
0.0091756433 0.048111461 0.55300003 4278720779
0.010971788 0.048111461 0.55300003 4278720779
0.012791022 0.048198462 0.55400002 4278195712
0.014590414 0.048198462 0.55400002 4278266638
0.016419392 0.048285462 0.55500001 4278196992
0.018254867 0.048372466 0.55600005 4278196480
0.020060755 0.048372466 0.55600005 4278200072
0.021827314 0.048285462 0.55500001 4278398992
0.025111826 0.047676459 0.54800004 4279190045
0.026842659 0.047589459 0.54700005 4278795798
0.028566992 0.047502454 0.546 4278599189
0.030340401 0.047502454 0.546 4278796566
0.032054994 0.047415454 0.54500002 4278665234
0.033825155 0.047415454 0.54500002 4278731541
0.035595316 0.047415454 0.54500002 4278666007
0.037365481 0.047415454 0.54500002 4278600214
0.039207447 0.047502454 0.546 4278797595
0.041055914 0.047589459 0.54700005 4279126558
0.042832572 0.047589459 0.54700005 4279060765
0.04469078 0.047676459 0.54800004 4279127330
0.046555486 0.047763459 0.54900002 4279587883
-0.020588567 0.052525468 0.58200002 4278797084
-0.018633975 0.05234497 0.58000004 4278862877
-0.016692374 0.052164465 0.57800001 4278797082
-0.014738135 0.051893719 0.57500005 4278862875
-0.012825768 0.051713217 0.57300001 4278928668
-0.010907256 0.05144247 0.57000005 4278862875
-0.009024119 0.051261969 0.56800002 4278731289
-0.0071539758 0.051081471 0.56600004 4279323428
-0.0052968231 0.050900966 0.56400001 4278331917
-0.0034588068 0.050810717 0.56300002 4279451934
-0.0016272862 0.050720468 0.56200004 4278195456
0.00019773837 0.050630223 0.56100005 4279578139
0.0020162668 0.050539967 0.56 4278393865
0.0038214508 0.050359469 0.55800003 4280037922
0.0056237392 0.05026922 0.55700004 4278919441
0.0074195326 0.050178971 0.55600005 4280169506
0.0092088273 0.050088719 0.55500001 4279972127
0.011011469 0.050088719 0.55500001 4279511578
0.01281411 0.050088719 0.55500001 4278195971
0.014616751 0.050088719 0.55500001 4279385119
0.016448978 0.050178971 0.55600005 4278991383
0.018254867 0.050178971 0.55600005 4279517727
0.020024672 0.050088719 0.55500001 4279320094
0.021827314 0.050088719 0.55500001 4279450910
0.023544803 0.049908221 0.55300003 4279779875
0.025203474 0.049637467 0.55000001 4279450910
0.026940804 0.049547222 0.54900002 4278858259
0.028671635 0.049456973 0.54800004 4278199044
0.030395973 0.049366724 0.54700005 4278196224
0.032172631 0.049366724 0.54700005 4278199044
0.033887222 0.049276467 0.546 4278199815
0.035725944 0.049366724 0.54700005 4278990359
0.037502602 0.049366724 0.54700005 4279255838
0.03927926 0.049366724 0.54700005 4279255838
0.041130971 0.049456973 0.54800004 4279058970
0.042989179 0.049547222 0.54900002 4279124763
0.044853885 0.049637467 0.55000001 4278862359
0.046640288 0.049637467 0.55000001 4278665494
0.048602786 0.049817972 0.55200005 4278667294
0.050486978 0.049908221 0.55300003 4278864673
0.052283123 0.049908221 0.55300003 4278929953
-0.020588567 0.054416444 0.58200002 4278927902
-0.018633975 0.054229449 0.58000004 4278731037
-0.016692374 0.054042447 0.57800001 4278862877
-0.014738135 0.053761955 0.57500005 4278994463
-0.012803384 0.053481456 0.57200003 4278797084
-0.010888119 0.053200956 0.56900001 4278797084
-0.0090082316 0.053013958 0.56700003 4278797084
-0.0071413354 0.05282696 0.565 4278200071
-0.0052968231 0.052733462 0.56400001 4278396427
-0.0034588068 0.052639961 0.56300002 4279319324
-0.0016272862 0.052546464 0.56200004 4278591759
0.00019773837 0.052452967 0.56100005 4278722832
0.0020162668 0.052359466 0.56 4279446555
0.0038282992 0.052265964 0.55900002 4279183383
0.0056338357 0.052172467 0.55800003 4279249176
0.0074328766 0.05207897 0.55700004 4278195204
0.0092420131 0.05207897 0.55700004 4279907102
0.011051151 0.05207897 0.55700004 4278195972
0.012860288 0.05207897 0.55700004 4278198283
0.014643088 0.051985472 0.55600005 4279320094
0.016448978 0.051985472 0.55600005 4278198787
0.018254867 0.051985472 0.55600005 4278329101
0.020060755 0.051985472 0.55600005 4279581469
0.021827314 0.051891968 0.55500001 4278661134
0.023544803 0.051704973 0.55300003 4278266890
0.025249299 0.051517971 0.551 4278595855
0.026989875 0.051424474 0.55000001 4278201097
0.028776275 0.051424474 0.55000001 4279188762
0.030507108 0.051330976 0.54900002 4278531345
0.032231446 0.051237479 0.54800004 4279189275
0.034011353 0.051237479 0.54800004 4279189275
0.035791256 0.051237479 0.54800004 4278991896
0.037639722 0.051330976 0.54900002 4279648289
0.039422873 0.051330976 0.54900002 4279450910
0.041206025 0.051330976 0.54900002 4278266636
0.043067485 0.051424474 0.55000001 4278197504
0.044935435 0.051517971 0.551 4279255836
0.046725087 0.051517971 0.551 4278665494
0.048690833 0.051704973 0.55300003 4278666009
0.050486978 0.051704973 0.55300003 4278666009
0.052377667 0.05179847 0.55400002 4278600216
0.054177057 0.05179847 0.55400002 4279060767
0.055976454 0.05179847 0.55400002 4278662427
-0.020588567 0.05630742 0.58200002 4278927902
-0.018666102 0.056210674 0.58100003 4278993695
-0.016721256 0.056017179 0.57900006 4278665244
-0.014712502 0.055533435 0.574 4278862623
-0.012781001 0.055243194 0.57100004 4278862877
-0.010888119 0.055049695 0.56900001 4278862877
-0.0090082316 0.0548562 0.56700003 4278797084
-0.0071413354 0.054662701 0.565 4278729240
-0.0052968231 0.054565955 0.56400001 4279450398
-0.0034588068 0.054469205 0.56300002 4279649059
-0.0016272862 0.05437246 0.56200004 4278263306
0.00019773837 0.054275714 0.56100005 4278655756
0.0020162668 0.054178961 0.56 4278852883
0.0038351475 0.054178961 0.56 4278589709
0.0056439321 0.054082215 0.55900002 4278721295
0.0074462211 0.053985465 0.55800003 4278786318
0.0092586055 0.053985465 0.55800003 4278392330
0.011070991 0.053985465 0.55800003 4278589709
0.012860288 0.05388872 0.55700004 4279119383
0.014669425 0.05388872 0.55700004 4280043047
0.016478563 0.05388872 0.55700004 4278722830
0.018254867 0.053791974 0.55600005 4278919441
0.020060755 0.053791974 0.55600005 4279185689
0.021827314 0.053695221 0.55500001 4279647775
0.02358738 0.053598475 0.55400002 4278332169
0.025340948 0.053501725 0.55300003 4278529548
0.027088022 0.053404979 0.55200005 4279319324
0.028828595 0.053308226 0.551 4278858773
0.030618245 0.053308226 0.551 4278990359
0.032349076 0.05321148 0.55000001 4278859543
0.034135479 0.05321148 0.55000001 4278794004
0.035921879 0.05321148 0.55000001 4278399246
0.037708282 0.05321148 0.55000001 4278991896
0.039566487 0.053308226 0.551 4279189275
0.041356135 0.053308226 0.551 4279255066
0.043145787 0.053308226 0.551 4279649824
0.045016989 0.053404979 0.55200005 4278199300
0.046809889 0.053404979 0.55200005 4278795800
0.048690833 0.053501725 0.55300003 4278599189
0.05057827 0.053598475 0.55400002 4278796568
0.052377667 0.053598475 0.55400002 4278928154
0.054177057 0.053598475 0.55400002 4278928154
0.055976454 0.053598475 0.55400002 4278860574
-0.020659318 0.058398396 0.58400005 4278927386
-0.018730355 0.058298394 0.583 4278796570
-0.016779013 0.058098402 0.58100003 4278797084
-0.014738135 0.057498422 0.57500005 4278797084
-0.012781001 0.05709843 0.57100004 4278731291
-0.010888119 0.056898434 0.56900001 4278731291
-0.0090082316 0.056698442 0.56700003 4278993949
-0.0071413354 0.056498442 0.565 4279058972
-0.0052968231 0.056398448 0.56400001 4278925849
-0.0034588068 0.05629845 0.56300002 4279255068
-0.0016272862 0.056198455 0.56200004 4279320861
0.00019773837 0.056098457 0.56100005 4279386400
0.0020162668 0.055998456 0.56 4279188510
0.0038351475 0.055998456 0.56 4279450144
0.0056439321 0.055898461 0.55900002 4279909412
0.0074595655 0.055898461 0.55900002 4279184406
0.009275198 0.055898461 0.55900002 4278459658
0.011070991 0.055798467 0.55800003 4278195974
0.012883376 0.055798467 0.55800003 4279514654
0.014669425 0.055698469 0.55700004 4278857748
0.016478563 0.055698469 0.55700004 4279382557
0.0182877 0.055698469 0.55700004 4279381787
0.020060755 0.055598475 0.55600005 4279976229
0.021827314 0.055498473 0.55500001 4279516705
0.02358738 0.055398475 0.55400002 4279320348
0.025340948 0.055298481 0.55300003 4278728211
0.027137095 0.055298481 0.55300003 4278199301
0.028880918 0.055198483 0.55200005 4279187740
0.030673815 0.055198483 0.55200005 4278200845
0.032466713 0.055198483 0.55200005 4278198275
0.03425961 0.055198483 0.55200005 4278197762
0.036052506 0.055198483 0.55200005 4280174121
0.037845407 0.055198483 0.55200005 4278858261
0.039638299 0.055198483 0.55200005 4279121433
0.041431196 0.055198483 0.55200005 4278926103
0.043302398 0.055298481 0.55300003 4279649824
0.045098543 0.055298481 0.55300003 4278925336
0.046894688 0.055298481 0.55300003 4278927386
0.04877888 0.055398475 0.55400002 4278796568
0.05057827 0.055398475 0.55400002 4278862361
0.052377667 0.055398475 0.55400002 4278928154
0.05427485 0.055498473 0.55500001 4278862361
0.056077491 0.055498473 0.55500001 4279123746
0.057880133 0.055498473 0.55500001 4285503104
-0.012781001 0.058953669 0.57100004 4279519017
-0.010888119 0.058747172 0.56900001 4279387685
-0.0090082316 0.058540683 0.56700003 4279452965
-0.0071413354 0.058334187 0.565 4279058207
-0.0052968231 0.05823094 0.56400001 4278992414
-0.0034588068 0.058127694 0.56300002 4279058718
-0.0016272862 0.058024451 0.56200004 4278992925
0.00019773837 0.057921205 0.56100005 4278992925
0.0020198673 0.057921205 0.56100005 4278992925
0.0038351475 0.057817955 0.56 4278992925
0.0056540282 0.057817955 0.56 4279123998
0.0074595655 0.057714708 0.55900002 4279123998
0.009275198 0.057714708 0.55900002 4279189275
0.011070991 0.057611465 0.55800003 4279320861
0.012883376 0.057611465 0.55800003 4279189021
0.014695761 0.057611465 0.55800003 4279254301
0.016478563 0.057508219 0.55700004 4279911463
0.018254867 0.057404973 0.55600005 4279055386
0.020060755 0.057404973 0.55600005 4279054873
0.021827314 0.057301722 0.55500001 4278198536
0.023629956 0.057301722 0.55500001 4278195968
0.025386773 0.057198476 0.55400002 4278198532
0.027137095 0.057095233 0.55300003 4278200074
0.028933238 0.057095233 0.55300003 4279121947
0.030729383 0.057095233 0.55300003 4279450910
0.032525528 0.057095233 0.55300003 4279648289
0.034321673 0.057095233 0.55300003 4279648289
0.036117818 0.057095233 0.55300003 4279385117
0.037913963 0.057095233 0.55300003 4279648289
0.039710108 0.057095233 0.55300003 4278661394
0.041506253 0.057095233 0.55300003 4279386654
0.043302398 0.057095233 0.55300003 4279452447
0.045180093 0.057198476 0.55400002 4279056922
0.046979491 0.057198476 0.55400002 4278927386
0.04877888 0.057198476 0.55400002 4278796568
0.050669566 0.057301722 0.55500001 4278862361
0.052472211 0.057301722 0.55500001 4278862361
0.05427485 0.057301722 0.55500001 4278796568
0.056077491 0.057301722 0.55500001 4279780395
0.057880133 0.057301722 0.55500001 4284778868
-0.010868984 0.060489416 0.56800002 4283066967
-0.0089923441 0.060276426 0.56600004 4280369713
-0.0071413354 0.060169928 0.565 4279252254
-0.0052968231 0.060063433 0.56400001 4279515937
-0.0034588068 0.059956938 0.56300002 4279516451
-0.0016272862 0.059850447 0.56200004 4279649320
0.00019773837 0.059743952 0.56100005 4279583527
0.0020198673 0.059743952 0.56100005 4279321379
0.0038351475 0.05963745 0.56 4279321379
0.0056540282 0.05963745 0.56 4279321379
0.0074729095 0.05963745 0.56 4278663447
0.009275198 0.059530959 0.55900002 4279124765
0.011090831 0.059530959 0.55900002 4279058972
0.012883376 0.059424464 0.55800003 4278993179
0.014695761 0.059424464 0.55800003 4279058972
0.016478563 0.059317969 0.55700004 4279058972
0.018254867 0.059211474 0.55600005 4278993179
0.020060755 0.059211474 0.55600005 4279190045
0.021827314 0.059104975 0.55500001 4279058459
0.023629956 0.059104975 0.55500001 4279189275
0.025386773 0.05899848 0.55400002 4278991896
0.027186166 0.05899848 0.55400002 4279254555
0.028985558 0.05899848 0.55400002 4279187992
0.030784952 0.05899848 0.55400002 4279319324
0.032584343 0.05899848 0.55400002 4279319324
0.034383737 0.05899848 0.55400002 4278200845
0.03618313 0.05899848 0.55400002 4278198275
0.037982523 0.05899848 0.55400002 4278196737
0.039781917 0.05899848 0.55400002 4278196994
0.041581307 0.05899848 0.55400002 4278397710
0.043380704 0.05899848 0.55400002 4278792468
0.045180093 0.05899848 0.55400002 4279517473
0.046979491 0.05899848 0.55400002 4279058457
0.048866928 0.059104975 0.55500001 4278862361
0.050669566 0.059104975 0.55500001 4278928154
0.052472211 0.059104975 0.55500001 4278993947
0.05427485 0.059104975 0.55500001 4278993949
0.056077491 0.059104975 0.55500001 4278924316
-0.0089923441 0.06211542 0.56600004 4284776301
-0.0071413354 0.062005669 0.565 4284842092
-0.0052968231 0.061895926 0.56400001 4284973678
-0.0034588068 0.061786182 0.56300002 4284907885
-0.0016272862 0.061676439 0.56200004 4285237364
0.00019773837 0.061566696 0.56100005 4284448618
0.0020198673 0.061566696 0.56100005 4282410320
0.0038419964 0.061566696 0.56100005 4280765495
0.0056540282 0.061456949 0.56 4279647012
0.0074729095 0.061456949 0.56 4279318560
0.009275198 0.061347205 0.55900002 4279319846
0.011090831 0.061347205 0.55900002 4279846701
0.012883376 0.061237462 0.55800003 4279715883
0.014695761 0.061237462 0.55800003 4279584551
0.016478563 0.061127719 0.55700004 4279518758
0.018254867 0.061017975 0.55600005 4279518758
0.020060755 0.061017975 0.55600005 4279189793
0.021827314 0.060908224 0.55500001 4279058207
0.023629956 0.060908224 0.55500001 4279058718
0.025386773 0.060798481 0.55400002 4279058718
0.027186166 0.060798481 0.55400002 4279190045
0.028985558 0.060798481 0.55400002 4279124252
0.030784952 0.060798481 0.55400002 4278992666
0.032584343 0.060798481 0.55400002 4278861080
0.034383737 0.060798481 0.55400002 4279124252
0.03618313 0.060798481 0.55400002 4279190045
0.037982523 0.060798481 0.55400002 4279189275
0.039781917 0.060798481 0.55400002 4279517727
0.041581307 0.060798481 0.55400002 4279714852
0.043380704 0.060798481 0.55400002 4279385887
0.045261644 0.060908224 0.55500001 4279320861
0.047064289 0.060908224 0.55500001 4279058970
0.048866928 0.060908224 0.55500001 4279058970
0.050669566 0.060908224 0.55500001 4279190556
0.052566759 0.061017975 0.55600005 4279190558
0.054372646 0.061017975 0.55600005 4279190304
0.056077491 0.060908224 0.55500001 4279712807
-0.0090082316 0.064067401 0.56700003 4284841327
-0.0071413354 0.06384141 0.565 4284775534
-0.0052968231 0.063728422 0.56400001 4284907374
-0.0034588068 0.063615426 0.56300002 4284841581
-0.0016272862 0.063502438 0.56200004 4284710506
0.00019809084 0.063502438 0.56200004 4284644713
0.0020198673 0.063389443 0.56100005 4284776299
0.0038419964 0.063389443 0.56100005 4284841579
0.0056540282 0.063276447 0.56 4285170544
0.0074729095 0.063276447 0.56 4285367923
0.009275198 0.063163452 0.55900002 4286157952
0.011090831 0.063163452 0.55900002 4286224259
0.012883376 0.063050456 0.55800003 4285567614
0.014695761 0.063050456 0.55800003 4283527518
0.016478563 0.062937468 0.55700004 4281291069
0.018254867 0.062824473 0.55600005 4279647014
0.020060755 0.062824473 0.55600005 4279318562
0.021827314 0.062711477 0.55500001 4278924834
0.02358738 0.062598482 0.55400002 4279122726
0.025386773 0.062598482 0.55400002 4279254566
0.027186166 0.062598482 0.55400002 4279583527
0.028985558 0.062598482 0.55400002 4279451941
0.030784952 0.062598482 0.55400002 4279583527
0.032584343 0.062598482 0.55400002 4279255586
0.0344458 0.062711477 0.55500001 4279058718
0.036248442 0.062711477 0.55500001 4279387683
0.038051084 0.062711477 0.55500001 4279452963
0.039853722 0.062711477 0.55500001 4279255584
0.041656364 0.062711477 0.55500001 4279189791
0.043459006 0.062711477 0.55500001 4279255584
0.045261644 0.062711477 0.55500001 4279058205
0.047064289 0.062711477 0.55500001 4278992925
0.048866928 0.062711477 0.55500001 4279058718
0.050760869 0.062824473 0.55600005 4279124511
0.052566759 0.062824473 0.55600005 4279256097
0.054372646 0.062824473 0.55600005 4278399253
-0.0071539758 0.065793402 0.56600004 4284709741
-0.0053062146 0.065677151 0.565 4284578155
-0.0034588068 0.065444671 0.56300002 4284775534
-0.0016272862 0.065328434 0.56200004 4284709995
0.00019809084 0.065328434 0.56200004 4284841581
0.0020198673 0.06521219 0.56100005 4284775788
0.0038419964 0.06521219 0.56100005 4284907374
0.0056540282 0.065095939 0.56 4285236337
0.0074729095 0.065095939 0.56 4285302130
0.009275198 0.064979702 0.55900002 4285499511
0.011090831 0.064979702 0.55900002 4285696890
0.012883376 0.064863458 0.55800003 4285631097
0.014695761 0.064863458 0.55800003 4285828476
0.021827314 0.064514726 0.55500001 4284776561
0.02358738 0.06439849 0.55400002 4284711022
0.025386773 0.06439849 0.55400002 4284579436
0.027186166 0.06439849 0.55400002 4284383340
0.028985558 0.06439849 0.55400002 4283922789
0.030784952 0.06439849 0.55400002 4283790690
0.032643162 0.064514726 0.55500001 4281553728
0.0344458 0.064514726 0.55500001 4282343757
0.036248442 0.064514726 0.55500001 4282475341
0.038051084 0.064514726 0.55500001 4281883204
0.039853722 0.064514726 0.55500001 4281356862
0.041656364 0.064514726 0.55500001 4280764723
0.043459006 0.064514726 0.55500001 4280107563
0.045261644 0.064514726 0.55500001 4279713318
0.047064289 0.064514726 0.55500001 4279121697
0.048866928 0.064514726 0.55500001 4278727968
0.050760869 0.064630978 0.55600005 4278793761
0.052566759 0.064630978 0.55600005 4281620802
0.054372646 0.064630978 0.55600005 4285303929
0.016425828 0.05493509 0.55920619 4294967295
0.016425828 0.05493509 0.55920619 4294901760
0.016474271 0.054438043 0.55923063 4294901760
0.016522713 0.053940997 0.55925512 4294901760
0.016571157 0.05344395 0.55927956 4294901760
0.0166196 0.052946907 0.559304 4294901760
0.016668042 0.05244986 0.5593285 4294901760
0.016716486 0.051952813 0.55935293 4294901760
0.016764928 0.051455766 0.55937737 4294901760
0.016813371 0.050958719 0.55940187 4294901760
0.016861815 0.050461672 0.55942631 4294901760
0.016910257 0.049964625 0.55945075 4294901760
0.0169587 0.049467579 0.55947524 4294901760
0.017007144 0.048970535 0.55949968 4294901760
0.017055586 0.048473489 0.55952412 4294901760
0.01710403 0.047976442 0.55954862 4294901760
0.017152471 0.047479395 0.55957305 4294901760
0.017200915 0.046982348 0.55959749 4294901760
0.017249359 0.046485301 0.55962199 4294901760
0.017297801 0.045988254 0.55964643 4294901760
0.017346244 0.045491211 0.55967087 4294901760
0.017394688 0.044994161 0.55969536 4294901760
0.01744313 0.044497117 0.5597198 4294901760
0.017491573 0.044000071 0.55974424 4294901760
0.017540015 0.043503024 0.55976874 4294901760
0.017588459 0.043005977 0.55979317 4294901760
0.017636903 0.04250893 0.55981767 4294901760
0.017685344 0.042011887 0.55984211 4294901760
0.017733788 0.041514836 0.55986655 4294901760
0.017782232 0.041017793 0.55989105 4294901760
0.017830674 0.040520746 0.55991548 4294901760
0.017879117 0.040023699 0.55993992 4294901760
0.017927561 0.039526653 0.55996442 4294901760
0.017976003 0.039029606 0.55998886 4294901760
0.018024446 0.038532559 0.56001329 4294901760
0.018072888 0.038035512 0.56003779 4294901760
0.018121332 0.037538469 0.56006223 4294901760
0.018169776 0.037041418 0.56008667 4294901760
0.018218217 0.036544375 0.56011117 4294901760
0.018266661 0.036047328 0.5601356 4294901760
0.018315105 0.035550281 0.56016004 4294901760
0.018363547 0.035053235 0.56018454 4294901760
0.01841199 0.034556188 0.56020898 4294901760
0.018460432 0.034059145 0.56023341 4294901760
0.018508876 0.033562094 0.56025791 4294901760
0.018557319 0.033065051 0.56028235 4294901760
0.018605761 0.032568004 0.56030679 4294901760
0.018654205 0.032070957 0.56033128 4294901760
0.018702649 0.03157391 0.56035572 4294901760
0.01875109 0.031076865 0.56038016 4294901760
0.018799534 0.030579817 0.56040466 4294901760
0.018847976 0.030082772 0.5604291 4294901760
0.01889642 0.029585727 0.56045353 4294901760
0.018944863 0.02908868 0.56047803 4294901760
0.018993305 0.028591635 0.56050247 4294901760
0.019041749 0.028094584 0.56052691 4294901760
0.019090192 0.027597539 0.5605514 4294901760
0.019138634 0.027100492 0.56057584 4294901760
0.019187078 0.026603447 0.56060028 4294901760
0.019235522 0.026106402 0.56062478 4294901760
0.019283963 0.025609355 0.56064922 4294901760
0.019332407 0.025112307 0.56067365 4294901760
0.019380849 0.02461526 0.56069815 4294901760
0.019429293 0.024118215 0.56072259 4294901760
0.019477736 0.023621168 0.56074703 4294901760
0.019526178 0.023124125 0.56077152 4294901760
0.019574622 0.022627078 0.56079596 4294901760
0.019623065 0.022130027 0.5608204 4294901760
0.019671507 0.021632981 0.5608449 4294901760
0.019719951 0.021135937 0.56086934 4294901760
0.019768395 0.020638891 0.56089377 4294901760
0.019816836 0.020141844 0.56091827 4294901760
0.01986528 0.019644801 0.56094271 4294901760
0.019913722 0.01914775 0.56096715 4294901760
0.019962166 0.018650703 0.56099164 4294901760
0.020010609 0.018153656 0.56101608 4294901760
0.020059051 0.017656613 0.56104052 4294901760
0.020107495 0.017159566 0.56106502 4294901760
0.020155936 0.016662519 0.56108946 4294901760
0.02020438 0.016165476 0.56111395 4294901760
0.020252824 0.015668426 0.56113839 4294901760
0.020301266 0.015171379 0.56116283 4294901760
0.020349709 0.014674332 0.56118733 4294901760
0.020398153 0.014177289 0.56121176 4294901760
0.020446595 0.013680242 0.5612362 4294901760
0.020495038 0.013183195 0.5612607 4294901760
0.020543482 0.012686148 0.56128514 4294901760
0.020591924 0.012189101 0.56130958 4294901760
0.020640368 0.011692055 0.56133407 4294901760
0.020688809 0.011195011 0.56135851 4294901760
0.020737253 0.010697965 0.56138295 4294901760
0.020785697 0.010200918 0.56140745 4294901760
0.02083414 0.0097038671 0.56143188 4294901760
0.020882582 0.009206824 0.56145632 4294901760
0.020931024 0.0087097771 0.56148082 4294901760
0.020979468 0.0082127303 0.56150526 4294901760
0.021027911 0.0077156872 0.5615297 4294901760
0.021076355 0.0072186403 0.56155419 4294901760
0.021124797 0.0067215897 0.56157863 4294901760
0.021173241 0.0062245429 0.56160307 4294901760
0.021221682 0.0057274997 0.56162757 4294901760
0.021270126 0.0052304529 0.561652 4294901760
0.016425828 0.05493509 0.55920619 4278255360
0.016897349 0.054973077 0.55904424 4278255360
0.017368868 0.055011064 0.5588823 4278255360
0.017840389 0.055049051 0.55872035 4278255360
0.01831191 0.055087037 0.5585584 4278255360
0.01878343 0.055125024 0.55839646 4278255360
0.019254951 0.055163011 0.55823451 4278255360
0.019726472 0.055200994 0.55807257 4278255360
0.020197991 0.055238981 0.55791062 4278255360
0.020669512 0.055276968 0.55774868 4278255360
0.021141034 0.055314954 0.55758679 4278255360
0.021612555 0.055352941 0.55742484 4278255360
0.022084074 0.055390928 0.5572629 4278255360
0.022555595 0.055428915 0.55710095 4278255360
0.023027115 0.055466902 0.55693901 4278255360
0.023498636 0.055504888 0.55677706 4278255360
0.023970157 0.055542875 0.55661511 4278255360
0.024441678 0.055580862 0.55645317 4278255360
0.024913199 0.055618849 0.55629122 4278255360
0.025384719 0.055656832 0.55612928 4278255360
0.025856238 0.055694818 0.55596733 4278255360
0.026327759 0.055732805 0.55580539 4278255360
0.02679928 0.055770792 0.55564344 4278255360
0.027270801 0.055808779 0.55548149 4278255360
0.027742321 0.055846766 0.55531955 4278255360
0.028213842 0.055884752 0.5551576 4278255360
0.028685361 0.055922739 0.55499566 4278255360
0.029156882 0.055960726 0.55483371 4278255360
0.029628403 0.055998713 0.55467176 4278255360
0.030099925 0.0560367 0.55450982 4278255360
0.030571446 0.056074686 0.55434787 4278255360
0.031042965 0.056112673 0.55418599 4278255360
0.031514484 0.056150656 0.55402404 4278255360
0.031986006 0.056188643 0.55386209 4278255360
0.032457527 0.05622663 0.55370015 4278255360
0.032929048 0.056264617 0.5535382 4278255360
0.033400569 0.056302603 0.55337626 4278255360
0.03387209 0.05634059 0.55321431 4278255360
0.034343608 0.056378577 0.55305237 4278255360
0.034815129 0.056416564 0.55289042 4278255360
0.03528665 0.05645455 0.55272847 4278255360
0.035758171 0.056492537 0.55256653 4278255360
0.036229692 0.056530524 0.55240458 4278255360
0.03670121 0.056568511 0.55224264 4278255360
0.037172735 0.056606494 0.55208069 4278255360
0.037644252 0.056644481 0.55191875 4278255360
0.038115773 0.056682467 0.5517568 4278255360
0.038587295 0.056720454 0.55159485 4278255360
0.039058812 0.056758441 0.55143291 4278255360
0.039530337 0.056796428 0.55127096 4278255360
0.040001854 0.056834415 0.55110908 4278255360
0.040473375 0.056872401 0.55094713 4278255360
0.040944897 0.056910388 0.55078518 4278255360
0.041416414 0.056948375 0.55062324 4278255360
0.041887939 0.056986362 0.55046129 4278255360
0.04235946 0.057024349 0.55029935 4278255360
0.042830981 0.057062335 0.5501374 4278255360
0.043302499 0.057100318 0.54997545 4278255360
0.04377402 0.057138305 0.54981351 4278255360
0.044245541 0.057176292 0.54965156 4278255360
0.044717062 0.057214279 0.54948962 4278255360
0.045188583 0.057252266 0.54932767 4278255360
0.045660101 0.057290252 0.54916573 4278255360
0.046131626 0.057328239 0.54900378 4278255360
0.046603143 0.057366226 0.54884183 4278255360
0.047074664 0.057404213 0.54867989 4278255360
0.047546186 0.057442199 0.54851794 4278255360
0.048017703 0.057480186 0.548356 4278255360
0.048489228 0.057518173 0.54819405 4278255360
0.048960745 0.05755616 0.5480321 4278255360
0.04943227 0.057594143 0.54787016 4278255360
0.049903788 0.05763213 0.54770827 4278255360
0.050375313 0.057670116 0.54754633 4278255360
0.05084683 0.057708103 0.54738438 4278255360
0.051318347 0.05774609 0.54722244 4278255360
0.051789872 0.057784077 0.54706049 4278255360
0.05226139 0.057822064 0.54689854 4278255360
0.052732907 0.05786005 0.5467366 4278255360
0.053204432 0.057898037 0.54657465 4278255360
0.053675957 0.057936024 0.54641271 4278255360
0.054147474 0.057974011 0.54625076 4278255360
0.054618992 0.058011994 0.54608881 4278255360
0.055090517 0.058049981 0.54592687 4278255360
0.055562034 0.058087967 0.54576492 4278255360
0.056033552 0.058125954 0.54560298 4278255360
0.056505077 0.058163941 0.54544103 4278255360
0.056976594 0.058201928 0.54527909 4278255360
0.057448119 0.058239914 0.54511714 4278255360
0.057919636 0.058277901 0.54495519 4278255360
0.058391161 0.058315888 0.54479325 4278255360
0.058862679 0.058353875 0.54463136 4278255360
0.059334204 0.058391862 0.54446942 4278255360
0.059805721 0.058429848 0.54430747 4278255360
0.060277238 0.058467835 0.54414552 4278255360
0.060748763 0.058505818 0.54398358 4278255360
0.061220281 0.058543805 0.54382163 4278255360
0.061691798 0.058581792 0.54365969 4278255360
0.062163323 0.058619779 0.54349774 4278255360
0.062634848 0.058657765 0.5433358 4278255360
0.063106366 0.058695752 0.54317385 4278255360
0.063577883 0.058733739 0.5430119 4278255360
0.016425828 0.05493509 0.55920619 4278190335
0.016562941 0.054972045 0.55968559 4278190335
0.016700052 0.055008996 0.56016499 4278190335
0.016837165 0.055045951 0.56064445 4278190335
0.016974276 0.055082906 0.56112385 4278190335
0.017111389 0.055119857 0.56160325 4278190335
0.017248502 0.055156812 0.56208265 4278190335
0.017385613 0.055193763 0.56256205 4278190335
0.017522726 0.055230718 0.56304145 4278190335
0.017659837 0.055267673 0.56352091 4278190335
0.01779695 0.055304624 0.56400031 4278190335
0.017934062 0.055341579 0.56447971 4278190335
0.018071175 0.055378534 0.56495911 4278190335
0.018208288 0.055415485 0.56543851 4278190335
0.018345399 0.05545244 0.56591797 4278190335
0.018482512 0.055489395 0.56639737 4278190335
0.018619623 0.055526346 0.56687677 4278190335
0.018756736 0.055563301 0.56735617 4278190335
0.018893849 0.055600256 0.56783557 4278190335
0.01903096 0.055637207 0.56831497 4278190335
0.019168073 0.055674162 0.56879443 4278190335
0.019305184 0.055711113 0.56927383 4278190335
0.019442298 0.055748068 0.56975323 4278190335
0.019579411 0.055785023 0.57023263 4278190335
0.019716522 0.055821974 0.57071203 4278190335
0.019853635 0.055858929 0.57119143 4278190335
0.019990746 0.055895884 0.57167089 4278190335
0.020127859 0.055932835 0.57215029 4278190335
0.020264972 0.05596979 0.57262969 4278190335
0.020402083 0.056006745 0.57310909 4278190335
0.020539196 0.056043696 0.57358849 4278190335
0.020676307 0.056080651 0.57406795 4278190335
0.02081342 0.056117602 0.57454735 4278190335
0.020950533 0.056154557 0.57502675 4278190335
0.021087645 0.056191511 0.57550615 4278190335
0.021224756 0.056228463 0.57598555 4278190335
0.021361869 0.056265417 0.57646501 4278190335
0.021498982 0.056302372 0.57694441 4278190335
0.021636095 0.056339324 0.57742381 4278190335
0.021773206 0.056376278 0.57790321 4278190335
0.021910319 0.056413233 0.57838261 4278190335
0.02204743 0.056450184 0.57886201 4278190335
0.022184543 0.056487139 0.57934147 4278190335
0.022321656 0.056524094 0.57982087 4278190335
0.022458768 0.056561045 0.58030027 4278190335
0.022595879 0.056598 0.58077967 4278190335
0.022732992 0.056634951 0.58125907 4278190335
0.022870105 0.056671906 0.58173847 4278190335
0.023007216 0.056708861 0.58221793 4278190335
0.023144329 0.056745812 0.58269733 4278190335
0.02328144 0.056782767 0.58317673 4278190335
0.023418553 0.056819722 0.58365613 4278190335
0.023555666 0.056856673 0.58413553 4278190335
0.023692777 0.056893628 0.58461499 4278190335
0.02382989 0.056930583 0.58509439 4278190335
0.023967002 0.056967534 0.58557379 4278190335
0.024104115 0.057004489 0.58605319 4278190335
0.024241228 0.057041444 0.58653259 4278190335
0.024378339 0.057078395 0.58701199 4278190335
0.02451545 0.05711535 0.58749145 4278190335
0.024652563 0.057152301 0.58797085 4278190335
0.024789676 0.057189256 0.58845025 4278190335
0.024926789 0.057226211 0.58892965 4278190335
0.0250639 0.057263162 0.58940905 4278190335
0.025201011 0.057300117 0.58988845 4278190335
0.025338124 0.057337072 0.59036791 4278190335
0.025475238 0.057374023 0.59084731 4278190335
0.025612351 0.057410978 0.59132671 4278190335
0.025749462 0.057447933 0.59180611 4278190335
0.025886573 0.057484884 0.59228551 4278190335
0.026023686 0.057521839 0.59276497 4278190335
0.026160799 0.05755879 0.59324437 4278190335
0.026297912 0.057595745 0.59372377 4278190335
0.026435023 0.0576327 0.59420317 4278190335
0.026572134 0.057669651 0.59468257 4278190335
0.026709247 0.057706606 0.59516203 4278190335
0.02684636 0.057743561 0.59564143 4278190335
0.026983473 0.057780512 0.59612083 4278190335
0.027120585 0.057817467 0.59660023 4278190335
0.027257698 0.057854421 0.59707963 4278190335
0.027394809 0.057891373 0.59755903 4278190335
0.027531922 0.057928327 0.59803849 4278190335
0.027669035 0.057965279 0.59851789 4278190335
0.027806146 0.058002234 0.59899729 4278190335
0.027943257 0.058039188 0.5994767 4278190335
0.02808037 0.05807614 0.5999561 4278190335
0.028217483 0.058113094 0.6004355 4278190335
0.028354596 0.058150049 0.60091496 4278190335
0.028491708 0.058187 0.60139436 4278190335
0.028628819 0.058223955 0.60187376 4278190335
0.028765932 0.05826091 0.60235316 4278190335
0.028903045 0.058297861 0.60283256 4278190335
0.029040158 0.058334816 0.60331202 4278190335
0.029177269 0.058371767 0.60379142 4278190335
0.02931438 0.058408722 0.60427082 4278190335
0.029451493 0.058445677 0.60475022 4278190335
0.029588606 0.058482628 0.60522962 4278190335
0.029725719 0.058519583 0.60570908 4278190335
0.02986283 0.058556538 0.60618848 4278190335
0.029999942 0.058593489 0.60666788 4278190335
0.030137055 0.058630444 0.60714728 4278190335
0.016425828 0.05493509 0.55920619 4294967295
0.015603154 0.054713368 0.55632973 4294967295
0.01478048 0.054491647 0.55345327 4294967295
0.013957807 0.054269928 0.55057681 4294967295
0.013135133 0.054048207 0.54770035 4294967295
0.012312459 0.053826485 0.54482388 4294967295
0.011489786 0.053604763 0.54194742 4294967295
0.010667112 0.053383041 0.53907096 4294967295
0.0098444391 0.053161319 0.53619444 4294967295
0.0090217646 0.052939601 0.53331798 4294967295
0.0081990911 0.052717879 0.53044152 4294967295
0.0073764184 0.052496158 0.52756506 4294967295
0.0065537449 0.052274436 0.5246886 4294967295
0.0057310713 0.052052714 0.52181214 4294967295
0.0049083969 0.051830992 0.51893568 4294967295
0.0040857233 0.051609274 0.51605922 4294967295
0.0032630507 0.051387552 0.51318276 4294967295
0.0024403762 0.05116583 0.5103063 4294967295
0.0016177027 0.050944109 0.50742984 4294967295
0.0007950291 0.050722387 0.50455338 4294967295
-2.7645379e-05 0.050500669 0.50167692 4294967295
-0.000850318 0.050278947 0.49880043 4294967295
-0.0016729906 0.050057225 0.49592397 4294967295
-0.0024956651 0.049835503 0.49304751 4294967295
-0.0033183377 0.049613781 0.49017105 4294967295
-0.0041410122 0.049392059 0.48729455 4294967295
-0.0049636848 0.049170341 0.48441809 4294967295
-0.0057863612 0.04894862 0.48154163 4294967295
-0.0066090338 0.048726898 0.47866517 4294967295
-0.0074317064 0.048505176 0.47578871 4294967295
-0.0082543809 0.048283454 0.47291225 4294967295
-0.0090770535 0.048061736 0.47003579 4294967295
-0.0098997261 0.047840014 0.46715933 4294967295
-0.010722402 0.047618292 0.46428284 4294967295
-0.011545075 0.04739657 0.46140638 4294967295
-0.012367748 0.047174849 0.45852992 4294967295
-0.013190422 0.046953127 0.45565346 4294967295
-0.014013095 0.046731409 0.452777 4294967295
-0.014835769 0.046509687 0.44990054 4294967295
-0.01565844 0.046287965 0.44702408 4294967295
-0.016481118 0.046066243 0.44414759 4294967295
-0.017303789 0.045844525 0.44127113 4294967295
-0.018126464 0.045622803 0.43839467 4294967295
-0.018949138 0.045401081 0.43551821 4294967295
-0.019771809 0.04517936 0.43264174 4294967295
-0.020594483 0.044957638 0.42976528 4294967295
-0.021417158 0.044735916 0.42688882 4294967295
-0.022239832 0.044514194 0.42401236 4294967295
-0.023062503 0.044292476 0.4211359 4294967295
-0.023885177 0.044070754 0.41825941 4294967295
-0.024707852 0.043849032 0.41538295 4294967295
-0.025530526 0.043627311 0.41250649 4294967295
-0.026353197 0.043405592 0.40963003 4294967295
-0.027175872 0.043183871 0.40675357 4294967295
-0.02799855 0.042962149 0.40387708 4294967295
-0.028821221 0.042740427 0.40100062 4294967295
-0.029643895 0.042518705 0.39812416 4294967295
-0.030466566 0.042296983 0.3952477 4294967295
-0.031289242 0.042075261 0.39237124 4294967295
-0.032111913 0.041853543 0.38949478 4294967295
-0.032934591 0.041631822 0.38661832 4294967295
-0.033757262 0.0414101 0.38374186 4294967295
-0.034579933 0.041188378 0.3808654 4294967295
-0.035402611 0.040966656 0.3779889 4294967295
-0.036225282 0.040744938 0.37511244 4294967295
-0.037047952 0.040523216 0.37223598 4294967295
-0.037870631 0.040301494 0.36935949 4294967295
-0.038693301 0.040079772 0.36648303 4294967295
-0.03951598 0.039858051 0.36360657 4294967295
-0.04033865 0.039636329 0.36073011 4294967295
-0.041161321 0.039414611 0.35785365 4294967295
-0.041983992 0.039192889 0.35497719 4294967295
-0.04280667 0.038971167 0.35210073 4294967295
-0.043629348 0.038749445 0.34922427 4294967295
-0.044452019 0.038527727 0.34634781 4294967295
-0.04527469 0.038306005 0.34347135 4294967295
-0.046097368 0.038084283 0.34059489 4294967295
-0.046920039 0.037862562 0.33771843 4294967295
-0.04774271 0.03764084 0.33484197 4294967295
-0.048565388 0.037419118 0.33196545 4294967295
-0.049388066 0.037197396 0.32908899 4294967295
-0.050210737 0.036975674 0.32621253 4294967295
-0.051033407 0.036753956 0.32333606 4294967295
-0.051856078 0.036532234 0.3204596 4294967295
-0.052678756 0.036310516 0.31758314 4294967295
-0.053501435 0.036088791 0.31470668 4294967295
-0.054324105 0.035867073 0.31183022 4294967295
-0.055146776 0.035645351 0.30895376 4294967295
-0.055969447 0.035423629 0.3060773 4294967295
-0.056792125 0.035201907 0.30320084 4294967295
-0.057614796 0.034980185 0.30032438 4294967295
-0.058437474 0.034758464 0.29744789 4294967295
-0.059260145 0.034536742 0.29457143 4294967295
-0.060082816 0.03431502 0.29169497 4294967295
-0.060905494 0.034093302 0.28881851 4294967295
-0.061728165 0.03387158 0.28594205 4294967295
-0.062550835 0.033649862 0.28306559 4294967295
-0.063373514 0.03342814 0.2801891 4294967295
-0.064196184 0.033206418 0.27731264 4294967295
-0.065018862 0.032984696 0.27443618 4294967295
-0.065841533 0.032762975 0.27155972 4294967295
