# .PCD v0.7 - Point Cloud Data file format
VERSION 0.7
FIELDS x y z rgb
SIZE 4 4 4 4
TYPE F F F U
COUNT 1 1 1 1
WIDTH 653
HEIGHT 1
VIEWPOINT 0 0 0 1 0 0 0
POINTS 653
DATA ascii
-0.05470955 0.0093285376 0.49700001 4281881671
-0.06092044 0.012507609 0.49500003 4281155898
-0.057821494 0.012532877 0.49600002 4281484855
-0.056210481 0.012532877 0.49600002 4281353269
-0.054489397 0.012507609 0.49500003 4281484855
-0.052881636 0.012507609 0.49500003 4282144066
-0.048155438 0.012532877 0.49600002 4279587883
-0.046544429 0.012532877 0.49600002 4279325994
-0.045114607 0.012583412 0.49800003 4279194922
-0.06092044 0.014115916 0.49500003 4281156151
-0.059312679 0.014115916 0.49500003 4281155636
-0.057704918 0.014115916 0.49500003 4280628776
-0.056097154 0.014115916 0.49500003 4281353269
-0.054489397 0.014115916 0.49500003 4281353269
-0.051170286 0.014087398 0.49400002 4280697135
-0.049666114 0.014115916 0.49500003 4279386148
-0.04805835 0.014115916 0.49500003 4279388967
-0.046544429 0.014144432 0.49600002 4279193123
-0.045114607 0.014201466 0.49800003 4279391015
-0.04358444 0.014229983 0.49900001 4279260713
-0.040504631 0.014287017 0.50100005 4279394097
-0.035693988 0.014315534 0.50200003 4279132207
-0.03399564 0.014287017 0.50100005 4278605863
-0.032368392 0.014287017 0.50100005 4279066412
-0.03074114 0.014287017 0.50100005 4279000873
-0.029055776 0.014258499 0.5 4279197738
-0.016224409 0.014401084 0.505 4281298762
-0.060797367 0.015692456 0.49400002 4280695085
-0.059312679 0.015724221 0.49500003 4280497706
-0.057588339 0.015692456 0.49400002 4279773983
-0.055983827 0.015692456 0.49400002 4281024304
-0.054379314 0.015692456 0.49400002 4280234788
-0.052774802 0.015692456 0.49400002 4281484851
-0.051170286 0.015692456 0.49400002 4281157169
-0.049565777 0.015692456 0.49400002 4279584551
-0.04805835 0.015724221 0.49500003 4279519269
-0.046544429 0.015755987 0.49600002 4279586598
-0.045114607 0.01581952 0.49800003 4279718697
-0.04358444 0.015851285 0.49900001 4279654187
-0.042047784 0.015883051 0.5 4279457578
-0.040504631 0.015914818 0.50100005 4279261226
-0.038954984 0.015946584 0.50200003 4279459375
-0.037324488 0.015946584 0.50200003 4279262509
-0.035693988 0.015946584 0.50200003 4279065130
-0.034063492 0.015946584 0.50200003 4278802728
-0.032432999 0.015946584 0.50200003 4279000105
-0.03074114 0.015914818 0.50100005 4279131175
-0.029113891 0.015914818 0.50100005 4279065382
-0.027486643 0.015914818 0.50100005 4279131175
-0.025859393 0.015914818 0.50100005 4278999589
-0.024280511 0.015946584 0.50200003 4278867749
-0.022650015 0.015946584 0.50200003 4278999335
-0.021103261 0.016010115 0.50400001 4278999335
-0.01950489 0.01604188 0.505 4279263277
-0.017900025 0.016073648 0.50600004 4279263277
-0.016256537 0.016073648 0.50600004 4279394863
-0.060797367 0.01729751 0.49400002 4280628522
-0.059192851 0.01729751 0.49400002 4280431143
-0.057588339 0.01729751 0.49400002 4280694315
-0.055983827 0.01729751 0.49400002 4280891948
-0.054379314 0.01729751 0.49400002 4280365604
-0.051170286 0.01729751 0.49400002 4280302114
-0.049565777 0.01729751 0.49400002 4279650342
-0.04805835 0.017332526 0.49500003 4279453730
-0.046544429 0.017367542 0.49600002 4279257633
-0.045114607 0.017437572 0.49800003 4279521318
-0.04358444 0.017472588 0.49900001 4279391783
-0.042047784 0.017507602 0.5 4278931746
-0.040504631 0.017542619 0.50100005 4278669087
-0.038954984 0.017577633 0.50200003 4279721775
-0.037398838 0.017612647 0.50300002 4279196201
-0.035765093 0.017612647 0.50300002 4278998824
-0.034131348 0.017612647 0.50300002 4278999337
-0.032497603 0.017612647 0.50300002 4278538786
-0.030863857 0.017612647 0.50300002 4278204430
-0.029172001 0.017577633 0.50200003 4278931748
-0.027596369 0.017612647 0.50300002 4278867749
-0.025962623 0.017612647 0.50300002 4278933542
-0.024377245 0.017647663 0.50400001 4279262761
-0.022740252 0.017647663 0.50400001 4279130662
-0.021187006 0.017717695 0.50600004 4279130408
-0.019582139 0.017752709 0.50700003 4279196201
-0.017970776 0.017787723 0.50800002 4279262761
-0.016320791 0.017787723 0.50800002 4278934566
-0.014584168 0.017682677 0.505 4278868773
-0.013072086 0.017857755 0.51000005 4278671654
-0.011370838 0.017787723 0.50800002 4278869033
-0.060797367 0.018902566 0.49400002 4280957487
-0.059192851 0.018902566 0.49400002 4280694317
-0.057588339 0.018902566 0.49400002 4280036387
-0.055983827 0.018902566 0.49400002 4280825901
-0.054379314 0.018902566 0.49400002 4280694315
-0.052774802 0.018902566 0.49400002 4280958509
-0.051170286 0.018902566 0.49400002 4280105248
-0.049565777 0.018902566 0.49400002 4279452963
-0.04805835 0.018940832 0.49500003 4279322660
-0.046544429 0.018979095 0.49600002 4279389219
-0.045114607 0.019055625 0.49800003 4279456295
-0.04358444 0.019093888 0.49900001 4279260711
-0.042131882 0.019170418 0.50100005 4279129638
-0.040585477 0.019208683 0.50200003 4279327017
-0.039032582 0.019246945 0.50300002 4279327017
-0.037398838 0.019246945 0.50300002 4279064615
-0.035765093 0.019246945 0.50300002 4278998822
-0.034131348 0.019246945 0.50300002 4279130410
-0.032562211 0.019285209 0.50400001 4279064619
-0.030925216 0.019285209 0.50400001 4279061537
-0.029288223 0.019285209 0.50400001 4279851053
-0.027651232 0.019285209 0.50400001 4279192355
-0.026065852 0.019323474 0.505 4279192355
-0.024473982 0.01936174 0.50600004 4279916846
-0.022875611 0.019400004 0.50700003 4279258916
-0.021270746 0.019438267 0.50800002 4279654957
-0.019659385 0.019476531 0.509 4278931746
-0.018076904 0.019553062 0.51100004 4278998052
-0.016449302 0.019591324 0.51200002 4278867236
-0.015046241 0.019935703 0.52100003 4278999076
-0.01317461 0.019667853 0.514 4278999076
-0.01139322 0.019476531 0.509 4278933283
-0.010141834 0.020280082 0.53000003 4279064869
-0.0084521677 0.02035661 0.53200001 4278999589
-0.0067621497 0.020471403 0.53500003 4278933796
-0.0050432519 0.020547932 0.537 4278802210
-0.0033113621 0.020624461 0.53900003 4278934312
-0.0015635845 0.020662725 0.54000002 4279197486
0.00019068885 0.020700989 0.54100001 4279000107
-0.06240188 0.020507623 0.49400002 4280694569
-0.06092044 0.020549137 0.49500003 4281352245
-0.059312679 0.020549137 0.49500003 4281287222
-0.057704918 0.020549137 0.49500003 4280300329
-0.055983827 0.020507623 0.49400002 4281023020
-0.054379314 0.020507623 0.49400002 4280957227
-0.052774802 0.020507623 0.49400002 4281353265
-0.051170286 0.020507623 0.49400002 4280171555
-0.049666114 0.020549137 0.49500003 4279846951
-0.04805835 0.020549137 0.49500003 4279453730
-0.046638269 0.020632163 0.49700001 4279192353
-0.045114607 0.020673677 0.49800003 4279522088
-0.04358444 0.02071519 0.49900001 4279063334
-0.042131882 0.020798218 0.50100005 4279458603
-0.040585477 0.02083973 0.50200003 4279064615
-0.037398838 0.020881243 0.50300002 4279064615
-0.035836194 0.020922758 0.50400001 4279064615
-0.034199201 0.020922758 0.50400001 4279196203
-0.032562211 0.020922758 0.50400001 4278206487
-0.030986575 0.02096427 0.505 4279652391
-0.029346334 0.02096427 0.505 4278201093
-0.02776096 0.021005785 0.50600004 4279117588
-0.026169086 0.021047298 0.50700003 4278986002
-0.024570715 0.021088811 0.50800002 4279051027
-0.022965848 0.021130323 0.509 4278854931
-0.021396363 0.021213353 0.51100004 4278593043
-0.019775257 0.021254865 0.51200002 4278198280
-0.018183028 0.021337891 0.514 4278201097
-0.016545685 0.021379406 0.51500005 4278201095
-0.015046241 0.021628486 0.52100003 4278201095
-0.01330277 0.02154546 0.51900005 4278199810
-0.011773741 0.021836052 0.52600002 4278401558
-0.010141834 0.022002107 0.53000003 4278993949
-0.0084521677 0.022085132 0.53200001 4279783977
-0.0067621497 0.022209672 0.53500003 4280310834
-0.0050432519 0.0222927 0.537 4279653674
-0.0033113621 0.022375727 0.53900003 4279851566
-0.0015635845 0.02241724 0.54000002 4279589676
0.00019068885 0.022458753 0.54100001 4279262507
0.0019550589 0.022541782 0.54300004 4278934312
0.0037187238 0.022541782 0.54300004 4279263281
-0.0625282 0.022157442 0.49500003 4280957741
-0.061043512 0.022202205 0.49600002 4281483571
-0.059432499 0.022202205 0.49600002 4281483571
-0.057704918 0.022157442 0.49500003 4280628262
-0.056097154 0.022157442 0.49500003 4281220399
-0.054489397 0.022157442 0.49500003 4281549364
-0.051273871 0.022157442 0.49500003 4279975459
-0.049666114 0.022157442 0.49500003 4279847205
-0.048155438 0.022202205 0.49600002 4279716389
-0.046638269 0.022246966 0.49700001 4279389221
-0.045114607 0.022291729 0.49800003 4279587111
-0.043671783 0.022381254 0.5 4279260199
-0.042131882 0.022426018 0.50100005 4279327017
-0.040585477 0.02247078 0.50200003 4279196201
-0.039032582 0.022515543 0.50300002 4279393580
-0.037473191 0.022560304 0.50400001 4279064615
-0.035836194 0.022560304 0.50400001 4278867236
-0.034199201 0.022560304 0.50400001 4279327017
-0.032626819 0.022605065 0.505 4278337816
-0.030986575 0.022605065 0.505 4280375602
-0.029404448 0.02264983 0.50600004 4278200584
-0.027815823 0.022694593 0.50700003 4278329101
-0.026220702 0.022739355 0.50800002 4278854931
-0.024667453 0.022828881 0.51000005 4279776033
-0.02305609 0.022873642 0.51100004 4279249176
-0.021480104 0.022963166 0.51300001 4279446301
-0.019852502 0.023007929 0.514 4279909416
-0.018253781 0.023097456 0.51600003 4279718186
-0.016642066 0.02318698 0.51800001 4279587113
-0.01507512 0.023366028 0.52200001 4279850285
-0.013379663 0.023366028 0.52200001 4280047664
-0.011796124 0.023589842 0.52700001 4279521320
-0.010141834 0.023724129 0.53000003 4280047664
-0.0084680552 0.023858419 0.53300005 4279981871
-0.0067621497 0.023947943 0.53500003 4280244276
-0.0050432519 0.024037465 0.537 4280177969
-0.0033113621 0.024126993 0.53900003 4280177969
-0.00156648 0.024216516 0.54100001 4279454248
0.00019104134 0.024261281 0.54200006 4278731550
0.0019550589 0.024306044 0.54300004 4278867753
0.0037187238 0.024306044 0.54300004 4279394097
-0.061166581 0.023861771 0.49700001 4281483571
-0.059432499 0.02381376 0.49600002 4281812023
-0.057821494 0.02381376 0.49600002 4281088813
-0.056210481 0.02381376 0.49600002 4281549364
-0.054489397 0.02376575 0.49500003 4281549878
-0.052881636 0.02376575 0.49500003 4281091630
-0.051273871 0.02376575 0.49500003 4280107815
-0.049666114 0.02376575 0.49500003 4279716135
-0.048155438 0.02381376 0.49600002 4279388707
-0.046638269 0.023861771 0.49700001 4279455010
-0.045114607 0.023909785 0.49800003 4279587109
-0.043671783 0.024005806 0.5 4279457576
-0.042131882 0.024053819 0.50100005 4279261224
-0.040585477 0.024101831 0.50200003 4279327017
-0.039032582 0.024149843 0.50300002 4279590189
-0.037473191 0.024197852 0.50400001 4279196201
-0.035836194 0.024197852 0.50400001 4279327787
-0.034267057 0.024245864 0.505 4278865955
-0.032626819 0.024245864 0.505 4278201351
-0.031047937 0.024293877 0.50600004 4280639034
-0.029462559 0.024341889 0.50700003 4278199561
-0.027870687 0.0243899 0.50800002 4280502323
-0.026323933 0.024485925 0.51000005 4280962874
-0.024715818 0.024533935 0.51100004 4281027895
-0.023146328 0.024629958 0.51300001 4278198285
-0.021563848 0.024725983 0.51500005 4279185691
-0.01992975 0.024773993 0.51600003 4281423934
-0.018324532 0.024870016 0.51800001 4278597654
-0.016706323 0.024966041 0.52000004 4278198021
-0.015104 0.025110073 0.523 4278204433
-0.013430927 0.025158087 0.52400005 4278402839
-0.011796124 0.02530212 0.52700001 4278928670
-0.010141834 0.025446156 0.53000003 4279718699
-0.0084680552 0.025590193 0.53300005 4279127845
-0.0067747892 0.025734225 0.53600001 4279587881
-0.0050526438 0.02583025 0.53800005 4279390500
-0.0033175056 0.025926271 0.54000002 4279654187
-0.00156648 0.025974283 0.54100001 4279850801
0.00019104134 0.026022296 0.54200006 4279652652
0.0019550589 0.026070308 0.54300004 4279063336
0.003725572 0.026118318 0.54400003 4279261228
-0.052988466 0.025425315 0.49600002 4280302887
-0.051377457 0.025425315 0.49600002 4280108328
-0.049766447 0.025425315 0.49600002 4280110895
-0.048155438 0.025425315 0.49600002 4279586086
-0.046638269 0.025476575 0.49700001 4279784488
-0.045114607 0.025527837 0.49800003 4279390500
-0.043671783 0.025630357 0.5 4279260711
-0.042131882 0.02568162 0.50100005 4279195431
-0.040585477 0.02573288 0.50200003 4279458603
-0.039032582 0.02578414 0.50300002 4279261224
-0.037473191 0.0258354 0.50400001 4279064617
-0.035836194 0.0258354 0.50400001 4279130410
-0.034267057 0.02588666 0.505 4279654959
-0.032691427 0.025937922 0.50600004 4278200069
-0.031109296 0.025989184 0.50700003 4280770108
-0.02952067 0.026040444 0.50800002 4278267669
-0.027925549 0.026091704 0.509 4278396695
-0.026375549 0.026194226 0.51100004 4278527509
-0.024812553 0.026296746 0.51300001 4278920984
-0.023191446 0.026348006 0.514 4279579166
-0.021605721 0.02645053 0.51600003 4279515424
-0.020006998 0.02655305 0.51800001 4281162300
-0.018359909 0.026604313 0.51900005 4278198023
-0.01673845 0.026706833 0.52100003 4278198539
-0.015104 0.026809353 0.523 4279717672
-0.013456558 0.026911877 0.52500004 4279126049
-0.011818508 0.027065657 0.528 4279718186
-0.01016097 0.027219439 0.53100002 4279783979
-0.0084680552 0.027321963 0.53300005 4278466835
-0.0067747892 0.027475743 0.53600001 4279322660
-0.0050526438 0.027578266 0.53800005 4278533658
-0.0033175056 0.027680786 0.54000002 4278204949
-0.00156648 0.027732046 0.54100001 4279917107
0.00019139382 0.02783457 0.54300004 4279523121
0.0019550589 0.02783457 0.54300004 4279260713
0.003725572 0.02788583 0.54400003 4279194920
-0.052988466 0.02703687 0.49600002 4279909412
-0.051377457 0.02703687 0.49600002 4280371246
-0.049766447 0.02703687 0.49600002 4279979309
-0.048252523 0.027091378 0.49700001 4279585832
-0.046638269 0.027091378 0.49700001 4279456295
-0.045114607 0.027145889 0.49800003 4279456808
-0.043671783 0.027254907 0.5 4279260711
-0.042131882 0.02730942 0.50100005 4279327017
-0.040585477 0.027363928 0.50200003 4279393580
-0.039032582 0.027418438 0.50300002 4278801958
-0.037473191 0.027472947 0.50400001 4278801958
-0.035836194 0.027472947 0.50400001 4279064617
-0.034267057 0.027527457 0.505 4279391785
-0.032691427 0.027581969 0.50600004 4279454760
-0.031109296 0.027636478 0.50700003 4279586094
-0.02952067 0.027690986 0.50800002 4278200080
-0.027980415 0.027800009 0.51000005 4278790170
-0.026427163 0.027909027 0.51200002 4278658584
-0.02486092 0.028018044 0.514 4279117338
-0.023236569 0.028072556 0.51500005 4278853394
-0.021647591 0.028181575 0.51700002 4278658064
-0.020045621 0.028290598 0.51900005 4280438577
-0.018395284 0.028345106 0.52000004 4280109871
-0.016770577 0.028454125 0.52200001 4280702008
-0.015132881 0.028563146 0.52400005 4280507188
-0.01348219 0.028672164 0.52600002 4279718699
-0.011818508 0.028781181 0.528 4279192355
-0.01016097 0.028944712 0.53100002 4279850285
-0.0084839426 0.029108243 0.53400004 4280047151
-0.0067747892 0.029217262 0.53600001 4279389221
-0.0050620353 0.029380793 0.53900003 4279652139
-0.0033175056 0.029435301 0.54000002 4279126308
-0.0015693757 0.029544322 0.54200006 4279521836
0.00019139382 0.029598832 0.54300004 4279390763
0.0019586592 0.029653341 0.54400003 4278998056
0.003725572 0.029653341 0.54400003 4279392301
-0.056323808 0.028706182 0.49700001 4283525467
-0.05470955 0.028706182 0.49700001 4283328855
-0.052988466 0.028648423 0.49600002 4280765493
-0.051377457 0.028648423 0.49600002 4280503346
-0.049866781 0.028706182 0.49700001 4280045102
-0.048252523 0.028706182 0.49700001 4279585834
-0.046732109 0.028763942 0.49800003 4279588396
-0.045205195 0.028821699 0.49900001 4279851568
-0.043671783 0.028879458 0.5 4279392301
-0.042131882 0.028937221 0.50100005 4279524400
-0.040585477 0.028994977 0.50200003 4279262509
-0.039032582 0.029052736 0.50300002 4278934314
-0.037473191 0.029110495 0.50400001 4278868523
-0.035907295 0.029168252 0.505 4279065132
-0.034267057 0.029168252 0.505 4278206742
-0.032691427 0.029226014 0.50600004 4278337562
-0.031170655 0.02934153 0.50800002 4279653674
-0.029578781 0.029399289 0.509 4279982639
-0.028035278 0.029514808 0.51100004 4279586859
-0.026478779 0.029630324 0.51300001 4280113205
-0.02490929 0.029745845 0.51500005 4280243510
-0.023281688 0.029803602 0.51600003 4280309303
-0.021689462 0.02991912 0.51800001 4280177971
-0.020045621 0.02997688 0.51900005 4279783211
-0.01843066 0.030092398 0.52100003 4279387685
-0.016770577 0.030150155 0.52200001 4279190306
-0.015132881 0.030265674 0.52400005 4278927134
-0.01348219 0.030381192 0.52600002 4278269204
-0.011840892 0.03055447 0.52900004 4278200841
-0.01016097 0.030669985 0.53100002 4278200841
-0.0084839426 0.030843263 0.53400004 4278199042
-0.0067874286 0.031016538 0.537 4278200841
-0.0050620353 0.031132057 0.53900003 4278201358
-0.0033236491 0.031247575 0.54100001 4278202643
-0.0015693757 0.031305335 0.54200006 4278204180
0.00019139382 0.031363092 0.54300004 4279523119
0.0019586592 0.031420853 0.54400003 4279260974
0.003725572 0.031420853 0.54400003 4278865703
-0.056323808 0.030320985 0.49700001 4286881937
-0.05470955 0.030320985 0.49700001 4282935640
-0.053095296 0.030320985 0.49700001 4280632885
-0.051481038 0.030320985 0.49700001 4280436789
-0.049866781 0.030320985 0.49700001 4280044852
-0.048252523 0.030320985 0.49700001 4280176947
-0.046732109 0.030381994 0.49800003 4280112690
-0.045205195 0.030443002 0.49900001 4280047410
-0.043671783 0.030504009 0.5 4279392047
-0.042131882 0.03056502 0.50100005 4279195951
-0.040585477 0.030626027 0.50200003 4279195951
-0.039032582 0.030687034 0.50300002 4279130158
-0.037473191 0.030748041 0.50400001 4279327791
-0.035907295 0.030809049 0.505 4279196203
-0.034334917 0.03087006 0.50600004 4279458605
-0.032756034 0.030931067 0.50700003 4279326508
-0.031170655 0.030992074 0.50800002 4279852336
-0.029636895 0.031114092 0.51000005 4279391785
-0.028035278 0.031175099 0.51100004 4279260715
-0.026478779 0.031297114 0.51300001 4279194922
-0.02490929 0.031419132 0.51500005 4279194922
-0.023326807 0.031541146 0.51700002 4279195435
-0.021689462 0.031602152 0.51800001 4279063849
-0.020084245 0.03172417 0.52000004 4279326508
-0.01843066 0.031785179 0.52100003 4279392301
-0.016770577 0.031846184 0.52200001 4279391787
-0.015132881 0.031968202 0.52400005 4279457580
-0.01348219 0.032090217 0.52600002 4279654959
-0.011818508 0.032212231 0.528 4279654187
-0.01016097 0.032395259 0.53100002 4279522088
-0.0084839426 0.032578282 0.53400004 4279522088
-0.0067874286 0.032761306 0.537 4279916848
-0.0050620353 0.032883324 0.53900003 4279653422
-0.0033236491 0.033005338 0.54100001 4280048182
-0.0015693757 0.033066347 0.54200006 4279587629
0.00019139382 0.033127356 0.54300004 4279588142
0.0019586592 0.033188362 0.54400003 4278865703
0.003725572 0.033188362 0.54400003 4280178746
-0.045205195 0.032064304 0.49900001 4280307002
-0.043671783 0.032128561 0.5 4279717430
-0.040585477 0.032257076 0.50200003 4280047930
-0.037473191 0.032385591 0.50400001 4279586861
-0.035907295 0.032449845 0.505 4279784238
-0.034334917 0.032514106 0.50600004 4279982900
-0.032756034 0.032578364 0.50700003 4279193384
-0.031232014 0.032706875 0.509 4279785521
-0.029636895 0.032771137 0.51000005 4279653935
-0.02809014 0.032899648 0.51200002 4279785521
-0.026530392 0.033028159 0.514 4279391535
-0.024957657 0.033156678 0.51600003 4279720498
-0.023326807 0.033220932 0.51700002 4279654705
-0.021731336 0.033349451 0.51900005 4279392047
-0.020084245 0.033413704 0.52000004 4279523633
-0.01843066 0.033477962 0.52100003 4279326254
-0.016770577 0.03354222 0.52200001 4279260976
-0.015132881 0.033670735 0.52400005 4279195183
-0.01348219 0.03379925 0.52600002 4279458353
-0.011818508 0.033927761 0.528 4279326506
-0.01016097 0.034120534 0.53100002 4279457578
-0.0084839426 0.034313306 0.53400004 4279588394
-0.0067874286 0.034506075 0.537 4279785773
-0.0050620353 0.03463459 0.53900003 4279588396
-0.0033236491 0.034763105 0.54100001 4279785521
-0.0015693757 0.034827363 0.54200006 4279785269
0.00019139382 0.03489162 0.54300004 4279653683
0.0019586592 0.034955878 0.54400003 4280176438
-0.02809014 0.034563188 0.51200002 4281952079
-0.026530392 0.034698199 0.514 4281228102
-0.024957657 0.034833215 0.51600003 4281557321
-0.023371926 0.034968223 0.51800001 4281293636
-0.021731336 0.035035733 0.51900005 4280504631
-0.020084245 0.035103239 0.52000004 4280307252
-0.01843066 0.035170745 0.52100003 4280505401
-0.016770577 0.035238251 0.52200001 4280111158
-0.015132881 0.035373263 0.52400005 4280439608
-0.01348219 0.035508275 0.52600002 4280373815
-0.011818508 0.035643287 0.528 4281229124
-0.01016097 0.035845805 0.53100002 4281359940
-0.0084839426 0.036048327 0.53400004 4281951825
-0.0067747892 0.036183339 0.53600001 4282675035
-0.0050620353 0.036385857 0.53900003 4284582516
-0.0033175056 0.036453363 0.54000002 4285832583
-0.0015693757 0.036588378 0.54200006 4286753171
0.00019139382 0.036655884 0.54300004 4287016857
0.0019586592 0.036723386 0.54400003 4286752404
-0.01348219 0.037217304 0.52600002 4287936678
-0.01016097 0.03757108 0.53100002 4287147162
-0.0084839426 0.037783347 0.53400004 4287147162
-0.0067747892 0.037924856 0.53600001 4287081369
-0.0050620353 0.038137123 0.53900003 4287015576
-0.0033175056 0.038207877 0.54000002 4287015576
-0.02902979 0.024618955 0.51195812 4294967295
-0.02902979 0.024618955 0.51195812 4294901760
-0.02902979 0.024618955 0.51245815 4294901760
-0.02902979 0.024618955 0.51295811 4294901760
-0.02902979 0.024618955 0.51345813 4294901760
-0.02902979 0.024618955 0.5139581 4294901760
-0.02902979 0.024618955 0.51445812 4294901760
-0.02902979 0.024618955 0.51495814 4294901760
-0.02902979 0.024618955 0.51545811 4294901760
-0.02902979 0.024618955 0.51595813 4294901760
-0.02902979 0.024618955 0.51645809 4294901760
-0.02902979 0.024618955 0.51695812 4294901760
-0.02902979 0.024618955 0.51745814 4294901760
-0.02902979 0.024618955 0.5179581 4294901760
-0.02902979 0.024618955 0.51845813 4294901760
-0.02902979 0.024618955 0.51895815 4294901760
-0.02902979 0.024618955 0.51945812 4294901760
-0.02902979 0.024618955 0.51995814 4294901760
-0.02902979 0.024618955 0.5204581 4294901760
-0.02902979 0.024618955 0.52095813 4294901760
-0.02902979 0.024618955 0.52145815 4294901760
-0.02902979 0.024618955 0.52195811 4294901760
-0.02902979 0.024618955 0.52245814 4294901760
-0.02902979 0.024618955 0.5229581 4294901760
-0.02902979 0.024618955 0.52345812 4294901760
-0.02902979 0.024618955 0.52395815 4294901760
-0.02902979 0.024618955 0.52445811 4294901760
-0.02902979 0.024618955 0.52495813 4294901760
-0.02902979 0.024618955 0.5254581 4294901760
-0.02902979 0.024618955 0.52595812 4294901760
-0.02902979 0.024618955 0.52645814 4294901760
-0.02902979 0.024618955 0.52695811 4294901760
-0.02902979 0.024618955 0.52745813 4294901760
-0.02902979 0.024618955 0.52795815 4294901760
-0.02902979 0.024618955 0.52845812 4294901760
-0.02902979 0.024618955 0.52895814 4294901760
-0.02902979 0.024618955 0.52945811 4294901760
-0.02902979 0.024618955 0.52995813 4294901760
-0.02902979 0.024618955 0.53045815 4294901760
-0.02902979 0.024618955 0.53095812 4294901760
-0.02902979 0.024618955 0.53145814 4294901760
-0.02902979 0.024618955 0.5319581 4294901760
-0.02902979 0.024618955 0.53245813 4294901760
-0.02902979 0.024618955 0.53295815 4294901760
-0.02902979 0.024618955 0.53345811 4294901760
-0.02902979 0.024618955 0.53395814 4294901760
-0.02902979 0.024618955 0.5344581 4294901760
-0.02902979 0.024618955 0.53495812 4294901760
-0.02902979 0.024618955 0.53545815 4294901760
-0.02902979 0.024618955 0.53595811 4294901760
-0.02902979 0.024618955 0.53645813 4294901760
-0.02902979 0.024618955 0.5369581 4294901760
-0.02902979 0.024618955 0.53745812 4294901760
-0.02902979 0.024618955 0.53795815 4294901760
-0.02902979 0.024618955 0.53845811 4294901760
-0.02902979 0.024618955 0.53895813 4294901760
-0.02902979 0.024618955 0.53945816 4294901760
-0.02902979 0.024618955 0.53995812 4294901760
-0.02902979 0.024618955 0.54045814 4294901760
-0.02902979 0.024618955 0.54095811 4294901760
-0.02902979 0.024618955 0.54145813 4294901760
-0.02902979 0.024618955 0.54195815 4294901760
-0.02902979 0.024618955 0.54245812 4294901760
-0.02902979 0.024618955 0.54295814 4294901760
-0.02902979 0.024618955 0.5434581 4294901760
-0.02902979 0.024618955 0.54395813 4294901760
-0.02902979 0.024618955 0.54445815 4294901760
-0.02902979 0.024618955 0.54495811 4294901760
-0.02902979 0.024618955 0.54545814 4294901760
-0.02902979 0.024618955 0.54595816 4294901760
-0.02902979 0.024618955 0.54645813 4294901760
-0.02902979 0.024618955 0.54695815 4294901760
-0.02902979 0.024618955 0.54745811 4294901760
-0.02902979 0.024618955 0.54795814 4294901760
-0.02902979 0.024618955 0.54845816 4294901760
-0.02902979 0.024618955 0.54895812 4294901760
-0.02902979 0.024618955 0.54945815 4294901760
-0.02902979 0.024618955 0.54995811 4294901760
-0.02902979 0.024618955 0.55045813 4294901760
-0.02902979 0.024618955 0.55095816 4294901760
-0.02902979 0.024618955 0.55145812 4294901760
-0.02902979 0.024618955 0.55195814 4294901760
-0.02902979 0.024618955 0.55245811 4294901760
-0.02902979 0.024618955 0.55295813 4294901760
-0.02902979 0.024618955 0.55345815 4294901760
-0.02902979 0.024618955 0.55395812 4294901760
-0.02902979 0.024618955 0.55445814 4294901760
-0.02902979 0.024618955 0.55495811 4294901760
-0.02902979 0.024618955 0.55545813 4294901760
-0.02902979 0.024618955 0.55595815 4294901760
-0.02902979 0.024618955 0.55645812 4294901760
-0.02902979 0.024618955 0.55695814 4294901760
-0.02902979 0.024618955 0.55745816 4294901760
-0.02902979 0.024618955 0.55795813 4294901760
-0.02902979 0.024618955 0.55845815 4294901760
-0.02902979 0.024618955 0.55895811 4294901760
-0.02902979 0.024618955 0.55945814 4294901760
-0.02902979 0.024618955 0.55995816 4294901760
-0.02902979 0.024618955 0.56045812 4294901760
-0.02902979 0.024618955 0.56095815 4294901760
-0.02902979 0.024618955 0.56145811 4294901760
-0.02902979 0.024618955 0.56195813 4294901760
-0.02902979 0.024618955 0.51195812 4278255360
-0.029295221 0.024580032 0.51238006 4278255360
-0.029560652 0.024541108 0.512802 4278255360
-0.029826082 0.024502184 0.51322395 4278255360
-0.030091513 0.024463261 0.51364589 4278255360
-0.030356944 0.024424339 0.51406783 4278255360
-0.030622374 0.024385415 0.51448977 4278255360
-0.030887805 0.024346491 0.51491171 4278255360
-0.031153236 0.024307568 0.51533365 4278255360
-0.031418666 0.024268644 0.51575553 4278255360
-0.031684097 0.02422972 0.51617748 4278255360
-0.031949528 0.024190797 0.51659942 4278255360
-0.032214958 0.024151873 0.51702136 4278255360
-0.032480389 0.024112949 0.5174433 4278255360
-0.03274582 0.024074027 0.51786524 4278255360
-0.03301125 0.024035104 0.51828718 4278255360
-0.033276681 0.02399618 0.51870912 4278255360
-0.033542112 0.023957256 0.51913106 4278255360
-0.033807542 0.023918333 0.51955301 4278255360
-0.034072973 0.023879409 0.51997495 4278255360
-0.034338403 0.023840485 0.52039689 4278255360
-0.034603834 0.023801561 0.52081883 4278255360
-0.034869265 0.023762638 0.52124077 4278255360
-0.035134695 0.023723716 0.52166271 4278255360
-0.035400126 0.023684792 0.52208465 4278255360
-0.035665557 0.023645869 0.52250659 4278255360
-0.035930987 0.023606945 0.52292848 4278255360
-0.036196418 0.023568021 0.52335042 4278255360
-0.036461849 0.023529097 0.52377236 4278255360
-0.036727279 0.023490174 0.5241943 4278255360
-0.036992714 0.02345125 0.52461624 4278255360
-0.037258141 0.023412326 0.52503818 4278255360
-0.037523571 0.023373405 0.52546012 4278255360
-0.037789002 0.023334481 0.52588207 4278255360
-0.038054433 0.023295557 0.52630401 4278255360
-0.038319863 0.023256633 0.52672595 4278255360
-0.038585298 0.02321771 0.52714789 4278255360
-0.038850725 0.023178786 0.52756983 4278255360
-0.039116155 0.023139862 0.52799177 4278255360
-0.039381586 0.023100939 0.52841371 4278255360
-0.03964702 0.023062015 0.52883565 4278255360
-0.039912447 0.023023091 0.5292576 4278255360
-0.040177878 0.022984169 0.52967948 4278255360
-0.040443309 0.022945246 0.53010142 4278255360
-0.040708743 0.022906322 0.53052336 4278255360
-0.04097417 0.022867398 0.5309453 4278255360
-0.041239604 0.022828475 0.53136724 4278255360
-0.041505031 0.022789551 0.53178918 4278255360
-0.041770466 0.022750627 0.53221112 4278255360
-0.042035893 0.022711704 0.53263307 4278255360
-0.042301327 0.02267278 0.53305501 4278255360
-0.042566754 0.022633858 0.53347695 4278255360
-0.042832188 0.022594934 0.53389889 4278255360
-0.043097615 0.022556011 0.53432083 4278255360
-0.04336305 0.022517087 0.53474277 4278255360
-0.04362848 0.022478163 0.53516471 4278255360
-0.043893911 0.02243924 0.53558666 4278255360
-0.044159338 0.022400316 0.5360086 4278255360
-0.044424772 0.022361392 0.53643048 4278255360
-0.044690199 0.022322468 0.53685242 4278255360
-0.044955634 0.022283547 0.53727436 4278255360
-0.045221061 0.022244623 0.5376963 4278255360
-0.045486495 0.022205699 0.53811824 4278255360
-0.045751922 0.022166776 0.53854018 4278255360
-0.046017356 0.022127852 0.53896213 4278255360
-0.046282783 0.022088928 0.53938407 4278255360
-0.046548218 0.022050004 0.53980601 4278255360
-0.046813648 0.022011081 0.54022795 4278255360
-0.047079079 0.021972157 0.54064989 4278255360
-0.047344506 0.021933235 0.54107183 4278255360
-0.04760994 0.021894312 0.54149377 4278255360
-0.047875367 0.021855388 0.54191571 4278255360
-0.048140801 0.021816464 0.54233766 4278255360
-0.048406232 0.02177754 0.5427596 4278255360
-0.048671663 0.021738617 0.54318154 4278255360
-0.048937093 0.021699693 0.54360342 4278255360
-0.049202524 0.021660769 0.54402536 4278255360
-0.049467951 0.021621846 0.5444473 4278255360
-0.049733385 0.021582924 0.54486924 4278255360
-0.049998816 0.021544 0.54529119 4278255360
-0.050264247 0.021505076 0.54571313 4278255360
-0.050529677 0.021466153 0.54613507 4278255360
-0.050795108 0.021427229 0.54655701 4278255360
-0.051060535 0.021388305 0.54697895 4278255360
-0.051325969 0.021349382 0.54740089 4278255360
-0.0515914 0.021310458 0.54782283 4278255360
-0.051856831 0.021271534 0.54824477 4278255360
-0.052122261 0.021232612 0.54866672 4278255360
-0.052387692 0.021193689 0.54908866 4278255360
-0.052653123 0.021154765 0.5495106 4278255360
-0.052918553 0.021115841 0.54993254 4278255360
-0.053183984 0.021076918 0.55035448 4278255360
-0.053449415 0.021037994 0.55077636 4278255360
-0.053714845 0.02099907 0.5511983 4278255360
-0.053980276 0.020960147 0.55162024 4278255360
-0.054245707 0.020921223 0.55204219 4278255360
-0.054511137 0.020882301 0.55246413 4278255360
-0.054776568 0.020843377 0.55288607 4278255360
-0.055041999 0.020804454 0.55330801 4278255360
-0.055307429 0.02076553 0.55372995 4278255360
-0.05557286 0.020726606 0.55415189 4278255360
