# .PCD v0.7 - Point Cloud Data file format
VERSION 0.7
FIELDS x y z rgb
SIZE 4 4 4 4
TYPE F F F U
COUNT 1 1 1 1
WIDTH 1073
HEIGHT 1
VIEWPOINT 0 0 0 1 0 0 0
POINTS 1073
DATA ascii
0.051718507 0.016159266 0.36100003 4279443734
0.061581276 0.015980216 0.35700002 4279969817
0.06274081 0.015980216 0.35700002 4279772953
0.051718507 0.017332194 0.36100003 4279511065
0.061581276 0.017140146 0.35700002 4280101403
0.06274081 0.017140146 0.35700002 4279838231
0.060590982 0.018351335 0.35800001 4280102430
0.061581276 0.018300075 0.35700002 4279838231
0.06274081 0.018300075 0.35700002 4280100633
0.063721359 0.018248815 0.35600001 4279707674
0.064695403 0.018197555 0.35500002 4281353269
0.065848447 0.018197555 0.35500002 4281025585
0.060590982 0.019514514 0.35800001 4280102430
0.061753768 0.019514514 0.35800001 4279904026
0.06274081 0.019460006 0.35700002 4280232991
0.063721359 0.019405494 0.35600001 4279575574
0.064695403 0.019350985 0.35500002 4281418290
0.065848447 0.019350985 0.35500002 4281091376
0.066812746 0.019296475 0.354 4280303141
0.060760234 0.020735452 0.35900003 4280101918
0.061753768 0.020677693 0.35800001 4280167198
0.06274081 0.020619934 0.35700002 4280232991
0.063721359 0.020562174 0.35600001 4280232991
0.064695403 0.020504417 0.35500002 4281615155
0.065848447 0.020504417 0.35500002 4281026350
0.066812746 0.020446656 0.354 4279975459
0.060760234 0.021901879 0.35900003 4279969817
0.061753768 0.02184087 0.35800001 4280298014
0.06274081 0.021779863 0.35700002 4280561954
0.063721359 0.021718854 0.35600001 4280364575
0.064695403 0.021657847 0.35500002 4280167196
0.06566295 0.021596838 0.354 4280171555
0.066812746 0.021596838 0.354 4279779363
0.067770556 0.021535831 0.35300002 4279317275
0.059760205 0.023132564 0.36000001 4280561184
0.060760234 0.023068309 0.35900003 4279969047
0.061753768 0.023004051 0.35800001 4280626464
0.06274081 0.022939794 0.35700002 4280034325
0.063721359 0.022875536 0.35600001 4279969045
0.064695403 0.022811281 0.35500002 4279706643
0.06566295 0.022747021 0.354 4279514908
0.066812746 0.022747021 0.354 4279254301
0.067770556 0.022682765 0.35300002 4279056922
0.055083081 0.024302242 0.36000001 4280167194
0.059760205 0.024302242 0.36000001 4280429085
0.060760234 0.024234736 0.35900003 4279836948
0.061753768 0.024167228 0.35800001 4279836176
0.06274081 0.024099724 0.35700002 4279967762
0.063542366 0.023964711 0.35500002 4279836946
0.064513162 0.023897203 0.354 4279771666
0.06566295 0.023897203 0.354 4279713568
0.066624016 0.023829699 0.35300002 4279320861
0.067770556 0.023829699 0.35300002 4279320607
0.052744523 0.025471918 0.36000001 4280232219
0.053913798 0.025471918 0.36000001 4280298012
0.055083081 0.025471918 0.36000001 4279904026
0.059594207 0.025401164 0.35900003 4279902741
0.060760234 0.025401164 0.35900003 4279770385
0.061581276 0.025259653 0.35700002 4279967762
0.062565066 0.025188897 0.35600001 4279967762
0.063542366 0.025118142 0.35500002 4279705614
0.064513162 0.025047386 0.354 4279904276
0.065477468 0.024976632 0.35300002 4279187478
0.066435277 0.024905877 0.35200003 4279255068
0.067578569 0.024905877 0.35200003 4279255838
0.052744523 0.026641594 0.36000001 4280298012
0.053913798 0.026641594 0.36000001 4280363805
0.055083081 0.026641594 0.36000001 4281352245
0.060590982 0.026493585 0.35800001 4280033557
0.061581276 0.026419582 0.35700002 4279836176
0.062565066 0.026345577 0.35600001 4279836946
0.063363373 0.026197568 0.354 4279837711
0.064330921 0.026123563 0.35300002 4279838481
0.065291978 0.02604956 0.35200003 4279187478
0.066246539 0.025975555 0.35100001 4279189275
0.067386582 0.025975555 0.35100001 4279190045
0.051431976 0.027734019 0.35900003 4280100118
0.052598011 0.027734019 0.35900003 4280165911
0.053913798 0.027811272 0.36000001 4280429596
0.061408777 0.027502256 0.35600001 4280033555
0.062389322 0.027425004 0.35500002 4280099348
0.063184381 0.027270496 0.35300002 4279903504
0.064148679 0.027193245 0.35200003 4279838994
0.065106489 0.027115989 0.35100001 4279055892
0.066057809 0.027038736 0.35000002 4278794004
0.067194603 0.027038736 0.35000002 4279058459
0.068136171 0.026961481 0.34900001 4279124252
0.051431976 0.028900446 0.35900003 4280100118
0.063005388 0.028336927 0.35200003 4279706897
0.063784197 0.028175922 0.35000002 4279181580
0.064920999 0.028175922 0.35000002 4279187478
0.066057809 0.028175922 0.35000002 4278728724
0.067002617 0.028095419 0.34900001 4278663701
0.068136171 0.028095419 0.34900001 4279124252
0.069071248 0.028014917 0.34800002 4278795287
0.063784197 0.029313108 0.35000002 4279381010
0.064920999 0.029313108 0.35000002 4279319064
0.065869063 0.029229354 0.34900001 4278794004
0.067002617 0.029229354 0.34900001 4278663701
0.068136171 0.029229354 0.34900001 4278861078
0.069071248 0.029145604 0.34800002 4278861078
0.070201546 0.029145604 0.34800002 4279255836
0.071331851 0.029145604 0.34800002 4279385119
0.063601956 0.030363292 0.34900001 4280238116
0.064920999 0.030450294 0.35000002 4279319064
0.066057809 0.030450294 0.35000002 4278859027
0.067002617 0.030363292 0.34900001 4278532115
0.068136171 0.030363292 0.34900001 4279058459
0.069269724 0.030363292 0.34900001 4279584803
0.070201546 0.030276291 0.34800002 4279123482
0.071331851 0.030276291 0.34800002 4278860310
0.072462156 0.030276291 0.34800002 4279189275
0.073380984 0.030189289 0.347 4279451680
0.074508041 0.030189289 0.347 4279779875
0.075635098 0.030189289 0.347 4279187738
0.076762155 0.030189289 0.347 4279450912
0.077664748 0.030102288 0.34600002 4279186972
0.078788556 0.030102288 0.34600002 4279581217
0.064920999 0.031587481 0.35000002 4279581723
0.066057809 0.031587481 0.35000002 4279187478
0.067194603 0.031587481 0.35000002 4278859797
0.068136171 0.031497229 0.34900001 4278991896
0.069269724 0.031497229 0.34900001 4278269456
0.07040327 0.031497229 0.34900001 4282348109
0.071331851 0.03140698 0.34800002 4278794517
0.072462156 0.03140698 0.34800002 4278991896
0.073592462 0.03140698 0.34800002 4278794517
0.074508041 0.031316731 0.347 4278991896
0.075635098 0.031316731 0.347 4278926103
0.076762155 0.031316731 0.347 4278926103
0.077664748 0.03122648 0.34600002 4279189275
0.078788556 0.03122648 0.34600002 4279189275
0.079912372 0.03122648 0.34600002 4278991896
0.065106489 0.032818165 0.35100001 4279779615
0.066246539 0.032818165 0.35100001 4279319064
0.067386582 0.032818165 0.35100001 4278991383
0.068331406 0.032724667 0.35000002 4279188762
0.069468208 0.032724667 0.35000002 4278795287
0.07040327 0.032631166 0.34900001 4279058459
0.071536824 0.032631166 0.34900001 4278992664
0.072462156 0.032537669 0.34800002 4278795285
0.073592462 0.032537669 0.34800002 4278861078
0.074722767 0.032537669 0.34800002 4278663699
0.075635098 0.032444168 0.347 4278663699
0.076762155 0.032444168 0.347 4278861078
0.077889211 0.032444168 0.347 4278795285
0.078788556 0.032350671 0.34600002 4278795285
0.079912372 0.032350671 0.34600002 4278729492
0.081036173 0.032350671 0.34600002 4278729492
0.065477468 0.034152094 0.35300002 4279582234
0.066435277 0.034055348 0.35200003 4279516441
0.067578569 0.034055348 0.35200003 4279385369
0.068526633 0.033958599 0.35100001 4279319576
0.069666684 0.033958599 0.35100001 4279254555
0.070605002 0.033861853 0.35000002 4279189275
0.071741804 0.033861853 0.35000002 4278794517
0.072670378 0.033765104 0.34900001 4278531343
0.073803931 0.033765104 0.34900001 4278597906
0.074722767 0.033668354 0.34800002 4278729492
0.075853072 0.033668354 0.34800002 4278532113
0.076762155 0.033571605 0.347 4278794515
0.077889211 0.033571605 0.347 4278728722
0.078788556 0.033474859 0.34600002 4278860308
0.079912372 0.033474859 0.34600002 4278663699
0.081036173 0.033474859 0.34600002 4278663699
0.10009991 0.032023638 0.33100003 4280173606
0.101175 0.032023638 0.33100003 4279713055
0.10225009 0.032023638 0.33100003 4280107297
0.06274081 0.035699017 0.35700002 4279644443
0.063900352 0.035699017 0.35700002 4279711772
0.064877644 0.035599019 0.35600001 4280040737
0.06566295 0.035399023 0.354 4279516443
0.066812746 0.035399023 0.354 4279516443
0.067770556 0.035299029 0.35300002 4279450650
0.068917103 0.035299029 0.35300002 4279713820
0.069865167 0.035199031 0.35200003 4279648541
0.070806727 0.035099033 0.35100001 4279780899
0.071946777 0.035099033 0.35100001 4279517725
0.072878607 0.034999039 0.35000002 4279189273
0.073803931 0.034899037 0.34900001 4279123480
0.074937485 0.034899037 0.34900001 4279123480
0.075853072 0.034799043 0.34800002 4279320346
0.076762155 0.034699045 0.347 4279057174
0.077889211 0.034699045 0.347 4279057174
0.079016268 0.034699045 0.347 4278925588
0.079912372 0.034599047 0.34600002 4278794002
0.081036173 0.034599047 0.34600002 4278596623
0.081922531 0.034499053 0.34500003 4278596623
0.096727706 0.033799071 0.33800003 4278728722
0.097825535 0.033799071 0.33800003 4278794515
0.099623151 0.033299085 0.333 4278596621
0.10040233 0.033199087 0.33200002 4278859793
0.10148066 0.033199087 0.33200002 4278925586
0.102559 0.033199087 0.33200002 4279254553
0.10363734 0.033199087 0.33200002 4279319576
0.10471567 0.033199087 0.33200002 4279648541
0.10579401 0.033199087 0.33200002 4279451162
0.06274081 0.03685895 0.35700002 4279578650
0.063900352 0.03685895 0.35700002 4279711772
0.065059885 0.03685895 0.35700002 4279778848
0.065848447 0.036652453 0.35500002 4279648029
0.067001484 0.036652453 0.35500002 4279648029
0.068154521 0.036652453 0.35500002 4279516443
0.069112331 0.036549207 0.354 4279451164
0.070063643 0.03644596 0.35300002 4279780129
0.071210191 0.03644596 0.35300002 4279977508
0.072151758 0.036342718 0.35200003 4279451934
0.073086828 0.036239468 0.35100001 4279254555
0.074015409 0.036136225 0.35000002 4279254555
0.074937485 0.036032975 0.34900001 4278991383
0.076071039 0.036032975 0.34900001 4279057176
0.076983377 0.035929732 0.34800002 4279057176
0.077889211 0.035826482 0.347 4279057174
0.079016268 0.035826482 0.347 4279188760
0.079912372 0.035723239 0.34600002 4279254553
0.081036173 0.035723239 0.34600002 4279057174
0.081922531 0.035619993 0.34500003 4279057174
0.083043091 0.035619993 0.34500003 4278925590
0.083919697 0.035516743 0.34400001 4279188762
0.085037008 0.035516743 0.34400001 4279057176
0.085903868 0.0354135 0.34300002 4278991896
0.087017938 0.0354135 0.34300002 4278860308
0.087875053 0.03531025 0.34200001 4278794515
0.09481173 0.035000514 0.33900002 4278860308
0.095912807 0.035000514 0.33900002 4278926101
0.097013876 0.035000514 0.33900002 4278860308
0.098114952 0.035000514 0.33900002 4278860306
0.099922322 0.034484282 0.33400002 4278662927
0.10070474 0.034381032 0.333 4278794002
0.10178632 0.034381032 0.333 4278991381
0.10286791 0.034381032 0.333 4278859795
0.10394949 0.034381032 0.333 4278859795
0.10503107 0.034381032 0.333 4278925588
0.10611266 0.034381032 0.333 4278794002
0.10751615 0.034484282 0.33400002 4278859795
0.10860099 0.034484282 0.33400002 4279057174
0.062916555 0.03812537 0.35800001 4279776029
0.064079344 0.03812537 0.35800001 4279712539
0.065059885 0.038018879 0.35700002 4279713309
0.066219419 0.038018879 0.35700002 4279582750
0.067190222 0.03791238 0.35600001 4279451164
0.068346508 0.03791238 0.35600001 4279451164
0.069307566 0.037805885 0.35500002 4279582750
0.07046061 0.037805885 0.35500002 4279845922
0.071411915 0.03769939 0.354 4279911715
0.072356731 0.037592895 0.35300002 4279451934
0.073295057 0.0374864 0.35200003 4279386141
0.074226879 0.037379902 0.35100001 4279188762
0.075152203 0.037273411 0.35000002 4278925590
0.076071039 0.037166912 0.34900001 4279057176
0.076983377 0.037060417 0.34800002 4278991383
0.078113675 0.037060417 0.34800002 4279188762
0.079016268 0.036953922 0.347 4279057176
0.080143325 0.036953922 0.347 4279187478
0.081036173 0.036847427 0.34600002 4278462472
0.082159981 0.036847427 0.34600002 4278726414
0.083043091 0.036740933 0.34500003 4278397195
0.084163651 0.036740933 0.34500003 4278924820
0.085037008 0.036634434 0.34400001 4279319578
0.086154319 0.036634434 0.34400001 4278794004
0.087017938 0.036527943 0.34300002 4279057176
0.087875053 0.036421444 0.34200001 4278991383
0.088725686 0.036314949 0.34100002 4278925590
0.089833252 0.036314949 0.34100002 4278991383
0.090674132 0.036208451 0.34 4278991383
0.09177845 0.036208451 0.34 4278991383
0.092882767 0.036208451 0.34 4279188760
0.093710653 0.03610196 0.33900002 4278728209
0.09481173 0.03610196 0.33900002 4278859795
0.095912807 0.03610196 0.33900002 4278596623
0.097013876 0.03610196 0.33900002 4278596623
0.098114952 0.03610196 0.33900002 4278596621
0.098923348 0.035995465 0.33800003 4278728207
0.099725246 0.035888966 0.33700001 4278991892
0.10022149 0.035675976 0.33500001 4278926101
0.10130957 0.035675976 0.33500001 4278991894
0.10209199 0.035569482 0.33400002 4278926101
0.10317682 0.035569482 0.33400002 4278860308
0.10426166 0.035569482 0.33400002 4279123482
0.10534649 0.035569482 0.33400002 4279123480
0.10643132 0.035569482 0.33400002 4278925588
0.10783806 0.035675976 0.33500001 4278925588
0.10892613 0.035675976 0.33500001 4278925588
0.12562123 0.035782471 0.33600003 4280040991
0.12671256 0.035782471 0.33600003 4281290286
0.12780388 0.035782471 0.33600003 4282078525
0.12889521 0.035782471 0.33600003 4284446049
0.12998654 0.035782471 0.33600003 4285498737
0.13107787 0.035782471 0.33600003 4285103979
0.063092306 0.039398298 0.35900003 4280104483
0.064079344 0.039288551 0.35800001 4280107297
0.065242119 0.039288551 0.35800001 4279713822
0.066404909 0.039288551 0.35800001 4279386141
0.067378961 0.039178807 0.35700002 4279451934
0.068538494 0.039178807 0.35700002 4279386141
0.069502793 0.03906906 0.35600001 4279715106
0.070659086 0.03906906 0.35600001 4279911715
0.071613647 0.038959317 0.35500002 4279911715
0.072561711 0.03884957 0.354 4279320348
0.073503278 0.038739827 0.35300002 4279188508
0.074438356 0.038630083 0.35200003 4279188762
0.075366922 0.038520336 0.35100001 4279188762
0.076289006 0.038410597 0.35000002 4278925336
0.077204593 0.038300849 0.34900001 4279188508
0.078113675 0.038191106 0.34800002 4279320348
0.079243988 0.038191106 0.34800002 4279187992
0.080143325 0.038081359 0.347 4279319064
0.081270382 0.038081359 0.347 4279646746
0.082159981 0.037971616 0.34600002 4278856463
0.083283797 0.037971616 0.34600002 4279711774
0.084163651 0.037861872 0.34500003 4279318810
0.085284211 0.037861872 0.34500003 4279516189
0.086154319 0.037752125 0.34400001 4279253271
0.087271631 0.037752125 0.34400001 4279186965
0.088132001 0.037642382 0.34300002 4279384344
0.088985875 0.037532635 0.34200001 4279253271
0.089833252 0.037422892 0.34100002 4279450650
0.090940826 0.037422892 0.34100002 4279319064
0.092048392 0.037422892 0.34100002 4279385371
0.092882767 0.037313148 0.34 4279319578
0.093987085 0.037313148 0.34 4279254555
0.09509141 0.037313148 0.34 4279057176
0.096195728 0.037313148 0.34 4279057176
0.097300053 0.037313148 0.34 4279057174
0.098404378 0.037313148 0.34 4279057174
0.099216014 0.037203405 0.33900002 4279122197
0.10031709 0.037203405 0.33900002 4279056404
0.10081983 0.036983915 0.33700001 4279056404
0.10191441 0.036983915 0.33700001 4279319576
0.10270333 0.036874171 0.33600003 4278990611
0.10379466 0.036874171 0.33600003 4278596625
0.10488598 0.036874171 0.33600003 4278728211
0.1059773 0.036874171 0.33600003 4278596625
0.10706864 0.036874171 0.33600003 4278595855
0.10815997 0.036874171 0.33600003 4279056404
0.10925129 0.036874171 0.33600003 4279122195
0.11099943 0.037093662 0.33800003 4279057172
0.11209726 0.037093662 0.33800003 4279188758
0.11352996 0.037203405 0.33900002 4279648541
0.11463103 0.037203405 0.33900002 4279187990
0.11573211 0.037203405 0.33900002 4278990609
0.11717782 0.037313148 0.34 4278595851
0.11793426 0.037203405 0.33900002 4278990611
0.11903533 0.037203405 0.33900002 4278924818
0.1201364 0.037203405 0.33900002 4278661646
0.12123747 0.037203405 0.33900002 4278990611
0.12197766 0.037093662 0.33800003 4278859025
0.12307549 0.037093662 0.33800003 4279056404
0.12417332 0.037093662 0.33800003 4279056404
0.12527114 0.037093662 0.33800003 4279385367
0.1259951 0.036983915 0.33700001 4279450646
0.12708966 0.036983915 0.33700001 4279516439
0.12818424 0.036983915 0.33700001 4279253269
0.12927882 0.036983915 0.33700001 4279976481
0.13037339 0.036983915 0.33700001 4279909405
0.1318581 0.037093662 0.33800003 4280434979
0.13334927 0.037203405 0.33900002 4280039453
0.13445035 0.037203405 0.33900002 4281222444
0.062271263 0.040790711 0.36100003 4284445799
0.063092306 0.040564723 0.35900003 4283855199
0.064258337 0.040564723 0.35900003 4279909664
0.065424368 0.040564723 0.35900003 4279647775
0.066404909 0.040451728 0.35800001 4279451934
0.067567699 0.040451728 0.35800001 4279254555
0.068730474 0.040451728 0.35800001 4279320348
0.069698036 0.040338736 0.35700002 4279912485
0.070659086 0.040225741 0.35600001 4279912231
0.071815372 0.040225741 0.35600001 4279649059
0.072766684 0.040112749 0.35500002 4279254301
0.073503278 0.039886761 0.35300002 4279320094
0.074438356 0.03977377 0.35200003 4279254555
0.075366922 0.039660774 0.35100001 4279254555
0.076289006 0.039547779 0.35000002 4279320348
0.077204593 0.039434783 0.34900001 4279187992
0.078338139 0.039434783 0.34900001 4279187992
0.079243988 0.039321791 0.34800002 4279187992
0.080374293 0.039321791 0.34800002 4279317527
0.081270382 0.039208796 0.347 4278394630
0.082397439 0.039208796 0.347 4278262792
0.083283797 0.039095804 0.34600002 4279382809
0.084407598 0.039095804 0.34600002 4279253019
0.085531406 0.039095804 0.34600002 4278197766
0.086404771 0.038982812 0.34500003 4278590474
0.087271631 0.038869817 0.34400001 4278524681
0.088388942 0.038869817 0.34400001 4278195200
0.089246072 0.038756825 0.34300002 4278787851
0.090360135 0.038756825 0.34300002 4278328837
0.091207512 0.03864383 0.34200001 4279447832
0.092318326 0.03864383 0.34200001 4279317527
0.093429133 0.03864383 0.34200001 4279514906
0.094539955 0.03864383 0.34200001 4279252504
0.09565077 0.03864383 0.34200001 4279515676
0.096478663 0.038530838 0.34100002 4279187992
0.097586237 0.038530838 0.34100002 4279122199
0.098693803 0.038530838 0.34100002 4279319062
0.099801362 0.038530838 0.34100002 4279450648
0.10061301 0.038417842 0.34 4279516441
0.10141817 0.03830485 0.33900002 4279253269
0.10251924 0.03830485 0.33900002 4279187990
0.10331465 0.038191859 0.33800003 4279187990
0.10441248 0.038191859 0.33800003 4279122199
0.10519814 0.038078863 0.33700001 4279122199
0.10629271 0.038078863 0.33700001 4279319578
0.10738729 0.038078863 0.33700001 4279516441
0.10880377 0.038191859 0.33800003 4279121683
0.1099016 0.038191859 0.33800003 4279450648
0.11132782 0.03830485 0.33900002 4278990097
0.1124289 0.03830485 0.33900002 4278792205
0.11352996 0.03830485 0.33900002 4279055377
0.11496918 0.038417842 0.34 4279187476
0.1160735 0.038417842 0.34 4279121683
0.11717782 0.038417842 0.34 4279122197
0.11828214 0.038417842 0.34 4279319578
0.11938646 0.038417842 0.34 4279122199
0.1201364 0.03830485 0.33900002 4279122197
0.12123747 0.03830485 0.33900002 4278990611
0.12233854 0.03830485 0.33900002 4278990611
0.12343962 0.03830485 0.33900002 4278859025
0.12454069 0.03830485 0.33900002 4278859025
0.12564176 0.03830485 0.33900002 4279056402
0.12636897 0.038191859 0.33800003 4279056402
0.1274668 0.038191859 0.33800003 4278924816
0.12856461 0.038191859 0.33800003 4278924818
0.13004605 0.03830485 0.33900002 4279122197
0.13114713 0.03830485 0.33900002 4279319064
0.13224821 0.03830485 0.33900002 4279450650
0.13374263 0.038417842 0.34 4279384342
0.13484696 0.038417842 0.34 4279713305
0.13675098 0.03864383 0.34200001 4279975194
0.1378618 0.03864383 0.34200001 4280172573
0.13937898 0.038756825 0.34300002 4280434979
0.062271263 0.041963637 0.36100003 4284380006
0.063268043 0.041847393 0.36000001 4284051811
0.06443733 0.041847393 0.36000001 4279908129
0.065424368 0.041731153 0.35900003 4280172836
0.066590399 0.041731153 0.35900003 4279780129
0.067756437 0.041731153 0.35900003 4279649313
0.068730474 0.041614905 0.35800001 4279715106
0.069698036 0.041498665 0.35700002 4279978278
0.07085757 0.041498665 0.35700002 4279714852
0.071815372 0.041382421 0.35600001 4279517473
0.072766684 0.041266181 0.35500002 4279254555
0.0737115 0.041149933 0.354 4279451934
0.074649826 0.041033693 0.35300002 4279320348
0.075366922 0.040801208 0.35100001 4279057176
0.076506972 0.040801208 0.35100001 4279188762
0.077425815 0.040684965 0.35000002 4279385371
0.078338139 0.040568721 0.34900001 4279516443
0.079471692 0.040568721 0.34900001 4279450650
0.080374293 0.04045248 0.34800002 4279448602
0.081504591 0.04045248 0.34800002 4278525451
0.082634896 0.04045248 0.34800002 4279711520
0.083524495 0.040336236 0.347 4279449115
0.084651552 0.040336236 0.347 4279316762
0.085531406 0.040219992 0.34600002 4278655752
0.086655214 0.040219992 0.34600002 4279312402
0.08752533 0.040103752 0.34500003 4278983437
0.08864589 0.040103752 0.34500003 4278917131
0.089506261 0.039987508 0.34400001 4279048717
0.090623572 0.039987508 0.34400001 4278982924
0.091740884 0.039987508 0.34400001 4279048717
0.092588268 0.039871268 0.34300002 4278983437
0.093702324 0.039871268 0.34300002 4278720777
0.094816387 0.039871268 0.34300002 4278983949
0.095930457 0.039871268 0.34300002 4278654984
0.09704452 0.039871268 0.34300002 4278328072
0.09815859 0.039871268 0.34300002 4278657035
0.099272653 0.039871268 0.34300002 4279118353
0.10009404 0.03975502 0.34200001 4279250451
0.10120485 0.03975502 0.34200001 4279514647
0.1020165 0.03963878 0.34100002 4279515160
0.10312407 0.03963878 0.34100002 4279318551
0.10392597 0.039522536 0.34 4279252756
0.1050303 0.039522536 0.34 4279252756
0.10613462 0.039522536 0.34 4279384342
0.10692353 0.039406296 0.33900002 4279384340
0.1080246 0.039406296 0.33900002 4279581719
0.10912567 0.039406296 0.33900002 4279383572
0.11022675 0.039406296 0.33900002 4279515158
0.11165622 0.039522536 0.34 4279383572
0.11276054 0.039522536 0.34 4279515158
0.11386485 0.039522536 0.34 4279515928
0.11496918 0.039522536 0.34 4279252756
0.1160735 0.039522536 0.34 4279319062
0.11717782 0.039522536 0.34 4279253269
0.11828214 0.039522536 0.34 4279253271
0.11938646 0.039522536 0.34 4279121685
0.12049079 0.039522536 0.34 4278990097
0.1215951 0.039522536 0.34 4278858511
0.12269942 0.039522536 0.34 4279055892
0.12380374 0.039522536 0.34 4279516443
0.12490807 0.039522536 0.34 4279253271
0.12601238 0.039522536 0.34 4279319578
0.12711671 0.039522536 0.34 4279319578
0.12822104 0.039522536 0.34 4279319576
0.12932535 0.039522536 0.34 4278990611
0.13042967 0.039522536 0.34 4278990611
0.13192086 0.03963878 0.34100002 4278924818
0.13302843 0.03963878 0.34100002 4279055890
0.13413599 0.03963878 0.34100002 4279055888
0.13564017 0.03975502 0.34200001 4279055888
0.13715084 0.039871268 0.34300002 4278990095
0.13826491 0.039871268 0.34300002 4279055888
0.13978532 0.039987508 0.34400001 4279186963
0.14131224 0.040103752 0.34500003 4279713305
0.14243281 0.040103752 0.34500003 4280370469
0.062271263 0.043136563 0.36100003 4284511594
0.063268043 0.043017067 0.36000001 4284248420
0.06443733 0.043017067 0.36000001 4283920738
0.065424368 0.042897578 0.35900003 4281026098
0.066590399 0.042897578 0.35900003 4279976994
0.067756437 0.042897578 0.35900003 4279386141
0.068730474 0.042778086 0.35800001 4279846692
0.069698036 0.042658594 0.35700002 4279846692
0.070659086 0.042539101 0.35600001 4279846692
0.071815372 0.042539101 0.35600001 4279451680
0.072766684 0.042419609 0.35500002 4279320348
0.0737115 0.042300116 0.354 4279320348
0.074649826 0.042180628 0.35300002 4279320348
0.075581647 0.042061135 0.35200003 4279386141
0.076506972 0.041941643 0.35100001 4279320348
0.077425815 0.04182215 0.35000002 4279188762
0.078338139 0.041702658 0.34900001 4279188762
0.079471692 0.041702658 0.34900001 4279253271
0.080605246 0.041702658 0.34900001 4279052560
0.081504591 0.041583166 0.34800002 4279446553
0.082634896 0.041583166 0.34800002 4279515678
0.083765201 0.041583166 0.34800002 4279318299
0.084651552 0.041463673 0.347 4278590474
0.085778609 0.041463673 0.347 4278654986
0.086905658 0.041463673 0.347 4279641879
0.087779023 0.041344184 0.34600002 4280497188
0.088902831 0.041344184 0.34600002 4279115535
0.090026647 0.041344184 0.34600002 4279773465
0.090887018 0.041224692 0.34500003 4279641879
0.092007577 0.041224692 0.34500003 4279707672
0.093128145 0.041224692 0.34500003 4280168221
0.094248697 0.041224692 0.34500003 4279576084
0.095369257 0.041224692 0.34500003 4279115021
0.096489817 0.041224692 0.34500003 4279443986
0.097610384 0.041224692 0.34500003 4279115023
0.098730944 0.041224692 0.34500003 4279179533
0.099562079 0.0411052 0.34400001 4279246609
0.10067938 0.0411052 0.34400001 4279644184
0.10179669 0.0411052 0.34400001 4279711772
0.10261484 0.040985707 0.34300002 4279777565
0.10372891 0.040985707 0.34300002 4279119635
0.10453731 0.040866215 0.34200001 4278789900
0.10564812 0.040866215 0.34200001 4278197506
0.10675894 0.040866215 0.34200001 4278197763
0.10755435 0.040746726 0.34100002 4279053072
0.10866191 0.040746726 0.34100002 4279184658
0.10976949 0.040746726 0.34100002 4279974174
0.11087705 0.040746726 0.34100002 4279711002
0.11198463 0.040746726 0.34100002 4279712026
0.1130922 0.040746726 0.34100002 4279712026
0.11419976 0.040746726 0.34100002 4279449367
0.11530732 0.040746726 0.34100002 4279515930
0.1164149 0.040746726 0.34100002 4279253269
0.11752246 0.040746726 0.34100002 4279253269
0.11863004 0.040746726 0.34100002 4279318551
0.1197376 0.040746726 0.34100002 4279252758
0.12084518 0.040746726 0.34100002 4279318549
0.12195273 0.040746726 0.34100002 4279186963
0.12306031 0.040746726 0.34100002 4279515928
0.12416787 0.040746726 0.34100002 4279976479
0.12527545 0.040746726 0.34100002 4279253269
0.12638302 0.040746726 0.34100002 4279121683
0.12749058 0.040746726 0.34100002 4279121683
0.12897527 0.040866215 0.34200001 4278858511
0.13008608 0.040866215 0.34200001 4279187476
0.1311969 0.040866215 0.34200001 4279187990
0.13230772 0.040866215 0.34200001 4279451162
0.13341853 0.040866215 0.34200001 4279516955
0.13492273 0.040985707 0.34300002 4279582234
0.13603678 0.040985707 0.34300002 4279516441
0.1375507 0.0411052 0.34400001 4279253269
0.13866802 0.0411052 0.34400001 4279121683
0.14019169 0.041224692 0.34500003 4278923791
0.14131224 0.041224692 0.34500003 4279121170
0.14284565 0.041344184 0.34600002 4279055377
0.062271263 0.044309489 0.36100003 4284380006
0.063268043 0.044186745 0.36000001 4284248420
0.06443733 0.044186745 0.36000001 4283986018
0.065424368 0.044064008 0.35900003 4283920225
0.066590399 0.044064008 0.35900003 4281552956
0.067567699 0.043941263 0.35800001 4280172584
0.068730474 0.043941263 0.35800001 4280306219
0.069502793 0.043695781 0.35600001 4280108840
0.07046061 0.043573041 0.35500002 4279845922
0.071613647 0.043573041 0.35500002 4279648543
0.072561711 0.0434503 0.354 4279451934
0.073503278 0.043327559 0.35300002 4279451934
0.074438356 0.043204818 0.35200003 4279254555
0.075366922 0.043082077 0.35100001 4279386141
0.076506972 0.043082077 0.35100001 4279320348
0.077425815 0.042959336 0.35000002 4279319578
0.07856261 0.042959336 0.35000002 4279319578
0.079471692 0.042836595 0.34900001 4279252504
0.080605246 0.042836595 0.34900001 4278722828
0.0817388 0.042836595 0.34900001 4279709723
0.082872353 0.042836595 0.34900001 4279581217
0.083765201 0.042713854 0.34800002 4279185689
0.084895507 0.042713854 0.34800002 4278983437
0.086025812 0.042713854 0.34800002 4278983183
0.086905658 0.04259111 0.347 4278917644
0.088032715 0.04259111 0.347 4279115023
0.089159779 0.04259111 0.347 4279443986
0.090286836 0.04259111 0.347 4279904537
0.091150455 0.042468373 0.34600002 4279115019
0.092274264 0.042468373 0.34600002 4279575572
0.093398072 0.042468373 0.34600002 4279182098
0.094521873 0.042468373 0.34600002 4278853133
0.095645688 0.042468373 0.34600002 4278655754
0.096769497 0.042468373 0.34600002 4279774235
0.097893305 0.042468373 0.34600002 4279905819
0.099017113 0.042468373 0.34600002 4279246605
0.10014093 0.042468373 0.34600002 4279379477
0.10126472 0.042468373 0.34600002 4279842590
0.10209262 0.042345632 0.34500003 4279712026
0.10321318 0.042345632 0.34500003 4279514647
0.10433374 0.042345632 0.34500003 4279053072
0.10514864 0.042222891 0.34400001 4279184146
0.10626595 0.042222891 0.34400001 4279579418
0.10738327 0.042222891 0.34400001 4279777565
0.10818516 0.04210015 0.34300002 4279711772
0.10929923 0.04210015 0.34300002 4279908381
0.1104133 0.04210015 0.34300002 4279711002
0.11152736 0.04210015 0.34300002 4279710488
0.11264143 0.04210015 0.34300002 4279513111
0.11375549 0.04210015 0.34300002 4278855181
0.11486955 0.04210015 0.34300002 4278855181
0.11564547 0.041977406 0.34200001 4278789386
0.11675628 0.041977406 0.34200001 4278723593
0.1178671 0.041977406 0.34200001 4279315730
0.11897792 0.041977406 0.34200001 4279644695
0.12008874 0.041977406 0.34200001 4279644949
0.12119956 0.041977406 0.34200001 4279645461
0.12231036 0.041977406 0.34200001 4279712024
0.12342118 0.041977406 0.34200001 4279514645
0.124532 0.041977406 0.34200001 4279383572
0.12564282 0.041977406 0.34200001 4279317779
0.12712426 0.04210015 0.34300002 4279383572
0.12823834 0.04210015 0.34300002 4279449365
0.12935241 0.04210015 0.34300002 4279515928
0.13046646 0.04210015 0.34300002 4279384340
0.13158052 0.04210015 0.34300002 4279186961
0.13308145 0.042222891 0.34400001 4279252756
0.13419876 0.042222891 0.34400001 4279252756
0.13531607 0.042222891 0.34400001 4279055377
0.13683 0.042345632 0.34500003 4278857998
0.13795055 0.042345632 0.34500003 4279121170
0.13947421 0.042468373 0.34600002 4279581721
0.14059803 0.042468373 0.34600002 4279648027
0.14172184 0.042468373 0.34600002 4279319062
0.1432585 0.04259111 0.347 4278858511
0.14438555 0.04259111 0.347 4278990097
0.063268043 0.045356423 0.36000001 4284380006
0.064258337 0.045230437 0.35900003 4283986018
0.065424368 0.045230437 0.35900003 4283920225
0.066590399 0.045230437 0.35900003 4283854432
0.067567699 0.045104444 0.35800001 4284052324
0.068538494 0.044978455 0.35700002 4283658332
0.069112331 0.044600483 0.354 4280435245
0.070262127 0.044600483 0.354 4280435756
0.071411915 0.044600483 0.354 4279843873
0.072356731 0.044474494 0.35300002 4280042535
0.073295057 0.044348504 0.35200003 4279648291
0.074438356 0.044348504 0.35200003 4279582498
0.075366922 0.044222515 0.35100001 4279648289
0.076506972 0.044222515 0.35100001 4279582750
0.077425815 0.044096526 0.35000002 4279516957
0.07856261 0.044096526 0.35000002 4279253271
0.079471692 0.043970533 0.34900001 4278725390
0.080605246 0.043970533 0.34900001 4279908129
0.0817388 0.043970533 0.34900001 4279579164
0.082872353 0.043970533 0.34900001 4279647010
0.084005907 0.043970533 0.34900001 4279647523
0.084895507 0.043844543 0.34800002 4279973922
0.086025812 0.043844543 0.34800002 4279117586
0.08715611 0.043844543 0.34800002 4278654984
0.088286422 0.043844543 0.34800002 4278654984
0.089416727 0.043844543 0.34800002 4279115021
0.090286836 0.04371855 0.347 4279246094
0.091413893 0.04371855 0.347 4279180303
0.09254095 0.04371855 0.347 4279180303
0.093668006 0.04371855 0.347 4279179533
0.094795056 0.04371855 0.347 4279048717
0.095922112 0.04371855 0.347 4278983951
0.097049169 0.04371855 0.347 4278655754
0.098176233 0.04371855 0.347 4279247121
0.09930329 0.04371855 0.347 4279180814
0.10043035 0.04371855 0.347 4280301860
0.1015574 0.04371855 0.347 4279712285
0.10268445 0.04371855 0.347 4279053072
0.10351235 0.043592565 0.34600002 4278394117
0.10463616 0.043592565 0.34600002 4279049744
0.10575996 0.043592565 0.34600002 4279049744
0.10688378 0.043592565 0.34600002 4279248402
0.10769543 0.043466575 0.34500003 4279183379
0.10881598 0.043466575 0.34500003 4279579416
0.10993654 0.043466575 0.34500003 4279447830
0.1110571 0.043466575 0.34500003 4278789900
0.11185251 0.043340582 0.34400001 4279908381
0.11296982 0.043340582 0.34400001 4279513623
0.11408714 0.043340582 0.34400001 4279578902
0.11520445 0.043340582 0.34400001 4279974428
0.11632176 0.043340582 0.34400001 4279777819
0.11709768 0.043214593 0.34300002 4279711256
0.11821175 0.043214593 0.34300002 4279711256
0.11932582 0.043214593 0.34300002 4280565797
0.12043988 0.043214593 0.34300002 4279776281
0.12155395 0.043214593 0.34300002 4279578902
0.12266801 0.043214593 0.34300002 4279118605
0.12378207 0.043214593 0.34300002 4278657800
0.12489614 0.043214593 0.34300002 4278394628
0.12637757 0.043340582 0.34400001 4278723593
0.12749489 0.043340582 0.34400001 4278526728
0.12861221 0.043340582 0.34400001 4278987279
0.12972951 0.043340582 0.34400001 4279645209
0.1312272 0.043466575 0.34500003 4279513877
0.13234776 0.043466575 0.34500003 4279711256
0.13346832 0.043466575 0.34500003 4279448852
0.13458888 0.043466575 0.34500003 4279514645
0.13570945 0.043466575 0.34500003 4279514645
0.13722661 0.043592565 0.34600002 4279777817
0.13835041 0.043592565 0.34600002 4279514645
0.13987732 0.04371855 0.347 4279448852
0.14100438 0.04371855 0.347 4279449365
0.14213143 0.04371855 0.347 4279121170
0.1432585 0.04371855 0.347 4279384342
0.14480166 0.043844543 0.34800002 4279054607
0.063784197 0.045233708 0.35000002 4283919455
0.064920999 0.045233708 0.35000002 4283986018
0.066057809 0.045233708 0.35000002 4284249190
0.067194603 0.045233708 0.35000002 4284446569
0.068721868 0.045492187 0.35200003 4284315496
0.069865167 0.045492187 0.35200003 4284644461
0.071008459 0.045492187 0.35200003 4285039733
0.072151758 0.045492187 0.35200003 4285040503
0.073086828 0.045362946 0.35100001 4284382827
0.074226879 0.045362946 0.35100001 4283066965
0.075152203 0.045233708 0.35000002 4281685312
0.076289006 0.045233708 0.35000002 4280303659
0.077425815 0.045233708 0.35000002 4279383070
0.07856261 0.045233708 0.35000002 4279646240
0.079699412 0.045233708 0.35000002 4279777826
0.080605246 0.045104466 0.34900001 4280237864
0.0817388 0.045104466 0.34900001 4280172325
0.082872353 0.045104466 0.34900001 4279909666
0.084005907 0.045104466 0.34900001 4279647264
0.085139453 0.045104466 0.34900001 4279713570
0.086025812 0.044975229 0.34800002 4279713570
0.08715611 0.044975229 0.34800002 4279778850
0.088286422 0.044975229 0.34800002 4279843873
0.089416727 0.044975229 0.34800002 4279974946
0.090547033 0.044975229 0.34800002 4279974176
0.091677338 0.044975229 0.34800002 4279973662
0.092807643 0.044975229 0.34800002 4280367653
0.093937948 0.044975229 0.34800002 4279971612
0.095068246 0.044975229 0.34800002 4279116305
0.096198551 0.044975229 0.34800002 4278458375
0.097328857 0.044975229 0.34800002 4278721547
0.098459162 0.044975229 0.34800002 4278917644
0.099589467 0.044975229 0.34800002 4279312914
0.10071978 0.044975229 0.34800002 4279908129
0.10185007 0.044975229 0.34800002 4279711774
0.10298038 0.044975229 0.34800002 4279775770
0.10411069 0.044975229 0.34800002 4279116305
0.10493857 0.044845987 0.347 4279312402
0.10606562 0.044845987 0.347 4279378193
0.10719269 0.044845987 0.347 4279775516
0.10831974 0.044845987 0.347 4278986254
0.10913139 0.044716749 0.34600002 4279644695
0.1102552 0.044716749 0.34600002 4279447830
0.11137901 0.044716749 0.34600002 4279118865
0.11250281 0.044716749 0.34600002 4278197506
0.11329823 0.044587512 0.34500003 4279711002
0.11441879 0.044587512 0.34500003 4280039967
0.11553934 0.044587512 0.34500003 4279184146
0.11665991 0.044587512 0.34500003 4279579418
0.11743907 0.04445827 0.34400001 4279382039
0.11855639 0.04445827 0.34400001 4279578904
0.11932582 0.044329032 0.34300002 4279578902
0.12079101 0.04445827 0.34400001 4279907354
0.12190833 0.04445827 0.34400001 4279710742
0.12302563 0.04445827 0.34400001 4279842328
0.12414294 0.04445827 0.34400001 4279645463
0.12562439 0.044587512 0.34500003 4279645209
0.12674496 0.044587512 0.34500003 4279513623
0.12786552 0.044587512 0.34500003 4279711256
0.12935995 0.044716749 0.34600002 4279578902
0.13048376 0.044716749 0.34600002 4280039453
0.13160756 0.044716749 0.34600002 4280302627
0.13273136 0.044716749 0.34600002 4279644697
0.13385518 0.044716749 0.34600002 4278656517
0.13497899 0.044716749 0.34600002 4280039194
0.13649616 0.044845987 0.347 4279645463
0.13762322 0.044845987 0.347 4279974428
0.13875026 0.044845987 0.347 4279842842
0.14028043 0.044975229 0.34800002 4279908635
0.14141074 0.044975229 0.34800002 4279580438
0.14254104 0.044975229 0.34800002 4279580438
0.14367135 0.044975229 0.34800002 4279580440
0.14480166 0.044975229 0.34800002 4279711772
0.06246841 0.046238404 0.34900001 4284051043
0.063601956 0.046238404 0.34900001 4283919457
0.064735509 0.046238404 0.34900001 4283985250
0.065869063 0.046238404 0.34900001 4284380778
0.067194603 0.046370897 0.35000002 4284446571
0.068526633 0.046503384 0.35100001 4284512364
0.069666684 0.046503384 0.35100001 4284512364
0.070806727 0.046503384 0.35100001 4284512364
0.071946777 0.046503384 0.35100001 4284776049
0.072878607 0.046370897 0.35000002 4284512877
0.074015409 0.046370897 0.35000002 4284512875
0.075152203 0.046370897 0.35000002 4284710254
0.076289006 0.046370897 0.35000002 4284776047
0.077425815 0.046370897 0.35000002 4284512875
0.07856261 0.046370897 0.35000002 4284644975
0.079699412 0.046370897 0.35000002 4284711538
0.080605246 0.046238404 0.34900001 4285303929
0.0817388 0.046238404 0.34900001 4285171569
0.082872353 0.046238404 0.34900001 4284447334
0.084005907 0.046238404 0.34900001 4282342474
0.085139453 0.046238404 0.34900001 4280368680
0.086273007 0.046238404 0.34900001 4279382807
0.08715611 0.046105918 0.34800002 4279448600
0.088286422 0.046105918 0.34800002 4279646494
0.089416727 0.046105918 0.34800002 4280107043
0.090547033 0.046105918 0.34800002 4279975457
0.091677338 0.046105918 0.34800002 4279843871
0.092807643 0.046105918 0.34800002 4280107297
0.093937948 0.046105918 0.34800002 4279909918
0.095068246 0.046105918 0.34800002 4279844125
0.096198551 0.046105918 0.34800002 4279844125
0.097328857 0.046105918 0.34800002 4279975198
0.098459162 0.046105918 0.34800002 4279909151
0.099589467 0.046105918 0.34800002 4279909151
0.10071978 0.046105918 0.34800002 4279579418
0.10185007 0.046105918 0.34800002 4280303141
0.10298038 0.046105918 0.34800002 4279184660
0.10411069 0.046105918 0.34800002 4278855181
0.10524099 0.046105918 0.34800002 4279379988
0.1063713 0.046105918 0.34800002 4278524679
0.1075016 0.046105918 0.34800002 4278985484
0.10831974 0.045973428 0.347 4279709207
0.10944679 0.045973428 0.347 4279709975
0.11057385 0.045973428 0.347 4280105246
0.11170091 0.045973428 0.347 4279842588
0.11250281 0.045840941 0.34600002 4279908381
0.11362663 0.045840941 0.34600002 4279184660
0.11475044 0.045840941 0.34600002 4278921488
0.11587424 0.045840941 0.34600002 4279908381
0.11699805 0.045840941 0.34600002 4279842074
0.11778047 0.045708455 0.34500003 4279314449
0.11890103 0.045708455 0.34500003 4279511828
0.1196737 0.045575965 0.34400001 4279313934
0.12114216 0.045708455 0.34500003 4279840278
0.12226272 0.045708455 0.34500003 4279315219
0.12338327 0.045708455 0.34500003 4279776283
0.1248647 0.045840941 0.34600002 4279249939
0.12598851 0.045840941 0.34600002 4280104735
0.12711233 0.045840941 0.34600002 4279052560
0.12823614 0.045840941 0.34600002 4279578391
0.12973382 0.045973428 0.347 4279645209
0.13086088 0.045973428 0.347 4279580188
0.13198793 0.045973428 0.347 4279711772
0.13311498 0.045973428 0.347 4279183633
0.13424204 0.045973428 0.347 4280038170
0.13536909 0.045973428 0.347 4279973914
0.13688952 0.046105918 0.34800002 4279514647
0.13801983 0.046105918 0.34800002 4279712026
0.13915013 0.046105918 0.34800002 4279843610
0.14028043 0.046105918 0.34800002 4279843610
0.14181708 0.046238404 0.34900001 4279580438
0.14295064 0.046238404 0.34900001 4279580438
0.14408419 0.046238404 0.34900001 4279777565
0.063601956 0.047372341 0.34900001 4283326807
0.064735509 0.047372341 0.34900001 4284445550
0.065869063 0.047372341 0.34900001 4284642927
0.067002617 0.047372341 0.34900001 4284314985
0.068331406 0.04750808 0.35000002 4284840559
0.069468208 0.04750808 0.35000002 4284972145
0.070605002 0.04750808 0.35000002 4285037938
0.071741804 0.04750808 0.35000002 4285169524
0.072670378 0.047372341 0.34900001 4284972145
0.073803931 0.047372341 0.34900001 4284972915
0.074937485 0.047372341 0.34900001 4284972915
0.076071039 0.047372341 0.34900001 4285038708
0.077204593 0.047372341 0.34900001 4285170294
0.078338139 0.047372341 0.34900001 4284972913
0.079471692 0.047372341 0.34900001 4284907120
0.080605246 0.047372341 0.34900001 4284973167
0.0817388 0.047372341 0.34900001 4284973167
0.082872353 0.047372341 0.34900001 4285038960
0.084005907 0.047372341 0.34900001 4284972913
0.085139453 0.047372341 0.34900001 4285038706
0.086273007 0.047372341 0.34900001 4285038960
0.087406561 0.047372341 0.34900001 4285433718
0.088286422 0.047236603 0.34800002 4285433718
0.089416727 0.047236603 0.34800002 4285434231
0.090547033 0.047236603 0.34800002 4284842608
0.091677338 0.047236603 0.34800002 4283658334
0.092807643 0.047236603 0.34800002 4281881407
0.093937948 0.047236603 0.34800002 4280104481
0.095068246 0.047236603 0.34800002 4279776029
0.096474983 0.047372341 0.34900001 4279710750
0.097608536 0.047372341 0.34900001 4279908383
0.09874209 0.047372341 0.34900001 4280171555
0.099875644 0.047372341 0.34900001 4279974944
0.1010092 0.047372341 0.34900001 4279975457
0.10214274 0.047372341 0.34900001 4279909664
0.1032763 0.047372341 0.34900001 4279712285
0.10440985 0.047372341 0.34900001 4279843871
0.1055434 0.047372341 0.34900001 4279909664
0.1063713 0.047236603 0.34800002 4279777565
0.1075016 0.047236603 0.34800002 4280039967
0.10863191 0.047236603 0.34800002 4280105760
0.10976221 0.047236603 0.34800002 4280171553
0.11057385 0.047100864 0.347 4280302625
0.11170091 0.047100864 0.347 4279381523
0.11282796 0.047100864 0.347 4279117838
0.11395502 0.047100864 0.347 4278657287
0.11508209 0.047100864 0.347 4278920461
0.11620913 0.047100864 0.347 4278853898
0.11699805 0.04696513 0.34600002 4279446035
0.11812185 0.04696513 0.34600002 4280235551
0.11924567 0.04696513 0.34600002 4280169758
0.12071736 0.047100864 0.347 4279907354
0.12149329 0.04696513 0.34600002 4280104733
0.1226171 0.04696513 0.34600002 4279775768
0.1237409 0.04696513 0.34600002 4279644184
0.1248647 0.04696513 0.34600002 4279841561
0.12635264 0.047100864 0.347 4279907354
0.1274797 0.047100864 0.347 4279709205
0.12860675 0.047100864 0.347 4279182350
0.12973382 0.047100864 0.347 4279579418
0.13086088 0.047100864 0.347 4279514395
0.1323683 0.047236603 0.34800002 4279644182
0.13349861 0.047236603 0.34800002 4279840793
0.13462891 0.047236603 0.34800002 4279645209
0.13575922 0.047236603 0.34800002 4279514393
0.13688952 0.047236603 0.34800002 4279580440
0.13841644 0.047372341 0.34900001 4279580440
0.13954997 0.047372341 0.34900001 4279646746
0.14068353 0.047372341 0.34900001 4279778330
0.14181708 0.047372341 0.34900001 4279777817
0.14295064 0.047372341 0.34900001 4279974426
0.14408419 0.047372341 0.34900001 4280303391
0.063601956 0.048506279 0.34900001 4283986018
0.064735509 0.048506279 0.34900001 4284445801
0.065869063 0.048506279 0.34900001 4284642927
0.067002617 0.048506279 0.34900001 4284643180
0.068331406 0.048645265 0.35000002 4284840559
0.069468208 0.048645265 0.35000002 4284972145
0.070605002 0.048645265 0.35000002 4284972145
0.071741804 0.048645265 0.35000002 4285103731
0.072670378 0.048506279 0.34900001 4285169524
0.073803931 0.048506279 0.34900001 4285301110
0.074937485 0.048506279 0.34900001 4285366903
0.076071039 0.048506279 0.34900001 4285301880
0.077204593 0.048506279 0.34900001 4285236087
0.078338139 0.048506279 0.34900001 4285170292
0.079471692 0.048506279 0.34900001 4285236085
0.080605246 0.048506279 0.34900001 4285170292
0.0817388 0.048506279 0.34900001 4285301878
0.082872353 0.048506279 0.34900001 4285367671
0.084005907 0.048506279 0.34900001 4285301878
0.085139453 0.048506279 0.34900001 4285236085
0.086273007 0.048506279 0.34900001 4285170292
0.087406561 0.048506279 0.34900001 4285038706
0.088540114 0.048506279 0.34900001 4285236085
0.089673668 0.048506279 0.34900001 4285170292
0.090807222 0.048506279 0.34900001 4285236085
0.091940776 0.048506279 0.34900001 4285170292
0.093074329 0.048506279 0.34900001 4285038706
0.094207883 0.048506279 0.34900001 4285366901
0.095341429 0.048506279 0.34900001 4285301108
0.096474983 0.048506279 0.34900001 4285367671
0.097608536 0.048506279 0.34900001 4285894015
0.09874209 0.048506279 0.34900001 4285434745
0.099875644 0.048506279 0.34900001 4284514159
0.1010092 0.048506279 0.34900001 4283330135
0.10214274 0.048506279 0.34900001 4280961071
0.1032763 0.048506279 0.34900001 4280172325
0.10440985 0.048506279 0.34900001 4279448348
0.1055434 0.048506279 0.34900001 4279119383
0.10667696 0.048506279 0.34900001 4279909151
0.1075016 0.048367295 0.34800002 4279777819
0.10863191 0.048367295 0.34800002 4279909405
0.10976221 0.048367295 0.34800002 4279975198
0.11089251 0.048367295 0.34800002 4280040991
0.11170091 0.048228305 0.347 4279975198
0.11282796 0.048228305 0.347 4279712026
0.11395502 0.048228305 0.347 4279975198
0.11508209 0.048228305 0.347 4279909405
0.11620913 0.048228305 0.347 4280302879
0.11733619 0.048228305 0.347 4280302879
0.11812185 0.048089322 0.34600002 4280171293
0.11924567 0.048089322 0.34600002 4279842074
0.12071736 0.048228305 0.347 4280565797
0.12149329 0.048089322 0.34600002 4279381523
0.1226171 0.048089322 0.34600002 4279511828
0.12409852 0.048228305 0.347 4279380242
0.12522559 0.048228305 0.347 4278788105
0.12635264 0.048228305 0.347 4278853896
0.12784709 0.048367295 0.34800002 4280170526
0.12897739 0.048367295 0.34800002 4280038940
0.1301077 0.048367295 0.34800002 4279973660
0.131238 0.048367295 0.34800002 4280434211
0.1323683 0.048367295 0.34800002 4278853898
0.13349861 0.048367295 0.34800002 4280038940
0.13501577 0.048506279 0.34900001 4279908635
0.13614932 0.048506279 0.34900001 4279843612
0.13728288 0.048506279 0.34900001 4279712026
0.13841644 0.048506279 0.34900001 4279777819
0.13954997 0.048506279 0.34900001 4279646746
0.14108664 0.048645265 0.35000002 4279647516
0.14222345 0.048645265 0.35000002 4279975709
0.14295064 0.048506279 0.34900001 4280040989
0.1032763 0.049640216 0.34900001 4285038960
0.10440985 0.049640216 0.34900001 4285367925
0.1055434 0.049640216 0.34900001 4285498741
0.10667696 0.049640216 0.34900001 4285433718
0.10781051 0.049640216 0.34900001 4285565817
0.10863191 0.049497984 0.34800002 4285565815
0.10976221 0.049497984 0.34800002 4285169772
0.11089251 0.049497984 0.34800002 4284380256
0.11202282 0.049497984 0.34800002 4282867269
0.11315312 0.049497984 0.34800002 4281749558
0.11428343 0.049497984 0.34800002 4281091628
0.11541373 0.049497984 0.34800002 4280631079
0.11654403 0.049497984 0.34800002 4279775770
0.11767434 0.049497984 0.34800002 4279709977
0.11880464 0.049497984 0.34800002 4280038940
0.11993495 0.049497984 0.34800002 4280104987
0.12106526 0.049497984 0.34800002 4280433180
0.12149329 0.049213514 0.34600002 4280433180
0.12297148 0.049355745 0.347 4280367907
0.12409852 0.049355745 0.347 4280302625
0.12522559 0.049355745 0.347 4280171293
0.12671678 0.049497984 0.34800002 4280302366
0.12784709 0.049497984 0.34800002 4280565538
0.12897739 0.049497984 0.34800002 4280104733
0.1301077 0.049497984 0.34800002 4280170528
0.131238 0.049497984 0.34800002 4280301860
0.13274866 0.049640216 0.34900001 4280236321
0.13388221 0.049640216 0.34900001 4280105246
0.13501577 0.049640216 0.34900001 4279974428
0.13614932 0.049640216 0.34900001 4279843612
0.13767624 0.049782455 0.35000002 4279843610
0.13881305 0.049782455 0.35000002 4279580438
0.13994984 0.049782455 0.35000002 4279843610
0.14108664 0.049782455 0.35000002 4280040989
0.14222345 0.049782455 0.35000002 4280237084
0.12897739 0.05062867 0.34800002 4281617722
0.13048157 0.05077415 0.34900001 4280564001
0.13161512 0.05077415 0.34900001 4280761380
0.13274866 0.05077415 0.34900001 4280959272
0.13388221 0.05077415 0.34900001 4280630561
0.13540263 0.050919637 0.35000002 4280301596
0.13653944 0.050919637 0.35000002 4280039194
0.13767624 0.050919637 0.35000002 4280302879
0.13881305 0.050919637 0.35000002 4280566051
0.13994984 0.050919637 0.35000002 4280565538
0.14108664 0.050919637 0.35000002 4281353517
0.13274866 0.051908091 0.34900001 4285564019
0.13426584 0.052056827 0.35000002 4285629810
0.13540263 0.052056827 0.35000002 4285827189
0.13653944 0.052056827 0.35000002 4285629810
0.13767624 0.052056827 0.35000002 4285629810
0.13881305 0.052056827 0.35000002 4286023798
