# .PCD v0.7 - Point Cloud Data file format
VERSION 0.7
FIELDS x y z rgb
SIZE 4 4 4 4
TYPE F F F U
COUNT 1 1 1 1
WIDTH 1028
HEIGHT 1
VIEWPOINT 0 0 0 1 0 0 0
POINTS 1028
DATA ascii
0.011449198 -0.041774828 0.38700002 4286551679
0.012706175 -0.041774828 0.38700002 4286487431
0.013963151 -0.041774828 0.38700002 4286224261
0.015220128 -0.041774828 0.38700002 4285106550
0.016391952 -0.041558936 0.38500002 4283789152
0.017596608 -0.041450989 0.384 4282209609
0.018843841 -0.041450989 0.384 4282604365
0.020091072 -0.041450989 0.384 4283788639
0.021338305 -0.041450989 0.384 4285566331
0.022585537 -0.041450989 0.384 4286685582
0.09584865 -0.044797298 0.41500002 4286026628
0.097196564 -0.044797298 0.41500002 4285895042
0.011419613 -0.040412728 0.38600001 4281220397
0.012673343 -0.040412728 0.38600001 4281352245
0.013927069 -0.040412728 0.38600001 4281747773
0.015180798 -0.040412728 0.38600001 4282603082
0.016391952 -0.040308032 0.38500002 4283328088
0.017596608 -0.040203337 0.384 4284117606
0.018843841 -0.040203337 0.384 4283985767
0.020091072 -0.040203337 0.384 4286091658
0.021282736 -0.040098641 0.38300002 4286092423
0.022526722 -0.040098641 0.38300002 4282078283
0.023770707 -0.040098641 0.38300002 4282209609
0.025014691 -0.040098641 0.38300002 4285500286
0.026258677 -0.040098641 0.38300002 4286224779
0.089323759 -0.043553613 0.41600001 4286751121
0.090674929 -0.043553613 0.41600001 4286816914
0.0920261 -0.043553613 0.41600001 4286422410
0.09337727 -0.043553613 0.41600001 4285567101
0.09472844 -0.043553613 0.41600001 4284383340
0.09584865 -0.043448918 0.41500002 4282938207
0.097196564 -0.043448918 0.41500002 4281951825
0.098544493 -0.043448918 0.41500002 4281425220
0.099892415 -0.043448918 0.41500002 4281029692
0.10124033 -0.043448918 0.41500002 4281358657
0.10258825 -0.043448918 0.41500002 4280833083
0.0088890679 -0.039057128 0.38500002 4282536246
0.010139548 -0.039057128 0.38500002 4283984207
0.011419613 -0.039158575 0.38600001 4283853399
0.012673343 -0.039158575 0.38600001 4282143294
0.013927069 -0.039158575 0.38600001 4280236069
0.01514147 -0.039057128 0.38500002 4280038690
0.016391952 -0.039057128 0.38500002 4279906854
0.017596608 -0.038955681 0.384 4280630324
0.018843841 -0.038955681 0.384 4281221693
0.020038752 -0.038854234 0.38300002 4281550656
0.021282736 -0.038854234 0.38300002 4282076740
0.022526722 -0.038854234 0.38300002 4281024052
0.023708643 -0.038752791 0.38200003 4281419321
0.024949379 -0.038752791 0.38200003 4282143046
0.026190117 -0.038752791 0.38200003 4281354811
0.027430853 -0.038752791 0.38200003 4285763456
0.077570736 -0.041694753 0.41100001 4286488462
0.078905657 -0.041694753 0.41100001 4286686611
0.080240592 -0.041694753 0.41100001 4286028935
0.081774004 -0.0417962 0.41200003 4284448879
0.083112173 -0.0417962 0.41200003 4283002970
0.08465533 -0.041897647 0.41300002 4281623114
0.085996754 -0.041897647 0.41300002 4280702012
0.087549657 -0.041999094 0.41400003 4280636989
0.089109041 -0.042100541 0.41500002 4280702780
0.09045697 -0.042100541 0.41500002 4280703030
0.091804892 -0.042100541 0.41500002 4280176686
0.093152806 -0.042100541 0.41500002 4280637750
0.094500728 -0.042100541 0.41500002 4280441141
0.09584865 -0.042100541 0.41500002 4279851314
0.097196564 -0.042100541 0.41500002 4279785521
0.098544493 -0.042100541 0.41500002 4279917107
0.099892415 -0.042100541 0.41500002 4279719215
0.10124033 -0.042100541 0.41500002 4279718445
0.10258825 -0.042100541 0.41500002 4279981617
0.10393617 -0.042100541 0.41500002 4280047410
0.10528409 -0.042100541 0.41500002 4280113203
0.0038568554 -0.037511632 0.38200003 4284773723
0.0050975922 -0.037511632 0.38200003 4283064135
0.006354921 -0.037609827 0.38300002 4280695589
0.0075989058 -0.037609827 0.38300002 4280300577
0.0088659786 -0.037708025 0.384 4280761130
0.010113211 -0.037708025 0.384 4281419058
0.011390029 -0.037806224 0.38500002 4281748023
0.01264051 -0.037806224 0.38500002 4282274367
0.01389099 -0.037806224 0.38500002 4280630059
0.01514147 -0.037806224 0.38500002 4280235301
0.016349375 -0.037708025 0.384 4280695852
0.017596608 -0.037708025 0.384 4281353269
0.018794768 -0.037609827 0.38300002 4281748540
0.020038752 -0.037609827 0.38300002 4282274884
0.02122717 -0.037511632 0.38200003 4282207808
0.022467906 -0.037511632 0.38200003 4280364836
0.023708643 -0.037511632 0.38200003 4279444248
0.024884066 -0.037413433 0.38100001 4280498219
0.026121555 -0.037413433 0.38100001 4281617470
0.027359042 -0.037413433 0.38100001 4282012228
0.028521474 -0.037315235 0.38000003 4279514658
0.029755717 -0.037315235 0.38000003 4283135070
0.073807433 -0.039770186 0.40500003 4281753417
0.07530836 -0.039868381 0.40600002 4280570424
0.07719326 -0.040162977 0.40900001 4280505399
0.078521691 -0.040162977 0.40900001 4280441143
0.080045357 -0.040261175 0.41000003 4280507450
0.081377044 -0.040261175 0.41000003 4280244791
0.082910441 -0.04035937 0.41100001 4279981617
0.084450357 -0.040457573 0.41200003 4279653422
0.085788533 -0.040457573 0.41200003 4279588142
0.087338179 -0.040555768 0.41300002 4279588142
0.08889433 -0.040653966 0.41400003 4279522349
0.090239003 -0.040653966 0.41400003 4279588396
0.091583677 -0.040653966 0.41400003 4279588396
0.092928343 -0.040653966 0.41400003 4279194406
0.094273016 -0.040653966 0.41400003 4278931234
0.095617697 -0.040653966 0.41400003 4279326506
0.096962363 -0.040653966 0.41400003 4279260713
0.098307036 -0.040653966 0.41400003 4278931748
0.099651709 -0.040653966 0.41400003 4278931748
0.10099638 -0.040653966 0.41400003 4279062820
0.10234106 -0.040653966 0.41400003 4279127843
0.10393617 -0.040752165 0.41500002 4279325222
0.10528409 -0.040752165 0.41500002 4279456295
0.0013717816 -0.036175523 0.38100001 4287864977
0.0026092702 -0.036175523 0.38100001 4284114778
0.0038467587 -0.036175523 0.38100001 4283391568
0.0050842478 -0.036175523 0.38100001 4282405185
0.0063383286 -0.036270477 0.38200003 4282208576
0.0075790659 -0.036270477 0.38200003 4281287476
0.0088428911 -0.036365423 0.38300002 4282734922
0.010113211 -0.03646037 0.384 4281024304
0.011360444 -0.03646037 0.384 4282471228
0.012607677 -0.03646037 0.384 4282208058
0.013854909 -0.03646037 0.384 4280827438
0.015102142 -0.03646037 0.384 4280630059
0.016349375 -0.03646037 0.384 4280498473
0.017550783 -0.036365423 0.38300002 4281484853
0.018794768 -0.036365423 0.38300002 4281748027
0.019986432 -0.036270477 0.38200003 4282471750
0.02122717 -0.036270477 0.38200003 4280562981
0.022409089 -0.036175523 0.38100001 4279904539
0.023646578 -0.036175523 0.38100001 4279443221
0.024818754 -0.036080576 0.38000003 4279838746
0.026052997 -0.036080576 0.38000003 4280235301
0.027287235 -0.036080576 0.38000003 4282209091
0.028521474 -0.036080576 0.38000003 4282145863
0.029755717 -0.036080576 0.38000003 4280305969
0.030908404 -0.035985626 0.37900001 4279914809
0.032139398 -0.035985626 0.37900001 4284913280
0.061565086 -0.037409861 0.39400002 4286027911
0.062844798 -0.037409861 0.39400002 4284384110
0.06428726 -0.037504807 0.39500001 4281819210
0.065736227 -0.037599761 0.39600003 4281228872
0.067191675 -0.037694708 0.39700001 4280506432
0.068653636 -0.037789658 0.39800003 4280375610
0.070122086 -0.037884604 0.39900002 4280113203
0.071776025 -0.038074505 0.40100002 4279653422
0.073625192 -0.038359348 0.40400001 4279851314
0.075122878 -0.038454298 0.40500003 4279260201
0.076815784 -0.038644195 0.40700001 4279654189
0.078329705 -0.038739145 0.40800002 4279522603
0.079654895 -0.038739145 0.40800002 4279391787
0.081178561 -0.038834091 0.40900001 4279194922
0.082708716 -0.038929045 0.41000003 4279129129
0.084040403 -0.038929045 0.41000003 4279129638
0.085580304 -0.039023992 0.41100001 4278998052
0.08712671 -0.039118942 0.41200003 4278998052
0.088679604 -0.039213888 0.41300002 4279063845
0.090021029 -0.039213888 0.41300002 4278800160
0.091362454 -0.039213888 0.41300002 4278602781
0.092703879 -0.039213888 0.41300002 4278602781
0.094045304 -0.039213888 0.41300002 4278405402
0.095617697 -0.039308839 0.41400003 4278602781
0.096962363 -0.039308839 0.41400003 4278405402
0.098307036 -0.039308839 0.41400003 4278471195
0.099651709 -0.039308839 0.41400003 4278602781
0.10099638 -0.039308839 0.41400003 4278602267
0.10234106 -0.039308839 0.41400003 4278602267
0.10368572 -0.039308839 0.41400003 4279062048
0.10528409 -0.039403789 0.41500002 4279916844
-0.0011003002 -0.034845918 0.38000003 4280825378
0.00013394043 -0.034845918 0.38000003 4285629040
0.0013681811 -0.034845918 0.38000003 4283917658
0.0026024217 -0.034845918 0.38000003 4287534990
0.0038366623 -0.034845918 0.38000003 4287274639
0.0050709033 -0.034845918 0.38000003 4282538056
0.0063217357 -0.034937616 0.38100001 4281748536
0.007559225 -0.034937616 0.38100001 4281484851
0.0088198027 -0.035029318 0.38200003 4281484855
0.010086875 -0.035121016 0.38300002 4281484855
0.01133086 -0.035121016 0.38300002 4281485105
0.012574845 -0.035121016 0.38300002 4281945656
0.013818828 -0.035121016 0.38300002 4281221681
0.015062814 -0.035121016 0.38300002 4280959022
0.016306799 -0.035121016 0.38300002 4281090608
0.017550783 -0.035121016 0.38300002 4282076990
0.018745696 -0.035029318 0.38200003 4282405185
0.019986432 -0.035029318 0.38200003 4282866506
0.0211716 -0.034937616 0.38100001 4279904024
0.022409089 -0.034937616 0.38100001 4279969565
0.023584513 -0.034845918 0.38000003 4279640600
0.024818754 -0.034845918 0.38000003 4279706393
0.025984434 -0.034754217 0.37900001 4279970846
0.027215425 -0.034754217 0.37900001 4279641881
0.028446417 -0.034754217 0.37900001 4280433963
0.029677412 -0.034754217 0.37900001 4280107563
0.030908404 -0.034754217 0.37900001 4279982135
0.032139398 -0.034754217 0.37900001 4280245820
0.033370391 -0.034754217 0.37900001 4281953362
0.046282958 -0.035212714 0.384 4286356363
0.047530189 -0.035212714 0.384 4286356363
0.048904449 -0.035304416 0.38500002 4286224777
0.050154928 -0.035304416 0.38500002 4286422156
0.051538929 -0.035396114 0.38600001 4286685328
0.052792657 -0.035396114 0.38600001 4286882707
0.054186404 -0.035487816 0.38700002 4285765509
0.055586647 -0.035579514 0.38800001 4282806621
0.056993388 -0.035671216 0.38900003 4282083665
0.058406614 -0.035762914 0.39000002 4281359940
0.059979353 -0.035946317 0.39200002 4280704065
0.061408829 -0.036038015 0.39300001 4280178746
0.062844798 -0.036129717 0.39400002 4279587631
0.06428726 -0.036221415 0.39500001 4279850803
0.065736227 -0.036313117 0.39600003 4279325742
0.067191675 -0.036404815 0.39700001 4279523121
0.068653636 -0.036496516 0.39800003 4279128875
0.070122086 -0.036588214 0.39900002 4279260461
0.071597032 -0.036679912 0.40000001 4279129129
0.07326071 -0.036863312 0.40200001 4279194922
0.074937381 -0.037046712 0.40400001 4279326506
0.076438315 -0.037138414 0.40500003 4279260713
0.077945739 -0.037230112 0.40600002 4279194920
0.07945966 -0.03732181 0.40700001 4278865955
0.080980077 -0.037413511 0.40800002 4278865955
0.08230526 -0.037413511 0.40800002 4278800162
0.083835423 -0.037505209 0.40900001 4278668574
0.085372083 -0.037596911 0.41000003 4278471195
0.086915232 -0.037688609 0.41100001 4278471195
0.08825016 -0.037688609 0.41100001 4278668574
0.089803062 -0.037780311 0.41200003 4278405402
0.091141239 -0.037780311 0.41200003 4278339609
0.092479415 -0.037780311 0.41200003 4278405142
0.094045304 -0.037872009 0.41300002 4278470935
0.095386729 -0.037872009 0.41300002 4278405142
0.096728146 -0.037872009 0.41300002 4278930716
0.098069578 -0.037872009 0.41300002 4278996255
0.099411003 -0.037872009 0.41300002 4278864671
0.10099638 -0.037963711 0.41400003 4278996257
0.10234106 -0.037963711 0.41400003 4278995744
0.10368572 -0.037963711 0.41400003 4279061537
0.1050304 -0.037963711 0.41400003 4279126560
-0.0073097749 -0.033788163 0.38200003 4282206513
-0.0060531502 -0.03369971 0.38100001 4283195723
-0.0048156618 -0.03369971 0.38100001 4284839526
-0.0035687818 -0.03361126 0.38000003 4285958779
-0.0023345409 -0.03361126 0.38000003 4285103468
-0.0011003002 -0.03361126 0.38000003 4281616954
0.00013358794 -0.033522807 0.37900001 4282669388
0.0013645806 -0.033522807 0.37900001 4283328090
0.0025955732 -0.033522807 0.37900001 4291551443
0.0038265658 -0.033522807 0.37900001 4283325775
0.0050575584 -0.033522807 0.37900001 4282009913
0.0063051437 -0.03361126 0.38000003 4282076220
0.0075393845 -0.03361126 0.38000003 4286485634
0.0087967133 -0.03369971 0.38100001 4282932301
0.010060539 -0.033788163 0.38200003 4281945406
0.011301276 -0.033788163 0.38200003 4281748536
0.012542013 -0.033788163 0.38200003 4281287985
0.013818828 -0.033876613 0.38300002 4281353778
0.015062814 -0.033876613 0.38300002 4281090606
0.016306799 -0.033876613 0.38300002 4281419058
0.01750496 -0.033788163 0.38200003 4281748025
0.018745696 -0.033788163 0.38200003 4282405185
0.01993411 -0.03369971 0.38100001 4282405185
0.0211716 -0.03369971 0.38100001 4279969819
0.022350272 -0.03361126 0.38000003 4280100381
0.023584513 -0.03361126 0.38000003 4279640600
0.02475344 -0.033522807 0.37900001 4279706393
0.025984434 -0.033522807 0.37900001 4280233504
0.027143618 -0.033434357 0.37800002 4279838746
0.028371362 -0.033434357 0.37800002 4279905823
0.029599108 -0.033434357 0.37800002 4279578654
0.030826852 -0.033434357 0.37800002 4278929953
0.032139398 -0.033522807 0.37900001 4279523887
0.033370391 -0.033522807 0.37900001 4279917879
0.034601379 -0.033522807 0.37900001 4280244024
0.035832375 -0.033522807 0.37900001 4285437571
0.03716116 -0.03361126 0.38000003 4286489745
0.043674462 -0.033876613 0.38300002 4286422669
0.045035727 -0.033965062 0.384 4286488462
0.046282958 -0.033965062 0.384 4286291853
0.047530189 -0.033965062 0.384 4285765763
0.048904449 -0.034053512 0.38500002 4282280531
0.050154928 -0.034053512 0.38500002 4281359429
0.051538929 -0.034141961 0.38600001 4281294147
0.052792657 -0.034141961 0.38600001 4280702780
0.054186404 -0.034230415 0.38700002 4280113721
0.055586647 -0.034318864 0.38800001 4279522867
0.056993388 -0.034407318 0.38900003 4279655219
0.058406614 -0.034495767 0.39000002 4279259947
0.059826348 -0.034584217 0.39100003 4279326254
0.061408829 -0.034761116 0.39300001 4279260461
0.062844798 -0.034849569 0.39400002 4279129127
0.06428726 -0.034938019 0.39500001 4279260713
0.06557022 -0.034938019 0.39500001 4279260713
0.067022428 -0.035026472 0.39600003 4279260713
0.068481132 -0.035114922 0.39700001 4279392299
0.070122086 -0.035291821 0.39900002 4279195433
0.071597032 -0.03538027 0.40000001 4278800675
0.073078468 -0.035468724 0.40100002 4278998054
0.074751899 -0.035645626 0.40300003 4278734882
0.076249577 -0.035734076 0.40400001 4278603296
0.077753752 -0.035822526 0.40500003 4278404888
0.079264425 -0.035910975 0.40600002 4278733853
0.080583118 -0.035910975 0.40600002 4278602521
0.082103528 -0.035999425 0.40700001 4278864923
0.08363045 -0.036087878 0.40800002 4278864923
0.085163854 -0.036176328 0.40900001 4279062302
0.086703762 -0.036264781 0.41000003 4278996509
0.088035442 -0.036264781 0.41000003 4278996255
0.089585088 -0.03635323 0.41100001 4278930462
0.090920024 -0.03635323 0.41100001 4278864669
0.092254944 -0.03635323 0.41100001 4278929179
0.093817592 -0.03644168 0.41200003 4279389730
0.095155768 -0.03644168 0.41200003 4279388703
0.096493945 -0.03644168 0.41200003 4278202891
0.098069578 -0.03653013 0.41300002 4278202636
0.099411003 -0.03653013 0.41300002 4279323941
0.10075242 -0.03653013 0.41300002 4279323939
0.10234106 -0.036618583 0.41400003 4279258146
0.10368572 -0.036618583 0.41400003 4279192353
0.1050304 -0.036618583 0.41400003 4278928416
0.10663202 -0.036707032 0.41500002 4280699702
-0.0085505117 -0.032547005 0.38200003 4282733373
-0.0073097749 -0.032547005 0.38200003 4281286188
-0.0060531502 -0.032461803 0.38100001 4282076220
-0.0048156618 -0.032461803 0.38100001 4281878841
-0.0035687818 -0.032376602 0.38000003 4280497706
-0.0023345409 -0.032376602 0.38000003 4280562729
-0.0010974046 -0.032291397 0.37900001 4279313432
0.00013358794 -0.032291397 0.37900001 4282735435
0.0013609801 -0.032206196 0.37800002 4283394394
0.0025887247 -0.032206196 0.37800002 4282210122
0.0038164693 -0.032206196 0.37800002 4282406218
0.0050442144 -0.032206196 0.37800002 4282076740
0.0062885508 -0.032291397 0.37900001 4292802534
0.0075195436 -0.032291397 0.37900001 4284512362
0.0087736258 -0.032376602 0.38000003 4283460189
0.010007866 -0.032376602 0.38000003 4283789152
0.011271691 -0.032461803 0.38100001 4283065681
0.01250918 -0.032461803 0.38100001 4281946687
0.013782749 -0.032547005 0.38200003 4280959022
0.015023486 -0.032547005 0.38200003 4280959022
0.016264223 -0.032547005 0.38200003 4281353780
0.01750496 -0.032547005 0.38200003 4281616437
0.018745696 -0.032547005 0.38200003 4281748023
0.01993411 -0.032461803 0.38100001 4281616437
0.0211716 -0.032461803 0.38100001 4280627749
0.022350272 -0.032376602 0.38000003 4280034842
0.023522448 -0.032291397 0.37900001 4279771670
0.02475344 -0.032291397 0.37900001 4279706647
0.025915874 -0.032206196 0.37800002 4280167198
0.027143618 -0.032206196 0.37800002 4279969819
0.028371362 -0.032206196 0.37800002 4280168225
0.029599108 -0.032206196 0.37800002 4279840030
0.030826852 -0.032206196 0.37800002 4279191588
0.032139398 -0.032291397 0.37900001 4278997029
0.033370391 -0.032291397 0.37900001 4279063336
0.034601379 -0.032291397 0.37900001 4279523887
0.035832375 -0.032291397 0.37900001 4280114234
0.03716116 -0.032376602 0.38000003 4280309821
0.038395401 -0.032376602 0.38000003 4281822292
0.039733931 -0.032461803 0.38100001 4283531627
0.040971417 -0.032461803 0.38100001 4283135586
0.042319693 -0.032547005 0.38200003 4282609755
0.043674462 -0.032632206 0.38300002 4280309821
0.044918448 -0.032632206 0.38300002 4280309819
0.046282958 -0.032717407 0.384 4280375610
0.047530189 -0.032717407 0.384 4280375864
0.048904449 -0.032802608 0.38500002 4279193384
0.050154928 -0.032802608 0.38500002 4279851314
0.051405411 -0.032802608 0.38500002 4279260463
0.052792657 -0.032887809 0.38600001 4279194670
0.054186404 -0.032973014 0.38700002 4279260461
0.055586647 -0.033058211 0.38800001 4279129642
0.056993388 -0.033143416 0.38900003 4278998056
0.058406614 -0.033228617 0.39000002 4279458607
0.059826348 -0.033313818 0.39100003 4279064619
0.061408829 -0.033484221 0.39300001 4279064617
0.062685288 -0.033484221 0.39300001 4278867238
0.06412451 -0.033569422 0.39400002 4279063845
0.06557022 -0.033654623 0.39500001 4278603296
0.067022428 -0.033739828 0.39600003 4278537503
0.068481132 -0.033825029 0.39700001 4278537501
0.069946341 -0.03391023 0.39800003 4278340122
0.07141804 -0.033995431 0.39900002 4278733853
0.073078468 -0.034165833 0.40100002 4278931232
0.074566409 -0.034251034 0.40200001 4278865439
0.076060846 -0.034336239 0.40300003 4278997025
0.077561766 -0.034421436 0.40400001 4279062302
0.079069197 -0.034506641 0.40500003 4279193886
0.080384642 -0.034506641 0.40500003 4279325472
0.081901804 -0.034591842 0.40600002 4279061787
0.08342547 -0.034677044 0.40700001 4279193375
0.084955633 -0.034762245 0.40800002 4278930203
0.086492293 -0.034847446 0.40900001 4279521316
0.087820716 -0.034847446 0.40900001 4279257633
0.089367121 -0.034932647 0.41000003 4278203149
0.090698808 -0.034932647 0.41000003 4278198784
0.092254944 -0.035017848 0.41100001 4278202126
0.09358988 -0.035017848 0.41100001 4279583779
0.094924808 -0.035017848 0.41100001 4280438575
0.096493945 -0.035103053 0.41200003 4279978024
0.097832121 -0.035103053 0.41200003 4278199300
0.099411003 -0.035188254 0.41300002 4279585316
0.10075242 -0.035188254 0.41300002 4279389219
0.10209385 -0.035188254 0.41300002 4279586598
0.10368572 -0.035273455 0.41400003 4278928668
0.1050304 -0.035273455 0.41400003 4279454246
-0.0098425103 -0.031469751 0.384 4281548066
-0.0085728951 -0.031387798 0.38300002 4281944370
-0.0073097749 -0.03130585 0.38200003 4283392078
-0.0060690381 -0.03130585 0.38200003 4282602564
-0.0048156618 -0.031223893 0.38100001 4281747255
-0.0035687818 -0.031141942 0.38000003 4281155636
-0.0023345409 -0.031141942 0.38000003 4279773213
-0.0010974046 -0.031059988 0.37900001 4282011458
0.00013323547 -0.030978037 0.37800002 4282209091
0.0013609801 -0.030978037 0.37800002 4281683263
0.0025818762 -0.030896083 0.377 4283130709
0.0038063726 -0.030896083 0.377 4282999125
0.0050308695 -0.030896083 0.377 4284907122
0.0062719584 -0.030978037 0.37800002 4287341725
0.0074997037 -0.030978037 0.37800002 4282208586
0.0087505365 -0.031059988 0.37900001 4282078534
0.0099815289 -0.031059988 0.37900001 4282408013
0.011242107 -0.031141942 0.38000003 4281947714
0.01250918 -0.031223893 0.38100001 4282473544
0.013746668 -0.031223893 0.38100001 4283524947
0.014984156 -0.031223893 0.38100001 4280761643
0.016264223 -0.03130585 0.38200003 4281813818
0.01750496 -0.03130585 0.38200003 4282405955
0.018745696 -0.03130585 0.38200003 4281353265
0.01993411 -0.031223893 0.38100001 4281813816
0.0211716 -0.031223893 0.38100001 4280101405
0.022350272 -0.031141942 0.38000003 4280034842
0.023522448 -0.031059988 0.37900001 4279837463
0.02475344 -0.031059988 0.37900001 4279969049
0.025915874 -0.030978037 0.37800002 4280167198
0.027143618 -0.030978037 0.37800002 4280298784
0.028371362 -0.030978037 0.37800002 4280299297
0.029599108 -0.030978037 0.37800002 4280102432
0.030826852 -0.030978037 0.37800002 4279121947
0.032139398 -0.031059988 0.37900001 4278862875
0.033370391 -0.031059988 0.37900001 4278865439
0.034601379 -0.031059988 0.37900001 4278668574
0.035926919 -0.031141942 0.38000003 4279195435
0.03716116 -0.031141942 0.38000003 4279260974
0.038395401 -0.031141942 0.38000003 4279193902
0.039733931 -0.031223893 0.38100001 4279654453
0.040971417 -0.031223893 0.38100001 4279720246
0.042319693 -0.03130585 0.38200003 4279786293
0.043674462 -0.031387798 0.38300002 4279523119
0.044918448 -0.031387798 0.38300002 4279325740
0.046282958 -0.031469751 0.384 4279391533
0.047530189 -0.031469751 0.384 4279063082
0.048904449 -0.031551704 0.38500002 4279129642
0.050154928 -0.031551704 0.38500002 4279261228
0.051405411 -0.031551704 0.38500002 4279064619
0.052792657 -0.031633656 0.38600001 4279130412
0.054186404 -0.031715609 0.38700002 4279064617
0.055586647 -0.031797562 0.38800001 4279064617
0.056993388 -0.031879514 0.38900003 4278735652
0.058406614 -0.031961467 0.39000002 4278538273
0.059826348 -0.03204342 0.39100003 4278538273
0.061252572 -0.032125372 0.39200002 4278472480
0.062685288 -0.032207321 0.39300001 4278603294
0.06412451 -0.032289278 0.39400002 4278734367
0.06557022 -0.032371227 0.39500001 4278668574
0.067022428 -0.032453183 0.39600003 4278865953
0.068481132 -0.032535132 0.39700001 4278931232
0.069946341 -0.032617088 0.39800003 4278931232
0.07141804 -0.032699037 0.39900002 4279193634
0.072896227 -0.03278099 0.40000001 4279127841
0.074380919 -0.032862943 0.40100002 4278996255
0.075872101 -0.032944895 0.40200001 4278996255
0.077369787 -0.033026848 0.40300003 4279062048
0.078873962 -0.033108801 0.40400001 4279061535
0.080384642 -0.033190753 0.40500003 4279849254
0.081700079 -0.033190753 0.40500003 4278334736
0.083220489 -0.033272706 0.40600002 4278198529
0.084747404 -0.033354659 0.40700001 4278199043
0.086280823 -0.033436611 0.40800002 4279912485
0.087820716 -0.033518564 0.40900001 4280307243
0.089149155 -0.033518564 0.40900001 4280241709
0.090698808 -0.033600517 0.41000003 4279716135
0.092030481 -0.033600517 0.41000003 4279782182
0.093362167 -0.033600517 0.41000003 4279782182
0.094924808 -0.033682469 0.41100001 4279782182
0.096259728 -0.033682469 0.41100001 4279584803
0.097832121 -0.033764422 0.41200003 4279847205
0.099170297 -0.033764422 0.41200003 4279519519
0.10075242 -0.033846375 0.41300002 4279455010
0.10209385 -0.033846375 0.41300002 4279323426
0.10368572 -0.033928327 0.41400003 4279387935
0.1050304 -0.033928327 0.41400003 4279386400
-0.0073289103 -0.030143391 0.38300002 4282603586
-0.0060690381 -0.030064689 0.38200003 4282405955
-0.0048156618 -0.029985983 0.38100001 4281419060
-0.0035781732 -0.029985983 0.38100001 4280957487
-0.0023345409 -0.029907281 0.38000003 4280233252
-0.0010974046 -0.029828576 0.37900001 4282736205
0.00013323547 -0.029749874 0.37800002 4280696622
0.0013609801 -0.029749874 0.37800002 4283394648
0.0025818762 -0.02967117 0.377 4283328601
0.0038063726 -0.02967117 0.377 4284052840
0.0050308695 -0.02967117 0.377 4284250736
0.0062553659 -0.02967117 0.377 4283000152
0.0074798628 -0.02967117 0.377 4283197529
0.0087274481 -0.029749874 0.37800002 4281879611
0.0099551929 -0.029749874 0.37800002 4280234784
0.011212522 -0.029828576 0.37900001 4284578139
0.012476347 -0.029907281 0.38000003 4283460426
0.013710587 -0.029907281 0.38000003 4282604867
0.014984156 -0.029985983 0.38100001 4282407238
0.016221646 -0.029985983 0.38100001 4281945406
0.01750496 -0.030064689 0.38200003 4282208576
0.018745696 -0.030064689 0.38200003 4281945404
0.019986432 -0.030064689 0.38200003 4281155888
0.0211716 -0.029985983 0.38100001 4280299297
0.022350272 -0.029907281 0.38000003 4279969819
0.023584513 -0.029907281 0.38000003 4279969819
0.02475344 -0.029828576 0.37900001 4280429600
0.025915874 -0.029749874 0.37800002 4282469951
0.027143618 -0.029749874 0.37800002 4282667330
0.028371362 -0.029749874 0.37800002 4282470976
0.029599108 -0.029749874 0.37800002 4281024300
0.030908404 -0.029828576 0.37900001 4279187478
0.032139398 -0.029828576 0.37900001 4278992664
0.033370391 -0.029828576 0.37900001 4278732054
0.034692679 -0.029907281 0.38000003 4278601238
0.035926919 -0.029907281 0.38000003 4278734621
0.03716116 -0.029907281 0.38000003 4278274331
0.038496442 -0.029985983 0.38100001 4281957976
0.039733931 -0.029985983 0.38100001 4282746976
0.041078955 -0.030064689 0.38200003 4279195435
0.042319693 -0.030064689 0.38200003 4279261226
0.043674462 -0.030143391 0.38300002 4279195433
0.044918448 -0.030143391 0.38300002 4279721264
0.046282958 -0.030222094 0.384 4279195433
0.047530189 -0.030222094 0.384 4279129640
0.048904449 -0.030300798 0.38500002 4279129638
0.050154928 -0.030300798 0.38500002 4278998306
0.051405411 -0.030300798 0.38500002 4278537755
0.052792657 -0.0303795 0.38600001 4278603548
0.054186404 -0.030458204 0.38700002 4278537501
0.055586647 -0.030536907 0.38800001 4278669087
0.056993388 -0.030615611 0.38900003 4278668574
0.058406614 -0.030694313 0.39000002 4278668574
0.059826348 -0.030773019 0.39100003 4278931232
0.061252572 -0.030851722 0.39200002 4278931232
0.062685288 -0.030930424 0.39300001 4278997025
0.06412451 -0.031009128 0.39400002 4278931232
0.06557022 -0.031087831 0.39500001 4278931234
0.067022428 -0.031166535 0.39600003 4278931234
0.068308644 -0.031166535 0.39600003 4278929949
0.069770597 -0.031245237 0.39700001 4279126558
0.071239047 -0.031323943 0.39800003 4279323937
0.072713986 -0.031402644 0.39900002 4278863390
0.07419543 -0.031481348 0.40000001 4278203151
0.07568337 -0.031560052 0.40100002 4278198528
0.0771778 -0.031638753 0.40200001 4278201352
0.078678735 -0.031717457 0.40300003 4279584033
0.080186158 -0.031796161 0.40400001 4280307756
0.081700079 -0.031874865 0.40500003 4280110377
0.083220489 -0.03195357 0.40600002 4279781412
0.084747404 -0.03203227 0.40700001 4279782182
0.086069345 -0.03203227 0.40700001 4279651107
0.087605998 -0.032110974 0.40800002 4279848486
0.089149155 -0.032189678 0.40900001 4279651109
0.090477586 -0.032189678 0.40900001 4278532374
0.092030481 -0.032268383 0.41000003 4278466581
0.093362167 -0.032268383 0.41000003 4278795033
0.094924808 -0.032347083 0.41100001 4279650855
0.096259728 -0.032347083 0.41100001 4278400275
0.097594664 -0.032347083 0.41100001 4279453215
0.099170297 -0.032425791 0.41200003 4279520291
0.10050847 -0.032425791 0.41200003 4279455012
0.10209385 -0.032504492 0.41300002 4279586598
0.10343527 -0.032504492 0.41300002 4279650344
-0.0098681422 -0.029049894 0.38500002 4282535476
-0.0073480452 -0.028974438 0.384 4283327820
-0.006084925 -0.028898984 0.38300002 4283327309
-0.0048283017 -0.028823532 0.38200003 4282076472
-0.0035781732 -0.028748076 0.38100001 4281352245
-0.0023345409 -0.028672623 0.38000003 4281879613
-0.0010974046 -0.028597167 0.37900001 4280827436
0.00013323547 -0.028521713 0.37800002 4281815614
0.0013573796 -0.028446259 0.377 4283264346
0.0025818762 -0.028446259 0.377 4282540369
0.0037962764 -0.028370805 0.37600002 4283855461
0.0050175255 -0.028370805 0.37600002 4282606164
0.0062387735 -0.028370805 0.37600002 4282077505
0.0074798628 -0.028446259 0.377 4279443473
0.0087043596 -0.028446259 0.377 4280494360
0.0099551929 -0.028521713 0.37800002 4281218335
0.011182938 -0.028521713 0.37800002 4281283858
0.012443515 -0.028597167 0.37900001 4280560905
0.013710587 -0.028672623 0.38000003 4282933832
0.014944828 -0.028672623 0.38000003 4282539076
0.016221646 -0.028748076 0.38100001 4281814333
0.01750496 -0.028823532 0.38200003 4282208576
0.018745696 -0.028823532 0.38200003 4281945404
0.019986432 -0.028823532 0.38200003 4280365604
0.0211716 -0.028748076 0.38100001 4280299297
0.022409089 -0.028748076 0.38100001 4279903772
0.023584513 -0.028672623 0.38000003 4280101405
0.02475344 -0.028597167 0.37900001 4280364575
0.025984434 -0.028597167 0.37900001 4282469949
0.027215425 -0.028597167 0.37900001 4283194699
0.028446417 -0.028597167 0.37900001 4282998603
0.029677412 -0.028597167 0.37900001 4281617204
0.030908404 -0.028597167 0.37900001 4278858513
0.032139398 -0.028597167 0.37900001 4278992666
0.033458438 -0.028672623 0.38000003 4278731287
0.034692679 -0.028672623 0.38000003 4278797334
0.035926919 -0.028672623 0.38000003 4278535958
0.037258953 -0.028748076 0.38100001 4278734621
0.038496442 -0.028748076 0.38100001 4278669859
0.039733931 -0.028748076 0.38100001 4278669859
0.041078955 -0.028823532 0.38200003 4278604066
0.042319693 -0.028823532 0.38200003 4278538271
0.043674462 -0.028898984 0.38300002 4278735650
0.045035727 -0.028974438 0.384 4278604064
0.046282958 -0.028974438 0.384 4278865953
0.047530189 -0.028974438 0.384 4278734367
0.048904449 -0.029049894 0.38500002 4278668574
0.050154928 -0.029049894 0.38500002 4278866207
0.051538929 -0.029125346 0.38600001 4278997279
0.052792657 -0.029125346 0.38600001 4278997279
0.054186404 -0.029200802 0.38700002 4278602267
0.055586647 -0.029276256 0.38800001 4278865439
0.056993388 -0.029351711 0.38900003 4278865439
0.058406614 -0.029427165 0.39000002 4278865439
0.059826348 -0.029502621 0.39100003 4279127841
0.061252572 -0.029578073 0.39200002 4279193634
0.062685288 -0.029653527 0.39300001 4278929949
0.06412451 -0.029728983 0.39400002 4279587109
0.06557022 -0.029804435 0.39500001 4279124761
0.066853181 -0.029804435 0.39500001 4278202118
0.068308644 -0.02987989 0.39600003 4278199298
0.069770597 -0.029955344 0.39700001 4279912485
0.071239047 -0.0300308 0.39800003 4279517727
0.072713986 -0.030106254 0.39900002 4279584803
0.07419543 -0.030181706 0.40000001 4279716135
0.075494632 -0.030181706 0.40000001 4279585062
0.076985814 -0.030257162 0.40100002 4279519523
0.078483492 -0.030332616 0.40200001 4279716900
0.079987675 -0.030408071 0.40300003 4279123480
0.081498347 -0.030483523 0.40400001 4278268173
0.083015516 -0.030558979 0.40500003 4279189275
0.084539182 -0.030634433 0.40600002 4279255838
0.086069345 -0.030709887 0.40700001 4278664214
0.087605998 -0.030785341 0.40800002 4278598167
0.089149155 -0.030860795 0.40900001 4280175916
0.090477586 -0.030860795 0.40900001 4279123228
0.092030481 -0.03093625 0.41000003 4278464015
0.093362167 -0.03093625 0.41000003 4278399246
0.094693847 -0.03093625 0.41000003 4279716387
0.096259728 -0.031011704 0.41100001 4278200839
0.097594664 -0.031011704 0.41100001 4279585316
0.099170297 -0.03108716 0.41200003 4279388707
0.10050847 -0.03108716 0.41200003 4279849258
0.10209385 -0.031162612 0.41300002 4279586086
0.10343527 -0.031162612 0.41300002 4280503348
-0.0086176619 -0.02779899 0.38500002 4281287206
-0.0073671811 -0.02779899 0.38500002 4280563231
-0.0061008125 -0.027726782 0.384 4281418026
-0.0048409407 -0.027654579 0.38300002 4280694303
-0.0035875649 -0.027582375 0.38200003 4281484083
-0.0023345409 -0.027437964 0.38000003 4283130191
-0.0010974046 -0.027365757 0.37900001 4280301092
0.00013323547 -0.027293554 0.37800002 4281880124
0.0013573796 -0.027221346 0.377 4282868302
0.0025818762 -0.027221346 0.377 4282802257
0.0037962764 -0.027149143 0.37600002 4281946948
0.0050175255 -0.027149143 0.37600002 4281815612
0.0062387735 -0.027149143 0.37600002 4283127613
0.0074600223 -0.027149143 0.37600002 4280757010
0.0087043596 -0.027221346 0.377 4281479960
0.009928856 -0.027221346 0.377 4282467105
0.011182938 -0.027293554 0.37800002 4283060262
0.012410683 -0.027293554 0.37800002 4282599459
0.013674506 -0.027365757 0.37900001 4282602554
0.014944828 -0.027437964 0.38000003 4282868039
0.016221646 -0.027510168 0.38100001 4282012480
0.017550783 -0.027654579 0.38300002 4282209089
0.018794768 -0.027654579 0.38300002 4282076220
0.020038752 -0.027654579 0.38300002 4280694053
0.02122717 -0.027582375 0.38200003 4280364575
0.022467906 -0.027582375 0.38200003 4280167196
0.023646578 -0.027510168 0.38100001 4280298014
0.024818754 -0.027437964 0.38000003 4280561954
0.026052997 -0.027437964 0.38000003 4282536255
0.027287235 -0.027437964 0.38000003 4282800711
0.028521474 -0.027437964 0.38000003 4282999375
0.029755717 -0.027437964 0.38000003 4280039201
0.030989956 -0.027437964 0.38000003 4279319064
0.032224201 -0.027437964 0.38000003 4279255066
0.033458438 -0.027437964 0.38000003 4278993177
0.034783974 -0.027510168 0.38100001 4278862359
0.036021464 -0.027510168 0.38100001 4278798363
0.037258953 -0.027510168 0.38100001 4278864923
0.038496442 -0.027510168 0.38100001 4278602521
0.039838221 -0.027582375 0.38200003 4278734621
0.041078955 -0.027582375 0.38200003 4278668828
0.042430475 -0.027654579 0.38300002 4278800160
0.043674462 -0.027654579 0.38300002 4278800160
0.045035727 -0.027726782 0.384 4278865953
0.046282958 -0.027726782 0.384 4279193634
0.047653969 -0.02779899 0.38500002 4279127841
0.048904449 -0.02779899 0.38500002 4279062818
0.050154928 -0.02779899 0.38500002 4278799646
0.051538929 -0.027871193 0.38600001 4278533910
0.052792657 -0.027871193 0.38600001 4278203146
0.054186404 -0.027943401 0.38700002 4279127330
0.055586647 -0.028015604 0.38800001 4279390502
0.056993388 -0.028087812 0.38900003 4279389219
0.058406614 -0.028160015 0.39000002 4278927386
0.059826348 -0.028232221 0.39100003 4278200844
0.061252572 -0.028304426 0.39200002 4278198275
0.062685288 -0.02837663 0.39300001 4278527246
0.06412451 -0.028448837 0.39400002 4278723341
0.06557022 -0.02852104 0.39500001 4278788621
0.066853181 -0.02852104 0.39500001 4278854414
0.068308644 -0.028593246 0.39600003 4278528013
0.069770597 -0.028665451 0.39700001 4279912485
0.071239047 -0.028737657 0.39800003 4280045352
0.072531752 -0.028737657 0.39800003 4278202380
0.07400994 -0.028809862 0.39900002 4278200328
0.075494632 -0.028882066 0.40000001 4278728470
0.076985814 -0.028954273 0.40100002 4279913514
0.078483492 -0.029026477 0.40200001 4279188762
0.079987675 -0.029098682 0.40300003 4279649309
0.081498347 -0.029170888 0.40400001 4279912483
0.083015516 -0.029243093 0.40500003 4279780645
0.084539182 -0.029315298 0.40600002 4278595601
0.086069345 -0.029387502 0.40700001 4278200585
0.087605998 -0.029459707 0.40800002 4279978024
0.089149155 -0.029531913 0.40900001 4279320094
0.090477586 -0.029531913 0.40900001 4280241450
0.092030481 -0.029604118 0.41000003 4280438829
0.093362167 -0.029604118 0.41000003 4280373036
0.094693847 -0.029604118 0.41000003 4278465039
0.096259728 -0.029676324 0.41100001 4279847205
0.097594664 -0.029676324 0.41100001 4279848488
0.099170297 -0.029748529 0.41200003 4279914281
0.10050847 -0.029748529 0.41200003 4280309039
0.10184665 -0.029748529 0.41200003 4279912746
-0.0061167004 -0.026548086 0.38500002 4281284898
-0.0035875649 -0.026341219 0.38200003 4282865736
-0.0023406844 -0.02627226 0.38100001 4281880124
-0.0011003002 -0.026203305 0.38000003 4280432680
0.00013323547 -0.026065392 0.37800002 4280893229
0.0013573796 -0.025996435 0.377 4282867787
0.0025818762 -0.025996435 0.377 4282407499
0.0037962764 -0.02592748 0.37600002 4282078273
0.0050175255 -0.02592748 0.37600002 4281286954
0.0062387735 -0.02592748 0.37600002 4282994224
0.0074600223 -0.02592748 0.37600002 4283191855
0.0086812712 -0.02592748 0.37600002 4282533668
0.009928856 -0.025996435 0.377 4282599713
0.011153352 -0.025996435 0.377 4282730527
0.012410683 -0.026065392 0.37800002 4283059492
0.013674506 -0.026134348 0.37900001 4281615657
0.014944828 -0.026203305 0.38000003 4282934086
0.016221646 -0.02627226 0.38100001 4281683767
0.017596608 -0.026479129 0.384 4282143294
0.018843841 -0.026479129 0.384 4281418292
0.020091072 -0.026479129 0.384 4280233502
0.021282736 -0.026410174 0.38300002 4280364575
0.022526722 -0.026410174 0.38300002 4280232219
0.023708643 -0.026341219 0.38200003 4280363805
0.024884066 -0.02627226 0.38100001 4280692770
0.026052997 -0.026203305 0.38000003 4282536771
0.027359042 -0.02627226 0.38100001 4282800713
0.02859653 -0.02627226 0.38100001 4282867789
0.029834021 -0.02627226 0.38100001 4279578904
0.031071508 -0.02627226 0.38100001 4279318810
0.032308999 -0.02627226 0.38100001 4279320348
0.033546485 -0.02627226 0.38100001 4278795798
0.034783974 -0.02627226 0.38100001 4278796568
0.036116011 -0.026341219 0.38200003 4279126047
0.037356745 -0.026341219 0.38200003 4278995742
0.038597483 -0.026341219 0.38200003 4278930716
0.039838221 -0.026341219 0.38200003 4279193888
0.041186489 -0.026410174 0.38300002 4279193634
0.042430475 -0.026410174 0.38300002 4279062048
0.043788493 -0.026479129 0.384 4279193634
0.045035727 -0.026479129 0.384 4279391013
0.046403486 -0.026548086 0.38500002 4279127328
0.047653969 -0.026548086 0.38500002 4279061535
0.048904449 -0.026548086 0.38500002 4279061535
0.050285202 -0.026617041 0.38600001 4278798363
0.051538929 -0.026617041 0.38600001 4278203149
0.052929427 -0.026685998 0.38700002 4279519523
0.054326419 -0.026754953 0.38800001 4279323174
0.055586647 -0.026754953 0.38800001 4278199299
0.0571399 -0.026892865 0.39000002 4278591757
0.058556378 -0.026961822 0.39100003 4278722832
0.059979353 -0.027030777 0.39200002 4278853394
0.061252572 -0.027030777 0.39200002 4278656015
0.062685288 -0.027099732 0.39300001 4278919441
0.06412451 -0.027168689 0.39400002 4278853648
0.06557022 -0.027237644 0.39500001 4279972129
0.066853181 -0.027237644 0.39500001 4279708957
0.068308644 -0.027306603 0.39600003 4280042020
0.069770597 -0.027375558 0.39700001 4279584801
0.071060054 -0.027375558 0.39700001 4278199816
0.072531752 -0.027444515 0.39800003 4278854927
0.07400994 -0.027513471 0.39900002 4278922258
0.075494632 -0.027582426 0.40000001 4279779875
0.076985814 -0.027651383 0.40100002 4279453217
0.078483492 -0.027720338 0.40200001 4280045354
0.079987675 -0.027789295 0.40300003 4278200324
0.081498347 -0.02785825 0.40400001 4279320346
0.083015516 -0.027927207 0.40500003 4279846690
0.084539182 -0.027996162 0.40600002 4279912483
0.086069345 -0.028065117 0.40700001 4279781412
0.087605998 -0.028134074 0.40800002 4279715104
0.089149155 -0.028203029 0.40900001 4278199555
0.090477586 -0.028203029 0.40900001 4278199301
0.092030481 -0.028271988 0.41000003 4279187740
0.093362167 -0.028271988 0.41000003 4280306989
0.094693847 -0.028271988 0.41000003 4280241196
0.096259728 -0.028340943 0.41100001 4280044330
0.097594664 -0.028340943 0.41100001 4280111147
0.098929591 -0.028340943 0.41100001 4279649572
-0.0035969564 -0.025165766 0.38300002 4281549099
-0.0023468281 -0.025100062 0.38200003 4283063883
-0.0011003002 -0.024968646 0.38000003 4280498473
0.00013358794 -0.024902938 0.37900001 4281353269
0.0013609801 -0.024837233 0.37800002 4283327570
0.0025818762 -0.024771525 0.377 4282735435
0.0037962764 -0.024705818 0.37600002 4283327568
0.0050175255 -0.024705818 0.37600002 4281615146
0.0062387735 -0.024705818 0.37600002 4282402341
0.0074600223 -0.024705818 0.37600002 4282665252
0.0086812712 -0.024705818 0.37600002 4282139162
0.009928856 -0.024771525 0.377 4282270748
0.011153352 -0.024771525 0.377 4282598943
0.012410683 -0.024837233 0.37800002 4282731299
0.013674506 -0.024902938 0.37900001 4282734138
0.014944828 -0.024968646 0.38000003 4283855188
0.016221646 -0.025034353 0.38100001 4282800711
0.017642433 -0.025297182 0.38500002 4283063883
0.018941985 -0.025362886 0.38600001 4281615671
0.020143393 -0.025297182 0.38500002 4280562467
0.021393875 -0.025297182 0.38500002 4280759331
0.022585537 -0.025231473 0.384 4280167194
0.02383277 -0.025231473 0.384 4280364575
0.025014691 -0.025165766 0.38300002 4280759333
0.026121555 -0.025034353 0.38100001 4282339392
0.027430853 -0.025100062 0.38200003 4283130191
0.028671589 -0.025100062 0.38200003 4283723611
0.029912326 -0.025100062 0.38200003 4279974176
0.031153062 -0.025100062 0.38200003 4279188762
0.032393802 -0.025100062 0.38200003 4279254555
0.033634536 -0.025100062 0.38200003 4278993177
0.034875274 -0.025100062 0.38200003 4278664982
0.036116011 -0.025100062 0.38200003 4279192353
0.037356745 -0.025100062 0.38200003 4278929951
0.038698524 -0.025165766 0.38300002 4278469911
0.039942507 -0.025165766 0.38300002 4279062048
0.041186489 -0.025165766 0.38300002 4279127841
0.042430475 -0.025165766 0.38300002 4279456806
0.043788493 -0.025231473 0.384 4279193121
0.045035727 -0.025231473 0.384 4279193121
0.046403486 -0.025297182 0.38500002 4279258914
0.047653969 -0.025297182 0.38500002 4279258914
0.04903147 -0.025362886 0.38600001 4279323937
0.050285202 -0.025362886 0.38600001 4279126047
0.051672455 -0.025428595 0.38700002 4278199048
0.052929427 -0.025428595 0.38700002 4279058207
0.054326419 -0.025494302 0.38800001 4278925849
0.055729914 -0.02556001 0.38900003 4278197511
0.0571399 -0.025625715 0.39000002 4278919441
0.058556378 -0.025691424 0.39100003 4279116566
0.059979353 -0.02575713 0.39200002 4280367657
0.061408829 -0.025822837 0.39300001 4279380762
0.062685288 -0.025822837 0.39300001 4279315480
0.06412451 -0.025888544 0.39400002 4278460173
0.06557022 -0.02595425 0.39500001 4279841826
0.066853181 -0.02595425 0.39500001 4278789138
0.068308644 -0.026019959 0.39600003 4280569645
0.069770597 -0.026085664 0.39700001 4279846690
0.071060054 -0.026085664 0.39700001 4278657035
0.072531752 -0.026151372 0.39800003 4278590474
0.07400994 -0.026217079 0.39900002 4280897329
0.075494632 -0.026282785 0.40000001 4279977254
0.076985814 -0.026348492 0.40100002 4280241709
0.078483492 -0.026414199 0.40200001 4280176170
0.079987675 -0.026479907 0.40300003 4278991383
0.081498347 -0.026545614 0.40400001 4278201099
0.083015516 -0.026611321 0.40500003 4278198272
0.084539182 -0.026677027 0.40600002 4278859027
0.086069345 -0.026742734 0.40700001 4280175657
0.087605998 -0.026808441 0.40800002 4280044330
0.089149155 -0.026874147 0.40900001 4280175916
0.090477586 -0.026874147 0.40900001 4279912744
0.092030481 -0.026939856 0.41000003 4279979307
0.093362167 -0.026939856 0.41000003 4279650342
0.094924808 -0.027005563 0.41100001 4279779361
0.096259728 -0.027005563 0.41100001 4282015812
-0.0023529716 -0.023921361 0.38300002 4282076208
-0.0011031957 -0.023796445 0.38100001 4281682230
0.00013358794 -0.02367153 0.37900001 4281155886
0.0013609801 -0.023609072 0.37800002 4283260492
0.0025818762 -0.023546614 0.377 4283130191
0.0037962764 -0.023484156 0.37600002 4283985239
0.0050175255 -0.023484156 0.37600002 4281878827
0.0062387735 -0.023484156 0.37600002 4282862888
0.0074600223 -0.023484156 0.37600002 4283718192
0.0086812712 -0.023484156 0.37600002 4283257125
0.009928856 -0.023546614 0.377 4283454504
0.011153352 -0.023546614 0.377 4283454250
0.01237785 -0.023546614 0.377 4282533666
0.013638427 -0.023609072 0.37800002 4283590479
0.01904013 -0.02423365 0.38800001 4282867019
0.020248035 -0.024171194 0.38700002 4280628772
0.021505011 -0.024171194 0.38700002 4280824354
0.022703171 -0.024108734 0.38600001 4280692768
0.023894835 -0.024046278 0.38500002 4280758561
0.025145316 -0.024046278 0.38500002 4281219112
0.026190117 -0.023858905 0.38200003 4282207806
0.02750266 -0.023921361 0.38300002 4282867789
0.028746644 -0.023921361 0.38300002 4282802759
0.02999063 -0.023921361 0.38300002 4279909151
0.031234615 -0.023921361 0.38300002 4279320094
0.032478601 -0.023921361 0.38300002 4278861078
0.033722583 -0.023921361 0.38300002 4278664982
0.034966566 -0.023921361 0.38300002 4278665496
0.036210552 -0.023921361 0.38300002 4279060765
0.037454538 -0.023921361 0.38300002 4278995742
0.038698524 -0.023921361 0.38300002 4279193121
0.039942507 -0.023921361 0.38300002 4279258914
0.041294027 -0.023983818 0.384 4279062048
0.042541262 -0.023983818 0.384 4279127841
0.043788493 -0.023983818 0.384 4279193634
0.045153007 -0.024046278 0.38500002 4279193634
0.046403486 -0.024046278 0.38500002 4278667292
0.047777742 -0.024108734 0.38600001 4278996255
0.04903147 -0.024108734 0.38600001 4279258144
0.050415475 -0.024171194 0.38700002 4279915047
0.051672455 -0.024171194 0.38700002 4278595349
0.053066194 -0.02423365 0.38800001 4279387683
0.054326419 -0.02423365 0.38800001 4278660369
0.055729914 -0.024296109 0.38900003 4279710752
0.0571399 -0.024358567 0.39000002 4280566059
0.058556378 -0.024421025 0.39100003 4278196740
0.059979353 -0.024483481 0.39200002 4279315480
0.061408829 -0.02454594 0.39300001 4279973410
0.062844798 -0.024608398 0.39400002 4278657037
0.06412451 -0.024608398 0.39400002 4280631340
0.06557022 -0.024670856 0.39500001 4279052820
0.067022428 -0.024733314 0.39600003 4278197254
0.068308644 -0.024733314 0.39600003 4279649572
0.069770597 -0.024795771 0.39700001 4280044584
0.071060054 -0.024795771 0.39700001 4280106793
0.072531752 -0.024858231 0.39800003 4280698417
0.07400994 -0.024920687 0.39900002 4278198275
0.075494632 -0.024983143 0.40000001 4278198532
0.076985814 -0.025045604 0.40100002 4278267406
0.078483492 -0.02510806 0.40200001 4280306989
0.079987675 -0.02517052 0.40300003 4280438575
0.081498347 -0.025232976 0.40400001 4279649826
0.083015516 -0.025295435 0.40500003 4279584803
0.084539182 -0.025357893 0.40600002 4279913768
0.086069345 -0.025420349 0.40700001 4279913768
0.087605998 -0.025482807 0.40800002 4279913768
0.089149155 -0.025545266 0.40900001 4279716389
0.090477586 -0.025545266 0.40900001 4280570163
-0.0011089868 -0.022676956 0.38300002 4282470966
0.00013394043 -0.02249933 0.38000003 4281483819
0.0013609801 -0.022380913 0.37800002 4282010679
0.0025818762 -0.022321703 0.377 4283459408
0.0038063726 -0.022321703 0.377 4283328338
0.0050175255 -0.022262493 0.37600002 4280168727
0.0062387735 -0.022262493 0.37600002 4284245565
0.0074600223 -0.022262493 0.37600002 4283455277
0.0086812712 -0.022262493 0.37600002 4283521070
0.009928856 -0.022321703 0.377 4283455274
0.011153352 -0.022321703 0.377 4285429839
0.01237785 -0.022321703 0.377 4283917899
0.014287875 -0.02344667 0.39600003 4282736203
0.021616148 -0.023032209 0.38900003 4282340677
0.022820804 -0.022972999 0.38800001 4280101403
0.024018966 -0.022913791 0.38700002 4281021222
0.02527594 -0.022913791 0.38700002 4282271802
0.026601478 -0.022972999 0.38800001 4282800713
0.027646277 -0.022795374 0.38500002 4282801226
0.028821699 -0.022736164 0.384 4279513371
0.030068934 -0.022736164 0.384 4279581471
0.031316165 -0.022736164 0.384 4279254814
0.0325634 -0.022736164 0.384 4279124250
0.03381063 -0.022736164 0.384 4278533910
0.035057861 -0.022736164 0.384 4278863388
0.036305096 -0.022736164 0.384 4279126558
0.037552327 -0.022736164 0.384 4278929949
0.038799562 -0.022736164 0.384 4279193121
0.040046792 -0.022736164 0.384 4279325220
0.041294027 -0.022736164 0.384 4279127843
0.042652048 -0.022795374 0.38500002 4279062050
0.043902528 -0.022795374 0.38500002 4278996257
0.045153007 -0.022795374 0.38500002 4279062048
0.046524014 -0.022854581 0.38600001 4279127328
0.047777742 -0.022854581 0.38600001 4278995742
0.049158495 -0.022913791 0.38700002 4279126558
0.050415475 -0.022913791 0.38700002 4278796570
0.051672455 -0.022913791 0.38700002 4280044332
0.053066194 -0.022972999 0.38800001 4279453217
0.054466438 -0.023032209 0.38900003 4278198280
0.055873174 -0.023091417 0.39000002 4280302377
0.0571399 -0.023091417 0.39000002 4278591757
0.058556378 -0.023150627 0.39100003 4278789136
0.059979353 -0.023209834 0.39200002 4278919439
0.061408829 -0.023269042 0.39300001 4278918926
0.062844798 -0.023328252 0.39400002 4279115535
0.06412451 -0.023328252 0.39400002 4278853135
0.06557022 -0.02338746 0.39500001 4278984467
0.067022428 -0.02344667 0.39600003 4278591757
0.068308644 -0.02344667 0.39600003 4278199045
0.069770597 -0.023505878 0.39700001 4278267408
