# .PCD v0.7 - Point Cloud Data file format
VERSION 0.7
FIELDS x y z rgb
SIZE 4 4 4 4
TYPE F F F U
COUNT 1 1 1 1
WIDTH 1035
HEIGHT 1
VIEWPOINT 0 0 0 1 0 0 0
POINTS 1035
DATA ascii
-0.050082684 0.0084900139 0.33600003 4278929433
-0.048991356 0.0084900139 0.33600003 4278929949
-0.047757462 0.0084647452 0.33500001 4278600984
-0.046669386 0.0084647452 0.33500001 4278995996
-0.045445241 0.0084394775 0.33400002 4278930203
-0.044227589 0.0084142089 0.333 4278929951
-0.043016445 0.0083889421 0.33200002 4278798365
-0.041811787 0.0083636744 0.33100003 4279389732
-0.040613625 0.0083384058 0.33000001 4280112942
-0.050082684 0.0095817121 0.33600003 4278929179
-0.048991356 0.0095817121 0.33600003 4278732570
-0.047757462 0.009553195 0.33500001 4278732570
-0.046669386 0.009553195 0.33500001 4278732570
-0.045445241 0.0095246779 0.33400002 4278798363
-0.044227589 0.0094961608 0.333 4278732570
-0.043016445 0.0094676437 0.33200002 4278798363
-0.041685466 0.0094106095 0.33000001 4278996255
-0.040490557 0.0093820933 0.32900003 4279062048
-0.039182313 0.0093250591 0.32700002 4278995742
-0.038003642 0.009296542 0.32600001 4279193121
-0.036831465 0.0092680249 0.32500002 4280112940
-0.035775866 0.0092680249 0.32500002 4280572209
-0.034613431 0.0092395078 0.324 4280437545
-0.05102171 0.010641645 0.33500001 4278797084
-0.050082684 0.010673411 0.33600003 4278797084
-0.048845544 0.010641645 0.33500001 4278731802
-0.047757462 0.010641645 0.33500001 4278600986
-0.046530075 0.010609878 0.33400002 4278666779
-0.045445241 0.010609878 0.33400002 4278666779
-0.044227589 0.010578112 0.333 4278798365
-0.042886876 0.010514581 0.33100003 4278929951
-0.041685466 0.010482814 0.33000001 4278600984
-0.04036748 0.010419281 0.32800001 4278732570
-0.039062489 0.010355749 0.32600001 4278667290
-0.037887067 0.010323984 0.32500002 4278864669
-0.036831465 0.010323984 0.32500002 4278995742
-0.035665784 0.010292217 0.324 4278929949
-0.034613431 0.010292217 0.324 4279192351
-0.033561077 0.010292217 0.324 4279718184
-0.05102171 0.011730094 0.33500001 4278928156
-0.049933627 0.011730094 0.33500001 4278928156
-0.048845544 0.011730094 0.33500001 4278797084
-0.047614906 0.011695079 0.33400002 4278731291
-0.046530075 0.011695079 0.33400002 4278533910
-0.045309175 0.011660063 0.333 4278862875
-0.044094775 0.011625048 0.33200002 4278797595
-0.042886876 0.011590033 0.33100003 4278666009
-0.041559149 0.011520003 0.32900003 4278797595
-0.04036748 0.011484987 0.32800001 4278863388
-0.039062489 0.011414956 0.32600001 4278731802
-0.037887067 0.011379941 0.32500002 4278863388
-0.036831465 0.011379941 0.32500002 4278732572
-0.035665784 0.011344926 0.324 4278929949
-0.034613431 0.011344926 0.324 4278995742
-0.033561077 0.011344926 0.324 4279061535
-0.032408394 0.011309911 0.32300001 4278995744
-0.060082927 0.012895071 0.33700001 4279124763
-0.058988348 0.012895071 0.33700001 4279190556
-0.057893775 0.012895071 0.33700001 4279190556
-0.056630656 0.012856808 0.33600003 4279058968
-0.055539325 0.012856808 0.33600003 4278861076
-0.054448001 0.012856808 0.33600003 4279254553
-0.053197868 0.012818542 0.33500001 4278992664
-0.052109785 0.012818542 0.33500001 4279058970
-0.05102171 0.012818542 0.33500001 4278795800
-0.049933627 0.012818542 0.33500001 4278993179
-0.04869974 0.012780279 0.33400002 4278993947
-0.047614906 0.012780279 0.33400002 4278862359
-0.046390761 0.012742014 0.333 4278862359
-0.045309175 0.012742014 0.333 4278796566
-0.044094775 0.012703749 0.33200002 4278928154
-0.042757306 0.012627221 0.33000001 4278731289
-0.041559149 0.012588957 0.32900003 4278797082
-0.040244412 0.012512429 0.32700002 4278797082
-0.039062489 0.012474163 0.32600001 4278862875
-0.037887067 0.0124359 0.32500002 4278731802
-0.036831465 0.0124359 0.32500002 4278732572
-0.035665784 0.012397635 0.324 4278929951
-0.034613431 0.012397635 0.324 4278732570
-0.033457495 0.01235937 0.32300001 4278732570
-0.032408394 0.01235937 0.32300001 4278732570
-0.031359285 0.01235937 0.32300001 4279127330
-0.061177503 0.013990019 0.33700001 4279190556
-0.060082927 0.013990019 0.33700001 4279059740
-0.058988348 0.013990019 0.33700001 4279059740
-0.057721987 0.013948506 0.33600003 4278993947
-0.056630656 0.013948506 0.33600003 4278993947
-0.055539325 0.013948506 0.33600003 4278200839
-0.054448001 0.013948506 0.33600003 4278196997
-0.053197868 0.013906991 0.33500001 4279123480
-0.052109785 0.013906991 0.33500001 4278399759
-0.05102171 0.013906991 0.33500001 4278329099
-0.049784575 0.013865478 0.33400002 4278197510
-0.04869974 0.013865478 0.33400002 4279055638
-0.047472343 0.013823965 0.333 4279320346
-0.046251453 0.013782452 0.33200002 4278992664
-0.045173116 0.013782452 0.33200002 4278796568
-0.043961961 0.013740938 0.33100003 4278862361
-0.042757306 0.013699424 0.33000001 4278796568
-0.041432824 0.013616397 0.32800001 4278797082
-0.040244412 0.013574884 0.32700002 4278731289
-0.039062489 0.013533371 0.32600001 4278731287
-0.037887067 0.013491858 0.32500002 4278731287
-0.036718134 0.013450343 0.324 4278731800
-0.035665784 0.013450343 0.324 4278797593
-0.034613431 0.013450343 0.324 4278731800
-0.033457495 0.01340883 0.32300001 4278797593
-0.032408394 0.01340883 0.32300001 4278798363
-0.031359285 0.01340883 0.32300001 4278732570
-0.030310182 0.01340883 0.32300001 4278732572
-0.061177503 0.015084965 0.33700001 4279321631
-0.060082927 0.015084965 0.33700001 4278862363
-0.058988348 0.015084965 0.33700001 4278993947
-0.057721987 0.015040204 0.33600003 4278993947
-0.056630656 0.015040204 0.33600003 4278993177
-0.055539325 0.015040204 0.33600003 4280503084
-0.054285951 0.01499544 0.33500001 4279052820
-0.053197868 0.01499544 0.33500001 4279254301
-0.052109785 0.01499544 0.33500001 4278198273
-0.050869409 0.014950679 0.33400002 4278853133
-0.049784575 0.014950679 0.33400002 4278655756
-0.048553929 0.014905915 0.333 4278786572
-0.047329787 0.014861153 0.33200002 4278589963
-0.046251453 0.014861153 0.33200002 4278262792
-0.045037054 0.014816391 0.33100003 4278197511
-0.043829143 0.014771628 0.33000001 4278859543
-0.042627741 0.014726866 0.32900003 4279124252
-0.041432824 0.014682103 0.32800001 4278730007
-0.040121339 0.014592578 0.32600001 4278927384
-0.038942665 0.014547816 0.32500002 4279058968
-0.037887067 0.014547816 0.32500002 4278928152
-0.036718134 0.014503052 0.324 4278796566
-0.035665784 0.014503052 0.324 4278862359
-0.0345066 0.01445829 0.32300001 4278665494
-0.033457495 0.01445829 0.32300001 4278665494
-0.032408394 0.01445829 0.32300001 4278797593
-0.031359285 0.01445829 0.32300001 4278731800
-0.030216344 0.014413528 0.32200003 4279323937
-0.061177503 0.016179914 0.33700001 4279453730
-0.060082927 0.016179914 0.33700001 4279059742
-0.058988348 0.016179914 0.33700001 4278928156
-0.057721987 0.016131902 0.33600003 4278928156
-0.056630656 0.016131902 0.33600003 4279059740
-0.055539325 0.016131902 0.33600003 4280109094
-0.054285951 0.016083891 0.33500001 4278330634
-0.053197868 0.016083891 0.33500001 4279189275
-0.051954236 0.016035879 0.33400002 4278199044
-0.050869409 0.016035879 0.33400002 4278918926
-0.049635515 0.015987867 0.333 4278852365
-0.048408125 0.015939856 0.33200002 4278917390
-0.047329787 0.015939856 0.33200002 4278916877
-0.046112143 0.015891844 0.33100003 4278851597
-0.044900987 0.015843833 0.33000001 4278852111
-0.043696329 0.015795821 0.32900003 4278655756
-0.042498171 0.01574781 0.32800001 4278590476
-0.041306507 0.015699798 0.32700002 4278198537
-0.040121339 0.015651787 0.32600001 4279056154
-0.038942665 0.015603775 0.32500002 4278992664
-0.037887067 0.015603775 0.32500002 4278927382
-0.036718134 0.015555763 0.324 4278795796
-0.035665784 0.015555763 0.324 4278862359
-0.0345066 0.015507751 0.32300001 4278796568
-0.033457495 0.015507751 0.32300001 4278993947
-0.032308057 0.015459741 0.32200003 4278862361
-0.0312622 0.015459741 0.32200003 4278862361
-0.030216344 0.015459741 0.32200003 4278731289
-0.029079895 0.015411728 0.32100001 4278797082
-0.028037285 0.015411728 0.32100001 4278731802
-0.061177503 0.01727486 0.33700001 4279584803
-0.060082927 0.01727486 0.33700001 4278928156
-0.058988348 0.01727486 0.33700001 4278928156
-0.057721987 0.0172236 0.33600003 4278928154
-0.056630656 0.0172236 0.33600003 4278993947
-0.055539325 0.0172236 0.33600003 4280306473
-0.054285951 0.01717234 0.33500001 4278462220
-0.053197868 0.01717234 0.33500001 4279320348
-0.051954236 0.01712108 0.33400002 4278397708
-0.050717101 0.017069818 0.333 4279182098
-0.049635515 0.017069818 0.333 4278918928
-0.048408125 0.017018558 0.33200002 4280234788
-0.047187228 0.016967298 0.33100003 4279379479
-0.045972828 0.016916037 0.33000001 4278786318
-0.044764925 0.016864777 0.32900003 4278852111
-0.043563511 0.016813515 0.32800001 4278983697
-0.042368606 0.016762255 0.32700002 4278786318
-0.041180186 0.016710993 0.32600001 4278852113
-0.040121339 0.016710993 0.32600001 4278194694
-0.038942665 0.016659733 0.32500002 4278200072
-0.037770491 0.016608471 0.324 4278196992
-0.036718134 0.016608471 0.324 4278727187
-0.035555705 0.016557211 0.32300001 4278794263
-0.0345066 0.016557211 0.32300001 4278927386
-0.033353914 0.016505951 0.32200003 4278993179
-0.032308057 0.016505951 0.32200003 4279058970
-0.03116511 0.016454689 0.32100001 4278862361
-0.030122504 0.016454689 0.32100001 4278928668
-0.028989306 0.016403429 0.32000002 4278731289
-0.027949942 0.016403429 0.32000002 4278797082
-0.026826486 0.016352167 0.31900001 4278797595
-0.061177503 0.018369809 0.33700001 4279321629
-0.060082927 0.018369809 0.33700001 4278993949
-0.058813311 0.018315298 0.33600003 4278993949
-0.057721987 0.018315298 0.33600003 4278993947
-0.056630656 0.018315298 0.33600003 4278928154
-0.055539325 0.018315298 0.33600003 4280108326
-0.054285951 0.018260788 0.33500001 4278725392
-0.053197868 0.018260788 0.33500001 4279385371
-0.051954236 0.01820628 0.33400002 4278198531
-0.050717101 0.018151769 0.333 4278986002
-0.049486462 0.018097259 0.33200002 4279709725
-0.048262317 0.018042751 0.33100003 4278787853
-0.047044665 0.01798824 0.33000001 4279906334
-0.045833521 0.01793373 0.32900003 4278524683
-0.044764925 0.01793373 0.32900003 4280499239
-0.043563511 0.01787922 0.32800001 4278853135
-0.042368606 0.017824711 0.32700002 4278523146
-0.041180186 0.017770199 0.32600001 4278917390
-0.039998267 0.017715691 0.32500002 4278391560
-0.038942665 0.017715691 0.32500002 4279187992
-0.037770491 0.01766118 0.324 4279385371
-0.036604811 0.01760667 0.32300001 4279450396
-0.035555705 0.01760667 0.32300001 4278197762
-0.03439977 0.017552162 0.32200003 4278196481
-0.033353914 0.017552162 0.32200003 4278594322
-0.03220772 0.017497651 0.32100001 4279452445
-0.031068025 0.017443143 0.32000002 4278795285
-0.030028665 0.017443143 0.32000002 4278599189
-0.028898712 0.017388631 0.31900001 4278664982
-0.027862597 0.017388631 0.31900001 4278862361
-0.026826486 0.017388631 0.31900001 4278665496
-0.061177503 0.019464755 0.33700001 4279847201
-0.060082927 0.019464755 0.33700001 4279124761
-0.058813311 0.019406997 0.33600003 4279059740
-0.057721987 0.019406997 0.33600003 4278862361
-0.056630656 0.019406997 0.33600003 4278928154
-0.055539325 0.019406997 0.33600003 4278726675
-0.054285951 0.019349238 0.33500001 4278197511
-0.05303907 0.019291479 0.33400002 4279581982
-0.051954236 0.019291479 0.33400002 4278196992
-0.050717101 0.019233719 0.333 4278590476
-0.049486462 0.019175962 0.33200002 4278590474
-0.048262317 0.019118203 0.33100003 4279643930
-0.047044665 0.019060442 0.33000001 4279643930
-0.045833521 0.019002685 0.32900003 4278195716
-0.044628859 0.018944925 0.32800001 4278262277
-0.043430701 0.018887166 0.32700002 4278656269
-0.042239036 0.018829407 0.32600001 4278327302
-0.041180186 0.018829407 0.32600001 4280497960
-0.039998267 0.018771648 0.32500002 4278391560
-0.038822841 0.01871389 0.324 4279056922
-0.037770491 0.01871389 0.324 4279058459
-0.036604811 0.018656131 0.32300001 4279189275
-0.035445627 0.018598372 0.32200003 4279255068
-0.03439977 0.018598372 0.32200003 4279780129
-0.033250328 0.018540613 0.32100001 4279779361
-0.032107387 0.018482855 0.32000002 4278198279
-0.030970935 0.018425094 0.31900001 4278196738
-0.029934824 0.018425094 0.31900001 4278199818
-0.028808123 0.018367337 0.31800002 4279121947
-0.027687911 0.018309576 0.317 4278992412
-0.026406009 0.0181363 0.31400001 4278993179
-0.025305288 0.018078541 0.31300002 4278796568
-0.024211064 0.018020783 0.31200001 4278862361
-0.023197688 0.018020783 0.31200001 4278533910
-0.022113208 0.017963024 0.31100002 4278665496
-0.02110308 0.017963024 0.31100002 4278797082
-0.014848838 0.017731989 0.30700001 4279061535
-0.013851701 0.017731989 0.30700001 4279193121
-0.0097667733 0.017558713 0.30400002 4280309555
-0.0087793805 0.017558713 0.30400002 4281029694
-0.061177503 0.020559702 0.33700001 4279584029
-0.060082927 0.020559702 0.33700001 4279190554
-0.058813311 0.020498695 0.33600003 4279124761
-0.057721987 0.020498695 0.33600003 4278993175
-0.056630656 0.020498695 0.33600003 4279058968
-0.055374026 0.020437686 0.33500001 4278991129
-0.054285951 0.020437686 0.33500001 4279581984
-0.05303907 0.020376679 0.33400002 4279385371
-0.051798683 0.020315669 0.333 4278199045
-0.050564799 0.020254662 0.33200002 4278852365
-0.049337409 0.020193655 0.33100003 4278852111
-0.048116509 0.020132646 0.33000001 4278853135
-0.046902109 0.020071639 0.32900003 4278589963
-0.045833521 0.020071639 0.32900003 4278721549
-0.044628859 0.02001063 0.32800001 4278853135
-0.043430701 0.019949622 0.32700002 4278787853
-0.042239036 0.019888613 0.32600001 4279775516
-0.041053869 0.019827606 0.32500002 4278262279
-0.039998267 0.019827606 0.32500002 4278195718
-0.038822841 0.019766597 0.324 4278926103
-0.037653916 0.01970559 0.32300001 4278795800
-0.036604811 0.01970559 0.32300001 4278200331
-0.035445627 0.019644583 0.32200003 4278199307
-0.03429294 0.019583574 0.32100001 4278991896
-0.033146746 0.019522566 0.32000002 4279189275
-0.032107387 0.019522566 0.32000002 4278860310
-0.030970935 0.019461557 0.31900001 4279121945
-0.029840985 0.01940055 0.31800002 4279187224
-0.028717529 0.019339541 0.317 4278462990
-0.027600568 0.019278534 0.31600001 4278197255
-0.026406009 0.019156517 0.31400001 4278197769
-0.025305288 0.01909551 0.31300002 4278661394
-0.024211064 0.019034501 0.31200001 4278729492
-0.023123337 0.018973494 0.31100002 4278664982
-0.022113208 0.018973494 0.31100002 4278664982
-0.021035224 0.018912485 0.31 4278862361
-0.019963738 0.018851478 0.30900002 4278599189
-0.018960103 0.018851478 0.30900002 4278664980
-0.01789836 0.01879047 0.30800003 4278862359
-0.016897976 0.01879047 0.30800003 4278797080
-0.015897591 0.01879047 0.30800003 4278928666
-0.014848838 0.018729461 0.30700001 4278862873
-0.013851701 0.018729461 0.30700001 4278797593
-0.012812695 0.018668454 0.30600002 4278798363
-0.011818806 0.018668454 0.30600002 4278929949
-0.010789541 0.018607445 0.30500001 4279127330
-0.0097989002 0.018607445 0.30500001 4279390504
-0.0087793805 0.018546438 0.30400002 4278599964
-0.0077919881 0.018546438 0.30400002 4280046385
-0.0068045957 0.018546438 0.30400002 4280767803
-0.060082927 0.021654651 0.33700001 4279584029
-0.058813311 0.021590395 0.33600003 4279649822
-0.057721987 0.021590395 0.33600003 4279124248
-0.056630656 0.021590395 0.33600003 4279255834
-0.055374026 0.021526137 0.33500001 4278529808
-0.054285951 0.021526137 0.33500001 4278726673
-0.05303907 0.02146188 0.33400002 4279320346
-0.051798683 0.021397622 0.333 4279649311
-0.050564799 0.021333367 0.33200002 4278656267
-0.049337409 0.021269109 0.33100003 4279181330
-0.048116509 0.021204852 0.33000001 4278983183
-0.046902109 0.021140596 0.32900003 4278983183
-0.045694206 0.021076337 0.32800001 4278851599
-0.044492796 0.021012081 0.32700002 4278851597
-0.043297879 0.020947821 0.32600001 4278655756
-0.042239036 0.020947821 0.32600001 4279643932
-0.041053869 0.020883566 0.32500002 4280236067
-0.039875194 0.020819308 0.324 4278327302
-0.038822841 0.020819308 0.324 4279123228
-0.037653916 0.020755051 0.32300001 4278200842
-0.036491483 0.020690795 0.32200003 4278657037
-0.035335544 0.020626538 0.32100001 4278590476
-0.03429294 0.020626538 0.32100001 4279055127
-0.033146746 0.02056228 0.32000002 4278198532
-0.03200705 0.020498022 0.31900001 4278198532
-0.030873848 0.020433767 0.31800002 4279320094
-0.029747143 0.020369507 0.317 4278991642
-0.028626937 0.020305252 0.31600001 4279123228
-0.027513226 0.020240996 0.31500003 4279319324
-0.026406009 0.020176737 0.31400001 4279779875
-0.025305288 0.020112481 0.31300002 4279318299
-0.024211064 0.020048223 0.31200001 4278198020
-0.023123337 0.019983966 0.31100002 4278196480
-0.022113208 0.019983966 0.31100002 4278726162
-0.021035224 0.019919708 0.31 4279123482
-0.019963738 0.019855453 0.30900002 4279124250
-0.018960103 0.019855453 0.30900002 4278335247
-0.01789836 0.019791195 0.30800003 4278795798
-0.016897976 0.019791195 0.30800003 4278664980
-0.015845975 0.019726938 0.30700001 4278862359
-0.014848838 0.019726938 0.30700001 4278862359
-0.013851701 0.019726938 0.30700001 4278797080
-0.012812695 0.019662682 0.30600002 4278731800
-0.011818806 0.019662682 0.30600002 4278469398
-0.010789541 0.019598423 0.30500001 4278733083
-0.0097989002 0.019598423 0.30500001 4279062050
-0.0088082599 0.019598423 0.30500001 4280047151
-0.0077919881 0.019534167 0.30400002 4283796584
-0.0068045957 0.019534167 0.30400002 4279520041
-0.0058172029 0.019534167 0.30400002 4279256099
-0.00482981 0.019534167 0.30400002 4280502834
-0.060082927 0.022749599 0.33700001 4279649311
-0.058813311 0.022682093 0.33600003 4279780895
-0.057721987 0.022682093 0.33600003 4279584029
-0.056630656 0.022682093 0.33600003 4279452443
-0.055374026 0.022614585 0.33500001 4279452445
-0.054285951 0.022614585 0.33500001 4279122197
-0.05303907 0.022547081 0.33400002 4279386654
-0.051798683 0.022479573 0.333 4279255068
-0.050564799 0.022412067 0.33200002 4279452193
-0.049188349 0.022277055 0.33000001 4279385119
-0.047970701 0.022209549 0.32900003 4279183379
-0.046759546 0.022142041 0.32800001 4278853135
-0.045554895 0.022074537 0.32700002 4279049490
-0.044492796 0.022074537 0.32700002 4278983697
-0.043297879 0.02200703 0.32600001 4278983183
-0.042109471 0.021939524 0.32500002 4278786318
-0.041053869 0.021939524 0.32500002 4278853135
-0.039875194 0.021872018 0.324 4278195461
-0.038703017 0.021804512 0.32300001 4279056922
-0.037653916 0.021804512 0.32300001 4278199044
-0.036491483 0.021737006 0.32200003 4278983949
-0.035335544 0.021669498 0.32100001 4279115537
-0.03418611 0.021601994 0.32000002 4279447580
-0.033043161 0.021534486 0.31900001 4279713057
-0.03200705 0.021534486 0.31900001 4279319326
-0.030873848 0.02146698 0.31800002 4278265870
-0.029747143 0.021399474 0.317 4278529810
-0.028626937 0.021331968 0.31600001 4278197248
-0.027513226 0.021264462 0.31500003 4279254301
-0.026406009 0.021196956 0.31400001 4279056922
-0.025305288 0.02112945 0.31300002 4279188508
-0.024211064 0.021061942 0.31200001 4279320094
-0.023123337 0.020994438 0.31100002 4279319324
-0.022113208 0.020994438 0.31100002 4279121433
-0.021035224 0.02092693 0.31 4278197253
-0.019963738 0.020859424 0.30900002 4278195712
-0.018960103 0.020859424 0.30900002 4278198020
-0.01789836 0.020791918 0.30800003 4279318810
-0.016897976 0.020791918 0.30800003 4279058457
-0.015845975 0.020724412 0.30700001 4278861076
-0.014848838 0.020724412 0.30700001 4278795796
-0.013851701 0.020724412 0.30700001 4278796566
-0.012812695 0.020656906 0.30600002 4278731289
-0.011818806 0.020656906 0.30600002 4278797082
-0.010789541 0.020589398 0.30500001 4278731802
-0.0097989002 0.020589398 0.30500001 4278600986
-0.0088082599 0.020589398 0.30500001 4278665757
-0.0077919881 0.020521894 0.30400002 4285440387
-0.0068045957 0.020521894 0.30400002 4279322662
-0.0058172029 0.020521894 0.30400002 4278927904
-0.00482981 0.020521894 0.30400002 4279518758
-0.0038424178 0.020521894 0.30400002 4281094971
-0.056630656 0.023773791 0.33600003 4279584029
-0.055374026 0.023703035 0.33500001 4279584031
-0.054285951 0.023703035 0.33500001 4279649824
-0.052880269 0.023561524 0.333 4279715617
-0.051643133 0.02349077 0.33200002 4279452445
-0.050412498 0.023420015 0.33100003 4279452447
-0.049188349 0.023349259 0.33000001 4279584033
-0.047970701 0.023278505 0.32900003 4279452447
-0.046759546 0.023207746 0.32800001 4279451934
-0.045554895 0.023136992 0.32700002 4280107815
-0.04435673 0.023066236 0.32600001 4278856213
-0.043165069 0.022995481 0.32500002 4278655756
-0.042109471 0.022995481 0.32500002 4278852881
-0.040927548 0.022924725 0.324 4278983697
-0.039875194 0.022924725 0.324 4278589963
-0.038703017 0.022853971 0.32300001 4279188508
-0.03753734 0.022783216 0.32200003 4278991129
-0.036491483 0.022783216 0.32200003 4278918926
-0.035335544 0.02271246 0.32100001 4278852365
-0.03418611 0.022641705 0.32000002 4279710238
-0.033043161 0.022570949 0.31900001 4279252252
-0.031906717 0.022500195 0.31800002 4279187740
-0.030873848 0.022500195 0.31800002 4278199820
-0.029747143 0.022429438 0.317 4278791701
-0.028626937 0.022358684 0.31600001 4279450398
-0.027513226 0.022287929 0.31500003 4278198275
-0.026406009 0.022217173 0.31400001 4279188510
-0.025305288 0.022146419 0.31300002 4279058205
-0.024211064 0.022075662 0.31200001 4278992666
-0.023123337 0.022004908 0.31100002 4278795800
-0.022042103 0.021934152 0.31 4278993179
-0.021035224 0.021934152 0.31 4279386654
-0.019963738 0.021863397 0.30900002 4279254555
-0.018898744 0.021792643 0.30800003 4279647777
-0.01789836 0.021792643 0.30800003 4278396943
-0.016897976 0.021792643 0.30800003 4278197254
-0.015845975 0.021721886 0.30700001 4278197766
-0.014848838 0.021721886 0.30700001 4278596371
-0.013851701 0.021721886 0.30700001 4278730007
-0.012812695 0.021651132 0.30600002 4278796570
-0.011818806 0.021651132 0.30600002 4278533912
-0.010789541 0.021580374 0.30500001 4278731289
-0.0097989002 0.021580374 0.30500001 4278731802
-0.0087793805 0.021509619 0.30400002 4279060767
-0.0077919881 0.021509619 0.30400002 4279192355
-0.0068045957 0.021509619 0.30400002 4278928416
-0.0058172029 0.021509619 0.30400002 4278796830
-0.00482981 0.021509619 0.30400002 4278795546
-0.0038424178 0.021509619 0.30400002 4279320096
-0.052880269 0.024643475 0.333 4279452443
-0.051643133 0.02456947 0.33200002 4279453213
-0.050260194 0.024421461 0.33000001 4279519008
-0.049039297 0.024347458 0.32900003 4279453730
-0.047824893 0.024273453 0.32800001 4279256351
-0.04661699 0.024199449 0.32700002 4279190558
-0.04541558 0.024125444 0.32600001 4279190558
-0.044220671 0.024051441 0.32500002 4279124765
-0.043165069 0.024051441 0.32500002 4279320607
-0.041979901 0.023977434 0.324 4279780647
-0.040927548 0.023977434 0.324 4279184408
-0.039752126 0.023903431 0.32300001 4278526478
-0.038583197 0.023829427 0.32200003 4278198789
-0.03753734 0.023829427 0.32200003 4279121433
-0.036378153 0.023755422 0.32100001 4278987797
-0.03522547 0.023681419 0.32000002 4279249685
-0.03418611 0.023681419 0.32000002 4279647264
-0.033043161 0.023607412 0.31900001 4278726675
-0.031906717 0.023533409 0.31800002 4278396943
-0.03077676 0.023459403 0.317 4278660115
-0.029747143 0.023459403 0.317 4278331917
-0.028626937 0.0233854 0.31600001 4279056922
-0.027513226 0.023311397 0.31500003 4278595603
-0.026406009 0.02323739 0.31400001 4279318558
-0.025305288 0.023163388 0.31300002 4279647777
-0.024211064 0.023089381 0.31200001 4278333199
-0.023123337 0.023015378 0.31100002 4278334995
-0.022113208 0.023015378 0.31100002 4278992925
-0.021035224 0.022941373 0.31 4278992412
-0.019963738 0.022867369 0.30900002 4278992412
-0.018898744 0.022793366 0.30800003 4279058205
-0.01789836 0.022793366 0.30800003 4278992412
-0.016897976 0.022793366 0.30800003 4279123228
-0.015845975 0.022719359 0.30700001 4279188508
-0.014848838 0.022719359 0.30700001 4278527759
-0.013851701 0.022719359 0.30700001 4279187738
-0.012812695 0.022645356 0.30600002 4278664984
-0.011818806 0.022645356 0.30600002 4278664984
-0.010789541 0.022571351 0.30500001 4278664984
-0.0097989002 0.022571351 0.30500001 4278664982
-0.0087793805 0.022497347 0.30400002 4278467603
-0.0077919881 0.022497347 0.30400002 4278796568
-0.0068045957 0.022497347 0.30400002 4278468117
-0.0058172029 0.022497347 0.30400002 4278731289
-0.00482981 0.022497347 0.30400002 4278467605
-0.0038424178 0.022497347 0.30400002 4278399505
-0.050260194 0.025493665 0.33000001 4279123482
-0.048890237 0.025339158 0.32800001 4279386654
-0.047679085 0.025261905 0.32700002 4279321631
-0.046474427 0.02518465 0.32600001 4279321631
-0.045276273 0.025107399 0.32500002 4279256351
-0.044220671 0.025107399 0.32500002 4279256351
-0.043032251 0.025030144 0.324 4279256351
-0.041979901 0.025030144 0.324 4279190558
-0.040801227 0.02495289 0.32300001 4279190045
-0.039752126 0.02495289 0.32300001 4279189791
-0.038583197 0.024875637 0.32200003 4279517473
-0.037420765 0.024798384 0.32100001 4278397710
-0.036378153 0.024798384 0.32100001 4278197767
-0.03522547 0.024721131 0.32000002 4278329869
-0.034079276 0.024643876 0.31900001 4279384092
-0.033043161 0.024643876 0.31900001 4279581982
-0.031906717 0.024566622 0.31800002 4279254301
-0.03077676 0.024489369 0.317 4279056922
-0.029653305 0.024412116 0.31600001 4278925336
-0.028626937 0.024412116 0.31600001 4278199301
-0.027513226 0.024334863 0.31500003 4278199046
-0.026406009 0.024257608 0.31400001 4279318812
-0.025305288 0.024180356 0.31300002 4278593554
-0.024211064 0.024103101 0.31200001 4278658834
-0.023123337 0.024025848 0.31100002 4278199307
-0.022113208 0.024025848 0.31100002 4278198022
-0.021035224 0.023948593 0.31 4278199049
-0.019963738 0.023871342 0.30900002 4278990877
-0.018898744 0.023794089 0.30800003 4279058205
-0.01789836 0.023794089 0.30800003 4279058718
-0.016897976 0.023794089 0.30800003 4278795546
-0.015845975 0.023716833 0.30700001 4278795546
-0.014848838 0.023716833 0.30700001 4279318299
-0.013851701 0.023716833 0.30700001 4279516191
-0.012812695 0.023639582 0.30600002 4278993179
-0.011818806 0.023639582 0.30600002 4278927386
-0.010789541 0.023562327 0.30500001 4278795800
-0.0097989002 0.023562327 0.30500001 4278927386
-0.0087793805 0.023485074 0.30400002 4278730005
-0.0077919881 0.023485074 0.30400002 4278795798
-0.0068045957 0.023485074 0.30400002 4278533396
-0.0058172029 0.023485074 0.30400002 4278533396
-0.0048139226 0.023407819 0.303 4278598419
-0.0038297782 0.023407819 0.303 4278728211
-0.0028456338 0.023407819 0.303 4279908133
-0.048890237 0.026404863 0.32800001 4279449365
-0.047533277 0.026243858 0.32600001 4278858511
-0.046331868 0.026163356 0.32500002 4279386141
-0.045276273 0.026163356 0.32500002 4279124765
-0.044084605 0.026082853 0.324 4279190556
-0.043032251 0.026082853 0.324 4279190556
-0.041850336 0.026002351 0.32300001 4279255834
-0.04067491 0.02592185 0.32200003 4279321627
-0.039629053 0.02592185 0.32200003 4279190043
-0.038463373 0.025841344 0.32100001 4279124250
-0.037420765 0.025841344 0.32100001 4279190045
-0.036264826 0.025760842 0.32000002 4279320607
-0.035115387 0.025680339 0.31900001 4279188508
-0.034079276 0.025680339 0.31900001 4279317529
-0.032939579 0.025599837 0.31800002 4278197766
-0.031906717 0.025599837 0.31800002 4278195968
-0.03077676 0.025519334 0.317 4279186711
-0.029653305 0.025438832 0.31600001 4279385887
-0.028626937 0.025438832 0.31600001 4279254301
-0.027513226 0.02535833 0.31500003 4279254301
-0.026406009 0.025277827 0.31400001 4279385887
-0.025305288 0.025197325 0.31300002 4278924568
-0.024211064 0.025116822 0.31200001 4278462990
-0.023123337 0.02503632 0.31100002 4280304170
-0.022113208 0.02503632 0.31100002 4278198790
-0.021035224 0.024955815 0.31 4280043049
-0.019963738 0.024875313 0.30900002 4278199820
-0.018960103 0.024875313 0.30900002 4278198536
-0.01789836 0.024794811 0.30800003 4278397197
-0.016897976 0.024794811 0.30800003 4279058459
-0.015845975 0.024714308 0.30700001 4278730007
-0.014848838 0.024714308 0.30700001 4278858007
-0.013851701 0.024714308 0.30700001 4279582244
-0.012812695 0.024633806 0.30600002 4278992414
-0.011818806 0.024633806 0.30600002 4278992412
-0.010789541 0.024553303 0.30500001 4278993179
-0.0097989002 0.024553303 0.30500001 4278664214
-0.0087793805 0.024472801 0.30400002 4278795800
-0.0077919881 0.024472801 0.30400002 4278335247
-0.0068045957 0.024472801 0.30400002 4278927384
-0.005798067 0.024392297 0.303 4278335247
-0.0048139226 0.024392297 0.303 4278662929
-0.0038297782 0.024392297 0.303 4278595855
-0.0028456338 0.024392297 0.303 4279710752
-0.047533277 0.027303064 0.32600001 4278985223
-0.046331868 0.027219314 0.32500002 4280500258
-0.045136958 0.02713556 0.324 4279055892
-0.044084605 0.02713556 0.324 4278399244
-0.042899437 0.02705181 0.32300001 4279189273
-0.04172077 0.02696806 0.32200003 4279452443
-0.04067491 0.02696806 0.32200003 4279321627
-0.039505981 0.026884306 0.32100001 4279453213
-0.038463373 0.026884306 0.32100001 4279255836
-0.037304189 0.026800556 0.32000002 4279255838
-0.036264826 0.026800556 0.32000002 4279321631
-0.035115387 0.026716802 0.31900001 4279255838
-0.033972446 0.026633052 0.31800002 4279124252
-0.032939579 0.026633052 0.31800002 4279254814
-0.031806376 0.026549298 0.317 4279385117
-0.03077676 0.026549298 0.317 4279252506
-0.029653305 0.026465548 0.31600001 4278198024
-0.028536348 0.026381798 0.31500003 4278197252
-0.027513226 0.026381798 0.31500003 4278661396
-0.026406009 0.026298044 0.31400001 4279254303
-0.025305288 0.026214294 0.31300002 4279386400
-0.024211064 0.02613054 0.31200001 4279386400
-0.023123337 0.02604679 0.31100002 4279056922
-0.022113208 0.02604679 0.31100002 4278858259
-0.021035224 0.025963036 0.31 4278198533
-0.019963738 0.025879286 0.30900002 4279120666
-0.018960103 0.025879286 0.30900002 4278198025
-0.01789836 0.025795536 0.30800003 4278593552
-0.016897976 0.025795536 0.30800003 4278727189
-0.015845975 0.025711782 0.30700001 4279123482
-0.014848838 0.025711782 0.30700001 4278660880
-0.013851701 0.025711782 0.30700001 4278990361
-0.012812695 0.025628032 0.30600002 4278992414
-0.011818806 0.025628032 0.30600002 4278860826
-0.010789541 0.025544278 0.30500001 4278795800
-0.0097989002 0.025544278 0.30500001 4278795798
-0.0087793805 0.025460528 0.30400002 4278927384
-0.0077919881 0.025460528 0.30400002 4278532626
-0.0067822118 0.025376774 0.303 4278269454
-0.005798067 0.025376774 0.303 4278400527
-0.0048139226 0.025376774 0.303 4278530832
-0.0038297782 0.025376774 0.303 4278529808
-0.0028456338 0.025376774 0.303 4279513375
-0.046189308 0.02818827 0.324 4279311369
-0.045136958 0.02818827 0.324 4279246859
-0.043948542 0.028101269 0.32300001 4278524931
-0.042899437 0.028101269 0.32300001 4279712026
-0.04172077 0.028014271 0.32200003 4279318551
-0.04067491 0.028014271 0.32200003 4279319576
-0.039505981 0.027927268 0.32100001 4279320857
-0.038343549 0.027840268 0.32000002 4279124248
-0.037304189 0.027840268 0.32000002 4279124248
-0.036151499 0.027753266 0.31900001 4279255834
-0.035115387 0.027753266 0.31900001 4279255834
-0.033972446 0.027666267 0.31800002 4279453215
-0.032939579 0.027666267 0.31800002 4279190045
-0.031806376 0.027579265 0.317 4279321631
-0.030679673 0.027492264 0.31600001 4279124252
-0.029653305 0.027492264 0.31600001 4279320607
-0.028536348 0.027405264 0.31500003 4279452193
-0.027513226 0.027405264 0.31500003 4279450144
-0.026406009 0.027318262 0.31400001 4278198021
-0.025305288 0.027231263 0.31300002 4278196481
-0.024211064 0.027144261 0.31200001 4278923287
-0.023123337 0.02705726 0.31100002 4279254303
-0.022113208 0.02705726 0.31100002 4279123228
-0.021035224 0.026970258 0.31 4278991896
-0.019963738 0.026883258 0.30900002 4279123482
-0.018960103 0.026883258 0.30900002 4278595089
-0.01789836 0.026796259 0.30800003 4278198793
-0.016897976 0.026796259 0.30800003 4278726675
-0.015845975 0.026709257 0.30700001 4279189275
-0.014848838 0.026709257 0.30700001 4278265609
-0.013851701 0.026709257 0.30700001 4279318812
-0.012812695 0.026622256 0.30600002 4278795548
-0.011818806 0.026622256 0.30600002 4278927132
-0.010789541 0.026535254 0.30500001 4278663960
-0.0097989002 0.026535254 0.30500001 4278927386
-0.0087793805 0.026448255 0.30400002 4278795798
-0.0077919881 0.026448255 0.30400002 4278664212
-0.0067822118 0.026361253 0.303 4278335247
-0.005798067 0.026361253 0.303 4278400527
-0.0048139226 0.026361253 0.303 4278794002
-0.0038297782 0.026361253 0.303 4278595855
-0.0028456338 0.026361253 0.303 4280104998
-0.046189308 0.029240981 0.324 4279442188
-0.044997647 0.029150732 0.32300001 4279442188
-0.043948542 0.029150732 0.32300001 4279442188
-0.042766623 0.029060483 0.32200003 4279376908
-0.04172077 0.029060483 0.32200003 4278917640
-0.040548589 0.028970232 0.32100001 4278986252
-0.039505981 0.028970232 0.32100001 4280171553
-0.038343549 0.028879983 0.32000002 4279780129
-0.037187614 0.028789731 0.31900001 4279320348
-0.036151499 0.028789731 0.31900001 4279189275
-0.035005309 0.028699484 0.31800002 4279124252
-0.033972446 0.028699484 0.31800002 4279190043
-0.032835994 0.028609231 0.317 4279321629
-0.031806376 0.028609231 0.317 4279321629
-0.030679673 0.028518982 0.31600001 4279124250
-0.029653305 0.028518982 0.31600001 4279190558
-0.028536348 0.028428733 0.31500003 4279124511
-0.027425881 0.028338483 0.31400001 4279124511
-0.026406009 0.028338483 0.31400001 4279255584
-0.025305288 0.028248234 0.31300002 4279649059
-0.024211064 0.028157983 0.31200001 4279319326
-0.023123337 0.028067734 0.31100002 4278198793
-0.022113208 0.028067734 0.31100002 4278198536
-0.021035224 0.027977481 0.31 4278397456
-0.019963738 0.027887233 0.30900002 4279187740
-0.018960103 0.027887233 0.30900002 4279254301
-0.01789836 0.027796984 0.30800003 4278991129
-0.016897976 0.027796984 0.30800003 4279320348
-0.015897591 0.027796984 0.30800003 4279123482
-0.014848838 0.027706733 0.30700001 4278197760
-0.013851701 0.027706733 0.30700001 4279384092
-0.012812695 0.027616484 0.30600002 4278927132
-0.011818806 0.027616484 0.30600002 4278795546
-0.010789541 0.027526233 0.30500001 4278729753
-0.0097989002 0.027526233 0.30500001 4278795800
-0.0087793805 0.027435984 0.30400002 4278927386
-0.0077919881 0.027435984 0.30400002 4278664214
-0.0067822118 0.027345732 0.303 4278598421
-0.005798067 0.027345732 0.303 4278532115
-0.0048139226 0.027345732 0.303 4278728724
-0.0038297782 0.027345732 0.303 4278728211
-0.0028456338 0.027345732 0.303 4280104994
-0.042766623 0.030106694 0.32200003 4279507211
-0.04172077 0.030106694 0.32200003 4279507211
-0.040548589 0.030013194 0.32100001 4279376395
-0.039382912 0.029919695 0.32000002 4279376908
-0.038343549 0.029919695 0.32000002 4278786820
-0.037187614 0.029826194 0.31900001 4278853896
-0.036151499 0.029826194 0.31900001 4279448854
-0.035005309 0.029732697 0.31800002 4279713309
-0.033972446 0.029732697 0.31800002 4279386141
-0.032835994 0.029639196 0.317 4279451934
-0.031806376 0.029639196 0.317 4279452445
-0.030679673 0.029545698 0.31600001 4279255836
-0.029653305 0.029545698 0.31600001 4279190558
-0.028536348 0.029452201 0.31500003 4279453476
-0.027425881 0.0293587 0.31400001 4279124511
-0.026406009 0.0293587 0.31400001 4279124511
-0.025305288 0.029265203 0.31300002 4279058718
-0.024211064 0.029171702 0.31200001 4279124511
-0.023123337 0.029078204 0.31100002 4278992412
-0.022113208 0.029078204 0.31100002 4279320607
-0.021035224 0.028984703 0.31 4279648289
-0.019963738 0.028891206 0.30900002 4278199561
-0.018960103 0.028891206 0.30900002 4278263304
-0.01789836 0.028797708 0.30800003 4278790418
-0.016897976 0.028797708 0.30800003 4278990099
-0.015897591 0.028797708 0.30800003 4279255066
-0.014848838 0.028704207 0.30700001 4278396427
-0.013851701 0.028704207 0.30700001 4279647264
-0.012812695 0.02861071 0.30600002 4278927132
-0.011818806 0.02861071 0.30600002 4278796316
-0.010789541 0.028517209 0.30500001 4278796316
-0.0097989002 0.028517209 0.30500001 4278664730
-0.0087793805 0.02842371 0.30400002 4278533398
-0.0077919881 0.02842371 0.30400002 4278401812
-0.0067822118 0.028330211 0.303 4278335249
-0.005798067 0.028330211 0.303 4278334736
-0.0048139226 0.028330211 0.303 4278729492
-0.0038297782 0.028330211 0.303 4278532113
-0.0028456338 0.028330211 0.303 4280171301
-0.042766623 0.031152904 0.32200003 4279573004
-0.04172077 0.031152904 0.32200003 4279573004
-0.040548589 0.031056155 0.32100001 4279573004
-0.039382912 0.030959409 0.32000002 4279573004
-0.038343549 0.030959409 0.32000002 4279376649
-0.037187614 0.030862659 0.31900001 4279245063
-0.036151499 0.030862659 0.31900001 4279311369
-0.035005309 0.030765912 0.31800002 4279377930
-0.033972446 0.030765912 0.31800002 4279184144
-0.032835994 0.030669162 0.317 4279975457
-0.031806376 0.030669162 0.317 4279910947
-0.030679673 0.030572414 0.31600001 4279779361
-0.029653305 0.030572414 0.31600001 4279715365
-0.028536348 0.030475669 0.31500003 4279518756
-0.027425881 0.030378917 0.31400001 4279518756
-0.026406009 0.030378917 0.31400001 4279452963
-0.025305288 0.030282171 0.31300002 4279256097
-0.024211064 0.030185422 0.31200001 4279256097
-0.023123337 0.030088674 0.31100002 4279124511
-0.022113208 0.030088674 0.31100002 4278992925
-0.021035224 0.029991925 0.31 4279124511
-0.019963738 0.029895177 0.30900002 4279321377
-0.018960103 0.029895177 0.30900002 4279385117
-0.017956471 0.029895177 0.30900002 4279581471
-0.016897976 0.029798431 0.30800003 4278330634
-0.015897591 0.029798431 0.30800003 4278196482
-0.014848838 0.029701682 0.30700001 4278197766
-0.013851701 0.029701682 0.30700001 4279319326
-0.012854566 0.029701682 0.30700001 4278992412
-0.011818806 0.029604934 0.30600002 4278795546
-0.010789541 0.029508185 0.30500001 4278795546
-0.0097989002 0.029508185 0.30500001 4278795546
-0.0087793805 0.029411437 0.30400002 4278664730
-0.0077919881 0.029411437 0.30400002 4278467351
-0.0068045957 0.029411437 0.30400002 4278532374
-0.005798067 0.029314687 0.303 4278400529
-0.0048139226 0.029314687 0.303 4279058459
-0.0038297782 0.029314687 0.303 4278728724
-0.0028456338 0.029314687 0.303 4282407749
-0.037187614 0.031899121 0.31900001 4279573004
-0.036038171 0.031799126 0.31800002 4279639567
-0.035005309 0.031799126 0.31800002 4279705360
-0.033972446 0.031799126 0.31800002 4280496672
-0.032835994 0.031699128 0.317 4280892714
-0.031806376 0.031699128 0.317 4283196236
-0.030679673 0.03159913 0.31600001 4284973676
-0.029653305 0.03159913 0.31600001 4281554241
-0.028536348 0.031499136 0.31500003 4279581221
-0.027425881 0.031399135 0.31400001 4279911213
-0.026406009 0.031399135 0.31400001 4279780395
-0.025305288 0.03129914 0.31300002 4279781160
-0.024211064 0.03119914 0.31200001 4279584551
-0.023123337 0.031099144 0.31100002 4279452963
-0.022113208 0.031099144 0.31100002 4279518756
-0.021035224 0.030999146 0.31 4279190304
-0.019963738 0.03089915 0.30900002 4279387683
-0.018960103 0.03089915 0.30900002 4279124511
-0.017956471 0.03089915 0.30900002 4279190304
-0.016897976 0.030799154 0.30800003 4279321377
-0.015897591 0.030799154 0.30800003 4279254814
-0.014897207 0.030799154 0.30800003 4279188510
-0.013851701 0.030699154 0.30700001 4279321379
-0.012854566 0.030699154 0.30700001 4279124511
-0.011818806 0.03059916 0.30600002 4278927132
-0.010824917 0.03059916 0.30600002 4278992925
-0.0097989002 0.03049916 0.30500001 4278927132
-0.0088082599 0.03049916 0.30500001 4278598937
-0.0077919881 0.030399164 0.30400002 4278598937
-0.0068045957 0.030399164 0.30400002 4278532374
-0.0058172029 0.030399164 0.30400002 4278334482
-0.00482981 0.030399164 0.30400002 4278991642
-0.0038297782 0.030299166 0.303 4278464015
-0.0028456338 0.030299166 0.303 4284249957
-0.036038171 0.032832339 0.31800002 4279244813
-0.035005309 0.032832339 0.31800002 4279376912
-0.033972446 0.032832339 0.31800002 4280561702
-0.032835994 0.032729093 0.317 4281023020
-0.031806376 0.032729093 0.317 4280761391
-0.03077676 0.032729093 0.317 4285170807
-0.029747143 0.032729093 0.317 4285105526
-0.028717529 0.032729093 0.317 4285697917
-0.027687911 0.032729093 0.317 4285566847
-0.026658295 0.032729093 0.317 4285040505
-0.025628677 0.032729093 0.317 4281685575
-0.024599062 0.032729093 0.317 4279844393
-0.023569446 0.032729093 0.317 4279778596
-0.022539828 0.032729093 0.317 4280239660
-0.021035224 0.032006368 0.31 4279846186
-0.019963738 0.031903122 0.30900002 4279715367
-0.018960103 0.031903122 0.30900002 4279650344
-0.017956471 0.031903122 0.30900002 4279255586
-0.016897976 0.031799879 0.30800003 4279189793
-0.015897591 0.031799879 0.30800003 4279255586
-0.014897207 0.031799879 0.30800003 4279190306
-0.013851701 0.031696629 0.30700001 4278993697
-0.012854566 0.031696629 0.30700001 4278927902
-0.011818806 0.031593386 0.30600002 4278927902
-0.010824917 0.031593386 0.30600002 4278927902
-0.0097989002 0.031490136 0.30500001 4278664730
-0.0088082599 0.031490136 0.30500001 4278664730
-0.0078176195 0.031490136 0.30500001 4278663960
-0.0068045957 0.03138689 0.30400002 4278597654
-0.0058172029 0.03138689 0.30400002 4278662677
-0.00482981 0.03138689 0.30400002 4278727959
-0.0038424178 0.03138689 0.30400002 4278660115
-0.0028456338 0.031283643 0.303 4285631610
-0.018960103 0.032907095 0.30900002 4279647527
-0.017956471 0.032907095 0.30900002 4279977004
-0.016897976 0.0328006 0.30800003 4279649320
-0.015897591 0.0328006 0.30800003 4279715883
-0.014897207 0.0328006 0.30800003 4279519271
-0.013851701 0.032694105 0.30700001 4279190306
-0.012854566 0.032694105 0.30700001 4279124513
-0.011818806 0.03258761 0.30600002 4278992927
-0.010824917 0.03258761 0.30600002 4278993695
-0.0098310281 0.03258761 0.30600002 4278927902
-0.0088082599 0.032481112 0.30500001 4279058718
-0.0078176195 0.032481112 0.30500001 4278927132
-0.0068269791 0.032481112 0.30500001 4278729240
-0.0058172029 0.032374617 0.30400002 4278925851
-0.00482981 0.032374617 0.30400002 4278858521
-0.0038424178 0.032374617 0.30400002 4279382559
-0.011857429 0.033691578 0.30700001 4279780393
-0.010824917 0.033581834 0.30600002 4279321125
-0.0098310281 0.033581834 0.30600002 4279190052
-0.0088371402 0.033581834 0.30600002 4279124513
-0.0078176195 0.033472087 0.30500001 4279189793
-0.0068269791 0.033472087 0.30500001 4279386402
-0.0058363383 0.033472087 0.30500001 4279056154
-0.0048456974 0.033472087 0.30500001 4279250971
-0.0038424178 0.033362344 0.30400002 4284184678
-0.011857429 0.03468905 0.30700001 4281356862
-0.010824917 0.034576058 0.30600002 4279450662
-0.0098310281 0.034576058 0.30600002 4279056674
-0.0088371402 0.034576058 0.30600002 4279516451
-0.0078432513 0.034576058 0.30600002 4279779623
-0.0068269791 0.034463063 0.30500001 4279383838
-0.0058363383 0.034463063 0.30500001 4279974694
-0.0048456974 0.034463063 0.30500001 4283658080
-0.010860292 0.035686526 0.30700001 4285435261
-0.0098310281 0.035570286 0.30600002 4285566847
-0.0088371402 0.035570286 0.30600002 4285435261
-0.0078432513 0.035570286 0.30600002 4285039733
-0.006849363 0.035570286 0.30600002 4285631870
-0.0058554742 0.035570286 0.30600002 4285500284
-0.0088371402 0.03656451 0.30600002 4285434491
-0.0078432513 0.03656451 0.30600002 4285237112
-0.03045604 0.022575649 0.31829521 4294967295
-0.03045604 0.022575649 0.31829521 4294901760
-0.03045604 0.022575649 0.3187952 4294901760
-0.03045604 0.022575649 0.3192952 4294901760
-0.03045604 0.022575649 0.31979522 4294901760
-0.03045604 0.022575649 0.32029521 4294901760
-0.03045604 0.022575649 0.32079521 4294901760
-0.03045604 0.022575649 0.3212952 4294901760
-0.03045604 0.022575649 0.32179523 4294901760
-0.03045604 0.022575649 0.32229522 4294901760
-0.03045604 0.022575649 0.32279521 4294901760
-0.03045604 0.022575649 0.32329521 4294901760
-0.03045604 0.022575649 0.3237952 4294901760
-0.03045604 0.022575649 0.32429522 4294901760
-0.03045604 0.022575649 0.32479522 4294901760
-0.03045604 0.022575649 0.32529521 4294901760
-0.03045604 0.022575649 0.3257952 4294901760
-0.03045604 0.022575649 0.3262952 4294901760
-0.03045604 0.022575649 0.32679522 4294901760
-0.03045604 0.022575649 0.32729521 4294901760
-0.03045604 0.022575649 0.32779521 4294901760
-0.03045604 0.022575649 0.3282952 4294901760
-0.03045604 0.022575649 0.32879522 4294901760
-0.03045604 0.022575649 0.32929522 4294901760
-0.03045604 0.022575649 0.32979521 4294901760
-0.03045604 0.022575649 0.33029521 4294901760
-0.03045604 0.022575649 0.33079523 4294901760
-0.03045604 0.022575649 0.33129522 4294901760
-0.03045604 0.022575649 0.33179522 4294901760
-0.03045604 0.022575649 0.33229521 4294901760
-0.03045604 0.022575649 0.3327952 4294901760
-0.03045604 0.022575649 0.33329523 4294901760
-0.03045604 0.022575649 0.33379522 4294901760
-0.03045604 0.022575649 0.33429521 4294901760
-0.03045604 0.022575649 0.33479521 4294901760
-0.03045604 0.022575649 0.3352952 4294901760
-0.03045604 0.022575649 0.33579522 4294901760
-0.03045604 0.022575649 0.33629522 4294901760
-0.03045604 0.022575649 0.33679521 4294901760
-0.03045604 0.022575649 0.3372952 4294901760
-0.03045604 0.022575649 0.33779523 4294901760
-0.03045604 0.022575649 0.33829522 4294901760
-0.03045604 0.022575649 0.33879521 4294901760
-0.03045604 0.022575649 0.33929521 4294901760
-0.03045604 0.022575649 0.33979523 4294901760
-0.03045604 0.022575649 0.34029523 4294901760
-0.03045604 0.022575649 0.34079522 4294901760
-0.03045604 0.022575649 0.34129521 4294901760
-0.03045604 0.022575649 0.34179521 4294901760
-0.03045604 0.022575649 0.34229523 4294901760
-0.03045604 0.022575649 0.34279522 4294901760
-0.03045604 0.022575649 0.34329522 4294901760
-0.03045604 0.022575649 0.34379521 4294901760
-0.03045604 0.022575649 0.3442952 4294901760
-0.03045604 0.022575649 0.34479523 4294901760
-0.03045604 0.022575649 0.34529522 4294901760
-0.03045604 0.022575649 0.34579521 4294901760
-0.03045604 0.022575649 0.34629521 4294901760
-0.03045604 0.022575649 0.3467952 4294901760
-0.03045604 0.022575649 0.34729522 4294901760
-0.03045604 0.022575649 0.34779522 4294901760
-0.03045604 0.022575649 0.34829521 4294901760
-0.03045604 0.022575649 0.34879521 4294901760
-0.03045604 0.022575649 0.34929523 4294901760
-0.03045604 0.022575649 0.34979522 4294901760
-0.03045604 0.022575649 0.35029522 4294901760
-0.03045604 0.022575649 0.35079521 4294901760
-0.03045604 0.022575649 0.35129523 4294901760
-0.03045604 0.022575649 0.35179523 4294901760
-0.03045604 0.022575649 0.35229522 4294901760
-0.03045604 0.022575649 0.35279521 4294901760
-0.03045604 0.022575649 0.35329521 4294901760
-0.03045604 0.022575649 0.35379523 4294901760
-0.03045604 0.022575649 0.35429522 4294901760
-0.03045604 0.022575649 0.35479522 4294901760
-0.03045604 0.022575649 0.35529521 4294901760
-0.03045604 0.022575649 0.3557952 4294901760
-0.03045604 0.022575649 0.35629523 4294901760
-0.03045604 0.022575649 0.35679522 4294901760
-0.03045604 0.022575649 0.35729522 4294901760
-0.03045604 0.022575649 0.35779521 4294901760
-0.03045604 0.022575649 0.35829523 4294901760
-0.03045604 0.022575649 0.35879523 4294901760
-0.03045604 0.022575649 0.35929522 4294901760
-0.03045604 0.022575649 0.35979521 4294901760
-0.03045604 0.022575649 0.36029521 4294901760
-0.03045604 0.022575649 0.36079523 4294901760
-0.03045604 0.022575649 0.36129522 4294901760
-0.03045604 0.022575649 0.36179522 4294901760
-0.03045604 0.022575649 0.36229521 4294901760
-0.03045604 0.022575649 0.36279523 4294901760
-0.03045604 0.022575649 0.36329523 4294901760
-0.03045604 0.022575649 0.36379522 4294901760
-0.03045604 0.022575649 0.36429521 4294901760
-0.03045604 0.022575649 0.36479521 4294901760
-0.03045604 0.022575649 0.36529523 4294901760
-0.03045604 0.022575649 0.36579522 4294901760
-0.03045604 0.022575649 0.36629522 4294901760
-0.03045604 0.022575649 0.36679521 4294901760
-0.03045604 0.022575649 0.36729524 4294901760
-0.03045604 0.022575649 0.36779523 4294901760
-0.03045604 0.022575649 0.36829522 4294901760
-0.03045604 0.022575649 0.31829521 4278255360
-0.030219229 0.022738818 0.31870422 4278255360
-0.029982418 0.022901988 0.31911325 4278255360
-0.029745609 0.023065157 0.31952226 4278255360
-0.029508797 0.023228327 0.3199313 4278255360
-0.029271986 0.023391496 0.32034031 4278255360
-0.029035175 0.023554668 0.32074931 4278255360
-0.028798364 0.023717837 0.32115835 4278255360
-0.028561555 0.023881007 0.32156736 4278255360
-0.028324744 0.024044177 0.32197639 4278255360
-0.028087933 0.024207346 0.3223854 4278255360
-0.027851122 0.024370516 0.32279441 4278255360
-0.02761431 0.024533685 0.32320344 4278255360
