# .PCD v0.7 - Point Cloud Data file format
VERSION 0.7
FIELDS x y z rgb
SIZE 4 4 4 4
TYPE F F F U
COUNT 1 1 1 1
WIDTH 955
HEIGHT 1
VIEWPOINT 0 0 0 1 0 0 0
POINTS 955
DATA ascii
-0.015067817 0.004231499 0.46900001 4286751373
-0.013544505 0.004231499 0.46900001 4287406734
-0.012021191 0.004231499 0.46900001 4287865488
-0.016555754 0.0057430565 0.46800002 4287998358
-0.015067817 0.0057553281 0.46900001 4285622359
-0.013544505 0.0057553281 0.46900001 4286335289
-0.012021191 0.0057553281 0.46900001 4286727737
-0.010497879 0.0057553281 0.46900001 4287320389
-0.008993702 0.0057675997 0.47000003 4286929743
-0.019512143 0.0072325952 0.46600002 4287867285
-0.017998572 0.0072325952 0.46600002 4286414701
-0.016555754 0.0072636367 0.46800002 4287256911
-0.01503569 0.0072636367 0.46800002 4286924348
-0.013544505 0.0072791572 0.46900001 4288172355
-0.012021191 0.0072791572 0.46900001 4286789932
-0.010497879 0.0072791572 0.46900001 4286920235
-0.008993702 0.0072946781 0.47000003 4287117614
-0.0074671404 0.0072946781 0.47000003 4286462512
-0.025182372 0.0086152889 0.45900002 4287538320
-0.023743154 0.0086340588 0.46000001 4287932565
-0.022297442 0.0086528286 0.46100003 4287796354
-0.020845231 0.0086715985 0.46200001 4286344027
-0.019470271 0.0087279081 0.46500003 4287387725
-0.017998572 0.0087466771 0.46600002 4286924346
-0.016520379 0.008765447 0.46700001 4287053620
-0.01503569 0.0087842168 0.46800002 4287118643
-0.013515625 0.0087842168 0.46800002 4286723626
-0.012021191 0.0088029858 0.46900001 4286855212
-0.010497879 0.0088029858 0.46900001 4286919465
-0.008993702 0.0088217556 0.47000003 4288827462
-0.0074671404 0.0088217556 0.47000003 4287447097
-0.0059532197 0.0088405255 0.47100002 4287447097
-0.029654872 0.010106627 0.45900002 4286286458
-0.028164037 0.010106627 0.45900002 4285943881
-0.026673203 0.010106627 0.45900002 4286139973
-0.025182372 0.010106627 0.45900002 4286665799
-0.023743154 0.010128645 0.46000001 4286600776
-0.022297442 0.010150664 0.46100003 4285938221
-0.020845231 0.010172683 0.46200001 4286527533
-0.019428398 0.01021672 0.46400002 4286724912
-0.01795995 0.01023874 0.46500003 4286067754
-0.016485004 0.010260758 0.46600002 4284627501
-0.015003562 0.010282777 0.46700001 4285484605
-0.013515625 0.010304797 0.46800002 4284295456
-0.012021191 0.010326815 0.46900001 4286066732
-0.010497879 0.010326815 0.46900001 4286722854
-0.008993702 0.010348834 0.47000003 4286590243
-0.0074671404 0.010348834 0.47000003 4291461508
-0.0059532197 0.010370852 0.47100002 4287118393
-0.031281415 0.0116485 0.46100003 4286479726
-0.029719478 0.011623232 0.46000001 4285483328
-0.028164037 0.011597965 0.45900002 4286790450
-0.026673203 0.011597965 0.45900002 4286789419
-0.025182372 0.011597965 0.45900002 4286920233
-0.023691539 0.011597965 0.45900002 4287118382
-0.022249073 0.011623232 0.46000001 4288105790
-0.020845231 0.011673768 0.46200001 4285869600
-0.019386528 0.011699037 0.46300003 4288186999
-0.01795995 0.011749572 0.46500003 4287996045
-0.016485004 0.01177484 0.46600002 4287011976
-0.015003562 0.011800108 0.46700001 4287011976
-0.013515625 0.011825375 0.46800002 4287472268
-0.012021191 0.011850643 0.46900001 4286084966
-0.010497879 0.011850643 0.46900001 4286001189
-0.008993702 0.011875912 0.47000003 4286460965
-0.0074830279 0.011901179 0.47100002 4286459430
-0.0059532197 0.011901179 0.47100002 4287380534
-0.0044328026 0.011926447 0.47200003 4286790705
-0.031281415 0.013146337 0.46100003 4285220667
-0.029719478 0.013117819 0.46000001 4286003244
-0.028164037 0.013089303 0.45900002 4286263075
-0.026615093 0.013060786 0.45800003 4286853670
-0.02512751 0.013060786 0.45800003 4287116839
-0.023691539 0.013089303 0.45900002 4287116839
-0.022249073 0.013117819 0.46000001 4287446061
-0.020800112 0.013146337 0.46100003 4287051049
-0.019386528 0.013203371 0.46300003 4288645755
-0.017921325 0.013231887 0.46400002 4287470982
-0.016485004 0.013288922 0.46600002 4286881160
-0.015003562 0.013317439 0.46700001 4287144845
-0.013515625 0.013345956 0.46800002 4287538572
-0.012021191 0.013374473 0.46900001 4288849042
-0.010520263 0.01340299 0.47000003 4285346595
-0.008993702 0.01340299 0.47000003 4285673246
-0.0074830279 0.013431507 0.47100002 4286066207
-0.0059658596 0.013460024 0.47200003 4286066207
-0.0044328026 0.013460024 0.47200003 4285476900
-0.031349268 0.014675939 0.46200001 4285019177
-0.029719478 0.014612407 0.46000001 4285411107
-0.028164037 0.014580641 0.45900002 4286066461
-0.026615093 0.014548875 0.45800003 4286263327
-0.02512751 0.014548875 0.45800003 4286590750
-0.023691539 0.014580641 0.45900002 4286985253
-0.022200705 0.014580641 0.45900002 4288565576
-0.020800112 0.014644174 0.46100003 4287249200
-0.019344656 0.014675939 0.46200001 4285476900
-0.017921325 0.014739471 0.46400002 4289960843
-0.016485004 0.014803004 0.46600002 4287067750
-0.015003562 0.01483477 0.46700001 4285153845
-0.013515625 0.014866536 0.46800002 4285872689
-0.012021191 0.014898302 0.46900001 4286068272
-0.010520263 0.014930069 0.47000003 4286856495
-0.009012837 0.014961834 0.47100002 4286921516
-0.0074989158 0.014993601 0.47200003 4285804832
-0.0059658596 0.014993601 0.47200003 4285936420
-0.004442194 0.015025367 0.47300002 4284364845
-0.034796532 0.016387116 0.46800002 4287932819
-0.031281415 0.016142009 0.46100003 4285152046
-0.029719478 0.016106993 0.46000001 4285083941
-0.028164037 0.016071979 0.45900002 4285804062
-0.026615093 0.016036965 0.45800003 4285672219
-0.02512751 0.016036965 0.45800003 4286196764
-0.023639925 0.016036965 0.45800003 4286393373
-0.022200705 0.016071979 0.45900002 4287379505
-0.020754991 0.016106993 0.46000001 4286722086
-0.019344656 0.016177025 0.46200001 4287248428
-0.017921325 0.016247055 0.46400002 4286724137
-0.016485004 0.016317084 0.46600002 4286922036
-0.015003562 0.0163521 0.46700001 4286922034
-0.013544505 0.01642213 0.46900001 4285739559
-0.012046823 0.016457146 0.47000003 4286200623
-0.010542646 0.016492162 0.47100002 4285414187
-0.009012837 0.016492162 0.47100002 4284360214
-0.0074989158 0.016527178 0.47200003 4284952351
-0.0059784986 0.016562192 0.47300002 4285083937
-0.004442194 0.016562192 0.47300002 4283969058
-0.034722179 0.01786943 0.46700001 4286220917
-0.032920949 0.017716374 0.46300003 4281938978
-0.031281415 0.017639846 0.46100003 4284822568
-0.029654872 0.017563317 0.45900002 4284820769
-0.028102677 0.017525053 0.45800003 4284950554
-0.026615093 0.017525053 0.45800003 4285015064
-0.02512751 0.017525053 0.45800003 4285737244
-0.023639925 0.017525053 0.45800003 4285999903
-0.022200705 0.017563317 0.45900002 4286524705
-0.020800112 0.017639846 0.46100003 4287116839
-0.019344656 0.01767811 0.46200001 4287379757
-0.017921325 0.017754639 0.46400002 4286722084
-0.016485004 0.017831167 0.46600002 4285803810
-0.01503569 0.017907696 0.46800002 4285279521
-0.013544505 0.017945958 0.46900001 4284097814
-0.012046823 0.017984224 0.47000003 4283901720
-0.010542646 0.018022489 0.47100002 4285023794
-0.0090319728 0.018060753 0.47200003 4284760622
-0.0075148032 0.018099017 0.47300002 4283572755
-0.0059911385 0.018137282 0.47400004 4285216808
-0.0044515859 0.018137282 0.47400004 4285610285
-0.0029181761 0.018175546 0.47500002 4288576626
-0.032920949 0.019220708 0.46300003 4283119395
-0.031213557 0.019096168 0.46000001 4285149732
-0.029654872 0.019054655 0.45900002 4284490005
-0.028102677 0.01901314 0.45800003 4284359704
-0.026615093 0.01901314 0.45800003 4284293909
-0.02512751 0.01901314 0.45800003 4284818455
-0.023691539 0.019054655 0.45900002 4285475869
-0.022249073 0.019096168 0.46000001 4285474324
-0.020800112 0.019137681 0.46100003 4285671188
-0.019386528 0.019220708 0.46300003 4286066461
-0.01795995 0.019303735 0.46500003 4286330406
-0.016520379 0.019386761 0.46700001 4284228632
-0.015067817 0.019469788 0.46900001 4284032023
-0.013573385 0.019511301 0.47000003 4283374606
-0.012072454 0.019552814 0.47100002 4283571985
-0.01056503 0.019594328 0.47200003 4282457875
-0.0090511087 0.019635841 0.47300002 4283314987
-0.0075306911 0.019677356 0.47400004 4283639839
-0.0059911385 0.019677356 0.47400004 4283573014
-0.0044609774 0.019718869 0.47500002 4285017634
-0.0029243196 0.019760381 0.47600001 4285017382
-0.0013782708 0.019760381 0.47600001 4288983708
-0.031145703 0.020545991 0.45900002 4285411875
-0.029590266 0.02050123 0.45800003 4285147674
-0.028102677 0.02050123 0.45800003 4283834642
-0.026615093 0.02050123 0.45800003 4283834642
-0.02512751 0.02050123 0.45800003 4284228632
-0.023691539 0.020545991 0.45900002 4284754460
-0.022249073 0.020590754 0.46000001 4285412388
-0.020845231 0.020680279 0.46200001 4285148957
-0.019428398 0.020769805 0.46400002 4286928711
-0.017998572 0.020859329 0.46600002 4284297253
-0.016555754 0.020948855 0.46800002 4283966489
-0.015067817 0.020993616 0.46900001 4284295454
-0.013602264 0.021083141 0.47100002 4284491804
-0.012098087 0.021127906 0.47200003 4283833874
-0.010587414 0.021172667 0.47300002 4288520082
-0.0090702446 0.02121743 0.47400004 4288064155
-0.0075306911 0.02121743 0.47400004 4283117608
-0.006003778 0.021262191 0.47500002 4283310874
-0.0044703684 0.021306954 0.47600001 4283966489
-0.0029243196 0.021306954 0.47600001 4285610801
-0.0013811664 0.021351717 0.47700003 4285352253
-0.029590266 0.021989319 0.45800003 4285146904
-0.026615093 0.021989319 0.45800003 4283576860
-0.025182372 0.022037331 0.45900002 4282653709
-0.023743154 0.022085343 0.46000001 4283572501
-0.022297442 0.022133354 0.46100003 4285017634
-0.020890351 0.022229377 0.46300003 4284164122
-0.019428398 0.022277389 0.46400002 4284430122
-0.017998572 0.022373412 0.46600002 4283969571
-0.016555754 0.022469435 0.46800002 4283902495
-0.015099945 0.02256546 0.47000003 4283376151
-0.013602264 0.02261347 0.47100002 4284756005
-0.012123718 0.022709493 0.47300002 4283902495
-0.010609797 0.022757506 0.47400004 4287210640
-0.0090702446 0.022757506 0.47400004 4286948754
-0.0075465781 0.022805518 0.47500002 4287995278
-0.0060164174 0.022853527 0.47600001 4282327322
-0.0044703684 0.022853527 0.47600001 4283310356
-0.0029304633 0.022901541 0.47700003 4284888615
-0.0013840619 0.022949552 0.47800002 4286200110
0.00016883542 0.022997564 0.47900003 4286200110
0.0017246283 0.022997564 0.47900003 4287928194
-0.032565434 0.023477409 0.45800003 4284757540
-0.031009993 0.023426147 0.45700002 4285936166
-0.029525656 0.023426147 0.45700002 4284095245
-0.028102677 0.023477409 0.45800003 4281803787
-0.026615093 0.023477409 0.45800003 4281936146
-0.025182372 0.023528669 0.45900002 4283577891
-0.023743154 0.023579929 0.46000001 4283179794
-0.022345807 0.023682451 0.46200001 4285478183
-0.020890351 0.023733713 0.46300003 4286204988
-0.019470271 0.023836233 0.46500003 4284234026
-0.01659113 0.024041275 0.46900001 4280028678
-0.015099945 0.024092536 0.47000003 4283122233
-0.012123718 0.024246318 0.47300002 4285952619
-0.010609797 0.02429758 0.47400004 4287210640
-0.0090893796 0.02434884 0.47500002 4287342742
-0.0075624655 0.0244001 0.47600001 4288197022
-0.0060290569 0.024451362 0.47700003 4281872679
-0.0044797603 0.024451362 0.47700003 4283376921
-0.0029366068 0.024502622 0.47800002 4284032282
-0.0013840619 0.024502622 0.47800002 4285869603
0.00016883542 0.024553884 0.47900003 4287577395
0.0017282286 0.024605144 0.48000002 4287052852
0.003294118 0.024656406 0.48100004 4289628800
-0.03405302 0.024965497 0.45800003 4284561447
-0.032494329 0.024910986 0.45700002 4285149732
-0.031009993 0.024910986 0.45700002 4286924598
-0.029525656 0.024910986 0.45700002 4283506188
-0.028041318 0.024910986 0.45700002 4281542160
-0.026615093 0.024965497 0.45800003 4281607183
-0.025182372 0.025020007 0.45900002 4283773727
-0.023743154 0.025074515 0.46000001 4284295193
-0.022345807 0.025183534 0.46200001 4285872426
-0.02093547 0.025292555 0.46400002 4284954921
-0.010632181 0.025892163 0.47500002 4287736219
-0.0091085145 0.025946673 0.47600001 4287211156
-0.0075624655 0.025946673 0.47600001 4287342742
-0.0044891518 0.026055692 0.47800002 4283179290
-0.0029366068 0.026055692 0.47800002 4284163870
-0.0013869575 0.026110204 0.47900003 4285804580
0.0001691879 0.026164712 0.48000002 4287052591
0.0017282286 0.026164712 0.48000002 4286657331
0.003294118 0.026219223 0.48100004 4286461492
-0.033904314 0.026338067 0.45600003 4284953121
-0.032423224 0.026338067 0.45600003 4285739041
-0.030942136 0.026338067 0.45600003 4285083164
-0.02946105 0.026338067 0.45600003 4282982926
-0.028041318 0.026395826 0.45700002 4280751874
-0.026615093 0.026453586 0.45800003 4283053602
-0.025182372 0.026511343 0.45900002 4285084709
-0.023743154 0.026569102 0.46000001 4286069035
-0.022345807 0.026684619 0.46200001 4285544488
-0.02093547 0.026800139 0.46400002 4284104237
-0.0091085145 0.027493244 0.47600001 4287473814
-0.0075783534 0.027551005 0.47700003 4287474326
-0.0060416963 0.027608763 0.47800002 4285958777
-0.0044891518 0.027608763 0.47800002 4283639843
-0.0029427505 0.027666522 0.47900003 4283768860
-0.0013869575 0.027666522 0.47900003 4285672996
0.0001691879 0.027724281 0.48000002 4286592040
0.0017282286 0.027724281 0.48000002 4291002231
0.003294118 0.027782042 0.48100004 4286659639
0.0048564067 0.027782042 0.48100004 4288254591
-0.033755612 0.027697641 0.45400003 4285412129
-0.032281019 0.027697641 0.45400003 4286133797
-0.03087428 0.027758649 0.45500001 4283835407
-0.029396441 0.027758649 0.45500001 4281538560
-0.027979959 0.027819658 0.45600003 4283779372
-0.02655698 0.027880665 0.45700002 4283447327
-0.02512751 0.027941674 0.45800003 4285346595
-0.023743154 0.028063688 0.46000001 4285674018
-0.022345807 0.028185705 0.46200001 4284234790
-0.02093547 0.028307721 0.46400002 4280227593
-0.0091085145 0.029039817 0.47600001 4287736986
-0.0075783534 0.029100826 0.47700003 4287277717
-0.0060416963 0.029161833 0.47800002 4287669908
-0.0044891518 0.029161833 0.47800002 4282718739
-0.0029427505 0.029222842 0.47900003 4284031517
-0.001389853 0.02928385 0.48000002 4285344031
0.0001691879 0.02928385 0.48000002 4286264615
0.0017318293 0.029344859 0.48100004 4286526506
0.003294118 0.029344859 0.48100004 4286789680
0.0048564067 0.029344859 0.48100004 4285555281
-0.035152603 0.029108478 0.45300001 4284825128
-0.033681259 0.029108478 0.45300001 4285540890
-0.032209914 0.029108478 0.45300001 4286330660
-0.030806426 0.029172735 0.45400003 4282718471
-0.029331835 0.029172735 0.45400003 4281868043
-0.027918598 0.029236991 0.45500001 4282264084
-0.026498869 0.02930125 0.45600003 4283576862
-0.02512751 0.029429764 0.45800003 4285215263
-0.023691539 0.029494021 0.45900002 4285543715
-0.0091276504 0.030650649 0.47700003 4288328610
-0.0075942408 0.030714905 0.47800002 4287211924
-0.0060416963 0.030714905 0.47800002 4288327838
-0.0044985432 0.030779164 0.47900003 4283639589
-0.0029427505 0.030779164 0.47900003 4284360482
-0.001389853 0.03084342 0.48000002 4285213730
0.00016954038 0.030907677 0.48100004 4285542691
0.0017318293 0.030907677 0.48100004 4285542178
0.0033009665 0.030971935 0.48200002 4285871658
-0.035075005 0.030512815 0.45200002 4285348392
-0.033606909 0.030512815 0.45200002 4285803035
-0.03213881 0.030512815 0.45200002 4286330403
-0.03073857 0.030580319 0.45300001 4282719502
-0.029331835 0.030647827 0.45400003 4281409037
-0.027918598 0.030715333 0.45500001 4282854940
-0.025072645 0.030850345 0.45700002 4285674018
-0.023691539 0.030985359 0.45900002 4284556050
-0.0091276504 0.032200471 0.47700003 4288262815
-0.0075942408 0.032267977 0.47800002 4287474326
-0.0060416963 0.032267977 0.47800002 4288327325
-0.0044985432 0.032335483 0.47900003 4283572512
-0.0029488937 0.032402989 0.48000002 4284622370
-0.001389853 0.032402989 0.48000002 4285082912
0.00016954038 0.032470495 0.48100004 4285477670
0.0017318293 0.032470495 0.48100004 4285283380
0.0033009665 0.032538 0.48200002 4287002223
-0.036381405 0.031839896 0.45000002 4285219373
-0.034997404 0.031910654 0.45100003 4285477668
-0.033532556 0.031910654 0.45100003 4288500037
-0.03213881 0.031981409 0.45200002 4286855210
-0.030670714 0.031981409 0.45200002 4285806633
-0.029267225 0.032052163 0.45300001 4282324231
-0.027857238 0.032122921 0.45400003 4283641122
-0.026440756 0.032193676 0.45500001 4284099358
-0.025072645 0.032335185 0.45700002 4285738787
-0.023691539 0.032476697 0.45900002 4284818455
-0.0091276504 0.033750292 0.47700003 4288328608
-0.0075942408 0.033821046 0.47800002 4287277717
-0.0060543362 0.033891805 0.47900003 4286353535
-0.0044985432 0.033891805 0.47900003 4284623654
-0.0029488937 0.033962559 0.48000002 4284227351
-0.001389853 0.033962559 0.48000002 4285280289
0.00016954038 0.034033313 0.48100004 4286270268
0.0017354296 0.034104068 0.48200002 4287272842
0.0033009665 0.034104068 0.48200002 4287736732
0.0048765996 0.034174822 0.48300001 4287212185
-0.036381405 0.033301994 0.45000002 4285347111
-0.034919806 0.033301994 0.45000002 4286068006
-0.033532556 0.033376001 0.45100003 4287050794
-0.032067709 0.033376001 0.45100003 4287051046
-0.030670714 0.033450004 0.45200002 4287116839
-0.029267225 0.033524007 0.45300001 4287182632
-0.027857238 0.033598013 0.45400003 4286658344
-0.026440756 0.033672016 0.45500001 4285804834
-0.025072645 0.033820026 0.45700002 4286264615
-0.023691539 0.033968035 0.45900002 4285213215
-0.0091276504 0.035300113 0.47700003 4287802012
-0.0075942408 0.035374116 0.47800002 4287539607
-0.0060543362 0.035448123 0.47900003 4284377946
-0.0044985432 0.035448123 0.47900003 4285017382
-0.0029488937 0.035522126 0.48000002 4285279521
-0.001389853 0.035522126 0.48000002 4284688156
0.00016954038 0.035596132 0.48100004 4290749850
0.0017354296 0.035670135 0.48200002 4286882191
0.0033009665 0.035670135 0.48200002 4287277465
-0.036381405 0.034764089 0.45000002 4285477922
-0.034919806 0.034764089 0.45000002 4286198820
-0.033458207 0.034764089 0.45000002 4286656034
-0.032067709 0.034841344 0.45100003 4287050022
-0.030670714 0.034918595 0.45200002 4287116069
-0.029267225 0.03499585 0.45300001 4290143315
-0.027857238 0.035073105 0.45400003 4287380009
-0.026440756 0.035150357 0.45500001 4288037171
-0.025072645 0.035304863 0.45700002 4287249970
-0.023691539 0.035459369 0.45900002 4285673248
-0.0091276504 0.036849935 0.47700003 4287473560
-0.0075942408 0.036927186 0.47800002 4287802777
-0.0044985432 0.037004441 0.47900003 4285541928
-0.0029488937 0.037081696 0.48000002 4285673766
-0.001389853 0.037081696 0.48000002 4284756007
0.00016954038 0.037158951 0.48100004 4289635994
0.0017354296 0.037236203 0.48200002 4287474074
-0.036381405 0.036226183 0.45000002 4285411877
-0.034919806 0.036226183 0.45000002 4285606431
-0.033458207 0.036226183 0.45000002 4286261533
-0.032067709 0.03630669 0.45100003 4286524448
-0.030670714 0.03638719 0.45200002 4287181862
-0.029267225 0.03646769 0.45300001 4287971894
-0.027857238 0.036548197 0.45400003 4288303437
-0.026440756 0.036628697 0.45500001 4287642159
-0.025072645 0.036789704 0.45700002 4286985256
-0.023691539 0.036950707 0.45900002 4286134315
-0.010654564 0.038319252 0.47600001 4288458913
-0.0091276504 0.038399756 0.47700003 4287408535
-0.0075942408 0.038480259 0.47800002 4288918176
-0.0060543362 0.038560763 0.47900003 4283313958
-0.0044985432 0.038560763 0.47900003 4285935141
-0.0029488937 0.038641263 0.48000002 4286263336
-0.001389853 0.038641263 0.48000002 4284693810
0.00016954038 0.038721766 0.48100004 4288325526
-0.036381405 0.037688281 0.45000002 4284886562
-0.034919806 0.037688281 0.45000002 4285411109
-0.033458207 0.037688281 0.45000002 4285935393
-0.032067709 0.037772033 0.45100003 4285934623
-0.030670714 0.037855785 0.45200002 4286458914
-0.029267225 0.037939534 0.45300001 4287050540
-0.027857238 0.038023289 0.45400003 4288037696
-0.026440756 0.038107038 0.45500001 4288103482
-0.025072645 0.038274541 0.45700002 4287183405
-0.023691539 0.038442045 0.45900002 4284228378
-0.010654564 0.039865825 0.47600001 4287924860
-0.0091276504 0.039949577 0.47700003 4287735186
-0.0075942408 0.040033329 0.47800002 4288254593
-0.0060543362 0.040117081 0.47900003 4285741103
-0.0044985432 0.040117081 0.47900003 4286328614
-0.0029427505 0.040117081 0.47900003 4286591016
-0.001389853 0.040200833 0.48000002 4287790962
-0.036381405 0.039150376 0.45000002 4284559909
-0.034919806 0.039150376 0.45000002 4284689953
-0.033532556 0.03923738 0.45100003 4284950554
-0.032067709 0.03923738 0.45100003 4285607455
-0.030670714 0.039324377 0.45200002 4285999903
-0.029267225 0.039411377 0.45300001 4286460454
-0.027857238 0.039498381 0.45400003 4287050794
-0.026498869 0.039672382 0.45600003 4287116587
-0.02512751 0.039846383 0.45800003 4285213215
-0.023691539 0.039933383 0.45900002 4289831824
-0.010676947 0.041499399 0.47700003 4286003510
-0.0091467863 0.041586399 0.47800002 4290222219
-0.0075942408 0.041586399 0.47800002 4285938736
-0.0060543362 0.0416734 0.47900003 4286723885
-0.0044985432 0.0416734 0.47900003 4286787625
-0.0029427505 0.0416734 0.47900003 4286921266
-0.001389853 0.0417604 0.48000002 4289376161
-0.036462255 0.040702727 0.45100003 4284562224
-0.034997404 0.040702727 0.45100003 4284099874
-0.033532556 0.040702727 0.45100003 4284229402
-0.03213881 0.040792976 0.45200002 4284360218
-0.03073857 0.040883224 0.45300001 4285475615
-0.029331835 0.040973477 0.45400003 4285607201
-0.027918598 0.041063726 0.45500001 4286001189
-0.026498869 0.041153975 0.45600003 4286395947
-0.02512751 0.041334476 0.45800003 4284754722
-0.023743154 0.041514974 0.46000001 4289897619
-0.012200613 0.042958971 0.47600001 4286791477
-0.010676947 0.043049224 0.47700003 4287251001
-0.0091467863 0.043139473 0.47800002 4288238153
-0.0075942408 0.043139473 0.47800002 4286986028
-0.0060543362 0.043229725 0.47900003 4287379757
-0.0044985432 0.043229725 0.47900003 4287444780
-0.0029427505 0.043229725 0.47900003 4286331696
-0.033606909 0.042261571 0.45200002 4283705114
-0.032209914 0.042355068 0.45300001 4284362784
-0.03073857 0.042355068 0.45300001 4284755746
-0.029331835 0.042448569 0.45400003 4285150504
-0.027918598 0.042542066 0.45500001 4285545260
-0.02655698 0.042729065 0.45700002 4285413674
-0.02512751 0.042822566 0.45800003 4285150250
-0.023743154 0.043009561 0.46000001 4290157709
-0.012200613 0.044505544 0.47600001 4287052337
-0.010676947 0.044599045 0.47700003 4288304464
-0.0091467863 0.044692542 0.47800002 4286658094
-0.0075942408 0.044692542 0.47800002 4286919206
-0.0060543362 0.044786043 0.47900003 4287445550
-0.0044985432 0.044786043 0.47900003 4287645241
-0.0029427505 0.044786043 0.47900003 4291206288
-0.030806426 0.043923661 0.45400003 4284232230
-0.029396441 0.044020407 0.45500001 4284101675
-0.02512751 0.044310652 0.45800003 4283836448
-0.023743154 0.044504147 0.46000001 4286864979
-0.012200613 0.046052117 0.47600001 4290941317
-0.010676947 0.046148866 0.47700003 4290540656
-0.0091467863 0.046245612 0.47800002 4287313966
-0.0075942408 0.046245612 0.47800002 4286656034
-0.0060416963 0.046245612 0.47800002 4287975233
-0.0044985432 0.046342365 0.47900003 4287053877
-0.0029427505 0.046342365 0.47900003 4288965728
-0.023743154 0.045998733 0.46000001 4284692527
-0.022345807 0.046198729 0.46200001 4288721049
-0.010676947 0.047698688 0.47700003 4287773493
-0.0091467863 0.047798686 0.47800002 4287772716
-0.0075942408 0.047798686 0.47800002 4292844683
-0.0060416963 0.047798686 0.47800002 4289165158
-0.0044985432 0.047898684 0.47900003 4287052591
-0.0029427505 0.047898684 0.47900003 4287249716
-0.022345807 0.047699813 0.46200001 4286011471
-0.015196327 0.048835523 0.47300002 4288586899
-0.013688903 0.048938774 0.47400004 4286726456
-0.012200613 0.049145263 0.47600001 4287248178
-0.010676947 0.049248509 0.47700003 4287772462
-0.0091276504 0.049248509 0.47700003 4288101679
-0.0075942408 0.049351756 0.47800002 4287445550
-0.0060416963 0.049351756 0.47800002 4286985774
-0.0044985432 0.049455002 0.47900003 4288761669
-0.0029427505 0.049455002 0.47900003 4287709751
-0.0013869575 0.049455002 0.47900003 4289243032
-0.01807582 0.049839873 0.46800002 4286273609
-0.016626507 0.050052863 0.47000003 4286396467
-0.015196327 0.050372347 0.47300002 4287052339
-0.013688903 0.050478846 0.47400004 4287642159
-0.012200613 0.050691836 0.47600001 4287773232
-0.010654564 0.050691836 0.47600001 4288101427
-0.0091276504 0.05079833 0.47700003 4287839279
-0.0075942408 0.050904825 0.47800002 4286984999
-0.0060416963 0.050904825 0.47800002 4286458403
-0.0044985432 0.051011324 0.47900003 4287313712
-0.0029427505 0.051011324 0.47900003 4286985774
-0.0013869575 0.051011324 0.47900003 4289308825
-0.029654872 0.05037275 0.45900002 4284034347
-0.028164037 0.05037275 0.45900002 4288918430
-0.019512143 0.05114096 0.46600002 4286527280
-0.01807582 0.051360451 0.46800002 4287183923
-0.016626507 0.051579941 0.47000003 4287314221
-0.0151642 0.051799431 0.47200003 4287444780
-0.013688903 0.052018922 0.47400004 4287773486
-0.012174981 0.052128665 0.47500002 4287641900
-0.010654564 0.052238405 0.47600001 4287380011
-0.0091276504 0.052348152 0.47700003 4285672221
-0.0075942408 0.052457895 0.47800002 4285739557
-0.0060416963 0.052457895 0.47800002 4286068524
-0.0044891518 0.052457895 0.47800002 4286134317
-0.0029427505 0.052567642 0.47900003 4284821285
-0.02093547 0.052429054 0.46400002 4286593076
-0.019512143 0.052655045 0.46600002 4287118643
-0.01807582 0.052881032 0.46800002 4287708979
-0.016626507 0.05310702 0.47000003 4287445800
-0.0151642 0.053333007 0.47200003 4287116837
-0.013688903 0.053558994 0.47400004 4287183659
-0.012174981 0.053671986 0.47500002 4286526758
-0.0029427505 0.05412396 0.47900003 4288059535
-0.028286757 0.05358791 0.46100003 4285282867
-0.02093547 0.053936638 0.46400002 4287447099
-0.019470271 0.054052882 0.46500003 4292056970
-0.018037196 0.054285366 0.46700001 4287644726
-0.016626507 0.054634098 0.47000003 4286789417
-0.0151642 0.054866582 0.47200003 4286333492
-0.013660023 0.054982822 0.47300002 4284822570
-0.028286757 0.055085748 0.46100003 4285217587
-0.02093547 0.055444222 0.46400002 4286987057
-0.019470271 0.055563714 0.46500003 4287445555
-0.018037196 0.055802695 0.46700001 4287314223
-0.01659113 0.05604168 0.46900001 4286463280
-0.013660023 0.05651965 0.47300002 4288061588
-0.025346963 0.05670632 0.46200001 4284230946
-0.019470271 0.057074547 0.46500003 4286593328
-0.018037196 0.057320025 0.46700001 4286724914
-0.01659113 0.05756551 0.46900001 4287987827
-0.016595051 0.033594549 0.46654743 4294967295
-0.016595051 0.033594549 0.46654743 4294901760
-0.016595051 0.033102322 0.4664596 4294901760
-0.016595051 0.032610096 0.46637177 4294901760
-0.016595051 0.03211787 0.46628395 4294901760
-0.016595051 0.031625643 0.46619612 4294901760
-0.016595051 0.031133417 0.46610829 4294901760
-0.016595051 0.030641193 0.46602046 4294901760
-0.016595051 0.030148966 0.46593264 4294901760
-0.016595051 0.02965674 0.46584481 4294901760
-0.016595051 0.029164514 0.46575698 4294901760
-0.016595051 0.028672287 0.46566916 4294901760
-0.016595051 0.028180061 0.46558136 4294901760
-0.016595051 0.027687835 0.46549353 4294901760
-0.016595051 0.02719561 0.4654057 4294901760
-0.016595051 0.026703384 0.46531788 4294901760
-0.016595051 0.026211156 0.46523005 4294901760
-0.016595051 0.025718931 0.46514222 4294901760
-0.016595051 0.025226705 0.46505439 4294901760
-0.016595051 0.024734478 0.46496657 4294901760
-0.016595051 0.024242252 0.46487874 4294901760
-0.016595051 0.023750026 0.46479091 4294901760
-0.016595051 0.023257799 0.46470308 4294901760
-0.016595051 0.022765573 0.46461526 4294901760
-0.016595051 0.022273347 0.46452743 4294901760
-0.016595051 0.02178112 0.4644396 4294901760
-0.016595051 0.021288894 0.46435177 4294901760
-0.016595051 0.02079667 0.46426395 4294901760
-0.016595051 0.020304441 0.46417612 4294901760
-0.016595051 0.019812217 0.46408829 4294901760
-0.016595051 0.019319991 0.46400046 4294901760
-0.016595051 0.018827762 0.46391267 4294901760
-0.016595051 0.018335538 0.46382484 4294901760
-0.016595051 0.017843312 0.46373701 4294901760
-0.016595051 0.017351085 0.46364918 4294901760
-0.016595051 0.016858859 0.46356136 4294901760
-0.016595051 0.016366635 0.46347353 4294901760
-0.016595051 0.015874406 0.4633857 4294901760
-0.016595051 0.015382182 0.46329787 4294901760
-0.016595051 0.014889956 0.46321005 4294901760
-0.016595051 0.014397729 0.46312222 4294901760
-0.016595051 0.013905503 0.46303439 4294901760
-0.016595051 0.013413277 0.46294656 4294901760
-0.016595051 0.012921052 0.46285874 4294901760
-0.016595051 0.012428824 0.46277091 4294901760
-0.016595051 0.011936598 0.46268308 4294901760
-0.016595051 0.011444373 0.46259525 4294901760
-0.016595051 0.010952145 0.46250743 4294901760
-0.016595051 0.01045992 0.4624196 4294901760
-0.016595051 0.0099676941 0.46233177 4294901760
-0.016595051 0.0094754677 0.46224394 4294901760
-0.016595051 0.0089832414 0.46215612 4294901760
-0.016595051 0.0084910151 0.46206832 4294901760
-0.016595051 0.0079987906 0.46198049 4294901760
-0.016595051 0.0075065643 0.46189266 4294901760
-0.016595051 0.0070143361 0.46180484 4294901760
-0.016595051 0.0065221097 0.46171701 4294901760
-0.016595051 0.0060298853 0.46162918 4294901760
-0.016595051 0.0055376589 0.46154135 4294901760
-0.016595051 0.0050454326 0.46145353 4294901760
-0.016595051 0.0045532081 0.4613657 4294901760
-0.016595051 0.0040609781 0.46127787 4294901760
-0.016595051 0.0035687536 0.46119004 4294901760
-0.016595051 0.0030765273 0.46110222 4294901760
-0.016595051 0.0025843009 0.46101439 4294901760
-0.016595051 0.0020920746 0.46092656 4294901760
-0.016595051 0.001599852 0.46083874 4294901760
-0.016595051 0.0011076219 0.46075091 4294901760
-0.016595051 0.00061539561 0.46066308 4294901760
-0.016595051 0.00012316927 0.46057525 4294901760
-0.016595051 -0.00036905706 0.46048743 4294901760
-0.016595051 -0.00086127967 0.46039963 4294901760
-0.016595051 -0.001353506 0.4603118 4294901760
-0.016595051 -0.0018457361 0.46022397 4294901760
-0.016595051 -0.0023379624 0.46013615 4294901760
-0.016595051 -0.002830185 0.46004832 4294901760
-0.016595051 -0.0033224113 0.45996049 4294901760
-0.016595051 -0.0038146377 0.45987266 4294901760
-0.016595051 -0.004306864 0.45978484 4294901760
-0.016595051 -0.0047990903 0.45969701 4294901760
-0.016595051 -0.0052913167 0.45960918 4294901760
-0.016595051 -0.005783543 0.45952135 4294901760
-0.016595051 -0.0062757693 0.45943353 4294901760
-0.016595051 -0.0067679957 0.4593457 4294901760
-0.016595051 -0.007260222 0.45925787 4294901760
-0.016595051 -0.0077524446 0.45917004 4294901760
-0.016595051 -0.0082446747 0.45908222 4294901760
-0.016595051 -0.008736901 0.45899439 4294901760
-0.016595051 -0.0092291273 0.45890656 4294901760
-0.016595051 -0.0097213537 0.45881873 4294901760
-0.016595051 -0.010213576 0.45873091 4294901760
-0.016595051 -0.010705803 0.45864308 4294901760
-0.016595051 -0.011198033 0.45855528 4294901760
-0.016595051 -0.011690259 0.45846745 4294901760
-0.016595051 -0.012182482 0.45837963 4294901760
-0.016595051 -0.012674708 0.4582918 4294901760
-0.016595051 -0.013166934 0.45820397 4294901760
-0.016595051 -0.013659161 0.45811614 4294901760
-0.016595051 -0.014151391 0.45802832 4294901760
-0.016595051 -0.014643613 0.45794049 4294901760
-0.016595051 -0.01513584 0.45785266 4294901760
-0.016595051 -0.015628066 0.45776483 4294901760
-0.016595051 0.033594549 0.46654743 4278255360
-0.016224423 0.033535596 0.46687782 4278255360
-0.015853796 0.033476647 0.46720821 4278255360
-0.015483171 0.033417694 0.46753863 4278255360
-0.015112543 0.033358745 0.46786901 4278255360
-0.014741916 0.033299793 0.4681994 4278255360
-0.01437129 0.033240844 0.46852979 4278255360
-0.014000663 0.033181891 0.46886018 4278255360
-0.013630036 0.033122942 0.4691906 4278255360
-0.013259409 0.033063989 0.46952099 4278255360
-0.012888783 0.03300504 0.46985137 4278255360
-0.012518156 0.032946087 0.47018176 4278255360
-0.012147529 0.032887138 0.47051215 4278255360
-0.011776902 0.032828186 0.47084257 4278255360
-0.011406275 0.032769233 0.47117296 4278255360
-0.011035648 0.032710284 0.47150335 4278255360
-0.010665022 0.032651331 0.47183374 4278255360
-0.010294395 0.032592382 0.47216412 4278255360
-0.0099237673 0.03253343 0.47249454 4278255360
-0.009553141 0.032474481 0.47282493 4278255360
-0.0091825146 0.032415528 0.47315532 4278255360
-0.0088118874 0.032356579 0.47348571 4278255360
-0.008441261 0.032297626 0.4738161 4278255360
-0.0080706337 0.032238677 0.47414652 4278255360
-0.0077000074 0.032179724 0.4744769 4278255360
-0.0073293801 0.032120772 0.47480729 4278255360
-0.0069587538 0.032061823 0.47513768 4278255360
-0.0065881265 0.03200287 0.47546807 4278255360
-0.0062174993 0.031943921 0.47579849 4278255360
-0.0058468729 0.031884968 0.47612888 4278255360
-0.0054762457 0.031826019 0.47645926 4278255360
-0.0051056193 0.031767067 0.47678965 4278255360
-0.004734993 0.031708118 0.47712004 4278255360
-0.0043643648 0.031649165 0.47745046 4278255360
-0.0039937384 0.031590216 0.47778085 4278255360
-0.0036231121 0.031531263 0.47811124 4278255360
-0.0032524848 0.031472314 0.47844163 4278255360
-0.0028818585 0.031413361 0.47877201 4278255360
-0.0025112312 0.031354412 0.47910243 4278255360
-0.0021406049 0.03129546 0.47943282 4278255360
-0.0017699776 0.031236509 0.47976321 4278255360
-0.0013993513 0.031177558 0.4800936 4278255360
-0.0010287249 0.031118607 0.48042399 4278255360
-0.00065809675 0.031059656 0.48075441 4278255360
-0.00028747134 0.031000704 0.48108479 4278255360
8.315593e-05 0.030941755 0.48141518 4278255360
0.0004537832 0.030882802 0.48174557 4278255360
0.00082441047 0.030823851 0.48207596 4278255360
0.0011950359 0.0307649 0.48240638 4278255360
0.0015656631 0.030705949 0.48273677 4278255360
0.0019362904 0.030646998 0.48306715 4278255360
0.0023069177 0.030588048 0.48339754 4278255360
0.0026775431 0.030529097 0.48372793 4278255360
0.0030481704 0.030470146 0.48405835 4278255360
0.0034187976 0.030411195 0.48438874 4278255360
0.0037894249 0.030352242 0.48471913 4278255360
0.0041600522 0.030293293 0.48504952 4278255360
0.0045306776 0.030234341 0.4853799 4278255360
0.0049013048 0.03017539 0.48571032 4278255360
0.0052719302 0.030116439 0.48604071 4278255360
0.0056425594 0.030057488 0.4863711 4278255360
0.0060131866 0.029998537 0.48670149 4278255360
0.0063838121 0.029939586 0.48703188 4278255360
0.0067544393 0.029880635 0.4873623 4278255360
0.0071250647 0.029821685 0.48769268 4278255360
0.007495692 0.029762734 0.48802307 4278255360
0.0078663211 0.029703783 0.48835346 4278255360
0.0082369465 0.029644832 0.48868385 4278255360
0.0086075738 0.029585879 0.48901427 4278255360
0.0089781992 0.02952693 0.48934466 4278255360
0.0093488265 0.029467978 0.48967505 4278255360
0.0097194538 0.029409029 0.49000543 4278255360
0.010090081 0.029350076 0.49033582 4278255360
0.010460708 0.029291125 0.49066624 4278255360
0.010831334 0.029232174 0.49099663 4278255360
0.011201961 0.029173223 0.49132702 4278255360
0.011572588 0.029114272 0.49165741 4278255360
0.011943214 0.029055322 0.49198779 4278255360
0.012313841 0.028996371 0.49231821 4278255360
0.012684468 0.028937418 0.4926486 4278255360
0.013055095 0.028878469 0.49297899 4278255360
0.013425723 0.028819516 0.49330938 4278255360
0.013796348 0.028760567 0.49363977 4278255360
0.014166975 0.028701615 0.49397019 4278255360
0.014537601 0.028642664 0.49430057 4278255360
0.014908232 0.028583713 0.49463096 4278255360
0.015278857 0.028524762 0.49496135 4278255360
0.015649483 0.028465811 0.49529174 4278255360
0.016020108 0.02840686 0.49562216 4278255360
0.016390737 0.028347909 0.49595255 4278255360
0.016761363 0.028288959 0.49628294 4278255360
0.017131992 0.028230008 0.49661332 4278255360
0.017502617 0.028171055 0.49694371 4278255360
0.017873242 0.028112106 0.49727413 4278255360
0.018243872 0.028053153 0.49760452 4278255360
0.018614497 0.027994204 0.49793491 4278255360
0.018985122 0.027935252 0.4982653 4278255360
0.019355752 0.027876301 0.49859568 4278255360
0.019726377 0.02781735 0.4989261 4278255360
0.020097006 0.027758399 0.49925649 4278255360
0.020467632 0.027699448 0.49958688 4278255360
-0.016595051 0.033594549 0.46654743 4278190335
-0.016930664 0.033529446 0.4669123 4278190335
-0.017266275 0.033464346 0.46727717 4278190335
-0.017601889 0.033399243 0.46764201 4278190335
-0.0179375 0.033334143 0.46800688 4278190335
-0.018273113 0.03326904 0.46837175 4278190335
-0.018608727 0.033203941 0.46873662 4278190335
-0.018944338 0.033138838 0.46910149 4278190335
-0.019279951 0.033073738 0.46946636 4278190335
-0.019615564 0.033008635 0.4698312 4278190335
-0.019951176 0.032943536 0.47019607 4278190335
-0.020286789 0.032878432 0.47056094 4278190335
-0.020622402 0.032813333 0.47092581 4278190335
-0.020958014 0.03274823 0.47129068 4278190335
-0.021293627 0.03268313 0.47165552 4278190335
-0.02162924 0.032618027 0.47202039 4278190335
-0.021964852 0.032552928 0.47238526 4278190335
-0.022300463 0.032487825 0.47275013 4278190335
-0.022636076 0.032422725 0.473115 4278190335
-0.02297169 0.032357622 0.47347987 4278190335
-0.023307301 0.032292522 0.47384471 4278190335
-0.023642914 0.032227419 0.47420958 4278190335
-0.023978528 0.03216232 0.47457445 4278190335
-0.024314139 0.032097217 0.47493932 4278190335
-0.024649752 0.032032117 0.47530419 4278190335
-0.024985366 0.031967014 0.47566903 4278190335
-0.025320977 0.031901915 0.4760339 4278190335
-0.02565659 0.031836811 0.47639877 4278190335
-0.025992204 0.031771712 0.47676364 4278190335
-0.026327815 0.031706609 0.47712851 4278190335
-0.026663428 0.031641509 0.47749338 4278190335
-0.026999041 0.031576406 0.47785822 4278190335
-0.027334653 0.031511307 0.47822309 4278190335
-0.027670264 0.031446204 0.47858796 4278190335
-0.028005878 0.031381104 0.47895283 4278190335
-0.028341491 0.031316001 0.47931769 4278190335
-0.028677102 0.031250902 0.47968256 4278190335
-0.029012715 0.0311858 0.4800474 4278190335
-0.029348329 0.031120699 0.48041227 4278190335
-0.02968394 0.031055598 0.48077714 4278190335
-0.030019553 0.030990496 0.48114201 4278190335
-0.030355167 0.030925395 0.48150688 4278190335
-0.030690778 0.030860294 0.48187172 4278190335
-0.031026391 0.03079519 0.48223659 4278190335
-0.031362005 0.030730091 0.48260146 4278190335
-0.031697616 0.03066499 0.48296633 4278190335
-0.032033227 0.030599888 0.4833312 4278190335
-0.032368839 0.030534785 0.48369607 4278190335
-0.032704454 0.030469686 0.48406091 4278190335
-0.033040069 0.030404583 0.48442578 4278190335
-0.03337568 0.030339483 0.48479065 4278190335
-0.033711292 0.03027438 0.48515552 4278190335
-0.034046903 0.030209281 0.48552039 4278190335
-0.034382515 0.030144179 0.48588523 4278190335
-0.03471813 0.030079076 0.4862501 4278190335
-0.035053741 0.030013975 0.48661497 4278190335
-0.035389356 0.029948873 0.48697984 4278190335
-0.035724968 0.029883772 0.48734471 4278190335
-0.036060579 0.029818673 0.48770958 4278190335
-0.036396191 0.02975357 0.48807442 4278190335
-0.036731806 0.029688468 0.48843929 4278190335
-0.037067417 0.029623367 0.48880416 4278190335
-0.037403032 0.029558266 0.48916903 4278190335
-0.037738644 0.029493164 0.4895339 4278190335
-0.038074255 0.029428065 0.48989874 4278190335
-0.038409866 0.029362962 0.49026361 4278190335
-0.038745478 0.02929786 0.49062848 4278190335
-0.039081093 0.029232759 0.49099335 4278190335
-0.039416704 0.029167658 0.49135822 4278190335
-0.039752319 0.029102556 0.49172309 4278190335
-0.040087931 0.029037455 0.49208793 4278190335
-0.040423542 0.028972354 0.4924528 4278190335
-0.040759154 0.028907252 0.49281767 4278190335
-0.041094769 0.028842151 0.49318254 4278190335
-0.04143038 0.02877705 0.49354741 4278190335
-0.041765992 0.028711949 0.49391228 4278190335
-0.042101607 0.028646847 0.49427712 4278190335
-0.042437218 0.028581746 0.49464199 4278190335
-0.04277283 0.028516645 0.49500686 4278190335
-0.043108441 0.028451543 0.49537173 4278190335
-0.043444056 0.028386442 0.4957366 4278190335
-0.043779667 0.028321341 0.49610144 4278190335
-0.044115283 0.028256239 0.49646631 4278190335
-0.044450894 0.028191138 0.49683118 4278190335
-0.044786505 0.028126037 0.49719605 4278190335
-0.045122117 0.028060935 0.49756092 4278190335
-0.045457732 0.027995834 0.49792576 4278190335
-0.045793343 0.027930733 0.49829063 4278190335
-0.046128955 0.027865632 0.4986555 4278190335
-0.04646457 0.02780053 0.49902037 4278190335
-0.046800181 0.027735429 0.49938524 4278190335
-0.047135793 0.027670328 0.49975011 4278190335
-0.047471404 0.027605226 0.50011498 4278190335
-0.047807019 0.027540125 0.50047982 4278190335
-0.048142631 0.027475024 0.50084472 4278190335
-0.048478242 0.027409922 0.50120956 4278190335
-0.048813857 0.027344821 0.5015744 4278190335
-0.049149469 0.02727972 0.5019393 4278190335
-0.049485084 0.027214618 0.50230414 4278190335
-0.049820695 0.027149517 0.50266904 4278190335
-0.050156306 0.027084416 0.50303388 4278190335
-0.016595051 0.033594549 0.46654743 4294967295
-0.015923826 0.033724751 0.46581769 4294967295
-0.0152526 0.033854954 0.46508798 4294967295
-0.014581375 0.033985157 0.46435824 4294967295
-0.01391015 0.034115359 0.4636285 4294967295
-0.013238925 0.034245562 0.46289879 4294967295
-0.0125677 0.034375764 0.46216905 4294967295
-0.011896474 0.034505967 0.46143934 4294967295
-0.01122525 0.03463617 0.4607096 4294967295
-0.010554025 0.034766372 0.45997986 4294967295
-0.0098827993 0.034896575 0.45925015 4294967295
-0.0092115747 0.035026778 0.45852041 4294967295
-0.0085403491 0.03515698 0.45779067 4294967295
-0.0078691244 0.035287183 0.45706096 4294967295
-0.0071978988 0.035417385 0.45633122 4294967295
-0.0065266732 0.035547588 0.45560148 4294967295
-0.0058554495 0.035677791 0.45487177 4294967295
-0.0051842239 0.035807993 0.45414203 4294967295
-0.0045129983 0.035938196 0.45341229 4294967295
-0.0038417736 0.036068399 0.45268258 4294967295
-0.003170548 0.036198601 0.45195284 4294967295
-0.0024993233 0.036328804 0.45122313 4294967295
-0.0018280987 0.036459006 0.4504934 4294967295
-0.0011568731 0.036589209 0.44976366 4294967295
-0.00048564747 0.036719412 0.44903395 4294967295
0.0001855772 0.036849614 0.44830421 4294967295
0.00085680187 0.036979817 0.44757447 4294967295
0.0015280284 0.037110019 0.44684476 4294967295
0.0021992531 0.037240222 0.44611502 4294967295
0.0028704777 0.037370425 0.44538528 4294967295
0.0035417043 0.037500627 0.44465557 4294967295
0.0042129289 0.03763083 0.44392583 4294967295
0.0048841517 0.037761033 0.44319612 4294967295
0.0055553783 0.037891235 0.44246638 4294967295
0.0062266029 0.038021438 0.44173664 4294967295
0.0068978276 0.03815164 0.44100693 4294967295
0.0075690541 0.038281843 0.44027719 4294967295
0.0082402788 0.038412046 0.43954745 4294967295
0.0089115035 0.038542248 0.43881774 4294967295
0.0095827281 0.038672451 0.438088 4294967295
0.010253955 0.038802654 0.43735826 4294967295
0.010925179 0.038932856 0.43662855 4294967295
0.011596404 0.039063059 0.43589881 4294967295
0.012267631 0.039193265 0.4351691 4294967295
0.012938853 0.039323464 0.43443936 4294967295
0.013610078 0.039453667 0.43370962 4294967295
0.014281305 0.039583869 0.43297988 4294967295
0.014952529 0.039714076 0.43225017 4294967295
0.015623756 0.039844275 0.43152043 4294967295
0.016294982 0.039974481 0.43079072 4294967295
0.016966205 0.04010468 0.43006098 4294967295
0.017637428 0.040234886 0.42933124 4294967295
0.018308654 0.040365085 0.42860153 4294967295
0.018979877 0.040495288 0.42787179 4294967295
0.019651107 0.040625494 0.42714205 4294967295
0.02032233 0.040755697 0.42641234 4294967295
0.020993557 0.040885899 0.4256826 4294967295
0.02166478 0.041016102 0.42495286 4294967295
0.022336006 0.041146301 0.42422315 4294967295
0.023007229 0.041276507 0.42349342 4294967295
0.023678459 0.04140671 0.42276371 4294967295
0.024349682 0.041536912 0.42203397 4294967295
0.025020909 0.041667115 0.42130423 4294967295
0.025692131 0.041797318 0.42057452 4294967295
0.026363354 0.041927516 0.41984478 4294967295
0.027034581 0.042057723 0.41911507 4294967295
0.027705807 0.042187925 0.41838533 4294967295
0.028377034 0.042318128 0.41765559 4294967295
0.029048257 0.042448331 0.41692585 4294967295
0.029719483 0.042578533 0.41619614 4294967295
0.030390706 0.042708736 0.4154664 4294967295
0.031061932 0.042838939 0.41473669 4294967295
0.031733159 0.042969141 0.41400695 4294967295
0.032404386 0.043099344 0.41327721 4294967295
0.033075608 0.043229546 0.4125475 4294967295
0.033746831 0.043359749 0.41181776 4294967295
0.034418058 0.043489952 0.41108802 4294967295
0.03508928 0.043620154 0.41035831 4294967295
0.035760507 0.043750357 0.40962857 4294967295
0.036431734 0.04388056 0.40889883 4294967295
0.03710296 0.044010762 0.40816912 4294967295
0.037774183 0.044140965 0.40743938 4294967295
0.038445409 0.044271167 0.40670967 4294967295
0.039116632 0.04440137 0.40597993 4294967295
0.039787859 0.044531573 0.40525019 4294967295
0.040459085 0.044661775 0.40452045 4294967295
0.041130312 0.044791978 0.40379074 4294967295
0.041801535 0.04492218 0.403061 4294967295
0.042472757 0.045052383 0.40233129 4294967295
0.043143984 0.045182586 0.40160155 4294967295
0.043815207 0.045312788 0.40087181 4294967295
0.044486437 0.045442991 0.4001421 4294967295
0.04515766 0.045573194 0.39941236 4294967295
0.045828886 0.045703396 0.39868265 4294967295
0.046500109 0.045833599 0.39795291 4294967295
0.047171332 0.045963801 0.39722317 4294967295
0.047842562 0.046094004 0.39649343 4294967295
0.048513785 0.046224207 0.39576373 4294967295
0.049185015 0.046354409 0.39503399 4294967295
0.049856238 0.046484612 0.39430428 4294967295
0.050527461 0.046614815 0.39357454 4294967295
