# .PCD v0.7 - Point Cloud Data file format
VERSION 0.7
FIELDS x y z rgb
SIZE 4 4 4 4
TYPE F F F U
COUNT 1 1 1 1
WIDTH 1065
HEIGHT 1
VIEWPOINT 0 0 0 1 0 0 0
POINTS 1065
DATA ascii
0.07207308 0.0631347 0.26700002 4280505901
0.07294029 0.0631347 0.26700002 4281031729
0.073531076 0.062898234 0.266 4280965936
0.074115366 0.062661774 0.26500002 4280964403
0.041030563 0.071912594 0.30000001 4278851334
0.04186495 0.071672887 0.29900002 4280042274
0.042836104 0.071672887 0.29900002 4279715104
0.043660741 0.071433172 0.29800001 4279782180
0.044478886 0.071193472 0.29700002 4279650592
0.04529053 0.070953757 0.296 4279716898
0.046251941 0.070953757 0.296 4279585312
0.047053844 0.070714049 0.29500002 4279651105
0.047849249 0.070474342 0.294 4279519519
0.048472166 0.069994926 0.29200003 4279912996
0.049251329 0.069755211 0.29100001 4280304422
0.050024007 0.069515511 0.29000002 4278654470
0.05079018 0.069275796 0.289 4279246096
0.051549863 0.069036089 0.28800002 4279180049
0.052303042 0.068796374 0.287 4279707672
0.053235218 0.068796374 0.287 4279649311
0.053978663 0.068556674 0.28600001 4280109864
0.054715607 0.068316966 0.28500003 4279182096
0.055641286 0.068316966 0.28500003 4279115535
0.056368485 0.068077251 0.28400001 4279246609
0.057089191 0.067837551 0.28300002 4278720777
0.057803396 0.067597836 0.28200001 4279976992
0.058511112 0.067358129 0.28100002 4278266374
0.059212323 0.067118414 0.28 4279056406
0.060121763 0.067118414 0.28 4279912485
0.060813237 0.066878714 0.27900001 4279846692
0.061498217 0.066639006 0.27800003 4279976994
0.062401161 0.066639006 0.27800003 4279711002
0.063076392 0.066399291 0.27700001 4278329349
0.063976087 0.066399291 0.27700001 4278924820
0.064641573 0.066159591 0.27600002 4279386650
0.065300561 0.065919876 0.27500001 4279519773
0.065953061 0.065680169 0.27400002 4279388187
0.06684301 0.065680169 0.27400002 4279323164
0.067485765 0.065440454 0.273 4279059990
0.068372466 0.065440454 0.273 4278928918
0.069375046 0.064721331 0.27000001 4278797847
0.06999182 0.064481631 0.26900002 4279915301
0.070602082 0.064241916 0.26800001 4279981094
0.071472548 0.064241916 0.26800001 4280441645
0.07207308 0.064002208 0.26700002 4283598687
0.072667107 0.063762493 0.266 4286229896
0.073254645 0.063522793 0.26500002 4281229374
0.074115366 0.063522793 0.26500002 4280505903
0.074693151 0.063283078 0.264 4281228341
0.075264454 0.063043371 0.26300001 4282081855
0.040056165 0.072887324 0.30000001 4278981387
0.041030563 0.072887324 0.30000001 4278981641
0.04186495 0.072644368 0.29900002 4278457091
0.042836104 0.072644368 0.29900002 4278193920
0.043660741 0.072401412 0.29800001 4280107297
0.044628642 0.072401412 0.29800001 4279845918
0.045443542 0.072158456 0.29700002 4279781408
0.046251941 0.071915492 0.296 4279650592
0.047053844 0.071672536 0.29500002 4279520289
0.047849249 0.071429573 0.294 4279717668
0.048472166 0.070943668 0.29200003 4279651105
0.049251329 0.070700705 0.29100001 4279716898
0.050024007 0.070457749 0.29000002 4279846692
0.05079018 0.070214786 0.289 4279843360
0.051549863 0.069971837 0.28800002 4279116307
0.052303042 0.069728874 0.287 4279841311
0.053235218 0.069728874 0.287 4279715104
0.053978663 0.069485918 0.28600001 4279584031
0.054715607 0.069242962 0.28500003 4278657550
0.055446051 0.068999998 0.28400001 4279050512
0.056368485 0.068999998 0.28400001 4279575574
0.057089191 0.06875705 0.28300002 4278983949
0.057803396 0.068514086 0.28200001 4279513623
0.058511112 0.06827113 0.28100002 4280305192
0.059212323 0.068028167 0.28 4280437543
0.060121763 0.068028167 0.28 4278923793
0.060813237 0.067785211 0.27900001 4279649824
0.061498217 0.067542255 0.27800003 4279781410
0.062401161 0.067542255 0.27800003 4279978276
0.063076392 0.067299299 0.27700001 4279845920
0.063745126 0.067056343 0.27600002 4279383838
0.064641573 0.067056343 0.27600002 4278199564
0.065300561 0.06681338 0.27500001 4278923793
0.065953061 0.066570424 0.27400002 4279386650
0.06684301 0.066570424 0.27400002 4279256601
0.067485765 0.06632746 0.273 4279190808
0.068372466 0.06632746 0.273 4279257371
0.068751782 0.065841556 0.27100003 4278863127
0.069375046 0.065598592 0.27000001 4278994713
0.06999182 0.065355636 0.26900002 4279323164
0.070602082 0.065112673 0.26800001 4279388957
0.071205862 0.064869724 0.26700002 4279586850
0.07207308 0.064869724 0.26700002 4279915561
0.072667107 0.064626761 0.266 4281034044
0.073254645 0.064383805 0.26500002 4285899396
0.074115366 0.064383805 0.26500002 4286689162
0.074693151 0.064140841 0.264 4280768557
0.075264454 0.063897885 0.26300001 4281162802
0.07582926 0.063654937 0.26200002 4281424690
0.076387554 0.063411973 0.26100001 4281751605
0.077235281 0.063411973 0.26100001 4284643682
0.040056165 0.073862053 0.30000001 4279113486
0.041030563 0.073862053 0.30000001 4278981900
0.042004965 0.073862053 0.30000001 4278916107
0.042836104 0.073615849 0.29900002 4279113486
0.043660741 0.073369637 0.29800001 4279180301
0.044628642 0.073369637 0.29800001 4278984717
0.045596547 0.073369637 0.29800001 4280108578
0.046408199 0.073123433 0.29700002 4280109862
0.047213346 0.072877221 0.296 4279255836
0.048012007 0.072631024 0.29500002 4279650594
0.048638165 0.072138608 0.29300001 4279716385
0.049251329 0.071646191 0.29100001 4279716385
0.050024007 0.071399987 0.29000002 4279584799
0.05079018 0.071153775 0.289 4279716387
0.051549863 0.07090757 0.28800002 4280241450
0.052303042 0.070661359 0.287 4280043301
0.053049732 0.070415162 0.28600001 4278529294
0.053978663 0.070415162 0.28600001 4279186711
0.054715607 0.070168957 0.28500003 4279974946
0.055446051 0.069922745 0.28400001 4278920207
0.056170009 0.069676541 0.28300002 4278851849
0.057089191 0.069676541 0.28300002 4279181328
0.057803396 0.069430329 0.28200001 4279843358
0.058511112 0.069184124 0.28100002 4280699180
0.059212323 0.068937913 0.28 4280043297
0.060121763 0.068937913 0.28 4279253269
0.060813237 0.068691708 0.27900001 4279582236
0.061498217 0.068445504 0.27800003 4279253271
0.062401161 0.068445504 0.27800003 4279121685
0.063076392 0.068199299 0.27700001 4279517725
0.063745126 0.067953095 0.27600002 4279781412
0.064641573 0.067953095 0.27600002 4279649313
0.065300561 0.067706883 0.27500001 4279055125
0.065953061 0.067460679 0.27400002 4278196736
0.066599056 0.067214467 0.273 4278397449
0.067485765 0.067214467 0.273 4279057176
0.068122022 0.066968262 0.27200001 4279058970
0.068751782 0.066722058 0.27100003 4279124761
0.069375046 0.066475846 0.27000001 4279256347
0.070252009 0.066475846 0.27000001 4279190554
0.070602082 0.065983437 0.26800001 4279059992
0.071205862 0.065737233 0.26700002 4278994713
0.07207308 0.065737233 0.26700002 4279389471
0.072667107 0.065491021 0.266 4279257885
0.073254645 0.065244816 0.26500002 4280045350
0.074115366 0.065244816 0.26500002 4282215749
0.074693151 0.064998604 0.264 4287610264
0.075264454 0.0647524 0.26300001 4285439097
0.07582926 0.064506195 0.26200002 4280701479
0.076387554 0.064259984 0.26100001 4281162030
0.077235281 0.064259984 0.26100001 4281621817
0.077783845 0.064013779 0.26000002 4281948734
0.078628331 0.064013779 0.26000002 4284774503
0.041030563 0.074836783 0.30000001 4279376658
0.042004965 0.074836783 0.30000001 4279179279
0.042836104 0.07458733 0.29900002 4279178768
0.043953769 0.074836783 0.30000001 4279376658
0.044778407 0.07458733 0.29900002 4279310865
0.045596547 0.07433787 0.29800001 4278983951
0.046564456 0.07433787 0.29800001 4279314197
0.047372855 0.074088417 0.29700002 4280108326
0.048337512 0.074088417 0.29700002 4279846692
0.049468167 0.07433787 0.29800001 4279847201
0.049251329 0.072591685 0.29100001 4279913764
0.049851507 0.072092772 0.289 4279848484
0.05079018 0.072092772 0.289 4279716898
0.051549863 0.071843319 0.28800002 4279782178
0.052303042 0.071593858 0.287 4279782178
0.053049732 0.071344405 0.28600001 4280109862
0.053978663 0.071344405 0.28600001 4279318297
0.054715607 0.071094953 0.28500003 4278196224
0.055446051 0.070845492 0.28400001 4280105248
0.056170009 0.070596039 0.28300002 4280368932
0.057089191 0.070596039 0.28300002 4280172325
0.057803396 0.070346579 0.28200001 4280239401
0.058511112 0.070097126 0.28100002 4278923539
0.059212323 0.069847666 0.28 4279911713
0.060121763 0.069847666 0.28 4279450650
0.060813237 0.069598213 0.27900001 4279974944
0.061498217 0.06934876 0.27800003 4279975711
0.06217669 0.0690993 0.27700001 4280634409
0.063076392 0.0690993 0.27700001 4278529548
0.063745126 0.068849847 0.27600002 4279189275
0.064407364 0.068600386 0.27500001 4279321631
0.065300561 0.068600386 0.27500001 4279321627
0.065953061 0.068350933 0.27400002 4279715615
0.066599056 0.068101473 0.273 4279383574
0.067238562 0.06785202 0.27200001 4278198787
0.068122022 0.06785202 0.27200001 4278396427
0.068751782 0.067602567 0.27100003 4279320346
0.069375046 0.067353107 0.27000001 4279124248
0.06999182 0.067103654 0.26900002 4279124248
0.070602082 0.066854194 0.26800001 4279058968
0.071205862 0.066604741 0.26700002 4278994199
0.07207308 0.066604741 0.26700002 4278994199
0.072667107 0.066355281 0.266 4279388957
0.073254645 0.066105828 0.26500002 4279323416
0.074115366 0.066105828 0.26500002 4280046369
0.074693151 0.065856367 0.264 4280045865
0.075264454 0.065606914 0.26300001 4283006039
0.07582926 0.065357462 0.26200002 4287873184
0.076680228 0.065357462 0.26200002 4283793502
0.077235281 0.065108001 0.26100001 4280701481
0.078083009 0.065108001 0.26100001 4281161778
0.07977847 0.065108001 0.26100001 4282934347
0.080626197 0.065108001 0.26100001 4284905571
0.042004965 0.075811513 0.30000001 4279837209
0.042979367 0.075811513 0.30000001 4279837209
0.043953769 0.075811513 0.30000001 4280100381
0.044778407 0.075558811 0.29900002 4279574037
0.04574956 0.075558811 0.29900002 4279837209
0.046564456 0.075306103 0.29800001 4279968795
0.047532357 0.075306103 0.29800001 4279838744
0.048500262 0.075306103 0.29800001 4279972125
0.049468167 0.075306103 0.29800001 4279911201
0.050436068 0.075306103 0.29800001 4279781410
0.049851507 0.073031753 0.289 4279584799
0.050614439 0.072779052 0.28800002 4279585312
0.051370867 0.072526343 0.287 4279716898
0.052303042 0.072526343 0.287 4279651105
0.053049732 0.072273642 0.28600001 4279848484
0.053789929 0.07202094 0.28500003 4279848486
0.054715607 0.07202094 0.28500003 4279912231
0.055446051 0.071768232 0.28400001 4279843873
0.056170009 0.07151553 0.28300002 4278329351
0.057089191 0.07151553 0.28300002 4279842590
0.057803396 0.071262822 0.28200001 4280371498
0.058511112 0.07101012 0.28100002 4280108326
0.059212323 0.070757411 0.28 4278857746
0.060121763 0.070757411 0.28 4279186711
0.060813237 0.07050471 0.27900001 4280172836
0.061498217 0.070252009 0.27800003 4279647516
0.06217669 0.0699993 0.27700001 4279977504
0.063076392 0.0699993 0.27700001 4279385369
0.063745126 0.069746599 0.27600002 4278596625
0.064407364 0.06949389 0.27500001 4279386139
0.065300561 0.06949389 0.27500001 4279256347
0.065953061 0.069241188 0.27400002 4279190554
0.066599056 0.068988472 0.273 4279386652
0.067238562 0.068735771 0.27200001 4279649311
0.067871571 0.06848307 0.27100003 4279119635
0.068751782 0.06848307 0.27100003 4278197506
0.069375046 0.068230361 0.27000001 4278791183
0.06999182 0.067977659 0.26900002 4279385369
0.070602082 0.067724951 0.26800001 4278993175
0.071205862 0.067472249 0.26700002 4278993175
0.07207308 0.067472249 0.26700002 4279059222
0.072667107 0.06721954 0.266 4279059992
0.073531076 0.06721954 0.266 4279059990
0.074115366 0.066966839 0.26500002 4279519771
0.074693151 0.06671413 0.264 4279388955
0.075264454 0.066461429 0.26300001 4279915301
0.076118678 0.066461429 0.26300001 4280570924
0.076680228 0.066208728 0.26200002 4284188258
0.077531204 0.066208728 0.26200002 4288267426
0.078083009 0.065956019 0.26100001 4282806353
0.078930743 0.065956019 0.26100001 4280898860
0.07977847 0.065956019 0.26100001 4281556276
0.080626197 0.065956019 0.26100001 4281751609
0.043953769 0.07678625 0.30000001 4280231969
0.044778407 0.076530293 0.29900002 4280231967
0.04574956 0.076530293 0.29900002 4280232737
0.046564456 0.076274335 0.29800001 4280430116
0.047532357 0.076274335 0.29800001 4280364577
0.048500262 0.076274335 0.29800001 4280495393
0.049468167 0.076274335 0.29800001 4279774235
0.050436068 0.076274335 0.29800001 4280104483
0.051403977 0.076274335 0.29800001 4279911715
0.052371882 0.076274335 0.29800001 4279978276
0.051370867 0.073458843 0.287 4280045350
0.052120801 0.073202886 0.28600001 4279716385
0.053049732 0.073202886 0.28600001 4279848484
0.053789929 0.072946936 0.28500003 4279586084
0.054715607 0.072946936 0.28500003 4279717672
0.055446051 0.072690979 0.28400001 4279848488
0.056170009 0.072435029 0.28300002 4280108840
0.057089191 0.072435029 0.28300002 4279843360
0.057803396 0.072179072 0.28200001 4278592009
0.058511112 0.071923122 0.28100002 4280039715
0.059212323 0.071667165 0.28 4279911461
0.060121763 0.071667165 0.28 4279977254
0.060813237 0.071411207 0.27900001 4280043301
0.061498217 0.071155258 0.27800003 4279121172
0.06217669 0.0708993 0.27700001 4279648541
0.063076392 0.0708993 0.27700001 4280240678
0.063745126 0.07064335 0.27600002 4278199301
0.064407364 0.070387393 0.27500001 4279055638
0.065063111 0.070131443 0.27400002 4279188760
0.065953061 0.070131443 0.27400002 4279255066
0.066599056 0.069875479 0.273 4279256349
0.067238562 0.069619529 0.27200001 4279124761
0.067871571 0.069363579 0.27100003 4279452443
0.068498082 0.069107622 0.27000001 4279648539
0.069375046 0.069107622 0.27000001 4279185943
0.06999182 0.068851672 0.26900002 4278198024
0.070602082 0.068595715 0.26800001 4278198532
0.071205862 0.068339765 0.26700002 4279055890
0.07207308 0.068339765 0.26700002 4279058968
0.072667107 0.0680838 0.266 4278993945
0.073531076 0.0680838 0.266 4279190554
0.074115366 0.067827851 0.26500002 4279322910
0.074693151 0.067571893 0.264 4279586336
0.075550631 0.067571893 0.264 4279257883
0.076118678 0.067315944 0.26300001 4279652641
0.076972902 0.067315944 0.26300001 4280045602
0.077531204 0.067059994 0.26200002 4281424952
0.078382187 0.067059994 0.26200002 4286425740
0.079233162 0.067059994 0.26200002 4287609496
0.07977847 0.066804036 0.26100001 4280372262
0.080626197 0.066804036 0.26100001 4280636971
0.081786096 0.067059994 0.26200002 4280834350
0.047691863 0.077501781 0.29900002 4280627495
0.048663016 0.077501781 0.29900002 4280429346
0.04963417 0.077501781 0.29900002 4280429346
0.050605319 0.077501781 0.29900002 4280364577
0.051576477 0.077501781 0.29900002 4280168223
0.05254763 0.077501781 0.29900002 4279906332
0.051370867 0.074391335 0.287 4280043299
0.052120801 0.074132137 0.28600001 4280175653
0.053049732 0.074132137 0.28600001 4280111143
0.053789929 0.073872931 0.28500003 4279913764
0.054715607 0.073872931 0.28500003 4280045352
0.055446051 0.073613726 0.28400001 4280045352
0.056170009 0.073354527 0.28300002 4279913766
0.057089191 0.073354527 0.28300002 4279782180
0.057803396 0.073095322 0.28200001 4280503338
0.058511112 0.072836116 0.28100002 4279843358
0.059212323 0.07257691 0.28 4278525703
0.060121763 0.07257691 0.28 4279776283
0.060813237 0.072317712 0.27900001 4279976994
0.061498217 0.072058514 0.27800003 4280240164
0.06217669 0.071799301 0.27700001 4278726412
0.063076392 0.071799301 0.27700001 4278528265
0.063745126 0.071540102 0.27600002 4279779363
0.064407364 0.071280897 0.27500001 4279581984
0.065063111 0.071021698 0.27400002 4279777565
0.065953061 0.071021698 0.27400002 4278658314
0.066599056 0.070762493 0.273 4279846688
0.067238562 0.070503287 0.27200001 4279255064
0.067871571 0.070244089 0.27100003 4279386904
0.068498082 0.069984883 0.27000001 4279452697
0.069375046 0.069984883 0.27000001 4279386650
0.06999182 0.069725685 0.26900002 4279649311
0.070602082 0.069466472 0.26800001 4279449113
0.071472548 0.069466472 0.26800001 4278329351
0.07207308 0.069207273 0.26700002 4278659086
0.072667107 0.068948068 0.266 4278859543
0.073531076 0.068948068 0.266 4278993175
0.074115366 0.068688869 0.26500002 4279190554
0.074976087 0.068688869 0.26500002 4279190808
0.075550631 0.068429656 0.264 4279257371
0.076408103 0.068429656 0.264 4279125783
0.076972902 0.068170458 0.26300001 4279586334
0.077827126 0.068170458 0.26300001 4279717150
0.078382187 0.06791126 0.26200002 4280110627
0.079233162 0.06791126 0.26200002 4285373304
0.080084138 0.06791126 0.26200002 4286753671
0.080935121 0.06791126 0.26200002 4281359409
0.081786096 0.06791126 0.26200002 4280110879
0.082637064 0.06791126 0.26200002 4280045602
0.083169378 0.067652054 0.26100001 4280964653
0.084017113 0.067652054 0.26100001 4282471998
0.052120801 0.075061373 0.28600001 4281091376
0.053049732 0.075061373 0.28600001 4280699432
0.053789929 0.074798919 0.28500003 4280503848
0.054715607 0.074798919 0.28500003 4280045352
0.055446051 0.074536465 0.28400001 4279913768
0.056170009 0.074274018 0.28300002 4279913766
0.057089191 0.074274018 0.28300002 4279979557
0.057803396 0.074011557 0.28200001 4279979811
0.058511112 0.07374911 0.28100002 4279979811
0.059212323 0.073486656 0.28 4280371750
0.059907045 0.073224202 0.27900001 4279579416
0.060813237 0.073224202 0.27900001 4278328837
0.061498217 0.072961755 0.27800003 4280171553
0.06217669 0.072699301 0.27700001 4279713307
0.063076392 0.072699301 0.27700001 4280042785
0.063745126 0.072436847 0.27600002 4279584801
0.064407364 0.072174393 0.27500001 4279847205
0.065063111 0.071911946 0.27400002 4278920207
0.065953061 0.071911946 0.27400002 4279709977
0.066599056 0.071649484 0.273 4279184912
0.067238562 0.071387038 0.27200001 4278198016
0.067871571 0.071124591 0.27100003 4279648541
0.068498082 0.070862129 0.27000001 4279320346
0.069375046 0.070862129 0.27000001 4279123732
0.06999182 0.070599683 0.26900002 4279190295
0.070602082 0.070337228 0.26800001 4279320857
0.071472548 0.070337228 0.26800001 4279451932
0.07207308 0.070074782 0.26700002 4279449367
0.07294029 0.070074782 0.26700002 4278527498
0.073531076 0.06981232 0.266 4278329349
0.074395046 0.06981232 0.266 4279055892
0.074976087 0.069549873 0.26500002 4278992662
0.075836807 0.069549873 0.26500002 4278927636
0.076408103 0.069287419 0.264 4278994197
0.077265568 0.069287419 0.264 4279257369
0.077827126 0.069024965 0.26300001 4279125783
0.07868135 0.069024965 0.26300001 4279454748
0.079233162 0.068762518 0.26200002 4279716639
0.080084138 0.068762518 0.26200002 4283268176
0.080935121 0.068762518 0.26200002 4287609760
0.081786096 0.068762518 0.26200002 4280176949
0.082637064 0.068762518 0.26200002 4279520289
0.083169378 0.068500064 0.26100001 4279913764
0.084017113 0.068500064 0.26100001 4281029167
0.053789929 0.075724915 0.28500003 4282405953
0.054715607 0.075724915 0.28500003 4280173860
0.055446051 0.075459212 0.28400001 4279846692
0.056170009 0.075193517 0.28300002 4280241961
0.057089191 0.075193517 0.28300002 4280110373
0.057803396 0.074927807 0.28200001 4279782432
0.058511112 0.074662112 0.28100002 4279782432
0.059212323 0.074396402 0.28 4280308006
0.059907045 0.074130706 0.27900001 4280176420
0.060813237 0.074130706 0.27900001 4281159731
0.061498217 0.073865011 0.27800003 4279580186
0.06217669 0.073599301 0.27700001 4278921226
0.063076392 0.073599301 0.27700001 4280434465
0.063745126 0.073333606 0.27600002 4279715104
0.064407364 0.073067896 0.27500001 4279780897
0.065063111 0.072802201 0.27400002 4279976481
0.065953061 0.072802201 0.27400002 4280172836
0.066599056 0.072536491 0.273 4278920461
0.067238562 0.072270796 0.27200001 4280632104
0.067871571 0.072005101 0.27100003 4278461705
0.068498082 0.07173939 0.27000001 4279646492
0.069375046 0.07173939 0.27000001 4278201097
0.06999182 0.071473695 0.26900002 4279189271
0.070602082 0.071207985 0.26800001 4279321627
0.071472548 0.071207985 0.26800001 4279190041
0.07207308 0.07094229 0.26700002 4279321111
0.07294029 0.07094229 0.26700002 4279254805
0.073531076 0.070676588 0.266 4279909914
0.074395046 0.070676588 0.266 4279250703
0.074976087 0.070410885 0.26500002 4278200583
0.075836807 0.070410885 0.26500002 4279189271
0.076697528 0.070410885 0.26500002 4279059222
0.077265568 0.070145182 0.264 4279125013
0.07812304 0.070145182 0.264 4279256853
0.07868135 0.06987948 0.26300001 4279256853
0.079535574 0.06987948 0.26300001 4279256853
0.080084138 0.069613785 0.26200002 4279585818
0.080935121 0.069613785 0.26200002 4279257121
0.081786096 0.069613785 0.26200002 4280112951
0.082637064 0.069613785 0.26200002 4279652904
0.083169378 0.069348082 0.26100001 4279586596
0.084017113 0.069348082 0.26100001 4279716639
0.08486484 0.069348082 0.26100001 4280897581
0.055446051 0.076381959 0.28400001 4282144068
0.056170009 0.076113015 0.28300002 4280371752
0.057089191 0.076113015 0.28300002 4280371748
0.057803396 0.075844057 0.28200001 4280242213
0.058511112 0.075575113 0.28100002 4280176420
0.059212323 0.075306155 0.28 4279781662
0.059907045 0.075037211 0.27900001 4280044580
0.060813237 0.075037211 0.27900001 4279782178
0.061498217 0.07476826 0.27800003 4279782180
0.06217669 0.074499309 0.27700001 4280240164
0.06284868 0.074230358 0.27600002 4279448854
0.063745126 0.074230358 0.27600002 4278920972
0.064407364 0.073961407 0.27500001 4279777565
0.065063111 0.073692456 0.27400002 4279977506
0.065712355 0.073423505 0.273 4279780127
0.066599056 0.073423505 0.273 4279779613
0.067238562 0.073154554 0.27200001 4279648027
0.067871571 0.07288561 0.27100003 4278198272
0.068498082 0.072616652 0.27000001 4279648029
0.069375046 0.072616652 0.27000001 4279779363
0.06999182 0.072347708 0.26900002 4278989845
0.070602082 0.07207875 0.26800001 4279188760
0.071472548 0.07207875 0.26800001 4278991381
0.07207308 0.071809806 0.26700002 4279321111
0.07294029 0.071809806 0.26700002 4279321111
0.073531076 0.071540847 0.266 4279321111
0.074395046 0.071540847 0.266 4279386137
0.075259015 0.071540847 0.266 4278790924
0.075836807 0.071271904 0.26500002 4279383061
0.076697528 0.071271904 0.26500002 4279519006
0.077265568 0.071002945 0.264 4279256088
0.07812304 0.071002945 0.264 4278861330
0.07868135 0.070734002 0.26300001 4279125013
0.079535574 0.070734002 0.26300001 4279190806
0.080389798 0.070734002 0.26300001 4279256599
0.080935121 0.070465051 0.26200002 4279454496
0.081786096 0.070465051 0.26200002 4279191838
0.082637064 0.070465051 0.26200002 4279323939
0.083169378 0.0701961 0.26100001 4279192605
0.084017113 0.0701961 0.26100001 4279256601
0.08486484 0.0701961 0.26100001 4279715869
0.085712567 0.0701961 0.26100001 4281223466
0.056170009 0.077032506 0.28300002 4286683013
0.057089191 0.077032506 0.28300002 4282078271
0.057803396 0.076760307 0.28200001 4280765223
0.058511112 0.076488107 0.28100002 4280306469
0.059212323 0.076215908 0.28 4279912994
0.059907045 0.075943708 0.27900001 4280111143
0.060813237 0.075943708 0.27900001 4279913764
0.061719432 0.075943708 0.27900001 4280045350
0.06217669 0.075399309 0.27700001 4279979557
0.06284868 0.07512711 0.27600002 4280176166
0.063745126 0.07512711 0.27600002 4280108578
0.064407364 0.07485491 0.27500001 4279251734
0.065063111 0.074582711 0.27400002 4278329349
0.065712355 0.074310511 0.273 4279908635
0.066355109 0.074038312 0.27200001 4279715102
0.067238562 0.074038312 0.27200001 4279649822
0.067871571 0.073766112 0.27100003 4279319578
0.068498082 0.073493913 0.27000001 4278792466
0.069375046 0.073493913 0.27000001 4279119635
0.06999182 0.073221713 0.26900002 4279447832
0.070602082 0.072949514 0.26800001 4278789900
0.071472548 0.072949514 0.26800001 4279777567
0.07207308 0.072677314 0.26700002 4278661394
0.07294029 0.072677314 0.26700002 4279123480
0.073807508 0.072677314 0.26700002 4279124248
0.074395046 0.072405107 0.266 4279255834
0.075259015 0.072405107 0.266 4278461705
0.076122984 0.072405107 0.266 4278987533
0.076697528 0.072132915 0.26500002 4279255064
0.077558242 0.072132915 0.26500002 4279124248
0.07812304 0.071860708 0.264 4279255834
0.078980513 0.071860708 0.264 4279190295
0.079535574 0.071588516 0.26300001 4279256088
0.080389798 0.071588516 0.26300001 4279190808
0.080935121 0.071316317 0.26200002 4278994199
0.081786096 0.071316317 0.26200002 4279125785
0.082637064 0.071316317 0.26200002 4279126812
0.083169378 0.07104411 0.26100001 4279126812
0.084017113 0.07104411 0.26100001 4279323164
0.08486484 0.07104411 0.26100001 4279386904
0.085712567 0.07104411 0.26100001 4280370719
0.059907045 0.076850213 0.27900001 4280700713
0.060813237 0.076850213 0.27900001 4280175653
0.061276998 0.07629931 0.27700001 4280109860
0.06217669 0.07629931 0.27700001 4279912735
0.06284868 0.076023869 0.27600002 4279978528
0.063514166 0.075748414 0.27500001 4280242213
0.064407364 0.075748414 0.27500001 4279123732
0.065063111 0.075472966 0.27400002 4280437030
0.065712355 0.075197518 0.273 4279645209
0.066355109 0.07492207 0.27200001 4278328835
0.067238562 0.07492207 0.27200001 4279843612
0.067871571 0.074646622 0.27100003 4279517727
0.068498082 0.074371174 0.27000001 4279780899
0.069375046 0.074371174 0.27000001 4279779615
0.06999182 0.074095726 0.26900002 4279844895
0.070602082 0.073820271 0.26800001 4279119635
0.071472548 0.073820271 0.26800001 4279317014
0.07207308 0.07354483 0.26700002 4278922769
0.07294029 0.07354483 0.26700002 4279188762
0.073807508 0.07354483 0.26700002 4278993947
0.074395046 0.073269375 0.266 4279058970
0.075259015 0.073269375 0.266 4278725390
0.076122984 0.073269375 0.266 4279448854
0.076697528 0.072993927 0.26500002 4279321363
0.077558242 0.072993927 0.26500002 4279255316
0.07812304 0.072718471 0.264 4279584029
0.078980513 0.072718471 0.264 4279452697
0.079535574 0.072443031 0.26300001 4278993429
0.080389798 0.072443031 0.26300001 4278993429
0.080935121 0.072167583 0.26200002 4279059222
0.081786096 0.072167583 0.26200002 4279519771
0.082637064 0.072167583 0.26200002 4278731539
0.083169378 0.071892127 0.26100001 4278797334
0.084017113 0.071892127 0.26100001 4279388185
0.08486484 0.071892127 0.26100001 4279189523
0.085712567 0.071892127 0.26100001 4279714072
0.061276998 0.07719931 0.27700001 4280634407
0.06217669 0.07719931 0.27700001 4280241700
0.06284868 0.076920614 0.27600002 4280110114
0.063514166 0.07664191 0.27500001 4280044834
0.064407364 0.07664191 0.27500001 4279913248
0.065063111 0.076363213 0.27400002 4280044834
0.065712355 0.076084509 0.273 4279912735
0.066355109 0.075805821 0.27200001 4280239651
0.066991366 0.075527124 0.27100003 4279184658
0.067871571 0.075527124 0.27100003 4278460937
0.068498082 0.07524842 0.27000001 4279449113
0.069118105 0.074969731 0.26900002 4279978278
0.06999182 0.074969731 0.26900002 4279451934
0.070602082 0.074691027 0.26800001 4279581723
0.071472548 0.074691027 0.26800001 4278856717
0.07207308 0.074412331 0.26700002 4278659084
0.07294029 0.074412331 0.26700002 4279187992
0.073807508 0.074412331 0.26700002 4279124763
0.074674726 0.074412331 0.26700002 4278927386
0.075259015 0.074133627 0.266 4278527498
0.076122984 0.074133627 0.266 4279646746
0.077276379 0.074412331 0.26700002 4279386904
0.078143589 0.074412331 0.26700002 4279255318
0.079010807 0.074412331 0.26700002 4279321111
0.078980513 0.073576234 0.264 4279255318
0.079535574 0.073297538 0.26300001 4278796050
0.080389798 0.073297538 0.26300001 4279125015
0.080935121 0.073018841 0.26200002 4279190554
0.081786096 0.073018841 0.26200002 4279190808
0.082637064 0.073018841 0.26200002 4279124500
0.083169378 0.072740138 0.26100001 4279124500
0.084017113 0.072740138 0.26100001 4279190293
0.08486484 0.072740138 0.26100001 4279189523
0.085712567 0.072740138 0.26100001 4279253521
0.06284868 0.077817366 0.27600002 4280633637
0.063514166 0.077535413 0.27500001 4280109860
0.064173155 0.077253468 0.27400002 4279978274
0.065063111 0.077253468 0.27400002 4279912994
0.065712355 0.076971523 0.273 4279913248
0.066355109 0.076689579 0.27200001 4280175907
0.066991366 0.076407634 0.27100003 4280043297
0.067621119 0.076125681 0.27000001 4280764460
0.068498082 0.076125681 0.27000001 4279382039
0.069118105 0.075843737 0.26900002 4278723593
0.06999182 0.075843737 0.26900002 4279843871
0.070602082 0.075561784 0.26800001 4279254555
0.071472548 0.075561784 0.26800001 4279649313
0.072343014 0.075561784 0.26800001 4279582750
0.07294029 0.075279839 0.26700002 4279386139
0.073807508 0.075279839 0.26700002 4279124248
0.074674726 0.075279839 0.26700002 4279124250
0.075541943 0.075279839 0.26700002 4278724107
0.076409161 0.075279839 0.26700002 4279515930
0.077276379 0.075279839 0.26700002 4279190295
0.078143589 0.075279839 0.26700002 4279124502
0.079010807 0.075279839 0.26700002 4279321881
0.079878025 0.075279839 0.26700002 4279190295
0.080745243 0.075279839 0.26700002 4279190808
0.080389798 0.074152052 0.26300001 4279124761
0.080935121 0.073870108 0.26200002 4279190554
0.081786096 0.073870108 0.26200002 4279387933
0.082637064 0.073870108 0.26200002 4279651105
0.08348804 0.073870108 0.26200002 4279124500
0.084017113 0.073588155 0.26100001 4278992144
0.08486484 0.073588155 0.26100001 4278860045
0.065471657 0.077573337 0.27200001 4279846690
0.066111155 0.077288143 0.27100003 4279846690
0.066991366 0.077288143 0.27100003 4279978276
0.067621119 0.077002943 0.27000001 4280110373
0.068498082 0.077002943 0.27000001 4279978276
0.069118105 0.076717749 0.26900002 4280435749
0.06999182 0.076717749 0.26900002 4279644695
0.070602082 0.076432548 0.26800001 4278461707
0.071472548 0.076432548 0.26800001 4279317527
0.07207308 0.076147355 0.26700002 4279386139
0.07294029 0.076147355 0.26700002 4279386650
0.073807508 0.076147355 0.26700002 4279124248
0.074674726 0.076147355 0.26700002 4278860306
0.075541943 0.076147355 0.26700002 4278790924
0.076409161 0.076147355 0.26700002 4279581721
0.077276379 0.076147355 0.26700002 4279255834
0.078143589 0.076147355 0.26700002 4279190041
0.079010807 0.076147355 0.26700002 4279190295
0.079878025 0.076147355 0.26700002 4279124502
0.080745243 0.076147355 0.26700002 4279321881
0.08161246 0.076147355 0.26700002 4279453213
0.082479678 0.076147355 0.26700002 4279255834
0.081786096 0.074721374 0.26200002 4279321627
0.082637064 0.074721374 0.26200002 4279912994
0.08348804 0.074721374 0.26200002 4279912735
0.084339023 0.074721374 0.26200002 4279517207
0.085189998 0.074721374 0.26200002 4279187988
0.086040974 0.074721374 0.26200002 4279317781
0.066111155 0.078168653 0.27100003 4280503848
0.066744164 0.077880204 0.27000001 4279912481
0.067621119 0.077880204 0.27000001 4279649824
0.06824439 0.077591762 0.26900002 4279781410
0.069118105 0.077591762 0.26900002 4279780897
0.069731623 0.077303305 0.26800001 4280109090
0.070602082 0.077303305 0.26800001 4280107043
0.071472548 0.077303305 0.26800001 4278526728
0.07207308 0.077014871 0.26700002 4278789640
0.07294029 0.077014871 0.26700002 4279186193
0.073807508 0.077014871 0.26700002 4278991892
0.074674726 0.077014871 0.26700002 4278661646
0.075541943 0.077014871 0.26700002 4278921738
0.076409161 0.077014871 0.26700002 4279582234
0.077276379 0.077014871 0.26700002 4279452697
0.078143589 0.077014871 0.26700002 4279256601
0.079010807 0.077014871 0.26700002 4279059992
0.079878025 0.077014871 0.26700002 4278928406
0.080745243 0.077014871 0.26700002 4279124502
0.08161246 0.077014871 0.26700002 4279190295
0.082479678 0.077014871 0.26700002 4279190295
0.082098253 0.075861081 0.26300001 4279781662
0.082637064 0.07557264 0.26200002 4279978276
0.08348804 0.07557264 0.26200002 4279715104
0.084339023 0.07557264 0.26200002 4279911199
0.085189998 0.07557264 0.26200002 4279648027
0.086040974 0.07557264 0.26200002 4279251988
0.066744164 0.07875745 0.27000001 4281093679
0.067621119 0.07875745 0.27000001 4280306471
0.06824439 0.07846576 0.26900002 4280043299
0.069118105 0.07846576 0.26900002 4280109862
0.069731623 0.078174062 0.26800001 4279978274
0.070602082 0.078174062 0.26800001 4279715102
0.071472548 0.078174062 0.26800001 4280043297
0.07207308 0.077882372 0.26700002 4280172573
0.07294029 0.077882372 0.26700002 4279448082
0.073807508 0.077882372 0.26700002 4278658566
0.074674726 0.077882372 0.26700002 4278855433
0.075541943 0.077882372 0.26700002 4279315984
0.076409161 0.077882372 0.26700002 4279911197
0.077276379 0.077882372 0.26700002 4279453467
0.078143589 0.077882372 0.26700002 4279256601
0.079010807 0.077882372 0.26700002 4279059222
0.079578854 0.077590674 0.266 4279059222
0.080442823 0.077590674 0.266 4279256601
0.081001133 0.077298984 0.26500002 4279059222
0.081861854 0.077298984 0.26500002 4279321881
0.082098253 0.076715589 0.26300001 4279781408
0.08295247 0.076715589 0.26300001 4279912996
0.08348804 0.076423898 0.26200002 4279715104
0.084339023 0.076423898 0.26200002 4279648541
0.085189998 0.076423898 0.26200002 4279516955
0.086040974 0.076423898 0.26200002 4279384342
0.06824439 0.079339772 0.26900002 4281026602
0.068861157 0.079044826 0.26800001 4280371750
0.069731623 0.079044826 0.26800001 4280109092
0.070602082 0.079044826 0.26800001 4279780895
0.071472548 0.079044826 0.26800001 4279780895
0.07207308 0.07874988 0.26700002 4279780895
0.07294029 0.07874988 0.26700002 4279517723
0.073807508 0.07874988 0.26700002 4279779100
0.074674726 0.07874988 0.26700002 4279646744
0.075541943 0.07874988 0.26700002 4279844893
0.076409161 0.07874988 0.26700002 4279845920
0.077276379 0.07874988 0.26700002 4279321627
0.078143589 0.07874988 0.26700002 4279190554
0.079010807 0.07874988 0.26700002 4279058455
0.079578854 0.078454934 0.266 4279190041
0.080442823 0.078454934 0.266 4279125015
0.081001133 0.078159995 0.26500002 4279256088
0.081861854 0.078159995 0.26500002 4279321629
0.08241041 0.077865049 0.264 4279715617
0.08295247 0.077570111 0.26300001 4279978276
0.083806694 0.077570111 0.26300001 4279649311
0.084339023 0.077275164 0.26200002 4279320598
0.085189998 0.077275164 0.26200002 4279386391
0.086040974 0.077275164 0.26200002 4279319574
0.068861157 0.079915583 0.26800001 4283525201
0.069731623 0.079915583 0.26800001 4281091882
0.070602082 0.079915583 0.26800001 4280830503
0.071205862 0.079617396 0.26700002 4280371750
0.07207308 0.079617396 0.26700002 4279911713
0.07294029 0.079617396 0.26700002 4279780899
0.073807508 0.079617396 0.26700002 4279715104
0.074674726 0.079617396 0.26700002 4279846690
0.075541943 0.079617396 0.26700002 4279715104
0.076409161 0.079617396 0.26700002 4279649311
0.077276379 0.079617396 0.26700002 4279584029
0.078143589 0.079617396 0.26700002 4279386650
0.078714885 0.079319201 0.266 4279190554
0.079578854 0.079319201 0.266 4279256347
0.080442823 0.079319201 0.266 4279058968
0.081001133 0.079021007 0.26500002 4279124761
0.081861854 0.079021007 0.26500002 4279519008
0.08241041 0.078722812 0.264 4280110373
0.08295247 0.078424625 0.26300001 4279977504
0.083806694 0.078424625 0.26300001 4279715104
0.084660918 0.078424625 0.26300001 4279715104
0.085189998 0.078126438 0.26200002 4279386139
0.086040974 0.078126438 0.26200002 4279517725
0.068861157 0.080786347 0.26800001 4286089081
0.069731623 0.080786347 0.26800001 4286154361
0.070602082 0.080786347 0.26800001 4285233770
0.071205862 0.080484904 0.26700002 4281617204
0.07207308 0.080484904 0.26700002 4280962091
0.07294029 0.080484904 0.26700002 4280568614
0.073807508 0.080484904 0.26700002 4280240676
0.074674726 0.080484904 0.26700002 4279715104
0.075541943 0.080484904 0.26700002 4279846690
0.076409161 0.080484904 0.26700002 4279715104
0.077276379 0.080484904 0.26700002 4279649822
0.078143589 0.080484904 0.26700002 4279584283
0.078714885 0.080183461 0.266 4279124502
0.079578854 0.080183461 0.266 4279059222
0.080442823 0.080183461 0.266 4279125785
0.081001133 0.079882026 0.26500002 4278994199
0.081861854 0.079882026 0.26500002 4279585053
0.08241041 0.079580575 0.264 4279914018
0.083267875 0.079580575 0.264 4280109344
0.083806694 0.07927914 0.26300001 4279846172
0.084660918 0.07927914 0.26300001 4280109344
0.085515149 0.07927914 0.26300001 4279845918
0.086040974 0.078977704 0.26200002 4279712024
0.069731623 0.081657097 0.26800001 4286220154
0.070338644 0.081352413 0.26700002 4285825396
0.071205862 0.081352413 0.26700002 4285431151
0.07207308 0.081352413 0.26700002 4285760364
0.07294029 0.081352413 0.26700002 4281945908
0.073807508 0.081352413 0.26700002 4281092395
0.074674726 0.081352413 0.26700002 4280764714
0.075541943 0.081352413 0.26700002 4280240166
0.076122984 0.081047714 0.266 4279846692
0.076986954 0.081047714 0.266 4279847201
0.077850915 0.081047714 0.266 4279649822
0.078714885 0.081047714 0.266 4279321627
0.079578854 0.081047714 0.266 4279256347
0.080442823 0.081047714 0.266 4278993945
0.081001133 0.08074303 0.26500002 4279257117
0.081861854 0.08074303 0.26500002 4279716385
0.08241041 0.080438331 0.264 4279912994
0.083267875 0.080438331 0.264 4279780895
0.083806694 0.080133647 0.26300001 4279648539
0.084660918 0.080133647 0.26300001 4280042783
0.085515149 0.080133647 0.26300001 4279976990
0.086040974 0.079828963 0.26200002 4279447057
0.071205862 0.082219921 0.26700002 4285890415
0.07207308 0.082219921 0.26700002 4285562220
0.07294029 0.082219921 0.26700002 4285430634
0.073531076 0.081911981 0.266 4285496427
0.074395046 0.081911981 0.266 4283392332
0.075259015 0.081911981 0.266 4280500258
0.076122984 0.081911981 0.266 4280699434
0.076986954 0.081911981 0.266 4280109092
0.077850915 0.081911981 0.266 4279846690
0.078714885 0.081911981 0.266 4279453215
0.079578854 0.081911981 0.266 4279584801
0.080140412 0.081604041 0.26500002 4279519008
0.081001133 0.081604041 0.26500002 4279912996
0.081861854 0.081604041 0.26500002 4280176168
0.08241041 0.081296101 0.264 4280176168
0.083267875 0.081296101 0.264 4279977504
0.083806694 0.080988161 0.26300001 4279780127
0.084660918 0.080988161 0.26300001 4279648027
0.085515149 0.080988161 0.26300001 4279450648
0.086369373 0.080988161 0.26300001 4280235290
0.07207308 0.083087437 0.26700002 4285956208
0.072667107 0.082776241 0.266 4285693036
0.073531076 0.082776241 0.266 4285626730
0.074395046 0.082776241 0.266 4285626730
0.075259015 0.082776241 0.266 4284970850
0.076122984 0.082776241 0.266 4283984467
0.076986954 0.082776241 0.266 4280828456
0.077850915 0.082776241 0.266 4281223979
0.078714885 0.082776241 0.266 4280437543
0.079279691 0.08246506 0.26500002 4280043299
0.080140412 0.08246506 0.26500002 4280043299
0.081001133 0.08246506 0.26500002 4280372264
0.081552938 0.082153864 0.264 4280503850
0.08241041 0.082153864 0.264 4280109092
0.083267875 0.082153864 0.264 4279780125
0.083806694 0.081842676 0.26300001 4279911199
0.084660918 0.081842676 0.26300001 4279516441
0.085515149 0.081842676 0.26300001 4279449365
0.086369373 0.081842676 0.26300001 4285035358
0.074395046 0.083640508 0.266 4285560937
0.075259015 0.083640508 0.266 4285429864
0.076122984 0.083640508 0.266 4285364071
0.076986954 0.083640508 0.266 4285101669
0.077850915 0.083640508 0.266 4285036903
0.078418963 0.083326072 0.26500002 4282143283
0.079279691 0.083326072 0.26500002 4281091878
0.080140412 0.083326072 0.26500002 4280699171
0.081001133 0.083326072 0.26500002 4280699430
0.081552938 0.083011627 0.264 4280437030
0.08241041 0.083011627 0.264 4280305444
0.083267875 0.083011627 0.264 4279975707
0.083806694 0.08269719 0.26300001 4279777815
0.084660918 0.08269719 0.26300001 4280039192
0.085515149 0.08269719 0.26300001 4283063619
0.086369373 0.08269719 0.26300001 4285625962
0.076122984 0.084504768 0.266 4285560937
0.076986954 0.084504768 0.266 4285495144
0.077850915 0.084504768 0.266 4285495144
0.078418963 0.084187083 0.26500002 4285298019
0.079279691 0.084187083 0.26500002 4285035099
0.080140412 0.084187083 0.26500002 4283918160
0.080695465 0.08386939 0.264 4281615921
0.081552938 0.08386939 0.264 4280894764
0.08241041 0.08386939 0.264 4280565799
0.08295247 0.083551712 0.26300001 4280762147
0.083806694 0.083551712 0.26300001 4280826657
0.084660918 0.083551712 0.26300001 4284904026
0.085515149 0.083551712 0.26300001 4285166431
0.086369373 0.083551712 0.26300001 4285888616
0.076986954 0.085369021 0.266 4285756776
0.077558242 0.085048094 0.26500002 4285625960
0.078418963 0.085048094 0.26500002 4285495144
0.079279691 0.085048094 0.26500002 4285297765
0.080140412 0.085048094 0.26500002 4285429351
0.080695465 0.084727146 0.264 4285298019
0.081552938 0.084727146 0.264 4284969313
0.08241041 0.084727146 0.264 4284903520
0.08295247 0.084406219 0.26300001 4284772956
0.083806694 0.084406219 0.26300001 4284641624
0.084660918 0.084406219 0.26300001 4285232224
0.085515149 0.084406219 0.26300001 4285757798
0.086369373 0.084406219 0.26300001 4285954409
0.081552938 0.085584916 0.264 4285166433
0.082098253 0.085260734 0.26300001 4285034847
0.083267875 0.085584916 0.264 4285495398
0.084125347 0.085584916 0.264 4285298019
0.08498282 0.085584916 0.264 4285166692
0.085840292 0.085584916 0.264 4285626732
0.086697772 0.085584916 0.264 4285757548
0.059965238 0.068461023 0.28162363 4294967295
0.059965238 0.068461023 0.28162363 4294901760
0.060076214 0.067980744 0.28153986 4294901760
0.060187194 0.067500472 0.28145608 4294901760
0.060298171 0.067020193 0.28137228 4294901760
0.060409151 0.066539921 0.2812885 4294901760
0.060520127 0.066059642 0.28120473 4294901760
0.060631104 0.06557937 0.28112096 4294901760
0.060742084 0.06509909 0.28103718 4294901760
0.06085306 0.064618818 0.28095338 4294901760
0.06096404 0.064138539 0.2808696 4294901760
0.061075017 0.063658267 0.28078583 4294901760
0.061185993 0.063177988 0.28070205 4294901760
0.061296973 0.062697716 0.28061828 4294901760
0.06140795 0.06221744 0.28053448 4294901760
0.06151893 0.061737165 0.2804507 4294901760
0.061629906 0.061256886 0.28036693 4294901760
0.061740883 0.060776614 0.28028315 4294901760
0.061851863 0.060296334 0.28019938 4294901760
0.061962839 0.059816059 0.28011557 4294901760
0.062073819 0.059335783 0.2800318 4294901760
0.062184796 0.058855508 0.27994803 4294901760
0.062295772 0.058375232 0.27986425 4294901760
0.062406752 0.057894956 0.27978048 4294901760
0.062517732 0.057414681 0.27969667 4294901760
0.062628709 0.056934405 0.2796129 4294901760
0.062739685 0.05645413 0.27952912 4294901760
0.062850662 0.055973854 0.27944535 4294901760
0.062961638 0.055493578 0.27936158 4294901760
0.063072622 0.055013303 0.27927777 4294901760
0.063183598 0.054533027 0.279194 4294901760
0.063294575 0.054052752 0.27911022 4294901760
0.063405551 0.053572476 0.27902645 4294901760
0.063516527 0.0530922 0.27894267 4294901760
0.063627511 0.052611925 0.27885887 4294901760
0.063738488 0.052131649 0.2787751 4294901760
0.063849464 0.051651374 0.27869132 4294901760
0.06396044 0.051171094 0.27860755 4294901760
0.064071417 0.050690822 0.27852377 4294901760
0.064182401 0.050210547 0.27843997 4294901760
0.064293377 0.049730271 0.27835619 4294901760
0.064404353 0.049249992 0.27827242 4294901760
0.06451533 0.04876972 0.27818865 4294901760
0.064626306 0.048289444 0.27810487 4294901760
0.06473729 0.047809169 0.27802107 4294901760
0.064848267 0.047328889 0.27793729 4294901760
0.064959243 0.046848617 0.27785352 4294901760
0.065070219 0.046368338 0.27776974 4294901760
0.065181196 0.045888066 0.27768597 4294901760
0.06529218 0.045407787 0.27760217 4294901760
0.065403156 0.044927515 0.27751839 4294901760
0.065514132 0.044447236 0.27743462 4294901760
0.065625109 0.043966964 0.27735084 4294901760
0.065736085 0.043486685 0.27726707 4294901760
0.065847069 0.043006413 0.27718326 4294901760
0.065958045 0.042526133 0.27709949 4294901760
0.066069022 0.042045858 0.27701572 4294901760
0.066179998 0.041565582 0.27693194 4294901760
0.066290975 0.04108531 0.27684817 4294901760
0.066401958 0.040605031 0.27676436 4294901760
0.066512935 0.040124759 0.27668059 4294901760
0.066623911 0.03964448 0.27659681 4294901760
0.066734888 0.039164204 0.27651304 4294901760
0.066845864 0.038683929 0.27642927 4294901760
0.066956848 0.038203653 0.27634546 4294901760
0.067067824 0.037723377 0.27626169 4294901760
0.067178801 0.037243105 0.27617791 4294901760
0.067289777 0.036762826 0.27609414 4294901760
0.067400753 0.036282551 0.27601036 4294901760
0.067511737 0.035802275 0.27592656 4294901760
0.067622714 0.035321999 0.27584279 4294901760
0.06773369 0.034841724 0.27575901 4294901760
0.067844667 0.034361448 0.27567524 4294901760
0.067955643 0.033881169 0.27559146 4294901760
0.068066627 0.033400897 0.27550766 4294901760
0.068177603 0.032920621 0.27542388 4294901760
0.06828858 0.032440346 0.27534011 4294901760
0.068399556 0.03196007 0.27525634 4294901760
0.068510532 0.031479795 0.27517256 4294901760
0.068621516 0.030999519 0.27508876 4294901760
0.068732493 0.03051924 0.27500498 4294901760
0.068843469 0.030038964 0.27492121 4294901760
0.068954445 0.029558692 0.27483743 4294901760
0.069065422 0.029078417 0.27475366 4294901760
0.069176406 0.028598141 0.27466986 4294901760
0.069287382 0.028117865 0.27458608 4294901760
0.069398358 0.027637586 0.27450231 4294901760
0.069509335 0.02715731 0.27441853 4294901760
0.069620311 0.026677035 0.27433476 4294901760
0.069731295 0.026196759 0.27425095 4294901760
0.069842272 0.025716487 0.27416718 4294901760
0.069953248 0.025236212 0.27408341 4294901760
0.070064224 0.024755932 0.27399963 4294901760
0.070175201 0.024275657 0.27391586 4294901760
0.070286185 0.023795381 0.27383205 4294901760
0.070397161 0.023315106 0.27374828 4294901760
0.070508137 0.02283483 0.2736645 4294901760
0.070619114 0.022354554 0.27358073 4294901760
0.07073009 0.021874279 0.27349696 4294901760
0.070841074 0.021394003 0.27341315 4294901760
0.07095205 0.020913728 0.27332938 4294901760
0.071063027 0.020433452 0.2732456 4294901760
0.059965238 0.068461023 0.28162363 4278255360
0.060307618 0.068598971 0.28128636 4278255360
0.060649995 0.068736918 0.28094912 4278255360
0.060992375 0.068874866 0.28061184 4278255360
0.061334755 0.069012813 0.28027457 4278255360
0.061677132 0.069150761 0.2799373 4278255360
0.062019512 0.069288708 0.27960005 4278255360
0.062361892 0.069426656 0.27926278 4278255360
0.062704273 0.069564603 0.27892551 4278255360
0.063046649 0.069702543 0.27858827 4278255360
0.063389026 0.069840491 0.27825099 4278255360
0.06373141 0.069978438 0.27791372 4278255360
0.064073786 0.070116386 0.27757645 4278255360
0.064416163 0.070254333 0.2772392 4278255360
0.064758547 0.070392281 0.27690193 4278255360
0.065100923 0.070530228 0.27656466 4278255360
0.0654433 0.070668176 0.27622741 4278255360
0.065785684 0.070806123 0.27589014 4278255360
0.06612806 0.070944071 0.27555287 4278255360
0.066470437 0.071082018 0.2752156 4278255360
0.066812821 0.071219966 0.27487835 4278255360
0.067155197 0.071357913 0.27454108 4278255360
0.067497581 0.071495861 0.27420381 4278255360
0.067839958 0.071633808 0.27386656 4278255360
0.068182334 0.071771756 0.27352929 4278255360
0.068524718 0.071909696 0.27319202 4278255360
0.068867095 0.072047643 0.27285475 4278255360
0.069209471 0.072185591 0.2725175 4278255360
0.069551855 0.072323538 0.27218023 4278255360
0.069894232 0.072461486 0.27184296 4278255360
0.070236608 0.072599433 0.27150571 4278255360
0.070578992 0.072737381 0.27116844 4278255360
0.070921369 0.072875328 0.27083117 4278255360
0.071263745 0.073013276 0.27049389 4278255360
0.071606129 0.073151223 0.27015665 4278255360
0.071948506 0.073289171 0.26981938 4278255360
0.072290882 0.073427118 0.26948211 4278255360
0.072633266 0.073565066 0.26914486 4278255360
0.072975643 0.073703013 0.26880759 4278255360
0.07331802 0.073840961 0.26847032 4278255360
0.073660403 0.073978908 0.26813304 4278255360
0.07400278 0.074116856 0.2677958 4278255360
0.074345157 0.074254796 0.26745853 4278255360
0.074687541 0.074392743 0.26712126 4278255360
0.075029917 0.074530691 0.26678401 4278255360
0.075372294 0.074668638 0.26644674 4278255360
0.075714678 0.074806586 0.26610947 4278255360
0.076057054 0.074944533 0.26577219 4278255360
0.076399431 0.075082481 0.26543495 4278255360
0.076741815 0.075220428 0.26509768 4278255360
0.077084191 0.075358376 0.2647604 4278255360
0.077426568 0.075496323 0.26442316 4278255360
0.077768952 0.075634271 0.26408589 4278255360
0.078111328 0.075772218 0.26374862 4278255360
0.078453705 0.075910166 0.26341134 4278255360
0.078796089 0.076048113 0.2630741 4278255360
0.079138465 0.076186061 0.26273683 4278255360
0.079480842 0.076324008 0.26239955 4278255360
0.079823226 0.076461956 0.26206231 4278255360
0.080165602 0.076599896 0.26172504 4278255360
0.080507979 0.076737851 0.26138777 4278255360
0.080850363 0.076875791 0.26105049 4278255360
0.081192739 0.077013738 0.26071325 4278255360
0.081535116 0.077151686 0.26037598 4278255360
0.0818775 0.077289633 0.2600387 4278255360
0.082219876 0.077427581 0.25970146 4278255360
0.082562253 0.077565528 0.25936419 4278255360
