# .PCD v0.7 - Point Cloud Data file format
VERSION 0.7
FIELDS x y z rgb
SIZE 4 4 4 4
TYPE F F F U
COUNT 1 1 1 1
WIDTH 853
HEIGHT 1
VIEWPOINT 0 0 0 1 0 0 0
POINTS 853
DATA ascii
-0.098319158 0.026050424 0.42700002 4279125785
-0.09693227 0.026050424 0.42700002 4278994199
-0.10343985 0.027694821 0.43100002 4279453213
-0.10180321 0.027630564 0.43000001 4279190041
-0.10017306 0.027566306 0.42900002 4279453213
-0.098549418 0.027502051 0.42800003 4279058968
-0.09693227 0.027437793 0.42700002 4279190554
-0.095321611 0.027373536 0.42600003 4279387933
-0.093937963 0.027373536 0.42600003 4278333451
-0.09233705 0.027309278 0.42500001 4278198528
-0.090956643 0.027309278 0.42500001 4279320859
-0.10673262 0.029230196 0.43300003 4281814583
-0.10508298 0.02916269 0.43200001 4279451932
-0.10343985 0.029095184 0.43100002 4279386652
-0.10180321 0.029027676 0.43000001 4279453215
-0.10017306 0.028960172 0.42900002 4279519008
-0.098549418 0.028892666 0.42800003 4279387935
-0.09693227 0.028825158 0.42700002 4279190554
-0.095321611 0.028757654 0.42600003 4279058968
-0.093937963 0.028757654 0.42600003 4279650594
-0.09233705 0.028690146 0.42500001 4279648541
-0.090742633 0.02862264 0.42400002 4279254551
-0.089154705 0.028555132 0.42300001 4279188758
-0.087780803 0.028555132 0.42300001 4278728209
-0.086202629 0.028487628 0.42200002 4279452447
-0.084630951 0.028420122 0.42100003 4279058459
-0.083065763 0.028352614 0.42000002 4278992666
-0.081507079 0.02828511 0.41900003 4278993179
-0.067605905 0.027610047 0.40900001 4279059992
-0.066277474 0.027610047 0.40900001 4279059738
-0.064790241 0.027542541 0.40800002 4279125531
-0.063465059 0.027542541 0.40800002 4279257117
-0.061987568 0.027475033 0.40700001 4279126045
-0.06066563 0.027475033 0.40700001 4279060765
-0.059197884 0.027407529 0.40600002 4278666777
-0.057879195 0.027407529 0.40600002 4278995742
-0.056421202 0.027340023 0.40500003 4279522086
-0.055105757 0.027340023 0.40500003 4279193123
-0.1086385 0.030778568 0.43500003 4280825639
-0.10697912 0.030707812 0.43400002 4282801476
-0.10532624 0.030637057 0.43300003 4279649309
-0.10343985 0.030495547 0.43100002 4279584029
-0.10180321 0.03042479 0.43000001 4279453215
-0.10017306 0.030354036 0.42900002 4279387935
-0.098549418 0.030283282 0.42800003 4279125535
-0.09693227 0.030212525 0.42700002 4278993949
-0.095321611 0.030141771 0.42600003 4279255838
-0.093717448 0.030071015 0.42500001 4278199046
-0.09233705 0.030071015 0.42500001 4278266122
-0.090742633 0.03000026 0.42400002 4279780127
-0.089154705 0.029929504 0.42300001 4278657037
-0.087573282 0.029858749 0.42200002 4278655502
-0.085998364 0.029787995 0.42100003 4278786570
-0.084630951 0.029787995 0.42100003 4278852363
-0.083065763 0.029717239 0.42000002 4278589961
-0.081507079 0.029646484 0.41900003 4278524166
-0.079954885 0.029575726 0.41800001 4278460169
-0.078409187 0.029504972 0.41700003 4278197508
-0.07515575 0.029292706 0.41400003 4278925336
-0.073632784 0.02922195 0.41300002 4279058205
-0.072291359 0.02922195 0.41300002 4279321631
-0.070778146 0.029151196 0.41200003 4279256349
-0.069271423 0.029080439 0.41100001 4279124763
-0.067605905 0.028938929 0.40900001 4279256347
-0.066277474 0.028938929 0.40900001 4279190554
-0.064790241 0.028868174 0.40800002 4279190554
-0.063465059 0.028868174 0.40800002 4279453726
-0.061987568 0.028797418 0.40700001 4279257117
-0.06066563 0.028797418 0.40700001 4279257117
-0.059197884 0.028726663 0.40600002 4279257631
-0.057736639 0.028655909 0.40500003 4279191838
-0.056421202 0.028655909 0.40500003 4278928666
-0.055105757 0.028655909 0.40500003 4278994459
-0.053657498 0.028585153 0.40400001 4278928666
-0.052345309 0.028585153 0.40400001 4279126045
-0.051033117 0.028585153 0.40400001 4279126558
-0.049720924 0.028585153 0.40400001 4279061537
-0.048408728 0.028585153 0.40400001 4279193636
-0.1086385 0.032191928 0.43500003 4280496926
-0.10697912 0.032117922 0.43400002 4281486899
-0.10532624 0.032043919 0.43300003 4279649822
-0.10367984 0.031969912 0.43200001 4279256601
-0.10180321 0.031821903 0.43000001 4279257117
-0.10017306 0.0317479 0.42900002 4279322910
-0.098549418 0.031673897 0.42800003 4279125533
-0.09693227 0.03159989 0.42700002 4279125533
-0.095321611 0.031525888 0.42600003 4279387935
-0.093717448 0.031451881 0.42500001 4278198530
-0.09233705 0.031451881 0.42500001 4280108842
-0.090742633 0.031377878 0.42400002 4279977256
-0.089154705 0.031303871 0.42300001 4278918928
-0.087573282 0.03122987 0.42200002 4278983951
-0.085998364 0.031155866 0.42100003 4278983183
-0.084429927 0.031081861 0.42000002 4278983183
-0.082867987 0.031007856 0.41900003 4278916877
-0.081507079 0.031007856 0.41900003 4279180049
-0.079954885 0.030933851 0.41800001 4278983183
-0.078409187 0.030859848 0.41700003 4278917390
-0.076869987 0.030785842 0.41600001 4278655756
-0.07515575 0.030637836 0.41400003 4280039717
-0.073811077 0.030637836 0.41400003 4279384865
-0.072291359 0.030563829 0.41300002 4278529042
-0.070778146 0.030489827 0.41200003 4278199564
-0.069271423 0.03041582 0.41100001 4278197248
-0.067771204 0.030341817 0.41000003 4278197248
-0.066277474 0.03026781 0.40900001 4278198789
-0.064949036 0.03026781 0.40900001 4278924566
-0.063465059 0.030193808 0.40800002 4279516703
-0.061987568 0.030119803 0.40700001 4279715619
-0.06066563 0.030119803 0.40700001 4279320861
-0.059197884 0.030045798 0.40600002 4279387937
-0.057736639 0.029971795 0.40500003 4279256349
-0.056421202 0.029971795 0.40500003 4278993947
-0.054969691 0.029897789 0.40400001 4278993947
-0.053657498 0.029897789 0.40400001 4279717668
-0.052345309 0.029897789 0.40400001 4279059738
-0.051033117 0.029897789 0.40400001 4279257119
-0.049720924 0.029897789 0.40400001 4278928668
-0.048408728 0.029897789 0.40400001 4278863388
-0.047096539 0.029897789 0.40400001 4278929181
-0.045784343 0.029897789 0.40400001 4279060767
-0.044472151 0.029897789 0.40400001 4279192353
-0.043159962 0.029897789 0.40400001 4279127845
-0.041847765 0.029897789 0.40400001 4278535972
-0.040535573 0.029897789 0.40400001 4285439106
-0.03922338 0.029897789 0.40400001 4279584299
-0.037911188 0.029897789 0.40400001 4279452711
-0.1086385 0.033605289 0.43500003 4282668095
-0.10697912 0.033528034 0.43400002 4282013497
-0.10532624 0.033450779 0.43300003 4279649824
-0.10367984 0.033373524 0.43200001 4279453213
-0.10180321 0.033219017 0.43000001 4279256347
-0.10017306 0.033141766 0.42900002 4279387933
-0.098549418 0.033064511 0.42800003 4279453726
-0.09693227 0.032987259 0.42700002 4279256347
-0.095321611 0.032910004 0.42600003 4279058968
-0.093717448 0.032832749 0.42500001 4278198016
-0.092119791 0.032755498 0.42400002 4279516705
-0.090742633 0.032755498 0.42400002 4280240428
-0.089154705 0.032678243 0.42300001 4278327302
-0.087573282 0.032600991 0.42200002 4278655754
-0.085998364 0.032523736 0.42100003 4280037409
-0.084429927 0.032446481 0.42000002 4280037409
-0.082867987 0.03236923 0.41900003 4279642651
-0.081312552 0.032291975 0.41800001 4280300579
-0.079954885 0.032291975 0.41800001 4279445270
-0.078409187 0.032214724 0.41700003 4279181328
-0.076869987 0.032137468 0.41600001 4278853135
-0.075337283 0.032060217 0.41500002 4280302889
-0.073811077 0.031982962 0.41400003 4279189021
-0.072291359 0.031905707 0.41300002 4279320607
-0.070778146 0.031828456 0.41200003 4279649059
-0.069271423 0.031751201 0.41100001 4279517727
-0.067771204 0.031673949 0.41000003 4279451164
-0.066439524 0.031673949 0.41000003 4279516703
-0.064949036 0.031596694 0.40900001 4280174119
-0.063465059 0.031519443 0.40800002 4279582496
-0.061987568 0.031442188 0.40700001 4279581984
-0.06066563 0.031442188 0.40700001 4278726675
-0.059197884 0.031364933 0.40600002 4278199303
-0.057736639 0.031287681 0.40500003 4278196480
-0.056421202 0.031287681 0.40500003 4278198533
-0.054969691 0.031210426 0.40400001 4278200074
-0.053657498 0.031210426 0.40400001 4278595603
-0.052345309 0.031210426 0.40400001 4279187992
-0.051033117 0.031210426 0.40400001 4279781412
-0.049720924 0.031210426 0.40400001 4279255838
-0.048408728 0.031210426 0.40400001 4279453217
-0.047096539 0.031210426 0.40400001 4279059742
-0.045784343 0.031210426 0.40400001 4279125535
-0.044472151 0.031210426 0.40400001 4279322914
-0.043159962 0.031210426 0.40400001 4279191842
-0.041847765 0.031210426 0.40400001 4279060769
-0.040535573 0.031210426 0.40400001 4279191590
-0.03922338 0.031210426 0.40400001 4279388969
-0.037911188 0.031210426 0.40400001 4279256869
-0.036598995 0.031210426 0.40400001 4279255845
-0.1086385 0.035018645 0.43500003 4279904789
-0.10697912 0.034938142 0.43400002 4281421360
-0.10532624 0.034857642 0.43300003 4279386139
-0.10367984 0.034777138 0.43200001 4279255836
-0.10180321 0.034616131 0.43000001 4279387933
-0.10017306 0.034535628 0.42900002 4279453726
-0.098549418 0.034455128 0.42800003 4279125531
-0.09693227 0.034374624 0.42700002 4279322910
-0.095321611 0.034294121 0.42600003 4279256347
-0.093717448 0.034213617 0.42500001 4278196736
-0.092119791 0.034133118 0.42400002 4279582496
-0.090742633 0.034133118 0.42400002 4279581982
-0.089154705 0.034052614 0.42300001 4278459656
-0.087573282 0.033972111 0.42200002 4278195200
-0.085998364 0.033891611 0.42100003 4279183892
-0.084429927 0.033811107 0.42000002 4279776029
-0.082867987 0.033730604 0.41900003 4278195202
-0.081312552 0.0336501 0.41800001 4278393093
-0.079954885 0.0336501 0.41800001 4278590472
-0.078409187 0.033569597 0.41700003 4279906332
-0.076869987 0.033489093 0.41600001 4278655754
-0.075337283 0.033408593 0.41500002 4279908129
-0.073811077 0.03332809 0.41400003 4278992925
-0.072291359 0.033247586 0.41300002 4278198273
-0.070949942 0.033247586 0.41300002 4278527500
-0.06943997 0.033167087 0.41200003 4279910947
-0.067936495 0.033086583 0.41100001 4278199044
-0.066439524 0.033006079 0.41000003 4278529808
-0.064949036 0.032925576 0.40900001 4279189275
-0.063465059 0.032845076 0.40800002 4279255068
-0.061987568 0.032764569 0.40700001 4279386652
-0.06066563 0.032764569 0.40700001 4279320859
-0.059197884 0.032684069 0.40600002 4279452445
-0.057736639 0.032603566 0.40500003 4279320859
-0.056421202 0.032603566 0.40500003 4279517727
-0.054969691 0.032523062 0.40400001 4279121945
-0.053657498 0.032523062 0.40400001 4279582496
-0.052345309 0.032523062 0.40400001 4279318810
-0.050906796 0.032442562 0.40300003 4279581469
-0.049597852 0.032442562 0.40300003 4278857748
-0.048408728 0.032523062 0.40400001 4278197765
-0.047096539 0.032523062 0.40400001 4278857494
-0.045784343 0.032523062 0.40400001 4278927902
-0.044472151 0.032523062 0.40400001 4278993695
-0.043159962 0.032523062 0.40400001 4279059488
-0.041847765 0.032523062 0.40400001 4278796830
-0.040535573 0.032523062 0.40400001 4278796830
-0.03922338 0.032523062 0.40400001 4278796830
-0.037911188 0.032523062 0.40400001 4279124511
-0.036598995 0.032523062 0.40400001 4279058718
-0.10838875 0.036348253 0.43400002 4281812271
-0.10697912 0.036348253 0.43400002 4281158188
-0.10532624 0.036264502 0.43300003 4279519010
-0.10343985 0.036096998 0.43100002 4279256349
-0.10180321 0.036013246 0.43000001 4279256347
-0.10017306 0.035929494 0.42900002 4279256347
-0.098549418 0.035845742 0.42800003 4279059738
-0.09693227 0.03576199 0.42700002 4279059740
-0.095321611 0.035678241 0.42600003 4279255838
-0.093717448 0.035594486 0.42500001 4278199818
-0.092119791 0.035510737 0.42400002 4279121431
-0.090742633 0.035510737 0.42400002 4279844895
-0.089154705 0.035426982 0.42300001 4278983947
-0.087573282 0.035343233 0.42200002 4278983951
-0.085998364 0.035259482 0.42100003 4278852365
-0.084429927 0.03517573 0.42000002 4278853135
-0.082867987 0.035091978 0.41900003 4278786572
-0.081312552 0.035008226 0.41800001 4278852365
-0.079954885 0.035008226 0.41800001 4280432678
-0.078409187 0.034924474 0.41700003 4280367653
-0.076869987 0.034840722 0.41600001 4278853135
-0.075337283 0.03475697 0.41500002 4280171301
-0.073989362 0.03475697 0.41500002 4279121945
-0.072466403 0.034673218 0.41400003 4278854927
-0.070949942 0.034589466 0.41300002 4278853648
-0.06943997 0.034505714 0.41200003 4279710238
-0.067936495 0.034421962 0.41100001 4279581982
-0.066439524 0.034338214 0.41000003 4279779875
-0.064949036 0.034254458 0.40900001 4279647775
-0.063620605 0.034254458 0.40900001 4279121433
-0.062139876 0.03417071 0.40800002 4278661394
-0.06066563 0.034086954 0.40700001 4279451680
-0.059197884 0.034003206 0.40600002 4278992666
-0.057736639 0.033919454 0.40500003 4279124763
-0.056421202 0.033919454 0.40500003 4279190043
-0.054969691 0.033835702 0.40400001 4279124250
-0.053657498 0.033835702 0.40400001 4279190043
-0.052215744 0.03375195 0.40300003 4279255836
-0.050906796 0.03375195 0.40300003 4279321629
-0.049597852 0.03375195 0.40300003 4279321629
-0.048288908 0.03375195 0.40300003 4279517473
-0.047096539 0.033835702 0.40400001 4278196480
-0.045784343 0.033835702 0.40400001 4279124000
-0.044472151 0.033835702 0.40400001 4279059488
-0.043159962 0.033835702 0.40400001 4278862109
-0.041847765 0.033835702 0.40400001 4279059488
-0.040535573 0.033835702 0.40400001 4278993949
-0.03922338 0.033835702 0.40400001 4278993179
-0.037911188 0.033835702 0.40400001 4279124252
-0.036598995 0.033835702 0.40400001 4278860826
-0.10838875 0.037758362 0.43400002 4279836682
-0.10673262 0.037671361 0.43300003 4281223466
-0.10508298 0.037584361 0.43200001 4279321629
-0.10343985 0.03749736 0.43100002 4279387935
-0.10180321 0.03741036 0.43000001 4279190554
-0.10017306 0.037323359 0.42900002 4279256347
-0.098549418 0.037236359 0.42800003 4278993175
-0.09693227 0.037149355 0.42700002 4279190554
-0.095321611 0.037062358 0.42600003 4279189273
-0.093717448 0.036975354 0.42500001 4279120920
-0.09233705 0.036975354 0.42500001 4279581982
-0.090742633 0.036888354 0.42400002 4279779615
-0.089154705 0.036801353 0.42300001 4278589193
-0.087573282 0.036714353 0.42200002 4279049744
-0.085998364 0.036627352 0.42100003 4279048463
-0.084429927 0.036540352 0.42000002 4279048463
-0.082867987 0.036453351 0.41900003 4279048463
-0.081312552 0.036366347 0.41800001 4278982670
-0.079954885 0.036366347 0.41800001 4278916877
-0.078409187 0.036279351 0.41700003 4278917390
-0.076869987 0.036192346 0.41600001 4278590476
-0.075337283 0.036105346 0.41500002 4280237864
-0.073989362 0.036105346 0.41500002 4279647264
-0.072466403 0.036018349 0.41400003 4278919439
-0.070949942 0.035931345 0.41300002 4279247123
-0.06943997 0.035844345 0.41200003 4279775518
-0.068101794 0.035844345 0.41200003 4279187226
-0.066601567 0.035757344 0.41100001 4279582498
-0.065107845 0.035670344 0.41000003 4280174121
-0.063620605 0.03558334 0.40900001 4279581984
-0.062139876 0.035496343 0.40800002 4279977254
-0.06066563 0.035409339 0.40700001 4280372014
-0.059197884 0.035322338 0.40600002 4279450144
-0.057736639 0.035235338 0.40500003 4279516705
-0.056281887 0.035148337 0.40400001 4278858773
-0.054969691 0.035148337 0.40400001 4278266122
-0.053657498 0.035148337 0.40400001 4278198273
-0.052215744 0.035061337 0.40300003 4278793750
-0.050906796 0.035061337 0.40300003 4278201355
-0.049597852 0.035061337 0.40300003 4279255066
-0.048288908 0.035061337 0.40300003 4279452447
-0.046979964 0.035061337 0.40300003 4278197248
-0.045784343 0.035148337 0.40400001 4279123746
-0.044472151 0.035148337 0.40400001 4279059488
-0.043159962 0.035148337 0.40400001 4279125281
-0.041847765 0.035148337 0.40400001 4279059488
-0.040535573 0.035148337 0.40400001 4278796570
-0.03922338 0.035148337 0.40400001 4278993949
-0.037911188 0.035148337 0.40400001 4278861080
-0.036598995 0.035148337 0.40400001 4278860826
-0.035286803 0.035148337 0.40400001 4278856215
-0.10838875 0.039168477 0.43400002 4280955161
-0.10673262 0.039078228 0.43300003 4280631329
-0.10508298 0.038987976 0.43200001 4279453213
-0.10343985 0.038897727 0.43100002 4279125531
-0.10180321 0.038807474 0.43000001 4279125785
-0.10017306 0.038717225 0.42900002 4278994199
-0.098549418 0.038626976 0.42800003 4279125015
-0.09693227 0.038536727 0.42700002 4279190808
-0.095321611 0.038446479 0.42600003 4278596623
-0.093937963 0.038446479 0.42600003 4278923539
-0.09233705 0.038356226 0.42500001 4279516703
-0.090742633 0.038265977 0.42400002 4279386141
-0.089365482 0.038265977 0.42400002 4279845668
-0.087780803 0.038175724 0.42300001 4280042535
-0.086202629 0.038085476 0.42200002 4279579934
-0.084630951 0.037995227 0.42100003 4279184406
-0.083065763 0.037904978 0.42000002 4278853646
-0.081507079 0.037814729 0.41900003 4278524168
-0.079954885 0.037724476 0.41800001 4279049744
-0.078409187 0.037634227 0.41700003 4278852111
-0.076869987 0.037543975 0.41600001 4278654986
-0.075518817 0.037543975 0.41600001 4279843360
-0.073989362 0.037453726 0.41500002 4279384090
-0.072466403 0.037363477 0.41400003 4279777565
-0.070949942 0.037273228 0.41300002 4280039201
-0.06960851 0.037273228 0.41300002 4280107815
-0.068101794 0.037182979 0.41200003 4279714854
-0.066601567 0.037092727 0.41100001 4279450912
-0.065107845 0.037002478 0.41000003 4279450912
-0.063620605 0.036912225 0.40900001 4278199817
-0.062139876 0.036821976 0.40800002 4278727189
-0.06066563 0.036731727 0.40700001 4279516705
-0.059197884 0.036641479 0.40600002 4278198789
-0.057736639 0.03655123 0.40500003 4278330634
-0.056281887 0.036460977 0.40400001 4280568366
-0.054969691 0.036460977 0.40400001 4279647262
-0.053524684 0.036370728 0.40300003 4279120920
-0.052215744 0.036370728 0.40300003 4278198019
-0.050906796 0.036370728 0.40300003 4278331404
-0.049597852 0.036370728 0.40300003 4280108842
-0.048288908 0.036370728 0.40300003 4279320609
-0.046979964 0.036370728 0.40300003 4278199046
-0.045671016 0.036370728 0.40300003 4279058207
-0.044362072 0.036370728 0.40300003 4278993695
-0.043159962 0.036460977 0.40400001 4279059488
-0.041847765 0.036460977 0.40400001 4278862363
-0.040535573 0.036460977 0.40400001 4278993949
-0.03922338 0.036460977 0.40400001 4278862363
-0.037911188 0.036460977 0.40400001 4278927386
-0.036598995 0.036460977 0.40400001 4279123998
-0.035286803 0.036460977 0.40400001 4278462738
-0.10673262 0.040485088 0.43300003 4281353767
-0.10508298 0.040391587 0.43200001 4279124248
-0.10343985 0.040298089 0.43100002 4279190808
-0.10180321 0.040204588 0.43000001 4279190808
-0.10017306 0.040111091 0.42900002 4278993429
-0.098549418 0.040017594 0.42800003 4279256601
-0.09693227 0.039924093 0.42700002 4278796050
-0.095545366 0.039924093 0.42700002 4279190041
-0.093937963 0.039830595 0.42600003 4279255836
-0.09233705 0.039737094 0.42500001 4279452445
-0.090956643 0.039737094 0.42500001 4279190043
-0.089365482 0.039643597 0.42400002 4279124763
-0.087780803 0.039550096 0.42300001 4279124763
-0.086202629 0.039456598 0.42200002 4278992664
-0.084630951 0.039363101 0.42100003 4279255836
-0.083065763 0.0392696 0.42000002 4279320861
-0.081507079 0.039176103 0.41900003 4279320348
-0.079954885 0.039082602 0.41800001 4279582498
-0.078409187 0.038989104 0.41700003 4279516705
-0.076869987 0.038895603 0.41600001 4279845668
-0.075518817 0.038895603 0.41600001 4279318810
-0.073989362 0.038802106 0.41500002 4279581469
-0.072466403 0.038708605 0.41400003 4278264839
-0.071121737 0.038708605 0.41400003 4278197765
-0.06960851 0.038615108 0.41300002 4278197251
-0.068101794 0.038521606 0.41200003 4278197509
-0.066601567 0.038428109 0.41100001 4278396943
-0.064949036 0.038241111 0.40900001 4278660882
-0.063465059 0.03814761 0.40800002 4279516705
-0.061987568 0.038054112 0.40700001 4279714854
-0.060516577 0.037960611 0.40600002 4279385887
-0.05905208 0.037867114 0.40500003 4279517727
-0.057736639 0.037867114 0.40500003 4279649313
-0.056281887 0.037773613 0.40400001 4279320348
-0.054969691 0.037773613 0.40400001 4279845668
-0.053524684 0.037680116 0.40300003 4279516705
-0.052215744 0.037680116 0.40300003 4279911463
-0.050906796 0.037680116 0.40300003 4278198533
-0.049597852 0.037680116 0.40300003 4279779875
-0.048288908 0.037680116 0.40300003 4279189021
-0.046979964 0.037680116 0.40300003 4278199046
-0.045671016 0.037680116 0.40300003 4279058207
-0.044362072 0.037680116 0.40300003 4279058718
-0.043053132 0.037680116 0.40300003 4278993949
-0.041744184 0.037680116 0.40300003 4278796570
-0.040535573 0.037773613 0.40400001 4278862363
-0.03922338 0.037773613 0.40400001 4278796568
-0.037911188 0.037773613 0.40400001 4278927384
-0.036598995 0.037773613 0.40400001 4279058972
-0.035286803 0.037773613 0.40400001 4278461966
-0.10673262 0.041891947 0.43300003 4280888341
-0.10508298 0.041795198 0.43200001 4280105496
-0.10343985 0.041698452 0.43100002 4279646742
-0.10180321 0.041601703 0.43000001 4279648539
-0.10017306 0.041504957 0.42900002 4279516953
-0.098779671 0.041504957 0.42900002 4279517723
-0.097159281 0.041408207 0.42800003 4279320344
-0.095545366 0.041311458 0.42700002 4279189271
-0.093937963 0.041214712 0.42600003 4278794513
-0.092554316 0.041214712 0.42600003 4278991892
-0.090956643 0.041117962 0.42500001 4279058455
-0.089576244 0.041117962 0.42500001 4279058459
-0.087988324 0.041021217 0.42400002 4279124252
-0.086406901 0.040924467 0.42300001 4279124763
-0.084831975 0.040827718 0.42200002 4279124763
-0.083263539 0.040730972 0.42100003 4279058970
-0.081701607 0.040634222 0.42000002 4279190556
-0.080146164 0.040537477 0.41900003 4279058972
-0.078597218 0.040440727 0.41800001 4279124765
-0.077054776 0.040343978 0.41700003 4279058972
-0.075518817 0.040247228 0.41600001 4279255838
-0.073989362 0.040150482 0.41500002 4279452447
-0.07264144 0.040150482 0.41500002 4279451934
-0.071121737 0.040053736 0.41400003 4279649313
-0.06960851 0.039956983 0.41300002 4279649313
-0.068101794 0.039860237 0.41200003 4279780129
-0.066601567 0.039763488 0.41100001 4279582750
-0.064949036 0.039569993 0.40900001 4279516191
-0.063465059 0.039473243 0.40800002 4279647777
-0.061987568 0.039376494 0.40700001 4278462736
-0.060516577 0.039279748 0.40600002 4278265611
-0.05905208 0.039183002 0.40500003 4278196992
-0.057594076 0.039086252 0.40400001 4278196480
-0.056281887 0.039086252 0.40400001 4278593806
-0.054833632 0.038989503 0.40300003 4278660369
-0.053524684 0.038989503 0.40300003 4279581984
-0.052215744 0.038989503 0.40300003 4279516705
-0.050906796 0.038989503 0.40300003 4279714852
-0.049597852 0.038989503 0.40300003 4279320348
-0.048288908 0.038989503 0.40300003 4279517473
-0.046979964 0.038989503 0.40300003 4278727189
-0.045671016 0.038989503 0.40300003 4279189793
-0.044362072 0.038989503 0.40300003 4279124511
-0.043053132 0.038989503 0.40300003 4279190556
-0.041744184 0.038989503 0.40300003 4279124763
-0.04043524 0.038989503 0.40300003 4279059740
-0.039126292 0.038989503 0.40300003 4278862361
-0.037817348 0.038989503 0.40300003 4278664984
-0.036598995 0.039086252 0.40400001 4278664214
-0.035286803 0.039086252 0.40400001 4279447578
-0.10017306 0.042898819 0.42900002 4279577358
-0.098779671 0.042898819 0.42900002 4279776531
-0.097159281 0.042798825 0.42800003 4280434461
-0.095545366 0.042698827 0.42700002 4279515158
-0.094158471 0.042698827 0.42700002 4279778330
-0.092554316 0.042598829 0.42600003 4279582234
-0.091170669 0.042598829 0.42600003 4279582234
-0.089576244 0.042498831 0.42500001 4279188760
-0.087988324 0.042398833 0.42400002 4279188760
-0.086611174 0.042398833 0.42400002 4279124250
-0.085032992 0.042298835 0.42300001 4279124250
-0.083263539 0.042098843 0.42100003 4278992664
-0.081701607 0.041998845 0.42000002 4279058457
-0.080146164 0.04189885 0.41900003 4279190556
-0.078597218 0.041798849 0.41800001 4279058970
-0.077054776 0.041698854 0.41700003 4279058970
-0.075700358 0.041698854 0.41700003 4279124763
-0.074167646 0.041598856 0.41600001 4279255836
-0.07264144 0.041498858 0.41500002 4279321629
-0.071121737 0.041398864 0.41400003 4279190043
-0.06960851 0.041298863 0.41300002 4279255836
-0.068101794 0.041198868 0.41200003 4279255836
-0.066601567 0.04109887 0.41100001 4279453215
-0.064949036 0.040898874 0.40900001 4279453217
-0.063309498 0.040698878 0.40700001 4279321631
-0.061835267 0.040598884 0.40600002 4279255584
-0.060367521 0.040498886 0.40500003 4279320607
-0.058906268 0.040398888 0.40400001 4279517473
-0.057451516 0.040298894 0.40300003 4279779875
-0.056142576 0.040298894 0.40300003 4280043047
-0.054833632 0.040298894 0.40300003 4279911461
-0.053524684 0.040298894 0.40300003 4279647262
-0.052086174 0.040198892 0.40200001 4279055127
-0.050780475 0.040198892 0.40200001 4278331150
-0.049597852 0.040298894 0.40300003 4278196994
-0.048288908 0.040298894 0.40300003 4278197509
-0.046979964 0.040298894 0.40300003 4279581984
-0.045671016 0.040298894 0.40300003 4279190304
-0.044362072 0.040298894 0.40300003 4279124511
-0.043053132 0.040298894 0.40300003 4279124763
-0.041744184 0.040298894 0.40300003 4278993177
-0.04043524 0.040298894 0.40300003 4278993947
-0.039126292 0.040298894 0.40300003 4278862361
-0.037817348 0.040298894 0.40300003 4278598421
-0.036508407 0.040298894 0.40300003 4278729240
-0.098779671 0.044292685 0.42900002 4280296461
-0.097159281 0.044189438 0.42800003 4280164877
-0.09576913 0.044189438 0.42800003 4279639819
-0.094158471 0.044086192 0.42700002 4279442953
-0.092771575 0.044086192 0.42700002 4278983685
-0.091170669 0.043982945 0.42600003 4278655234
-0.089787014 0.043982945 0.42600003 4278986252
-0.088195838 0.043879699 0.42500001 4279644182
-0.086611174 0.043776453 0.42400002 4279711772
-0.085032992 0.043673206 0.42300001 4280173090
-0.083461314 0.04356996 0.42200002 4279450650
-0.081896134 0.043466717 0.42100003 4279911201
-0.080337442 0.043363467 0.42000002 4279516955
-0.078785248 0.04326022 0.41900003 4279319576
-0.077239558 0.043156974 0.41800001 4279255066
-0.075700358 0.043053728 0.41700003 4279320859
-0.074167646 0.042950481 0.41600001 4279452447
-0.072816476 0.042950481 0.41600001 4279452447
-0.071293525 0.042847235 0.41500002 4279453217
-0.069777057 0.042743992 0.41400003 4279453215
-0.068267085 0.042640742 0.41300002 4279255836
-0.066439524 0.042331006 0.41000003 4279519008
-0.064790241 0.04212451 0.40800002 4279321631
-0.063309498 0.042021263 0.40700001 4279255838
-0.061682966 0.041814774 0.40500003 4279321631
-0.060218465 0.041711524 0.40400001 4279453217
-0.058760464 0.041608281 0.40300003 4279190045
-0.057451516 0.041608281 0.40300003 4279255584
-0.056003265 0.041505031 0.40200001 4279255584
-0.054697566 0.041505031 0.40200001 4279321377
-0.053391866 0.041505031 0.40200001 4279321377
-0.052086174 0.041505031 0.40200001 4279452963
-0.050780475 0.041505031 0.40200001 4279583779
-0.04947478 0.041505031 0.40200001 4279583779
-0.04816908 0.041505031 0.40200001 4279517473
-0.046863385 0.041505031 0.40200001 4279649313
-0.045671016 0.041608281 0.40300003 4279255838
-0.044362072 0.041608281 0.40300003 4279256351
-0.043053132 0.041608281 0.40300003 4279256351
-0.041744184 0.041608281 0.40300003 4279058718
-0.04043524 0.041608281 0.40300003 4278927902
-0.039126292 0.041608281 0.40300003 4278796316
-0.037817348 0.041608281 0.40300003 4278729240
-0.036508407 0.041608281 0.40300003 4278464017
-0.094158471 0.045473557 0.42700002 4279835660
-0.092771575 0.045473557 0.42700002 4279507211
-0.091170669 0.045367062 0.42600003 4279375625
-0.089787014 0.045367062 0.42600003 4279376395
-0.088195838 0.045260567 0.42500001 4279311115
-0.086611174 0.045154072 0.42400002 4279246092
-0.085032992 0.045047574 0.42300001 4279246092
-0.083461314 0.044941083 0.42200002 4279313164
-0.081896134 0.044834588 0.42100003 4279510797
-0.080337442 0.044728089 0.42000002 4280103704
-0.078785248 0.044621594 0.41900003 4279776022
-0.077239558 0.044515099 0.41800001 4280171301
-0.075700358 0.044408605 0.41700003 4280039715
-0.074345939 0.044408605 0.41700003 4279645211
-0.072816476 0.044302106 0.41600001 4279844643
-0.071293525 0.044195615 0.41500002 4279977002
-0.069777057 0.04408912 0.41400003 4280240428
-0.068432383 0.04408912 0.41400003 4279977508
-0.067087717 0.04408912 0.41400003 4279977508
-0.06463144 0.043343648 0.40700001 4279912231
-0.063153952 0.043237153 0.40600002 4279780645
-0.061682966 0.043130659 0.40500003 4279780645
-0.060218465 0.043024164 0.40400001 4279780645
-0.058760464 0.042917669 0.40300003 4279715365
-0.057308957 0.04281117 0.40200001 4279321377
-0.056003265 0.04281117 0.40200001 4279584549
-0.054697566 0.04281117 0.40200001 4279452963
-0.053391866 0.04281117 0.40200001 4279452963
-0.052086174 0.04281117 0.40200001 4279518756
-0.050780475 0.04281117 0.40200001 4279321377
-0.04947478 0.04281117 0.40200001 4279321377
-0.04816908 0.04281117 0.40200001 4279584033
-0.046863385 0.04281117 0.40200001 4279452447
-0.045557689 0.04281117 0.40200001 4279321631
-0.044251993 0.04281117 0.40200001 4279321631
-0.043053132 0.042917669 0.40300003 4279124765
-0.041744184 0.042917669 0.40300003 4278927132
-0.04043524 0.042917669 0.40300003 4279058718
-0.039126292 0.042917669 0.40300003 4279123998
-0.037817348 0.042917669 0.40300003 4279121947
-0.036508407 0.042917669 0.40300003 4279644957
-0.064472646 0.04455629 0.40600002 4281552958
-0.062998399 0.044446547 0.40500003 4280960821
-0.061530661 0.0443368 0.40400001 4280171301
-0.060069412 0.044227056 0.40300003 4279579934
-0.058614653 0.044117309 0.40200001 4279974692
-0.057166398 0.044007566 0.40100002 4280040485
-0.055863954 0.044007566 0.40100002 4279777826
-0.054561503 0.044007566 0.40100002 4279975977
-0.053259052 0.044007566 0.40100002 4280042283
-0.051956609 0.044007566 0.40100002 4279976490
-0.050654158 0.044007566 0.40100002 4279648291
-0.04947478 0.044117309 0.40200001 4279911463
-0.04816908 0.044117309 0.40200001 4279977256
-0.046863385 0.044117309 0.40200001 4279780647
-0.045557689 0.044117309 0.40200001 4279781160
-0.044251993 0.044117309 0.40200001 4279715367
-0.042946298 0.044117309 0.40200001 4279649574
-0.041744184 0.044227056 0.40300003 4279452195
-0.04043524 0.044227056 0.40300003 4279583781
-0.039126292 0.044227056 0.40300003 4279320096
-0.037817348 0.044227056 0.40300003 4279710752
-0.057166398 0.045310456 0.40100002 4285894267
-0.055863954 0.045310456 0.40100002 4286223232
-0.054561503 0.045310456 0.40100002 4286354818
-0.053259052 0.045310456 0.40100002 4286223232
-0.051956609 0.045310456 0.40100002 4286355331
-0.050654158 0.045310456 0.40100002 4285895294
-0.049351711 0.045310456 0.40100002 4285369720
-0.04816908 0.045423448 0.40200001 4284383338
-0.046863385 0.045423448 0.40200001 4284317545
-0.045557689 0.045423448 0.40200001 4283593309
-0.044251993 0.045423448 0.40200001 4283132758
-0.042946298 0.045423448 0.40200001 4281948484
-0.041640598 0.045423448 0.40200001 4281685312
-0.04043524 0.045536444 0.40300003 4281882691
-0.039126292 0.045536444 0.40300003 4284907372
-0.053259052 0.046613347 0.40100002 4286025085
-0.051956609 0.046613347 0.40100002 4285893499
-0.050654158 0.046613347 0.40100002 4285827706
-0.049351711 0.046613347 0.40100002 4285761913
-0.04816908 0.046729587 0.40200001 4285236339
-0.069655195 0.036601543 0.41348961 4294967295
-0.069655195 0.036601543 0.41348961 4294901760
-0.069655195 0.036601543 0.4139896 4294901760
-0.069655195 0.036601543 0.4144896 4294901760
-0.069655195 0.036601543 0.41498962 4294901760
-0.069655195 0.036601543 0.41548961 4294901760
-0.069655195 0.036601543 0.41598961 4294901760
-0.069655195 0.036601543 0.4164896 4294901760
-0.069655195 0.036601543 0.41698962 4294901760
-0.069655195 0.036601543 0.41748962 4294901760
-0.069655195 0.036601543 0.41798961 4294901760
-0.069655195 0.036601543 0.41848961 4294901760
-0.069655195 0.036601543 0.4189896 4294901760
-0.069655195 0.036601543 0.41948962 4294901760
-0.069655195 0.036601543 0.41998962 4294901760
-0.069655195 0.036601543 0.42048961 4294901760
-0.069655195 0.036601543 0.4209896 4294901760
-0.069655195 0.036601543 0.4214896 4294901760
-0.069655195 0.036601543 0.42198962 4294901760
-0.069655195 0.036601543 0.42248961 4294901760
-0.069655195 0.036601543 0.42298961 4294901760
-0.069655195 0.036601543 0.4234896 4294901760
-0.069655195 0.036601543 0.42398962 4294901760
-0.069655195 0.036601543 0.42448962 4294901760
-0.069655195 0.036601543 0.42498961 4294901760
-0.069655195 0.036601543 0.4254896 4294901760
-0.069655195 0.036601543 0.42598963 4294901760
-0.069655195 0.036601543 0.42648962 4294901760
-0.069655195 0.036601543 0.42698961 4294901760
-0.069655195 0.036601543 0.42748961 4294901760
-0.069655195 0.036601543 0.4279896 4294901760
-0.069655195 0.036601543 0.42848963 4294901760
-0.069655195 0.036601543 0.42898962 4294901760
-0.069655195 0.036601543 0.42948961 4294901760
-0.069655195 0.036601543 0.42998961 4294901760
-0.069655195 0.036601543 0.4304896 4294901760
-0.069655195 0.036601543 0.43098962 4294901760
-0.069655195 0.036601543 0.43148962 4294901760
-0.069655195 0.036601543 0.43198961 4294901760
-0.069655195 0.036601543 0.4324896 4294901760
-0.069655195 0.036601543 0.43298963 4294901760
-0.069655195 0.036601543 0.43348962 4294901760
-0.069655195 0.036601543 0.43398961 4294901760
-0.069655195 0.036601543 0.43448961 4294901760
-0.069655195 0.036601543 0.43498963 4294901760
-0.069655195 0.036601543 0.43548962 4294901760
-0.069655195 0.036601543 0.43598962 4294901760
-0.069655195 0.036601543 0.43648961 4294901760
-0.069655195 0.036601543 0.43698961 4294901760
-0.069655195 0.036601543 0.43748963 4294901760
-0.069655195 0.036601543 0.43798962 4294901760
-0.069655195 0.036601543 0.43848962 4294901760
-0.069655195 0.036601543 0.43898961 4294901760
-0.069655195 0.036601543 0.4394896 4294901760
-0.069655195 0.036601543 0.43998963 4294901760
-0.069655195 0.036601543 0.44048962 4294901760
-0.069655195 0.036601543 0.44098961 4294901760
-0.069655195 0.036601543 0.44148961 4294901760
-0.069655195 0.036601543 0.4419896 4294901760
-0.069655195 0.036601543 0.44248962 4294901760
-0.069655195 0.036601543 0.44298962 4294901760
-0.069655195 0.036601543 0.44348961 4294901760
-0.069655195 0.036601543 0.4439896 4294901760
-0.069655195 0.036601543 0.44448963 4294901760
-0.069655195 0.036601543 0.44498962 4294901760
-0.069655195 0.036601543 0.44548962 4294901760
-0.069655195 0.036601543 0.44598961 4294901760
-0.069655195 0.036601543 0.44648963 4294901760
-0.069655195 0.036601543 0.44698963 4294901760
-0.069655195 0.036601543 0.44748962 4294901760
-0.069655195 0.036601543 0.44798961 4294901760
-0.069655195 0.036601543 0.44848961 4294901760
-0.069655195 0.036601543 0.44898963 4294901760
-0.069655195 0.036601543 0.44948962 4294901760
-0.069655195 0.036601543 0.44998962 4294901760
-0.069655195 0.036601543 0.45048961 4294901760
-0.069655195 0.036601543 0.4509896 4294901760
-0.069655195 0.036601543 0.45148963 4294901760
-0.069655195 0.036601543 0.45198962 4294901760
-0.069655195 0.036601543 0.45248961 4294901760
-0.069655195 0.036601543 0.45298961 4294901760
-0.069655195 0.036601543 0.45348963 4294901760
-0.069655195 0.036601543 0.45398962 4294901760
-0.069655195 0.036601543 0.45448962 4294901760
-0.069655195 0.036601543 0.45498961 4294901760
-0.069655195 0.036601543 0.45548961 4294901760
-0.069655195 0.036601543 0.45598963 4294901760
-0.069655195 0.036601543 0.45648962 4294901760
-0.069655195 0.036601543 0.45698962 4294901760
-0.069655195 0.036601543 0.45748961 4294901760
-0.069655195 0.036601543 0.45798963 4294901760
-0.069655195 0.036601543 0.45848963 4294901760
-0.069655195 0.036601543 0.45898962 4294901760
-0.069655195 0.036601543 0.45948961 4294901760
-0.069655195 0.036601543 0.45998961 4294901760
-0.069655195 0.036601543 0.46048963 4294901760
-0.069655195 0.036601543 0.46098962 4294901760
-0.069655195 0.036601543 0.46148962 4294901760
-0.069655195 0.036601543 0.46198961 4294901760
-0.069655195 0.036601543 0.46248963 4294901760
-0.069655195 0.036601543 0.46298963 4294901760
-0.069655195 0.036601543 0.46348962 4294901760
-0.069655195 0.036601543 0.41348961 4278255360
-0.069411106 0.036544111 0.41392219 4278255360
-0.069167018 0.036486682 0.41435477 4278255360
-0.068922929 0.036429249 0.41478735 4278255360
-0.068678841 0.03637182 0.4152199 4278255360
-0.068434753 0.036314387 0.41565248 4278255360
-0.068190664 0.036256958 0.41608506 4278255360
-0.067946576 0.036199525 0.41651765 4278255360
-0.067702487 0.036142096 0.41695023 4278255360
-0.067458399 0.036084663 0.41738281 4278255360
-0.06721431 0.036027234 0.41781539 4278255360
-0.066970222 0.035969801 0.41824794 4278255360
-0.066726133 0.035912372 0.41868052 4278255360
-0.066482045 0.035854939 0.4191131 4278255360
-0.066237956 0.03579751 0.41954568 4278255360
-0.065993868 0.035740077 0.41997826 4278255360
-0.065749779 0.035682648 0.42041084 4278255360
-0.065505691 0.035625216 0.42084342 4278255360
-0.065261602 0.035567787 0.42127597 4278255360
-0.065017514 0.035510354 0.42170855 4278255360
-0.064773425 0.035452925 0.42214113 4278255360
-0.064529337 0.035395492 0.42257372 4278255360
-0.064285249 0.035338063 0.4230063 4278255360
-0.06404116 0.03528063 0.42343888 4278255360
-0.063797072 0.035223201 0.42387146 4278255360
-0.063552983 0.035165768 0.42430401 4278255360
-0.063308895 0.035108339 0.42473659 4278255360
-0.063064806 0.035050906 0.42516917 4278255360
-0.062820718 0.034993477 0.42560175 4278255360
-0.062576629 0.034936044 0.42603433 4278255360
-0.062332541 0.034878615 0.42646691 4278255360
-0.062088456 0.034821182 0.42689949 4278255360
-0.061844368 0.034763753 0.42733204 4278255360
-0.061600275 0.034706321 0.42776462 4278255360
-0.061356191 0.034648892 0.42819721 4278255360
-0.061112102 0.034591459 0.42862979 4278255360
-0.060868014 0.03453403 0.42906237 4278255360
-0.060623925 0.034476597 0.42949495 4278255360
-0.060379837 0.034419168 0.42992753 4278255360
-0.060135748 0.034361735 0.43036008 4278255360
-0.05989166 0.034304306 0.43079266 4278255360
-0.059647571 0.034246873 0.43122524 4278255360
-0.059403483 0.034189444 0.43165782 4278255360
-0.059159394 0.034132011 0.4320904 4278255360
-0.058915306 0.034074582 0.43252298 4278255360
-0.058671217 0.034017149 0.43295556 4278255360
-0.058427129 0.033959717 0.43338814 4278255360
-0.05818304 0.033902287 0.43382069 4278255360
-0.057938952 0.033844858 0.43425328 4278255360
-0.057694864 0.033787426 0.43468586 4278255360
-0.057450775 0.033729993 0.43511844 4278255360
-0.057206687 0.033672564 0.43555102 4278255360
-0.056962598 0.033615135 0.4359836 4278255360
-0.05671851 0.033557702 0.43641618 4278255360
-0.056474421 0.033500269 0.43684876 4278255360
-0.056230333 0.03344284 0.43728131 4278255360
-0.055986244 0.033385407 0.43771389 4278255360
-0.055742156 0.033327978 0.43814647 4278255360
-0.055498067 0.033270545 0.43857905 4278255360
-0.055253979 0.033213116 0.43901163 4278255360
-0.05500989 0.033155683 0.43944421 4278255360
-0.054765802 0.033098254 0.43987679 4278255360
-0.054521713 0.033040822 0.44030935 4278255360
-0.054277625 0.032983392 0.44074193 4278255360
-0.054033536 0.03292596 0.44117451 4278255360
-0.053789452 0.032868531 0.44160709 4278255360
-0.05354536 0.032811098 0.44203967 4278255360
-0.053301271 0.032753669 0.44247225 4278255360
-0.053057186 0.032696236 0.44290483 4278255360
-0.052813098 0.032638807 0.44333738 4278255360
-0.052569009 0.032581374 0.44376996 4278255360
-0.052324921 0.032523945 0.44420254 4278255360
-0.052080832 0.032466512 0.44463512 4278255360
-0.051836744 0.032409083 0.4450677 4278255360
-0.051592655 0.03235165 0.44550028 4278255360
-0.051348567 0.032294221 0.44593287 4278255360
-0.051104479 0.032236788 0.44636542 4278255360
-0.05086039 0.032179359 0.446798 4278255360
-0.050616302 0.032121927 0.44723058 4278255360
-0.050372213 0.032064497 0.44766316 4278255360
-0.050128125 0.032007065 0.44809574 4278255360
-0.049884036 0.031949636 0.44852832 4278255360
-0.049639948 0.031892203 0.4489609 4278255360
-0.049395859 0.031834774 0.44939345 4278255360
-0.049151771 0.031777341 0.44982603 4278255360
-0.048907682 0.031719912 0.45025861 4278255360
-0.048663594 0.031662479 0.45069119 4278255360
-0.048419505 0.03160505 0.45112377 4278255360
-0.048175417 0.031547617 0.45155635 4278255360
-0.047931328 0.031490188 0.45198894 4278255360
-0.04768724 0.031432755 0.45242149 4278255360
-0.047443151 0.031375326 0.45285407 4278255360
-0.047199063 0.031317893 0.45328665 4278255360
-0.046954975 0.031260461 0.45371923 4278255360
-0.046710886 0.031203032 0.45415181 4278255360
-0.046466798 0.031145601 0.45458439 4278255360
-0.046222709 0.03108817 0.45501697 4278255360
-0.045978621 0.031030739 0.45544952 4278255360
-0.045734532 0.030973308 0.4558821 4278255360
-0.045490444 0.030915877 0.45631468 4278255360
-0.045246355 0.030858446 0.45674726 4278255360
