# .PCD v0.7 - Point Cloud Data file format
VERSION 0.7
FIELDS x y z rgb
SIZE 4 4 4 4
TYPE F F F U
COUNT 1 1 1 1
WIDTH 1049
HEIGHT 1
VIEWPOINT 0 0 0 1 0 0 0
POINTS 1049
DATA ascii
0.04119397 0.011264214 0.39500001 4279639830
0.042369392 0.011235698 0.39400002 4279509268
0.043649107 0.011235698 0.39400002 4279509266
0.044814784 0.011207181 0.39300001 4279711774
0.046091251 0.011207181 0.39300001 4279649061
0.047247186 0.011178664 0.39200002 4279520041
0.037439633 0.012579377 0.39600003 4280957225
0.038725842 0.012579377 0.39600003 4279904026
0.04001205 0.012579377 0.39600003 4279574037
0.04119397 0.01254761 0.39500001 4279837209
0.042369392 0.012515845 0.39400002 4279903256
0.043649107 0.012515845 0.39400002 4279772440
0.044814784 0.012484078 0.39300001 4278921488
0.046091251 0.012484078 0.39300001 4279254814
0.047247186 0.012452313 0.39200002 4279191842
0.048520405 0.012452313 0.39200002 4279323428
0.037439633 0.013866021 0.39600003 4280825639
0.038725842 0.013866021 0.39600003 4279640084
0.04001205 0.013866021 0.39600003 4279639830
0.04119397 0.013831005 0.39500001 4279903002
0.042369392 0.01379599 0.39400002 4279969049
0.043649107 0.01379599 0.39400002 4279969049
0.044814784 0.013760975 0.39300001 4279315478
0.045973971 0.013725961 0.39200002 4279188762
0.047247186 0.013725961 0.39200002 4278928668
0.048396628 0.013690946 0.39100003 4279257633
0.038725842 0.015152666 0.39600003 4279969565
0.04001205 0.015152666 0.39600003 4279639830
0.04119397 0.015114401 0.39500001 4279903256
0.042369392 0.015076137 0.39400002 4280232221
0.043649107 0.015076137 0.39400002 4280101405
0.044814784 0.015037872 0.39300001 4279445783
0.045973971 0.014999609 0.39200002 4278660115
0.047126662 0.014961344 0.39100003 4278797082
0.048396628 0.014961344 0.39100003 4278600216
0.04953957 0.014923079 0.39000002 4279192353
0.054186404 0.014808287 0.38700002 4282608726
0.076726399 0.015037872 0.39300001 4279846440
0.037534177 0.016480822 0.39700001 4280957227
0.038725842 0.016439309 0.39600003 4279640854
0.04001205 0.016439309 0.39600003 4279640084
0.04119397 0.016397797 0.39500001 4280034842
0.042369392 0.016356282 0.39400002 4280100633
0.043538321 0.016314769 0.39300001 4280034840
0.044700753 0.016273256 0.39200002 4279511061
0.045856692 0.016231744 0.39100003 4279184660
0.047126662 0.016231744 0.39100003 4278664214
0.048272848 0.016190229 0.39000002 4278402837
0.049412545 0.016148716 0.38900003 4278600986
0.050545745 0.016107202 0.38800001 4278732572
0.051672455 0.016065689 0.38700002 4278467865
0.052929427 0.016065689 0.38700002 4278928418
0.054186404 0.016065689 0.38700002 4279059488
0.055443384 0.016065689 0.38700002 4279256867
0.056846872 0.016107202 0.38800001 4279322660
0.058107093 0.016107202 0.38800001 4279125281
0.059367318 0.016107202 0.38800001 4279387683
0.060627546 0.016107202 0.38800001 4279387683
0.061887767 0.016107202 0.38800001 4279256867
0.06331075 0.016148716 0.38900003 4279059488
0.064574219 0.016148716 0.38900003 4278993695
0.065837689 0.016148716 0.38900003 4278993949
0.068540379 0.016190229 0.39000002 4278993949
0.069986098 0.016231744 0.39100003 4279059742
0.071256064 0.016231744 0.39100003 4278467605
0.072526038 0.016231744 0.39100003 4278862875
0.073984742 0.016273256 0.39200002 4278731289
0.07525795 0.016273256 0.39200002 4278862877
0.076531172 0.016273256 0.39200002 4278797084
0.077804387 0.016273256 0.39200002 4279059742
0.079077601 0.016273256 0.39200002 4278928156
0.080555797 0.016314769 0.39300001 4279059740
0.08183226 0.016314769 0.39300001 4279059740
0.0833202 0.016356282 0.39400002 4278993947
0.084599912 0.016356282 0.39400002 4278665496
0.085879624 0.016356282 0.39400002 4278928670
0.098941676 0.016190229 0.39000002 4279125535
0.10020839 0.016190229 0.39000002 4278928156
0.10147512 0.016190229 0.39000002 4279256351
0.10274184 0.016190229 0.39000002 4279256349
0.10427526 0.016231744 0.39100003 4279387937
0.10581516 0.016273256 0.39200002 4279387937
0.10708836 0.016273256 0.39200002 4279387937
0.10863802 0.016314769 0.39300001 4279256351
0.11019417 0.016356282 0.39400002 4279650596
0.11175681 0.016397797 0.39500001 4279715619
0.11303977 0.016397797 0.39500001 4279781412
0.11461216 0.016439309 0.39600003 4280175657
0.11589836 0.016439309 0.39600003 4279978278
0.11718457 0.016439309 0.39600003 4279912485
0.11847078 0.016439309 0.39600003 4280306473
0.11975699 0.016439309 0.39600003 4280108840
0.12073753 0.016397797 0.39500001 4280307504
0.12202049 0.016397797 0.39500001 4279780395
0.12330346 0.016397797 0.39500001 4280633905
0.12458641 0.016397797 0.39500001 4284974194
0.038725842 0.017725954 0.39600003 4279377682
0.039911009 0.017681191 0.39500001 4279771670
0.04108968 0.01763643 0.39400002 4279969047
0.042369392 0.01763643 0.39400002 4279969047
0.043538321 0.017591666 0.39300001 4279640082
0.044700753 0.017546903 0.39200002 4279379475
0.045856692 0.017502142 0.39100003 4279315732
0.04700613 0.017457379 0.39000002 4279187478
0.048149075 0.017412616 0.38900003 4278662931
0.049412545 0.017412616 0.38900003 4278533910
0.050545745 0.017367853 0.38800001 4278666009
0.051672455 0.017323092 0.38700002 4279652652
0.052929427 0.017323092 0.38700002 4283007843
0.054186404 0.017323092 0.38700002 4279915565
0.055443384 0.017323092 0.38700002 4278862877
0.05670036 0.017323092 0.38700002 4278863390
0.058107093 0.017367853 0.38800001 4278666011
0.059367318 0.017367853 0.38800001 4278797595
0.060627546 0.017367853 0.38800001 4278797595
0.061887767 0.017367853 0.38800001 4278666009
0.063147992 0.017367853 0.38800001 4278731802
0.06440822 0.017367853 0.38800001 4278797595
0.065668441 0.017367853 0.38800001 4278797595
0.067101166 0.017412616 0.38900003 4278797595
0.068540379 0.017457379 0.39000002 4278797595
0.069807105 0.017457379 0.39000002 4278666009
0.071256064 0.017502142 0.39100003 4278731802
0.072526038 0.017502142 0.39100003 4278731800
0.073796004 0.017502142 0.39100003 4278666009
0.07506597 0.017502142 0.39100003 4278666781
0.076531172 0.017546903 0.39200002 4278666781
0.077804387 0.017546903 0.39200002 4278731802
0.079077601 0.017546903 0.39200002 4278929181
0.080350824 0.017546903 0.39200002 4278863386
0.08183226 0.017591666 0.39300001 4278863386
0.083108731 0.017591666 0.39300001 4278863386
0.084599912 0.01763643 0.39400002 4278863386
0.085879624 0.01763643 0.39400002 4278863386
0.087601773 0.017725954 0.39600003 4278929179
0.088887982 0.017725954 0.39600003 4278797595
0.098941676 0.017457379 0.39000002 4278863388
0.10020839 0.017457379 0.39000002 4278863388
0.10147512 0.017457379 0.39000002 4278929181
0.10274184 0.017457379 0.39000002 4278928666
0.10427526 0.017502142 0.39100003 4279126045
0.10554523 0.017502142 0.39100003 4278928666
0.10708836 0.017546903 0.39200002 4278928666
0.10863802 0.017591666 0.39300001 4278862875
0.11019417 0.01763643 0.39400002 4278994461
0.11147388 0.01763643 0.39400002 4278862875
0.11303977 0.017681191 0.39500001 4279126047
0.11432273 0.017681191 0.39500001 4278993947
0.11560568 0.017681191 0.39500001 4279124763
0.11718457 0.017725954 0.39600003 4279256349
0.11847078 0.017725954 0.39600003 4279124763
0.11975699 0.017725954 0.39600003 4279190558
0.12073753 0.017681191 0.39500001 4279190558
0.12202049 0.017681191 0.39500001 4279125281
0.12330346 0.017681191 0.39500001 4279387683
0.12458641 0.017681191 0.39500001 4279779875
0.12586936 0.017681191 0.39500001 4281751616
0.036244716 0.01906061 0.39700001 4280958509
0.038725842 0.0190126 0.39600003 4279574291
0.039911009 0.018964587 0.39500001 4279640084
0.04108968 0.018916577 0.39400002 4279574289
0.042261854 0.018868564 0.39300001 4279705362
0.043427538 0.018820552 0.39200002 4279574287
0.044586722 0.018772542 0.39100003 4279314449
0.045739412 0.018724529 0.39000002 4279514395
0.04700613 0.018724529 0.39000002 4279121431
0.048149075 0.018676519 0.38900003 4278924820
0.049412545 0.018676519 0.38900003 4278664982
0.050545745 0.018628506 0.38800001 4278533910
0.051805973 0.018628506 0.38800001 4278533910
0.052929427 0.018580494 0.38700002 4278402837
0.054186404 0.018580494 0.38700002 4278468630
0.055443384 0.018580494 0.38700002 4278402837
0.05670036 0.018580494 0.38700002 4278402837
0.057957333 0.018580494 0.38700002 4278402835
0.059214313 0.018580494 0.38700002 4278402835
0.060471293 0.018580494 0.38700002 4278600468
0.061728265 0.018580494 0.38700002 4278732054
0.062985241 0.018580494 0.38700002 4278402835
0.064242221 0.018580494 0.38700002 4278402835
0.065668441 0.018628506 0.38800001 4278402835
0.06692867 0.018628506 0.38800001 4278402835
0.068364643 0.018676519 0.38900003 4278204428
0.069807105 0.018724529 0.39000002 4278402835
0.071073823 0.018724529 0.39000002 4278402835
0.072340541 0.018724529 0.39000002 4278337042
0.073796004 0.018772542 0.39100003 4278402837
0.07506597 0.018772542 0.39100003 4278205458
0.076335944 0.018772542 0.39100003 4278666009
0.077605911 0.018772542 0.39100003 4278600214
0.078875877 0.018772542 0.39100003 4278468628
0.080350824 0.018820552 0.39200002 4278336529
0.081624039 0.018820552 0.39200002 4278665494
0.083108731 0.018868564 0.39300001 4278468115
0.084385186 0.018868564 0.39300001 4278204172
0.085661657 0.018868564 0.39300001 4278204172
0.087601773 0.0190126 0.39600003 4278205199
0.088887982 0.0190126 0.39600003 4278337042
0.097424507 0.018676519 0.38900003 4278468115
0.098941676 0.018724529 0.39000002 4278533908
0.10020839 0.018724529 0.39000002 4278533908
0.10147512 0.018724529 0.39000002 4278797080
0.10274184 0.018724529 0.39000002 4278533908
0.10427526 0.018772542 0.39100003 4278533908
0.10581516 0.018820552 0.39200002 4278533908
0.10708836 0.018820552 0.39200002 4278665494
0.10863802 0.018868564 0.39300001 4278862873
0.11019417 0.018916577 0.39400002 4279323424
0.11147388 0.018916577 0.39400002 4278862873
0.11303977 0.018964587 0.39500001 4278797080
0.11432273 0.018964587 0.39500001 4278928666
0.11560568 0.018964587 0.39500001 4279059738
0.11688864 0.018964587 0.39500001 4278993945
0.11817161 0.018964587 0.39500001 4279322912
0.11945457 0.018964587 0.39500001 4279257121
0.12073753 0.018964587 0.39500001 4278993949
0.12202049 0.018964587 0.39500001 4279059742
0.12330346 0.018964587 0.39500001 4278993949
0.12458641 0.018964587 0.39500001 4279190045
0.12586936 0.018964587 0.39500001 4279649313
0.03100859 0.020299245 0.39600003 4281023530
0.032294799 0.020299245 0.39600003 4281089325
0.033665806 0.020350505 0.39700001 4281155118
0.036244716 0.020350505 0.39700001 4280497960
0.038628045 0.020247983 0.39500001 4279573778
0.039809968 0.020196723 0.39400002 4279573778
0.040985391 0.020145461 0.39300001 4279705362
0.04215432 0.020094201 0.39200002 4279639567
0.043427538 0.020094201 0.39200002 4279574287
0.044586722 0.020042941 0.39100003 4278986254
0.045739412 0.019991679 0.39000002 4279514908
0.04700613 0.019991679 0.39000002 4279385117
0.048149075 0.019940419 0.38900003 4278596371
0.049412545 0.019940419 0.38900003 4278663701
0.050545745 0.019889157 0.38800001 4278795800
0.051805973 0.019889157 0.38800001 4278664982
0.053066194 0.019889157 0.38800001 4278664982
0.054186404 0.019837897 0.38700002 4278664982
0.055443384 0.019837897 0.38700002 4278599189
0.05670036 0.019837897 0.38700002 4278533396
0.057957333 0.019837897 0.38700002 4278270738
0.059214313 0.019837897 0.38700002 4278336531
0.060315032 0.019786635 0.38600001 4278533908
0.061568756 0.019786635 0.38600001 4278533394
0.062822483 0.019786635 0.38600001 4278533394
0.064242221 0.019837897 0.38700002 4278599189
0.065499194 0.019837897 0.38700002 4278533396
0.066756174 0.019837897 0.38700002 4278599189
0.068188891 0.019889157 0.38800001 4278533396
0.069628112 0.019940419 0.38900003 4278599189
0.070891581 0.019940419 0.38900003 4278796568
0.072340541 0.019991679 0.39000002 4278664982
0.073607266 0.019991679 0.39000002 4278599189
0.074873984 0.019991679 0.39000002 4278533396
0.076140702 0.019991679 0.39000002 4278533396
0.077407427 0.019991679 0.39000002 4278533396
0.078875877 0.020042941 0.39100003 4278533396
0.080145843 0.020042941 0.39100003 4278533394
0.081415817 0.020042941 0.39100003 4278927382
0.082897261 0.020094201 0.39200002 4278730003
0.084170468 0.020094201 0.39200002 4278730003
0.08544369 0.020094201 0.39200002 4278795796
0.087601773 0.020299245 0.39600003 4278795796
0.088887982 0.020299245 0.39600003 4278993175
0.097424507 0.019940419 0.38900003 4278795796
0.098941676 0.019991679 0.39000002 4278795796
0.10020839 0.019991679 0.39000002 4278730003
0.10147512 0.019991679 0.39000002 4278927382
0.10300529 0.020042941 0.39100003 4278861076
0.10427526 0.020042941 0.39100003 4278729490
0.10581516 0.020094201 0.39200002 4278795796
0.10708836 0.020094201 0.39200002 4278927382
0.10863802 0.020145461 0.39300001 4278795796
0.10991448 0.020145461 0.39300001 4278730003
0.11147388 0.020196723 0.39400002 4278598417
0.11275359 0.020196723 0.39400002 4278598417
0.11432273 0.020247983 0.39500001 4278795796
0.11560568 0.020247983 0.39500001 4278861076
0.11688864 0.020247983 0.39500001 4278861076
0.11817161 0.020247983 0.39500001 4278992664
0.11945457 0.020247983 0.39500001 4278795287
0.12073753 0.020247983 0.39500001 4278795800
0.12202049 0.020247983 0.39500001 4278795800
0.12330346 0.020247983 0.39500001 4278927384
0.12458641 0.020247983 0.39500001 4278927384
0.12586936 0.020247983 0.39500001 4279124250
0.12747425 0.020299245 0.39600003 4279843108
0.029647322 0.021531377 0.39500001 4279706643
0.03100859 0.021585887 0.39600003 4279837459
0.033665806 0.021640398 0.39700001 4279640854
0.034955263 0.021640398 0.39700001 4284446823
0.036244716 0.021640398 0.39700001 4284052065
0.037439633 0.021585887 0.39600003 4284775534
0.038628045 0.021531377 0.39500001 4279246609
0.039708927 0.021422358 0.39300001 4279902741
0.040985391 0.021422358 0.39300001 4279705360
0.04215432 0.021367848 0.39200002 4279639567
0.043316755 0.021313339 0.39100003 4279443471
0.044586722 0.021313339 0.39100003 4279118353
0.045739412 0.021258829 0.39000002 4279318297
0.046885602 0.021204319 0.38900003 4278727187
0.048149075 0.021204319 0.38900003 4278531091
0.049412545 0.021204319 0.38900003 4278597908
0.050545745 0.021149809 0.38800001 4278861080
0.051805973 0.021149809 0.38800001 4278795800
0.053066194 0.021149809 0.38800001 4279058970
0.054326419 0.021149809 0.38800001 4278993177
0.055443384 0.0210953 0.38700002 4278795798
0.05670036 0.0210953 0.38700002 4278795798
0.057957333 0.0210953 0.38700002 4278796568
0.0590613 0.02104079 0.38600001 4278664982
0.060315032 0.02104079 0.38600001 4278599189
0.061568756 0.02104079 0.38600001 4278664982
0.062822483 0.02104079 0.38600001 4278599189
0.064076215 0.02104079 0.38600001 4278201612
0.065329939 0.02104079 0.38600001 4278199559
0.066756174 0.0210953 0.38700002 4278728724
0.068013154 0.0210953 0.38700002 4278730005
0.069449119 0.021149809 0.38800001 4278795798
0.070891581 0.021204319 0.38900003 4278795798
0.072155058 0.021204319 0.38900003 4278795798
0.073418535 0.021204319 0.38900003 4278730005
0.074873984 0.021258829 0.39000002 4278664212
0.076140702 0.021258829 0.39000002 4278730005
0.077407427 0.021258829 0.39000002 4278730005
0.078674145 0.021258829 0.39000002 4278927384
0.07994087 0.021258829 0.39000002 4278927384
0.081207588 0.021258829 0.39000002 4278795796
0.082685791 0.021313339 0.39100003 4278927382
0.08395575 0.021313339 0.39100003 4278795283
0.085225724 0.021313339 0.39100003 4278861076
0.086274475 0.021258829 0.39000002 4278861076
0.088887982 0.021585887 0.39600003 4278992662
0.097674951 0.021258829 0.39000002 4278730003
0.098941676 0.021258829 0.39000002 4278861076
0.10020839 0.021258829 0.39000002 4278992662
0.10147512 0.021258829 0.39000002 4278992662
0.10300529 0.021313339 0.39100003 4278926099
0.10427526 0.021313339 0.39100003 4278991892
0.10581516 0.021367848 0.39200002 4278926099
0.10708836 0.021367848 0.39200002 4279189271
0.10863802 0.021422358 0.39300001 4278991892
0.10991448 0.021422358 0.39300001 4279255064
0.11147388 0.021476869 0.39400002 4278926099
0.11275359 0.021476869 0.39400002 4278991892
0.11403331 0.021476869 0.39400002 4279320344
0.11531302 0.021476869 0.39400002 4279254551
0.11688864 0.021531377 0.39500001 4278991894
0.11817161 0.021531377 0.39500001 4279255066
0.11945457 0.021531377 0.39500001 4279255066
0.12073753 0.021531377 0.39500001 4279189273
0.12202049 0.021531377 0.39500001 4278991894
0.12361562 0.021585887 0.39600003 4279452445
0.12490182 0.021585887 0.39600003 4278991894
0.12618802 0.021585887 0.39600003 4278861078
0.12747425 0.021585887 0.39600003 4279514656
0.039708927 0.022699254 0.39300001 4279376397
0.040881105 0.022641497 0.39200002 4279967762
0.04215432 0.022641497 0.39200002 4280033809
0.043316755 0.022583738 0.39100003 4279771920
0.044472687 0.022525977 0.39000002 4279184146
0.045739412 0.022525977 0.39000002 4279318297
0.046885602 0.02246822 0.38900003 4278595601
0.048149075 0.02246822 0.38900003 4278398992
0.049412545 0.02246822 0.38900003 4278597908
0.050676022 0.02246822 0.38900003 4278992666
0.051805973 0.02241046 0.38800001 4278861080
0.053066194 0.02241046 0.38800001 4279124765
0.054326419 0.02241046 0.38800001 4279058972
0.055586647 0.02241046 0.38800001 4278993179
0.05670036 0.022352701 0.38700002 4278664214
0.057957333 0.022352701 0.38700002 4278927384
0.0590613 0.022294942 0.38600001 4278927384
0.060315032 0.022294942 0.38600001 4278664212
0.061568756 0.022294942 0.38600001 4278598419
0.062822483 0.022294942 0.38600001 4278466833
0.064076215 0.022294942 0.38600001 4278199303
0.065329939 0.022294942 0.38600001 4278396943
0.066583671 0.022294942 0.38600001 4278530578
0.068013154 0.022352701 0.38700002 4279123482
0.069270127 0.022352701 0.38700002 4278860310
0.07070934 0.02241046 0.38800001 4278661648
0.071969569 0.02241046 0.38800001 4278727187
0.073418535 0.02246822 0.38900003 4278924566
0.074681997 0.02246822 0.38900003 4278397708
0.075945474 0.02246822 0.38900003 4278594574
0.077208951 0.02246822 0.38900003 4278594574
0.078472421 0.02246822 0.38900003 4278594574
0.07994087 0.022525977 0.39000002 4278331656
0.081207588 0.022525977 0.39000002 4278528265
0.082474314 0.022525977 0.39000002 4278594828
0.083741032 0.022525977 0.39000002 4278199042
0.085007749 0.022525977 0.39000002 4279055638
0.086274475 0.022525977 0.39000002 4278199815
0.087541193 0.022525977 0.39000002 4278198019
0.088807911 0.022525977 0.39000002 4278198280
0.090074636 0.022525977 0.39000002 4278196481
0.091341354 0.022525977 0.39000002 4278196738
0.093874797 0.022525977 0.39000002 4278196481
0.095141515 0.022525977 0.39000002 4278196480
0.096408233 0.022525977 0.39000002 4278196224
0.097674951 0.022525977 0.39000002 4278196992
0.098941676 0.022525977 0.39000002 4278196480
0.10046534 0.022583738 0.39100003 4278195712
0.10173532 0.022583738 0.39100003 4278195456
0.10300529 0.022583738 0.39100003 4278195712
0.10454194 0.022641497 0.39200002 4278196224
0.10581516 0.022641497 0.39200002 4278198275
0.10736155 0.022699254 0.39300001 4278196992
0.10863802 0.022699254 0.39300001 4278198018
0.10991448 0.022699254 0.39300001 4278198019
0.11147388 0.022757014 0.39400002 4278395912
0.11275359 0.022757014 0.39400002 4278790670
0.11403331 0.022757014 0.39400002 4278856465
0.11531302 0.022757014 0.39400002 4278790672
0.11659273 0.022757014 0.39400002 4279055640
0.11817161 0.022814773 0.39500001 4279123482
0.11945457 0.022814773 0.39500001 4279058457
0.12073753 0.022814773 0.39500001 4278991894
0.12202049 0.022814773 0.39500001 4279255066
0.12361562 0.022872532 0.39600003 4279189273
0.12490182 0.022872532 0.39600003 4279123480
0.12618802 0.022872532 0.39600003 4279123482
0.12747425 0.022872532 0.39600003 4279908901
0.03960789 0.023915144 0.39200002 4284445540
0.040881105 0.023915144 0.39200002 4279771668
0.042046785 0.023854136 0.39100003 4280034579
0.043316755 0.023854136 0.39100003 4279706895
0.044472687 0.023793127 0.39000002 4279513363
0.045739412 0.023793127 0.39000002 4279383574
0.04700613 0.023793127 0.39000002 4278595855
0.048272848 0.023793127 0.39000002 4278530832
0.049412545 0.02373212 0.38900003 4278597908
0.050676022 0.02373212 0.38900003 4278861080
0.051939495 0.02373212 0.38900003 4278992666
0.053202964 0.02373212 0.38900003 4279190045
0.054326419 0.023671111 0.38800001 4278993179
0.055586647 0.023671111 0.38800001 4278730007
0.05670036 0.023610104 0.38700002 4278795800
0.057957333 0.023610104 0.38700002 4278795800
0.0590613 0.023549095 0.38600001 4278795800
0.060315032 0.023549095 0.38600001 4278795800
0.061568756 0.023549095 0.38600001 4278795800
0.062822483 0.023549095 0.38600001 4278663701
0.064076215 0.023549095 0.38600001 4278462220
0.065329939 0.023549095 0.38600001 4278856724
0.066583671 0.023549095 0.38600001 4279187738
0.067837402 0.023549095 0.38600001 4279121431
0.069270127 0.023610104 0.38700002 4278458375
0.070527099 0.023610104 0.38700002 4278458377
0.071969569 0.023671111 0.38800001 4278589193
0.07322979 0.023671111 0.38800001 4278391560
0.074490011 0.023671111 0.38800001 4278391814
0.075945474 0.02373212 0.38900003 4278654472
0.077208951 0.02373212 0.38900003 4278654472
0.078472421 0.02373212 0.38900003 4278786056
0.07973589 0.02373212 0.38900003 4278523398
0.080999367 0.02373212 0.38900003 4278589191
0.082474314 0.023793127 0.39000002 4278523398
0.083741032 0.023793127 0.39000002 4278195457
0.085007749 0.023793127 0.39000002 4279253019
0.086274475 0.023793127 0.39000002 4279647777
0.087541193 0.023793127 0.39000002 4279253019
0.088807911 0.023793127 0.39000002 4280042535
0.090074636 0.023793127 0.39000002 4279318812
0.091341354 0.023793127 0.39000002 4279581984
0.092608072 0.023793127 0.39000002 4279581471
0.093874797 0.023793127 0.39000002 4279581471
0.095141515 0.023793127 0.39000002 4279450398
0.096408233 0.023793127 0.39000002 4279450398
0.097674951 0.023793127 0.39000002 4279450398
0.099195376 0.023854136 0.39100003 4279450398
0.10046534 0.023854136 0.39100003 4279450396
0.10173532 0.023854136 0.39100003 4279318810
0.10326872 0.023915144 0.39200002 4279516189
0.10454194 0.023915144 0.39200002 4279187738
0.10608509 0.023976151 0.39300001 4279121945
0.10736155 0.023976151 0.39300001 4279319324
0.10863802 0.023976151 0.39300001 4279385371
0.10991448 0.023976151 0.39300001 4279451164
0.11147388 0.02403716 0.39400002 4279385371
0.11275359 0.02403716 0.39400002 4279319578
0.11403331 0.02403716 0.39400002 4279319578
0.11531302 0.02403716 0.39400002 4278791953
0.11659273 0.02403716 0.39400002 4278988562
0.11817161 0.024098167 0.39500001 4279254301
0.11945457 0.024098167 0.39500001 4278861080
0.12073753 0.024098167 0.39500001 4279124252
0.12202049 0.024098167 0.39500001 4279123482
0.12361562 0.024159176 0.39600003 4279189273
0.12490182 0.024159176 0.39600003 4279189275
0.12618802 0.024159176 0.39600003 4279123228
0.12747425 0.024159176 0.39600003 4279644959
0.042046785 0.025124537 0.39100003 4279771668
0.043316755 0.025124537 0.39100003 4279641617
0.044586722 0.025124537 0.39100003 4278988049
0.045739412 0.025060279 0.39000002 4279186711
0.04700613 0.025060279 0.39000002 4278661394
0.048272848 0.025060279 0.39000002 4278727957
0.04953957 0.025060279 0.39000002 4278795285
0.050806291 0.025060279 0.39000002 4278729492
0.052073013 0.025060279 0.39000002 4279124250
0.053202964 0.024996022 0.38900003 4279190043
0.054466438 0.024996022 0.38900003 4278993177
0.055729914 0.024996022 0.38900003 4278993177
0.056846872 0.024931764 0.38800001 4278795798
0.057957333 0.024867509 0.38700002 4278598419
0.059214313 0.024867509 0.38700002 4278730005
0.060315032 0.024803249 0.38600001 4278730005
0.061568756 0.024803249 0.38600001 4278795798
0.062822483 0.024803249 0.38600001 4278794517
0.064076215 0.024803249 0.38600001 4278657035
0.065329939 0.024803249 0.38600001 4279776029
0.066583671 0.024803249 0.38600001 4279187224
0.067837402 0.024803249 0.38600001 4278196992
0.069270127 0.024867509 0.38700002 4278720779
0.070527099 0.024867509 0.38700002 4278720779
0.071784079 0.024867509 0.38700002 4278786058
0.07322979 0.024931764 0.38800001 4278720265
0.074490011 0.024931764 0.38800001 4279115023
0.075750239 0.024931764 0.38800001 4279576088
0.077010468 0.024931764 0.38800001 4279641881
0.078472421 0.024996022 0.38900003 4278852365
0.07973589 0.024996022 0.38900003 4279246609
0.080999367 0.024996022 0.38900003 4279773465
0.082262844 0.024996022 0.38900003 4278720779
0.083526313 0.024996022 0.38900003 4279708955
0.085007749 0.025060279 0.39000002 4279187740
0.086274475 0.025060279 0.39000002 4278990359
0.087541193 0.025060279 0.39000002 4278198277
0.088807911 0.025060279 0.39000002 4278198024
0.090074636 0.025060279 0.39000002 4278725138
0.091341354 0.025060279 0.39000002 4278726162
0.092608072 0.025060279 0.39000002 4279120920
0.093874797 0.025060279 0.39000002 4278198533
0.095141515 0.025060279 0.39000002 4279450398
0.096408233 0.025060279 0.39000002 4278529296
0.097925402 0.025124537 0.39100003 4278726675
0.099195376 0.025124537 0.39100003 4278660882
0.10046534 0.025124537 0.39100003 4278792466
0.10199551 0.025188792 0.39200002 4278726673
0.10326872 0.025188792 0.39200002 4279056406
0.10480863 0.02525305 0.39300001 4278398222
0.10608509 0.02525305 0.39300001 4278660880
0.10736155 0.02525305 0.39300001 4278199298
0.10891445 0.025317308 0.39400002 4278923793
0.11019417 0.025317308 0.39400002 4278331656
0.11147388 0.025317308 0.39400002 4278265609
0.11275359 0.025317308 0.39400002 4279582496
0.11403331 0.025317308 0.39400002 4279319578
0.11531302 0.025317308 0.39400002 4278197760
0.11659273 0.025317308 0.39400002 4279318810
0.11817161 0.025381563 0.39500001 4278992412
0.11945457 0.025381563 0.39500001 4279058459
0.12073753 0.025381563 0.39500001 4279058459
0.12202049 0.025381563 0.39500001 4279189275
0.12361562 0.025445823 0.39600003 4279320861
0.12490182 0.025445823 0.39600003 4279254555
0.12618802 0.025445823 0.39600003 4279516705
0.039708927 0.026529947 0.39300001 4283855199
0.040881105 0.026462441 0.39200002 4284052578
0.04215432 0.026462441 0.39200002 4278852363
0.043316755 0.026394935 0.39100003 4279313682
0.044586722 0.026394935 0.39100003 4279120918
0.045856692 0.026394935 0.39100003 4279318810
0.04700613 0.026327427 0.39000002 4278464785
0.048272848 0.026327427 0.39000002 4278333712
0.04953957 0.026327427 0.39000002 4278861078
0.050806291 0.026327427 0.39000002 4278795285
0.052073013 0.026327427 0.39000002 4278992666
0.053339731 0.026327427 0.39000002 4279058459
0.054606453 0.026327427 0.39000002 4278927386
0.055729914 0.026259923 0.38900003 4278927386
0.056846872 0.026192416 0.38800001 4278730005
0.058107093 0.026192416 0.38800001 4278730005
0.059214313 0.02612491 0.38700002 4278269454
0.060471293 0.02612491 0.38700002 4278795800
0.061568756 0.026057404 0.38600001 4278664214
0.062822483 0.026057404 0.38600001 4278532115
0.064076215 0.026057404 0.38600001 4278459658
0.065329939 0.026057404 0.38600001 4279514141
0.066583671 0.026057404 0.38600001 4279121433
0.067837402 0.026057404 0.38600001 4278195969
0.069270127 0.02612491 0.38700002 4279181328
0.070527099 0.02612491 0.38700002 4279313682
0.071784079 0.02612491 0.38700002 4278326019
0.073041059 0.02612491 0.38700002 4279247123
0.074490011 0.026192416 0.38800001 4278589963
0.075750239 0.026192416 0.38800001 4278589963
0.077010468 0.026192416 0.38800001 4278327302
0.078472421 0.026259923 0.38900003 4278260996
0.07973589 0.026259923 0.38900003 4279248402
0.080999367 0.026259923 0.38900003 4278393093
0.082262844 0.026259923 0.38900003 4278654984
0.083526313 0.026259923 0.38900003 4279578137
0.084789783 0.026259923 0.38900003 4279187738
0.086274475 0.026327427 0.39000002 4278198020
0.087541193 0.026327427 0.39000002 4278589191
0.088807911 0.026327427 0.39000002 4278720779
0.090074636 0.026327427 0.39000002 4278723857
0.091341354 0.026327427 0.39000002 4279119383
0.092608072 0.026327427 0.39000002 4279515676
0.093874797 0.026327427 0.39000002 4278528013
0.095141515 0.026327427 0.39000002 4278791185
0.096655443 0.026394935 0.39100003 4279450398
0.097925402 0.026394935 0.39100003 4279450398
0.099195376 0.026394935 0.39100003 4279055640
0.10072229 0.026462441 0.39200002 4278197763
0.10199551 0.026462441 0.39200002 4278790672
0.10326872 0.026462441 0.39200002 4278461707
0.10480863 0.026529947 0.39300001 4279909412
0.10608509 0.026529947 0.39300001 4279317529
0.10763474 0.026597453 0.39400002 4279120918
0.10891445 0.026597453 0.39400002 4279843871
0.11019417 0.026597453 0.39400002 4279448348
0.11147388 0.026597453 0.39400002 4278395914
0.11275359 0.026597453 0.39400002 4279450398
0.11403331 0.026597453 0.39400002 4279516703
0.11531302 0.026597453 0.39400002 4278195200
0.11688864 0.026664959 0.39500001 4279187738
0.11817161 0.026664959 0.39500001 4279188508
0.11945457 0.026664959 0.39500001 4278992666
0.12073753 0.026664959 0.39500001 4278992666
0.12202049 0.026664959 0.39500001 4279124252
0.12361562 0.026732467 0.39600003 4279124252
0.12490182 0.026732467 0.39600003 4279255068
0.12618802 0.026732467 0.39600003 4281225526
0.039708927 0.027806843 0.39300001 4283789406
0.040881105 0.027736088 0.39200002 4283592027
0.04215432 0.027736088 0.39200002 4281419571
0.043316755 0.027665334 0.39100003 4279249172
0.044586722 0.027665334 0.39100003 4279318812
0.045856692 0.027665334 0.39100003 4278858775
0.047126662 0.027665334 0.39100003 4278595601
0.048396628 0.027665334 0.39100003 4278531345
0.049666595 0.027665334 0.39100003 4278992664
0.050936565 0.027665334 0.39100003 4278532113
0.052206539 0.027665334 0.39100003 4279190043
0.053476501 0.027665334 0.39100003 4279190045
0.054606453 0.027594578 0.39000002 4278992664
0.055873174 0.027594578 0.39000002 4278992664
0.056993388 0.027523823 0.38900003 4278992664
0.058107093 0.027453067 0.38800001 4278992664
0.059367318 0.027453067 0.38800001 4278795287
0.060471293 0.027382312 0.38700002 4278861080
0.061728265 0.027382312 0.38700002 4278729494
0.062822483 0.027311556 0.38600001 4279189021
0.064076215 0.027311556 0.38600001 4278195457
0.065329939 0.027311556 0.38600001 4279646240
0.066583671 0.027311556 0.38600001 4279121433
0.067837402 0.027311556 0.38600001 4278262277
0.069270127 0.027382312 0.38700002 4279115537
0.070527099 0.027382312 0.38700002 4278523400
0.071784079 0.027382312 0.38700002 4279707672
0.073041059 0.027382312 0.38700002 4279115535
0.074490011 0.027453067 0.38800001 4278720779
0.075750239 0.027453067 0.38800001 4278786572
0.077010468 0.027453067 0.38800001 4278589193
0.078472421 0.027523823 0.38900003 4278589963
0.07973589 0.027523823 0.38900003 4278919437
0.080999367 0.027523823 0.38900003 4278656265
0.082262844 0.027523823 0.38900003 4278589961
0.083526313 0.027523823 0.38900003 4279711004
0.085007749 0.027594578 0.39000002 4279384090
0.086274475 0.027594578 0.39000002 4278328583
0.087541193 0.027594578 0.39000002 4278851851
0.088807911 0.027594578 0.39000002 4278522886
0.090074636 0.027594578 0.39000002 4279908899
0.091341354 0.027594578 0.39000002 4278856724
0.092608072 0.027594578 0.39000002 4278198791
0.093874797 0.027594578 0.39000002 4279647264
0.095385469 0.027665334 0.39100003 4279252506
0.096655443 0.027665334 0.39100003 4278462990
0.097925402 0.027665334 0.39100003 4278858261
0.099195376 0.027665334 0.39100003 4279450398
0.10072229 0.027736088 0.39200002 4279581984
0.10199551 0.027736088 0.39200002 4279318812
0.10353216 0.027806843 0.39300001 4279713055
0.10480863 0.027806843 0.39300001 4279318810
0.10608509 0.027806843 0.39300001 4279779363
0.10763474 0.027877599 0.39400002 4279713568
0.10891445 0.027877599 0.39400002 4279253017
0.11019417 0.027877599 0.39400002 4279516189
0.11147388 0.027877599 0.39400002 4279515676
0.11275359 0.027877599 0.39400002 4279516189
0.11403331 0.027877599 0.39400002 4279581469
0.11560568 0.027948353 0.39500001 4278922517
0.11688864 0.027948353 0.39500001 4279450396
0.11817161 0.027948353 0.39500001 4279385117
0.11945457 0.027948353 0.39500001 4279254555
0.12073753 0.027948353 0.39500001 4279386141
0.12232941 0.028019112 0.39600003 4279386141
0.12361562 0.028019112 0.39600003 4279386141
0.12490182 0.028019112 0.39600003 4279383322
0.038530257 0.029157747 0.39400002 4283657053
0.039708927 0.02908374 0.39300001 4283788639
0.040985391 0.02908374 0.39300001 4283525980
0.04215432 0.029009737 0.39200002 4283854684
0.043427538 0.029009737 0.39200002 4278986000
0.044586722 0.028935732 0.39100003 4279121433
0.045856692 0.028935732 0.39100003 4278924568
0.047126662 0.028935732 0.39100003 4278596373
0.048396628 0.028935732 0.39100003 4278794263
0.049666595 0.028935732 0.39100003 4278992666
0.050936565 0.028935732 0.39100003 4278861080
0.052206539 0.028935732 0.39100003 4279190045
0.053476501 0.028935732 0.39100003 4279058459
0.054746471 0.028935732 0.39100003 4278992664
0.055873174 0.028861728 0.39000002 4278861078
0.056993388 0.028787725 0.38900003 4278795285
0.058256857 0.028787725 0.38900003 4278861078
0.059367318 0.028713718 0.38800001 4278992664
0.060627546 0.028713718 0.38800001 4278729492
0.061728265 0.028639715 0.38700002 4278860310
0.062985241 0.028639715 0.38700002 4278198792
0.064242221 0.028639715 0.38700002 4278196744
0.065499194 0.028639715 0.38700002 4278988312
0.066756174 0.028639715 0.38700002 4279449113
0.068013154 0.028639715 0.38700002 4278655754
0.069270127 0.028639715 0.38700002 4278785804
0.070527099 0.028639715 0.38700002 4278720011
0.071784079 0.028639715 0.38700002 4278851338
0.07322979 0.028713718 0.38800001 4278785545
0.074490011 0.028713718 0.38800001 4278785545
0.075750239 0.028713718 0.38800001 4278785545
0.077010468 0.028713718 0.38800001 4278720011
0.078472421 0.028787725 0.38900003 4278851597
0.07973589 0.028787725 0.38900003 4278654732
0.080999367 0.028787725 0.38900003 4278654734
0.082262844 0.028787725 0.38900003 4278195716
0.083526313 0.028787725 0.38900003 4279447830
0.085007749 0.028861728 0.39000002 4279186713
0.086274475 0.028861728 0.39000002 4279514141
0.087541193 0.028861728 0.39000002 4279578139
0.088807911 0.028861728 0.39000002 4279183894
0.090074636 0.028861728 0.39000002 4278922004
0.091341354 0.028861728 0.39000002 4278856211
0.092608072 0.028861728 0.39000002 4278197767
0.094115503 0.028935732 0.39100003 4278196480
0.095385469 0.028935732 0.39100003 4278461707
0.096655443 0.028935732 0.39100003 4278197764
0.097925402 0.028935732 0.39100003 4278196480
0.099449068 0.029009737 0.39200002 4278196736
0.10072229 0.029009737 0.39200002 4278195968
0.10199551 0.029009737 0.39200002 4278195456
0.10353216 0.02908374 0.39300001 4278194944
0.10480863 0.02908374 0.39300001 4278196225
0.10635503 0.029157747 0.39400002 4278195968
0.10763474 0.029157747 0.39400002 4278195968
0.10891445 0.029157747 0.39400002 4278196481
0.11019417 0.029157747 0.39400002 4278196224
0.11147388 0.029157747 0.39400002 4278196224
0.11303977 0.029231749 0.39500001 4278196738
0.11432273 0.029231749 0.39500001 4279054355
0.11560568 0.029231749 0.39500001 4279450396
0.11688864 0.029231749 0.39500001 4279385371
0.11817161 0.029231749 0.39500001 4279385371
0.11945457 0.029231749 0.39500001 4279451164
0.12073753 0.029231749 0.39500001 4279320348
0.12232941 0.029305754 0.39600003 4279517473
0.12361562 0.029305754 0.39600003 4279056154
0.12490182 0.029305754 0.39600003 4285433718
0.038530257 0.030437892 0.39400002 4283591260
0.039708927 0.030360637 0.39300001 4283657053
0.040985391 0.030360637 0.39300001 4283525467
0.04215432 0.030283384 0.39200002 4283196754
0.043427538 0.030283384 0.39200002 4283591510
0.044700753 0.030283384 0.39200002 4279251221
0.045856692 0.030206133 0.39100003 4279121431
0.047247186 0.030283384 0.39200002 4278727187
0.048520405 0.030283384 0.39200002 4278794263
0.04979362 0.030283384 0.39200002 4278795287
0.051066838 0.030283384 0.39200002 4279058459
0.052340057 0.030283384 0.39200002 4279190045
0.053613268 0.030283384 0.39200002 4278992412
0.054746471 0.030206133 0.39100003 4278992412
0.056016441 0.030206133 0.39100003 4278795033
0.0571399 0.030128878 0.39000002 4278861080
0.058256857 0.030051624 0.38900003 4278992666
0.059367318 0.029974369 0.38800001 4278861080
0.060627546 0.029974369 0.38800001 4278795287
0.061728265 0.029897118 0.38700002 4278991896
0.062985241 0.029897118 0.38700002 4279187226
0.064242221 0.029897118 0.38700002 4279054103
0.065499194 0.029897118 0.38700002 4279713057
0.066756174 0.029897118 0.38700002 4279253017
0.068013154 0.029897118 0.38700002 4279449113
0.069270127 0.029897118 0.38700002 4279578650
0.070527099 0.029897118 0.38700002 4279512857
0.071784079 0.029897118 0.38700002 4279776029
0.07322979 0.029974369 0.38800001 4279973408
0.074490011 0.029974369 0.38800001 4279644443
0.075750239 0.029974369 0.38800001 4279973408
0.077208951 0.030051624 0.38900003 4279644445
0.078472421 0.030051624 0.38900003 4280302889
0.07973589 0.030051624 0.38900003 4279711522
0.080999367 0.030051624 0.38900003 4279777315
0.082262844 0.030051624 0.38900003 4279909666
0.083741032 0.030128878 0.39000002 4279383322
0.085007749 0.030128878 0.39000002 4279646494
0.086274475 0.030128878 0.39000002 4279647264
0.087541193 0.030128878 0.39000002 4279647010
0.088807911 0.030128878 0.39000002 4279383838
0.090074636 0.030128878 0.39000002 4279777826
0.091341354 0.030128878 0.39000002 4279778080
0.092845537 0.030206133 0.39100003 4279581471
0.094115503 0.030206133 0.39100003 4279384092
0.095385469 0.030206133 0.39100003 4280042022
0.096655443 0.030206133 0.39100003 4279515678
0.097925402 0.030206133 0.39100003 4279647264
0.099449068 0.030283384 0.39200002 4279647264
0.10072229 0.030283384 0.39200002 4279515678
0.10199551 0.030283384 0.39200002 4279647264
0.10353216 0.030360637 0.39300001 4279647777
0.10480863 0.030360637 0.39300001 4279581984
0.10635503 0.030437892 0.39400002 4279581984
0.10763474 0.030437892 0.39400002 4279713570
0.10891445 0.030437892 0.39400002 4279582498
0.11019417 0.030437892 0.39400002 4279516705
0.11175681 0.030515144 0.39500001 4279450912
0.11303977 0.030515144 0.39500001 4279319326
0.11432273 0.030515144 0.39500001 4279516705
0.11560568 0.030515144 0.39500001 4279779875
0.11688864 0.030515144 0.39500001 4279911201
0.11817161 0.030515144 0.39500001 4279648029
0.11945457 0.030515144 0.39500001 4279713568
0.12073753 0.030515144 0.39500001 4279318810
0.12232941 0.030592399 0.39600003 4281421370
0.038530257 0.031718038 0.39400002 4283328088
0.039708927 0.031637534 0.39300001 4283525467
0.040985391 0.031637534 0.39300001 4283459674
0.04215432 0.031557031 0.39200002 4283130709
0.043427538 0.031557031 0.39200002 4283130963
0.044700753 0.031557031 0.39200002 4283328853
0.045973971 0.031557031 0.39200002 4278922004
0.047247186 0.031557031 0.39200002 4278858261
0.048520405 0.031557031 0.39200002 4279056922
0.04979362 0.031557031 0.39200002 4279123482
0.051066838 0.031557031 0.39200002 4279058459
0.052340057 0.031557031 0.39200002 4279190045
0.053613268 0.031557031 0.39200002 4279058459
0.054886486 0.031557031 0.39200002 4279123998
0.056016441 0.031476531 0.39100003 4278992412
0.0571399 0.031396028 0.39000002 4279058972
0.058256857 0.031315524 0.38900003 4278795800
0.05952033 0.031315524 0.38900003 4278992666
0.060627546 0.031235021 0.38800001 4279058459
0.061887767 0.031235021 0.38800001 4279056152
0.062985241 0.031154519 0.38700002 4278397710
0.064242221 0.031154519 0.38700002 4278529296
0.065499194 0.031154519 0.38700002 4279187738
0.066756174 0.031154519 0.38700002 4279385371
0.068013154 0.031154519 0.38700002 4279187992
0.069270127 0.031154519 0.38700002 4279385371
0.070527099 0.031154519 0.38700002 4279319578
0.071784079 0.031154519 0.38700002 4279385371
0.07322979 0.031235021 0.38800001 4279319578
0.074490011 0.031235021 0.38800001 4279385371
0.075750239 0.031235021 0.38800001 4279187992
0.077208951 0.031315524 0.38900003 4279187992
0.078472421 0.031315524 0.38900003 4279254555
0.07973589 0.031315524 0.38900003 4279057176
0.080999367 0.031315524 0.38900003 4279320348
0.082474314 0.031396028 0.39000002 4279188762
0.083741032 0.031396028 0.39000002 4279188762
0.085007749 0.031396028 0.39000002 4279057176
0.086274475 0.031396028 0.39000002 4279057176
0.087541193 0.031396028 0.39000002 4279057176
0.088807911 0.031396028 0.39000002 4279254301
0.090074636 0.031396028 0.39000002 4279254301
0.091341354 0.031396028 0.39000002 4279254555
0.092845537 0.031476531 0.39100003 4279254555
0.094115503 0.031476531 0.39100003 4279320348
0.095385469 0.031476531 0.39100003 4279320348
0.096655443 0.031476531 0.39100003 4279386141
0.097925402 0.031476531 0.39100003 4279320348
0.099449068 0.031557031 0.39200002 4279386141
0.10072229 0.031557031 0.39200002 4279386141
0.10199551 0.031557031 0.39200002 4279516957
0.10353216 0.031637534 0.39300001 4279582750
0.10480863 0.031637534 0.39300001 4279516957
0.10635503 0.031718038 0.39400002 4279647775
0.10763474 0.031718038 0.39400002 4279713568
0.10891445 0.031718038 0.39400002 4279187226
0.11047384 0.031798538 0.39500001 4279384092
0.11175681 0.031798538 0.39500001 4279449115
0.11303977 0.031798538 0.39500001 4279843873
0.11432273 0.031798538 0.39500001 4280764975
0.11560568 0.031798538 0.39500001 4281685823
0.11975699 0.031879045 0.39600003 4286157950
0.03843246 0.03291443 0.39300001 4283328088
0.039708927 0.03291443 0.39300001 4283393881
0.040881105 0.032830682 0.39200002 4283328088
0.04215432 0.032830682 0.39200002 4283130709
0.043427538 0.032830682 0.39200002 4283064916
0.044700753 0.032830682 0.39200002 4283460441
0.045973971 0.032830682 0.39200002 4284249955
0.047247186 0.032830682 0.39200002 4279777828
0.048520405 0.032830682 0.39200002 4279186459
0.04979362 0.032830682 0.39200002 4279254301
0.051197108 0.03291443 0.39300001 4279452193
0.052473575 0.03291443 0.39300001 4279255838
0.053613268 0.032830682 0.39200002 4279058459
0.054886486 0.032830682 0.39200002 4278992666
0.056159705 0.032830682 0.39200002 4279058459
0.0571399 0.032663178 0.39000002 4278992666
0.058406614 0.032663178 0.39000002 4278992666
0.05952033 0.032579426 0.38900003 4279124252
0.060627546 0.032495674 0.38800001 4279058459
0.061887767 0.032495674 0.38800001 4279123482
0.063147992 0.032495674 0.38800001 4279320607
0.064242221 0.032411922 0.38700002 4279188508
0.065499194 0.032411922 0.38700002 4279188762
0.066756174 0.032411922 0.38700002 4279188762
0.068013154 0.032411922 0.38700002 4279254555
0.069270127 0.032411922 0.38700002 4279057176
0.070527099 0.032411922 0.38700002 4279386141
0.071784079 0.032411922 0.38700002 4279320348
0.07322979 0.032495674 0.38800001 4279320348
0.074490011 0.032495674 0.38800001 4279188508
0.075750239 0.032495674 0.38800001 4279320094
0.077208951 0.032579426 0.38900003 4279188508
0.078472421 0.032579426 0.38900003 4279188508
0.07973589 0.032579426 0.38900003 4279451680
0.081207588 0.032663178 0.39000002 4279254301
0.082474314 0.032663178 0.39000002 4279320348
0.083741032 0.032663178 0.39000002 4279516957
0.085007749 0.032663178 0.39000002 4279516957
0.086274475 0.032663178 0.39000002 4279451164
0.087541193 0.032663178 0.39000002 4279582236
0.088807911 0.032663178 0.39000002 4279713822
0.090074636 0.032663178 0.39000002 4279647775
0.091575563 0.03274693 0.39100003 4279253017
0.092845537 0.03274693 0.39100003 4279121431
0.094115503 0.03274693 0.39100003 4279121431
0.095385469 0.03274693 0.39100003 4279514908
0.096655443 0.03274693 0.39100003 4279778080
0.097925402 0.03274693 0.39100003 4280304424
0.099449068 0.032830682 0.39200002 4281027893
0.10072229 0.032830682 0.39200002 4282737998
0.10199551 0.032830682 0.39200002 4283789918
0.10353216 0.03291443 0.39300001 4284711022
0.10480863 0.03291443 0.39300001 4285632122
0.10635503 0.032998186 0.39400002 4285565813
0.10763474 0.032998186 0.39400002 4286157950
0.10891445 0.032998186 0.39400002 4285894780
0.11047384 0.033081934 0.39500001 4285828987
0.11175681 0.033081934 0.39500001 4285696890
0.039708927 0.034191329 0.39300001 4283328088
0.040881105 0.034104329 0.39200002 4283328088
0.04215432 0.034104329 0.39200002 4282735953
0.043316755 0.034017328 0.39100003 4282999125
0.044586722 0.034017328 0.39100003 4283525467
0.045973971 0.034104329 0.39200002 4283788639
0.047247186 0.034104329 0.39200002 4284052065
0.048520405 0.034104329 0.39200002 4284710506
0.049920641 0.034191329 0.39300001 4282342470
0.051197108 0.034191329 0.39300001 4280106791
0.052473575 0.034191329 0.39300001 4279120920
0.053750034 0.034191329 0.39300001 4279186459
0.054886486 0.034104329 0.39200002 4278858523
0.056159705 0.034104329 0.39200002 4278530328
0.05952033 0.033843327 0.38900003 4278989593
0.060627546 0.033756323 0.38800001 4279055386
0.061887767 0.033756323 0.38800001 4278989847
0.063147992 0.033756323 0.38800001 4279121433
0.06440822 0.033756323 0.38800001 4279581984
0.065499194 0.033669323 0.38700002 4279976229
0.066756174 0.033669323 0.38700002 4280238631
0.068013154 0.033669323 0.38700002 4280896048
0.069270127 0.033669323 0.38700002 4280370217
0.070527099 0.033669323 0.38700002 4281291319
0.071784079 0.033669323 0.38700002 4281554491
0.07322979 0.033756323 0.38800001 4282015042
0.074490011 0.033756323 0.38800001 4282146628
0.075750239 0.033756323 0.38800001 4282606925
0.077208951 0.033843327 0.38900003 4283133269
0.078472421 0.033843327 0.38900003 4283659615
0.07973589 0.033843327 0.38900003 4283725408
0.081207588 0.033930324 0.39000002 4284120166
0.082474314 0.033930324 0.39000002 4284449131
0.083741032 0.033930324 0.39000002 4284646512
0.085007749 0.033930324 0.39000002 4285040755
0.086274475 0.033930324 0.39000002 4285369720
0.087541193 0.033930324 0.39000002 4285369720
0.088807911 0.033930324 0.39000002 4285632122
0.090074636 0.033930324 0.39000002 4285895294
0.091575563 0.034017328 0.39100003 4285632122
0.092845537 0.034017328 0.39100003 4285434743
0.094115503 0.034017328 0.39100003 4285171573
0.095385469 0.034017328 0.39100003 4285500538
0.096655443 0.034017328 0.39100003 4285237366
0.097925402 0.034017328 0.39100003 4285237366
0.042046785 0.03528773 0.39100003 4282933330
0.043316755 0.03528773 0.39100003 4283130709
0.044586722 0.03528773 0.39100003 4283591260
0.045856692 0.03528773 0.39100003 4283920225
0.047247186 0.035377979 0.39200002 4284052065
0.076941349 0.024157111 0.391103 4294967295
0.076941349 0.024157111 0.391103 4294901760
0.076941349 0.024157111 0.39160299 4294901760
0.076941349 0.024157111 0.39210299 4294901760
0.076941349 0.024157111 0.39260301 4294901760
0.076941349 0.024157111 0.393103 4294901760
0.076941349 0.024157111 0.393603 4294901760
0.076941349 0.024157111 0.39410299 4294901760
0.076941349 0.024157111 0.39460301 4294901760
0.076941349 0.024157111 0.39510301 4294901760
0.076941349 0.024157111 0.395603 4294901760
0.076941349 0.024157111 0.39610299 4294901760
0.076941349 0.024157111 0.39660299 4294901760
0.076941349 0.024157111 0.39710301 4294901760
0.076941349 0.024157111 0.39760301 4294901760
0.076941349 0.024157111 0.398103 4294901760
0.076941349 0.024157111 0.39860299 4294901760
0.076941349 0.024157111 0.39910299 4294901760
0.076941349 0.024157111 0.39960301 4294901760
0.076941349 0.024157111 0.400103 4294901760
0.076941349 0.024157111 0.400603 4294901760
0.076941349 0.024157111 0.40110299 4294901760
0.076941349 0.024157111 0.40160301 4294901760
0.076941349 0.024157111 0.40210301 4294901760
0.076941349 0.024157111 0.402603 4294901760
0.076941349 0.024157111 0.40310299 4294901760
0.076941349 0.024157111 0.40360302 4294901760
0.076941349 0.024157111 0.40410301 4294901760
0.076941349 0.024157111 0.404603 4294901760
0.076941349 0.024157111 0.405103 4294901760
0.076941349 0.024157111 0.40560299 4294901760
0.076941349 0.024157111 0.40610301 4294901760
0.076941349 0.024157111 0.40660301 4294901760
0.076941349 0.024157111 0.407103 4294901760
0.076941349 0.024157111 0.407603 4294901760
0.076941349 0.024157111 0.40810299 4294901760
0.076941349 0.024157111 0.40860301 4294901760
0.076941349 0.024157111 0.40910301 4294901760
0.076941349 0.024157111 0.409603 4294901760
0.076941349 0.024157111 0.41010299 4294901760
0.076941349 0.024157111 0.41060302 4294901760
0.076941349 0.024157111 0.41110301 4294901760
0.076941349 0.024157111 0.411603 4294901760
0.076941349 0.024157111 0.412103 4294901760
0.076941349 0.024157111 0.41260302 4294901760
0.076941349 0.024157111 0.41310301 4294901760
0.076941349 0.024157111 0.41360301 4294901760
0.076941349 0.024157111 0.414103 4294901760
0.076941349 0.024157111 0.41460299 4294901760
0.076941349 0.024157111 0.41510302 4294901760
0.076941349 0.024157111 0.41560301 4294901760
