# .PCD v0.7 - Point Cloud Data file format
VERSION 0.7
FIELDS x y z rgb
SIZE 4 4 4 4
TYPE F F F U
COUNT 1 1 1 1
WIDTH 1038
HEIGHT 1
VIEWPOINT 0 0 0 1 0 0 0
POINTS 1038
DATA ascii
0.011754032 0.033472657 0.35800001 4278598419
0.012916816 0.033472657 0.35800001 4278466833
0.014079601 0.033472657 0.35800001 4278598419
0.015242386 0.033472657 0.35800001 4278663701
0.016405171 0.033472657 0.35800001 4278397708
0.017567955 0.033472657 0.35800001 4278331402
0.018730739 0.033472657 0.35800001 4278727187
0.019949093 0.033566158 0.35900003 4278663701
0.021115126 0.033566158 0.35900003 4278532628
0.022343224 0.033659656 0.36000001 4278532628
0.023512503 0.033659656 0.36000001 4278598421
0.024750346 0.033753157 0.36100003 4278467605
0.025922874 0.033753157 0.36100003 4278204433
0.027095402 0.033753157 0.36100003 4278401812
0.028267931 0.033753157 0.36100003 4278467605
0.029440459 0.033753157 0.36100003 4278467605
0.03061299 0.033753157 0.36100003 4278599191
0.031785518 0.033753157 0.36100003 4278599191
0.032958046 0.033753157 0.36100003 4278533398
0.034036029 0.033659656 0.36000001 4278533912
0.035205308 0.033659656 0.36000001 4278533910
0.036374591 0.033659656 0.36000001 4278665496
0.037543871 0.033659656 0.36000001 4278468117
0.038820688 0.033753157 0.36100003 4278731289
0.039993219 0.033753157 0.36100003 4278731289
0.049236674 0.033659656 0.36000001 4278797595
0.050405957 0.033659656 0.36000001 4278929181
0.05157524 0.033659656 0.36000001 4278797595
0.052598011 0.033566158 0.35900003 4278928668
0.053764038 0.033566158 0.35900003 4278928668
0.054777063 0.033472657 0.35800001 4278994461
0.056096107 0.033566158 0.35900003 4278928668
-0.010656551 0.035700068 0.36900002 4279509014
-0.0094324071 0.035603318 0.36800003 4279639830
-0.0082147587 0.035506569 0.36700001 4279639830
-0.0069844704 0.035313074 0.36500001 4279639830
-0.005783062 0.035216328 0.36400002 4279180049
-0.00458815 0.035119578 0.36300001 4279313686
-0.0033903427 0.034926083 0.36100003 4278922256
-0.0022116704 0.034829333 0.36000001 4279054355
-0.0010423897 0.034829333 0.36000001 4278859797
0.00012653845 0.034732588 0.35900003 4278662931
0.0012925711 0.034732588 0.35900003 4278664214
0.0024586036 0.034732588 0.35900003 4278730005
0.0036246362 0.034732588 0.35900003 4278532626
0.0047906693 0.034732588 0.35900003 4278598419
0.0059567015 0.034732588 0.35900003 4278532624
0.0071227346 0.034732588 0.35900003 4278598417
0.0082887672 0.034732588 0.35900003 4278598417
0.0094547998 0.034732588 0.35900003 4278466833
0.010620832 0.034732588 0.35900003 4278466835
0.011754032 0.034635838 0.35800001 4278729494
0.012916816 0.034635838 0.35800001 4278597906
0.014079601 0.034635838 0.35800001 4278532113
0.015242386 0.034635838 0.35800001 4279123480
0.016405171 0.034635838 0.35800001 4278199044
0.017567955 0.034635838 0.35800001 4278198793
0.018730739 0.034635838 0.35800001 4278858773
0.019949093 0.034732588 0.35900003 4278728724
0.021115126 0.034732588 0.35900003 4278728724
0.022343224 0.034829333 0.36000001 4278662931
0.023512503 0.034829333 0.36000001 4278662931
0.024750346 0.034926083 0.36100003 4278268943
0.025922874 0.034926083 0.36100003 4278400529
0.027095402 0.034926083 0.36100003 4278597908
0.028267931 0.034926083 0.36100003 4278400529
0.029522011 0.035022829 0.36200002 4278532115
0.03061299 0.034926083 0.36100003 4278663701
0.031785518 0.034926083 0.36100003 4278663701
0.032958046 0.034926083 0.36100003 4278663701
0.034130577 0.034926083 0.36100003 4278729494
0.035303105 0.034926083 0.36100003 4278597908
0.036475632 0.034926083 0.36100003 4278598421
0.03764816 0.034926083 0.36100003 4278664212
0.038928226 0.035022829 0.36200002 4278598419
0.040104002 0.035022829 0.36200002 4278730005
0.047028389 0.034926083 0.36100003 4278796570
0.04820092 0.034926083 0.36100003 4278731289
0.049373444 0.034926083 0.36100003 4278797082
0.050545976 0.034926083 0.36100003 4278665496
0.05157524 0.034829333 0.36000001 4278862875
0.052744523 0.034829333 0.36000001 4278533910
0.053913798 0.034829333 0.36000001 4278862875
0.054930072 0.034732588 0.35900003 4278862875
0.056096107 0.034732588 0.35900003 4279126047
-0.011855063 0.036898986 0.36900002 4279772699
-0.010656551 0.036898986 0.36900002 4279574037
-0.0094324071 0.036798988 0.36800003 4279837209
-0.0082147587 0.03669899 0.36700001 4279837463
-0.0069844704 0.036498994 0.36500001 4279640084
-0.005783062 0.036398999 0.36400002 4279311889
-0.00458815 0.036299001 0.36300001 4279379477
-0.0033903427 0.036099009 0.36100003 4278988562
-0.0022116704 0.035999011 0.36000001 4278989845
-0.0010423897 0.035999011 0.36000001 4278728211
0.00012653845 0.035899013 0.35900003 4278925590
0.0012925711 0.035899013 0.35900003 4278729492
0.0024586036 0.035899013 0.35900003 4278795798
0.0036246362 0.035899013 0.35900003 4278203661
0.0047906693 0.035899013 0.35900003 4278664212
0.0059567015 0.035899013 0.35900003 4278335247
0.0071227346 0.035899013 0.35900003 4278466833
0.0082887672 0.035899013 0.35900003 4278532626
0.0094547998 0.035899013 0.35900003 4278598419
0.010591248 0.035799015 0.35800001 4278532628
0.011754032 0.035799015 0.35800001 4278532628
0.012916816 0.035799015 0.35800001 4278664212
0.014079601 0.035799015 0.35800001 4278598419
0.015242386 0.035799015 0.35800001 4278728722
0.016405171 0.035799015 0.35800001 4278198274
0.017567955 0.035799015 0.35800001 4278858261
0.018783061 0.035899013 0.35900003 4278727957
0.019949093 0.035899013 0.35900003 4278661394
0.021115126 0.035899013 0.35900003 4278196997
0.022343224 0.035999011 0.36000001 4278195201
0.023512503 0.035999011 0.36000001 4278195458
0.024750346 0.036099009 0.36100003 4278195714
0.025922874 0.036099009 0.36100003 4278194432
0.027095402 0.036099009 0.36100003 4278197250
0.028346235 0.036199003 0.36200002 4278198020
0.029522011 0.036199003 0.36200002 4278660367
0.030697789 0.036199003 0.36200002 4278726160
0.031873565 0.036199003 0.36200002 4279121431
0.033049341 0.036199003 0.36200002 4278858773
0.034225117 0.036199003 0.36200002 4278991129
0.035400894 0.036199003 0.36200002 4278531091
0.036576673 0.036199003 0.36200002 4278662931
0.03775245 0.036199003 0.36200002 4278465552
0.038928226 0.036199003 0.36200002 4278532115
0.040214784 0.036299001 0.36300001 4278532113
0.041393809 0.036299001 0.36300001 4278466833
0.042690117 0.036398999 0.36400002 4278532626
0.047158662 0.036199003 0.36200002 4278204433
0.048334438 0.036199003 0.36200002 4278599191
0.049510211 0.036199003 0.36200002 4278467605
0.050685991 0.036199003 0.36200002 4278599189
0.051718507 0.036099009 0.36100003 4278533396
0.052891035 0.036099009 0.36100003 4278533910
0.054063562 0.036099009 0.36100003 4278533910
0.054930072 0.035899013 0.35900003 4278731289
0.056096107 0.035899013 0.35900003 4278468117
0.05742164 0.035999011 0.36000001 4278797082
-0.011855063 0.038097903 0.36900002 4279706393
-0.010656551 0.038097903 0.36900002 4279771416
-0.0094324071 0.037994657 0.36800003 4279837209
-0.0081923753 0.037788164 0.36600003 4279837463
-0.0069844704 0.037684917 0.36500001 4279771670
-0.005783062 0.037581671 0.36400002 4279509266
-0.004575511 0.037375178 0.36200002 4279445268
-0.0033903427 0.037271935 0.36100003 4278791183
-0.0022116704 0.037168685 0.36000001 4278923539
-0.0010423897 0.037168685 0.36000001 4278530832
0.00012653845 0.037065443 0.35900003 4278794517
0.0012925711 0.037065443 0.35900003 4278729494
0.0024586036 0.037065443 0.35900003 4278598421
0.0036246362 0.037065443 0.35900003 4278664212
0.0047906693 0.037065443 0.35900003 4278532626
0.0059567015 0.037065443 0.35900003 4278532626
0.0071227346 0.037065443 0.35900003 4278532626
0.0082656788 0.036962193 0.35800001 4278532626
0.0094284629 0.036962193 0.35800001 4278466833
0.010591248 0.036962193 0.35800001 4278664212
0.011754032 0.036962193 0.35800001 4278532626
0.012916816 0.036962193 0.35800001 4278532626
0.014079601 0.036962193 0.35800001 4278532628
0.015242386 0.036962193 0.35800001 4278397708
0.016405171 0.036962193 0.35800001 4278196486
0.017567955 0.036962193 0.35800001 4278198283
0.018783061 0.037065443 0.35900003 4278661394
0.019949093 0.037065443 0.35900003 4278195200
0.021115126 0.037065443 0.35900003 4278589193
0.022343224 0.037168685 0.36000001 4278719498
0.023512503 0.037168685 0.36000001 4278587912
0.024750346 0.037271935 0.36100003 4278719498
0.025922874 0.037271935 0.36100003 4278587914
0.027095402 0.037271935 0.36100003 4278522634
0.028346235 0.037375178 0.36200002 4278522632
0.029522011 0.037375178 0.36200002 4278654218
0.030697789 0.037375178 0.36200002 4278522632
0.031873565 0.037375178 0.36200002 4278391560
0.033049341 0.037375178 0.36200002 4278260744
0.034319662 0.037478425 0.36300001 4278195456
0.035498686 0.037478425 0.36300001 4278725138
0.036677711 0.037478425 0.36300001 4278195712
0.037856735 0.037478425 0.36300001 4278194688
0.03903576 0.037478425 0.36300001 4278195200
0.040214784 0.037478425 0.36300001 4278196225
0.041507844 0.037581671 0.36400002 4278197252
0.042690117 0.037581671 0.36400002 4278198280
0.043992914 0.037684917 0.36500001 4278462990
0.047288932 0.037478425 0.36300001 4278596371
0.048467956 0.037478425 0.36300001 4278531091
0.049646977 0.037478425 0.36300001 4278728470
0.050826006 0.037478425 0.36300001 4278794263
0.05200503 0.037478425 0.36300001 4278531091
0.053184059 0.037478425 0.36300001 4278400529
0.054213319 0.037375178 0.36200002 4278400529
0.055695117 0.037581671 0.36400002 4278597906
0.05687739 0.037581671 0.36400002 4278532626
0.064513713 0.038614135 0.37400001 4278533396
-0.011855063 0.039296821 0.36900002 4279968795
-0.010627672 0.03919033 0.36800003 4279837209
-0.0094067743 0.039083831 0.36700001 4279968795
-0.0081923753 0.038977336 0.36600003 4280034588
-0.0069844704 0.038870838 0.36500001 4279771670
-0.0057671745 0.038657848 0.36300001 4279443986
-0.004575511 0.038551353 0.36200002 4279314197
-0.0033903427 0.038444858 0.36100003 4278856978
-0.0022116704 0.038338363 0.36000001 4279056152
-0.0010423897 0.038338363 0.36000001 4278727957
0.00012653845 0.038231868 0.35900003 4278860310
0.0012925711 0.038231868 0.35900003 4278730007
0.0024586036 0.038231868 0.35900003 4278795800
0.0036246362 0.038231868 0.35900003 4278664214
0.0047906693 0.038231868 0.35900003 4278466835
0.0059401086 0.03812537 0.35800001 4278532626
0.0071028937 0.03812537 0.35800001 4278532628
0.0082656788 0.03812537 0.35800001 4278335249
0.0094284629 0.03812537 0.35800001 4278335249
0.010591248 0.03812537 0.35800001 4278466835
0.011754032 0.03812537 0.35800001 4278664214
0.012916816 0.03812537 0.35800001 4278532628
0.014079601 0.03812537 0.35800001 4278466835
0.015242386 0.03812537 0.35800001 4279121945
0.016405171 0.03812537 0.35800001 4278196228
0.017617028 0.038231868 0.35900003 4279120918
0.018783061 0.038231868 0.35900003 4278727187
0.019949093 0.038231868 0.35900003 4278195718
0.021115126 0.038231868 0.35900003 4278654218
0.022343224 0.038338363 0.36000001 4278654220
0.023512503 0.038338363 0.36000001 4278587914
0.024750346 0.038444858 0.36100003 4278785293
0.025922874 0.038444858 0.36100003 4278719500
0.027095402 0.038444858 0.36100003 4278654220
0.028346235 0.038551353 0.36200002 4278654220
0.029522011 0.038551353 0.36200002 4278587912
0.030697789 0.038551353 0.36200002 4278587912
0.031961612 0.038657848 0.36300001 4278785291
0.033140637 0.038657848 0.36300001 4278719498
0.034319662 0.038657848 0.36300001 4278195974
0.035498686 0.038657848 0.36300001 4279317529
0.036677711 0.038657848 0.36300001 4278858259
0.037961025 0.038764346 0.36400002 4279055638
0.039143298 0.038764346 0.36400002 4278858259
0.040325571 0.038764346 0.36400002 4279186711
0.041507844 0.038764346 0.36400002 4278923541
0.042807397 0.038870838 0.36500001 4279384092
0.043992914 0.038870838 0.36500001 4279251736
0.045178436 0.038870838 0.36500001 4279054357
0.046363954 0.038870838 0.36500001 4278856978
0.047419205 0.038764346 0.36400002 4278461966
0.048601482 0.038764346 0.36400002 4278196230
0.049783751 0.038764346 0.36400002 4278194432
0.050966024 0.038764346 0.36400002 4278195200
0.052148297 0.038764346 0.36400002 4278194944
0.053330574 0.038764346 0.36400002 4278193920
0.05451284 0.038764346 0.36400002 4278195456
0.055695117 0.038764346 0.36400002 4278198021
0.058127441 0.039616309 0.37200001 4278198277
0.059495199 0.039722804 0.37300003 4278594576
0.060706709 0.039722804 0.37300003 4278397710
0.062084213 0.039829299 0.37400001 4278727187
0.063298963 0.039829299 0.37400001 4278398476
0.064513713 0.039829299 0.37400001 4278728724
0.065904215 0.039935797 0.37500003 4278532628
0.067301206 0.040042289 0.37600002 4278598421
0.068522453 0.040042289 0.37600002 4278598421
0.06992919 0.040148783 0.377 4278533398
0.071342431 0.040255282 0.37800002 4278533398
0.072570167 0.040255282 0.37800002 4278599191
0.073797919 0.040255282 0.37800002 4278862363
-0.011855063 0.040495742 0.36900002 4279903004
-0.010627672 0.040385999 0.36800003 4279837211
-0.0094067743 0.040276252 0.36700001 4280100383
-0.008169991 0.040056761 0.36500001 4280100381
-0.006965335 0.039947018 0.36400002 4279903002
-0.0057671745 0.039837271 0.36300001 4279641367
-0.004575511 0.039727528 0.36200002 4279379990
-0.0033903427 0.039617784 0.36100003 4279251736
-0.0022116704 0.039508041 0.36000001 4279187224
-0.0010423897 0.039508041 0.36000001 4278728211
0.00012653845 0.039398298 0.35900003 4278859797
0.0012925711 0.039398298 0.35900003 4278730007
0.0024586036 0.039398298 0.35900003 4278598421
0.0036145397 0.039288551 0.35800001 4278598421
0.0047773244 0.039288551 0.35800001 4278466835
0.0059401086 0.039288551 0.35800001 4278598421
0.0071028937 0.039288551 0.35800001 4278598421
0.0082656788 0.039288551 0.35800001 4278532628
0.0094284629 0.039288551 0.35800001 4278335249
0.010591248 0.039288551 0.35800001 4278664214
0.011754032 0.039288551 0.35800001 4278598421
0.012916816 0.039288551 0.35800001 4278598421
0.014079601 0.039288551 0.35800001 4278664214
0.015242386 0.039288551 0.35800001 4279516191
0.016405171 0.039288551 0.35800001 4278262792
0.017617028 0.039398298 0.35900003 4279779361
0.018783061 0.039398298 0.35900003 4278858773
0.019949093 0.039398298 0.35900003 4278458377
0.021115126 0.039398298 0.35900003 4279444248
0.022343224 0.039508041 0.36000001 4278984721
0.023512503 0.039508041 0.36000001 4278984721
0.024750346 0.039617784 0.36100003 4278852881
0.025922874 0.039617784 0.36100003 4278852881
0.027095402 0.039617784 0.36100003 4278853135
0.028346235 0.039727528 0.36200002 4279445783
0.029522011 0.039727528 0.36200002 4278853133
0.03078259 0.039837271 0.36300001 4279313686
0.031961612 0.039837271 0.36300001 4279312916
0.033140637 0.039837271 0.36300001 4279049744
0.034319662 0.039837271 0.36300001 4278722832
0.035596479 0.039947018 0.36400002 4278989845
0.036778755 0.039947018 0.36400002 4278727957
0.037961025 0.039947018 0.36400002 4278200843
0.039143298 0.039947018 0.36400002 4278199561
0.040436354 0.040056761 0.36500001 4278594576
0.041621875 0.040056761 0.36500001 4278858775
0.042807397 0.040056761 0.36500001 4278990361
0.043992914 0.040056761 0.36500001 4278924566
0.045302216 0.040166508 0.36600003 4278924820
0.046490982 0.040166508 0.36600003 4278924820
0.047549479 0.040056761 0.36500001 4278859027
0.048735 0.040056761 0.36500001 4278990359
0.049920518 0.040056761 0.36500001 4278727187
0.051106039 0.040056761 0.36500001 4278727189
0.052291561 0.040056761 0.36500001 4278858775
0.053623598 0.040166508 0.36600003 4279121433
0.054812364 0.040166508 0.36600003 4279187226
0.056613166 0.040605485 0.37 4279120920
0.058127441 0.040824972 0.37200001 4279054103
0.059495199 0.040934719 0.37300003 4279185689
0.060706709 0.040934719 0.37300003 4279185689
0.062084213 0.041044462 0.37400001 4278922517
0.063298963 0.041044462 0.37400001 4278922004
0.064686216 0.04115421 0.37500003 4278196228
0.065904215 0.04115421 0.37500003 4278727187
0.067301206 0.041263953 0.37600002 4278532115
0.068704695 0.041373696 0.377 4278532115
0.06992919 0.041373696 0.377 4278597906
0.071342431 0.041483443 0.37800002 4278597906
0.072570167 0.041483443 0.37800002 4278729494
0.073993146 0.041593187 0.37900001 4278860826
0.075224139 0.041593187 0.37900001 4278726937
-0.011822936 0.041581668 0.36800003 4279969567
-0.010598792 0.041468672 0.36700001 4280495141
-0.0093811434 0.041355681 0.36600003 4280429346
-0.008169991 0.041242685 0.36500001 4280100381
-0.006965335 0.04112969 0.36400002 4280034588
-0.0057671745 0.041016694 0.36300001 4279904539
-0.004575511 0.040903702 0.36200002 4279511576
-0.0033903427 0.040790711 0.36100003 4279250969
-0.0022116704 0.040677715 0.36000001 4279055640
-0.0010394942 0.040564723 0.35900003 4278596371
0.00012653845 0.040564723 0.35900003 4278531091
0.0012925711 0.040564723 0.35900003 4278730007
0.0024517551 0.040451728 0.35800001 4278598421
0.0036145397 0.040451728 0.35800001 4278532628
0.0047773244 0.040451728 0.35800001 4278598421
0.0059401086 0.040451728 0.35800001 4278598421
0.0071028937 0.040451728 0.35800001 4278466835
0.0082656788 0.040451728 0.35800001 4278598421
0.0094284629 0.040451728 0.35800001 4278598421
0.010591248 0.040451728 0.35800001 4278532628
0.011754032 0.040451728 0.35800001 4278532628
0.012916816 0.040451728 0.35800001 4278730007
0.014079601 0.040451728 0.35800001 4278598421
0.015242386 0.040451728 0.35800001 4279120666
0.016405171 0.040451728 0.35800001 4278328074
0.017617028 0.040564723 0.35900003 4278924568
0.018783061 0.040564723 0.35900003 4279056154
0.019949093 0.040564723 0.35900003 4278720777
0.021115126 0.040564723 0.35900003 4279774237
0.022343224 0.040677715 0.36000001 4278195972
0.023512503 0.040677715 0.36000001 4279183381
0.024750346 0.040790711 0.36100003 4279380762
0.025922874 0.040790711 0.36100003 4278393097
0.027095402 0.040790711 0.36100003 4278787855
0.028346235 0.040903702 0.36200002 4278262279
0.029522011 0.040903702 0.36200002 4278589191
0.03078259 0.041016694 0.36300001 4278984719
0.031961612 0.041016694 0.36300001 4278854418
0.033140637 0.041016694 0.36300001 4278393097
0.034414209 0.04112969 0.36400002 4279249685
0.035596479 0.04112969 0.36400002 4278727187
0.036778755 0.04112969 0.36400002 4278529296
0.037961025 0.04112969 0.36400002 4278197256
0.039250832 0.041242685 0.36500001 4278327304
0.040436354 0.041242685 0.36500001 4278328072
0.041621875 0.041242685 0.36500001 4278198279
0.04292468 0.041355681 0.36600003 4278725908
0.044113446 0.041355681 0.36600003 4278199307
0.045302216 0.041355681 0.36600003 4278857746
0.046490982 0.041355681 0.36600003 4278198274
0.047679752 0.041355681 0.36600003 4278199559
0.048868522 0.041355681 0.36600003 4278595601
0.050057288 0.041355681 0.36600003 4278793750
0.051246058 0.041355681 0.36600003 4278465298
0.052578092 0.041468672 0.36700001 4278531091
0.05377011 0.041468672 0.36700001 4278531091
0.055111885 0.041581668 0.36800003 4278465298
0.056613166 0.041807652 0.37 4278728470
0.058127441 0.042033639 0.37200001 4278662677
0.059495199 0.042146634 0.37300003 4278727957
0.060706709 0.042146634 0.37300003 4278793750
0.062084213 0.042259626 0.37400001 4278793750
0.063298963 0.042259626 0.37400001 4278859543
0.064686216 0.042372622 0.37500003 4278658832
0.066079959 0.042485613 0.37600002 4279120920
0.067301206 0.042485613 0.37600002 4278662931
0.068704695 0.042598605 0.377 4278662931
0.07011468 0.042711601 0.37800002 4278597908
0.071342431 0.042711601 0.37800002 4278597908
0.072762154 0.042824596 0.37900001 4278531345
0.073993146 0.042824596 0.37900001 4278794517
0.075224139 0.042824596 0.37900001 4278594837
-0.016694233 0.043009818 0.37 4285564280
-0.015492473 0.043009818 0.37 4285367673
-0.014290712 0.043009818 0.37 4284840557
-0.011822936 0.042777337 0.36800003 4279970341
-0.010598792 0.042661093 0.36700001 4280101153
-0.0093555115 0.042428605 0.36500001 4279903004
-0.0081476076 0.042312365 0.36400002 4280034588
-0.0069461991 0.042196121 0.36300001 4279837209
-0.0057512871 0.042079877 0.36200002 4279576088
-0.0045628715 0.041963637 0.36100003 4279446553
-0.003380951 0.041847393 0.36000001 4279383068
-0.0022116704 0.041847393 0.36000001 4279450398
-0.0010394942 0.041731153 0.35900003 4278793750
0.00012653845 0.041731153 0.35900003 4278794263
0.0012889706 0.041614905 0.35800001 4278795033
0.0024517551 0.041614905 0.35800001 4278663701
0.0036145397 0.041614905 0.35800001 4278532628
0.0047773244 0.041614905 0.35800001 4278532628
0.0059235166 0.041498665 0.35700002 4278598421
0.0070830532 0.041498665 0.35700002 4278532628
0.0082425904 0.041498665 0.35700002 4278532628
0.009402127 0.041498665 0.35700002 4278532115
0.010561664 0.041498665 0.35700002 4278532628
0.0117212 0.041498665 0.35700002 4278598421
0.012916816 0.041614905 0.35800001 4278532628
0.014079601 0.041614905 0.35800001 4278400275
0.015242386 0.041614905 0.35800001 4278196228
0.016405171 0.041614905 0.35800001 4278327304
0.017617028 0.041731153 0.35900003 4278727189
0.018783061 0.041731153 0.35900003 4278924568
0.019949093 0.041731153 0.35900003 4278654984
0.021115126 0.041731153 0.35900003 4278654986
0.022343224 0.041847393 0.36000001 4278523146
0.023512503 0.041847393 0.36000001 4278458123
0.024750346 0.041963637 0.36100003 4278523916
0.025922874 0.041963637 0.36100003 4278458123
0.027095402 0.041963637 0.36100003 4278720525
0.028346235 0.042079877 0.36200002 4278391560
0.029522011 0.042079877 0.36200002 4278853133
0.03078259 0.042196121 0.36300001 4279578652
0.031961612 0.042196121 0.36300001 4279841824
0.033140637 0.042196121 0.36300001 4278524683
0.034414209 0.042312365 0.36400002 4279382809
0.035596479 0.042312365 0.36400002 4278660880
0.036778755 0.042312365 0.36400002 4278328585
0.038065314 0.042428605 0.36500001 4278458377
0.039250832 0.042428605 0.36500001 4278720525
0.040436354 0.042428605 0.36500001 4278392584
0.04173591 0.042544849 0.36600003 4278396173
0.04292468 0.042544849 0.36600003 4279055640
0.044113446 0.042544849 0.36600003 4278791701
0.045302216 0.042544849 0.36600003 4278791185
0.046490982 0.042544849 0.36600003 4278856976
0.047679752 0.042544849 0.36600003 4279055125
0.04900204 0.042661093 0.36700001 4278396427
0.050194055 0.042661093 0.36700001 4278198791
0.051386073 0.042661093 0.36700001 4278397197
0.052721359 0.042777337 0.36800003 4278726162
0.053916626 0.042777337 0.36800003 4278198276
0.055261642 0.042893577 0.36900002 4278199047
0.056766175 0.043126062 0.37100002 4278196480
0.058127441 0.043242306 0.37200001 4278726673
0.059495199 0.043358549 0.37300003 4278464015
0.060706709 0.043358549 0.37300003 4278199301
0.062084213 0.04347479 0.37400001 4278662677
0.06346821 0.043591034 0.37500003 4278728470
0.064686216 0.043591034 0.37500003 4278198280
0.066079959 0.043707278 0.37600002 4279055127
0.067480199 0.043823518 0.377 4278596625
0.068704695 0.043823518 0.377 4278728211
0.07011468 0.043939762 0.37800002 4278662931
0.071531162 0.044056002 0.37900001 4278860310
0.072762154 0.044056002 0.37900001 4278794517
0.073993146 0.044056002 0.37900001 4278859543
0.075224139 0.044056002 0.37900001 4278792214
-0.016919831 0.044809449 0.37500003 4284775534
-0.015701832 0.044809449 0.37500003 4284907382
-0.014483831 0.044809449 0.37500003 4284907635
-0.013053576 0.044092495 0.36900002 4284841329
-0.011822936 0.043973006 0.36800003 4284907122
-0.010598792 0.04385351 0.36700001 4285103218
-0.0081252242 0.043375544 0.36300001 4279837979
-0.0069270642 0.043256052 0.36200002 4280231967
-0.0057353997 0.043136563 0.36100003 4279577367
-0.0045628715 0.043136563 0.36100003 4279250453
-0.003380951 0.043017067 0.36000001 4279186713
-0.0022055269 0.042897578 0.35900003 4279121947
-0.0010394942 0.042897578 0.35900003 4278991129
0.00012653845 0.042897578 0.35900003 4278794263
0.0012889706 0.042778086 0.35800001 4278795800
0.0024517551 0.042778086 0.35800001 4278664214
0.0036044433 0.042658594 0.35700002 4278532628
0.0047639804 0.042658594 0.35700002 4278532628
0.0059235166 0.042658594 0.35700002 4278466835
0.0070830532 0.042658594 0.35700002 4278598421
0.0082425904 0.042658594 0.35700002 4278597908
0.009402127 0.042658594 0.35700002 4278729494
0.010561664 0.042658594 0.35700002 4278532115
0.0117212 0.042658594 0.35700002 4278532628
0.012880736 0.042658594 0.35700002 4278598421
0.014079601 0.042778086 0.35800001 4278663701
0.015242386 0.042778086 0.35800001 4278592271
0.016405171 0.042778086 0.35800001 4279183894
0.017617028 0.042897578 0.35900003 4278924566
0.018783061 0.042897578 0.35900003 4279121945
0.019949093 0.042897578 0.35900003 4278851851
0.021115126 0.042897578 0.35900003 4278785804
0.022343224 0.043017067 0.36000001 4278851084
0.023512503 0.043017067 0.36000001 4278851084
0.024750346 0.043136563 0.36100003 4278719498
0.025922874 0.043136563 0.36100003 4278719498
0.027095402 0.043136563 0.36100003 4278719498
0.028346235 0.043256052 0.36200002 4278587912
0.029522011 0.043256052 0.36200002 4278587912
0.03078259 0.043375544 0.36300001 4278522632
0.031961612 0.043375544 0.36300001 4278391814
0.033231933 0.043495037 0.36400002 4278589193
0.034414209 0.043495037 0.36400002 4279646494
0.035596479 0.043495037 0.36400002 4278858773
0.036879793 0.043614529 0.36500001 4278328072
0.038065314 0.043614529 0.36500001 4278654218
0.039250832 0.043614529 0.36500001 4278588939
0.040436354 0.043614529 0.36500001 4278986002
0.04173591 0.043734021 0.36600003 4278264841
0.04292468 0.043734021 0.36600003 4278593806
0.044113446 0.043734021 0.36600003 4278331404
0.045425989 0.04385351 0.36700001 4278791955
0.046618003 0.04385351 0.36700001 4278988564
0.047810022 0.04385351 0.36700001 4278791955
0.04900204 0.04385351 0.36700001 4278790931
0.050330825 0.043973006 0.36800003 4278725138
0.051526092 0.043973006 0.36800003 4278658062
0.052721359 0.043973006 0.36800003 4278591755
0.054063134 0.044092495 0.36900002 4279316762
0.055411402 0.044211987 0.37 4278790418
0.056766175 0.04433148 0.37100002 4278988310
0.058127441 0.044450969 0.37200001 4278593552
0.059495199 0.044570465 0.37300003 4278528013
0.060869459 0.044689953 0.37400001 4278856978
0.062084213 0.044689953 0.37400001 4278398994
0.06346821 0.044809449 0.37500003 4278728470
0.064858705 0.044928938 0.37600002 4278195456
0.066079959 0.044928938 0.37600002 4279120920
0.067480199 0.045048431 0.377 4278859543
0.068886936 0.045167923 0.37800002 4278794004
0.070300169 0.045287412 0.37900001 4278662931
0.071531162 0.045287412 0.37900001 4278662931
0.072762154 0.045287412 0.37900001 4278728724
0.074188381 0.045406908 0.38000003 4278794263
0.075422622 0.045406908 0.38000003 4278923287
-0.018234566 0.04627334 0.377 4283522900
-0.017010069 0.04627334 0.377 4284906350
-0.015785573 0.04627334 0.377 4285038455
-0.014561077 0.04627334 0.377 4284972662
-0.0093042487 0.044554967 0.36300001 4284117606
-0.0081028407 0.044432227 0.36200002 4284577387
-0.0069270642 0.044432227 0.36200002 4279313432
-0.0057353997 0.044309489 0.36100003 4279314965
-0.0045502316 0.044186745 0.36000001 4279118613
-0.003380951 0.044186745 0.36000001 4279450398
-0.0022055269 0.044064008 0.35900003 4278990361
-0.0010394942 0.044064008 0.35900003 4278793750
0.00012618597 0.043941263 0.35800001 4278860056
0.0012889706 0.043941263 0.35800001 4278860826
0.0024449066 0.043818522 0.35700002 4278730007
0.0036044433 0.043818522 0.35700002 4278664214
0.0047639804 0.043818522 0.35700002 4278598421
0.0059235166 0.043818522 0.35700002 4278598421
0.0070632128 0.043695781 0.35600001 4278598421
0.008219501 0.043695781 0.35600001 4278532628
0.009402127 0.043818522 0.35700002 4278532628
0.010561664 0.043818522 0.35700002 4278597908
0.0117212 0.043818522 0.35700002 4278531861
0.012880736 0.043818522 0.35700002 4278597654
0.014079601 0.043941263 0.35800001 4278202126
0.015242386 0.043941263 0.35800001 4278462990
0.016405171 0.043941263 0.35800001 4278396173
0.017567955 0.043941263 0.35800001 4278793750
0.018783061 0.044064008 0.35900003 4278728470
0.019949093 0.044064008 0.35900003 4279183894
0.021115126 0.044064008 0.35900003 4278392845
0.022343224 0.044186745 0.36000001 4278523916
0.023512503 0.044186745 0.36000001 4278588939
0.024750346 0.044309489 0.36100003 4278587912
0.025922874 0.044309489 0.36100003 4278720011
0.027095402 0.044309489 0.36100003 4278654218
0.028346235 0.044432227 0.36200002 4278720011
0.029522011 0.044432227 0.36200002 4278720013
0.03078259 0.044554967 0.36300001 4278719500
0.031961612 0.044554967 0.36300001 4278785291
0.033231933 0.044677708 0.36400002 4278259460
0.034414209 0.044677708 0.36400002 4278988564
0.035596479 0.044677708 0.36400002 4278989845
0.036879793 0.044800449 0.36500001 4279119637
0.038065314 0.044800449 0.36500001 4279380758
0.039250832 0.044800449 0.36500001 4279578650
0.04054714 0.044923194 0.36600003 4278987797
0.04173591 0.044923194 0.36600003 4278857748
0.04292468 0.044923194 0.36600003 4279252506
0.044113446 0.044923194 0.36600003 4279253019
0.045425989 0.045045931 0.36700001 4279055640
0.046618003 0.045045931 0.36700001 4279121433
0.047810022 0.045045931 0.36700001 4278858261
0.049135566 0.045168675 0.36800003 4279054873
0.050330825 0.045168675 0.36800003 4278857494
0.051526092 0.045168675 0.36800003 4279054873
0.052864619 0.045291413 0.36900002 4278725908
0.054209646 0.045414153 0.37 4279054103
0.055411402 0.045414153 0.37 4278330380
0.056766175 0.045536898 0.37100002 4278197766
0.058127441 0.045659635 0.37200001 4279186459
0.059495199 0.04578238 0.37300003 4278196738
0.060869459 0.045905117 0.37400001 4278196996
0.062084213 0.045905117 0.37400001 4278529810
0.06346821 0.046027862 0.37500003 4278464785
0.064858705 0.046150602 0.37600002 4278198020
0.066255704 0.04627334 0.377 4279055640
0.067480199 0.04627334 0.377 4278662677
0.068886936 0.046396084 0.37800002 4278794263
0.070300169 0.046518821 0.37900001 4278728724
0.071531162 0.046518821 0.37900001 4278728724
0.072954141 0.046641566 0.38000003 4278794517
0.074188381 0.046641566 0.38000003 4278991383
0.075422622 0.046641566 0.38000003 4279120668
-0.018524772 0.048254196 0.38300002 4285036653
-0.017280787 0.048254196 0.38300002 4284972143
-0.016036803 0.048254196 0.38300002 4284972662
-0.014792819 0.048254196 0.38300002 4284972662
-0.013548833 0.048254196 0.38300002 4284907122
-0.012304849 0.048254196 0.38300002 4284775536
-0.011060865 0.048254196 0.38300002 4284512364
-0.0093042487 0.045734394 0.36300001 4284314985
-0.0081028407 0.045608405 0.36200002 4283986020
-0.0069079287 0.045482416 0.36100003 4283986020
-0.0057195118 0.045356423 0.36000001 4278591759
-0.0045502316 0.045356423 0.36000001 4279447580
-0.0033715598 0.045230437 0.35900003 4279383838
-0.0022055269 0.045230437 0.35900003 4279121947
-0.0010365986 0.045104444 0.35800001 4279056922
0.00012618597 0.045104444 0.35800001 4279188508
0.0012889706 0.045104444 0.35800001 4278991642
0.0024449066 0.044978455 0.35700002 4278992666
0.0036044433 0.044978455 0.35700002 4278269456
0.0047506355 0.044852462 0.35600001 4278664214
0.0059069237 0.044852462 0.35600001 4278532628
0.0070632128 0.044852462 0.35600001 4278532628
0.008219501 0.044852462 0.35600001 4278466835
0.0093757901 0.044852462 0.35600001 4278532628
0.010561664 0.044978455 0.35700002 4278664214
0.0117212 0.044978455 0.35700002 4278664214
0.012880736 0.044978455 0.35700002 4278532628
0.014040273 0.044978455 0.35700002 4278334482
0.015242386 0.045104444 0.35800001 4278396173
0.016405171 0.045104444 0.35800001 4278527759
0.017567955 0.045104444 0.35800001 4278662679
0.018783061 0.045230437 0.35900003 4278794263
0.019949093 0.045230437 0.35900003 4278793752
0.021115126 0.045230437 0.35900003 4278924568
0.022343224 0.045356423 0.36000001 4278990361
0.023512503 0.045356423 0.36000001 4279056154
0.024681784 0.045356423 0.36000001 4279187226
0.025922874 0.045482416 0.36100003 4279121433
0.027095402 0.045482416 0.36100003 4279055640
0.028346235 0.045608405 0.36200002 4279252252
0.029522011 0.045608405 0.36200002 4279316762
0.03078259 0.045734394 0.36300001 4279447578
0.031961612 0.045734394 0.36300001 4279842336
0.033231933 0.045860387 0.36400002 4279184406
0.034414209 0.045860387 0.36400002 4279185689
0.035596479 0.045860387 0.36400002 4278197767
0.036879793 0.045986373 0.36500001 4278789648
0.038065314 0.045986373 0.36500001 4278195200
0.039250832 0.045986373 0.36500001 4278194176
0.04054714 0.046112366 0.36600003 4278195202
0.04173591 0.046112366 0.36600003 4278194432
0.04292468 0.046112366 0.36600003 4278195714
0.044113446 0.046112366 0.36600003 4278195457
0.045425989 0.046238355 0.36700001 4278196998
0.046618003 0.046238355 0.36700001 4278197768
0.047810022 0.046238355 0.36700001 4278396173
0.049135566 0.046364348 0.36800003 4278922771
0.050330825 0.046364348 0.36800003 4279054357
0.051666107 0.046490334 0.36900002 4279318299
0.052864619 0.046490334 0.36900002 4279318299
0.054209646 0.046616323 0.37 4279187224
0.055561166 0.046742316 0.37100002 4278989845
0.056766175 0.046742316 0.37100002 4278989845
0.058127441 0.046868306 0.37200001 4278989845
0.059495199 0.046994295 0.37300003 4278858259
0.060869459 0.047120284 0.37400001 4278858261
0.062250216 0.047246277 0.37500003 4278793752
0.06346821 0.047246277 0.37500003 4278727959
0.064858705 0.047372267 0.37600002 4278197254
0.066255704 0.047498256 0.377 4279055638
0.067659192 0.047624245 0.37800002 4278727957
0.069069177 0.047750235 0.37900001 4278794263
0.070300169 0.047750235 0.37900001 4278728470
0.0717199 0.047876228 0.38000003 4278662677
0.072954141 0.047876228 0.38000003 4278728470
0.074188381 0.047876228 0.38000003 4278925336
0.075422622 0.047876228 0.38000003 4280632626
-0.018524772 0.049498599 0.38300002 4285562999
-0.017280787 0.049498599 0.38300002 4285103731
-0.016036803 0.049498599 0.38300002 4284972662
-0.014792819 0.049498599 0.38300002 4284972662
-0.013548833 0.049498599 0.38300002 4284841076
-0.012304849 0.049498599 0.38300002 4284841329
-0.011060865 0.049498599 0.38300002 4284709743
-0.0098168794 0.049498599 0.38300002 4284380778
-0.0080804573 0.046655338 0.36100003 4284051813
-0.0069079287 0.046655338 0.36100003 4283986020
-0.0057195118 0.046526097 0.36000001 4283920227
-0.0045502316 0.046526097 0.36000001 4282802257
-0.0033715598 0.046396859 0.35900003 4278790422
-0.0022055269 0.046396859 0.35900003 4279515428
-0.0010365986 0.046267621 0.35800001 4279187486
0.00012618597 0.046267621 0.35800001 4279254049
0.0012853701 0.046138383 0.35700002 4279385889
0.0024449066 0.046138383 0.35700002 4278991644
0.0036044433 0.046138383 0.35700002 4278860826
0.0047506355 0.046009142 0.35600001 4278860826
0.0059069237 0.046009142 0.35600001 4278597654
0.0070632128 0.046009142 0.35600001 4278597654
0.008219501 0.046009142 0.35600001 4278663701
0.0093757901 0.046009142 0.35600001 4278663701
0.010532078 0.046009142 0.35600001 4278663701
0.0117212 0.046138383 0.35700002 4278597908
0.012880736 0.046138383 0.35700002 4278663447
0.014040273 0.046138383 0.35700002 4278729240
0.015242386 0.046267621 0.35800001 4278991129
0.016405171 0.046267621 0.35800001 4278991129
0.017567955 0.046267621 0.35800001 4278860056
0.018783061 0.046396859 0.35900003 4278728470
0.019949093 0.046396859 0.35900003 4278728470
0.021115126 0.046396859 0.35900003 4278794263
0.022343224 0.046526097 0.36000001 4278794263
0.023512503 0.046526097 0.36000001 4278860056
0.024681784 0.046526097 0.36000001 4278794263
0.025922874 0.046655338 0.36100003 4278991642
0.027095402 0.046655338 0.36100003 4278728470
0.028346235 0.046784576 0.36200002 4278925336
0.029522011 0.046784576 0.36200002 4278925336
0.03078259 0.046913814 0.36300001 4278925336
0.031961612 0.046913814 0.36300001 4278859543
0.033231933 0.047043055 0.36400002 4278859543
0.034414209 0.047043055 0.36400002 4278925336
0.035596479 0.047043055 0.36400002 4278727957
0.036879793 0.047172293 0.36500001 4278990359
0.038065314 0.047172293 0.36500001 4278924566
0.039250832 0.047172293 0.36500001 4279056154
0.04054714 0.047301535 0.36600003 4279385119
0.04173591 0.047301535 0.36600003 4278989847
0.04292468 0.047301535 0.36600003 4279253019
0.044113446 0.047301535 0.36600003 4279384092
0.045425989 0.047430772 0.36700001 4279186713
0.046618003 0.047430772 0.36700001 4279383068
0.047940299 0.047560014 0.36800003 4279251482
0.049135566 0.047560014 0.36800003 4279777313
0.050330825 0.047560014 0.36800003 4278987027
0.051666107 0.047689252 0.36900002 4278987027
0.053007882 0.047818489 0.37 4278197511
0.054209646 0.047818489 0.37 4278526476
0.055561166 0.047947731 0.37100002 4278195712
0.056919184 0.048076969 0.37200001 4278195202
0.058283698 0.04820621 0.37300003 4278195200
0.059495199 0.04820621 0.37300003 4278193664
0.060869459 0.048335448 0.37400001 4278195200
0.062250216 0.048464689 0.37500003 4278196482
0.063637458 0.048593923 0.37600002 4278198024
0.065031201 0.048723161 0.377 4279252252
0.066255704 0.048723161 0.377 4278924566
0.067659192 0.048852403 0.37800002 4278925590
0.069069177 0.04898164 0.37900001 4278728724
0.070485659 0.049110882 0.38000003 4278794517
0.0717199 0.049110882 0.38000003 4278860310
0.072954141 0.049110882 0.38000003 4278926103
0.074188381 0.049110882 0.38000003 4279056922
0.075422622 0.049110882 0.38000003 4285237112
-0.018524772 0.050743006 0.38300002 4280299045
-0.017416146 0.051140472 0.38600001 4285432443
-0.016162418 0.051140472 0.38600001 4284972662
-0.014908689 0.051140472 0.38600001 4284972662
-0.013654959 0.051140472 0.38600001 4284775283
-0.012401231 0.051140472 0.38600001 4284775283
-0.011147503 0.051140472 0.38600001 4284512364
-0.0098937741 0.051140472 0.38600001 4284380778
-0.0086400453 0.051140472 0.38600001 4284051813
-0.0057195118 0.047695778 0.36000001 4283920227
-0.0045375922 0.047563292 0.35900003 4284051813
-0.0033715598 0.047563292 0.35900003 4284841842
-0.0022055269 0.047563292 0.35900003 4284644977
-0.0010365986 0.047430802 0.35800001 4280699450
0.00012618597 0.047430802 0.35800001 4278857244
0.0012853701 0.047298312 0.35700002 4279318560
0.0024449066 0.047298312 0.35700002 4279516453
0.0035943466 0.047165822 0.35600001 4278793498
0.0047506355 0.047165822 0.35600001 4279319844
0.0059069237 0.047165822 0.35600001 4279188256
0.0070632128 0.047165822 0.35600001 4279056924
0.008219501 0.047165822 0.35600001 4279254301
0.0093757901 0.047165822 0.35600001 4279123228
0.010532078 0.047165822 0.35600001 4279058205
0.0117212 0.047298312 0.35700002 4279058205
0.012880736 0.047298312 0.35700002 4278992412
0.014040273 0.047298312 0.35700002 4279058205
0.015242386 0.047430802 0.35800001 4279123230
0.016405171 0.047430802 0.35800001 4278860058
0.017567955 0.047430802 0.35800001 4278860058
0.018730739 0.047430802 0.35800001 4278925851
0.019949093 0.047563292 0.35900003 4278860056
0.021115126 0.047563292 0.35900003 4278860056
0.022281159 0.047563292 0.35900003 4278860056
0.023512503 0.047695778 0.36000001 4278728470
0.024681784 0.047695778 0.36000001 4278531861
0.025922874 0.047828268 0.36100003 4278663447
0.027095402 0.047828268 0.36100003 4278597654
0.028346235 0.047960754 0.36200002 4278795033
0.029522011 0.047960754 0.36200002 4278795287
0.03078259 0.048093241 0.36300001 4278729494
0.031961612 0.048093241 0.36300001 4278333966
0.033231933 0.048225731 0.36400002 4278531345
0.034414209 0.048225731 0.36400002 4278860310
0.035596479 0.048225731 0.36400002 4278794517
0.036879793 0.048358217 0.36500001 4278728724
0.038065314 0.048358217 0.36500001 4278860310
0.039250832 0.048358217 0.36500001 4278860310
0.04054714 0.048490711 0.36600003 4278991896
0.04173591 0.048490711 0.36600003 4278794517
0.04292468 0.048490711 0.36600003 4278794517
0.044233974 0.048623197 0.36700001 4278531345
0.045425989 0.048623197 0.36700001 4278860310
0.046618003 0.048623197 0.36700001 4278859543
0.047940299 0.048755687 0.36800003 4278859543
0.049135566 0.048755687 0.36800003 4278924566
0.050467592 0.048888173 0.36900002 4279056152
0.051666107 0.048888173 0.36900002 4279121945
0.053007882 0.049020659 0.37 4278990359
0.054209646 0.049020659 0.37 4279187224
0.055561166 0.049153149 0.37100002 4279187224
0.056919184 0.049285635 0.37200001 4279253017
0.058283698 0.049418125 0.37300003 4279121431
0.059654702 0.049550612 0.37400001 4278923541
0.061032213 0.049683105 0.37500003 4279252506
0.062250216 0.049683105 0.37500003 4279186713
0.063637458 0.049815591 0.37600002 4279252252
0.065031201 0.049948078 0.377 4279121947
0.066431448 0.050080568 0.37800002 4278991129
0.067838185 0.050213054 0.37900001 4278794263
0.069069177 0.050213054 0.37900001 4278860310
0.070485659 0.050345544 0.38000003 4278926103
0.0717199 0.050345544 0.38000003 4278860310
0.072954141 0.050345544 0.38000003 4278793750
0.074383609 0.05047803 0.38100001 4279186459
-0.017416146 0.052394621 0.38600001 4285892481
-0.016162418 0.052394621 0.38600001 4285170041
-0.014908689 0.052394621 0.38600001 4284972662
-0.013654959 0.052394621 0.38600001 4284972662
-0.012401231 0.052394621 0.38600001 4284709490
-0.011147503 0.052394621 0.38600001 4284380525
-0.0098937741 0.052394621 0.38600001 4284314732
-0.0086400453 0.052394621 0.38600001 4283986020
-0.0045375922 0.048729714 0.35900003 4284249192
-0.0033715598 0.048729714 0.35900003 4284447084
-0.0021993832 0.048593976 0.35800001 4284513391
-0.0010365986 0.048593976 0.35800001 4284710770
0.00012618597 0.048593976 0.35800001 4284842356
0.0012853701 0.048458241 0.35700002 4285237114
0.0024449066 0.048458241 0.35700002 4285237114
0.0035943466 0.048322503 0.35600001 4284185707
0.0047506355 0.048322503 0.35600001 4282935640
0.0059069237 0.048322503 0.35600001 4281225022
0.0070632128 0.048322503 0.35600001 4279843369
0.008219501 0.048322503 0.35600001 4279383072
0.0093757901 0.048322503 0.35600001 4278923291
0.010532078 0.048322503 0.35600001 4278398744
0.0117212 0.048458241 0.35700002 4278464537
0.012880736 0.048458241 0.35700002 4278859295
0.014040273 0.048458241 0.35700002 4278925088
0.015242386 0.048593976 0.35800001 4279384865
0.016405171 0.048593976 0.35800001 4279647523
0.017567955 0.048593976 0.35800001 4279384865
0.018730739 0.048593976 0.35800001 4279384865
0.019949093 0.048729714 0.35900003 4279450658
0.021115126 0.048729714 0.35900003 4279319072
0.022281159 0.048729714 0.35900003 4279254303
0.023512503 0.048865452 0.36000001 4279056924
0.024750346 0.049001191 0.36100003 4279123230
0.025922874 0.049001191 0.36100003 4278925851
0.027095402 0.049001191 0.36100003 4279189021
0.028346235 0.049136925 0.36200002 4279123228
0.029522011 0.049136925 0.36200002 4279189021
0.03078259 0.049272664 0.36300001 4278925849
0.031961612 0.049272664 0.36300001 4278991642
0.033231933 0.049408402 0.36400002 4278925849
0.034414209 0.049408402 0.36400002 4278794263
0.035596479 0.049408402 0.36400002 4278925849
0.036879793 0.049544137 0.36500001 4278728470
0.038065314 0.049544137 0.36500001 4278925849
0.039250832 0.049544137 0.36500001 4278662677
0.04054714 0.049679875 0.36600003 4278925849
0.04173591 0.049679875 0.36600003 4278860310
0.04292468 0.049679875 0.36600003 4278728724
0.044233974 0.049815614 0.36700001 4278860310
0.045425989 0.049815614 0.36700001 4278728724
0.046618003 0.049815614 0.36700001 4278794517
0.047940299 0.049951352 0.36800003 4278926103
0.049135566 0.049951352 0.36800003 4278333453
0.050467592 0.050087087 0.36900002 4278991383
0.051666107 0.050087087 0.36900002 4278991383
0.053007882 0.050222825 0.37 4278991383
0.054356162 0.050358564 0.37100002 4279189275
0.055561166 0.050358564 0.37100002 4278926103
0.056919184 0.050494298 0.37200001 4278926103
0.058283698 0.050630037 0.37300003 4278794517
0.059654702 0.050765775 0.37400001 4278859797
0.061032213 0.050901514 0.37500003 4278925590
0.062416214 0.051037248 0.37600002 4278991383
0.063806705 0.051172987 0.377 4278991129
0.065031201 0.051172987 0.377 4278793750
0.066431448 0.051308725 0.37800002 4278794263
0.067838185 0.05144446 0.37900001 4278794263
0.069251418 0.051580202 0.38000003 4278925849
0.070485659 0.051580202 0.38000003 4278925849
0.0717199 0.051580202 0.38000003 4278925849
0.07314612 0.051715937 0.38100001 4279318045
0.074383609 0.051715937 0.38100001 4284448620
-0.017416146 0.053648777 0.38600001 4285695102
-0.016162418 0.053648777 0.38600001 4284972662
-0.014908689 0.053648777 0.38600001 4284972662
-0.013654959 0.053648777 0.38600001 4284906869
-0.012401231 0.053648777 0.38600001 4284709490
-0.011147503 0.053648777 0.38600001 4284512111
-0.0098937741 0.053648777 0.38600001 4284248939
-0.0086400453 0.053648777 0.38600001 4284051813
0.024750346 0.050174121 0.36100003 4278923291
0.025922874 0.050174121 0.36100003 4278725658
0.027170457 0.050313104 0.36200002 4279186976
0.028346235 0.050313104 0.36200002 4279319074
0.029522011 0.050313104 0.36200002 4279384865
0.03078259 0.050452087 0.36300001 4279384865
0.031961612 0.050452087 0.36300001 4279450658
0.033231933 0.050591078 0.36400002 4279319072
0.034414209 0.050591078 0.36400002 4279121947
0.035694271 0.050730061 0.36500001 4279056154
0.036879793 0.050730061 0.36500001 4279319326
0.038065314 0.050730061 0.36500001 4279187740
0.039250832 0.050730061 0.36500001 4279188508
0.04054714 0.050869051 0.36600003 4279254301
0.04173591 0.050869051 0.36600003 4279056922
0.04292468 0.050869051 0.36600003 4279056922
0.044233974 0.051008034 0.36700001 4279188508
0.045425989 0.051008034 0.36700001 4279056922
0.046618003 0.051008034 0.36700001 4279188762
0.047940299 0.051147025 0.36800003 4279254555
0.049135566 0.051147025 0.36800003 4279057176
0.050467592 0.051286008 0.36900002 4279188762
0.051806122 0.051424995 0.37 4278991383
0.053007882 0.051424995 0.37 4278991383
0.054356162 0.051563982 0.37100002 4279254555
0.055710923 0.051702969 0.37200001 4278596625
0.056919184 0.051702969 0.37200001 4279254555
0.058439955 0.051980942 0.37400001 4279056922
0.059814211 0.052119929 0.37500003 4279056922
0.061032213 0.052119929 0.37500003 4279188508
0.062416214 0.052258916 0.37600002 4278991129
0.063806705 0.052397899 0.377 4279385117
0.065203704 0.052536886 0.37800002 4279385117
0.066607192 0.052675873 0.37900001 4279319324
0.067838185 0.052675873 0.37900001 4279385119
0.069251418 0.05281486 0.38000003 4279385119
0.070485659 0.05281486 0.38000003 4279647777
0.071908638 0.052953847 0.38100001 4279777828
-0.017416146 0.054902934 0.38600001 4285629309
-0.016162418 0.054902934 0.38600001 4284906869
-0.014908689 0.054902934 0.38600001 4284972662
0.032049663 0.051773753 0.36400002 4284843891
0.033231933 0.051773753 0.36400002 4284185961
0.034414209 0.051773753 0.36400002 4283725410
0.035694271 0.051915988 0.36500001 4283066965
0.036879793 0.051915988 0.36500001 4282211656
0.038065314 0.051915988 0.36500001 4281553726
0.039250832 0.051915988 0.36500001 4280501040
0.04054714 0.052058224 0.36600003 4280764212
0.04173591 0.052058224 0.36600003 4280633139
0.04292468 0.052058224 0.36600003 4280238381
0.044233974 0.052200459 0.36700001 4280304174
0.045425989 0.052200459 0.36700001 4280304174
0.046745032 0.052342698 0.36800003 4280172588
0.047940299 0.052342698 0.36800003 4280172588
0.049269084 0.05248493 0.36900002 4280369967
0.050467592 0.05248493 0.36900002 4280435760
0.051806122 0.052627165 0.37 4280304174
0.053007882 0.052627165 0.37 4280698932
0.054356162 0.052769404 0.37100002 4280435506
0.055710923 0.052911635 0.37200001 4280632624
0.056919184 0.052911635 0.37200001 4280369965
0.058439955 0.053196106 0.37400001 4280633137
0.059814211 0.053338345 0.37500003 4280830516
0.061194964 0.05348058 0.37600002 4281093688
0.062416214 0.05348058 0.37600002 4280962872
0.063806705 0.053622812 0.377 4281423425
0.065203704 0.053765051 0.37800002 4281751107
0.066607192 0.053907286 0.37900001 4282277451
0.067838185 0.053907286 0.37900001 4282738002
0.069251418 0.054049522 0.38000003 4284118885
0.070671149 0.054191757 0.38100001 4285302132
0.071908638 0.054191757 0.38100001 4285170292
-0.017416146 0.056157082 0.38600001 4285169011
-0.016162418 0.056157082 0.38600001 4285038708
-0.014908689 0.056157082 0.38600001 4284906869
0.025159221 0.041443497 0.36489576 4294967295
0.025159221 0.041443497 0.36489576 4294901760
0.025159221 0.041443497 0.36539575 4294901760
0.025159221 0.041443497 0.36589575 4294901760
0.025159221 0.041443497 0.36639577 4294901760
0.025159221 0.041443497 0.36689577 4294901760
0.025159221 0.041443497 0.36739576 4294901760
0.025159221 0.041443497 0.36789575 4294901760
0.025159221 0.041443497 0.36839578 4294901760
0.025159221 0.041443497 0.36889577 4294901760
0.025159221 0.041443497 0.36939576 4294901760
0.025159221 0.041443497 0.36989576 4294901760
0.025159221 0.041443497 0.37039575 4294901760
