# .PCD v0.7 - Point Cloud Data file format
VERSION 0.7
FIELDS x y z rgb
SIZE 4 4 4 4
TYPE F F F U
COUNT 1 1 1 1
WIDTH 1031
HEIGHT 1
VIEWPOINT 0 0 0 1 0 0 0
POINTS 1031
DATA ascii
0.11019417 -0.022048106 0.39400002 4279127330
0.11147388 -0.022048106 0.39400002 4279062048
0.11303977 -0.022104066 0.39500001 4279062048
0.11432273 -0.022104066 0.39500001 4278930462
0.12066424 -0.022327904 0.39900002 4278733083
0.12226585 -0.022383863 0.40000001 4278864923
0.12387397 -0.022439824 0.40100002 4279193634
0.12548858 -0.022495782 0.40200001 4278930462
0.12679426 -0.022495782 0.40200001 4279390502
0.12841862 -0.022551743 0.40300003 4279323937
0.12972757 -0.022551743 0.40300003 4279717668
0.13103652 -0.022551743 0.40300003 4279849254
0.13267386 -0.022607703 0.40400001 4280177451
0.13398606 -0.022607703 0.40400001 4280768305
0.077481151 -0.01992459 0.37800002 4285895042
0.078708895 -0.01992459 0.37800002 4285697663
0.079936638 -0.01992459 0.37800002 4285895042
0.081164382 -0.01992459 0.37800002 4286092421
0.082392126 -0.01992459 0.37800002 4286026630
0.083841085 -0.019977299 0.37900001 4285895044
0.085072078 -0.019977299 0.37900001 4285895044
0.086758502 -0.020082721 0.38100001 4285631872
0.088226952 -0.020135432 0.38200003 4285697149
0.089467689 -0.020135432 0.38200003 4286026628
0.090945877 -0.020188142 0.38300002 4286026880
0.092430569 -0.020240853 0.384 4283330139
0.093921751 -0.020293564 0.38500002 4280634420
0.095172234 -0.020293564 0.38500002 4280767288
0.096673153 -0.020346273 0.38600001 4279848488
0.097926885 -0.020346273 0.38600001 4279914281
0.099437565 -0.020398986 0.38700002 4279717672
0.10095473 -0.020451695 0.38800001 4279322912
0.10274184 -0.020557117 0.39000002 4279323937
0.10427526 -0.020609828 0.39100003 4279193121
0.10581516 -0.020662537 0.39200002 4279127841
0.10736155 -0.020715248 0.39300001 4279062048
0.10863802 -0.020715248 0.39300001 4279062048
0.11019417 -0.020767959 0.39400002 4278996255
0.11175681 -0.020820668 0.39500001 4278799646
0.11303977 -0.020820668 0.39500001 4278799646
0.11461216 -0.020873381 0.39600003 4278733853
0.11619103 -0.02092609 0.39700001 4279062048
0.11748049 -0.02092609 0.39700001 4279127841
0.11906912 -0.020978801 0.39800003 4279390500
0.12066424 -0.021031512 0.39900002 4279389730
0.12196019 -0.021031512 0.39900002 4279652643
0.12356506 -0.021084221 0.40000001 4279651105
0.12517643 -0.021136932 0.40100002 4278466833
0.12679426 -0.021189643 0.40200001 4278333964
0.12809996 -0.021189643 0.40200001 4280176166
0.12972757 -0.021242354 0.40300003 4279980070
0.13103652 -0.021242354 0.40300003 4279914279
0.13234547 -0.021242354 0.40300003 4280570415
0.13398606 -0.021295063 0.40400001 4281357112
0.076253399 -0.018696429 0.37800002 4285830021
0.077481151 -0.018696429 0.37800002 4285764226
0.078708895 -0.018696429 0.37800002 4285895042
0.079936638 -0.018696429 0.37800002 4285895042
0.081379101 -0.01874589 0.37900001 4285895042
0.082610093 -0.01874589 0.37900001 4285566077
0.083841085 -0.01874589 0.37900001 4285764226
0.085296549 -0.018795352 0.38000003 4286290824
0.086758502 -0.018844813 0.38100001 4284580465
0.088226952 -0.018894276 0.38200003 4281489731
0.089467689 -0.018894276 0.38200003 4280437555
0.090945877 -0.018943736 0.38300002 4280307250
0.092430569 -0.018993197 0.384 4280045100
0.093921751 -0.01904266 0.38500002 4279455012
0.095172234 -0.01904266 0.38500002 4279192353
0.096673153 -0.01909212 0.38600001 4278995742
0.098180585 -0.019141583 0.38700002 4279127328
0.099694505 -0.019191043 0.38800001 4279193121
0.10121493 -0.019240506 0.38900003 4279193634
0.10274184 -0.019289967 0.39000002 4279391013
0.10427526 -0.019339429 0.39100003 4279193888
0.10581516 -0.01938889 0.39200002 4279260451
0.10736155 -0.019438351 0.39300001 4279063072
0.10891445 -0.019487813 0.39400002 4278404888
0.11019417 -0.019487813 0.39400002 4279127841
0.11175681 -0.019537274 0.39500001 4279127841
0.11332595 -0.019586736 0.39600003 4279062048
0.11461216 -0.019586736 0.39600003 4279062048
0.11619103 -0.019636197 0.39700001 4279258914
0.11748049 -0.019636197 0.39700001 4279455010
0.11906912 -0.01968566 0.39800003 4279323164
0.12066424 -0.01973512 0.39900002 4278662927
0.12196019 -0.01973512 0.39900002 4278399246
0.12356506 -0.019784581 0.40000001 4280898096
0.12486426 -0.019784581 0.40000001 4280503338
0.12647887 -0.019834043 0.40100002 4280043299
0.12778132 -0.019834043 0.40100002 4280241961
0.12940566 -0.019883504 0.40200001 4280241959
0.13071136 -0.019883504 0.40200001 4280373545
0.13234547 -0.019932967 0.40300003 4280568618
0.073797919 -0.017468268 0.37800002 4285895042
0.075224139 -0.01751448 0.37900001 4285763458
0.076253399 -0.017468268 0.37800002 4285302907
0.077686124 -0.01751448 0.37900001 4285697663
0.078917116 -0.01751448 0.37900001 4285895042
0.080148108 -0.01751448 0.37900001 4285830019
0.081379101 -0.01751448 0.37900001 4286027398
0.082828067 -0.017560694 0.38000003 4283463006
0.084062308 -0.017560694 0.38000003 4280700727
0.085521005 -0.017606905 0.38100001 4279780393
0.086758502 -0.017606905 0.38100001 4279911979
0.088226952 -0.017653119 0.38200003 4279783213
0.089467689 -0.017653119 0.38200003 4279323176
0.090945877 -0.017699331 0.38300002 4279257894
0.092430569 -0.017745541 0.384 4279192355
0.093677796 -0.017745541 0.384 4279193121
0.095172234 -0.017791755 0.38500002 4278996255
0.096673153 -0.017837968 0.38600001 4279194404
0.098180585 -0.01788418 0.38700002 4279260197
0.099694505 -0.017930392 0.38800001 4279194404
0.10121493 -0.017976604 0.38900003 4278865439
0.10274184 -0.018022817 0.39000002 4278206481
0.10427526 -0.018069031 0.39100003 4279391013
0.10581516 -0.018115241 0.39200002 4278667031
0.10736155 -0.018161453 0.39300001 4279258398
0.10891445 -0.018207667 0.39400002 4279455012
0.11019417 -0.018207667 0.39400002 4279718184
0.11175681 -0.018253878 0.39500001 4279257633
0.11332595 -0.018300092 0.39600003 4279389219
0.11461216 -0.018300092 0.39600003 4279387935
0.11619103 -0.018346304 0.39700001 4278202380
0.11777641 -0.018392516 0.39800003 4278794517
0.11906912 -0.018392516 0.39800003 4280307756
0.12066424 -0.018438729 0.39900002 4280702260
0.12196019 -0.018438729 0.39900002 4280175403
0.12356506 -0.018484941 0.40000001 4280306473
0.12486426 -0.018484941 0.40000001 4278200586
0.12647887 -0.018531153 0.40100002 4280372264
0.12778132 -0.018531153 0.40100002 4280176166
0.12908377 -0.018531153 0.40100002 4280045350
0.13071136 -0.018577365 0.40200001 4280242731
0.061357714 -0.016197145 0.377 4285240446
0.06258221 -0.016197145 0.377 4285632894
0.063806705 -0.016197145 0.377 4285632894
0.07011468 -0.016240109 0.37800002 4285697663
0.071531162 -0.016283071 0.37900001 4285631870
0.072762154 -0.016283071 0.37900001 4285895042
0.073993146 -0.016283071 0.37900001 4285763456
0.075224139 -0.016283071 0.37900001 4285631870
0.076455131 -0.016283071 0.37900001 4286158214
0.077686124 -0.016283071 0.37900001 4285896064
0.078917116 -0.016283071 0.37900001 4282277962
0.080359586 -0.016326034 0.38000003 4279846701
0.081593826 -0.016326034 0.38000003 4279913775
0.082828067 -0.016326034 0.38000003 4279520041
0.084283523 -0.016368998 0.38100001 4279257383
0.085521005 -0.016368998 0.38100001 4278994209
0.086986214 -0.016411962 0.38200003 4279192355
0.088226952 -0.016411962 0.38200003 4278864673
0.089701891 -0.016454924 0.38300002 4278930466
0.090945877 -0.016454924 0.38300002 4278997029
0.092430569 -0.016497888 0.384 4279325992
0.093921751 -0.016540851 0.38500002 4279325990
0.095172234 -0.016540851 0.38500002 4279062818
0.096673153 -0.016583813 0.38600001 4278931486
0.098180585 -0.016626777 0.38700002 4278865693
0.099694505 -0.016669741 0.38800001 4278799646
0.10121493 -0.016712705 0.38900003 4279193634
0.10274184 -0.016755667 0.39000002 4279390500
0.10427526 -0.01679863 0.39100003 4279323937
0.10581516 -0.016841594 0.39200002 4279652389
0.10736155 -0.016884556 0.39300001 4279849254
0.10891445 -0.01692752 0.39400002 4279980072
0.11047384 -0.016970484 0.39500001 4279058459
0.11175681 -0.016970484 0.39500001 4278201610
0.11332595 -0.017013447 0.39600003 4279912485
0.11490158 -0.017056409 0.39700001 4279912485
0.11619103 -0.017056409 0.39700001 4280109864
0.11777641 -0.017099373 0.39800003 4279386141
0.11906912 -0.017099373 0.39800003 4279517727
0.12066424 -0.017142337 0.39900002 4279516703
0.12196019 -0.017142337 0.39900002 4279977254
0.12325615 -0.017142337 0.39900002 4280898356
0.12486426 -0.017185299 0.40000001 4280306219
0.12616345 -0.017185299 0.40000001 4280438829
0.12746266 -0.017185299 0.40000001 4280373547
0.12908377 -0.017228262 0.40100002 4280832565
0.13038622 -0.017228262 0.40100002 4284383338
0.057837237 -0.015011949 0.37800002 4279451164
0.059064981 -0.015011949 0.37800002 4279124765
0.061194964 -0.01493252 0.37600002 4279322408
0.062416214 -0.01493252 0.37600002 4284977020
0.063637458 -0.01493252 0.37600002 4285568130
0.064858705 -0.01493252 0.37600002 4285566847
0.066255704 -0.014972233 0.377 4285697663
0.067480199 -0.014972233 0.377 4285763456
0.068886936 -0.015011949 0.37800002 4285763456
0.07011468 -0.015011949 0.37800002 4285895042
0.071342431 -0.015011949 0.37800002 4285697663
0.072762154 -0.015051662 0.37900001 4286093191
0.073993146 -0.015051662 0.37900001 4284777844
0.075224139 -0.015051662 0.37900001 4281620804
0.076455131 -0.015051662 0.37900001 4279977006
0.077686124 -0.015051662 0.37900001 4280175664
0.079125345 -0.015091376 0.38000003 4279781930
0.080359586 -0.015091376 0.38000003 4279257383
0.081808545 -0.01513109 0.38100001 4279125795
0.083046034 -0.01513109 0.38100001 4278929183
0.084283523 -0.01513109 0.38100001 4278995746
0.085745476 -0.015170805 0.38200003 4278996259
0.086986214 -0.015170805 0.38200003 4279325224
0.088457912 -0.015210519 0.38300002 4279391017
0.089701891 -0.015210519 0.38300002 4279193636
0.090945877 -0.015210519 0.38300002 4278931234
0.092430569 -0.015250232 0.384 4278799648
0.093921751 -0.015289947 0.38500002 4279062048
0.095172234 -0.015289947 0.38500002 4279325220
0.096673153 -0.015329661 0.38600001 4279128095
0.098180585 -0.015369375 0.38700002 4279258914
0.099694505 -0.01540909 0.38800001 4279390502
0.10121493 -0.015448804 0.38900003 4279521318
0.10274184 -0.015488517 0.39000002 4279520291
0.10427526 -0.015528233 0.39100003 4279716900
0.10581516 -0.015567946 0.39200002 4278728722
0.10736155 -0.01560766 0.39300001 4278728209
0.10891445 -0.015647374 0.39400002 4280570415
0.11047384 -0.015687088 0.39500001 4280175657
0.11203974 -0.015726803 0.39600003 4280241963
0.11332595 -0.015726803 0.39600003 4279386654
0.11490158 -0.015766516 0.39700001 4278662931
0.1164837 -0.015806232 0.39800003 4279254301
0.11777641 -0.015806232 0.39800003 4279977254
0.11906912 -0.015806232 0.39800003 4279779875
0.12066424 -0.015845945 0.39900002 4280042533
0.12196019 -0.015845945 0.39900002 4280568877
0.12325615 -0.015845945 0.39900002 4279647262
0.12486426 -0.015885659 0.40000001 4280634411
0.12616345 -0.015885659 0.40000001 4280371752
0.12746266 -0.015885659 0.40000001 4281686847
0.057837237 -0.013783786 0.37800002 4279319064
0.058908723 -0.013747321 0.377 4278991896
0.060133215 -0.013747321 0.377 4278928156
0.061194964 -0.013710856 0.37600002 4279388707
0.062416214 -0.013710856 0.37600002 4279584812
0.063637458 -0.013710856 0.37600002 4282149204
0.064858705 -0.013710856 0.37600002 4286094474
0.066255704 -0.013747321 0.377 4285568130
0.067480199 -0.013747321 0.377 4285962372
0.068704695 -0.013747321 0.377 4286159751
0.07011468 -0.013783786 0.37800002 4284054375
0.071342431 -0.013783786 0.37800002 4281292352
0.072762154 -0.013820251 0.37900001 4279714600
0.073993146 -0.013820251 0.37900001 4279912746
0.075224139 -0.013820251 0.37900001 4279453476
0.076455131 -0.013820251 0.37900001 4278993695
0.077891104 -0.013856716 0.38000003 4279191840
0.079125345 -0.013856716 0.38000003 4279126047
0.080571055 -0.013893181 0.38100001 4279060767
0.081808545 -0.013893181 0.38100001 4278995744
0.083046034 -0.013893181 0.38100001 4279127330
0.084504746 -0.013929646 0.38200003 4279258916
0.085745476 -0.013929646 0.38200003 4279456808
0.087213926 -0.013966111 0.38300002 4278996257
0.088457912 -0.013966111 0.38300002 4278996257
0.089701891 -0.013966111 0.38300002 4279127843
0.091183335 -0.014002576 0.384 4278996257
0.092430569 -0.014002576 0.384 4279062050
0.093921751 -0.014039041 0.38500002 4279193123
0.095419429 -0.014075506 0.38600001 4279521316
0.096923605 -0.014111971 0.38700002 4279652902
0.098434277 -0.014148436 0.38800001 4279389219
0.099951454 -0.014184902 0.38900003 4278795800
0.10147512 -0.014221366 0.39000002 4278201355
0.10300529 -0.014257832 0.39100003 4279846692
0.10427526 -0.014257832 0.39100003 4280373036
0.10581516 -0.014294297 0.39200002 4280175657
0.10736155 -0.014330762 0.39300001 4279780899
0.10891445 -0.014367227 0.39400002 4279517727
0.11047384 -0.014403692 0.39500001 4279517473
0.11203974 -0.014440157 0.39600003 4278595603
0.11332595 -0.014440157 0.39600003 4278529296
0.11490158 -0.014476622 0.39700001 4280568877
0.1164837 -0.014513087 0.39800003 4280437291
0.11777641 -0.014513087 0.39800003 4280107813
0.11936828 -0.014549552 0.39900002 4278331402
0.12066424 -0.014549552 0.39900002 4279384092
0.12196019 -0.014549552 0.39900002 4280765743
0.12325615 -0.014549552 0.39900002 4280369704
0.12486426 -0.014586017 0.40000001 4283000654
0.12616345 -0.014586017 0.40000001 4286947468
0.12746266 -0.014586017 0.40000001 4286091648
0.057837237 -0.012555626 0.37800002 4279186195
0.058908723 -0.01252241 0.377 4278925336
0.060133215 -0.01252241 0.377 4278795800
0.061194964 -0.012489194 0.37600002 4279124765
0.062416214 -0.012489194 0.37600002 4278993695
0.063637458 -0.012489194 0.37600002 4279125283
0.064858705 -0.012489194 0.37600002 4279452711
0.066255704 -0.01252241 0.377 4279649320
0.067480199 -0.01252241 0.377 4280109358
0.068704695 -0.01252241 0.377 4279715113
0.07011468 -0.012555626 0.37800002 4279584297
0.071342431 -0.012555626 0.37800002 4279256099
0.072570167 -0.012555626 0.37800002 4279059742
0.073993146 -0.012588842 0.37900001 4278862877
0.075224139 -0.012588842 0.37900001 4278994461
0.076455131 -0.012588842 0.37900001 4278862873
0.077891104 -0.012622058 0.38000003 4279258914
0.079125345 -0.012622058 0.38000003 4279193121
0.080571055 -0.012655273 0.38100001 4279127328
0.081808545 -0.012655273 0.38100001 4278930462
0.083264008 -0.01268849 0.38200003 4278930462
0.084504746 -0.01268849 0.38200003 4279325220
0.08596994 -0.012721705 0.38300002 4278930464
0.087213926 -0.012721705 0.38300002 4279061537
0.088688865 -0.012754921 0.384 4279258146
0.0899361 -0.012754921 0.384 4279389732
0.091183335 -0.012754921 0.384 4279323426
0.092671275 -0.012788137 0.38500002 4279455012
0.094165698 -0.012821353 0.38600001 4279650594
0.095419429 -0.012821353 0.38600001 4278532115
0.096923605 -0.01285457 0.38700002 4278729240
0.098434277 -0.012887785 0.38800001 4279979307
0.099951454 -0.012921002 0.38900003 4280767794
0.10147512 -0.012954217 0.39000002 4280373036
0.10300529 -0.012987434 0.39100003 4279517727
0.10454194 -0.01302065 0.39200002 4279649313
0.10581516 -0.01302065 0.39200002 4279451164
0.10736155 -0.013053864 0.39300001 4280108840
0.10891445 -0.013087081 0.39400002 4279779875
0.11047384 -0.013120296 0.39500001 4280241196
0.11203974 -0.013153513 0.39600003 4280570161
0.11332595 -0.013153513 0.39600003 4279648291
0.11490158 -0.013186729 0.39700001 4278397710
0.1164837 -0.013219945 0.39800003 4280239914
0.11777641 -0.013219945 0.39800003 4281094710
0.11936828 -0.013253161 0.39900002 4281028147
0.12066424 -0.013253161 0.39900002 4283131986
0.12356506 -0.013286376 0.40000001 4286354566
0.12486426 -0.013286376 0.40000001 4286289027
0.12616345 -0.013286376 0.40000001 4286354820
0.056609489 -0.011327466 0.37800002 4280561938
0.057837237 -0.011327466 0.37800002 4279054094
0.058908723 -0.011297498 0.377 4279055892
0.060133215 -0.011297498 0.377 4278728211
0.061194964 -0.011267532 0.37600002 4278729494
0.062416214 -0.011267532 0.37600002 4278994463
0.063637458 -0.011267532 0.37600002 4280047151
0.064858705 -0.011267532 0.37600002 4278729753
0.066255704 -0.011297498 0.377 4278795546
0.067480199 -0.011297498 0.377 4279124765
0.068704695 -0.011297498 0.377 4279124765
0.07011468 -0.011327466 0.37800002 4278928154
0.071342431 -0.011327466 0.37800002 4278862875
0.072570167 -0.011327466 0.37800002 4278797595
0.073993146 -0.011357432 0.37900001 4278929181
0.075224139 -0.011357432 0.37900001 4279192351
0.076656863 -0.011387399 0.38000003 4278929179
0.077891104 -0.011387399 0.38000003 4278732054
0.079333566 -0.011417366 0.38100001 4279061019
0.080571055 -0.011417366 0.38100001 4278995742
0.082023263 -0.011447333 0.38200003 4279061535
0.083264008 -0.011447333 0.38200003 4279390500
0.084725954 -0.0114773 0.38300002 4279192351
0.08596994 -0.0114773 0.38300002 4279323939
0.087441631 -0.011507266 0.384 4279389219
0.088688865 -0.011507266 0.384 4279586084
0.090170309 -0.011537233 0.38500002 4279519521
0.091420792 -0.011537233 0.38500002 4278397195
0.092911974 -0.0115672 0.38600001 4278790670
0.094165698 -0.0115672 0.38600001 4279249939
0.095666632 -0.011597168 0.38700002 4279975459
0.097174056 -0.011627134 0.38800001 4279649826
0.098434277 -0.011627134 0.38800001 4278596625
0.099951454 -0.011657101 0.38900003 4279184658
0.10147512 -0.011687067 0.39000002 4279844125
0.10300529 -0.011717035 0.39100003 4279845922
0.10454194 -0.011747002 0.39200002 4279780129
0.10581516 -0.011747002 0.39200002 4280832563
0.10736155 -0.011776968 0.39300001 4280569391
0.10891445 -0.011806935 0.39400002 4278660880
0.11047384 -0.011836901 0.39500001 4279581982
0.11203974 -0.011866868 0.39600003 4281621567
0.11332595 -0.011866868 0.39600003 4280634672
0.11490158 -0.011896836 0.39700001 4280699698
0.1164837 -0.011926803 0.39800003 4282539849
0.11777641 -0.011926803 0.39800003 4285895294
0.12066424 -0.011956769 0.39900002 4286026114
0.12196019 -0.011956769 0.39900002 4286288773
0.12356506 -0.011986735 0.40000001 4286354566
0.12486426 -0.011986735 0.40000001 4286289027
0.056759246 -0.010126023 0.37900001 4280035340
0.057837237 -0.010099305 0.37800002 4279776535
0.058908723 -0.010072587 0.377 4279383574
0.060133215 -0.010072587 0.377 4278661134
0.061357714 -0.010072587 0.377 4278596625
0.062416214 -0.010045869 0.37600002 4278927386
0.063637458 -0.010045869 0.37600002 4278467605
0.065031201 -0.010072587 0.377 4279718186
0.066255704 -0.010072587 0.377 4280309809
0.067480199 -0.010072587 0.377 4279125535
0.068704695 -0.010072587 0.377 4278993947
0.06992919 -0.010072587 0.377 4278862875
0.071342431 -0.010099305 0.37800002 4278928668
0.072570167 -0.010099305 0.37800002 4279060765
0.073993146 -0.010126023 0.37900001 4278863386
0.075224139 -0.010126023 0.37900001 4278928666
0.076656863 -0.01015274 0.38000003 4279322910
0.077891104 -0.01015274 0.38000003 4279388703
0.079333566 -0.010179458 0.38100001 4279125533
0.080571055 -0.010179458 0.38100001 4279454496
0.082023263 -0.010206176 0.38200003 4279322910
0.083481967 -0.010232894 0.38300002 4279453726
0.084725954 -0.010232894 0.38300002 4279848486
0.086194396 -0.010259612 0.384 4279056152
0.087441631 -0.010259612 0.384 4278331915
0.088919833 -0.010286329 0.38500002 4278658062
0.090170309 -0.010286329 0.38500002 4279052308
0.091658242 -0.010313047 0.38600001 4279248406
0.092911974 -0.010313047 0.38600001 4280301092
0.09440966 -0.010339765 0.38700002 4278920207
0.095666632 -0.010339765 0.38700002 4280305194
0.097174056 -0.010366483 0.38800001 4279251482
0.098687984 -0.0103932 0.38900003 4279249687
0.099951454 -0.0103932 0.38900003 4279842588
0.10147512 -0.010419918 0.39000002 4280830766
0.10300529 -0.010446636 0.39100003 4280305194
0.10454194 -0.010473354 0.39200002 4278595089
0.10581516 -0.010473354 0.39200002 4280173867
0.10736155 -0.010500071 0.39300001 4281029430
0.10891445 -0.010526789 0.39400002 4280569391
0.11047384 -0.010553506 0.39500001 4280897842
0.11203974 -0.010580225 0.39600003 4282146374
0.11332595 -0.010580225 0.39600003 4285172341
0.056759246 -0.0088946121 0.37900001 4279905553
0.057837237 -0.0088711446 0.37800002 4279513877
0.059064981 -0.0088711446 0.37800002 4279383061
0.060133215 -0.0088476753 0.377 4278989845
0.061357714 -0.0088476753 0.377 4278727187
0.06258221 -0.0088476753 0.377 4279058459
0.063806705 -0.0088476753 0.377 4278993179
0.065031201 -0.0088476753 0.377 4278796570
0.066255704 -0.0088476753 0.377 4278203919
0.067480199 -0.0088476753 0.377 4278533912
0.068704695 -0.0088476753 0.377 4278533910
0.07011468 -0.0088711446 0.37800002 4278928154
0.071342431 -0.0088711446 0.37800002 4278928154
0.072570167 -0.0088711446 0.37800002 4279322912
0.073993146 -0.0088946121 0.37900001 4279059740
0.075224139 -0.0088946121 0.37900001 4279387935
0.076656863 -0.0089180814 0.38000003 4279256347
0.077891104 -0.0089180814 0.38000003 4278925586
0.079333566 -0.0089415498 0.38100001 4279320346
0.080782533 -0.0089650191 0.38200003 4279584029
0.082023263 -0.0089650191 0.38200003 4278728209
0.083481967 -0.0089884875 0.38300002 4278526476
0.084947169 -0.0090119559 0.384 4278920209
0.086194396 -0.0090119559 0.384 4279051027
0.08766935 -0.0090354243 0.38500002 4279708957
0.088919833 -0.0090354243 0.38500002 4281025587
0.090404518 -0.0090588927 0.38600001 4279249176
0.091658242 -0.0090588927 0.38600001 4280696618
0.093152687 -0.0090823621 0.38700002 4279643930
0.09440966 -0.0090823621 0.38700002 4279974946
0.095913835 -0.0091058305 0.38800001 4280371498
0.097174056 -0.0091058305 0.38800001 4280961071
0.098687984 -0.0091292998 0.38900003 4280236580
0.10020839 -0.0091527672 0.39000002 4279383322
0.10147512 -0.0091527672 0.39000002 4281094710
0.10300529 -0.0091762366 0.39100003 4280963637
0.10454194 -0.009199705 0.39200002 4281095223
0.10581516 -0.009199705 0.39200002 4280306221
0.10736155 -0.0092231734 0.39300001 4280963383
0.055674773 -0.0076834229 0.38000003 4280365075
0.056759246 -0.0076632029 0.37900001 4279841043
0.057990242 -0.0076632029 0.37900001 4279712026
0.059064981 -0.0076429839 0.37800002 4279449367
0.060292721 -0.0076429839 0.37800002 4278792720
0.061520468 -0.0076429839 0.37800002 4278727441
0.06258221 -0.007622764 0.377 4278991642
0.063806705 -0.007622764 0.377 4279123482
0.065031201 -0.007622764 0.377 4278992664
0.066431448 -0.0076429839 0.37800002 4279387935
0.067659192 -0.0076429839 0.37800002 4279124763
0.068886936 -0.0076429839 0.37800002 4279058970
0.07011468 -0.0076429839 0.37800002 4279256349
0.071342431 -0.0076429839 0.37800002 4279190556
0.072762154 -0.0076632029 0.37900001 4279519521
0.073993146 -0.0076632029 0.37900001 4279387935
0.075422622 -0.0076834229 0.38000003 4279190556
0.076656863 -0.0076834229 0.38000003 4279584801
0.078096077 -0.0077036424 0.38100001 4278990099
0.079333566 -0.0077036424 0.38100001 4279977506
0.080782533 -0.0077238623 0.38200003 4280043301
0.082023263 -0.0077238623 0.38200003 4278724109
0.083481967 -0.0077440813 0.38300002 4279116818
0.084947169 -0.0077643008 0.384 4279971614
0.086418867 -0.0077845207 0.38500002 4280366885
0.08766935 -0.0077845207 0.38500002 4279576856
0.089150794 -0.0078047398 0.38600001 4279116053
0.090404518 -0.0078047398 0.38600001 4279313945
0.091895707 -0.0078249592 0.38700002 4278920209
0.093152687 -0.0078249592 0.38700002 4278788621
0.094653606 -0.0078451792 0.38800001 4280107045
0.095913835 -0.0078451792 0.38800001 4279318297
0.097424507 -0.0078653991 0.38900003 4281160503
0.098687984 -0.0078653991 0.38900003 4280765745
0.10020839 -0.0078856181 0.39000002 4280700465
0.10147512 -0.0078856181 0.39000002 4280372014
0.10300529 -0.0079058381 0.39100003 4280962870
0.055821285 -0.006465734 0.38100001 4279708174
0.05690901 -0.0064487639 0.38000003 4279513363
0.057990242 -0.0064317929 0.37900001 4279383574
0.059221238 -0.0064317929 0.37900001 4279251988
0.060292721 -0.0064148228 0.37800002 4278923793
0.061520468 -0.0064148228 0.37800002 4279121431
0.062748216 -0.0064148228 0.37800002 4279254301
0.063975953 -0.0064148228 0.37800002 4279320094
0.065203704 -0.0064148228 0.37800002 4280110123
0.066431448 -0.0064148228 0.37800002 4279453217
0.067659192 -0.0064148228 0.37800002 4279190045
0.069069177 -0.0064317929 0.37900001 4279321631
0.070300169 -0.0064317929 0.37900001 4279453215
0.071531162 -0.0064317929 0.37900001 4279453215
0.072762154 -0.0064317929 0.37900001 4279321629
0.074188381 -0.0064487639 0.38000003 4279453215
0.075422622 -0.0064487639 0.38000003 4279256349
0.076858588 -0.006465734 0.38100001 4279386141
0.078096077 -0.006465734 0.38100001 4278331402
0.079541795 -0.0064827045 0.38200003 4280108580
0.080782533 -0.0064827045 0.38200003 4278460937
0.082237981 -0.0064996746 0.38300002 4280236067
0.083699934 -0.0065166452 0.384 4280367653
0.084947169 -0.0065166452 0.384 4279512857
0.086418867 -0.0065336158 0.38500002 4279182096
0.087897062 -0.0065505859 0.38600001 4279313686
0.089150794 -0.0065505859 0.38600001 4279511065
0.090638727 -0.0065675569 0.38700002 4279511324
0.091895707 -0.0065675569 0.38700002 4280566063
0.093152687 -0.0065675569 0.38700002 4281226044
0.094653606 -0.006584527 0.38800001 4280372014
0.095913835 -0.006584527 0.38800001 4280700977
0.097424507 -0.0066014975 0.38900003 4280700465
0.098687984 -0.0066014975 0.38900003 4281356858
0.055821285 -0.0052278261 0.38100001 4279774998
0.05705877 -0.0052278261 0.38100001 4279513625
0.058143254 -0.0052141049 0.38000003 4279185941
0.059377495 -0.0052141049 0.38000003 4279055379
0.060452227 -0.0052003837 0.37900001 4278726927
0.061683219 -0.0052003837 0.37900001 4279450650
0.062914215 -0.0052003837 0.37900001 4279254555
0.0641452 -0.0052003837 0.37900001 4279386400
0.0653762 -0.0052003837 0.37900001 4279912744
0.066607192 -0.0052003837 0.37900001 4279583779
0.067838185 -0.0052003837 0.37900001 4279584033
0.069069177 -0.0052003837 0.37900001 4279584033
0.070485659 -0.0052141049 0.38000003 4279452445
0.0717199 -0.0052141049 0.38000003 4279452445
0.072954141 -0.0052141049 0.38000003 4279452445
0.074188381 -0.0052141049 0.38000003 4279453215
0.075621098 -0.0052278261 0.38100001 4279453217
0.076858588 -0.0052278261 0.38100001 4279056152
0.078301057 -0.0052415477 0.38200003 4280173608
0.079541795 -0.0052415477 0.38200003 4280108328
0.080994003 -0.0052552689 0.38300002 4279314965
0.082237981 -0.0052552689 0.38300002 4279313684
0.083699934 -0.0052689901 0.384 4279116820
0.085168391 -0.0052827117 0.38500002 4278919441
0.086418867 -0.0052827117 0.38500002 4279841824
0.087897062 -0.0052964329 0.38600001 4281026610
0.089150794 -0.0052964329 0.38600001 4280765491
0.090638727 -0.0053101545 0.38700002 4280568625
0.091895707 -0.0053101545 0.38700002 4280634418
0.093152687 -0.0053101545 0.38700002 4280371248
0.094653606 -0.0053238757 0.38800001 4281423423
0.095913835 -0.0053238757 0.38800001 4284975477
0.0559678 -0.0040003904 0.38200003 4279513109
0.05705877 -0.0039899182 0.38100001 4279317016
0.058296259 -0.0039899182 0.38100001 4279251734
0.059533749 -0.0039899182 0.38100001 4278922769
0.060611732 -0.0039794459 0.38000003 4279055638
0.061845973 -0.0039794459 0.38000003 4279385371
0.063080214 -0.0039794459 0.38000003 4279254555
0.064314455 -0.0039794459 0.38000003 4279517473
0.065548696 -0.0039794459 0.38000003 4279649572
0.066782936 -0.0039794459 0.38000003 4279584033
0.06819617 -0.0039899182 0.38100001 4279255068
0.069433659 -0.0039899182 0.38100001 4279584033
0.070671149 -0.0039899182 0.38100001 4279584033
0.071908638 -0.0039899182 0.38100001 4279584031
0.07314612 -0.0039899182 0.38100001 4279452445
0.074383609 -0.0039899182 0.38100001 4279649824
0.075819589 -0.0040003904 0.38200003 4279715617
0.077060319 -0.0040003904 0.38200003 4278198790
0.078301057 -0.0040003904 0.38200003 4279779363
0.079750016 -0.0040108627 0.38300002 4279516191
0.080994003 -0.0040108627 0.38300002 4278788621
0.082237981 -0.0040108627 0.38300002 4280631340
0.083699934 -0.0040213349 0.384 4280567344
0.085168391 -0.0040318072 0.38500002 4280436526
0.086418867 -0.0040318072 0.38500002 4280766518
0.087897062 -0.0040422794 0.38600001 4280305967
0.089150794 -0.0040422794 0.38600001 4280502319
0.054870322 -0.0027664567 0.38300002 4279709723
0.056114309 -0.0027664567 0.38300002 4278856211
0.057208531 -0.0027592336 0.38200003 4279317529
0.058449272 -0.0027592336 0.38200003 4279120920
0.05969001 -0.0027592336 0.38200003 4278857748
0.060771234 -0.0027520105 0.38100001 4279121945
0.062008724 -0.0027520105 0.38100001 4279056922
0.063246213 -0.0027520105 0.38100001 4279255068
0.06465295 -0.0027592336 0.38200003 4280110377
0.065893687 -0.0027592336 0.38200003 4279452447
0.067134425 -0.0027592336 0.38200003 4279320607
0.06837517 -0.0027592336 0.38200003 4279452447
0.069615901 -0.0027592336 0.38200003 4279584033
0.070856638 -0.0027592336 0.38200003 4279584033
0.072097376 -0.0027592336 0.38200003 4279649826
0.073338106 -0.0027592336 0.38200003 4279715619
0.074578844 -0.0027592336 0.38200003 4279715619
0.075819589 -0.0027592336 0.38200003 4279647775
0.077262044 -0.0027664567 0.38300002 4279975975
0.07850603 -0.0027664567 0.38300002 4280174119
0.079750016 -0.0027664567 0.38300002 4280239912
0.080994003 -0.0027664567 0.38300002 4280306219
0.0824527 -0.0027736798 0.384 4280372014
0.083699934 -0.0027736798 0.384 4280831797
0.055013586 -0.0015260245 0.384 4279579166
0.05626082 -0.0015260245 0.384 4279513625
0.057358291 -0.0015220506 0.38300002 4279318299
0.058602277 -0.0015220506 0.38300002 4279450398
0.059846263 -0.0015220506 0.38300002 4279121433
0.061090246 -0.0015220506 0.38300002 4278924566
0.062334232 -0.0015220506 0.38300002 4279188508
0.063578218 -0.0015220506 0.38300002 4279781412
0.064822197 -0.0015220506 0.38300002 4279715619
0.066066183 -0.0015220506 0.38300002 4279452447
0.067310169 -0.0015220506 0.38300002 4279386654
0.068554156 -0.0015220506 0.38300002 4279386654
0.069798134 -0.0015220506 0.38300002 4279452447
0.07104212 -0.0015220506 0.38300002 4279584033
0.072286114 -0.0015220506 0.38300002 4279715619
0.073530093 -0.0015220506 0.38300002 4279781412
0.074774079 -0.0015220506 0.38300002 4279715619
0.076018065 -0.0015220506 0.38300002 4279318810
0.077262044 -0.0015220506 0.38300002 4280173606
0.07850603 -0.0015220506 0.38300002 4280897329
0.079958238 -0.0015260245 0.384 4279844895
0.056407336 -0.0002790943 0.38500002 4279514143
0.057508048 -0.00027836935 0.384 4279514908
0.058755282 -0.00027836935 0.384 4279187226
0.060002517 -0.00027836935 0.384 4279056154
0.061249748 -0.00027836935 0.384 4279056922
0.062496983 -0.00027836935 0.384 4279189021
0.063744217 -0.00027836935 0.384 4279715365
0.064991444 -0.00027836935 0.384 4279715619
0.066238679 -0.00027836935 0.384 4279452447
0.067310169 -0.00027764443 0.38300002 4279584033
0.068554156 -0.00027764443 0.38300002 4279584033
0.069798134 -0.00027764443 0.38300002 4279781412
0.07104212 -0.00027764443 0.38300002 4279715106
0.072286114 -0.00027764443 0.38300002 4279912485
0.073530093 -0.00027764443 0.38300002 4280241450
0.074774079 -0.00027764443 0.38300002 4280043301
0.076018065 -0.00027764443 0.38300002 4280107561
0.057657812 0.00097181014 0.38500002 4281027897
0.058908295 0.00097181014 0.38500002 4278989847
0.060002517 0.0009692859 0.384 4279516705
0.061249748 0.0009692859 0.384 4279320094
0.062496983 0.0009692859 0.384 4279189021
0.063744217 0.0009692859 0.384 4279912744
0.064991444 0.0009692859 0.384 4279320607
0.066238679 0.0009692859 0.384 4279649572
0.067485914 0.0009692859 0.384 4279649572
0.068733148 0.0009692859 0.384 4279846438
0.069980375 0.0009692859 0.384 4280109610
0.07122761 0.0009692859 0.384 4280568879
0.072286114 0.00096676173 0.38300002 4281161016
0.073530093 0.00096676173 0.38300002 4284120166
0.074774079 0.00096676173 0.38300002 4286159747
0.060158778 0.0022227145 0.38500002 4279646242
0.061409254 0.0022227145 0.38500002 4279187226
0.062659733 0.0022227145 0.38500002 4279977256
0.063910216 0.0022227145 0.38500002 4280241198
0.065160699 0.0022227145 0.38500002 4279912233
0.066411175 0.0022227145 0.38500002 4279649061
0.067485914 0.002216941 0.384 4279911463
0.088836923 -0.012206109 0.38618073 4294967295
0.088836923 -0.012206109 0.38618073 4294901760
0.088753954 -0.01269583 0.38612339 4294901760
0.088670984 -0.013185551 0.38606602 4294901760
0.088588014 -0.013675272 0.38600868 4294901760
0.088505045 -0.014164994 0.38595131 4294901760
0.088422075 -0.014654715 0.38589397 4294901760
0.088339105 -0.015144436 0.3858366 4294901760
0.088256136 -0.015634157 0.38577926 4294901760
0.088173166 -0.016123878 0.38572192 4294901760
0.088090196 -0.016613599 0.38566455 4294901760
0.088007227 -0.017103322 0.38560721 4294901760
0.087924257 -0.017593041 0.38554984 4294901760
0.087841287 -0.018082764 0.3854925 4294901760
0.087758318 -0.018572483 0.38543516 4294901760
0.087675348 -0.019062206 0.38537779 4294901760
0.087592378 -0.019551927 0.38532045 4294901760
0.087509409 -0.020041648 0.38526309 4294901760
0.087426446 -0.020531368 0.38520575 4294901760
0.087343477 -0.02102109 0.38514838 4294901760
0.087260507 -0.02151081 0.38509104 4294901760
0.087177537 -0.022000533 0.3850337 4294901760
0.087094568 -0.022490252 0.38497633 4294901760
0.087011598 -0.022979975 0.38491899 4294901760
0.086928628 -0.023469696 0.38486162 4294901760
0.086845659 -0.023959417 0.38480428 4294901760
0.086762689 -0.024449138 0.38474691 4294901760
0.086679719 -0.024938859 0.38468957 4294901760
0.08659675 -0.025428582 0.38463223 4294901760
0.08651378 -0.025918301 0.38457486 4294901760
0.08643081 -0.026408022 0.38451752 4294901760
0.086347841 -0.026897743 0.38446015 4294901760
0.086264871 -0.027387466 0.38440281 4294901760
0.086181901 -0.027877185 0.38434547 4294901760
0.086098932 -0.028366908 0.3842881 4294901760
0.086015962 -0.028856628 0.38423076 4294901760
0.085932992 -0.029346349 0.38417339 4294901760
0.085850023 -0.029836072 0.38411605 4294901760
0.085767053 -0.030325793 0.38405868 4294901760
0.085684083 -0.030815512 0.38400134 4294901760
0.085601114 -0.031305231 0.383944 4294901760
0.085518144 -0.031794958 0.38388664 4294901760
0.085435174 -0.032284677 0.3838293 4294901760
0.085352205 -0.032774396 0.38377193 4294901760
0.085269235 -0.033264119 0.38371459 4294901760
0.085186265 -0.033753842 0.38365725 4294901760
0.085103296 -0.034243561 0.38359988 4294901760
0.085020326 -0.034733281 0.38354254 4294901760
0.084937356 -0.035223003 0.38348517 4294901760
0.084854387 -0.035712726 0.38342783 4294901760
0.084771417 -0.036202446 0.38337046 4294901760
0.084688455 -0.036692165 0.38331312 4294901760
0.084605485 -0.037181888 0.38325578 4294901760
0.084522516 -0.037671611 0.38319841 4294901760
0.084439546 -0.03816133 0.38314107 4294901760
0.084356576 -0.038651053 0.3830837 4294901760
0.084273607 -0.039140776 0.38302636 4294901760
0.084190637 -0.039630495 0.38296899 4294901760
0.084107667 -0.040120214 0.38291165 4294901760
0.084024698 -0.040609933 0.38285431 4294901760
0.083941728 -0.041099656 0.38279694 4294901760
0.083858758 -0.041589379 0.3827396 4294901760
0.083775789 -0.042079099 0.38268223 4294901760
0.083692819 -0.042568821 0.38262489 4294901760
0.083609849 -0.043058541 0.38256755 4294901760
0.08352688 -0.043548264 0.38251019 4294901760
0.08344391 -0.044037983 0.38245285 4294901760
0.08336094 -0.044527709 0.38239548 4294901760
0.083277971 -0.045017429 0.38233814 4294901760
0.083195001 -0.045507148 0.38228077 4294901760
0.083112031 -0.045996867 0.38222343 4294901760
0.083029062 -0.046486586 0.38216609 4294901760
0.082946092 -0.046976313 0.38210872 4294901760
0.082863122 -0.047466032 0.38205138 4294901760
0.082780153 -0.047955751 0.38199401 4294901760
0.082697183 -0.048445478 0.38193667 4294901760
0.082614213 -0.048935197 0.38187933 4294901760
0.082531244 -0.049424917 0.38182196 4294901760
0.082448274 -0.049914636 0.38176462 4294901760
0.082365304 -0.050404355 0.38170725 4294901760
0.082282335 -0.050894082 0.38164991 4294901760
0.082199365 -0.051383801 0.38159254 4294901760
0.082116395 -0.05187352 0.3815352 4294901760
0.082033426 -0.052363247 0.38147786 4294901760
0.081950456 -0.052852966 0.38142049 4294901760
0.081867494 -0.053342685 0.38136315 4294901760
0.081784517 -0.053832412 0.38130578 4294901760
0.081701554 -0.054322131 0.38124844 4294901760
0.081618585 -0.05481185 0.38119107 4294901760
0.081535615 -0.055301569 0.38113374 4294901760
0.081452645 -0.055791289 0.3810764 4294901760
0.081369676 -0.056281008 0.38101903 4294901760
0.081286706 -0.056770734 0.38096169 4294901760
0.081203736 -0.057260454 0.38090432 4294901760
0.081120767 -0.057750173 0.38084698 4294901760
0.081037797 -0.0582399 0.38078964 4294901760
0.080954827 -0.058729619 0.38073227 4294901760
0.080871858 -0.059219338 0.38067493 4294901760
0.080788888 -0.059709065 0.38061756 4294901760
0.080705918 -0.060198784 0.38056022 4294901760
0.080622949 -0.060688503 0.38050285 4294901760
0.080539979 -0.061178222 0.38044551 4294901760
0.088836923 -0.012206109 0.38618073 4278255360
0.08930108 -0.012303306 0.38633919 4278255360
0.089765243 -0.012400501 0.38649765 4278255360
0.0902294 -0.012497698 0.38665611 4278255360
0.090693556 -0.012594894 0.38681456 4278255360
0.091157719 -0.01269209 0.38697302 4278255360
0.091621876 -0.012789286 0.38713148 4278255360
0.092086032 -0.012886482 0.38728994 4278255360
0.092550196 -0.012983679 0.3874484 4278255360
0.093014352 -0.013080874 0.38760686 4278255360
0.093478508 -0.013178071 0.38776535 4278255360
0.093942672 -0.013275267 0.38792381 4278255360
0.094406828 -0.013372463 0.38808227 4278255360
0.094870985 -0.013469659 0.38824072 4278255360
0.095335141 -0.013566855 0.38839918 4278255360
0.095799305 -0.013664052 0.38855764 4278255360
0.096263461 -0.013761248 0.3887161 4278255360
0.096727625 -0.013858444 0.38887456 4278255360
0.097191781 -0.01395564 0.38903302 4278255360
0.097655937 -0.014052836 0.38919148 4278255360
0.098120093 -0.014150033 0.38934994 4278255360
0.098584257 -0.014247228 0.3895084 4278255360
0.099048413 -0.014344425 0.38966686 4278255360
0.09951257 -0.014441621 0.38982531 4278255360
0.099976733 -0.014538817 0.38998377 4278255360
0.10044089 -0.014636014 0.39014223 4278255360
0.10090505 -0.014733209 0.39030069 4278255360
0.10136921 -0.014830406 0.39045915 4278255360
0.10183337 -0.014927601 0.39061761 4278255360
0.10229752 -0.015024798 0.39077607 4278255360
0.10276169 -0.015121995 0.39093453 4278255360
0.10322584 -0.01521919 0.39109302 4278255360
0.10369 -0.015316386 0.39125147 4278255360
0.10415416 -0.015413582 0.39140993 4278255360
0.10461832 -0.015510779 0.39156839 4278255360
0.10508247 -0.015607974 0.39172685 4278255360
0.10554664 -0.015705172 0.39188531 4278255360
0.10601079 -0.015802367 0.39204377 4278255360
0.10647495 -0.015899563 0.39220223 4278255360
0.10693911 -0.01599676 0.39236069 4278255360
0.10740327 -0.016093956 0.39251915 4278255360
0.10786743 -0.016191151 0.39267761 4278255360
0.10833158 -0.016288348 0.39283606 4278255360
0.10879575 -0.016385544 0.39299452 4278255360
0.1092599 -0.016482741 0.39315298 4278255360
0.10972406 -0.016579937 0.39331144 4278255360
0.11018822 -0.016677134 0.3934699 4278255360
0.11065238 -0.016774328 0.39362836 4278255360
0.11111654 -0.016871525 0.39378682 4278255360
0.1115807 -0.016968722 0.39394528 4278255360
0.11204486 -0.017065916 0.39410377 4278255360
0.11250901 -0.017163113 0.39426222 4278255360
0.11297317 -0.017260309 0.39442068 4278255360
0.11343733 -0.017357506 0.39457914 4278255360
0.1139015 -0.017454702 0.3947376 4278255360
0.11436565 -0.017551899 0.39489606 4278255360
0.11482981 -0.017649094 0.39505452 4278255360
0.11529396 -0.01774629 0.39521298 4278255360
0.11575812 -0.017843487 0.39537144 4278255360
0.11622228 -0.017940681 0.3955299 4278255360
0.11668644 -0.018037878 0.39568835 4278255360
0.1171506 -0.018135075 0.39584681 4278255360
0.11761476 -0.018232271 0.39600527 4278255360
0.11807892 -0.018329468 0.39616373 4278255360
0.11854307 -0.018426664 0.39632219 4278255360
0.11900724 -0.018523859 0.39648065 4278255360
0.11947139 -0.018621055 0.39663911 4278255360
0.11993556 -0.018718252 0.39679757 4278255360
0.12039971 -0.018815449 0.39695603 4278255360
0.12086387 -0.018912643 0.39711449 4278255360
0.12132803 -0.01900984 0.39727294 4278255360
0.12179218 -0.019107036 0.39743143 4278255360
0.12225635 -0.019204233 0.39758989 4278255360
0.12272051 -0.019301429 0.39774835 4278255360
0.12318467 -0.019398626 0.39790681 4278255360
0.12364882 -0.019495821 0.39806527 4278255360
0.12411298 -0.019593017 0.39822373 4278255360
0.12457713 -0.019690214 0.39838219 4278255360
0.12504131 -0.019787408 0.39854065 4278255360
0.12550546 -0.019884605 0.3986991 4278255360
0.12596962 -0.019981802 0.39885756 4278255360
0.12643377 -0.020078998 0.39901602 4278255360
0.12689793 -0.020176195 0.39917448 4278255360
0.12736209 -0.020273391 0.39933294 4278255360
0.12782624 -0.020370586 0.3994914 4278255360
0.12829041 -0.020467784 0.39964986 4278255360
0.12875457 -0.020564979 0.39980832 4278255360
0.12921873 -0.020662175 0.39996678 4278255360
0.12968288 -0.02075937 0.40012524 4278255360
0.13014704 -0.020856567 0.40028369 4278255360
0.1306112 -0.020953763 0.40044218 4278255360
0.13107537 -0.02105096 0.40060064 4278255360
0.13153952 -0.021148156 0.4007591 4278255360
0.13200368 -0.021245353 0.40091756 4278255360
0.13246784 -0.021342548 0.40107602 4278255360
0.13293199 -0.021439744 0.40123448 4278255360
0.13339615 -0.021536939 0.40139294 4278255360
0.13386032 -0.021634137 0.4015514 4278255360
0.13432448 -0.021731332 0.40170985 4278255360
0.13478863 -0.021828528 0.40186831 4278255360
0.13525279 -0.021925725 0.40202677 4278255360
0.088836923 -0.012206109 0.38618073 4278190335
0.088643573 -0.012227294 0.38664135 4278190335
0.088450216 -0.01224848 0.38710195 4278190335
0.088256866 -0.012269665 0.38756257 4278190335
0.088063516 -0.01229085 0.3880232 4278190335
0.087870158 -0.012312035 0.38848379 4278190335
0.087676808 -0.012333221 0.38894442 4278190335
0.087483451 -0.012354406 0.38940504 4278190335
0.087290101 -0.012375591 0.38986564 4278190335
0.087096751 -0.012396776 0.39032626 4278190335
0.086903393 -0.012417961 0.39078689 4278190335
0.086710043 -0.012439147 0.39124748 4278190335
0.086516693 -0.012460331 0.39170811 4278190335
0.086323336 -0.012481517 0.39216873 4278190335
0.086129986 -0.012502702 0.39262933 4278190335
0.085936636 -0.012523888 0.39308995 4278190335
0.085743278 -0.012545072 0.39355057 4278190335
0.085549928 -0.012566258 0.39401117 4278190335
0.085356578 -0.012587443 0.39447179 4278190335
0.085163221 -0.012608629 0.39493242 4278190335
0.084969871 -0.012629814 0.39539301 4278190335
0.084776513 -0.012650998 0.39585364 4278190335
0.084583163 -0.012672184 0.39631426 4278190335
0.084389813 -0.012693369 0.39677486 4278190335
0.084196456 -0.012714555 0.39723548 4278190335
0.084003106 -0.012735739 0.39769611 4278190335
0.083809756 -0.012756925 0.3981567 4278190335
0.083616398 -0.01277811 0.39861733 4278190335
0.083423048 -0.012799296 0.39907795 4278190335
0.083229698 -0.01282048 0.39953855 4278190335
0.083036341 -0.012841666 0.39999917 4278190335
0.082842991 -0.012862851 0.4004598 4278190335
0.082649633 -0.012884036 0.40092039 4278190335
0.082456283 -0.012905221 0.40138102 4278190335
0.082262933 -0.012926406 0.40184164 4278190335
0.082069576 -0.012947592 0.40230224 4278190335
0.081876226 -0.012968777 0.40276286 4278190335
0.081682876 -0.012989962 0.40322348 4278190335
0.081489518 -0.013011147 0.40368408 4278190335
0.081296168 -0.013032332 0.4041447 4278190335
0.081102818 -0.013053518 0.40460533 4278190335
0.080909461 -0.013074703 0.40506592 4278190335
0.080716111 -0.013095888 0.40552655 4278190335
0.080522761 -0.013117073 0.40598717 4278190335
0.080329403 -0.013138259 0.40644777 4278190335
0.080136053 -0.013159444 0.40690839 4278190335
0.079942696 -0.013180629 0.40736902 4278190335
0.079749346 -0.013201814 0.40782964 4278190335
0.079555996 -0.013223 0.40829024 4278190335
0.079362638 -0.013244185 0.40875086 4278190335
0.079169288 -0.013265369 0.40921146 4278190335
0.078975938 -0.013286555 0.40967208 4278190335
0.078782581 -0.01330774 0.41013271 4278190335
0.078589231 -0.013328926 0.4105933 4278190335
0.078395873 -0.013350111 0.41105393 4278190335
0.078202523 -0.013371296 0.41151455 4278190335
0.078009173 -0.013392481 0.41197515 4278190335
0.077815816 -0.013413667 0.41243577 4278190335
0.077622466 -0.013434852 0.41289639 4278190335
0.077429116 -0.013456037 0.41335702 4278190335
0.077235758 -0.013477222 0.41381761 4278190335
0.077042408 -0.013498407 0.41427824 4278190335
0.076849058 -0.013519593 0.41473886 4278190335
0.076655701 -0.013540777 0.41519946 4278190335
0.076462351 -0.013561963 0.41566008 4278190335
0.076269001 -0.013583148 0.41612071 4278190335
0.076075643 -0.013604334 0.4165813 4278190335
0.075882293 -0.013625518 0.41704193 4278190335
0.075688943 -0.013646704 0.41750255 4278190335
0.075495586 -0.013667889 0.41796315 4278190335
0.075302236 -0.013689075 0.41842377 4278190335
0.075108886 -0.013710259 0.4188844 4278190335
0.074915528 -0.013731444 0.41934499 4278190335
0.074722178 -0.01375263 0.41980562 4278190335
0.074528821 -0.013773815 0.42026624 4278190335
0.074335471 -0.013795001 0.42072684 4278190335
0.074142121 -0.013816185 0.42118746 4278190335
0.073948763 -0.013837371 0.42164809 4278190335
0.073755413 -0.013858556 0.42210868 4278190335
0.073562056 -0.013879742 0.4225693 4278190335
0.073368706 -0.013900926 0.42302993 4278190335
0.073175356 -0.013922112 0.42349052 4278190335
0.072981998 -0.013943297 0.42395115 4278190335
0.072788648 -0.013964482 0.42441177 4278190335
0.072595298 -0.013985667 0.42487237 4278190335
0.072401941 -0.014006852 0.42533299 4278190335
0.072208591 -0.014028038 0.42579362 4278190335
0.072015241 -0.014049223 0.42625421 4278190335
0.071821883 -0.014070408 0.42671484 4278190335
0.071628533 -0.014091593 0.42717546 4278190335
0.071435183 -0.014112778 0.42763606 4278190335
0.071241826 -0.014133964 0.42809668 4278190335
0.071048476 -0.014155149 0.42855731 4278190335
0.070855126 -0.014176334 0.4290179 4278190335
0.070661768 -0.014197519 0.42947853 4278190335
0.070468418 -0.014218705 0.42993915 4278190335
0.070275068 -0.01423989 0.43039975 4278190335
0.070081711 -0.014261075 0.43086037 4278190335
0.069888361 -0.01428226 0.431321 4278190335
0.069695003 -0.014303446 0.43178159 4278190335
0.069501653 -0.014324631 0.43224221 4278190335
0.088836923 -0.012206109 0.38618073 4294967295
0.089997038 -0.012078998 0.38341704 4294967295
0.091157153 -0.011951887 0.38065335 4294967295
0.092317268 -0.011824775 0.37788966 4294967295
0.093477391 -0.011697664 0.37512597 4294967295
0.094637506 -0.011570552 0.37236229 4294967295
0.095797621 -0.011443442 0.3695986 4294967295
0.096957736 -0.01131633 0.36683491 4294967295
0.098117851 -0.011189219 0.36407122 4294967295
0.099277966 -0.011062108 0.36130753 4294967295
0.10043808 -0.010934996 0.35854384 4294967295
0.1015982 -0.010807885 0.35578015 4294967295
0.10275832 -0.010680774 0.35301647 4294967295
0.10391843 -0.010553663 0.35025278 4294967295
0.10507855 -0.010426551 0.34748909 4294967295
0.10623866 -0.01029944 0.3447254 4294967295
0.10739878 -0.010172329 0.34196171 4294967295
0.10855889 -0.010045217 0.33919802 4294967295
0.10971902 -0.0099181058 0.33643433 4294967295
0.11087912 -0.0097909942 0.33367065 4294967295
0.11203925 -0.0096638836 0.33090696 4294967295
0.11319936 -0.009536772 0.32814327 4294967295
0.11435948 -0.0094096605 0.32537958 4294967295
0.11551959 -0.0092825498 0.32261589 4294967295
0.11667971 -0.0091554383 0.3198522 4294967295
0.11783983 -0.0090283267 0.31708851 4294967295
0.11899994 -0.0089012161 0.31432483 4294967295
0.12016006 -0.0087741045 0.31156114 4294967295
0.12132017 -0.008646993 0.30879745 4294967295
0.12248029 -0.0085198823 0.30603376 4294967295
0.1236404 -0.0083927698 0.30327007 4294967295
0.12480052 -0.0082656592 0.30050638 4294967295
0.12596063 -0.0081385486 0.29774269 4294967295
0.12712076 -0.0080114361 0.29497901 4294967295
0.12828088 -0.0078843255 0.29221532 4294967295
0.12944099 -0.0077572139 0.28945163 4294967295
0.13060111 -0.0076301023 0.28668794 4294967295
0.13176122 -0.0075029912 0.28392425 4294967295
0.13292134 -0.0073758801 0.28116056 4294967295
0.13408145 -0.007248769 0.27839687 4294967295
0.13524157 -0.0071216575 0.27563319 4294967295
0.13640168 -0.0069945464 0.2728695 4294967295
0.1375618 -0.0068674353 0.27010581 4294967295
0.13872191 -0.0067403237 0.26734212 4294967295
0.13988203 -0.0066132126 0.26457843 4294967295
0.14104214 -0.0064861011 0.26181474 4294967295
