# .PCD v0.7 - Point Cloud Data file format
VERSION 0.7
FIELDS x y z rgb
SIZE 4 4 4 4
TYPE F F F U
COUNT 1 1 1 1
WIDTH 1088
HEIGHT 1
VIEWPOINT 0 0 0 1 0 0 0
POINTS 1088
DATA ascii
0.11738671 0.072356619 0.30600002 4286350453
0.1183806 0.072356619 0.30600002 4287067246
0.11937448 0.072356619 0.30600002 4282786078
0.12036838 0.072356619 0.30600002 4282454797
0.12175887 0.072593078 0.30700001 4282388490
0.12235615 0.072356619 0.30600002 4282520074
0.12335004 0.072356619 0.30600002 4282981139
0.12434392 0.072356619 0.30600002 4282651401
0.12533781 0.072356619 0.30600002 4283373069
0.1263317 0.072356619 0.30600002 4284487695
0.12732559 0.072356619 0.30600002 4285275158
0.12831949 0.072356619 0.30600002 4285142545
0.12931336 0.072356619 0.30600002 4284945166
0.13073309 0.072593078 0.30700001 4285208336
0.13173023 0.072593078 0.30700001 4285404945
0.13272737 0.072593078 0.30700001 4285932059
0.13372451 0.072593078 0.30700001 4285471765
0.08981774 0.071193472 0.29700002 4284099099
0.094003707 0.070714049 0.29500002 4285345832
0.094961874 0.070714049 0.29500002 4285077781
0.095920034 0.070714049 0.29500002 4283896587
0.098794512 0.070714049 0.29500002 4279963907
0.099752672 0.070714049 0.29500002 4280029700
0.10979322 0.073590554 0.30700001 4289818727
0.11079036 0.073590554 0.30700001 4284947996
0.1117875 0.073590554 0.30700001 4284357656
0.11415241 0.073830262 0.30800003 4286414960
0.11515279 0.073830262 0.30800003 4286349683
0.11615318 0.073830262 0.30800003 4286481269
0.11677318 0.073590554 0.30700001 4286676342
0.11777031 0.073590554 0.30700001 4282856498
0.11876746 0.073590554 0.30700001 4283246379
0.1197646 0.073590554 0.30700001 4281995795
0.12076173 0.073590554 0.30700001 4282258190
0.12175887 0.073590554 0.30700001 4282126604
0.122756 0.073590554 0.30700001 4282126600
0.12375314 0.073590554 0.30700001 4282258186
0.12475027 0.073590554 0.30700001 4282323979
0.12533781 0.073350847 0.30600002 4282125830
0.1263317 0.073350847 0.30600002 4283569421
0.12732559 0.073350847 0.30600002 4284553747
0.12831949 0.073350847 0.30600002 4284421132
0.12931336 0.073350847 0.30600002 4284683791
0.13073309 0.073590554 0.30700001 4284617996
0.13173023 0.073590554 0.30700001 4284748812
0.13272737 0.073590554 0.30700001 4285209363
0.088184342 0.072401412 0.29800001 4282918164
0.088853084 0.072158456 0.29700002 4284229661
0.08981774 0.072158456 0.29700002 4285342486
0.090782404 0.072158456 0.29700002 4285406226
0.091438144 0.071915492 0.296 4285602578
0.092399552 0.071915492 0.296 4287246890
0.093360953 0.071915492 0.296 4285801502
0.094003707 0.071672536 0.29500002 4285734684
0.094961874 0.071672536 0.29500002 4284880918
0.095920034 0.071672536 0.29500002 4282517508
0.098794512 0.071672536 0.29500002 4279766530
0.099752672 0.071672536 0.29500002 4280094725
0.10071083 0.071672536 0.29500002 4282588949
0.101669 0.071672536 0.29500002 4284032030
0.10262716 0.071672536 0.29500002 4284752414
0.11015086 0.074830994 0.30800003 4285211945
0.11115125 0.074830994 0.30800003 4284891452
0.11215164 0.074830994 0.30800003 4286609516
0.11315202 0.074830994 0.30800003 4286480499
0.11415241 0.074830994 0.30800003 4286481269
0.11515279 0.074830994 0.30800003 4287333498
0.11615318 0.074830994 0.30800003 4282921778
0.11715356 0.074830994 0.30800003 4283310887
0.11777031 0.074588031 0.30700001 4282981922
0.11876746 0.074588031 0.30700001 4282390037
0.1197646 0.074588031 0.30700001 4281994764
0.12076173 0.074588031 0.30700001 4282126604
0.12175887 0.074588031 0.30700001 4282192397
0.122756 0.074588031 0.30700001 4281995014
0.12375314 0.074588031 0.30700001 4282126600
0.12475027 0.074588031 0.30700001 4282192906
0.12574741 0.074588031 0.30700001 4281995014
0.12674455 0.074588031 0.30700001 4282321412
0.12774169 0.074588031 0.30700001 4283176460
0.12873882 0.074588031 0.30700001 4284029456
0.12973596 0.074588031 0.30700001 4283831564
0.13073309 0.074588031 0.30700001 4284357138
0.13173023 0.074588031 0.30700001 4284357138
0.13272737 0.074588031 0.30700001 4284553747
0.088184342 0.073369637 0.29800001 4284555798
0.088853084 0.073123433 0.29700002 4284882451
0.08981774 0.073123433 0.29700002 4285471508
0.090476729 0.072877221 0.296 4285470479
0.091438144 0.072877221 0.296 4285798674
0.092399552 0.072877221 0.296 4285798674
0.093045548 0.072631024 0.29500002 4286061076
0.094003707 0.072631024 0.29500002 4285864467
0.094961874 0.072631024 0.29500002 4285144855
0.095920034 0.072631024 0.29500002 4282188800
0.096878193 0.072631024 0.29500002 4280027136
0.09783636 0.072631024 0.29500002 4279830786
0.098794512 0.072631024 0.29500002 4279831040
0.099752672 0.072631024 0.29500002 4281539343
0.10071083 0.072631024 0.29500002 4283506710
0.101669 0.072631024 0.29500002 4284226583
0.10262716 0.072631024 0.29500002 4285013271
0.10950486 0.076077916 0.30900002 4285539361
0.11015086 0.075831711 0.30800003 4286203971
0.11115125 0.075831711 0.30800003 4286480501
0.11215164 0.075831711 0.30800003 4286612087
0.11315202 0.075831711 0.30800003 4287071609
0.11415241 0.075831711 0.30800003 4283250739
0.11515279 0.075831711 0.30800003 4283639337
0.11615318 0.075831711 0.30800003 4283506467
0.11715356 0.075831711 0.30800003 4283243034
0.11815394 0.075831711 0.30800003 4283045655
0.11915433 0.075831711 0.30800003 4283109647
0.12015472 0.075831711 0.30800003 4283174924
0.1211551 0.075831711 0.30800003 4283043852
0.12215549 0.075831711 0.30800003 4282978059
0.12315586 0.075831711 0.30800003 4282586381
0.12375314 0.075585499 0.30700001 4281995014
0.12475027 0.075585499 0.30700001 4282061320
0.12574741 0.075585499 0.30700001 4281863941
0.12674455 0.075585499 0.30700001 4282060037
0.12774169 0.075585499 0.30700001 4282388488
0.12873882 0.075585499 0.30700001 4283176973
0.12973596 0.075585499 0.30700001 4283505938
0.13073309 0.075585499 0.30700001 4283504655
0.13173023 0.075585499 0.30700001 4283965206
0.13272737 0.075585499 0.30700001 4282719504
0.087216437 0.07433787 0.29800001 4283377173
0.087888427 0.074088417 0.29700002 4284882451
0.088853084 0.074088417 0.29700002 4285077777
0.08981774 0.074088417 0.29700002 4285273359
0.090476729 0.073838957 0.296 4285404686
0.091438144 0.073838957 0.296 4285732881
0.092399552 0.073838957 0.296 4285798674
0.093045548 0.073589511 0.29500002 4285798672
0.094003707 0.073589511 0.29500002 4285601293
0.094961874 0.073589511 0.29500002 4285734164
0.095920034 0.073589511 0.29500002 4285407512
0.096878193 0.073589511 0.29500002 4281470468
0.09783636 0.073589511 0.29500002 4280486403
0.098794512 0.073589511 0.29500002 4281144072
0.099752672 0.073589511 0.29500002 4282983705
0.10071083 0.073589511 0.29500002 4284030226
0.101669 0.073589511 0.29500002 4284816917
0.10262716 0.073589511 0.29500002 4285275156
0.10950486 0.077081889 0.30900002 4285482043
0.10979322 0.076582976 0.30700001 4286281832
0.11415241 0.076832436 0.30800003 4282392350
0.11515279 0.076832436 0.30800003 4282982172
0.11615318 0.076832436 0.30800003 4283178522
0.11715356 0.076832436 0.30800003 4283110930
0.11815394 0.076832436 0.30800003 4283503889
0.11915433 0.076832436 0.30800003 4283896335
0.12015472 0.076832436 0.30800003 4283896335
0.1211551 0.076832436 0.30800003 4283896335
0.12215549 0.076832436 0.30800003 4283699726
0.12315586 0.076832436 0.30800003 4282979081
0.12415624 0.076832436 0.30800003 4282520840
0.12515663 0.076832436 0.30800003 4281863943
0.12615702 0.076832436 0.30800003 4281732357
0.12715741 0.076832436 0.30800003 4281797637
0.12815779 0.076832436 0.30800003 4281929221
0.12915818 0.076832436 0.30800003 4282718221
0.13015856 0.076832436 0.30800003 4283046670
0.13115893 0.076832436 0.30800003 4283506456
0.13173023 0.076582976 0.30700001 4285220669
0.13272737 0.076582976 0.30700001 4286348392
0.086248539 0.075306103 0.29800001 4282719504
0.086923771 0.075053401 0.29700002 4283899153
0.087888427 0.075053401 0.29700002 4284814605
0.088853084 0.075053401 0.29700002 4285077007
0.08981774 0.075053401 0.29700002 4285142543
0.090476729 0.074800692 0.296 4285273359
0.091438144 0.074800692 0.296 4285470479
0.092087395 0.074547991 0.29500002 4285602065
0.093045548 0.074547991 0.29500002 4285667856
0.094003707 0.074547991 0.29500002 4285733649
0.094961874 0.074547991 0.29500002 4285733649
0.095594876 0.074295282 0.294 4285799442
0.096549787 0.074295282 0.294 4285276439
0.097504705 0.074295282 0.294 4282715911
0.098794512 0.074547991 0.29500002 4282849807
0.099752672 0.074547991 0.29500002 4283637524
0.10071083 0.074547991 0.29500002 4284488722
0.101669 0.074547991 0.29500002 4284750095
0.10262716 0.074547991 0.29500002 4285340433
0.1117875 0.077580452 0.30700001 4282790192
0.11615318 0.077833161 0.30800003 4280881159
0.11715356 0.077833161 0.30800003 4282651662
0.11815394 0.077833161 0.30800003 4283241485
0.11915433 0.077833161 0.30800003 4284093196
0.12015472 0.077833161 0.30800003 4284027146
0.1211551 0.077833161 0.30800003 4284027403
0.12215549 0.077833161 0.30800003 4284027149
0.12315586 0.077833161 0.30800003 4283634444
0.12415624 0.077833161 0.30800003 4282979081
0.12515663 0.077833161 0.30800003 4282192393
0.12615702 0.077833161 0.30800003 4281863428
0.12715741 0.077833161 0.30800003 4281666049
0.12815779 0.077833161 0.30800003 4281928451
0.12915818 0.077833161 0.30800003 4282388488
0.13015856 0.077833161 0.30800003 4283243284
0.13115893 0.077833161 0.30800003 4282258703
0.085959122 0.076018386 0.29700002 4283309844
0.086923771 0.076018386 0.29700002 4284226835
0.087888427 0.076018386 0.29700002 4284814605
0.088853084 0.076018386 0.29700002 4284814605
0.089515321 0.075762428 0.296 4284945421
0.090476729 0.075762428 0.296 4285076750
0.091129236 0.075506479 0.29500002 4285404945
0.092087395 0.075506479 0.29500002 4285470225
0.093045548 0.075506479 0.29500002 4285667858
0.093685046 0.075250521 0.294 4285864465
0.094639964 0.075250521 0.294 4286061844
0.095594876 0.075250521 0.294 4285930258
0.096549787 0.075250521 0.294 4285996051
0.097504705 0.075250521 0.294 4285602065
0.098794512 0.075506479 0.29500002 4284553745
0.099752672 0.075506479 0.29500002 4284422929
0.10071083 0.075506479 0.29500002 4284750097
0.101669 0.075506479 0.29500002 4285011984
0.10262716 0.075506479 0.29500002 4284749582
0.10639441 0.077554107 0.303 4284095247
0.10737855 0.077554107 0.303 4283442973
0.11715356 0.078833885 0.30800003 4279961602
0.11815394 0.078833885 0.30800003 4281142019
0.11915433 0.078833885 0.30800003 4283700491
0.12015472 0.078833885 0.30800003 4283896587
0.1211551 0.078833885 0.30800003 4283830794
0.12215549 0.078833885 0.30800003 4283831310
0.12355571 0.079089835 0.30900002 4283438348
0.12455935 0.079089835 0.30900002 4284166950
0.12556298 0.079089835 0.30900002 4284696122
0.12656662 0.079089835 0.30900002 4281798920
0.12757024 0.079089835 0.30900002 4281862658
0.12857388 0.079089835 0.30900002 4282256902
0.12957752 0.079089835 0.30900002 4282520074
0.13058114 0.079089835 0.30900002 4282914319
0.13158478 0.079089835 0.30900002 4283440665
0.085959122 0.07698337 0.29700002 4283374352
0.086923771 0.07698337 0.29700002 4284029456
0.087888427 0.07698337 0.29700002 4284552718
0.088553913 0.076724164 0.296 4284552718
0.089515321 0.076724164 0.296 4284551435
0.090476729 0.076724164 0.296 4285011216
0.091129236 0.076464966 0.29500002 4285273359
0.092087395 0.076464966 0.29500002 4285273359
0.092730135 0.07620576 0.294 4285799444
0.093685046 0.07620576 0.294 4287115817
0.094639964 0.07620576 0.294 4287448378
0.095594876 0.07620576 0.294 4285799955
0.096549787 0.07620576 0.294 4285930258
0.097504705 0.07620576 0.294 4285929488
0.098794512 0.076464966 0.29500002 4285602065
0.099752672 0.076464966 0.29500002 4285734164
0.10105222 0.076724164 0.296 4285406226
0.101669 0.076464966 0.29500002 4285011984
0.10506238 0.078279383 0.30200002 4284093964
0.10604327 0.078279383 0.30200002 4283374606
0.11915433 0.07983461 0.30800003 4282125318
0.12015472 0.07983461 0.30800003 4283569936
0.1211551 0.07983461 0.30800003 4283766030
0.12255209 0.080093808 0.30900002 4282648321
0.12355571 0.080093808 0.30900002 4287397998
0.12656662 0.080093808 0.30900002 4280946700
0.12757024 0.080093808 0.30900002 4281863428
0.12857388 0.080093808 0.30900002 4281928451
0.12957752 0.080093808 0.30900002 4282256902
0.13058114 0.080093808 0.30900002 4282651660
0.13201061 0.080353007 0.31 4283833368
0.085959122 0.077948347 0.29700002 4282915084
0.086923771 0.077948347 0.29700002 4283898640
0.087888427 0.077948347 0.29700002 4284225552
0.088553913 0.077685893 0.296 4284422161
0.089515321 0.077685893 0.296 4284553488
0.090171069 0.077423446 0.29500002 4284683791
0.091129236 0.077423446 0.29500002 4285011214
0.091775231 0.077160984 0.294 4285076750
0.092730135 0.077160984 0.294 4285733649
0.093685046 0.077160984 0.294 4286128407
0.094639964 0.077160984 0.294 4291001977
0.095594876 0.077160984 0.294 4284882203
0.096549787 0.077160984 0.294 4286259223
0.097504705 0.077160984 0.294 4286126867
0.098794512 0.077423446 0.29500002 4286061074
0.10009081 0.077685893 0.296 4286324246
0.10105222 0.077685893 0.296 4285669146
0.10373684 0.078998163 0.30100003 4284486412
0.10471449 0.078998163 0.30100003 4283109899
0.10604327 0.07926061 0.30200002 4282655254
0.12015472 0.080835328 0.30800003 4282454799
0.1211551 0.080835328 0.30800003 4282190850
0.12215549 0.080835328 0.30800003 4288250997
0.12656662 0.081097774 0.30900002 4281804839
0.12757024 0.081097774 0.30900002 4281863945
0.12857388 0.081097774 0.30900002 4281995016
0.12957752 0.081097774 0.30900002 4282323211
0.13100372 0.081360221 0.31 4282651660
0.13201061 0.081360221 0.31 4283964440
0.1330175 0.081360221 0.31 4287456346
0.085959122 0.078913331 0.29700002 4282980879
0.086923771 0.078913331 0.29700002 4283373069
0.087592505 0.078647628 0.296 4283831823
0.088553913 0.078647628 0.296 4283897870
0.089515321 0.078647628 0.296 4283963150
0.090171069 0.078381933 0.29500002 4284225552
0.091129236 0.078381933 0.29500002 4284552718
0.091775231 0.078116223 0.294 4285011214
0.092730135 0.078116223 0.294 4285405197
0.093685046 0.078116223 0.294 4285865235
0.094318062 0.077850528 0.29300001 4285276189
0.095594876 0.078116223 0.294 4291068803
0.096549787 0.078116223 0.294 4286128670
0.097504705 0.078116223 0.294 4285667858
0.099129401 0.078647628 0.296 4285798672
0.10042896 0.078913331 0.29700002 4285601293
0.10139362 0.078913331 0.29700002 4285274129
0.1033922 0.079710439 0.30000001 4284223753
0.12015472 0.081836052 0.30800003 4280092161
0.1211551 0.081836052 0.30800003 4287335033
0.12857388 0.082101747 0.30900002 4281863945
0.12957752 0.082101747 0.30900002 4282454283
0.13100372 0.08236745 0.31 4282651147
0.13201061 0.08236745 0.31 4283833108
0.085959122 0.079878323 0.29700002 4282391057
0.086923771 0.079878323 0.29700002 4282520588
0.087592505 0.079609364 0.296 4283176975
0.088553913 0.079609364 0.296 4283242253
0.089212909 0.079340421 0.29500002 4283635727
0.090171069 0.079340421 0.29500002 4283700491
0.090820312 0.079071462 0.294 4284092939
0.091775231 0.079071462 0.294 4284683793
0.092730135 0.079071462 0.294 4285011216
0.093366392 0.078802519 0.29300001 4285077007
0.094318062 0.078802519 0.29300001 4285602324
0.095269725 0.078802519 0.29300001 4286194465
0.096549787 0.079071462 0.294 4286129442
0.097504705 0.079071462 0.294 4285799703
0.099129401 0.079609364 0.296 4285667858
0.10042896 0.079878323 0.29700002 4285403916
0.10173501 0.080147266 0.29800001 4284617226
0.1033922 0.080685169 0.30000001 4283043077
0.12656662 0.083105728 0.30900002 4283518278
0.12757024 0.083105728 0.30900002 4281996049
0.12857388 0.083105728 0.30900002 4282061324
0.12957752 0.083105728 0.30900002 4282453768
0.13058114 0.083105728 0.30900002 4282585608
0.13201061 0.083374672 0.31 4283899413
0.085959122 0.080843307 0.29700002 4282063119
0.086923771 0.080843307 0.29700002 4282521873
0.087592505 0.0805711 0.296 4282389772
0.088553913 0.0805711 0.296 4282586381
0.089212909 0.080298908 0.29500002 4282717194
0.090171069 0.080298908 0.29500002 4283241485
0.090820312 0.080026701 0.294 4283830540
0.091775231 0.080026701 0.294 4284158478
0.092730135 0.080026701 0.294 4284421134
0.093366392 0.079754502 0.29300001 4284618511
0.094318062 0.079754502 0.29300001 4285077007
0.095269725 0.079754502 0.29300001 4285471508
0.096549787 0.080026701 0.294 4285997082
0.097504705 0.080026701 0.294 4285865496
0.099464305 0.080843307 0.29700002 4285799957
0.10076711 0.081115499 0.29800001 4285339406
0.1020764 0.081387706 0.29900002 4283764999
0.12715741 0.083837502 0.30800003 4282258451
0.12857388 0.084109701 0.30900002 4282389776
0.12957752 0.084109701 0.30900002 4282453768
0.13058114 0.084109701 0.30900002 4282715909
0.13158478 0.084109701 0.30900002 4283701007
0.1330175 0.084381893 0.31 4283834905
0.086923771 0.081808291 0.29700002 4282062605
0.087592505 0.081532836 0.296 4282324494
0.088553913 0.081532836 0.296 4282323979
0.089212909 0.081257388 0.29500002 4282454281
0.090171069 0.081257388 0.29500002 4282716424
0.090820312 0.08098194 0.294 4283240969
0.091775231 0.08098194 0.294 4283568651
0.092730135 0.08098194 0.294 4283962380
0.093366392 0.080706492 0.29300001 4284356366
0.094318062 0.080706492 0.29300001 4284617996
0.095269725 0.080706492 0.29300001 4284747785
0.096549787 0.08098194 0.294 4285075980
0.097504705 0.08098194 0.294 4285536531
0.099799193 0.082083732 0.29800001 4285208336
0.10110525 0.082359187 0.29900002 4284682249
0.1024178 0.082634635 0.30000001 4282781450
0.12615702 0.084838226 0.30800003 4283385922
0.12715741 0.084838226 0.30800003 4282388754
0.12815779 0.084838226 0.30800003 4282651662
0.12915818 0.084838226 0.30800003 4282782217
0.13058114 0.085113674 0.30900002 4282847497
0.13158478 0.085113674 0.30900002 4283701007
0.086923771 0.082773268 0.29700002 4281800717
0.087592505 0.082494564 0.296 4282192395
0.088553913 0.082494564 0.296 4282257418
0.089515321 0.082494564 0.296 4282323209
0.090171069 0.082215868 0.29500002 4282585867
0.091129236 0.082215868 0.29500002 4282651147
0.091775231 0.081937164 0.294 4282781963
0.092730135 0.081937164 0.294 4283568905
0.093685046 0.081937164 0.294 4284093964
0.094639964 0.081937164 0.294 4284224521
0.095594876 0.081937164 0.294 4284552716
0.096549787 0.081937164 0.294 4284683791
0.098831296 0.083051965 0.29800001 4285011984
0.099799193 0.083051965 0.29800001 4284748812
0.10110525 0.083330661 0.29900002 4284289546
0.12715741 0.085838944 0.30800003 4282914069
0.12815779 0.085838944 0.30800003 4282650379
0.12915818 0.085838944 0.30800003 4282978313
0.13015856 0.085838944 0.30800003 4283307278
0.13158478 0.08611764 0.30900002 4283898899
0.086923771 0.083738253 0.29700002 4281799947
0.087592505 0.0834563 0.296 4282257418
0.088553913 0.0834563 0.296 4282323211
0.089515321 0.0834563 0.296 4282323209
0.090171069 0.083174355 0.29500002 4282323209
0.091129236 0.083174355 0.29500002 4282586381
0.092087395 0.083174355 0.29500002 4282585867
0.092730135 0.082892403 0.294 4283372557
0.093685046 0.082892403 0.294 4283766284
0.094639964 0.082892403 0.294 4283897357
0.095594876 0.082892403 0.294 4284160529
0.096878193 0.083174355 0.29500002 4284488724
0.098499656 0.083738253 0.29700002 4284291345
0.099799193 0.084020197 0.29800001 4284226322
0.10110525 0.08430215 0.29900002 4283109385
0.12574741 0.086557716 0.30700001 4281870632
0.12674455 0.086557716 0.30700001 4283110165
0.12815779 0.086839668 0.30800003 4283109131
0.12915818 0.086839668 0.30800003 4283109385
0.13015856 0.086839668 0.30800003 4283569421
0.13115893 0.086839668 0.30800003 4284226322
0.086923771 0.084703237 0.29700002 4281932303
0.087888427 0.084703237 0.29700002 4282258188
0.088553913 0.084418036 0.296 4282192395
0.089515321 0.084418036 0.296 4282323211
0.090476729 0.084418036 0.296 4282454795
0.091129236 0.084132843 0.29500002 4282520588
0.092087395 0.084132843 0.29500002 4282717967
0.093045548 0.084132843 0.29500002 4282717707
0.093685046 0.083847642 0.294 4282782987
0.094961874 0.084132843 0.29500002 4283438610
0.095920034 0.084132843 0.29500002 4283701522
0.097206593 0.084418036 0.296 4283964179
0.098499656 0.084703237 0.29700002 4283766800
0.099799193 0.08498843 0.29800001 4283372557
0.12574741 0.087555192 0.30700001 4281211160
0.12674455 0.087555192 0.30700001 4283307026
0.12774169 0.087555192 0.30700001 4283306251
0.12915818 0.087840393 0.30800003 4283568653
0.13015856 0.087840393 0.30800003 4283633931
0.13115893 0.087840393 0.30800003 4284356368
0.13215932 0.087840393 0.30800003 4285014041
0.087888427 0.085668221 0.29700002 4282127887
0.088853084 0.085668221 0.29700002 4282521873
0.089515321 0.085379772 0.296 4282258188
0.094003707 0.08509133 0.29500002 4282652944
0.094961874 0.08509133 0.29500002 4282913549
0.095920034 0.08509133 0.29500002 4282848010
0.097206593 0.085379772 0.296 4283241485
0.098831296 0.085956663 0.29800001 4283833108
0.1001341 0.086245112 0.29900002 4283307278
0.12574741 0.088552669 0.30700001 4282720549
0.12674455 0.088552669 0.30700001 4283438350
0.12774169 0.088552669 0.30700001 4283503628
0.12915818 0.088841125 0.30800003 4283831564
0.13015856 0.088841125 0.30800003 4283830794
0.13115893 0.088841125 0.30800003 4284618511
0.13215932 0.088841125 0.30800003 4285275158
0.13359204 0.08912956 0.30900002 4285406744
0.086923771 0.086633198 0.29700002 4282132258
0.087888427 0.086633198 0.29700002 4282128400
0.088853084 0.086633198 0.29700002 4282259471
0.08981774 0.086633198 0.29700002 4282258701
0.097534999 0.086633198 0.29700002 4283110415
0.098831296 0.086924888 0.29800001 4283635475
0.1001341 0.087216586 0.29900002 4284560941
0.12674455 0.089550138 0.30700001 4283700237
0.12774169 0.089550138 0.30700001 4283765771
0.12915818 0.089841835 0.30800003 4283962378
0.13015856 0.089841835 0.30800003 4284093194
0.13115893 0.089841835 0.30800003 4284618511
0.13215932 0.089841835 0.30800003 4285405974
0.13359204 0.090133525 0.30900002 4285668887
0.13459568 0.090133525 0.30900002 4285866523
0.086923771 0.087598182 0.29700002 4282002470
0.087888427 0.087598182 0.29700002 4282324496
0.088853084 0.087598182 0.29700002 4282587153
0.08981774 0.087598182 0.29700002 4282717967
0.097534999 0.087598182 0.29700002 4282781965
0.098831296 0.087893121 0.29800001 4283898647
0.1001341 0.088188075 0.29900002 4288184434
0.1014434 0.088483013 0.30000001 4286675820
0.12674455 0.090547614 0.30700001 4284158735
0.12774169 0.090547614 0.30700001 4284027149
0.12915818 0.090842567 0.30800003 4284224525
0.13015856 0.090842567 0.30800003 4284421134
0.13115893 0.090842567 0.30800003 4285209365
0.13215932 0.090842567 0.30800003 4285669146
0.13359204 0.091137506 0.30900002 4285997082
0.13459568 0.091137506 0.30900002 4285931030
0.13603814 0.091432445 0.31 4283570966
0.088853084 0.088563167 0.29700002 4282652944
0.08981774 0.088563167 0.29700002 4283374352
0.097534999 0.088563167 0.29700002 4283045135
0.098831296 0.088861361 0.29800001 4283635729
0.1001341 0.089159556 0.29900002 4287858038
0.1014434 0.089457743 0.30000001 4286875254
0.12574741 0.09154509 0.30700001 4283896851
0.12674455 0.09154509 0.30700001 4284158735
0.12774169 0.09154509 0.30700001 4284158732
0.12915818 0.091843292 0.30800003 4284552720
0.13015856 0.091843292 0.30800003 4284618513
0.13115893 0.091843292 0.30800003 4284749586
0.13215932 0.091843292 0.30800003 4291987850
0.13359204 0.092141479 0.30900002 4285471769
0.13459568 0.092141479 0.30900002 4286194461
0.13603814 0.092439666 0.31 4285014298
0.088853084 0.089528158 0.29700002 4282390285
0.08981774 0.089528158 0.29700002 4283438862
0.097534999 0.089528158 0.29700002 4283110928
0.098831296 0.089829594 0.29800001 4283898386
0.1001341 0.090131037 0.29900002 4287792504
0.1014434 0.09043248 0.30000001 4287072636
0.12574741 0.092542566 0.30700001 4284356114
0.12674455 0.092542566 0.30700001 4284224525
0.12774169 0.092542566 0.30700001 4284355341
0.12915818 0.092844017 0.30800003 4284486412
0.13015856 0.092844017 0.30800003 4284683791
0.13115893 0.092844017 0.30800003 4285275158
0.13215932 0.092844017 0.30800003 4285537562
0.13359204 0.093145452 0.30900002 4286986294
0.13459568 0.093145452 0.30900002 4285866525
0.13603814 0.093446888 0.31 4285079834
0.08981774 0.090493135 0.29700002 4283833106
0.097863391 0.090797819 0.29800001 4283242768
0.098831296 0.090797819 0.29800001 4283635981
0.1001341 0.091102518 0.29900002 4287464309
0.10178155 0.091711894 0.30100003 4286481271
0.12434392 0.093235351 0.30600002 4284421907
0.12574741 0.093540035 0.30700001 4284552720
0.12674455 0.093540035 0.30700001 4284618513
0.12774169 0.093540035 0.30700001 4284683791
0.12915818 0.093844734 0.30800003 4284748814
0.13015856 0.093844734 0.30800003 4284748814
0.13115893 0.093844734 0.30800003 4284880400
0.13215932 0.093844734 0.30800003 4285275158
0.13359204 0.094149418 0.30900002 4285603096
0.13459568 0.094149418 0.30900002 4285866270
0.13603814 0.094454102 0.31 4284948251
0.087216437 0.091766052 0.29800001 4284372563
0.088184342 0.091766052 0.29800001 4282390035
0.089152247 0.091766052 0.29800001 4282717969
0.08981774 0.091458119 0.29700002 4283439634
0.097863391 0.091766052 0.29800001 4283176462
0.098831296 0.091766052 0.29800001 4284095767
0.1001341 0.092073999 0.29900002 4287399032
0.10178155 0.092689879 0.30100003 4286678648
0.12434392 0.094229579 0.30600002 4284750095
0.12574741 0.094537511 0.30700001 4284815375
0.12674455 0.094537511 0.30700001 4284683789
0.12774169 0.094537511 0.30700001 4284683789
0.12915818 0.094845459 0.30800003 4284946191
0.13015856 0.094845459 0.30800003 4284749066
0.13115893 0.094845459 0.30800003 4284880400
0.13215932 0.094845459 0.30800003 4284748814
0.13359204 0.095153391 0.30900002 4284880400
0.13459568 0.095153391 0.30900002 4285340951
0.087216437 0.092734285 0.29800001 4284109391
0.088184342 0.092734285 0.29800001 4282587414
0.089152247 0.092734285 0.29800001 4282849555
0.090120159 0.092734285 0.29800001 4283373587
0.090782404 0.092423104 0.29700002 4282914319
0.097534999 0.092423104 0.29700002 4283045135
0.098831296 0.092734285 0.29800001 4284358939
0.1001341 0.093045481 0.29900002 4287595125
0.10178155 0.093667857 0.30100003 4286677878
0.10310058 0.093979046 0.30200002 4286481789
0.12434392 0.095223807 0.30600002 4285011986
0.12574741 0.095534988 0.30700001 4284880400
0.12674455 0.095534988 0.30700001 4284945421
0.12774169 0.095534988 0.30700001 4284945421
0.12915818 0.095846184 0.30800003 4284946445
0.13015856 0.095846184 0.30800003 4284749066
0.13115893 0.095846184 0.30800003 4284552718
0.13215932 0.095846184 0.30800003 4284619283
0.13359204 0.096157365 0.30900002 4284685076
0.13459568 0.096157365 0.30900002 4284685076
0.087509118 0.094016962 0.29900002 4284307792
0.088184342 0.093702525 0.29800001 4282784280
0.089152247 0.093702525 0.29800001 4282849043
0.090120159 0.093702525 0.29800001 4283439380
0.090782404 0.093388088 0.29700002 4283373071
0.09174706 0.093388088 0.29700002 4287597694
0.097534999 0.093388088 0.29700002 4283045905
0.098831296 0.093702525 0.29800001 4284031769
0.1001341 0.094016962 0.29900002 4287725682
0.10178155 0.094645843 0.30100003 4286677878
0.10310058 0.09496028 0.30200002 4286350970
0.10477076 0.095589153 0.30400002 4286153337
0.12434392 0.096218035 0.30600002 4284946193
0.12574741 0.096532464 0.30700001 4285142802
0.12674455 0.096532464 0.30700001 4285274129
0.12774169 0.096532464 0.30700001 4285208336
0.12915818 0.096846908 0.30800003 4284814605
0.13015856 0.096846908 0.30800003 4284553488
0.13115893 0.096846908 0.30800003 4284160788
0.13215932 0.096846908 0.30800003 4284094997
0.087509118 0.09498845 0.29900002 4284045133
0.088480271 0.09498845 0.29900002 4282653207
0.089152247 0.094670758 0.29800001 4282914836
0.090120159 0.094670758 0.29800001 4283504403
0.091088064 0.094670758 0.29800001 4283569423
0.097534999 0.094353072 0.29700002 4282651149
0.098499656 0.094353072 0.29700002 4284162073
0.1001341 0.09498845 0.29900002 4285683785
0.10178155 0.095623821 0.30100003 4286743414
0.10310058 0.095941506 0.30200002 4286482556
0.10477076 0.096576884 0.30400002 4286416509
0.10575815 0.096576884 0.30400002 4286218101
0.12434392 0.097212255 0.30600002 4285011986
0.12574741 0.09752994 0.30700001 4285208595
0.12774169 0.09752994 0.30700001 4285208595
0.12915818 0.097847633 0.30800003 4284160788
0.13015856 0.097847633 0.30800003 4283702806
0.13115893 0.097847633 0.30800003 4283046932
0.13215932 0.097847633 0.30800003 4283245596
0.087509118 0.095959924 0.29900002 4283913295
0.088480271 0.095959924 0.29900002 4282718487
0.089152247 0.095638983 0.29800001 4283045909
0.090120159 0.095638983 0.29800001 4283701522
0.091088064 0.095638983 0.29800001 4284291861
0.092055969 0.095638983 0.29800001 4287131748
0.096570343 0.095318049 0.29700002 4280883224
0.097534999 0.095318049 0.29700002 4282454797
0.098499656 0.095318049 0.29700002 4284030487
0.099464305 0.095318049 0.29700002 4283245848
0.10178155 0.096601799 0.30100003 4287005557
0.10310058 0.096922733 0.30200002 4286416250
0.10477076 0.0975646 0.30400002 4286613629
0.10575815 0.0975646 0.30400002 4286482043
0.10773294 0.0975646 0.30400002 4281866519
0.088480271 0.096931405 0.29900002 4282849305
0.089451425 0.096931405 0.29900002 4283177495
0.090120159 0.096607216 0.29800001 4283701009
0.091088064 0.096607216 0.29800001 4284422161
0.092055969 0.096607216 0.29800001 4285344549
0.096570343 0.096283033 0.29700002 4284899161
0.097534999 0.096283033 0.29700002 4282651662
0.098499656 0.096283033 0.29700002 4283569423
0.099464305 0.096283033 0.29700002 4283964946
0.10042896 0.096283033 0.29700002 4288316788
0.10139362 0.096283033 0.29700002 4286416248
0.10477076 0.098552331 0.30400002 4286482043
0.10575815 0.098552331 0.30400002 4286482043
0.10773294 0.098552331 0.30400002 4282129430
0.12674455 0.099524885 0.30700001 4283634192
0.087509118 0.097902894 0.29900002 4282529846
0.088480271 0.097902894 0.29900002 4283111963
0.089451425 0.097902894 0.29900002 4283176725
0.090422578 0.097902894 0.29900002 4283701009
0.091088064 0.097575448 0.29800001 4284225552
0.092055969 0.097575448 0.29800001 4284618000
0.092711717 0.097248018 0.29700002 4284814609
0.093676366 0.097248018 0.29700002 4283896851
0.094641022 0.097248018 0.29700002 4285347640
0.095605679 0.097248018 0.29700002 4285613640
0.096245185 0.09692058 0.296 4284426286
0.097206593 0.09692058 0.296 4284358939
0.098499656 0.097248018 0.29700002 4284422161
0.099464305 0.097248018 0.29700002 4284685331
0.10042896 0.097248018 0.29700002 4286664772
0.10139362 0.097248018 0.29700002 4286678652
0.10270292 0.097575448 0.29800001 4286350457
0.10401872 0.097902894 0.29900002 4286547582
0.10569214 0.098557763 0.30100003 4286087031
0.10737855 0.099212624 0.303 4282460963
0.1136573 0.099540062 0.30400002 4285405976
0.11464469 0.099540062 0.30400002 4285866525
0.088480271 0.098874375 0.29900002 4282980891
0.089451425 0.098874375 0.29900002 4283111702
0.090422578 0.098874375 0.29900002 4283766802
0.091088064 0.098543689 0.29800001 4284224782
0.092055969 0.098543689 0.29800001 4284618000
0.093023874 0.098543689 0.29800001 4284814609
0.093676366 0.09821301 0.29700002 4285142804
0.094641022 0.09821301 0.29700002 4285405976
0.095605679 0.09821301 0.29700002 4285604902
0.096245185 0.097882316 0.296 4286922559
0.097206593 0.097882316 0.296 4286788915
0.098168001 0.097882316 0.296 4286722606
0.099464305 0.09821301 0.29700002 4285406742
0.10042896 0.09821301 0.29700002 4285341719
0.10139362 0.09821301 0.29700002 4286408541
0.10270292 0.098543689 0.29800001 4286676853
0.10367082 0.098543689 0.29800001 4286349687
0.105341 0.099205054 0.30000001 4286349433
0.10737855 0.1001971 0.303 4285820011
0.11168251 0.10052779 0.30400002 4285407516
0.11266991 0.10052779 0.30400002 4285209367
0.1136573 0.10052779 0.30400002 4285733910
0.11464469 0.10052779 0.30400002 4285602324
0.11563208 0.10052779 0.30400002 4285601811
0.11661947 0.10052779 0.30400002 4285601811
0.11760686 0.10052779 0.30400002 4285799707
0.11859426 0.10052779 0.30400002 4285537305
0.11958165 0.10052779 0.30400002 4285867043
0.12056905 0.10052779 0.30400002 4286922041
0.12155643 0.10052779 0.30400002 4288968040
0.12254383 0.10052779 0.30400002 4287849048
0.088776186 0.10017978 0.30000001 4283047706
0.089451425 0.099845849 0.29900002 4283112213
0.090422578 0.099845849 0.29900002 4283897618
0.091088064 0.099511914 0.29800001 4284356114
0.092055969 0.099511914 0.29800001 4284619283
0.093023874 0.099511914 0.29800001 4284552720
0.093676366 0.099177986 0.29700002 4284946193
0.094641022 0.099177986 0.29700002 4285208593
0.095283769 0.098844044 0.296 4285799703
0.096245185 0.098844044 0.296 4289091152
0.097206593 0.098844044 0.296 4285538848
0.098168001 0.098844044 0.296 4286325538
0.099129401 0.098844044 0.296 4285864983
0.10042896 0.099177986 0.29700002 4285799703
0.10139362 0.099177986 0.29700002 4284226329
0.10235828 0.099177986 0.29700002 4285809474
0.10367082 0.099511914 0.29800001 4286803051
0.10498987 0.099845849 0.29900002 4286609779
0.10737855 0.10118157 0.303 4287070330
0.10872033 0.10151551 0.30400002 4281866008
0.10970772 0.10151551 0.30400002 4285277468
0.11069512 0.10151551 0.30400002 4285340179
0.11168251 0.10151551 0.30400002 4285471508
0.11266991 0.10151551 0.30400002 4285537301
0.1136573 0.10151551 0.30400002 4285470479
0.11464469 0.10151551 0.30400002 4285732881
0.11563208 0.10151551 0.30400002 4285798674
0.11661947 0.10151551 0.30400002 4285798420
0.11760686 0.10151551 0.30400002 4285864215
0.11859426 0.10151551 0.30400002 4286062364
0.088776186 0.10115451 0.30000001 4283178008
0.089451425 0.10081733 0.29900002 4283374870
0.090422578 0.10081733 0.29900002 4283964181
0.091088064 0.10048015 0.29800001 4284160275
0.092055969 0.10048015 0.29800001 4284291091
0.092711717 0.10014297 0.29700002 4284356114
0.093676366 0.10014297 0.29700002 4284683791
0.094641022 0.10014297 0.29700002 4284880398
0.095283769 0.09980578 0.296 4285470225
0.096245185 0.09980578 0.296 4286192408
0.097206593 0.09980578 0.296 4291330942
0.098168001 0.09980578 0.296 4285605926
0.099129401 0.09980578 0.296 4286193180
0.10009081 0.09980578 0.296 4285930008
0.10139362 0.10014297 0.29700002 4285669916
0.10235828 0.10014297 0.29700002 4285013271
0.10332294 0.10014297 0.29700002 4285078558
0.10463873 0.10048015 0.29800001 4285078560
0.10737855 0.10216605 0.303 4285212715
0.10872033 0.10250324 0.30400002 4285211945
0.10970772 0.10250324 0.30400002 4285209365
0.11069512 0.10250324 0.30400002 4285405715
0.11168251 0.10250324 0.30400002 4285404945
0.11266991 0.10250324 0.30400002 4285404432
0.1136573 0.10250324 0.30400002 4285732627
0.11464469 0.10250324 0.30400002 4285535248
0.11563208 0.10250324 0.30400002 4285929490
0.11661947 0.10250324 0.30400002 4286126869
0.11760686 0.10250324 0.30400002 4285995799
0.11859426 0.10250324 0.30400002 4285930776
0.088480271 0.10178882 0.29900002 4283046422
0.089451425 0.10178882 0.29900002 4283374100
0.090422578 0.10178882 0.29900002 4283570450
0.091088064 0.10144838 0.29800001 4283833108
0.092055969 0.10144838 0.29800001 4284094995
0.092711717 0.10110795 0.29700002 4283962896
0.093676366 0.10110795 0.29700002 4284552718
0.094322361 0.10076752 0.296 4284749584
0.095283769 0.10076752 0.296 4285273359
0.096245185 0.10076752 0.296 4285732627
0.097206593 0.10076752 0.296 4285404436
0.098168001 0.10076752 0.296 4286984756
0.099129401 0.10076752 0.296 4286063647
0.10009081 0.10076752 0.296 4286193178
0.10105222 0.10076752 0.296 4285864983
0.10235828 0.10110795 0.29700002 4285405715
0.10332294 0.10110795 0.29700002 4285405715
0.10463873 0.10144838 0.29800001 4285405715
0.10737855 0.10315053 0.303 4285537305
0.10872033 0.10349097 0.30400002 4285668891
0.10970772 0.10349097 0.30400002 4285668889
0.11069512 0.10349097 0.30400002 4285537303
0.11168251 0.10349097 0.30400002 4285734164
0.11266991 0.10349097 0.30400002 4285667856
0.1136573 0.10349097 0.30400002 4285732879
0.11464469 0.10349097 0.30400002 4285929490
0.11563208 0.10349097 0.30400002 4285863697
0.11661947 0.10349097 0.30400002 4286061076
0.11760686 0.10349097 0.30400002 4286061076
0.11859426 0.10349097 0.30400002 4286390041
0.11958165 0.10349097 0.30400002 4286062362
0.087801784 0.10310397 0.30000001 4282528816
0.088480271 0.1027603 0.29900002 4282718487
0.089451425 0.1027603 0.29900002 4282914836
0.090422578 0.1027603 0.29900002 4283110930
0.091088064 0.10241661 0.29800001 4283242001
0.092055969 0.10241661 0.29800001 4283569936
0.092711717 0.10207294 0.29700002 4283635216
0.093676366 0.10207294 0.29700002 4284093196
0.094322361 0.10172925 0.296 4284421134
0.095283769 0.10172925 0.296 4284945421
0.095920034 0.10138558 0.29500002 4285208336
0.096878193 0.10138558 0.29500002 4285732627
0.09783636 0.10138558 0.29500002 4285930006
0.098794512 0.10138558 0.29500002 4289290591
0.099752672 0.10138558 0.29500002 4285209883
0.10105222 0.10172925 0.296 4285404434
0.10201363 0.10172925 0.296 4285339154
0.10332294 0.10207294 0.29700002 4285404947
0.10463873 0.10241661 0.29800001 4285668117
0.10737855 0.10413501 0.303 4285668371
0.10872033 0.10447869 0.30400002 4285668371
0.10970772 0.10447869 0.30400002 4285668117
0.11069512 0.10447869 0.30400002 4285668371
0.11168251 0.10447869 0.30400002 4285799442
0.11266991 0.10447869 0.30400002 4285733649
0.1136573 0.10447869 0.30400002 4285995283
0.11464469 0.10447869 0.30400002 4286126869
0.11563208 0.10447869 0.30400002 4286126615
0.11661947 0.10447869 0.30400002 4286126615
0.11760686 0.10447869 0.30400002 4286192662
0.11859426 0.10447869 0.30400002 4286061846
0.088480271 0.10373178 0.29900002 4282588184
0.089451425 0.10373178 0.29900002 4282587414
0.090422578 0.10373178 0.29900002 4282717971
0.091088064 0.10338485 0.29800001 4282782737
0.09174706 0.10303792 0.29700002 4283110415
0.092711717 0.10303792 0.29700002 4283242001
0.093360953 0.10269099 0.296 4283635214
0.094322361 0.10269099 0.296 4283962380
0.094961874 0.10234407 0.29500002 4284684302
0.095920034 0.10234407 0.29500002 4284815375
0.096878193 0.10234407 0.29500002 4285208336
0.09783636 0.10234407 0.29500002 4285471508
0.098794512 0.10234407 0.29500002 4286461235
0.099752672 0.10234407 0.29500002 4285078045
0.10105222 0.10269099 0.296 4285340183
0.10201363 0.10269099 0.296 4284946195
0.10332294 0.10303792 0.29700002 4284817435
0.10463873 0.10338485 0.29800001 4284684306
0.10737855 0.10511949 0.303 4285471508
0.10872033 0.10546643 0.30400002 4285668371
0.10970772 0.10546643 0.30400002 4286063129
0.11069512 0.10546643 0.30400002 4287906103
0.11168251 0.10546643 0.30400002 4285799957
0.11266991 0.10546643 0.30400002 4286062616
0.1136573 0.10546643 0.30400002 4285995029
0.11464469 0.10546643 0.30400002 4285994774
0.11563208 0.10546643 0.30400002 4286126615
0.11661947 0.10546643 0.30400002 4286126869
0.11760686 0.10546643 0.30400002 4286390041
0.11859426 0.10546643 0.30400002 4286193432
0.11958165 0.10546643 0.30400002 4285609258
0.088776186 0.10505343 0.30000001 4282921262
0.089451425 0.10470325 0.29900002 4282325525
0.090422578 0.10470325 0.29900002 4282323983
0.091088064 0.10435308 0.29800001 4282520592
0.09174706 0.1040029 0.29700002 4282849553
0.092711717 0.1040029 0.29700002 4282849039
0.093360953 0.10365272 0.296 4282979083
0.094003707 0.10330255 0.29500002 4283635727
0.094961874 0.10330255 0.29500002 4284226322
0.095920034 0.10330255 0.29500002 4284553747
0.096549787 0.10295236 0.294 4284750097
0.097504705 0.10295236 0.294 4285078549
0.098459609 0.10295236 0.294 4284881685
0.099752672 0.10330255 0.29500002 4284881685
0.10105222 0.10365272 0.296 4284420882
0.10201363 0.10365272 0.296 4288705902
0.10332294 0.1040029 0.29700002 4286475879
0.10463873 0.10435308 0.29800001 4283247143
0.10737855 0.10610396 0.303 4284882458
0.10872033 0.10645415 0.30400002 4285209365
0.10970772 0.10645415 0.30400002 4285404945
0.11069512 0.10645415 0.30400002 4285733910
0.11168251 0.10645415 0.30400002 4285733910
0.11266991 0.10645415 0.30400002 4285733397
0.1136573 0.10645415 0.30400002 4286193178
0.11464469 0.10645415 0.30400002 4286258971
0.11563208 0.10645415 0.30400002 4286323994
0.11661947 0.10645415 0.30400002 4286259225
0.11760686 0.10645415 0.30400002 4286390041
0.11859426 0.10645415 0.30400002 4286061846
0.11958165 0.10645415 0.30400002 4284227353
0.089750588 0.10602816 0.30000001 4282397998
0.090422578 0.10567474 0.29900002 4282850838
0.091088064 0.10532131 0.29800001 4282390287
0.09174706 0.10496788 0.29700002 4282586383
0.092399552 0.10461445 0.296 4282520590
0.093360953 0.10461445 0.296 4283176721
0.094003707 0.10426103 0.29500002 4283307794
0.094961874 0.10426103 0.29500002 4283833106
0.095594876 0.1039076 0.294 4283898899
0.096549787 0.1039076 0.294 4283897616
0.097504705 0.1039076 0.294 4284357654
0.098459609 0.1039076 0.294 4284816665
0.09941452 0.1039076 0.294 4285013787
0.10105222 0.10461445 0.296 4285220158
0.10201363 0.10461445 0.296 4286609262
0.10332294 0.10496788 0.29700002 4286019952
0.10463873 0.10532131 0.29800001 4285756778
0.10737855 0.10708845 0.303 4287069553
0.10872033 0.10744188 0.30400002 4285750865
0.10970772 0.10744188 0.30400002 4284165413
0.11069512 0.10744188 0.30400002 4284362019
0.11168251 0.10744188 0.30400002 4285014044
0.11266991 0.10744188 0.30400002 4284552720
0.1136573 0.10744188 0.30400002 4284814607
0.11464469 0.10744188 0.30400002 4285405715
0.11563208 0.10744188 0.30400002 4286325786
0.11661947 0.10744188 0.30400002 4292578949
0.11760686 0.10744188 0.30400002 4285799194
0.11859426 0.10744188 0.30400002 4286062364
0.091088064 0.10628954 0.29800001 4283053866
0.09174706 0.10593287 0.29700002 4282917914
0.092399552 0.10557619 0.296 4282785045
0.093360953 0.10557619 0.296 4282849555
0.094003707 0.10521952 0.29500002 4283046420
0.094639964 0.10486283 0.294 4283111698
0.095594876 0.10486283 0.294 4283243284
0.096549787 0.10486283 0.294 4283637272
0.097504705 0.10486283 0.294 4283899931
0.098459609 0.10486283 0.294 4284359964
0.09941452 0.10486283 0.294 4285413422
0.10105222 0.10557619 0.296 4282059789
0.10201363 0.10557619 0.296 4282785828
0.10332294 0.10593287 0.29700002 4282592047
0.10463873 0.10628954 0.29800001 4282066730
0.10737855 0.10807292 0.303 4282395693
0.10872033 0.1084296 0.30400002 4282659119
0.10970772 0.1084296 0.30400002 4282724397
0.11069512 0.1084296 0.30400002 4283052846
0.11168251 0.1084296 0.30400002 4282650379
0.11266991 0.1084296 0.30400002 4283569423
0.1136573 0.1084296 0.30400002 4284487443
0.11464469 0.1084296 0.30400002 4284946195
0.11563208 0.1084296 0.30400002 4285798420
0.11661947 0.1084296 0.30400002 4285733401
0.11859426 0.1084296 0.30400002 4286128159
0.093360953 0.10653792 0.296 4283974200
0.094639964 0.10581807 0.294 4282524442
0.095594876 0.10581807 0.294 4282852635
0.096549787 0.10581807 0.294 4282852635
0.097504705 0.10581807 0.294 4283643434
0.098459609 0.10581807 0.294 4285554000
0.09941452 0.10581807 0.294 4282920996
0.10105222 0.10653792 0.296 4283245092
0.10201363 0.10653792 0.296 4283113247
0.10332294 0.10689785 0.29700002 4282389524
0.10463873 0.10725778 0.29800001 4282191891
0.10737855 0.1090574 0.303 4281996308
0.10872033 0.10941733 0.30400002 4281865236
0.10970772 0.10941733 0.30400002 4281800213
0.11069512 0.10941733 0.30400002 4281932053
0.11168251 0.10941733 0.30400002 4282716944
0.11266991 0.10941733 0.30400002 4283503376
0.1136573 0.10941733 0.30400002 4284421650
0.11464469 0.10941733 0.30400002 4284749586
0.11563208 0.10941733 0.30400002 4285142802
0.11661947 0.10941733 0.30400002 4285208338
0.11760686 0.10941733 0.30400002 4285536533
0.11859426 0.10941733 0.30400002 4285865498
0.1088421 0.08458773 0.30107927 4294967295
0.1088421 0.08458773 0.30107927 4294901760
0.1088421 0.08458773 0.30157927 4294901760
0.1088421 0.08458773 0.30207926 4294901760
0.1088421 0.08458773 0.30257928 4294901760
0.1088421 0.08458773 0.30307928 4294901760
0.1088421 0.08458773 0.30357927 4294901760
0.1088421 0.08458773 0.30407926 4294901760
0.1088421 0.08458773 0.30457929 4294901760
0.1088421 0.08458773 0.30507928 4294901760
0.1088421 0.08458773 0.30557927 4294901760
0.1088421 0.08458773 0.30607927 4294901760
0.1088421 0.08458773 0.30657926 4294901760
0.1088421 0.08458773 0.30707929 4294901760
0.1088421 0.08458773 0.30757928 4294901760
0.1088421 0.08458773 0.30807927 4294901760
0.1088421 0.08458773 0.30857927 4294901760
0.1088421 0.08458773 0.30907929 4294901760
0.1088421 0.08458773 0.30957928 4294901760
0.1088421 0.08458773 0.31007928 4294901760
0.1088421 0.08458773 0.31057927 4294901760
0.1088421 0.08458773 0.31107926 4294901760
0.1088421 0.08458773 0.31157929 4294901760
0.1088421 0.08458773 0.31207928 4294901760
0.1088421 0.08458773 0.31257927 4294901760
0.1088421 0.08458773 0.31307927 4294901760
0.1088421 0.08458773 0.31357926 4294901760
0.1088421 0.08458773 0.31407928 4294901760
0.1088421 0.08458773 0.31457928 4294901760
0.1088421 0.08458773 0.31507927 4294901760
0.1088421 0.08458773 0.31557927 4294901760
0.1088421 0.08458773 0.31607929 4294901760
0.1088421 0.08458773 0.31657928 4294901760
0.1088421 0.08458773 0.31707928 4294901760
0.1088421 0.08458773 0.31757927 4294901760
0.1088421 0.08458773 0.31807929 4294901760
0.1088421 0.08458773 0.31857929 4294901760
0.1088421 0.08458773 0.31907928 4294901760
0.1088421 0.08458773 0.31957927 4294901760
0.1088421 0.08458773 0.32007927 4294901760
0.1088421 0.08458773 0.32057929 4294901760
0.1088421 0.08458773 0.32107928 4294901760
0.1088421 0.08458773 0.32157928 4294901760
0.1088421 0.08458773 0.32207927 4294901760
0.1088421 0.08458773 0.32257926 4294901760
0.1088421 0.08458773 0.32307929 4294901760
0.1088421 0.08458773 0.32357928 4294901760
0.1088421 0.08458773 0.32407928 4294901760
0.1088421 0.08458773 0.32457927 4294901760
0.1088421 0.08458773 0.32507929 4294901760
0.1088421 0.08458773 0.32557929 4294901760
0.1088421 0.08458773 0.32607928 4294901760
0.1088421 0.08458773 0.32657927 4294901760
0.1088421 0.08458773 0.32707927 4294901760
0.1088421 0.08458773 0.32757929 4294901760
0.1088421 0.08458773 0.32807928 4294901760
0.1088421 0.08458773 0.32857928 4294901760
0.1088421 0.08458773 0.32907927 4294901760
0.1088421 0.08458773 0.32957929 4294901760
0.1088421 0.08458773 0.33007929 4294901760
0.1088421 0.08458773 0.33057928 4294901760
0.1088421 0.08458773 0.33107927 4294901760
0.1088421 0.08458773 0.33157927 4294901760
0.1088421 0.08458773 0.33207929 4294901760
0.1088421 0.08458773 0.33257928 4294901760
0.1088421 0.08458773 0.33307928 4294901760
0.1088421 0.08458773 0.33357927 4294901760
0.1088421 0.08458773 0.3340793 4294901760
0.1088421 0.08458773 0.33457929 4294901760
0.1088421 0.08458773 0.33507928 4294901760
0.1088421 0.08458773 0.33557928 4294901760
0.1088421 0.08458773 0.33607927 4294901760
0.1088421 0.08458773 0.33657929 4294901760
0.1088421 0.08458773 0.33707929 4294901760
0.1088421 0.08458773 0.33757928 4294901760
0.1088421 0.08458773 0.33807927 4294901760
0.1088421 0.08458773 0.3385793 4294901760
0.1088421 0.08458773 0.33907929 4294901760
0.1088421 0.08458773 0.33957928 4294901760
0.1088421 0.08458773 0.34007928 4294901760
0.1088421 0.08458773 0.34057927 4294901760
0.1088421 0.08458773 0.34107929 4294901760
0.1088421 0.08458773 0.34157929 4294901760
0.1088421 0.08458773 0.34207928 4294901760
0.1088421 0.08458773 0.34257928 4294901760
0.1088421 0.08458773 0.34307927 4294901760
0.1088421 0.08458773 0.34357929 4294901760
0.1088421 0.08458773 0.34407929 4294901760
0.1088421 0.08458773 0.34457928 4294901760
0.1088421 0.08458773 0.34507927 4294901760
0.1088421 0.08458773 0.34557927 4294901760
0.1088421 0.08458773 0.34607929 4294901760
0.1088421 0.08458773 0.34657928 4294901760
0.1088421 0.08458773 0.34707928 4294901760
0.1088421 0.08458773 0.3475793 4294901760
0.1088421 0.08458773 0.34807929 4294901760
0.1088421 0.08458773 0.34857929 4294901760
0.1088421 0.08458773 0.34907928 4294901760
0.1088421 0.08458773 0.34957927 4294901760
0.1088421 0.08458773 0.3500793 4294901760
0.1088421 0.08458773 0.35057929 4294901760
0.1088421 0.08458773 0.35107929 4294901760
0.1088421 0.08458773 0.30107927 4278255360
0.10869056 0.084572375 0.30155551 4278255360
0.10853903 0.084557012 0.30203176 4278255360
0.10838749 0.084541656 0.302508 4278255360
0.10823596 0.0845263 0.30298421 4278255360
0.10808443 0.084510945 0.30346045 4278255360
0.1079329 0.084495582 0.30393669 4278255360
0.10778136 0.084480226 0.30441293 4278255360
0.10762983 0.08446487 0.30488917 4278255360
0.10747829 0.084449515 0.30536541 4278255360
0.10732676 0.084434152 0.30584165 4278255360
0.10717522 0.084418796 0.30631787 4278255360
