# .PCD v0.7 - Point Cloud Data file format
VERSION 0.7
FIELDS x y z rgb
SIZE 4 4 4 4
TYPE F F F U
COUNT 1 1 1 1
WIDTH 922
HEIGHT 1
VIEWPOINT 0 0 0 1 0 0 0
POINTS 922
DATA ascii
0.067355245 0.022168709 0.34500003 4279257119
0.066042691 0.023222141 0.34400001 4279191842
0.067160003 0.023222141 0.34400001 4279126562
0.066042691 0.024339832 0.34400001 4278862877
0.067160003 0.024339832 0.34400001 4278929183
0.068277322 0.024339832 0.34400001 4279257635
0.066042691 0.025457524 0.34400001 4278993947
0.067160003 0.025457524 0.34400001 4279060767
0.068277322 0.025457524 0.34400001 4279191840
0.065850712 0.026497962 0.34300002 4279126558
0.066964775 0.026497962 0.34300002 4279060765
0.068078846 0.026497962 0.34300002 4278994459
0.065850712 0.027612403 0.34300002 4278994459
0.066964775 0.027612403 0.34300002 4279061019
0.068078846 0.027612403 0.34300002 4279126558
0.069192901 0.027612403 0.34300002 4279388705
0.065850712 0.028726846 0.34300002 4278863127
0.066964775 0.028726846 0.34300002 4279192092
0.068078846 0.028726846 0.34300002 4278732570
0.069192901 0.028726846 0.34300002 4279192351
0.064736649 0.029841287 0.34300002 4278991381
0.065850712 0.029841287 0.34300002 4279192092
0.066964775 0.029841287 0.34300002 4279126812
0.068078846 0.029841287 0.34300002 4279456293
0.068991169 0.029754285 0.34200001 4278666777
0.070101991 0.029754285 0.34200001 4279322912
0.071212806 0.029754285 0.34200001 4279584031
0.072323628 0.029754285 0.34200001 4281816126
0.073434442 0.029754285 0.34200001 4284973165
0.065850712 0.030955732 0.34300002 4279454498
0.066964775 0.030955732 0.34300002 4279192351
0.067880362 0.030865481 0.34200001 4279390502
0.068991169 0.030865481 0.34200001 4283337314
0.070101991 0.030865481 0.34200001 4279519521
0.071212806 0.030865481 0.34200001 4279257119
0.072323628 0.030865481 0.34200001 4279453217
0.065850712 0.032070175 0.34300002 4280440625
0.068078846 0.032070175 0.34300002 4279521318
0.068991169 0.031976674 0.34200001 4279391017
0.070101991 0.031976674 0.34200001 4281428290
0.071212806 0.031976674 0.34200001 4279388453
0.072323628 0.031976674 0.34200001 4279191588
0.073434442 0.031976674 0.34200001 4278862623
0.074545257 0.031976674 0.34200001 4279257121
0.075656079 0.031976674 0.34200001 4279256349
0.076766886 0.031976674 0.34200001 4279321629
0.077877708 0.031976674 0.34200001 4279519010
0.078988522 0.031976674 0.34200001 4279649826
0.080099337 0.031976674 0.34200001 4279649313
0.081447616 0.032070175 0.34300002 4279648029
0.082561679 0.032070175 0.34300002 4280239653
0.064736649 0.033184614 0.34300002 4280702514
0.065850712 0.033184614 0.34300002 4280572211
0.066964775 0.033184614 0.34300002 4280769590
0.069192901 0.033184614 0.34300002 4279258916
0.070306972 0.033184614 0.34300002 4279851055
0.071212806 0.033087865 0.34200001 4282218833
0.072323628 0.033087865 0.34200001 4279127845
0.073434442 0.033087865 0.34200001 4279062052
0.074545257 0.033087865 0.34200001 4278929951
0.075656079 0.033087865 0.34200001 4278863388
0.076766886 0.033087865 0.34200001 4278994459
0.077877708 0.033087865 0.34200001 4278862873
0.078988522 0.033087865 0.34200001 4278862873
0.080099337 0.033087865 0.34200001 4278862873
0.081447616 0.033184614 0.34300002 4278928152
0.082561679 0.033184614 0.34300002 4279256347
0.083675742 0.033184614 0.34300002 4279124763
0.084789813 0.033184614 0.34300002 4279124763
0.086154319 0.033281364 0.34400001 4279453217
0.087271631 0.033281364 0.34400001 4279452447
0.088388942 0.033281364 0.34400001 4279648543
0.089506261 0.033281364 0.34400001 4279516957
0.061573446 0.034399055 0.34400001 4281684278
0.063622586 0.034299057 0.34300002 4280768305
0.064736649 0.034299057 0.34300002 4280703284
0.065850712 0.034299057 0.34300002 4280834870
0.066964775 0.034299057 0.34300002 4280703284
0.068078846 0.034299057 0.34300002 4280769590
0.069192901 0.034299057 0.34300002 4280704567
0.070306972 0.034299057 0.34300002 4280837178
0.071421035 0.034299057 0.34300002 4278929179
0.072535105 0.034299057 0.34300002 4278930462
0.073649161 0.034299057 0.34300002 4278996255
0.074545257 0.034199059 0.34200001 4279062048
0.075656079 0.034199059 0.34200001 4279062048
0.076766886 0.034199059 0.34200001 4278995742
0.077877708 0.034199059 0.34200001 4278929949
0.078988522 0.034199059 0.34200001 4278798363
0.080333553 0.034299057 0.34300002 4278732572
0.081447616 0.034299057 0.34300002 4278863386
0.082561679 0.034299057 0.34300002 4278929179
0.083675742 0.034299057 0.34300002 4278731800
0.084789813 0.034299057 0.34300002 4278863386
0.086154319 0.034399055 0.34400001 4278731800
0.087017938 0.034299057 0.34300002 4278665494
0.088132001 0.034299057 0.34300002 4278664980
0.089246072 0.034299057 0.34300002 4278862359
0.090360135 0.034299057 0.34300002 4278993177
0.099216014 0.033899069 0.33900002 4279844391
0.10031709 0.033899069 0.33900002 4279974955
0.063622586 0.0354135 0.34300002 4280637491
0.064736649 0.0354135 0.34300002 4280834870
0.065850712 0.0354135 0.34300002 4280966456
0.066964775 0.0354135 0.34300002 4280835383
0.068078846 0.0354135 0.34300002 4280901176
0.069192901 0.0354135 0.34300002 4280966456
0.070306972 0.0354135 0.34300002 4280506418
0.071421035 0.0354135 0.34300002 4280375600
0.072535105 0.0354135 0.34300002 4279915563
0.073649161 0.0354135 0.34300002 4279521318
0.074763231 0.0354135 0.34300002 4279389732
0.075877294 0.0354135 0.34300002 4279390502
0.076991357 0.0354135 0.34300002 4278732570
0.07810542 0.0354135 0.34300002 4278798363
0.07921949 0.0354135 0.34300002 4278535191
0.080333553 0.0354135 0.34300002 4279061535
0.081447616 0.0354135 0.34300002 4278929949
0.082561679 0.0354135 0.34300002 4279126558
0.083675742 0.0354135 0.34300002 4279061535
0.084789813 0.0354135 0.34300002 4278798363
0.085903868 0.0354135 0.34300002 4278600984
0.087017938 0.0354135 0.34300002 4278732570
0.088132001 0.0354135 0.34300002 4278732570
0.089246072 0.0354135 0.34300002 4278929949
0.09009669 0.03531025 0.34200001 4278863386
0.091207512 0.03531025 0.34200001 4278665494
0.092048392 0.035207007 0.34100002 4278993945
0.09315595 0.035207007 0.34100002 4278862361
0.093987085 0.035103757 0.34 4278993177
0.09509141 0.035103757 0.34 4278927384
0.096195728 0.035103757 0.34 4279058457
0.097013876 0.035000514 0.33900002 4278992664
0.098114952 0.035000514 0.33900002 4278861078
0.099216014 0.035000514 0.33900002 4279255068
0.10002118 0.034897268 0.33800003 4279386141
0.10081983 0.034794021 0.33700001 4279450910
0.10161199 0.034690775 0.33600003 4279647775
0.10270333 0.034690775 0.33600003 4279713570
0.06492538 0.036634434 0.34400001 4281031995
0.066042691 0.036634434 0.34400001 4280900922
0.066964775 0.036527943 0.34300002 4281163835
0.068078846 0.036527943 0.34300002 4280966456
0.069192901 0.036527943 0.34300002 4280834870
0.070306972 0.036527943 0.34300002 4280703284
0.071421035 0.036527943 0.34300002 4280571698
0.072535105 0.036527943 0.34300002 4280440110
0.073649161 0.036527943 0.34300002 4280440623
0.074763231 0.036527943 0.34300002 4280309037
0.075877294 0.036527943 0.34300002 4280178221
0.076991357 0.036527943 0.34300002 4279783975
0.07810542 0.036527943 0.34300002 4280047147
0.07921949 0.036527943 0.34300002 4279849768
0.080333553 0.036527943 0.34300002 4279718182
0.081447616 0.036527943 0.34300002 4279587111
0.082561679 0.036527943 0.34300002 4279521316
0.083675742 0.036527943 0.34300002 4279192351
0.084789813 0.036527943 0.34300002 4278798363
0.085903868 0.036527943 0.34300002 4278798363
0.087017938 0.036527943 0.34300002 4278798363
0.088132001 0.036527943 0.34300002 4278798363
0.089246072 0.036527943 0.34300002 4278798363
0.09009669 0.036421444 0.34200001 4278798365
0.091207512 0.036421444 0.34200001 4278732572
0.092048392 0.036314949 0.34100002 4278862875
0.09315595 0.036314949 0.34100002 4278731289
0.093987085 0.036208451 0.34 4278862873
0.09509141 0.036208451 0.34 4278731287
0.096195728 0.036208451 0.34 4278731287
0.097013876 0.03610196 0.33900002 4278862873
0.098114952 0.03610196 0.33900002 4278664980
0.099216014 0.03610196 0.33900002 4278599187
0.10002118 0.035995465 0.33800003 4278795796
0.10081983 0.035888966 0.33700001 4278795796
0.10161199 0.035782471 0.33600003 4278860306
0.10239765 0.035675976 0.33500001 4278991894
0.10286791 0.035462983 0.333 4279320346
0.10394949 0.035462983 0.333 4279320346
0.10471567 0.035356492 0.33200002 4279517727
0.10547535 0.035249997 0.33100003 4279516703
0.10655044 0.035249997 0.33100003 4279647775
0.10762553 0.035249997 0.33100003 4279976481
0.10902902 0.035356492 0.33200002 4279844125
0.066042691 0.037752125 0.34400001 4281097788
0.067160003 0.037752125 0.34400001 4281098042
0.068277322 0.037752125 0.34400001 4280900663
0.069394633 0.037752125 0.34400001 4280637491
0.070511945 0.037752125 0.34400001 4280571698
0.071421035 0.037642382 0.34300002 4280703284
0.072535105 0.037642382 0.34300002 4280637489
0.073649161 0.037642382 0.34300002 4280571696
0.074763231 0.037642382 0.34300002 4280374319
0.075877294 0.037642382 0.34300002 4280176940
0.076991357 0.037642382 0.34300002 4280374317
0.07810542 0.037642382 0.34300002 4280176938
0.07921949 0.037642382 0.34300002 4280242729
0.080333553 0.037642382 0.34300002 4280111145
0.081447616 0.037642382 0.34300002 4279650594
0.082802385 0.037752125 0.34400001 4279716387
0.083919697 0.037752125 0.34400001 4280177449
0.084789813 0.037642382 0.34300002 4279915047
0.085903868 0.037642382 0.34300002 4280047147
0.087017938 0.037642382 0.34300002 4279718184
0.088132001 0.037642382 0.34300002 4279783977
0.089246072 0.037642382 0.34300002 4279191838
0.09009669 0.037532635 0.34200001 4279257631
0.091207512 0.037532635 0.34200001 4278862873
0.092048392 0.037422892 0.34100002 4278664982
0.09315595 0.037422892 0.34100002 4278862875
0.093987085 0.037313148 0.34 4278994461
0.09509141 0.037313148 0.34 4279191838
0.096195728 0.037313148 0.34 4279126045
0.097300053 0.037313148 0.34 4278862873
0.098114952 0.037203405 0.33900002 4278731287
0.099216014 0.037203405 0.33900002 4278797080
0.10002118 0.037093662 0.33800003 4278731287
0.10081983 0.036983915 0.33700001 4278862359
0.10161199 0.036874171 0.33600003 4278928152
0.10270333 0.036874171 0.33600003 4278993945
0.10317682 0.036654681 0.33400002 4278993175
0.10394949 0.036544934 0.333 4278927382
0.10471567 0.036435191 0.33200002 4278927382
0.10579401 0.036435191 0.33200002 4278795285
0.10687234 0.036435191 0.33200002 4278991894
0.10827583 0.036544934 0.333 4278991894
0.10935742 0.036544934 0.333 4279123480
0.11010735 0.036435191 0.33200002 4279320346
0.11152058 0.036544934 0.333 4279582750
0.1136166 0.036874171 0.33600003 4279582750
0.11504932 0.036983915 0.33700001 4279647516
0.1161439 0.036983915 0.33700001 4279844125
0.11758637 0.037093662 0.33800003 4280171289
0.1186842 0.037093662 0.33800003 4280302362
0.11978202 0.037093662 0.33800003 4279972631
0.068277322 0.038869817 0.34400001 4280834100
0.069394633 0.038869817 0.34400001 4280834100
0.070511945 0.038869817 0.34400001 4280703284
0.071629256 0.038869817 0.34400001 4280703284
0.072535105 0.038756825 0.34300002 4280571698
0.073649161 0.038756825 0.34300002 4280440110
0.074763231 0.038756825 0.34300002 4280176938
0.075877294 0.038756825 0.34300002 4280242731
0.076991357 0.038756825 0.34300002 4280176938
0.078333132 0.038869817 0.34400001 4280111145
0.079450443 0.038869817 0.34400001 4280111145
0.080567755 0.038869817 0.34400001 4279847203
0.081685066 0.038869817 0.34400001 4279647264
0.082802385 0.038869817 0.34400001 4280238629
0.083919697 0.038869817 0.34400001 4280438827
0.085037008 0.038869817 0.34400001 4280176168
0.086154319 0.038869817 0.34400001 4280111145
0.087017938 0.038756825 0.34300002 4280768305
0.088132001 0.038756825 0.34300002 4280176938
0.089246072 0.038756825 0.34300002 4280242729
0.09009669 0.03864383 0.34200001 4280242729
0.091207512 0.03864383 0.34200001 4279519006
0.092318326 0.03864383 0.34200001 4279980072
0.09315595 0.038530838 0.34100002 4280309037
0.094263524 0.038530838 0.34100002 4279914279
0.095371097 0.038530838 0.34100002 4280374828
0.096478663 0.038530838 0.34100002 4279059738
0.097300053 0.038417842 0.34 4279059738
0.098404378 0.038417842 0.34 4279125531
0.099216014 0.03830485 0.33900002 4279126045
0.10031709 0.03830485 0.33900002 4278928666
0.101119 0.038191859 0.33800003 4278994459
0.10191441 0.038078863 0.33700001 4279257631
0.10270333 0.037965868 0.33600003 4279323424
0.10348573 0.037852872 0.33500001 4278862873
0.10457382 0.037852872 0.33500001 4278862359
0.10534649 0.03773988 0.33400002 4278862359
0.10611266 0.037626885 0.333 4278862359
0.10751615 0.03773988 0.33400002 4278796566
0.10860099 0.03773988 0.33400002 4278730003
0.10968582 0.03773988 0.33400002 4278795796
0.11010735 0.037513893 0.33200002 4279058968
0.11352996 0.03830485 0.33900002 4278927384
0.1142929 0.038191859 0.33800003 4278795285
0.11539072 0.038191859 0.33800003 4278794002
0.11648855 0.038191859 0.33800003 4279057174
0.11758637 0.038191859 0.33800003 4279451930
0.1186842 0.038191859 0.33800003 4279451160
0.11978202 0.038191859 0.33800003 4279648025
0.12087984 0.038191859 0.33800003 4279779098
0.12197766 0.038191859 0.33800003 4279713305
0.12307549 0.038191859 0.33800003 4279779100
0.12417332 0.038191859 0.33800003 4280304161
0.069394633 0.039987508 0.34400001 4281358393
0.070511945 0.039987508 0.34400001 4280964149
0.071629256 0.039987508 0.34400001 4281030712
0.072535105 0.039871268 0.34300002 4280636721
0.073649161 0.039871268 0.34300002 4280242733
0.074763231 0.039871268 0.34300002 4280045352
0.075877294 0.039871268 0.34300002 4279913766
0.077215821 0.039987508 0.34400001 4280045354
0.078333132 0.039987508 0.34400001 4279716389
0.079450443 0.039987508 0.34400001 4280241963
0.080567755 0.039987508 0.34400001 4279120920
0.081685066 0.039987508 0.34400001 4280107043
0.082802385 0.039987508 0.34400001 4281094962
0.083919697 0.039987508 0.34400001 4280569643
0.085037008 0.039987508 0.34400001 4279450396
0.086154319 0.039987508 0.34400001 4279250453
0.087271631 0.039987508 0.34400001 4279381525
0.088132001 0.039871268 0.34300002 4278920720
0.089246072 0.039871268 0.34300002 4278855181
0.090360135 0.039871268 0.34300002 4279579416
0.091207512 0.03975502 0.34200001 4280238116
0.092318326 0.03975502 0.34200001 4280634924
0.093429133 0.03975502 0.34200001 4280569645
0.094539955 0.03975502 0.34200001 4280111145
0.09565077 0.03975502 0.34200001 4280242729
0.096478663 0.03963878 0.34100002 4280374315
0.097586237 0.03963878 0.34100002 4279979557
0.098693803 0.03963878 0.34100002 4280505901
0.099508688 0.039522536 0.34 4280045863
0.10061301 0.039522536 0.34 4279717668
0.10141817 0.039406296 0.33900002 4279586082
0.10251924 0.039406296 0.33900002 4279388703
0.10331465 0.039290052 0.33800003 4279125531
0.10410357 0.039173808 0.33700001 4278664982
0.10519814 0.039173808 0.33700001 4278928154
0.10566189 0.038941324 0.33500001 4279059738
0.10674997 0.038941324 0.33500001 4279322910
0.10815997 0.039057568 0.33600003 4279322910
0.10925129 0.039057568 0.33600003 4279388703
0.11067102 0.039173808 0.33700001 4279190554
0.1124289 0.039406296 0.33900002 4279124763
0.11386485 0.039522536 0.34 4279058970
0.11463103 0.039406296 0.33900002 4278993177
0.11573211 0.039406296 0.33900002 4279190043
0.11683318 0.039406296 0.33900002 4279058457
0.11793426 0.039406296 0.33900002 4278861078
0.11903533 0.039406296 0.33900002 4278861078
0.1201364 0.039406296 0.33900002 4278992146
0.12123747 0.039406296 0.33900002 4278465289
0.12233854 0.039406296 0.33900002 4279057172
0.12343962 0.039406296 0.33900002 4279188758
0.12454069 0.039406296 0.33900002 4279320344
0.12564176 0.039406296 0.33900002 4279254551
0.12711671 0.039522536 0.34 4279582234
0.12822104 0.039522536 0.34 4279713822
0.12970571 0.03963878 0.34100002 4280107297
0.13081329 0.03963878 0.34100002 4280172577
0.13192086 0.03963878 0.34100002 4280105246
0.13341853 0.03975502 0.34200001 4280038940
0.13452935 0.03975502 0.34200001 4281354030
0.13564017 0.03975502 0.34200001 4282275134
0.072535105 0.040985707 0.34300002 4281357630
0.073649161 0.040985707 0.34300002 4280305192
0.074763231 0.040985707 0.34300002 4279779615
0.076098509 0.0411052 0.34400001 4280109864
0.077215821 0.0411052 0.34400001 4280110123
0.078333132 0.0411052 0.34400001 4279517473
0.079450443 0.0411052 0.34400001 4279778850
0.080567755 0.0411052 0.34400001 4279778080
0.081685066 0.0411052 0.34400001 4280173606
0.082802385 0.0411052 0.34400001 4280240426
0.083919697 0.0411052 0.34400001 4279384092
0.085037008 0.0411052 0.34400001 4279381787
0.086154319 0.0411052 0.34400001 4280236069
0.087271631 0.0411052 0.34400001 4279578137
0.088388942 0.0411052 0.34400001 4280762411
0.089506261 0.0411052 0.34400001 4280301862
0.090360135 0.040985707 0.34300002 4280630309
0.091474198 0.040985707 0.34300002 4279774487
0.092588268 0.040985707 0.34300002 4279906332
0.093702324 0.040985707 0.34300002 4279380758
0.094816387 0.040985707 0.34300002 4279314965
0.095930457 0.040985707 0.34300002 4279183892
0.09704452 0.040985707 0.34300002 4279447832
0.097872406 0.040866215 0.34200001 4279975457
0.098983228 0.040866215 0.34200001 4281029428
0.10009404 0.040866215 0.34200001 4280701747
0.10090894 0.040746726 0.34100002 4280111147
0.1020165 0.040746726 0.34100002 4280176940
0.10282166 0.04062723 0.34 4280176938
0.10362031 0.040507741 0.33900002 4280242731
0.10472139 0.040507741 0.33900002 4280374830
0.10582246 0.040507741 0.33900002 4280111658
0.1059773 0.040149264 0.33600003 4280965682
0.10674997 0.040029772 0.33500001 4280176166
0.10880377 0.040388249 0.33800003 4280176166
0.11022675 0.040507741 0.33900002 4279649822
0.11132782 0.040507741 0.33900002 4279782180
0.1130922 0.040746726 0.34100002 4279584801
0.11419976 0.040746726 0.34100002 4279519008
0.11496918 0.04062723 0.34 4279453215
0.1160735 0.04062723 0.34 4279519006
0.11717782 0.04062723 0.34 4279321627
0.11828214 0.04062723 0.34 4279321627
0.11938646 0.04062723 0.34 4279321627
0.12049079 0.04062723 0.34 4279058455
0.1215951 0.04062723 0.34 4279124250
0.12269942 0.04062723 0.34 4278861080
0.12380374 0.04062723 0.34 4278861078
0.12490807 0.04062723 0.34 4279255064
0.12601238 0.04062723 0.34 4278991892
0.12711671 0.04062723 0.34 4278991892
0.12859815 0.040746726 0.34100002 4279254551
0.12970571 0.040746726 0.34100002 4279516953
0.13081329 0.040746726 0.34100002 4279187988
0.13230772 0.040866215 0.34200001 4279582750
0.13341853 0.040866215 0.34200001 4279713822
0.13452935 0.040866215 0.34200001 4279778848
0.13564017 0.040866215 0.34200001 4279976227
0.13675098 0.040866215 0.34200001 4280238370
0.1378618 0.040866215 0.34200001 4280499743
0.13897261 0.040866215 0.34200001 4280301081
0.14008343 0.040866215 0.34200001 4280826657
0.077215821 0.042222891 0.34400001 4285367405
0.078333132 0.042222891 0.34400001 4284249694
0.079450443 0.042222891 0.34400001 4281881921
0.080801971 0.042345632 0.34500003 4280895278
0.081922531 0.042345632 0.34500003 4279909664
0.083043091 0.042345632 0.34500003 4280042020
0.084163651 0.042345632 0.34500003 4280436008
0.085284211 0.042345632 0.34500003 4280501290
0.086154319 0.042222891 0.34400001 4280105510
0.087271631 0.042222891 0.34400001 4279513373
0.088388942 0.042222891 0.34400001 4279643932
0.089506261 0.042222891 0.34400001 4279577369
0.090623572 0.042222891 0.34400001 4279379990
0.091740884 0.042222891 0.34400001 4279511576
0.092858203 0.042222891 0.34400001 4280563753
0.093975507 0.042222891 0.34400001 4279576858
0.095092818 0.042222891 0.34400001 4279774235
0.09621013 0.042222891 0.34400001 4280169504
0.097327448 0.042222891 0.34400001 4279972125
0.09815859 0.04210015 0.34300002 4280432676
0.099272653 0.04210015 0.34300002 4279708955
0.10038671 0.04210015 0.34300002 4279446555
0.10150078 0.04210015 0.34300002 4280569393
0.10231567 0.041977406 0.34200001 4279978024
0.10342649 0.041977406 0.34200001 4279187738
0.10423165 0.041854668 0.34100002 4279385117
0.10533921 0.041854668 0.34100002 4279977254
0.10644679 0.041854668 0.34100002 4280898610
0.10818516 0.04210015 0.34300002 4280767020
0.10929923 0.04210015 0.34300002 4280898606
0.10976949 0.041854668 0.34100002 4280767020
0.11087705 0.041854668 0.34100002 4280767022
0.11198463 0.041854668 0.34100002 4280570413
0.11342384 0.041977406 0.34200001 4280373034
0.11453465 0.041977406 0.34200001 4280373034
0.11564547 0.041977406 0.34200001 4280109862
0.11675628 0.041977406 0.34200001 4279912994
0.1178671 0.041977406 0.34200001 4279584029
0.11897792 0.041977406 0.34200001 4279650594
0.1197376 0.041854668 0.34100002 4279716387
0.12084518 0.041854668 0.34100002 4279584801
0.12195273 0.041854668 0.34100002 4279651109
0.12306031 0.041854668 0.34100002 4279257121
0.12416787 0.041854668 0.34100002 4279454500
0.12527545 0.041854668 0.34100002 4279650596
0.12638302 0.041854668 0.34100002 4279255836
0.12749058 0.041854668 0.34100002 4279058455
0.12859815 0.041854668 0.34100002 4279124248
0.13008608 0.041977406 0.34200001 4279123478
0.1311969 0.041977406 0.34200001 4278991894
0.13230772 0.041977406 0.34200001 4278926101
0.13341853 0.041977406 0.34200001 4279123482
0.13452935 0.041977406 0.34200001 4279123482
0.13564017 0.041977406 0.34200001 4278991896
0.13675098 0.041977406 0.34200001 4279451160
0.13826491 0.04210015 0.34300002 4279779865
0.13937898 0.04210015 0.34300002 4279779352
0.14049304 0.04210015 0.34300002 4279778328
0.14160711 0.04210015 0.34300002 4280040989
0.080801971 0.043466575 0.34500003 4285037673
0.081922531 0.043466575 0.34500003 4285103979
0.083043091 0.043466575 0.34500003 4284906854
0.084163651 0.043466575 0.34500003 4284907624
0.085284211 0.043466575 0.34500003 4284381026
0.086404771 0.043466575 0.34500003 4282473029
0.08752533 0.043466575 0.34500003 4280894510
0.08864589 0.043466575 0.34500003 4280566313
0.089506261 0.043340582 0.34400001 4280302627
0.090623572 0.043340582 0.34400001 4280697385
0.091740884 0.043340582 0.34400001 4280566313
0.092858203 0.043340582 0.34400001 4280368680
0.093975507 0.043340582 0.34400001 4279776029
0.095092818 0.043340582 0.34400001 4279183381
0.09621013 0.043340582 0.34400001 4279051025
0.097327448 0.043340582 0.34400001 4279577367
0.09844476 0.043340582 0.34400001 4279445781
0.099562079 0.043340582 0.34400001 4279709725
0.10067938 0.043340582 0.34400001 4280369963
0.10179669 0.043340582 0.34400001 4280503600
0.10261484 0.043214593 0.34300002 4280240428
0.10372891 0.043214593 0.34300002 4279251736
0.10453731 0.043088604 0.34200001 4279514141
0.10595704 0.043214593 0.34300002 4279580188
0.10707111 0.043214593 0.34300002 4281225524
0.10850057 0.043340582 0.34400001 4281160501
0.10961788 0.043340582 0.34400001 4281094710
0.1104133 0.043214593 0.34300002 4280173860
0.11152736 0.043214593 0.34300002 4279976481
0.11264143 0.043214593 0.34300002 4280108067
0.11408714 0.043340582 0.34400001 4280569129
0.11520445 0.043340582 0.34400001 4281030194
0.11598361 0.043214593 0.34300002 4280767020
0.11709768 0.043214593 0.34300002 4280570411
0.11821175 0.043214593 0.34300002 4280438825
0.11932582 0.043214593 0.34300002 4280636204
0.12043988 0.043214593 0.34300002 4280373032
0.12119956 0.043088604 0.34200001 4280175653
0.12231036 0.043088604 0.34200001 4280045354
0.12342118 0.043088604 0.34200001 4279849258
0.124532 0.043088604 0.34200001 4279520293
0.12564282 0.043088604 0.34200001 4279453730
0.12675364 0.043088604 0.34200001 4279519523
0.12786445 0.043088604 0.34200001 4279651109
0.12897527 0.043088604 0.34200001 4279519523
0.13008608 0.043088604 0.34200001 4279519523
0.1311969 0.043088604 0.34200001 4279453730
0.13269459 0.043214593 0.34300002 4279519521
0.13380866 0.043214593 0.34300002 4279124250
0.13492273 0.043214593 0.34300002 4279124250
0.13603678 0.043214593 0.34300002 4278992664
0.13715084 0.043214593 0.34300002 4279385621
0.13826491 0.043214593 0.34300002 4279188242
0.13937898 0.043214593 0.34300002 4279188242
0.14049304 0.043214593 0.34300002 4279319828
0.14160711 0.043214593 0.34300002 4279385621
0.14272118 0.043214593 0.34300002 4279451160
0.085284211 0.044587512 0.34500003 4284642917
0.086404771 0.044587512 0.34500003 4284511844
0.08752533 0.044587512 0.34500003 4284051293
0.08864589 0.044587512 0.34500003 4284051291
0.089766458 0.044587512 0.34500003 4284116825
0.090887018 0.044587512 0.34500003 4284182877
0.092007577 0.044587512 0.34500003 4280236582
0.093128145 0.044587512 0.34500003 4280303659
0.094248697 0.044587512 0.34500003 4280172071
0.095369257 0.044587512 0.34500003 4279581217
0.096489817 0.044587512 0.34500003 4279975975
0.097610384 0.044587512 0.34500003 4279975205
0.098730944 0.044587512 0.34500003 4280304170
0.099851504 0.044587512 0.34500003 4279844389
0.10097206 0.044587512 0.34500003 4279450398
0.10179669 0.04445827 0.34400001 4279385119
0.10291401 0.04445827 0.34400001 4279647010
0.10403132 0.04445827 0.34400001 4279710238
0.10484298 0.044329032 0.34300002 4279907104
0.10626595 0.04445827 0.34400001 4280960557
0.10738327 0.04445827 0.34400001 4281225526
0.10881598 0.044587512 0.34500003 4280238631
0.10993654 0.044587512 0.34500003 4281028147
0.11073519 0.04445827 0.34400001 4281029430
0.11185251 0.04445827 0.34400001 4279910947
0.11296982 0.04445827 0.34400001 4280831020
0.11441879 0.044587512 0.34500003 4280765227
0.11553934 0.044587512 0.34500003 4280963376
0.11665991 0.044587512 0.34500003 4280897583
0.11743907 0.04445827 0.34400001 4280765995
0.11855639 0.04445827 0.34400001 4280108065
0.1196737 0.04445827 0.34400001 4280108067
0.12079101 0.04445827 0.34400001 4280108067
0.12190833 0.04445827 0.34400001 4280700204
0.12266801 0.044329032 0.34300002 4280700717
0.12378207 0.044329032 0.34300002 4280570161
0.12489614 0.044329032 0.34300002 4280504881
0.12601019 0.044329032 0.34300002 4280504881
0.12712426 0.044329032 0.34300002 4280373295
0.12823834 0.044329032 0.34300002 4280241709
0.12935241 0.044329032 0.34300002 4280176686
0.13046646 0.044329032 0.34300002 4279716902
0.13158052 0.044329032 0.34300002 4279453730
0.13269459 0.044329032 0.34300002 4279585316
0.13380866 0.044329032 0.34300002 4279453730
0.13492273 0.044329032 0.34300002 4279453217
0.13603678 0.044329032 0.34300002 4279453217
0.13715084 0.044329032 0.34300002 4279650592
0.13826491 0.044329032 0.34300002 4279584799
0.13937898 0.044329032 0.34300002 4279386650
0.14049304 0.044329032 0.34300002 4279452697
0.14160711 0.044329032 0.34300002 4279254551
0.14272118 0.044329032 0.34300002 4279254551
0.14425458 0.04445827 0.34400001 4279319574
0.097610384 0.045708455 0.34500003 4279907879
0.098730944 0.045708455 0.34500003 4279974696
0.099851504 0.045708455 0.34500003 4280106795
0.10097206 0.045708455 0.34500003 4279844393
0.10209262 0.045708455 0.34500003 4280108078
0.10321318 0.045708455 0.34500003 4279910697
0.10403132 0.045575965 0.34400001 4280369450
0.10514864 0.045575965 0.34400001 4280040485
0.10626595 0.045575965 0.34400001 4280238629
0.10738327 0.045575965 0.34400001 4280107043
0.10881598 0.045708455 0.34500003 4279976227
0.10993654 0.045708455 0.34500003 4280436778
0.1110571 0.045708455 0.34500003 4280634157
0.11217767 0.045708455 0.34500003 4281226294
0.11329823 0.045708455 0.34500003 4281092909
0.11475044 0.045840941 0.34600002 4281224495
0.11553934 0.045708455 0.34500003 4280896046
0.11665991 0.045708455 0.34500003 4280698667
0.11778047 0.045708455 0.34500003 4281093677
0.11890103 0.045708455 0.34500003 4280962091
0.1200216 0.045708455 0.34500003 4280435749
0.12114216 0.045708455 0.34500003 4281488950
0.12190833 0.045575965 0.34400001 4281160755
0.12302563 0.045575965 0.34400001 4281423927
0.12414294 0.045575965 0.34400001 4281094192
0.12526026 0.045575965 0.34400001 4281094192
0.12637757 0.045575965 0.34400001 4279975711
0.12749489 0.045575965 0.34400001 4280567846
0.12861221 0.045575965 0.34400001 4280569129
0.12972951 0.045575965 0.34400001 4281292852
0.13084681 0.045575965 0.34400001 4280438825
0.13196413 0.045575965 0.34400001 4280570413
0.13308145 0.045575965 0.34400001 4280110377
0.13380866 0.045443479 0.34300002 4280505135
0.13492273 0.045443479 0.34300002 4280307243
0.13603678 0.045443479 0.34300002 4279912483
0.13715084 0.045443479 0.34300002 4279649311
0.13826491 0.045443479 0.34300002 4279584029
0.13937898 0.045443479 0.34300002 4279584029
0.14090264 0.045575965 0.34400001 4279781408
0.14201996 0.045575965 0.34400001 4279846688
0.14313726 0.045575965 0.34400001 4279320344
0.14425458 0.045575965 0.34400001 4279254551
0.11137901 0.04696513 0.34600002 4280633389
0.11250281 0.04696513 0.34600002 4280764460
0.11362663 0.04696513 0.34600002 4281487667
0.11475044 0.04696513 0.34600002 4281618739
0.11587424 0.04696513 0.34600002 4281684532
0.11699805 0.04696513 0.34600002 4280895016
0.11812185 0.04696513 0.34600002 4281420593
0.11924567 0.04696513 0.34600002 4282013243
0.1200216 0.046829391 0.34500003 4281355315
0.12114216 0.046829391 0.34500003 4281553206
0.12226272 0.046829391 0.34500003 4281093679
0.12338327 0.046829391 0.34500003 4280962093
0.12450383 0.046829391 0.34500003 4281224493
0.12526026 0.046693653 0.34400001 4280171805
0.12637757 0.046693653 0.34400001 4281356849
0.12749489 0.046693653 0.34400001 4281093677
0.12861221 0.046693653 0.34400001 4281159472
0.12972951 0.046693653 0.34400001 4281751609
0.13084681 0.046693653 0.34400001 4281489718
0.13196413 0.046693653 0.34400001 4280963374
0.13308145 0.046693653 0.34400001 4280633641
0.13419876 0.046693653 0.34400001 4279975711
0.13531607 0.046693653 0.34400001 4281226548
0.13643339 0.046693653 0.34400001 4281160755
0.13715084 0.046557918 0.34300002 4280963376
0.13866802 0.046693653 0.34400001 4280898094
0.13978532 0.046693653 0.34400001 4280700713
0.14090264 0.046693653 0.34400001 4280700713
0.14201996 0.046693653 0.34400001 4280634920
0.14313726 0.046693653 0.34400001 4280503334
0.14425458 0.046693653 0.34400001 4280437543
0.11137901 0.048089322 0.34600002 4284773217
0.11250281 0.048089322 0.34600002 4284773469
0.11362663 0.048089322 0.34600002 4285760105
0.11475044 0.048089322 0.34600002 4285300581
0.11587424 0.048089322 0.34600002 4284642397
0.11699805 0.048089322 0.34600002 4283523916
0.11812185 0.048089322 0.34600002 4282866240
0.11924567 0.048089322 0.34600002 4282867010
0.12036948 0.048089322 0.34600002 4281748788
0.12149329 0.048089322 0.34600002 4282275902
0.12226272 0.047950335 0.34500003 4281881657
0.12338327 0.047950335 0.34500003 4281618485
0.12450383 0.047950335 0.34500003 4280565797
0.12562439 0.047950335 0.34500003 4281290034
0.12674496 0.047950335 0.34500003 4281487667
0.12786552 0.047950335 0.34500003 4281618739
0.12898608 0.047950335 0.34500003 4280763176
0.12972951 0.047811348 0.34400001 4282013757
0.13084681 0.047811348 0.34400001 4281488950
0.13196413 0.047811348 0.34400001 4279711772
0.13308145 0.047811348 0.34400001 4281355567
0.13419876 0.047811348 0.34400001 4281356851
0.13531607 0.047811348 0.34400001 4281554741
0.13643339 0.047811348 0.34400001 4281686327
0.1375507 0.047811348 0.34400001 4281686327
0.13866802 0.047811348 0.34400001 4281554741
0.13978532 0.047811348 0.34400001 4281358132
0.14090264 0.047811348 0.34400001 4281490231
0.14201996 0.047811348 0.34400001 4281819198
0.14313726 0.047811348 0.34400001 4281752892
0.14425458 0.047811348 0.34400001 4282868293
0.12149329 0.049213514 0.34600002 4285365606
0.1226171 0.049213514 0.34600002 4285169511
0.1237409 0.049213514 0.34600002 4285104233
0.1248647 0.049213514 0.34600002 4284643680
0.12598851 0.049213514 0.34600002 4283261514
0.12674496 0.049071278 0.34500003 4283195721
0.12786552 0.049071278 0.34500003 4282932549
0.12898608 0.049071278 0.34500003 4281354030
0.13010664 0.049071278 0.34500003 4281617456
0.1312272 0.049071278 0.34500003 4281288491
0.13234776 0.049071278 0.34500003 4282275902
0.13346832 0.049071278 0.34500003 4282013497
0.13458888 0.049071278 0.34500003 4281750839
0.13570945 0.049071278 0.34500003 4281488948
0.13603678 0.048786808 0.34300002 4281620534
0.13715084 0.048786808 0.34300002 4281883193
0.13866802 0.048929039 0.34400001 4281751607
0.13978532 0.048929039 0.34400001 4282211388
0.14090264 0.048929039 0.34400001 4282211388
0.14201996 0.048929039 0.34400001 4282867269
0.14313726 0.048929039 0.34400001 4284576606
0.13158052 0.049901247 0.34300002 4285957743
0.13269459 0.049901247 0.34300002 4284840028
0.13380866 0.049901247 0.34300002 4283195973
0.13492273 0.049901247 0.34300002 4283393352
0.13603678 0.049901247 0.34300002 4282341179
0.13715084 0.049901247 0.34300002 4282801728
0.13826491 0.049901247 0.34300002 4283261766
0.13269459 0.05101569 0.34300002 4285824622
0.13380866 0.05101569 0.34300002 4285824622
0.13492273 0.05101569 0.34300002 4285759853
0.13603678 0.05101569 0.34300002 4285694060
0.13715084 0.05101569 0.34300002 4285825644
0.13826491 0.05101569 0.34300002 4285957484
0.10256803 0.04022985 0.34230101 4294967295
0.10256803 0.04022985 0.34230101 4294901760
0.10256803 0.04022985 0.342801 4294901760
0.10256803 0.04022985 0.343301 4294901760
0.10256803 0.04022985 0.34380102 4294901760
0.10256803 0.04022985 0.34430102 4294901760
0.10256803 0.04022985 0.34480101 4294901760
0.10256803 0.04022985 0.345301 4294901760
0.10256803 0.04022985 0.34580103 4294901760
0.10256803 0.04022985 0.34630102 4294901760
0.10256803 0.04022985 0.34680101 4294901760
0.10256803 0.04022985 0.34730101 4294901760
0.10256803 0.04022985 0.347801 4294901760
0.10256803 0.04022985 0.34830102 4294901760
0.10256803 0.04022985 0.34880102 4294901760
0.10256803 0.04022985 0.34930101 4294901760
0.10256803 0.04022985 0.349801 4294901760
0.10256803 0.04022985 0.35030103 4294901760
0.10256803 0.04022985 0.35080102 4294901760
0.10256803 0.04022985 0.35130101 4294901760
0.10256803 0.04022985 0.35180101 4294901760
0.10256803 0.04022985 0.352301 4294901760
0.10256803 0.04022985 0.35280102 4294901760
0.10256803 0.04022985 0.35330102 4294901760
0.10256803 0.04022985 0.35380101 4294901760
0.10256803 0.04022985 0.35430101 4294901760
0.10256803 0.04022985 0.354801 4294901760
0.10256803 0.04022985 0.35530102 4294901760
0.10256803 0.04022985 0.35580102 4294901760
0.10256803 0.04022985 0.35630101 4294901760
0.10256803 0.04022985 0.356801 4294901760
0.10256803 0.04022985 0.35730103 4294901760
0.10256803 0.04022985 0.35780102 4294901760
0.10256803 0.04022985 0.35830101 4294901760
0.10256803 0.04022985 0.35880101 4294901760
0.10256803 0.04022985 0.35930103 4294901760
0.10256803 0.04022985 0.35980102 4294901760
0.10256803 0.04022985 0.36030102 4294901760
0.10256803 0.04022985 0.36080101 4294901760
0.10256803 0.04022985 0.361301 4294901760
0.10256803 0.04022985 0.36180103 4294901760
0.10256803 0.04022985 0.36230102 4294901760
0.10256803 0.04022985 0.36280102 4294901760
0.10256803 0.04022985 0.36330101 4294901760
0.10256803 0.04022985 0.363801 4294901760
0.10256803 0.04022985 0.36430103 4294901760
0.10256803 0.04022985 0.36480102 4294901760
0.10256803 0.04022985 0.36530101 4294901760
0.10256803 0.04022985 0.36580101 4294901760
0.10256803 0.04022985 0.36630103 4294901760
0.10256803 0.04022985 0.36680102 4294901760
0.10256803 0.04022985 0.36730102 4294901760
0.10256803 0.04022985 0.36780101 4294901760
0.10256803 0.04022985 0.368301 4294901760
0.10256803 0.04022985 0.36880103 4294901760
0.10256803 0.04022985 0.36930102 4294901760
0.10256803 0.04022985 0.36980101 4294901760
0.10256803 0.04022985 0.37030101 4294901760
0.10256803 0.04022985 0.37080103 4294901760
0.10256803 0.04022985 0.37130103 4294901760
0.10256803 0.04022985 0.37180102 4294901760
0.10256803 0.04022985 0.37230101 4294901760
0.10256803 0.04022985 0.37280101 4294901760
0.10256803 0.04022985 0.37330103 4294901760
0.10256803 0.04022985 0.37380102 4294901760
0.10256803 0.04022985 0.37430102 4294901760
0.10256803 0.04022985 0.37480101 4294901760
0.10256803 0.04022985 0.37530103 4294901760
0.10256803 0.04022985 0.37580103 4294901760
0.10256803 0.04022985 0.37630102 4294901760
0.10256803 0.04022985 0.37680101 4294901760
0.10256803 0.04022985 0.37730101 4294901760
0.10256803 0.04022985 0.37780103 4294901760
0.10256803 0.04022985 0.37830102 4294901760
0.10256803 0.04022985 0.37880102 4294901760
0.10256803 0.04022985 0.37930101 4294901760
0.10256803 0.04022985 0.37980103 4294901760
0.10256803 0.04022985 0.38030103 4294901760
0.10256803 0.04022985 0.38080102 4294901760
0.10256803 0.04022985 0.38130102 4294901760
0.10256803 0.04022985 0.38180101 4294901760
0.10256803 0.04022985 0.38230103 4294901760
0.10256803 0.04022985 0.38280103 4294901760
0.10256803 0.04022985 0.38330102 4294901760
0.10256803 0.04022985 0.38380101 4294901760
0.10256803 0.04022985 0.38430101 4294901760
0.10256803 0.04022985 0.38480103 4294901760
0.10256803 0.04022985 0.38530102 4294901760
0.10256803 0.04022985 0.38580102 4294901760
0.10256803 0.04022985 0.38630101 4294901760
0.10256803 0.04022985 0.386801 4294901760
0.10256803 0.04022985 0.38730103 4294901760
0.10256803 0.04022985 0.38780102 4294901760
0.10256803 0.04022985 0.38830101 4294901760
0.10256803 0.04022985 0.38880104 4294901760
0.10256803 0.04022985 0.38930103 4294901760
0.10256803 0.04022985 0.38980103 4294901760
0.10256803 0.04022985 0.39030102 4294901760
0.10256803 0.04022985 0.39080101 4294901760
0.10256803 0.04022985 0.39130104 4294901760
0.10256803 0.04022985 0.39180103 4294901760
0.10256803 0.04022985 0.39230102 4294901760
0.10256803 0.04022985 0.34230101 4278255360
0.10258601 0.040090259 0.3427808 4278255360
0.10260398 0.039950665 0.34326059 4278255360
0.10262196 0.039811075 0.34374034 4278255360
0.10263994 0.039671481 0.34422013 4278255360
0.10265791 0.03953189 0.34469992 4278255360
0.10267588 0.039392296 0.34517971 4278255360
0.10269386 0.039252706 0.34565949 4278255360
0.10271183 0.039113112 0.34613928 4278255360
0.10272981 0.038973521 0.34661904 4278255360
0.10274779 0.038833931 0.34709883 4278255360
0.10276576 0.038694337 0.34757861 4278255360
0.10278374 0.038554747 0.3480584 4278255360
0.10280172 0.038415153 0.34853819 4278255360
0.10281969 0.038275562 0.34901795 4278255360
0.10283767 0.038135968 0.34949774 4278255360
0.10285565 0.037996378 0.34997752 4278255360
0.10287362 0.037856784 0.35045731 4278255360
0.10289159 0.037717193 0.3509371 4278255360
0.10290957 0.037577603 0.35141689 4278255360
0.10292754 0.037438009 0.35189664 4278255360
0.10294552 0.037298419 0.35237643 4278255360
0.1029635 0.037158825 0.35285622 4278255360
0.10298147 0.037019234 0.35333601 4278255360
0.10299945 0.03687964 0.35381579 4278255360
0.10301743 0.03674005 0.35429555 4278255360
0.1030354 0.036600456 0.35477534 4278255360
0.10305338 0.036460865 0.35525513 4278255360
0.10307135 0.036321275 0.35573491 4278255360
0.10308933 0.036181681 0.3562147 4278255360
0.1031073 0.036042091 0.35669449 4278255360
0.10312528 0.035902496 0.35717425 4278255360
0.10314325 0.035762906 0.35765404 4278255360
0.10316123 0.035623312 0.35813382 4278255360
0.10317921 0.035483722 0.35861361 4278255360
0.10319718 0.035344131 0.3590934 4278255360
0.10321516 0.035204537 0.35957319 4278255360
0.10323314 0.035064943 0.36005294 4278255360
0.10325111 0.034925353 0.36053273 4278255360
0.10326909 0.034785762 0.36101252 4278255360
0.10328706 0.034646168 0.36149231 4278255360
0.10330503 0.034506578 0.36197209 4278255360
0.10332301 0.034366984 0.36245185 4278255360
0.10334099 0.034227394 0.36293164 4278255360
0.10335896 0.034087799 0.36341143 4278255360
0.10337694 0.033948209 0.36389121 4278255360
0.10339492 0.033808619 0.364371 4278255360
0.10341289 0.033669025 0.36485079 4278255360
0.10343087 0.033529434 0.36533055 4278255360
0.10344885 0.03338984 0.36581033 4278255360
0.10346682 0.03325025 0.36629012 4278255360
0.10348479 0.033110656 0.36676991 4278255360
0.10350277 0.032971065 0.3672497 4278255360
0.10352075 0.032831475 0.36772946 4278255360
0.10353872 0.032691881 0.36820924 4278255360
0.1035567 0.032552287 0.36868903 4278255360
0.10357468 0.032412697 0.36916882 4278255360
0.10359265 0.032273106 0.36964861 4278255360
0.10361063 0.032133512 0.37012839 4278255360
0.10362861 0.031993922 0.37060815 4278255360
0.10364658 0.031854328 0.37108794 4278255360
0.10366455 0.031714737 0.37156773 4278255360
0.10368253 0.031575143 0.37204751 4278255360
0.1037005 0.031435553 0.3725273 4278255360
0.10371848 0.031295963 0.37300706 4278255360
0.10373646 0.031156369 0.37348685 4278255360
0.10375443 0.031016776 0.37396663 4278255360
0.10377241 0.030877184 0.37444642 4278255360
0.10379039 0.030737594 0.37492621 4278255360
0.10380836 0.030598 0.375406 4278255360
0.10382634 0.030458409 0.37588575 4278255360
0.10384431 0.030318817 0.37636554 4278255360
0.10386229 0.030179225 0.37684533 4278255360
0.10388026 0.030039633 0.37732512 4278255360
0.10389824 0.02990004 0.37780491 4278255360
0.10391621 0.029760448 0.37828469 4278255360
0.10393419 0.029620856 0.37876445 4278255360
0.10395217 0.029481266 0.37924424 4278255360
0.10397014 0.029341673 0.37972403 4278255360
0.10398812 0.029202081 0.38020381 4278255360
0.1040061 0.029062487 0.3806836 4278255360
0.10402407 0.028922897 0.38116336 4278255360
0.10404205 0.028783305 0.38164315 4278255360
0.10406002 0.028643712 0.38212293 4278255360
0.10407799 0.028504122 0.38260272 4278255360
0.10409597 0.028364528 0.38308251 4278255360
0.10411395 0.028224938 0.38356227 4278255360
0.10413192 0.028085344 0.38404205 4278255360
0.1041499 0.027945753 0.38452184 4278255360
0.10416788 0.027806161 0.38500163 4278255360
0.10418585 0.027666569 0.38548142 4278255360
0.10420383 0.027526977 0.3859612 4278255360
0.10422181 0.027387384 0.38644099 4278255360
0.10423978 0.027247792 0.38692075 4278255360
0.10425775 0.0271082 0.38740054 4278255360
0.10427573 0.02696861 0.38788033 4278255360
0.1042937 0.026829015 0.38836011 4278255360
0.10431168 0.026689425 0.3888399 4278255360
0.10432966 0.026549831 0.38931966 4278255360
0.10434763 0.026410241 0.38979945 4278255360
0.10436561 0.026270648 0.39027923 4278255360
