# .PCD v0.7 - Point Cloud Data file format
VERSION 0.7
FIELDS x y z rgb
SIZE 4 4 4 4
TYPE F F F U
COUNT 1 1 1 1
WIDTH 1037
HEIGHT 1
VIEWPOINT 0 0 0 1 0 0 0
POINTS 1037
DATA ascii
0.020404994 0.023793127 0.39000002 4285958777
0.021671716 0.023793127 0.39000002 4285299563
0.022938438 0.023793127 0.39000002 4278389763
0.024205158 0.023793127 0.39000002 4279046664
0.025471877 0.023793127 0.39000002 4279112457
0.026738601 0.023793127 0.39000002 4279177480
0.027933512 0.02373212 0.38900003 4279966992
0.029121926 0.023671111 0.38800001 4279704074
0.030382153 0.023671111 0.38800001 4279638281
0.031560823 0.023610104 0.38700002 4281148695
0.032733001 0.023549095 0.38600001 4281012486
0.033986729 0.023549095 0.38600001 4283635981
0.035149161 0.023488088 0.38500002 4284225548
0.036399644 0.023488088 0.38500002 4284421900
0.037650123 0.023488088 0.38500002 4284422154
0.038900606 0.023488088 0.38500002 4284421900
0.040151086 0.023488088 0.38500002 4284487693
0.041401565 0.023488088 0.38500002 4284093964
0.042652048 0.023488088 0.38500002 4283635981
0.044016559 0.023549095 0.38600001 4282917403
-0.010124458 0.025381563 0.39500001 4286024831
-0.0088414978 0.025381563 0.39500001 4283773739
-0.0075394013 0.025317308 0.39400002 4284558628
-0.0062596882 0.025317308 0.39400002 4283836188
-0.004979976 0.025317308 0.39400002 4286740840
-0.0037002631 0.025317308 0.39400002 4286675561
-0.0024205504 0.025317308 0.39400002 4283245594
-0.0011379421 0.02525305 0.39300001 4282192395
0.00013852259 0.02525305 0.39300001 4281470470
0.0014149873 0.02525305 0.39300001 4286349683
0.0026914517 0.02525305 0.39300001 4282140988
0.0039679166 0.02525305 0.39300001 4281084698
0.0052443813 0.02525305 0.39300001 4281610013
0.0065208455 0.02525305 0.39300001 4284109632
0.0077774702 0.025188792 0.39200002 4279635456
0.0090506868 0.025188792 0.39200002 4280494880
0.010323904 0.025188792 0.39200002 4279836696
0.01159712 0.025188792 0.39200002 4278651652
0.012837506 0.025124537 0.39100003 4281877046
0.014107473 0.025124537 0.39100003 4281087013
0.015377442 0.025124537 0.39100003 4282005541
0.016604833 0.025060279 0.39000002 4285491787
0.017871555 0.025060279 0.39000002 4281149199
0.019138277 0.025060279 0.39000002 4280230934
0.020404994 0.025060279 0.39000002 4281022505
0.021671716 0.025060279 0.39000002 4283654736
0.022938438 0.025060279 0.39000002 4279772438
0.024205158 0.025060279 0.39000002 4281152040
0.025471877 0.025060279 0.39000002 4278849285
0.026738601 0.025060279 0.39000002 4279046410
0.027933512 0.024996022 0.38900003 4279704594
0.029196983 0.024996022 0.38900003 4279704074
0.030382153 0.024931764 0.38800001 4279506438
0.031560823 0.024867509 0.38700002 4280293386
0.032733001 0.024803249 0.38600001 4281211146
0.033898681 0.024738993 0.38500002 4282979081
0.035149161 0.024738993 0.38500002 4283635468
0.036399644 0.024738993 0.38500002 4284225550
0.037650123 0.024738993 0.38500002 4284422159
0.038900606 0.024738993 0.38500002 4284356366
0.040151086 0.024738993 0.38500002 4283963148
0.041401565 0.024738993 0.38500002 4283109897
0.042652048 0.024738993 0.38500002 4282717194
0.043902528 0.024738993 0.38500002 4282590235
-0.01137854 0.026597453 0.39400002 4285301362
-0.010098826 0.026597453 0.39400002 4283587149
-0.0088191144 0.026597453 0.39400002 4285220408
-0.0075394013 0.026597453 0.39400002 4285216295
-0.0062596882 0.026597453 0.39400002 4285476900
-0.004979976 0.026597453 0.39400002 4287057477
-0.0036908714 0.026529947 0.39300001 4283834392
-0.0024144067 0.026529947 0.39300001 4283834392
-0.0011379421 0.026529947 0.39300001 4282192393
0.00013852259 0.026529947 0.39300001 4281470470
0.0014149873 0.026529947 0.39300001 4282195736
0.0026914517 0.026529947 0.39300001 4283841846
0.0039679166 0.026529947 0.39300001 4286671465
0.0052443813 0.026529947 0.39300001 4283643182
0.0065208455 0.026529947 0.39300001 4283708714
0.0077774702 0.026462441 0.39200002 4279830272
0.0090506868 0.026462441 0.39200002 4281876533
0.010323904 0.026462441 0.39200002 4281021485
0.01159712 0.026462441 0.39200002 4279639317
0.012837506 0.026394935 0.39100003 4281415980
0.014107473 0.026394935 0.39100003 4280625174
0.015338113 0.026327427 0.39000002 4281808412
0.016604833 0.026327427 0.39000002 4283780905
0.017871555 0.026327427 0.39000002 4281544720
0.019138277 0.026327427 0.39000002 4280360975
0.020404994 0.026327427 0.39000002 4281349415
0.021671716 0.026327427 0.39000002 4279969047
0.022938438 0.026327427 0.39000002 4282140216
0.024205158 0.026327427 0.39000002 4279244559
0.025471877 0.026327427 0.39000002 4279178766
0.026738601 0.026327427 0.39000002 4278784008
0.028005321 0.026327427 0.39000002 4279835410
0.029196983 0.026259923 0.38900003 4279703563
0.030382153 0.026192416 0.38800001 4279834379
0.031560823 0.02612491 0.38700002 4279176192
0.032733001 0.026057404 0.38600001 4281212175
0.033898681 0.025989898 0.38500002 4282914571
0.035149161 0.025989898 0.38500002 4282979081
0.036305096 0.02592239 0.384 4283701774
0.037552327 0.02592239 0.384 4283964431
0.038799562 0.02592239 0.384 4284162323
0.040046792 0.02592239 0.384 4283439884
0.041401565 0.025989898 0.38500002 4282651914
0.042652048 0.025989898 0.38500002 4282390285
0.043902528 0.025989898 0.38500002 4281868572
-0.01137854 0.027877599 0.39400002 4285825396
-0.010098826 0.027877599 0.39400002 4284239171
-0.0088191144 0.027877599 0.39400002 4284886562
-0.0075394013 0.027877599 0.39400002 4284949273
-0.0062438003 0.027806843 0.39300001 4285277470
-0.0049673361 0.027806843 0.39300001 4285344031
-0.0036908714 0.027806843 0.39300001 4285411625
-0.0024144067 0.027806843 0.39300001 4283569423
-0.0011379421 0.027806843 0.39300001 4282126600
0.00013852259 0.027806843 0.39300001 4281930506
0.0014149873 0.027806843 0.39300001 4282718741
0.0026914517 0.027806843 0.39300001 4283441180
0.0039679166 0.027806843 0.39300001 4283834142
0.0052443813 0.027806843 0.39300001 4283768347
0.0065208455 0.027806843 0.39300001 4283441176
0.0077774702 0.027736088 0.39200002 4280354304
0.0090506868 0.027736088 0.39200002 4281020972
0.010323904 0.027736088 0.39200002 4279113488
0.011567537 0.027665334 0.39100003 4279968536
0.012837506 0.027665334 0.39100003 4280823841
0.014107473 0.027665334 0.39100003 4280361745
0.015338113 0.027594578 0.39000002 4280624399
0.016604833 0.027594578 0.39000002 4281281550
0.017871555 0.027594578 0.39000002 4281084171
0.019138277 0.027594578 0.39000002 4279900165
0.020404994 0.027594578 0.39000002 4281283106
0.021671716 0.027594578 0.39000002 4279047434
0.022938438 0.027594578 0.39000002 4282337082
0.024205158 0.027594578 0.39000002 4278718215
0.025471877 0.027594578 0.39000002 4280955177
0.026738601 0.027594578 0.39000002 4278717445
0.028005321 0.027594578 0.39000002 4279638031
0.029196983 0.027523823 0.38900003 4279703563
0.030382153 0.027453067 0.38800001 4279571977
0.031560823 0.027382312 0.38700002 4279703047
0.032733001 0.027311556 0.38600001 4280950286
0.033898681 0.027240802 0.38500002 4282914571
0.035057861 0.027170045 0.384 4283176973
0.036305096 0.027170045 0.384 4282848008
0.037552327 0.027170045 0.384 4282782985
0.038799562 0.027170045 0.384 4282389254
0.040046792 0.027170045 0.384 4282455049
0.041294027 0.027170045 0.384 4282324492
0.042652048 0.027240802 0.38500002 4282457625
-0.01137854 0.029157747 0.39400002 4284834649
-0.010098826 0.029157747 0.39400002 4284037427
-0.0087967301 0.02908374 0.39300001 4284753177
-0.0075202654 0.02908374 0.39300001 4285014296
-0.0062438003 0.02908374 0.39300001 4290609526
-0.0049673361 0.02908374 0.39300001 4284950558
-0.0036908714 0.02908374 0.39300001 4284883480
-0.0024144067 0.02908374 0.39300001 4283569675
-0.0011379421 0.02908374 0.39300001 4282454795
0.00013852259 0.02908374 0.39300001 4281995016
0.0014149873 0.02908374 0.39300001 4283045905
0.0026914517 0.02908374 0.39300001 4283767829
0.0039679166 0.02908374 0.39300001 4284029974
0.0052443813 0.02908374 0.39300001 4283766800
0.0065208455 0.02908374 0.39300001 4283505938
0.0077774702 0.029009737 0.39200002 4280813570
0.0090506868 0.029009737 0.39200002 4279836180
0.010323904 0.029009737 0.39200002 4279968536
0.011567537 0.028935732 0.39100003 4280361754
0.012837506 0.028935732 0.39100003 4280888096
0.014107473 0.028935732 0.39100003 4280624401
0.015338113 0.028861728 0.39000002 4280755985
0.016604833 0.028861728 0.39000002 4280755983
0.017871555 0.028861728 0.39000002 4280492298
0.019138277 0.028861728 0.39000002 4279703045
0.020404994 0.028861728 0.39000002 4280822301
0.021671716 0.028861728 0.39000002 4279902741
0.022938438 0.028861728 0.39000002 4280823845
0.024205158 0.028861728 0.39000002 4279046664
0.025471877 0.028861728 0.39000002 4280955431
0.026738601 0.028861728 0.39000002 4278716929
0.028005321 0.028861728 0.39000002 4279638031
0.029196983 0.028787725 0.38900003 4279769356
0.030382153 0.028713718 0.38800001 4279703563
0.031560823 0.028639715 0.38700002 4280163083
0.032733001 0.028565709 0.38600001 4281147150
0.033898681 0.028491706 0.38500002 4283046157
0.035057861 0.028417701 0.384 4283373839
0.036305096 0.028417701 0.384 4282651912
0.037552327 0.028417701 0.384 4282258440
0.038799562 0.028417701 0.384 4282258186
0.040046792 0.028417701 0.384 4282258699
0.041294027 0.028417701 0.384 4282327576
0.042541262 0.028417701 0.384 4282790188
-0.012626124 0.030360637 0.39300001 4285432694
-0.011349659 0.030360637 0.39300001 4285030484
-0.010073194 0.030360637 0.39300001 4284299054
-0.0087967301 0.030360637 0.39300001 4285015066
-0.0075202654 0.030360637 0.39300001 4285080089
-0.0062438003 0.030360637 0.39300001 4290213994
-0.0049673361 0.030360637 0.39300001 4284292113
-0.0036908714 0.030360637 0.39300001 4284619540
-0.0024144067 0.030360637 0.39300001 4283897870
-0.0011379421 0.030360637 0.39300001 4282585867
0.00013852259 0.030360637 0.39300001 4282389002
0.0014149873 0.030360637 0.39300001 4282914319
0.0026914517 0.030360637 0.39300001 4283570448
0.0039679166 0.030360637 0.39300001 4283767054
0.0052443813 0.030360637 0.39300001 4283635468
0.0065208455 0.030360637 0.39300001 4283438862
0.0077774702 0.030283384 0.39200002 4281075972
0.0090506868 0.030283384 0.39200002 4281348649
0.010323904 0.030283384 0.39200002 4279113227
0.011567537 0.030206133 0.39100003 4280229911
0.012837506 0.030206133 0.39100003 4281151009
0.014107473 0.030206133 0.39100003 4280296206
0.015338113 0.030128878 0.39000002 4280821778
0.016604833 0.030128878 0.39000002 4280952849
0.017871555 0.030128878 0.39000002 4280821263
0.019138277 0.030128878 0.39000002 4280690710
0.020404994 0.030128878 0.39000002 4281809450
0.021671716 0.030128878 0.39000002 4280625692
0.022938438 0.030128878 0.39000002 4279046662
0.024205158 0.030128878 0.39000002 4279309584
0.025471877 0.030128878 0.39000002 4278388482
0.026738601 0.030128878 0.39000002 4278783238
0.028005321 0.030128878 0.39000002 4279769615
0.029196983 0.030051624 0.38900003 4279704074
0.030382153 0.029974369 0.38800001 4280230416
0.031560823 0.029897118 0.38700002 4280558093
0.032733001 0.029819863 0.38600001 4281474318
0.033898681 0.02974261 0.38500002 4283308046
0.035057861 0.029665355 0.384 4283702034
0.036305096 0.029665355 0.384 4282653711
0.037552327 0.029665355 0.384 4281800199
0.038799562 0.029665355 0.384 4281734922
0.040046792 0.029665355 0.384 4282130193
0.041294027 0.029665355 0.384 4281670675
-0.012626124 0.031637534 0.39300001 4285498487
-0.011349659 0.031637534 0.39300001 4284306759
-0.010073194 0.031637534 0.39300001 4283838501
-0.0087967301 0.031637534 0.39300001 4284686871
-0.0075202654 0.031637534 0.39300001 4285080089
-0.0062279128 0.031557031 0.39200002 4284948503
-0.0049546966 0.031557031 0.39200002 4284883480
-0.0036814802 0.031557031 0.39200002 4284226320
-0.0024082633 0.031557031 0.39200002 4283569675
-0.0011379421 0.031637534 0.39300001 4283045389
0.00013852259 0.031637534 0.39300001 4282585867
0.0014149873 0.031637534 0.39300001 4282913549
0.0026914517 0.031637534 0.39300001 4283570448
0.0039679166 0.031637534 0.39300001 4283635468
0.0052443813 0.031637534 0.39300001 4283569675
0.0065208455 0.031637534 0.39300001 4283438862
0.0077973106 0.031637534 0.39300001 4282127115
0.0090506868 0.031557031 0.39200002 4279242244
0.010323904 0.031557031 0.39200002 4278848515
0.01159712 0.031557031 0.39200002 4278979590
0.012837506 0.031476531 0.39100003 4280623899
0.014107473 0.031476531 0.39100003 4281283101
0.015377442 0.031476531 0.39100003 4279901448
0.016604833 0.031396028 0.39000002 4280296204
0.017871555 0.031396028 0.39000002 4280624399
0.019138277 0.031396028 0.39000002 4281151261
0.020404994 0.031396028 0.39000002 4281677605
0.021671716 0.031396028 0.39000002 4280427545
0.022938438 0.031396028 0.39000002 4279309066
0.024205158 0.031396028 0.39000002 4280428063
0.025471877 0.031396028 0.39000002 4281151786
0.026738601 0.031396028 0.39000002 4278849031
0.028005321 0.031396028 0.39000002 4280032528
0.029196983 0.031315524 0.38900003 4280361999
0.030382153 0.031235021 0.38800001 4280230413
0.031560823 0.031154519 0.38700002 4280754702
0.032733001 0.031074015 0.38600001 4281867275
0.033898681 0.030993514 0.38500002 4283702288
0.035149161 0.030993514 0.38500002 4283439116
0.036305096 0.03091301 0.384 4281935121
0.037552327 0.03091301 0.384 4281345040
0.038799562 0.03091301 0.384 4281015564
0.040046792 0.03091301 0.384 4281145867
0.041294027 0.03091301 0.384 4281210644
-0.012626124 0.03291443 0.39300001 4285432694
-0.011349659 0.03291443 0.39300001 4285097819
-0.010073194 0.03291443 0.39300001 4283050786
-0.0087743467 0.032830682 0.39200002 4284030999
-0.00750113 0.032830682 0.39200002 4284359189
-0.0062279128 0.032830682 0.39200002 4284292113
-0.0049546966 0.032830682 0.39200002 4284029454
-0.0036814802 0.032830682 0.39200002 4283438862
-0.0024082633 0.032830682 0.39200002 4283307276
-0.0011350466 0.032830682 0.39200002 4283176460
0.00013852259 0.03291443 0.39300001 4282913801
0.0014149873 0.03291443 0.39300001 4282913803
0.0026914517 0.03291443 0.39300001 4283176975
0.0039679166 0.03291443 0.39300001 4283768345
0.0052443813 0.03291443 0.39300001 4283571479
0.0065208455 0.03291443 0.39300001 4283046932
0.0077973106 0.03291443 0.39300001 4282259471
0.0090737753 0.03291443 0.39300001 4279306754
0.010323904 0.032830682 0.39200002 4278979844
0.01159712 0.032830682 0.39200002 4278848261
0.012870338 0.032830682 0.39200002 4278979847
0.014107473 0.03274693 0.39100003 4279045635
0.015377442 0.03274693 0.39100003 4282072622
0.016647412 0.03274693 0.39100003 4281809450
0.01791738 0.03274693 0.39100003 4281348899
0.01918735 0.03274693 0.39100003 4281414435
0.020457316 0.03274693 0.39100003 4279703817
0.021727286 0.03274693 0.39100003 4279704592
0.022997255 0.03274693 0.39100003 4281877046
0.024267225 0.03274693 0.39100003 4280363040
0.025471877 0.032663178 0.39000002 4278717445
0.026738601 0.032663178 0.39000002 4279834381
0.028005321 0.032663178 0.39000002 4280426770
0.029196983 0.032579426 0.38900003 4280492815
0.030382153 0.032495674 0.38800001 4280558608
0.031560823 0.032411922 0.38700002 4281279247
0.032733001 0.03232817 0.38600001 4282456848
0.033898681 0.032244418 0.38500002 4283701774
0.035149161 0.032244418 0.38500002 4283374093
0.036305096 0.032160666 0.384 4281279501
0.037552327 0.032160666 0.384 4280557323
0.038799562 0.032160666 0.384 4280754191
0.040046792 0.032160666 0.384 4280883726
-0.012626124 0.034191329 0.39300001 4285367671
-0.011349659 0.034191329 0.39300001 4286351999
-0.010047563 0.034104329 0.39200002 4282859063
-0.0087743467 0.034104329 0.39200002 4283310106
-0.00750113 0.034104329 0.39200002 4283572503
-0.0062279128 0.034104329 0.39200002 4283769110
-0.0049546966 0.034104329 0.39200002 4283242766
-0.0036814802 0.034104329 0.39200002 4282980366
-0.0024082633 0.034104329 0.39200002 4283243538
-0.0011350466 0.034104329 0.39200002 4283374354
0.00013852259 0.034191329 0.39300001 4283242768
0.0014149873 0.034191329 0.39300001 4283111182
0.0026914517 0.034191329 0.39300001 4284429359
0.0039679166 0.034191329 0.39300001 4285360480
0.0052443813 0.034191329 0.39300001 4285953130
0.0065208455 0.034191329 0.39300001 4281475347
0.0077973106 0.034191329 0.39300001 4281936664
0.0090737753 0.034191329 0.39300001 4281610531
0.010323904 0.034104329 0.39200002 4278979844
0.01159712 0.034104329 0.39200002 4278848261
0.012870338 0.034104329 0.39200002 4278848263
0.014143554 0.034104329 0.39200002 4278848261
0.015377442 0.034017328 0.39100003 4278782468
0.016647412 0.034017328 0.39100003 4278914051
0.01791738 0.034017328 0.39100003 4278848258
0.01918735 0.034017328 0.39100003 4278848261
0.020457316 0.034017328 0.39100003 4278519040
0.021727286 0.034017328 0.39100003 4279770135
0.022997255 0.034017328 0.39100003 4280560932
0.024267225 0.034017328 0.39100003 4279177996
0.025471877 0.033930324 0.39000002 4278979074
0.026738601 0.033930324 0.39000002 4281735957
0.027933512 0.033843327 0.38900003 4281540113
0.029196983 0.033843327 0.38900003 4280689681
0.030382153 0.033756323 0.38800001 4280623886
0.031560823 0.033669323 0.38700002 4281998607
0.032733001 0.033582322 0.38600001 4283047186
0.033898681 0.033495322 0.38500002 4284031253
0.035149161 0.033495322 0.38500002 4283507475
0.036305096 0.033408321 0.384 4280359944
0.037552327 0.033408321 0.384 4280492048
0.038799562 0.033408321 0.384 4280819218
0.040046792 0.033408321 0.384 4281474068
-0.01132078 0.035377979 0.39200002 4285498489
-0.010047563 0.035377979 0.39200002 4284772967
-0.0087743467 0.035377979 0.39200002 4282656805
-0.00750113 0.035377979 0.39200002 4283048735
-0.0062279128 0.035377979 0.39200002 4283113497
-0.0049546966 0.035377979 0.39200002 4282455567
-0.0036814802 0.035377979 0.39200002 4282389774
-0.0024082633 0.035377979 0.39200002 4283047702
-0.0011350466 0.035377979 0.39200002 4283900185
0.00013852259 0.035468228 0.39300001 4283439634
0.0014149873 0.035468228 0.39300001 4283308561
0.0026914517 0.035468228 0.39300001 4285154874
0.0039679166 0.035468228 0.39300001 4284970596
0.0052443813 0.035468228 0.39300001 4285102700
0.0065208455 0.035468228 0.39300001 4284311383
0.0077973106 0.035468228 0.39300001 4281084439
0.0090737753 0.035468228 0.39300001 4281479706
0.010350239 0.035468228 0.39300001 4281217308
0.011626705 0.035468228 0.39300001 4278979590
0.012870338 0.035377979 0.39200002 4278914054
0.014143554 0.035377979 0.39200002 4278848263
0.01541677 0.035377979 0.39200002 4278848263
0.016689988 0.035377979 0.39200002 4280626212
0.01791738 0.03528773 0.39100003 4278586631
0.01918735 0.03528773 0.39100003 4281612591
0.020457316 0.03528773 0.39100003 4282796863
0.021727286 0.03528773 0.39100003 4279375377
0.022997255 0.03528773 0.39100003 4279045642
0.024267225 0.03528773 0.39100003 4279699202
0.025471877 0.035197478 0.39000002 4283181348
0.026738601 0.035197478 0.39000002 4287061075
0.027933512 0.035107229 0.38900003 4283573016
0.029196983 0.035107229 0.38900003 4281344011
0.030382153 0.035016976 0.38800001 4281147661
0.031560823 0.034926727 0.38700002 4282915600
0.032733001 0.034836479 0.38600001 4283898899
0.033986729 0.034836479 0.38600001 4283504655
0.035149161 0.03474623 0.38500002 4282391820
0.036399644 0.03474623 0.38500002 4280229130
0.037552327 0.034655977 0.384 4280295182
0.038799562 0.034655977 0.384 4281868054
0.040046792 0.034655977 0.384 4281868056
-0.010047563 0.036651626 0.39200002 4285169522
-0.0087743467 0.036651626 0.39200002 4285034597
-0.00750113 0.036651626 0.39200002 4282134826
-0.0062279128 0.036651626 0.39200002 4282458908
-0.0049546966 0.036651626 0.39200002 4282195477
-0.0036908714 0.036745124 0.39300001 4281340681
-0.0024144067 0.036745124 0.39300001 4286279267
-0.0011379421 0.036745124 0.39300001 4283309592
0.00013852259 0.036745124 0.39300001 4283900185
0.0014149873 0.036745124 0.39300001 4283570450
0.0026914517 0.036745124 0.39300001 4282782217
0.0039679166 0.036745124 0.39300001 4286087281
0.0052443813 0.036745124 0.39300001 4284840809
0.0065208455 0.036745124 0.39300001 4284840811
0.0077973106 0.036745124 0.39300001 4280890147
0.0090737753 0.036745124 0.39300001 4280953362
0.010350239 0.036745124 0.39300001 4281084948
0.011626705 0.036745124 0.39300001 4281084698
0.01290317 0.036745124 0.39300001 4279110658
0.014143554 0.036651626 0.39200002 4278914308
0.01541677 0.036651626 0.39200002 4278716675
0.016689988 0.036651626 0.39200002 4281481521
0.017963205 0.036651626 0.39200002 4279639319
0.019236421 0.036651626 0.39200002 4278848261
0.020457316 0.036558129 0.39100003 4278980101
0.021727286 0.036558129 0.39100003 4279044867
0.022997255 0.036558129 0.39100003 4280094473
0.024205158 0.036464628 0.39000002 4283768858
0.025471877 0.036464628 0.39000002 4284227351
0.026738601 0.036464628 0.39000002 4284357138
0.027933512 0.03637113 0.38900003 4284161042
0.029121926 0.036277629 0.38800001 4283180825
0.030382153 0.036277629 0.38800001 4282523408
0.031560823 0.036184132 0.38700002 4283702288
0.032733001 0.036090631 0.38600001 4284226835
0.033986729 0.036090631 0.38600001 4283046670
0.035149161 0.035997134 0.38500002 4281276937
0.036399644 0.035997134 0.38500002 4280032010
0.037650123 0.035997134 0.38500002 4280426255
0.038900606 0.035997134 0.38500002 4282327324
0.040151086 0.035997134 0.38500002 4283777596
-0.010047563 0.037925273 0.39200002 4285236085
-0.0087743467 0.037925273 0.39200002 4285432694
-0.0075202654 0.038022023 0.39300001 4285036139
-0.0062438003 0.038022023 0.39300001 4282263844
-0.0049673361 0.038022023 0.39300001 4282262812
-0.0036908714 0.038022023 0.39300001 4280619784
-0.0024144067 0.038022023 0.39300001 4285625960
-0.0011379421 0.038022023 0.39300001 4285291089
0.00013852259 0.038022023 0.39300001 4284295974
0.0014149873 0.038022023 0.39300001 4284031001
0.0026914517 0.038022023 0.39300001 4283898899
0.0039679166 0.038022023 0.39300001 4282457877
0.0052443813 0.038022023 0.39300001 4285757546
0.0065208455 0.038022023 0.39300001 4284578409
0.0077973106 0.038022023 0.39300001 4279773465
0.0090737753 0.038022023 0.39300001 4280625171
0.010350239 0.038022023 0.39300001 4280755985
0.011626705 0.038022023 0.39300001 4280953364
0.01290317 0.038022023 0.39300001 4280887571
0.014179633 0.038022023 0.39300001 4280953364
0.01541677 0.037925273 0.39200002 4280361745
0.016689988 0.037925273 0.39200002 4279309064
0.017963205 0.037925273 0.39200002 4279440650
0.019236421 0.037925273 0.39200002 4279308807
0.020509636 0.037925273 0.39200002 4279834381
0.021727286 0.037828527 0.39100003 4281668879
0.022997255 0.037828527 0.39100003 4283178004
0.024205158 0.037731778 0.39000002 4284160788
0.025471877 0.037731778 0.39000002 4284291345
0.026670041 0.037635032 0.38900003 4284619538
0.027933512 0.037635032 0.38900003 4285080089
0.029121926 0.037538283 0.38800001 4284621591
0.030382153 0.037538283 0.38800001 4284688154
0.031560823 0.037441533 0.38700002 4284292113
0.032733001 0.037344784 0.38600001 4284029454
0.033986729 0.037344784 0.38600001 4281933584
0.035240456 0.037344784 0.38600001 4280096007
0.036399644 0.037248038 0.38500002 4279899913
0.037650123 0.037248038 0.38500002 4281146898
0.038900606 0.037248038 0.38500002 4281472785
0.040151086 0.037248038 0.38500002 4285689445
-0.0087967301 0.039298918 0.39300001 4285301108
-0.0075202654 0.039298918 0.39300001 4285301108
-0.0062438003 0.039298918 0.39300001 4286285177
-0.0049673361 0.039298918 0.39300001 4280884761
-0.0036908714 0.039298918 0.39300001 4281538837
-0.0024144067 0.039298918 0.39300001 4285556576
-0.0011379421 0.039298918 0.39300001 4285955699
0.00013852259 0.039298918 0.39300001 4282066978
0.0014149873 0.039298918 0.39300001 4284491038
0.0026914517 0.039298918 0.39300001 4284029974
0.0039679166 0.039298918 0.39300001 4284160790
0.0052443813 0.039298918 0.39300001 4284362280
0.0065208455 0.039298918 0.39300001 4285234282
0.0077973106 0.039298918 0.39300001 4280497190
0.0090737753 0.039298918 0.39300001 4280361750
0.010350239 0.039298918 0.39300001 4280427797
0.011626705 0.039298918 0.39300001 4280625171
0.01290317 0.039298918 0.39300001 4280821776
0.014179633 0.039298918 0.39300001 4280821776
0.015456098 0.039298918 0.39300001 4280558604
0.016689988 0.03919892 0.39200002 4280558604
0.017963205 0.03919892 0.39200002 4280361997
0.019236421 0.03919892 0.39200002 4280625169
0.020509636 0.03919892 0.39200002 4280821265
0.021727286 0.039098926 0.39100003 4282259469
0.022938438 0.038998928 0.39000002 4283373839
0.024205158 0.038998928 0.39000002 4283832077
0.025406566 0.03889893 0.38900003 4284226322
0.026670041 0.03889893 0.38900003 4284948246
0.027861703 0.038798932 0.38800001 4285014037
0.029121926 0.038798932 0.38800001 4284882451
0.030303849 0.038698938 0.38700002 4284882451
0.031560823 0.038698938 0.38700002 4284488720
0.032733001 0.038598936 0.38600001 4283308298
0.033986729 0.038598936 0.38600001 4280423688
0.035240456 0.038598936 0.38600001 4279768327
0.036494188 0.038598936 0.38600001 4280423690
0.037650123 0.038498942 0.38500002 4282130197
0.038900606 0.038498942 0.38500002 4281540375
0.040151086 0.038498942 0.38500002 4285429355
-0.0075202654 0.040575814 0.39300001 4285498487
-0.0062438003 0.040575814 0.39300001 4285301108
-0.004979976 0.040679064 0.39400002 4285957757
-0.0037002631 0.040679064 0.39400002 4281671711
-0.0024144067 0.040575814 0.39300001 4281538839
-0.0011379421 0.040575814 0.39300001 4286416250
0.00013852259 0.040575814 0.39300001 4285956982
0.0014149873 0.040575814 0.39300001 4284032030
0.0026914517 0.040575814 0.39300001 4284425243
0.0039679166 0.040575814 0.39300001 4284292374
0.0052310373 0.040472571 0.39200002 4284358167
0.0065042535 0.040472571 0.39200002 4283839530
0.0077774702 0.040472571 0.39200002 4286217324
0.0090737753 0.040575814 0.39300001 4285629042
0.010350239 0.040575814 0.39300001 4283192904
0.011626705 0.040575814 0.39300001 4280296209
0.01290317 0.040575814 0.39300001 4280361997
0.014179633 0.040575814 0.39300001 4280755983
0.015456098 0.040575814 0.39300001 4280558604
0.016689988 0.040472571 0.39200002 4280360712
0.017963205 0.040472571 0.39200002 4280558091
0.019236421 0.040472571 0.39200002 4280558091
0.020509636 0.040472571 0.39200002 4280820493
0.021727286 0.040369324 0.39100003 4281868558
0.022938438 0.040266078 0.39000002 4282915600
0.024143094 0.040162832 0.38900003 4284095249
0.025406566 0.040162832 0.38900003 4284816919
0.026601478 0.040059585 0.38800001 4285079062
0.027861703 0.040059585 0.38800001 4285144853
0.029121926 0.040059585 0.38800001 4285079060
0.030303849 0.039956339 0.38700002 4285079060
0.031560823 0.039956339 0.38700002 4284094732
0.032817803 0.039956339 0.38700002 4282388742
0.033986729 0.039853089 0.38600001 4280423688
0.035240456 0.039853089 0.38600001 4280096009
0.036494188 0.039853089 0.38600001 4281735185
0.037747912 0.039853089 0.38600001 4282523158
0.039001644 0.039853089 0.38600001 4282069031
0.040255371 0.039853089 0.38600001 4285036393
-0.0062596882 0.041959208 0.39400002 4285301878
-0.004979976 0.041959208 0.39400002 4285301878
-0.0037002631 0.041959208 0.39400002 4285888882
-0.0024205504 0.041959208 0.39400002 4282264359
-0.0011379421 0.041852713 0.39300001 4281606431
0.00013852259 0.041852713 0.39300001 4286086515
0.0014149873 0.041852713 0.39300001 4285820513
0.0026914517 0.041852713 0.39300001 4283705634
0.0039578201 0.041746218 0.39200002 4284687386
0.0052310373 0.041746218 0.39200002 4284357908
0.0065042535 0.041746218 0.39200002 4284488724
0.0077774702 0.041746218 0.39200002 4283898134
0.0090275994 0.041639723 0.39100003 4286413931
0.010350239 0.041852713 0.39300001 4284772958
0.011626705 0.041852713 0.39300001 4279703563
0.01290317 0.041852713 0.39300001 4279110656
0.014179633 0.041852713 0.39300001 4279834631
0.015456098 0.041852713 0.39300001 4280558608
0.016732562 0.041852713 0.39300001 4280887571
0.018009027 0.041852713 0.39300001 4280427020
0.019285493 0.041852713 0.39300001 4280492300
0.020561956 0.041852713 0.39300001 4280492298
0.021838421 0.041852713 0.39300001 4280819980
0.022879621 0.041426733 0.38900003 4282327826
0.024143094 0.041426733 0.38900003 4284555285
0.025341252 0.041320235 0.38800001 4285013269
0.026601478 0.041320235 0.38800001 4285013269
0.027861703 0.041320235 0.38800001 4285144342
0.029046871 0.04121374 0.38700002 4285144853
0.030303849 0.04121374 0.38700002 4285606178
0.031560823 0.04121374 0.38700002 4284160529
0.032817803 0.04121374 0.38700002 4284095249
0.033986729 0.041107245 0.38600001 4282915598
0.035240456 0.041107245 0.38600001 4282325775
0.036494188 0.041107245 0.38600001 4282653459
0.037747912 0.041107245 0.38600001 4282784532
0.039001644 0.041107245 0.38600001 4284111694
0.040255371 0.041107245 0.38600001 4284182368
-0.0062596882 0.043239355 0.39400002 4285499259
-0.004979976 0.043239355 0.39400002 4285236087
-0.0037002631 0.043239355 0.39400002 4285432183
-0.0024205504 0.043239355 0.39400002 4284771684
-0.0011379421 0.043129608 0.39300001 4282590242
0.00013852259 0.043129608 0.39300001 4283906872
0.0014149873 0.043129608 0.39300001 4285561450
0.0026846034 0.043019865 0.39200002 4284836444
0.0039578201 0.043019865 0.39200002 4283899931
0.0052310373 0.043019865 0.39200002 4284621593
0.006487661 0.042910121 0.39100003 4284882710
0.0077576302 0.042910121 0.39100003 4284816917
0.0090275994 0.042910121 0.39100003 4284358169
0.010271231 0.042800374 0.39000002 4283242514
0.011537951 0.042800374 0.39000002 4281933847
0.01290317 0.043129608 0.39300001 4280751372
0.014179633 0.043129608 0.39300001 4280227854
0.015456098 0.043129608 0.39300001 4279767303
0.016732562 0.043129608 0.39300001 4279438338
0.018009027 0.043129608 0.39300001 4279701764
0.019285493 0.043129608 0.39300001 4280096774
0.020561956 0.043129608 0.39300001 4280425226
0.021838421 0.043129608 0.39300001 4281277191
0.022879621 0.042690631 0.38900003 4283113747
0.024081029 0.042580888 0.38800001 4284685074
0.025341252 0.042580888 0.38800001 4285144853
0.026601478 0.042580888 0.38800001 4285144340
0.027789894 0.042471144 0.38700002 4285210133
0.029046871 0.042471144 0.38700002 4285079062
0.030303849 0.042471144 0.38700002 4291398788
0.031560823 0.042471144 0.38700002 4284093964
0.032817803 0.042471144 0.38700002 4284685331
0.033986729 0.042361397 0.38600001 4284095247
0.035240456 0.042361397 0.38600001 4283900437
0.036494188 0.042361397 0.38600001 4282784530
0.037747912 0.042361397 0.38600001 4282324494
0.039001644 0.042361397 0.38600001 4284969317
-0.004979976 0.044519503 0.39400002 4285301880
-0.0037002631 0.044519503 0.39400002 4285170294
-0.0024205504 0.044519503 0.39400002 4285301110
-0.0011379421 0.044406503 0.39300001 4283450688
0.00013852259 0.044406503 0.39300001 4283115303
0.0014149873 0.044406503 0.39300001 4284701005
0.0026846034 0.044293512 0.39200002 4285430634
0.0039578201 0.044293512 0.39200002 4286281064
0.0052176928 0.04418052 0.39100003 4283573016
0.006487661 0.04418052 0.39100003 4285014296
0.0077576302 0.04418052 0.39100003 4285014039
0.00900451 0.044067524 0.39000002 4284948246
0.010271231 0.044067524 0.39000002 4285144855
0.011508367 0.043954533 0.38900003 4284948248
0.01290317 0.044406503 0.39300001 4284751896
0.014179633 0.044406503 0.39300001 4284031001
0.015456098 0.044406503 0.39300001 4283901468
0.016732562 0.044406503 0.39300001 4283113495
0.018009027 0.044406503 0.39300001 4282916116
0.019285493 0.044406503 0.39300001 4283507223
0.020561956 0.044406503 0.39300001 4283769112
0.021838421 0.044406503 0.39300001 4284292628
0.022820804 0.043841537 0.38800001 4284882710
0.024081029 0.043841537 0.38800001 4285144340
0.025341252 0.043841537 0.38800001 4285210387
0.02653292 0.043728545 0.38700002 4285275410
0.027789894 0.043728545 0.38700002 4285209617
0.029046871 0.043728545 0.38700002 4284946961
0.030303849 0.043728545 0.38700002 4289687652
0.031560823 0.043728545 0.38700002 4284619538
0.032817803 0.043728545 0.38700002 4284750867
0.03407478 0.043728545 0.38700002 4284160527
0.035331756 0.043728545 0.38700002 4283964433
0.036588732 0.043728545 0.38700002 4283574813
0.037747912 0.04361555 0.38600001 4281867025
0.039001644 0.04361555 0.38600001 4284839014
-0.004979976 0.045799647 0.39400002 4285301878
-0.0037002631 0.045799647 0.39400002 4285366901
-0.0024205504 0.045799647 0.39400002 4285301108
-0.0011379421 0.045683403 0.39300001 4285759862
0.00013852259 0.045683403 0.39300001 4282070058
0.0014113868 0.045567162 0.39200002 4283245598
0.0026846034 0.045567162 0.39200002 4284433468
0.0039477237 0.045450918 0.39100003 4287068268
0.0052176928 0.045450918 0.39100003 4283376151
0.006487661 0.045450918 0.39100003 4284882710
0.0077377893 0.045334674 0.39000002 4289094230
0.00900451 0.045334674 0.39000002 4284488204
0.010244895 0.045218434 0.38900003 4285145107
0.011508367 0.045218434 0.38900003 4285210133
0.01290317 0.045683403 0.39300001 4285276439
0.014179633 0.045683403 0.39300001 4285144855
0.015456098 0.045683403 0.39300001 4285342234
0.016732562 0.045683403 0.39300001 4284948505
0.018009027 0.045683403 0.39300001 4284948246
0.019285493 0.045683403 0.39300001 4285144853
0.020561956 0.045683403 0.39300001 4285079060
0.02156058 0.04510219 0.38800001 4285079060
0.022820804 0.04510219 0.38800001 4285210133
0.024081029 0.04510219 0.38800001 4285078547
0.025341252 0.04510219 0.38800001 4284750095
0.02653292 0.044985946 0.38700002 4284684302
0.027789894 0.044985946 0.38700002 4284815375
0.029046871 0.044985946 0.38700002 4285078547
0.030303849 0.044985946 0.38700002 4284946963
0.031560823 0.044985946 0.38700002 4285014039
0.032817803 0.044985946 0.38700002 4284422159
0.03407478 0.044985946 0.38700002 4283832075
0.035331756 0.044985946 0.38700002 4283438602
0.036588732 0.044985946 0.38700002 4282786842
0.037845708 0.044985946 0.38700002 4282265379
0.039102685 0.044985946 0.38700002 4283918424
-0.0037002631 0.047079794 0.39400002 4285236085
-0.0024144067 0.046960298 0.39300001 4285038706
-0.0011379421 0.046960298 0.39300001 4285038706
0.00013852259 0.046960298 0.39300001 4286089341
0.0014113868 0.046840809 0.39200002 4282786330
0.0026846034 0.046840809 0.39200002 4283441694
0.0039477237 0.046721317 0.39100003 4284427558
0.0052176928 0.046721317 0.39100003 4284491290
0.0064710681 0.046601824 0.39000002 4285342232
0.0077377893 0.046601824 0.39000002 4284881935
0.0089814216 0.046482336 0.38900003 4285078801
0.010244895 0.046482336 0.38900003 4285275410
0.011508367 0.046482336 0.38900003 4285275156
0.01290317 0.046960298 0.39300001 4285934369
0.014179633 0.046960298 0.39300001 4287451462
0.015456098 0.046960298 0.39300001 4288903533
0.016732562 0.046960298 0.39300001 4289361769
0.018009027 0.046960298 0.39300001 4286923833
0.019285493 0.046960298 0.39300001 4286197795
0.020561956 0.046960298 0.39300001 4285342486
0.021616148 0.046482336 0.38900003 4284619790
0.022879621 0.046482336 0.38900003 4284028169
0.024081029 0.04636284 0.38800001 4283109897
0.025341252 0.04636284 0.38800001 4283242253
0.02653292 0.046243351 0.38700002 4283832077
0.027789894 0.046243351 0.38700002 4284093966
0.029046871 0.046243351 0.38700002 4284487952
0.030303849 0.046243351 0.38700002 4284422159
0.031560823 0.046243351 0.38700002 4284028171
0.032817803 0.046243351 0.38700002 4283831562
0.03407478 0.046243351 0.38700002 4283372555
0.035331756 0.046243351 0.38700002 4282716424
0.036588732 0.046243351 0.38700002 4281802261
0.037845708 0.046243351 0.38700002 4281806375
0.039102685 0.046243351 0.38700002 4283853403
-0.0024144067 0.048237197 0.39300001 4284972915
-0.0011379421 0.048237197 0.39300001 4285038706
0.00013817011 0.048114456 0.39200002 4285301108
0.0014113868 0.048114456 0.39200002 4284109130
0.002677755 0.047991715 0.39100003 4283641899
0.0039477237 0.047991715 0.39100003 4284492835
0.0052043479 0.047868975 0.39000002 4284752666
0.0064710681 0.047868975 0.39000002 4285079830
0.0077179489 0.047746234 0.38900003 4284685072
0.0089814216 0.047746234 0.38900003 4285144853
0.010244895 0.047746234 0.38900003 4284750095
0.011478783 0.047623493 0.38800001 4284619281
0.012706175 0.047500752 0.38700002 4284356366
0.014179633 0.048237197 0.39300001 4283570448
0.015456098 0.048237197 0.39300001 4283374354
0.016732562 0.048237197 0.39300001 4283308561
0.018009027 0.048237197 0.39300001 4283439634
0.019285493 0.048237197 0.39300001 4283045387
0.020352677 0.047746234 0.38900003 4282585606
0.021616148 0.047746234 0.38900003 4281536259
0.022879621 0.047746234 0.38900003 4280815107
0.024143094 0.047746234 0.38900003 4280225544
0.025341252 0.047623493 0.38800001 4281539089
0.026601478 0.047623493 0.38800001 4282980366
0.027789894 0.047500752 0.38700002 4283438862
0.029046871 0.047500752 0.38700002 4283701261
0.030303849 0.047500752 0.38700002 4283701261
0.031560823 0.047500752 0.38700002 4283569934
0.032817803 0.047500752 0.38700002 4283241483
0.03407478 0.047500752 0.38700002 4282651147
0.035331756 0.047500752 0.38700002 4282587153
0.036588732 0.047500752 0.38700002 4282461990
0.037845708 0.047500752 0.38700002 4283847754
0.039102685 0.047500752 0.38700002 4283853403
-0.0011350466 0.049388107 0.39200002 4285236087
0.00013817011 0.049388107 0.39200002 4285170294
0.0014113868 0.049388107 0.39200002 4286088827
0.002677755 0.049262118 0.39100003 4283781448
0.0039477237 0.049262118 0.39100003 4284559144
0.0052043479 0.049136128 0.39000002 4284162073
0.0064710681 0.049136128 0.39000002 4284423699
0.0077179489 0.049010139 0.38900003 4284751894
0.0089814216 0.049010139 0.38900003 4284553743
0.010244895 0.049010139 0.38900003 4284158987
0.011478783 0.048884146 0.38800001 4283830794
0.01277184 0.049010139 0.38900003 4283305479
0.014179633 0.049514096 0.39300001 4281929736
0.015456098 0.049514096 0.39300001 4280683782
0.016732562 0.049514096 0.39300001 4280423177
0.018009027 0.049514096 0.39300001 4280160005
0.019285493 0.049514096 0.39300001 4280094471
0.020561956 0.049514096 0.39300001 4279765506
0.021671716 0.049136128 0.39000002 4279569926
0.022938438 0.049136128 0.39000002 4279241731
0.024143094 0.049010139 0.38900003 4279569926
0.025406566 0.049010139 0.38900003 4280422923
0.026601478 0.048884146 0.38800001 4282983705
0.027861703 0.048884146 0.38800001 4282718991
0.029046871 0.048758157 0.38700002 4283111952
0.030303849 0.048758157 0.38700002 4282980366
0.031560823 0.048758157 0.38700002 4282914573
0.032817803 0.048758157 0.38700002 4282585867
0.03407478 0.048758157 0.38700002 4282391057
0.035331756 0.048758157 0.38700002 4282195990
0.036588732 0.048758157 0.38700002 4282531381
0.037845708 0.048758157 0.38700002 4283785043
0.039102685 0.048758157 0.38700002 4283656024
-0.0011350466 0.050661754 0.39200002 4285170294
0.00013817011 0.050661754 0.39200002 4285170294
0.0014077864 0.050532516 0.39100003 4285301108
0.002677755 0.050532516 0.39100003 4285759603
0.0039477237 0.050532516 0.39100003 4283246881
0.0052043479 0.050403275 0.39000002 4283703835
0.0064710681 0.050403275 0.39000002 4284096278
0.0077179489 0.050274037 0.38900003 4284161812
0.0089814216 0.050274037 0.38900003 4284292628
0.010244895 0.050274037 0.38900003 4283569675
0.011508367 0.050274037 0.38900003 4282979081
0.01277184 0.050274037 0.38900003 4282650631
0.014179633 0.050790988 0.39300001 4281471754
0.015456098 0.050790988 0.39300001 4280487687
0.016732562 0.050790988 0.39300001 4279767044
0.018009027 0.050790988 0.39300001 4279701510
0.019285493 0.050790988 0.39300001 4279701510
0.020509636 0.050661754 0.39200002 4279701512
0.021727286 0.050532516 0.39100003 4279832585
0.022938438 0.050403275 0.39000002 4280094473
0.024205158 0.050403275 0.39000002 4280685066
0.025406566 0.050274037 0.38900003 4280946952
0.026601478 0.050144795 0.38800001 4281997326
0.027861703 0.050144795 0.38800001 4282523156
0.029121926 0.050144795 0.38800001 4282325775
0.030303849 0.050015558 0.38700002 4282193676
0.031560823 0.050015558 0.38700002 4282259469
0.032817803 0.050015558 0.38700002 4282127883
0.03407478 0.050015558 0.38700002 4282197789
0.035331756 0.050015558 0.38700002 4282923822
0.036588732 0.050015558 0.38700002 4282402875
0.037845708 0.050015558 0.38700002 4282404673
0.039102685 0.050015558 0.38700002 4282142531
0.0014077864 0.051802915 0.39100003 4284972915
0.002677755 0.051802915 0.39100003 4285301110
0.0039477237 0.051802915 0.39100003 4283252535
0.0052043479 0.051670425 0.39000002 4283246881
0.0064710681 0.051670425 0.39000002 4283572503
0.0077377893 0.051670425 0.39000002 4283637013
0.0089814216 0.051537938 0.38900003 4283176975
0.010244895 0.051537938 0.38900003 4282914573
0.011508367 0.051537938 0.38900003 4282454795
0.01277184 0.051537938 0.38900003 4282323979
0.014179633 0.052067891 0.39300001 4282196760
0.015456098 0.052067891 0.39300001 4281144072
0.016732562 0.052067891 0.39300001 4281012232
0.018009027 0.052067891 0.39300001 4281012745
0.019285493 0.052067891 0.39300001 4280750343
0.020561956 0.052067891 0.39300001 4281079308
0.021727286 0.051802915 0.39100003 4281474066
0.022997255 0.051802915 0.39100003 4281210894
0.024205158 0.051670425 0.39000002 4281671445
0.025406566 0.051537938 0.38900003 4281408273
0.026670041 0.051537938 0.38900003 4281473296
0.027861703 0.051405448 0.38800001 4281407757
0.029121926 0.051405448 0.38800001 4281144585
0.030303849 0.051272962 0.38700002 4281341964
0.031560823 0.051272962 0.38700002 4282328857
0.032817803 0.051272962 0.38700002 4282527520
0.03407478 0.051272962 0.38700002 4281741086
0.035331756 0.051272962 0.38700002 4280097290
0.036588732 0.051272962 0.38700002 4282140986
0.037845708 0.051272962 0.38700002 4282405187
0.039102685 0.051272962 0.38700002 4282076738
0.0026846034 0.053209048 0.39200002 4285038708
0.0039477237 0.053073313 0.39100003 4286154107
0.0052176928 0.053073313 0.39100003 4281937959
0.0064710681 0.052937571 0.39000002 4282917914
0.0077377893 0.052937571 0.39000002 4282850838
0.00900451 0.052937571 0.39000002 4282652946
0.010244895 0.052801836 0.38900003 4282324494
0.011508367 0.052801836 0.38900003 4282062605
0.021782853 0.053209048 0.39200002 4279964171
0.022997255 0.053073313 0.39100003 4280095757
0.024205158 0.052937571 0.39000002 4279898891
0.025471877 0.052937571 0.39000002 4279898891
0.026670041 0.052801836 0.38900003 4279702284
0.027861703 0.052666098 0.38800001 4279834383
0.029121926 0.052666098 0.38800001 4279637004
0.030303849 0.052530363 0.38700002 4279637004
0.031560823 0.052530363 0.38700002 4279571211
0.032817803 0.052530363 0.38700002 4279637004
0.033986729 0.052394621 0.38600001 4279440652
0.035240456 0.052394621 0.38600001 4279573008
0.036588732 0.052530363 0.38700002 4281746489
0.037845708 0.052530363 0.38700002 4282208324
0.039102685 0.052530363 0.38700002 4282406216
0.0026846034 0.054482698 0.39200002 4285038708
0.0039477237 0.054343715 0.39100003 4285959038
0.0052176928 0.054343715 0.39100003 4281549624
0.0064710681 0.054204725 0.39000002 4284041790
0.0077377893 0.054204725 0.39000002 4282591777
0.00900451 0.054204725 0.39000002 4281932051
0.010271231 0.054204725 0.39000002 4282260246
0.024205158 0.054204725 0.39000002 4279243791
0.025471877 0.054204725 0.39000002 4279309582
0.026670041 0.054065742 0.38900003 4279375375
0.027861703 0.053926751 0.38800001 4279243789
0.029046871 0.053787768 0.38700002 4279243789
0.030303849 0.053787768 0.38700002 4279177996
0.031479269 0.053648777 0.38600001 4279047180
0.032733001 0.053648777 0.38600001 4279047180
0.033986729 0.053648777 0.38600001 4279178766
0.035240456 0.053648777 0.38600001 4279376145
0.036494188 0.053648777 0.38600001 4281418040
0.037845708 0.053787768 0.38700002 4282142531
0.039102685 0.053787768 0.38700002 4282603082
0.0039477237 0.055614114 0.39100003 4285038708
0.0052176928 0.055614114 0.39100003 4285038708
0.0064710681 0.055471878 0.39000002 4282797635
0.00900451 0.055471878 0.39000002 4281543716
0.029046871 0.055045173 0.38700002 4279178768
0.030225543 0.054902934 0.38600001 4279112975
0.031479269 0.054902934 0.38600001 4279178768
0.032733001 0.054902934 0.38600001 4279178768
0.033986729 0.054902934 0.38600001 4279178768
0.035240456 0.054902934 0.38600001 4279310867
0.030225543 0.056157082 0.38600001 4279178766
0.031479269 0.056157082 0.38600001 4279178768
0.032733001 0.056157082 0.38600001 4279112975
0.033986729 0.056157082 0.38600001 4279178768
0.015686039 0.031340469 0.38991496 4294967295
0.015686039 0.031340469 0.38991496 4294901760
0.015686039 0.031340469 0.39041495 4294901760
0.015686039 0.031340469 0.39091495 4294901760
0.015686039 0.031340469 0.39141497 4294901760
0.015686039 0.031340469 0.39191496 4294901760
0.015686039 0.031340469 0.39241496 4294901760
0.015686039 0.031340469 0.39291495 4294901760
0.015686039 0.031340469 0.39341497 4294901760
0.015686039 0.031340469 0.39391497 4294901760
0.015686039 0.031340469 0.39441496 4294901760
0.015686039 0.031340469 0.39491495 4294901760
0.015686039 0.031340469 0.39541495 4294901760
0.015686039 0.031340469 0.39591497 4294901760
0.015686039 0.031340469 0.39641497 4294901760
0.015686039 0.031340469 0.39691496 4294901760
0.015686039 0.031340469 0.39741495 4294901760
0.015686039 0.031340469 0.39791495 4294901760
0.015686039 0.031340469 0.39841497 4294901760
0.015686039 0.031340469 0.39891496 4294901760
0.015686039 0.031340469 0.39941496 4294901760
0.015686039 0.031340469 0.39991495 4294901760
0.015686039 0.031340469 0.40041497 4294901760
0.015686039 0.031340469 0.40091497 4294901760
0.015686039 0.031340469 0.40141496 4294901760
0.015686039 0.031340469 0.40191495 4294901760
0.015686039 0.031340469 0.40241498 4294901760
0.015686039 0.031340469 0.40291497 4294901760
0.015686039 0.031340469 0.40341496 4294901760
0.015686039 0.031340469 0.40391496 4294901760
0.015686039 0.031340469 0.40441495 4294901760
0.015686039 0.031340469 0.40491498 4294901760
0.015686039 0.031340469 0.40541497 4294901760
0.015686039 0.031340469 0.40591496 4294901760
0.015686039 0.031340469 0.40641496 4294901760
0.015686039 0.031340469 0.40691495 4294901760
0.015686039 0.031340469 0.40741497 4294901760
0.015686039 0.031340469 0.40791497 4294901760
0.015686039 0.031340469 0.40841496 4294901760
0.015686039 0.031340469 0.40891495 4294901760
0.015686039 0.031340469 0.40941498 4294901760
0.015686039 0.031340469 0.40991497 4294901760
0.015686039 0.031340469 0.41041496 4294901760
0.015686039 0.031340469 0.41091496 4294901760
0.015686039 0.031340469 0.41141498 4294901760
0.015686039 0.031340469 0.41191497 4294901760
0.015686039 0.031340469 0.41241497 4294901760
0.015686039 0.031340469 0.41291496 4294901760
0.015686039 0.031340469 0.41341496 4294901760
0.015686039 0.031340469 0.41391498 4294901760
0.015686039 0.031340469 0.41441497 4294901760
0.015686039 0.031340469 0.41491497 4294901760
0.015686039 0.031340469 0.41541496 4294901760
0.015686039 0.031340469 0.41591495 4294901760
0.015686039 0.031340469 0.41641498 4294901760
0.015686039 0.031340469 0.41691497 4294901760
0.015686039 0.031340469 0.41741496 4294901760
0.015686039 0.031340469 0.41791496 4294901760
0.015686039 0.031340469 0.41841495 4294901760
0.015686039 0.031340469 0.41891497 4294901760
0.015686039 0.031340469 0.41941497 4294901760
0.015686039 0.031340469 0.41991496 4294901760
0.015686039 0.031340469 0.42041495 4294901760
0.015686039 0.031340469 0.42091498 4294901760
0.015686039 0.031340469 0.42141497 4294901760
0.015686039 0.031340469 0.42191496 4294901760
0.015686039 0.031340469 0.42241496 4294901760
0.015686039 0.031340469 0.42291498 4294901760
0.015686039 0.031340469 0.42341498 4294901760
0.015686039 0.031340469 0.42391497 4294901760
0.015686039 0.031340469 0.42441496 4294901760
0.015686039 0.031340469 0.42491496 4294901760
0.015686039 0.031340469 0.42541498 4294901760
0.015686039 0.031340469 0.42591497 4294901760
0.015686039 0.031340469 0.42641497 4294901760
0.015686039 0.031340469 0.42691496 4294901760
0.015686039 0.031340469 0.42741495 4294901760
0.015686039 0.031340469 0.42791498 4294901760
0.015686039 0.031340469 0.42841497 4294901760
0.015686039 0.031340469 0.42891496 4294901760
0.015686039 0.031340469 0.42941496 4294901760
0.015686039 0.031340469 0.42991498 4294901760
0.015686039 0.031340469 0.43041497 4294901760
0.015686039 0.031340469 0.43091497 4294901760
0.015686039 0.031340469 0.43141496 4294901760
0.015686039 0.031340469 0.43191496 4294901760
0.015686039 0.031340469 0.43241498 4294901760
0.015686039 0.031340469 0.43291497 4294901760
0.015686039 0.031340469 0.43341497 4294901760
0.015686039 0.031340469 0.43391496 4294901760
0.015686039 0.031340469 0.43441498 4294901760
0.015686039 0.031340469 0.43491498 4294901760
0.015686039 0.031340469 0.43541497 4294901760
