# .PCD v0.7 - Point Cloud Data file format
VERSION 0.7
FIELDS x y z rgb
SIZE 4 4 4 4
TYPE F F F U
COUNT 1 1 1 1
WIDTH 1073
HEIGHT 1
VIEWPOINT 0 0 0 1 0 0 0
POINTS 1073
DATA ascii
0.095411271 0.065434523 0.32600001 4279780127
0.096470118 0.065434523 0.32600001 4280042785
0.098587818 0.065434523 0.32600001 4280501036
0.071072519 0.067513585 0.33100003 4279976994
0.072147608 0.067513585 0.33100003 4279844641
0.073222697 0.067513585 0.33100003 4279778848
0.074073315 0.067309611 0.33000001 4279713309
0.075145155 0.067309611 0.33000001 4279053842
0.076216996 0.067309611 0.33000001 4279051023
0.077054627 0.067105643 0.32900003 4280039201
0.078123227 0.067105643 0.32900003 4279975205
0.078951113 0.066901676 0.32800001 4279844643
0.080016449 0.066901676 0.32800001 4279976227
0.0810818 0.066901676 0.32800001 4280042020
0.081896693 0.066697709 0.32700002 4279779361
0.082958788 0.066697709 0.32700002 4279582496
0.083763942 0.066493735 0.32600001 4279516957
0.084822789 0.066493735 0.32600001 4279582750
0.085881643 0.066493735 0.32600001 4279582748
0.08694049 0.066493735 0.32600001 4279187990
0.087999336 0.066493735 0.32600001 4278926101
0.089058183 0.066493735 0.32600001 4278861078
0.09011703 0.066493735 0.32600001 4278992664
0.091175877 0.066493735 0.32600001 4278861076
0.092234731 0.066493735 0.32600001 4278926099
0.093293577 0.066493735 0.32600001 4279189271
0.094352432 0.066493735 0.32600001 4278992146
0.095411271 0.066493735 0.32600001 4279123732
0.096174203 0.066289768 0.32500002 4279189271
0.097229809 0.066289768 0.32500002 4279254551
0.098285407 0.066289768 0.32500002 4279649311
0.099341013 0.066289768 0.32500002 4279320346
0.10114004 0.066085801 0.324 4280697637
0.071287237 0.068796247 0.33200002 4280042787
0.072147608 0.068589032 0.33100003 4279779615
0.073222697 0.068589032 0.33100003 4279844895
0.074297786 0.068589032 0.33100003 4279647516
0.075145155 0.068381809 0.33000001 4278920974
0.076216996 0.068381809 0.33000001 4280104994
0.077288836 0.068381809 0.33000001 4280368934
0.078123227 0.068174601 0.32900003 4279975459
0.079191819 0.068174601 0.32900003 4278856724
0.080016449 0.067967378 0.32800001 4278854416
0.0810818 0.067967378 0.32800001 4278590474
0.081896693 0.067760162 0.32700002 4279183633
0.082958788 0.067760162 0.32700002 4279843871
0.08402089 0.067760162 0.32700002 4279647516
0.084822789 0.067552939 0.32600001 4279779102
0.085881643 0.067552939 0.32600001 4279713822
0.08694049 0.067552939 0.32600001 4279582750
0.087999336 0.067552939 0.32600001 4279320348
0.089058183 0.067552939 0.32600001 4279188762
0.09011703 0.067552939 0.32600001 4278991894
0.091175877 0.067552939 0.32600001 4278926101
0.091951802 0.067345724 0.32500002 4278926099
0.093007408 0.067345724 0.32500002 4278992146
0.094063006 0.067345724 0.32500002 4279189525
0.095118605 0.067345724 0.32500002 4279255318
0.096174203 0.067345724 0.32500002 4279123478
0.097229809 0.067345724 0.32500002 4279123478
0.097982988 0.067138501 0.324 4278991892
0.099035338 0.067138501 0.324 4279189271
0.099778786 0.066931292 0.32300001 4279189271
0.10114004 0.067138501 0.324 4279649309
0.10187699 0.066931292 0.32300001 4280042783
0.07042037 0.070085414 0.333 4280108580
0.071287237 0.06987495 0.33200002 4279976994
0.072365575 0.06987495 0.33200002 4280042274
0.073443912 0.06987495 0.33200002 4279779102
0.074297786 0.069664486 0.33100003 4278920207
0.075372875 0.069664486 0.33100003 4279313684
0.076447964 0.069664486 0.33100003 4280105248
0.077288836 0.069454014 0.33000001 4280107045
0.078360677 0.069454014 0.33000001 4280040739
0.079191819 0.06924355 0.32900003 4279313684
0.080260411 0.06924355 0.32900003 4279311887
0.0810818 0.069033086 0.32800001 4279443473
0.082147136 0.069033086 0.32800001 4279377680
0.082958788 0.068822622 0.32700002 4279246092
0.08402089 0.068822622 0.32700002 4278524679
0.084822789 0.068612151 0.32600001 4280039201
0.085881643 0.068612151 0.32600001 4279515676
0.08694049 0.068612151 0.32600001 4279779361
0.087999336 0.068612151 0.32600001 4279648289
0.089058183 0.068612151 0.32600001 4279516703
0.09011703 0.068612151 0.32600001 4279451164
0.090896204 0.068401687 0.32500002 4279320348
0.091951802 0.068401687 0.32500002 4279188762
0.093007408 0.068401687 0.32500002 4279188760
0.094063006 0.068401687 0.32500002 4278991379
0.095118605 0.068401687 0.32500002 4279123478
0.096174203 0.068401687 0.32500002 4278860306
0.096930631 0.068191215 0.324 4278991892
0.097982988 0.068191215 0.324 4279189271
0.099035338 0.068191215 0.324 4278861076
0.099778786 0.067980751 0.32300001 4279058968
0.10082789 0.067980751 0.32300001 4278795796
0.10187699 0.067980751 0.32300001 4279123478
0.10260744 0.067770287 0.32200003 4279386391
0.1036533 0.067770287 0.32200003 4279911199
0.10469916 0.067770287 0.32200003 4280107813
0.10574502 0.067770287 0.32200003 4280302887
0.10679087 0.067770287 0.32200003 4281223477
0.07042037 0.071167372 0.333 4280107815
0.071501955 0.071167372 0.333 4280107815
0.072365575 0.07095366 0.33200002 4279976229
0.073443912 0.07095366 0.33200002 4279384092
0.074522242 0.07095366 0.33200002 4280499493
0.075372875 0.07073994 0.33100003 4280170274
0.076447964 0.07073994 0.33100003 4279908129
0.077288836 0.070526227 0.33000001 4280172584
0.078360677 0.070526227 0.33000001 4279249685
0.079191819 0.070312507 0.32900003 4279312400
0.080260411 0.070312507 0.32900003 4280167709
0.0810818 0.070098795 0.32800001 4279905051
0.082147136 0.070098795 0.32800001 4279575572
0.082958788 0.069885075 0.32700002 4279969817
0.08402089 0.069885075 0.32700002 4279377680
0.085082985 0.069885075 0.32700002 4279246094
0.086145088 0.069885075 0.32700002 4279049742
0.08694049 0.069671355 0.32600001 4278655752
0.087999336 0.069671355 0.32600001 4279580188
0.089058183 0.069671355 0.32600001 4279778850
0.09011703 0.069671355 0.32600001 4279582236
0.091175877 0.069671355 0.32600001 4279713822
0.091951802 0.069457643 0.32500002 4279516443
0.093007408 0.069457643 0.32500002 4279582748
0.094063006 0.069457643 0.32500002 4279516955
0.095118605 0.069457643 0.32500002 4279451160
0.095878281 0.069243923 0.324 4279319574
0.096930631 0.069243923 0.324 4278990609
0.097982988 0.069243923 0.324 4279057172
0.098729677 0.06903021 0.32300001 4279057172
0.099778786 0.06903021 0.32300001 4278861076
0.10051574 0.068816498 0.32200003 4279058455
0.10156158 0.068816498 0.32200003 4279320344
0.10260744 0.068816498 0.32200003 4279188758
0.1036533 0.068816498 0.32200003 4279320344
0.104374 0.068602778 0.32100001 4279320346
0.10541661 0.068602778 0.32100001 4279517473
0.10645922 0.068602778 0.32100001 4279648289
0.10750182 0.068602778 0.32100001 4280304170
0.10854443 0.068602778 0.32100001 4280566061
0.070631847 0.072466284 0.33400002 4282407238
0.071501955 0.072249316 0.333 4280434473
0.072583541 0.072249316 0.333 4280238377
0.073443912 0.072032355 0.33200002 4279909666
0.074522242 0.072032355 0.33200002 4280303657
0.075600579 0.072032355 0.33200002 4279184406
0.076447964 0.071815394 0.33100003 4280172584
0.077523045 0.071815394 0.33100003 4280106791
0.078360677 0.071598426 0.33000001 4279314449
0.079432517 0.071598426 0.33000001 4279575572
0.080260411 0.071381465 0.32900003 4279509268
0.081329003 0.071381465 0.32900003 4279443475
0.082147136 0.071164496 0.32800001 4280365088
0.083212487 0.071164496 0.32800001 4279576086
0.08402089 0.070947535 0.32700002 4280497186
0.085082985 0.070947535 0.32700002 4279641879
0.086145088 0.070947535 0.32700002 4279641365
0.087207183 0.070947535 0.32700002 4279246607
0.087999336 0.070730567 0.32600001 4279378193
0.089058183 0.070730567 0.32600001 4279115535
0.09011703 0.070730567 0.32600001 4278722828
0.091175877 0.070730567 0.32600001 4279579418
0.092234731 0.070730567 0.32600001 4279976227
0.093007408 0.070513599 0.32500002 4279779361
0.094063006 0.070513599 0.32500002 4279779615
0.095118605 0.070513599 0.32500002 4279779613
0.095878281 0.07029663 0.324 4279516439
0.096930631 0.07029663 0.324 4279516953
0.097680576 0.070079669 0.32300001 4279319574
0.098729677 0.070079669 0.32300001 4279122195
0.099469878 0.069862708 0.32200003 4279320344
0.10051574 0.069862708 0.32200003 4278860306
0.10156158 0.069862708 0.32200003 4279386652
0.10228878 0.06964574 0.32100001 4278991894
0.10333139 0.06964574 0.32100001 4278991894
0.104374 0.06964574 0.32100001 4279320859
0.10541661 0.06964574 0.32100001 4279123480
0.10645922 0.06964574 0.32100001 4279123480
0.10750182 0.06964574 0.32100001 4279254553
0.10854443 0.06964574 0.32100001 4279648541
0.10924565 0.069428779 0.32000002 4280042535
0.11028501 0.069428779 0.32000002 4280238631
0.070631847 0.073551491 0.33400002 4284312670
0.071501955 0.073331274 0.333 4284115805
0.072583541 0.073331274 0.333 4284313954
0.073665127 0.073331274 0.333 4281880124
0.074522242 0.073111057 0.33200002 4280500266
0.075600579 0.073111057 0.33200002 4280500266
0.076447964 0.072890848 0.33100003 4280238631
0.077523045 0.072890848 0.33100003 4280370217
0.078360677 0.072670631 0.33000001 4280172325
0.079432517 0.072670631 0.33000001 4280500006
0.080260411 0.072450422 0.32900003 4279510291
0.081329003 0.072450422 0.32900003 4279378193
0.082147136 0.072230205 0.32800001 4279377682
0.083212487 0.072230205 0.32800001 4279706647
0.084277831 0.072230205 0.32800001 4279905053
0.085082985 0.072009988 0.32700002 4279247123
0.086145088 0.072009988 0.32700002 4279115535
0.087207183 0.072009988 0.32700002 4280695337
0.088269278 0.072009988 0.32700002 4280037407
0.089331366 0.072009988 0.32700002 4279247121
0.09011703 0.071789771 0.32600001 4279312400
0.091175877 0.071789771 0.32600001 4279246609
0.092234731 0.071789771 0.32600001 4279312402
0.093007408 0.071569562 0.32500002 4279313684
0.094063006 0.071569562 0.32500002 4280238116
0.095118605 0.071569562 0.32500002 4279976481
0.095878281 0.071349345 0.324 4279844893
0.096930631 0.071349345 0.324 4279844893
0.097680576 0.071129136 0.32300001 4279713818
0.098729677 0.071129136 0.32300001 4279911197
0.099469878 0.070908919 0.32200003 4279385367
0.10051574 0.070908919 0.32200003 4279386139
0.10124617 0.070688702 0.32100001 4279123480
0.10228878 0.070688702 0.32100001 4278860308
0.10333139 0.070688702 0.32100001 4279123480
0.104374 0.070688702 0.32100001 4279189271
0.10508821 0.070468493 0.32000002 4279255064
0.10612758 0.070468493 0.32000002 4279123478
0.10716692 0.070468493 0.32000002 4279188758
0.10820629 0.070468493 0.32000002 4279188758
0.10924565 0.070468493 0.32000002 4279451934
0.11028501 0.070468493 0.32000002 4279517727
0.11132438 0.070468493 0.32000002 4279713822
0.070631847 0.074636683 0.33400002 4284378209
0.071501955 0.074413218 0.333 4284378209
0.072583541 0.074413218 0.333 4284378461
0.073665127 0.074413218 0.333 4284378461
0.074522242 0.07418976 0.33200002 4284378461
0.075600579 0.07418976 0.33200002 4283984219
0.076447964 0.073966302 0.33100003 4282012991
0.077523045 0.073966302 0.33100003 4280895278
0.078360677 0.073742829 0.33000001 4280435495
0.079432517 0.073742829 0.33000001 4280369702
0.080260411 0.073519371 0.32900003 4280435495
0.081329003 0.073519371 0.32900003 4281026862
0.082147136 0.073295906 0.32800001 4279775000
0.083212487 0.073295906 0.32800001 4279181326
0.084277831 0.073295906 0.32800001 4279443475
0.085343175 0.073295906 0.32800001 4279377682
0.086145088 0.073072441 0.32700002 4279378195
0.087207183 0.073072441 0.32700002 4279247121
0.088269278 0.073072441 0.32700002 4279247121
0.089331366 0.073072441 0.32700002 4279312400
0.090393469 0.073072441 0.32700002 4279772949
0.091175877 0.072848976 0.32600001 4280101914
0.092234731 0.072848976 0.32600001 4279443473
0.093293577 0.072848976 0.32600001 4279246094
0.094063006 0.072625518 0.32500002 4279052308
0.095118605 0.072625518 0.32500002 4279713057
0.095878281 0.072402053 0.324 4278593804
0.096930631 0.072402053 0.324 4279712285
0.097680576 0.072178587 0.32300001 4279778330
0.098729677 0.072178587 0.32300001 4280107293
0.099469878 0.07195513 0.32200003 4279713307
0.10051574 0.07195513 0.32200003 4279713307
0.10124617 0.071731664 0.32100001 4279779615
0.10228878 0.071731664 0.32100001 4279320348
0.10300949 0.071508206 0.32000002 4278926101
0.10404885 0.071508206 0.32000002 4279189273
0.10508821 0.071508206 0.32000002 4279057172
0.10612758 0.071508206 0.32000002 4279386137
0.10716692 0.071508206 0.32000002 4279320344
0.10820629 0.071508206 0.32000002 4279254551
0.10890425 0.071284734 0.31900001 4279320344
0.10994036 0.071284734 0.31900001 4279254551
0.11097648 0.071284734 0.31900001 4279319574
0.11201259 0.071284734 0.31900001 4279713818
0.11304871 0.071284734 0.31900001 4279779611
0.072583541 0.075495176 0.333 4284575329
0.073665127 0.075495176 0.333 4284509536
0.074522242 0.075268462 0.33200002 4284509536
0.075600579 0.075268462 0.33200002 4284378463
0.076447964 0.075041756 0.33100003 4284313184
0.077523045 0.075041756 0.33100003 4284050782
0.078360677 0.074815035 0.33000001 4283722326
0.079432517 0.074815035 0.33000001 4281091376
0.080260411 0.074588329 0.32900003 4280303909
0.081329003 0.074588329 0.32900003 4280567594
0.082147136 0.074361615 0.32800001 4280436008
0.083212487 0.074361615 0.32800001 4280172323
0.084277831 0.074361615 0.32800001 4280565284
0.085343175 0.074361615 0.32800001 4279774487
0.086408526 0.074361615 0.32800001 4279378191
0.087207183 0.074134901 0.32700002 4279312400
0.088269278 0.074134901 0.32700002 4279443473
0.089331366 0.074134901 0.32700002 4279575570
0.090393469 0.074134901 0.32700002 4280365600
0.091455564 0.074134901 0.32700002 4279445268
0.092517667 0.074134901 0.32700002 4279443988
0.093293577 0.073908187 0.32600001 4279509268
0.094352432 0.073908187 0.32600001 4280434213
0.095118605 0.073681481 0.32500002 4280040991
0.096174203 0.073681481 0.32500002 4279843358
0.096930631 0.07345476 0.324 4280040737
0.097680576 0.073228054 0.32300001 4279053072
0.098729677 0.073228054 0.32300001 4279382037
0.099469878 0.07300134 0.32200003 4279843358
0.10051574 0.07300134 0.32200003 4280107297
0.10124617 0.072774626 0.32100001 4279779102
0.10228878 0.072774626 0.32100001 4279713822
0.10300949 0.07254792 0.32000002 4279582750
0.10404885 0.07254792 0.32000002 4279582748
0.10508821 0.07254792 0.32000002 4279187988
0.10579592 0.072321199 0.31900001 4279385367
0.10683203 0.072321199 0.31900001 4279188758
0.10786814 0.072321199 0.31900001 4278991379
0.10890425 0.072321199 0.31900001 4279057172
0.10994036 0.072321199 0.31900001 4279320344
0.1106286 0.072094493 0.31800002 4279319574
0.11166146 0.072094493 0.31800002 4279516953
0.11269433 0.072094493 0.31800002 4279385367
0.073665127 0.07657712 0.333 4284575329
0.074522242 0.076347165 0.33200002 4284838501
0.075600579 0.076347165 0.33200002 4284509536
0.076447964 0.076117203 0.33100003 4284312670
0.077523045 0.076117203 0.33100003 4284312670
0.078360677 0.07588724 0.33000001 4284246877
0.079432517 0.07588724 0.33000001 4284181598
0.080260411 0.075657278 0.32900003 4284248157
0.081329003 0.075657278 0.32900003 4282800711
0.082147136 0.075427316 0.32800001 4280631338
0.083212487 0.075427316 0.32800001 4280368934
0.084277831 0.075427316 0.32800001 4280500518
0.085343175 0.075427316 0.32800001 4280434725
0.086408526 0.075427316 0.32800001 4280565797
0.087473869 0.075427316 0.32800001 4279842076
0.088539213 0.075427316 0.32800001 4279313684
0.089331366 0.075197354 0.32700002 4279378193
0.090393469 0.075197354 0.32700002 4279312400
0.091455564 0.075197354 0.32700002 4279247121
0.092517667 0.075197354 0.32700002 4279312662
0.093579762 0.075197354 0.32700002 4280365604
0.094352432 0.074967392 0.32600001 4279975457
0.095411271 0.074967392 0.32600001 4279909918
0.096174203 0.074737437 0.32500002 4280566565
0.096930631 0.074507467 0.324 4279513877
0.097982988 0.074507467 0.324 4280105760
0.098729677 0.074277513 0.32300001 4280303139
0.099469878 0.074047551 0.32200003 4279776281
0.10051574 0.074047551 0.32200003 4279315217
0.10124617 0.073817588 0.32100001 4279710742
0.10228878 0.073817588 0.32100001 4280040221
0.10300949 0.073587626 0.32000002 4279779102
0.10404885 0.073587626 0.32000002 4279779615
0.1047598 0.073357664 0.31900001 4279911199
0.10579592 0.073357664 0.31900001 4279516955
0.10683203 0.073357664 0.31900001 4279648541
0.10753 0.073127702 0.31800002 4279582748
0.10856286 0.073127702 0.31800002 4279056404
0.10959573 0.073127702 0.31800002 4279122195
0.1106286 0.073127702 0.31800002 4279385367
0.11131032 0.07289774 0.317 4279516953
0.11233994 0.07289774 0.317 4279386137
0.11301192 0.072667778 0.31600001 4279386137
0.11403829 0.072667778 0.31600001 4279320598
0.11506466 0.072667778 0.31600001 4279254805
0.11609103 0.072667778 0.31600001 4279386139
0.1171174 0.072667778 0.31600001 4279715104
0.11814377 0.072667778 0.31600001 4280108067
0.080260411 0.076726235 0.32900003 4284444254
0.0810818 0.076493025 0.32800001 4283786324
0.082147136 0.076493025 0.32800001 4283327057
0.083212487 0.076493025 0.32800001 4284182366
0.084277831 0.076493025 0.32800001 4282340673
0.085343175 0.076493025 0.32800001 4280696618
0.086408526 0.076493025 0.32800001 4280829485
0.087473869 0.076493025 0.32800001 4280566059
0.088539213 0.076493025 0.32800001 4280434473
0.089604549 0.076493025 0.32800001 4280434727
0.0906699 0.076493025 0.32800001 4280498723
0.091455564 0.076259814 0.32700002 4278984717
0.092517667 0.076259814 0.32700002 4279181330
0.093579762 0.076259814 0.32700002 4280301092
0.094352432 0.076026604 0.32600001 4280107297
0.095411271 0.076026604 0.32600001 4279646746
0.096174203 0.075793393 0.32500002 4279314195
0.097229809 0.075793393 0.32500002 4279182098
0.097982988 0.075560182 0.324 4279444500
0.098729677 0.075326972 0.32300001 4279641365
0.099778786 0.075326972 0.32300001 4279842074
0.10051574 0.075093761 0.32200003 4280236832
0.10156158 0.075093761 0.32200003 4280236832
0.10228878 0.07486055 0.32100001 4280038940
0.10333139 0.07486055 0.32100001 4279315730
0.10404885 0.07462734 0.32000002 4279842588
0.10508821 0.07462734 0.32000002 4279909405
0.10579592 0.074394129 0.31900001 4279909918
0.10683203 0.074394129 0.31900001 4279844893
0.10753 0.074160919 0.31800002 4279844893
0.10856286 0.074160919 0.31800002 4279779613
0.10925108 0.073927708 0.317 4279582234
0.1102807 0.073927708 0.317 4279450648
0.11131032 0.073927708 0.317 4279319576
0.11233994 0.073927708 0.317 4279254553
0.11301192 0.073694497 0.31600001 4279451930
0.11403829 0.073694497 0.31600001 4279254805
0.11506466 0.073694497 0.31600001 4279320598
0.11609103 0.073694497 0.31600001 4279123732
0.1171174 0.073694497 0.31600001 4279189271
0.11814377 0.073694497 0.31600001 4279517723
0.11954726 0.073927708 0.317 4279582746
0.12057687 0.073927708 0.317 4279779613
0.12160648 0.073927708 0.317 4280304674
0.1226361 0.073927708 0.317 4281091882
0.12366571 0.073927708 0.317 4281354032
0.0810818 0.077558726 0.32800001 4284115289
0.082147136 0.077558726 0.32800001 4284246875
0.083212487 0.077558726 0.32800001 4284378461
0.084277831 0.077558726 0.32800001 4284575842
0.085343175 0.077558726 0.32800001 4284839528
0.086408526 0.077558726 0.32800001 4285037673
0.087473869 0.077558726 0.32800001 4282011708
0.088539213 0.077558726 0.32800001 4280960303
0.089604549 0.077558726 0.32800001 4280631592
0.0906699 0.077558726 0.32800001 4280632106
0.091735244 0.077558726 0.32800001 4280368934
0.092517667 0.077322267 0.32700002 4280368932
0.093579762 0.077322267 0.32700002 4280368932
0.094641857 0.077322267 0.32700002 4278789900
0.095411271 0.077085808 0.32600001 4279710488
0.096470118 0.077085808 0.32600001 4279708953
0.097229809 0.076849349 0.32500002 4279312914
0.097982988 0.076612882 0.324 4279443988
0.099035338 0.076612882 0.324 4279443988
0.099778786 0.076376431 0.32300001 4279709977
0.10082789 0.076376431 0.32300001 4279578389
0.10156158 0.076139972 0.32200003 4279907354
0.10260744 0.076139972 0.32200003 4279775768
0.10333139 0.075903513 0.32100001 4280105246
0.104374 0.075903513 0.32100001 4280236832
0.10508821 0.075667053 0.32000002 4279249939
0.10579592 0.075430587 0.31900001 4279249426
0.10683203 0.075430587 0.31900001 4279645463
0.10753 0.075194135 0.31800002 4279975196
0.10856286 0.075194135 0.31800002 4279844893
0.10925108 0.074957669 0.317 4279582234
0.1102807 0.074957669 0.317 4279713818
0.11131032 0.074957669 0.317 4279713818
0.11198556 0.07472121 0.31600001 4279713818
0.11301192 0.07472121 0.31600001 4279254551
0.11403829 0.07472121 0.31600001 4279254551
0.11506466 0.07472121 0.31600001 4279254551
0.11609103 0.07472121 0.31600001 4279648539
0.1171174 0.07472121 0.31600001 4279188758
0.11814377 0.07472121 0.31600001 4279452184
0.11954726 0.074957669 0.317 4279452184
0.12057687 0.074957669 0.317 4279386137
0.12160648 0.074957669 0.317 4279386137
0.1226361 0.074957669 0.317 4279779611
0.12366571 0.074957669 0.317 4280042783
0.12508871 0.075194135 0.31800002 4280370467
0.12612157 0.075194135 0.31800002 4280895276
0.12715442 0.075194135 0.31800002 4283064398
0.0810818 0.078624435 0.32800001 4284312668
0.082147136 0.078624435 0.32800001 4284312670
0.083212487 0.078624435 0.32800001 4284575842
0.084277831 0.078624435 0.32800001 4284575842
0.085343175 0.078624435 0.32800001 4284904807
0.086408526 0.078624435 0.32800001 4284773735
0.087473869 0.078624435 0.32800001 4284773733
0.088539213 0.078624435 0.32800001 4285036905
0.089604549 0.078624435 0.32800001 4284708710
0.0906699 0.078624435 0.32800001 4281617720
0.091735244 0.078624435 0.32800001 4280697385
0.092800587 0.078624435 0.32800001 4280500518
0.093579762 0.078384727 0.32700002 4280434725
0.094641857 0.078384727 0.32700002 4280238370
0.095411271 0.078145012 0.32600001 4280304163
0.096470118 0.078145012 0.32600001 4279513111
0.097229809 0.077905312 0.32500002 4279643930
0.098285407 0.077905312 0.32500002 4280103200
0.099035338 0.077665597 0.324 4280497956
0.10008769 0.077665597 0.324 4280236832
0.10082789 0.07742589 0.32300001 4279513109
0.10187699 0.07742589 0.32300001 4280236573
0.10260744 0.07718619 0.32200003 4280236573
0.1036533 0.07718619 0.32200003 4279578389
0.104374 0.076946475 0.32100001 4280171039
0.10541661 0.076946475 0.32100001 4280039967
0.10612758 0.076706767 0.32000002 4280039967
0.10683203 0.076467052 0.31900001 4280171039
0.10786814 0.076467052 0.31900001 4279381523
0.10856286 0.076227352 0.31800002 4279315730
0.10959573 0.076227352 0.31800002 4279710488
0.1102807 0.075987637 0.317 4279843610
0.11131032 0.075987637 0.317 4279778328
0.11233994 0.075987637 0.317 4279844891
0.11301192 0.07574793 0.31600001 4279648025
0.11403829 0.07574793 0.31600001 4279516953
0.11506466 0.07574793 0.31600001 4279582746
0.11609103 0.07574793 0.31600001 4279187988
0.1171174 0.07574793 0.31600001 4279385367
0.11814377 0.07574793 0.31600001 4279648279
0.11954726 0.075987637 0.317 4279648279
0.12057687 0.075987637 0.317 4279583000
0.12160648 0.075987637 0.317 4279254805
0.1226361 0.075987637 0.317 4279320598
0.12366571 0.075987637 0.317 4279649563
0.12508871 0.076227352 0.31800002 4279320344
0.12612157 0.076227352 0.31800002 4279845918
0.12715442 0.076227352 0.31800002 4280370465
0.12859039 0.076467052 0.31900001 4280632358
0.1296265 0.076467052 0.31900001 4281814070
0.13066262 0.076467052 0.31900001 4284971880
0.0810818 0.079690143 0.32800001 4284312670
0.082147136 0.079690143 0.32800001 4284444256
0.083212487 0.079690143 0.32800001 4284839014
0.084277831 0.079690143 0.32800001 4284970600
0.085343175 0.079690143 0.32800001 4284773221
0.086408526 0.079690143 0.32800001 4284970600
0.087473869 0.079690143 0.32800001 4284970600
0.088539213 0.079690143 0.32800001 4284904807
0.089604549 0.079690143 0.32800001 4284839528
0.0906699 0.079690143 0.32800001 4285102700
0.091735244 0.079690143 0.32800001 4285432433
0.092800587 0.079690143 0.32800001 4283919705
0.093579762 0.079447187 0.32700002 4281419312
0.094641857 0.079447187 0.32700002 4280960042
0.095411271 0.079204224 0.32600001 4280303911
0.096470118 0.079204224 0.32600001 4280369704
0.097229809 0.078961268 0.32500002 4280303911
0.098285407 0.078961268 0.32500002 4280236834
0.099341013 0.078961268 0.32500002 4279710490
0.10008769 0.078718305 0.324 4279578904
0.10114004 0.078718305 0.324 4279973662
0.10187699 0.078475356 0.32300001 4279973660
0.10292609 0.078475356 0.32300001 4279973914
0.1036533 0.0782324 0.32200003 4280039194
0.10469916 0.0782324 0.32200003 4279315219
0.10541661 0.077989437 0.32100001 4280039967
0.10645922 0.077989437 0.32100001 4279974944
0.10716692 0.077746481 0.32000002 4279579418
0.10786814 0.077503517 0.31900001 4280171553
0.10890425 0.077503517 0.31900001 4280303139
0.10959573 0.077260569 0.31800002 4280040221
0.1106286 0.077260569 0.31800002 4279054096
0.11131032 0.077017605 0.317 4279251221
0.11233994 0.077017605 0.317 4279580440
0.11336955 0.077017605 0.317 4279712537
0.11403829 0.076774649 0.31600001 4279582234
0.11506466 0.076774649 0.31600001 4279713820
0.11609103 0.076774649 0.31600001 4279648027
0.1171174 0.076774649 0.31600001 4279648027
0.11851764 0.077017605 0.317 4279516439
0.11954726 0.077017605 0.317 4279582232
0.12057687 0.077017605 0.317 4279583000
0.12160648 0.077017605 0.317 4279649563
0.1226361 0.077017605 0.317 4279320598
0.12366571 0.077017605 0.317 4279254805
0.12508871 0.077260569 0.31800002 4279320598
0.12612157 0.077260569 0.31800002 4279385621
0.12715442 0.077260569 0.31800002 4280043037
0.12859039 0.077503517 0.31900001 4280042524
0.1296265 0.077503517 0.31900001 4280304674
0.13066262 0.077503517 0.31900001 4280369956
0.13169873 0.077503517 0.31900001 4279974176
0.13231875 0.077260569 0.31800002 4282802509
0.13335162 0.077260569 0.31800002 4286286974
0.083212487 0.080755845 0.32800001 4284838247
0.08402089 0.08050964 0.32700002 4284707428
0.085082985 0.08050964 0.32700002 4284707428
0.086408526 0.080755845 0.32800001 4284773221
0.087473869 0.080755845 0.32800001 4285035880
0.088539213 0.080755845 0.32800001 4284970600
0.089604549 0.080755845 0.32800001 4284904807
0.0906699 0.080755845 0.32800001 4285036139
0.091735244 0.080755845 0.32800001 4285036139
0.092800587 0.080755845 0.32800001 4285036393
0.093579762 0.08050964 0.32700002 4284905321
0.094641857 0.08050964 0.32700002 4285234802
0.095411271 0.080263428 0.32600001 4283195732
0.096470118 0.080263428 0.32600001 4280433959
0.097528972 0.080263428 0.32600001 4280895278
0.098285407 0.080017224 0.32500002 4280434725
0.099341013 0.080017224 0.32500002 4280500518
0.10008769 0.079771012 0.324 4280434725
0.10114004 0.079771012 0.324 4280303139
0.10219239 0.079771012 0.324 4279644182
0.10292609 0.079524808 0.32300001 4279906584
0.1039752 0.079524808 0.32300001 4280171039
0.10502431 0.079524808 0.32300001 4279974174
0.10574502 0.079278611 0.32200003 4279579418
0.10645922 0.079032399 0.32100001 4279908383
0.10750182 0.079032399 0.32100001 4279250453
0.10820629 0.078786194 0.32000002 4279908383
0.10890425 0.078539982 0.31900001 4279447830
0.10994036 0.078539982 0.31900001 4280105760
0.1106286 0.078293778 0.31800002 4279843358
0.11166146 0.078293778 0.31800002 4279909151
0.11233994 0.078047566 0.317 4279645209
0.11336955 0.078047566 0.317 4279382037
0.11439916 0.078047566 0.317 4279250451
0.11542878 0.078047566 0.317 4279777565
0.1164584 0.078047566 0.317 4279909918
0.11748802 0.078047566 0.317 4279713309
0.11851764 0.078047566 0.317 4279844893
0.11954726 0.078047566 0.317 4279779100
0.12057687 0.078047566 0.317 4279779613
0.12160648 0.078047566 0.317 4279187990
0.1226361 0.078047566 0.317 4279451160
0.12405583 0.078293778 0.31800002 4279517723
0.12508871 0.078293778 0.31800002 4279517723
0.12612157 0.078293778 0.31800002 4279320344
0.12715442 0.078293778 0.31800002 4279582746
0.12859039 0.078539982 0.31900001 4279451160
0.1296265 0.078539982 0.31900001 4279319060
0.13066262 0.078539982 0.31900001 4279582234
0.13128589 0.078293778 0.31800002 4279976992
0.13231875 0.078293778 0.31800002 4280108067
0.13335162 0.078293778 0.31800002 4280696870
0.13438448 0.078293778 0.31800002 4283590227
0.083212487 0.081821553 0.32800001 4284707174
0.08402089 0.081572101 0.32700002 4284838760
0.085082985 0.081572101 0.32700002 4284838760
0.086408526 0.081821553 0.32800001 4285036139
0.087473869 0.081821553 0.32800001 4285167979
0.088539213 0.081821553 0.32800001 4284970600
0.089604549 0.081821553 0.32800001 4285036393
0.0906699 0.081821553 0.32800001 4285167725
0.091735244 0.081821553 0.32800001 4285167725
0.092800587 0.081821553 0.32800001 4285233518
0.093579762 0.081572101 0.32700002 4285233518
0.094641857 0.081572101 0.32700002 4285234286
0.095703945 0.081572101 0.32700002 4285169263
0.096470118 0.08132264 0.32600001 4284971884
0.097528972 0.08132264 0.32600001 4285497974
0.098285407 0.081073187 0.32500002 4283064396
0.099341013 0.081073187 0.32500002 4280631079
0.10039661 0.081073187 0.32500002 4280763430
0.10114004 0.080823727 0.324 4280434979
0.10219239 0.080823727 0.324 4280303393
0.10324474 0.080823727 0.324 4280369186
0.1042971 0.080823727 0.324 4280039453
0.10502431 0.080574274 0.32300001 4279513109
0.10607341 0.080574274 0.32300001 4279381525
0.10679087 0.080324821 0.32200003 4280105246
0.10750182 0.080075361 0.32100001 4280171553
0.10854443 0.080075361 0.32100001 4279843358
0.10924565 0.079825908 0.32000002 4279578391
0.11028501 0.079825908 0.32000002 4279577619
0.11097648 0.079576448 0.31900001 4279118351
0.11201259 0.079576448 0.31900001 4279843360
0.11269433 0.079326995 0.31800002 4279711772
0.11372718 0.079326995 0.31800002 4279974944
0.11476005 0.079326995 0.31800002 4279974944
0.11542878 0.079077534 0.317 4279580186
0.1164584 0.079077534 0.317 4279184660
0.11748802 0.079077534 0.317 4279315732
0.11851764 0.079077534 0.317 4279843358
0.11954726 0.079077534 0.317 4279909664
0.12057687 0.079077534 0.317 4279844893
0.12199011 0.079326995 0.31800002 4279648027
0.12302297 0.079326995 0.31800002 4279648027
0.12405583 0.079326995 0.31800002 4279582234
0.12508871 0.079326995 0.31800002 4279451162
0.12612157 0.079326995 0.31800002 4279582748
0.12715442 0.079326995 0.31800002 4279780125
0.12818728 0.079326995 0.31800002 4279582746
0.12922016 0.079326995 0.31800002 4279516953
0.13025302 0.079326995 0.31800002 4279451160
0.13128589 0.079326995 0.31800002 4279516953
0.13231875 0.079326995 0.31800002 4279516953
0.13335162 0.079326995 0.31800002 4279780127
0.13438448 0.079326995 0.31800002 4280173858
0.13541734 0.079326995 0.31800002 4281483831
0.083212487 0.082887255 0.32800001 4284839014
0.084277831 0.082887255 0.32800001 4284904553
0.085343175 0.082887255 0.32800001 4284904553
0.086408526 0.082887255 0.32800001 4284970346
0.087473869 0.082887255 0.32800001 4285036139
0.088809155 0.083139963 0.32900003 4285036139
0.08987774 0.083139963 0.32900003 4285233518
0.090946332 0.083139963 0.32900003 4285233772
0.091735244 0.082887255 0.32800001 4285431151
0.092800587 0.082887255 0.32800001 4285365104
0.093579762 0.082634553 0.32700002 4285365104
0.094641857 0.082634553 0.32700002 4285365104
0.095411271 0.082381845 0.32600001 4285496690
0.096470118 0.082381845 0.32600001 4285169009
0.097528972 0.082381845 0.32600001 4285103216
0.098285407 0.082129143 0.32500002 4285365618
0.099341013 0.082129143 0.32500002 4285497458
0.10039661 0.082129143 0.32500002 4285365870
0.10145222 0.082129143 0.32500002 4283457871
0.10219239 0.081876434 0.324 4280300829
0.10324474 0.081876434 0.324 4281026089
0.1042971 0.081876434 0.324 4280566565
0.10502431 0.081623733 0.32300001 4280369186
0.10607341 0.081623733 0.32300001 4280302625
0.10712252 0.081623733 0.32300001 4280039453
0.10783672 0.081371032 0.32200003 4279249426
0.10854443 0.081118323 0.32100001 4279709723
0.10958704 0.081118323 0.32100001 4279776283
0.11028501 0.080865614 0.32000002 4280039455
0.11132438 0.080865614 0.32000002 4279381012
0.11201259 0.080612905 0.31900001 4279776283
0.11304871 0.080612905 0.31900001 4279579418
0.11408481 0.080612905 0.31900001 4279184660
0.11476005 0.080360204 0.31800002 4279513623
0.11579292 0.080360204 0.31800002 4279974174
0.11682578 0.080360204 0.31800002 4280171553
0.11785865 0.080360204 0.31800002 4279908381
0.11889151 0.080360204 0.31800002 4279974174
0.11992438 0.080360204 0.31800002 4279118865
0.12095724 0.080360204 0.31800002 4279317268
0.12199011 0.080360204 0.31800002 4279712026
0.12302297 0.080360204 0.31800002 4279778332
0.12405583 0.080360204 0.31800002 4279779100
0.12508871 0.080360204 0.31800002 4279713307
0.12612157 0.080360204 0.31800002 4279779613
0.12715442 0.080360204 0.31800002 4279648025
0.12818728 0.080360204 0.31800002 4279648025
0.12922016 0.080360204 0.31800002 4279648539
0.13025302 0.080360204 0.31800002 4279648539
0.13128589 0.080360204 0.31800002 4279451414
0.13231875 0.080360204 0.31800002 4279385621
0.13335162 0.080360204 0.31800002 4279451160
0.13438448 0.080360204 0.31800002 4279451160
0.13541734 0.080360204 0.31800002 4280631844
0.083212487 0.083952963 0.32800001 4284970087
0.084277831 0.083952963 0.32800001 4284839014
0.085343175 0.083952963 0.32800001 4284970600
0.086408526 0.083952963 0.32800001 4285036393
0.087473869 0.083952963 0.32800001 4285036393
0.088809155 0.084208921 0.32900003 4285036393
0.08987774 0.084208921 0.32900003 4285036393
0.090946332 0.084208921 0.32900003 4285299565
0.092014931 0.084208921 0.32900003 4285167725
0.092517667 0.083697014 0.32700002 4285430897
0.093579762 0.083697014 0.32700002 4285365104
0.094641857 0.083697014 0.32700002 4285431151
0.095411271 0.083441056 0.32600001 4285628530
0.096470118 0.083441056 0.32600001 4285694323
0.097528972 0.083441056 0.32600001 4285759862
0.098285407 0.083185099 0.32500002 4285759862
0.099341013 0.083185099 0.32500002 4285694069
0.10039661 0.083185099 0.32500002 4285825909
0.10145222 0.083185099 0.32500002 4285694321
0.10250781 0.083185099 0.32500002 4285759599
0.10324474 0.082929142 0.324 4286220150
0.1042971 0.082929142 0.324 4283196236
0.10534945 0.082929142 0.324 4280432417
0.10607341 0.082673192 0.32300001 4280893733
0.10712252 0.082673192 0.32300001 4280697637
0.10783672 0.082417242 0.32200003 4280434213
0.10888258 0.082417242 0.32200003 4280434213
0.10958704 0.082161285 0.32100001 4279974176
0.11062965 0.082161285 0.32100001 4279315478
0.11132438 0.081905335 0.32000002 4279776281
0.11236374 0.081905335 0.32000002 4279974174
0.1134031 0.081905335 0.32000002 4280039967
0.11408481 0.08164937 0.31900001 4279842076
0.11512093 0.08164937 0.31900001 4280039455
0.11615704 0.08164937 0.31900001 4279381525
0.11719315 0.08164937 0.31900001 4280039453
0.11822927 0.08164937 0.31900001 4279645209
0.11926538 0.08164937 0.31900001 4280039705
0.1203015 0.08164937 0.31900001 4280171291
0.12095724 0.081393421 0.31800002 4280172575
0.12199011 0.081393421 0.31800002 4280106012
0.12302297 0.081393421 0.31800002 4279315984
0.12405583 0.081393421 0.31800002 4279381777
0.12508871 0.081393421 0.31800002 4279909403
0.12612157 0.081393421 0.31800002 4279976479
0.12715442 0.081393421 0.31800002 4279844893
0.12818728 0.081393421 0.31800002 4279779100
0.12922016 0.081393421 0.31800002 4279648027
0.13025302 0.081393421 0.31800002 4279648025
0.13128589 0.081393421 0.31800002 4279648793
0.13231875 0.081393421 0.31800002 4279780379
0.13293228 0.081137463 0.317 4279516953
0.13396187 0.081137463 0.317 4279385367
0.1349915 0.081137463 0.317 4279582234
0.092517667 0.084759474 0.32700002 4285430897
0.093579762 0.084759474 0.32700002 4285364591
0.094641857 0.084759474 0.32700002 4285693556
0.095411271 0.084500261 0.32600001 4285561970
0.096470118 0.084500261 0.32600001 4285759349
0.097528972 0.084500261 0.32600001 4285693810
0.098285407 0.084241062 0.32500002 4285825396
0.099341013 0.084241062 0.32500002 4285694069
0.10039661 0.084241062 0.32500002 4285694069
0.10145222 0.084241062 0.32500002 4285825142
0.10250781 0.084241062 0.32500002 4285825396
0.10356341 0.084241062 0.32500002 4285956982
0.1042971 0.083981857 0.324 4285694321
0.10534945 0.083981857 0.324 4285694321
0.10607341 0.083722658 0.32300001 4285891700
0.10712252 0.083722658 0.32300001 4284049494
0.10817161 0.083722658 0.32300001 4281024806
0.10888258 0.083463453 0.32200003 4280367905
0.10992844 0.083463453 0.32200003 4280697383
0.11062965 0.083204247 0.32100001 4280500004
0.11167226 0.083204247 0.32100001 4280434463
0.11236374 0.082945049 0.32000002 4279842326
0.1134031 0.082945049 0.32000002 4279381523
0.11444245 0.082945049 0.32000002 4280038940
0.11548182 0.082945049 0.32000002 4280236832
0.11652118 0.082945049 0.32000002 4280171039
0.11756054 0.082945049 0.32000002 4279709975
0.11822927 0.082685843 0.31900001 4280038170
0.11926538 0.082685843 0.31900001 4279971864
0.1203015 0.082685843 0.31900001 4280038170
0.1213376 0.082685843 0.31900001 4280040991
0.12237372 0.082685843 0.31900001 4280172575
0.12340983 0.082685843 0.31900001 4280039453
0.12405583 0.082426637 0.31800002 4279116816
0.12508871 0.082426637 0.31800002 4279974176
0.12612157 0.082426637 0.31800002 4280172836
0.12715442 0.082426637 0.31800002 4279975709
0.12818728 0.082426637 0.31800002 4279909916
0.1288138 0.082167432 0.317 4279975707
0.12984341 0.082167432 0.317 4279975961
0.13087304 0.082167432 0.317 4279714072
0.13190265 0.082167432 0.317 4279516439
0.13293228 0.082167432 0.317 4279648025
0.13396187 0.082167432 0.317 4279450646
0.1349915 0.082167432 0.317 4279121683
0.092517667 0.085821919 0.32700002 4285628276
0.093579762 0.085821919 0.32700002 4285628276
0.094352432 0.085559465 0.32600001 4285628276
0.095411271 0.085559465 0.32600001 4285496690
0.096470118 0.085559465 0.32600001 4285496944
0.097528972 0.085559465 0.32600001 4285759603
0.098285407 0.085297011 0.32500002 4285891187
0.099341013 0.085297011 0.32500002 4285693808
0.10039661 0.085297011 0.32500002 4285693810
0.10145222 0.085297011 0.32500002 4285759349
0.10250781 0.085297011 0.32500002 4285956728
0.10356341 0.085297011 0.32500002 4285825142
0.10461901 0.085297011 0.32500002 4285825142
0.10534945 0.085034557 0.324 4286022521
0.10640181 0.085034557 0.324 4285628276
0.10712252 0.08477211 0.32300001 4285891448
0.10817161 0.08477211 0.32300001 4285694319
0.10888258 0.084509656 0.32200003 4285695603
0.10992844 0.084509656 0.32200003 4284380258
0.1109743 0.084509656 0.32200003 4281748023
0.11167226 0.084247202 0.32100001 4280827940
0.11271487 0.084247202 0.32100001 4280631331
0.11375748 0.084247202 0.32100001 4280631844
0.11444245 0.083984755 0.32000002 4280500258
0.11548182 0.083984755 0.32000002 4280171293
0.11652118 0.083984755 0.32000002 4279381777
0.11756054 0.083984755 0.32000002 4279973914
0.1185999 0.083984755 0.32000002 4280170780
0.11963926 0.083984755 0.32000002 4280038170
0.12067863 0.083984755 0.32000002 4280236319
0.1213376 0.083722293 0.31900001 4280040219
0.12237372 0.083722293 0.31900001 4280171805
0.12340983 0.083722293 0.31900001 4279117070
0.12405583 0.083459847 0.31800002 4280037920
0.12508871 0.083459847 0.31800002 4280303911
0.12612157 0.083459847 0.31800002 4279975457
0.12675457 0.083197393 0.317 4280107297
0.12778418 0.083197393 0.317 4279909916
0.1288138 0.083197393 0.317 4280238879
0.12984341 0.083197393 0.317 4279975961
0.13087304 0.083197393 0.317 4279779352
0.13190265 0.083197393 0.317 4280108317
0.13251293 0.082934938 0.31600001 4280042524
0.13353929 0.082934938 0.31600001 4279713559
0.13456567 0.082934938 0.31600001 4279712535
0.13532139 0.082147583 0.31300002 4285694573
0.13633803 0.082147583 0.31300002 4286352251
0.13735464 0.082147583 0.31300002 4286613629
0.13837127 0.082147583 0.31300002 4286547836
0.13938789 0.082147583 0.31300002 4286547582
0.093579762 0.086884379 0.32700002 4285299311
0.094352432 0.086618669 0.32600001 4285561970
0.095411271 0.086618669 0.32600001 4285561970
0.096470118 0.086618669 0.32600001 4285890419
0.097528972 0.086618669 0.32600001 4285890419
0.098285407 0.086352974 0.32500002 4285890417
0.099341013 0.086352974 0.32500002 4285956210
0.10039661 0.086352974 0.32500002 4285759603
0.10145222 0.086352974 0.32500002 4285825396
0.10250781 0.086352974 0.32500002 4285693556
0.10356341 0.086352974 0.32500002 4285956728
0.10461901 0.086352974 0.32500002 4285890937
0.10567461 0.086352974 0.32500002 4285956730
0.10640181 0.086087264 0.324 4285824891
0.10712252 0.085821569 0.32300001 4285824891
0.10817161 0.085821569 0.32300001 4285693558
0.10922072 0.085821569 0.32300001 4285693556
0.10992844 0.085555874 0.32200003 4285759862
0.1109743 0.085555874 0.32200003 4285760116
0.11167226 0.085290164 0.32100001 4285760116
0.11271487 0.085290164 0.32100001 4285694323
0.11375748 0.085290164 0.32100001 4282469949
0.11480008 0.085290164 0.32100001 4280563233
0.11584269 0.085290164 0.32100001 4280893481
0.1168853 0.085290164 0.32100001 4280631077
0.11792791 0.085290164 0.32100001 4280499491
0.1185999 0.085024469 0.32000002 4279841561
0.11963926 0.085024469 0.32000002 4279709977
0.12067863 0.085024469 0.32000002 4279907356
0.12171797 0.085024469 0.32000002 4280171039
0.12237372 0.084758759 0.31900001 4279578389
0.12340983 0.084758759 0.31900001 4279510543
0.12405583 0.084493063 0.31800002 4280630307
0.12508871 0.084493063 0.31800002 4280039967
0.12572496 0.084227361 0.317 4280172323
0.12675457 0.084227361 0.317 4280107297
0.12778418 0.084227361 0.317 4280238881
0.1288138 0.084227361 0.317 4280238879
0.12943383 0.083961658 0.31600001 4279844891
0.13046019 0.083961658 0.31600001 4279976477
0.13148656 0.083961658 0.31600001 4279779098
0.13251293 0.083961658 0.31600001 4279844893
0.13311671 0.083695963 0.31500003 4279844895
0.13413982 0.083695963 0.31500003 4280172836
0.13532139 0.083164558 0.31300002 4285891439
0.13633803 0.083164558 0.31300002 4286416759
0.13735464 0.083164558 0.31300002 4286482556
0.13837127 0.083164558 0.31300002 4286350716
0.13938789 0.083164558 0.31300002 4286153337
0.14040451 0.083164558 0.31300002 4286416511
0.097229809 0.087408938 0.32500002 4285759603
0.098587818 0.087677881 0.32600001 4285891189
0.099646673 0.087677881 0.32600001 4285693810
0.10070552 0.087677881 0.32600001 4285759603
0.10176437 0.087677881 0.32600001 4285891702
0.10282321 0.087677881 0.32600001 4285694323
0.10388206 0.087677881 0.32600001 4285694069
0.10494091 0.087677881 0.32600001 4285891448
0.10599976 0.087677881 0.32600001 4285825142
0.10705861 0.087677881 0.32600001 4285956728
0.10811746 0.087677881 0.32600001 4285956728
0.1091763 0.087677881 0.32600001 4285956730
0.10888258 0.086602084 0.32200003 4285890937
0.10992844 0.086602084 0.32200003 4285890937
0.1109743 0.086602084 0.32200003 4285890935
0.11167226 0.086333133 0.32100001 4285956728
0.11271487 0.086333133 0.32100001 4285825396
0.11375748 0.086333133 0.32100001 4285759603
0.11480008 0.086333133 0.32100001 4286154361
0.11584269 0.086333133 0.32100001 4285891702
0.1168853 0.086333133 0.32100001 4282931531
0.11792791 0.086333133 0.32100001 4280366624
0.11897052 0.086333133 0.32100001 4280959274
0.11963926 0.086064182 0.32000002 4280499491
0.12067863 0.086064182 0.32000002 4280367905
0.12171797 0.086064182 0.32000002 4279972377
0.12237372 0.085795231 0.31900001 4280037657
0.12340983 0.085795231 0.31900001 4280696352
0.12405583 0.08552628 0.31800002 4280499743
0.12469533 0.085257329 0.317 4280434461
0.12572496 0.085257329 0.317 4280171805
0.12675457 0.085257329 0.317 4280173090
0.12738109 0.084988378 0.31600001 4280304676
0.12840745 0.084988378 0.31600001 4280040987
0.12943383 0.084988378 0.31600001 4280173086
0.13046019 0.084988378 0.31600001 4279713305
0.13107046 0.084719434 0.31500003 4279779098
0.13209359 0.084719434 0.31500003 4279844641
0.1326941 0.084450476 0.31400001 4280172836
0.13371398 0.084450476 0.31400001 4280435749
0.13387567 0.083912574 0.31200001 4281880376
0.13488905 0.083912574 0.31200001 4286022771
0.13590243 0.083912574 0.31200001 4286351738
0.1369158 0.083912574 0.31200001 4286416763
0.13837127 0.084181532 0.31300002 4286416763
0.13938789 0.084181532 0.31300002 4286811008
0.14040451 0.084181532 0.31300002 4286547582
0.14142114 0.084181532 0.31300002 4286810756
0.14243777 0.084181532 0.31300002 4286547584
0.11375748 0.087376095 0.32100001 4286087798
0.11480008 0.087376095 0.32100001 4286153591
0.11584269 0.087376095 0.32100001 4285890935
0.1168853 0.087376095 0.32100001 4286022521
0.11792791 0.087376095 0.32100001 4285760114
0.11897052 0.087376095 0.32100001 4285826421
0.11963926 0.087103896 0.32000002 4283786322
0.12067863 0.087103896 0.32000002 4281089061
0.1213376 0.086831696 0.31900001 4280761380
0.12237372 0.086831696 0.31900001 4281090858
0.12302297 0.086559497 0.31800002 4280697122
0.12405583 0.086559497 0.31800002 4280566049
0.12469533 0.08628729 0.317 4280500256
0.12572496 0.08628729 0.317 4280303391
0.12635471 0.086015098 0.31600001 4280172575
0.12738109 0.086015098 0.31600001 4280304161
0.12840745 0.086015098 0.31600001 4279975196
0.12902422 0.085742898 0.31500003 4280172573
0.13004735 0.085742898 0.31500003 4279975194
0.13107046 0.085742898 0.31500003 4280238366
0.13167424 0.085470699 0.31400001 4280172323
0.13227151 0.085198499 0.31300002 4280369704
0.13328815 0.085198499 0.31300002 4280498721
0.13387567 0.084926292 0.31200001 4285957232
0.13488905 0.084926292 0.31200001 4286481271
0.13590243 0.084926292 0.31200001 4286547836
0.1369158 0.084926292 0.31200001 4286416509
0.13792919 0.084926292 0.31200001 4286284923
0.13938789 0.085198499 0.31300002 4286613629
0.14040451 0.085198499 0.31300002 4286547836
0.14142114 0.085198499 0.31300002 4286679422
0.14243777 0.085198499 0.31300002 4286613375
0.12067863 0.088143609 0.32000002 4286022775
0.1213376 0.087868161 0.31900001 4285825907
0.12237372 0.087868161 0.31900001 4285036389
0.12302297 0.087592714 0.31800002 4281549360
0.12366571 0.087317258 0.317 4280366622
0.12469533 0.087317258 0.317 4280697122
0.12532835 0.087041818 0.31600001 4280697120
0.12635471 0.087041818 0.31600001 4280369182
0.12738109 0.087041818 0.31600001 4280500768
0.12800111 0.08676637 0.31500003 4280172573
0.12902422 0.08676637 0.31500003 4280303391
0.13004735 0.08676637 0.31500003 4280171805
0.13065436 0.086490914 0.31400001 4280500770
0.1312549 0.086215474 0.31300002 4280631079
0.13227151 0.086215474 0.31300002 4282141497
0.1328623 0.085940018 0.31200001 4286087796
0.13344659 0.08566457 0.31100002 4286350968
0.13445672 0.08566457 0.31100002 4286678650
0.13590243 0.085940018 0.31200001 4286678652
0.1369158 0.085940018 0.31200001 4286547582
0.13792919 0.085940018 0.31200001 4286481789
0.13938789 0.086215474 0.31300002 4286415996
0.14040451 0.086215474 0.31300002 4286481789
0.14142114 0.086215474 0.31300002 4286810754
0.14289284 0.086490914 0.31400001 4286679168
0.1439127 0.086490914 0.31400001 4286416509
0.12366571 0.088347219 0.317 4286022775
0.12430198 0.088068523 0.31600001 4285891700
0.12532835 0.088068523 0.31600001 4283786322
0.12635471 0.088068523 0.31600001 4281484335
0.12697798 0.087789834 0.31500003 4281090858
0.12800111 0.087789834 0.31500003 4280498721
0.12902422 0.087789834 0.31500003 4280696100
0.12963448 0.08751113 0.31400001 4281156392
0.13065436 0.08751113 0.31400001 4281748529
0.1312549 0.087232433 0.31300002 4286548599
0.13184892 0.086953729 0.31200001 4286218867
0.1328623 0.086953729 0.31200001 4286482041
0.13344659 0.086675033 0.31100002 4286482041
0.13445672 0.086675033 0.31100002 4286482043
0.13590243 0.086953729 0.31200001 4286678652
0.1369158 0.086953729 0.31200001 4286416250
0.13792919 0.086953729 0.31200001 4286613375
0.13938789 0.087232433 0.31300002 4286613375
0.14040451 0.087232433 0.31300002 4286613375
0.14142114 0.087232433 0.31300002 4286613375
0.14289284 0.08751113 0.31400001 4286810754
0.1439127 0.08751113 0.31400001 4286613375
0.12902422 0.088813297 0.31500003 4285956462
0.13004735 0.088813297 0.31500003 4286022255
0.13107046 0.088813297 0.31500003 4286022255
0.13083555 0.087967455 0.31200001 4286220150
0.13184892 0.087967455 0.31200001 4286154359
0.13243645 0.087685511 0.31100002 4286613627
0.13344659 0.087685511 0.31100002 4286547834
0.13445672 0.087685511 0.31100002 4286547834
0.13590243 0.087967455 0.31200001 4286547834
0.1369158 0.087967455 0.31200001 4286613627
0.13792919 0.087967455 0.31200001 4286613629
0.13938789 0.088249408 0.31300002 4286482302
0.14040451 0.088249408 0.31300002 4286745474
0.14187296 0.088531345 0.31400001 4286613375
0.14289284 0.088531345 0.31400001 4286613375
0.1439127 0.088531345 0.31400001 4286481789
0.10107312 0.075823829 0.32340062 4294967295
0.10107312 0.075823829 0.32340062 4294901760
0.10117672 0.0753543 0.32326347 4294901760
0.10128032 0.074884772 0.32312632 4294901760
0.10138392 0.074415244 0.32298917 4294901760
