# .PCD v0.7 - Point Cloud Data file format
VERSION 0.7
FIELDS x y z rgb
SIZE 4 4 4 4
TYPE F F F U
COUNT 1 1 1 1
WIDTH 810
HEIGHT 1
VIEWPOINT 0 0 0 1 0 0 0
POINTS 810
DATA ascii
0.043000661 -0.03094798 0.47100002 4287016343
0.044625018 -0.031013688 0.47200003 4287082136
0.046158072 -0.031013688 0.47200003 4285898376
0.047691133 -0.031013688 0.47200003 4285045120
0.049224187 -0.031013688 0.47200003 4284189811
0.050864778 -0.031079393 0.47300002 4285438595
0.039856248 -0.029355196 0.47000003 4282217300
0.041382805 -0.029355196 0.47000003 4281297225
0.043000661 -0.029417653 0.47100002 4280244537
0.04453047 -0.029417653 0.47100002 4280310584
0.046060279 -0.029417653 0.47100002 4280311865
0.047590088 -0.029417653 0.47100002 4279787318
0.049224187 -0.029480111 0.47200003 4280050490
0.050757244 -0.029480111 0.47200003 4280313151
0.052290302 -0.029480111 0.47200003 4280178746
0.038166579 -0.0277097 0.46800002 4279985980
0.039771445 -0.027768908 0.46900001 4279854394
0.041294757 -0.027768908 0.46900001 4279130671
0.042909365 -0.027828118 0.47000003 4279328050
0.04443593 -0.027828118 0.47000003 4279459890
0.045962486 -0.027828118 0.47000003 4279460658
0.047489051 -0.027828118 0.47000003 4279460658
0.049119897 -0.027887326 0.47100002 4279131693
0.050649706 -0.027887326 0.47100002 4279197486
0.052290302 -0.027946535 0.47200003 4279852598
0.03656821 -0.026133161 0.46700001 4279066416
0.038166579 -0.02618912 0.46800002 4279132722
0.039686646 -0.02618912 0.46800002 4278803757
0.04120671 -0.02618912 0.46800002 4278935341
0.042818066 -0.02624508 0.46900001 4278540070
0.044341382 -0.02624508 0.46900001 4278605863
0.045864694 -0.02624508 0.46900001 4278473761
0.047489051 -0.026301039 0.47000003 4278670370
0.049015611 -0.026301039 0.47000003 4278867749
0.050649706 -0.026356999 0.47100002 4278473761
0.052179515 -0.026356999 0.47100002 4279326256
0.0028558155 -0.021980301 0.41700003 4279318049
0.0042001354 -0.02192759 0.41600001 4280769338
0.0055513047 -0.02192759 0.41600001 4280968514
0.0069024726 -0.02192759 0.41600001 4282085714
0.0082536414 -0.02192759 0.41600001 4284913530
0.0095817223 -0.02187488 0.41500002 4286358927
0.036489904 -0.024563119 0.46600002 4278605861
0.038085025 -0.024615828 0.46700001 4278276896
0.039601844 -0.024615828 0.46700001 4278342689
0.04120671 -0.024668539 0.46800002 4278276896
0.04272677 -0.024668539 0.46800002 4278407968
0.044246837 -0.024668539 0.46800002 4278736933
0.045864694 -0.02472125 0.46900001 4278407198
0.04738801 -0.02472125 0.46900001 4278602267
0.049015611 -0.024773961 0.47000003 4278667292
0.050542168 -0.024773961 0.47000003 4278865955
0.052179515 -0.02482667 0.47100002 4278602019
0.0055513047 -0.020575963 0.41600001 4280243762
0.0069024726 -0.020575963 0.41600001 4279328304
0.0082536414 -0.020575963 0.41600001 4279789625
0.0096048107 -0.020575963 0.41600001 4279327539
0.010955979 -0.020575963 0.41600001 4279654453
0.012336733 -0.020625426 0.41700003 4281298762
0.01369115 -0.020625426 0.41700003 4281758800
0.015081646 -0.020674886 0.41800001 4281100616
0.017967282 -0.020872733 0.42200002 4280642114
0.019337939 -0.020872733 0.42200002 4280314686
0.020757668 -0.020922193 0.42300001 4279198002
0.022131572 -0.020922193 0.42300001 4279527480
0.023561046 -0.020971656 0.42400002 4279395890
0.024997015 -0.021021117 0.42500001 4279001132
0.026377415 -0.021021117 0.42500001 4279461683
0.036333296 -0.022950115 0.46400002 4278276382
0.03792192 -0.022999575 0.46500003 4278472991
0.039517045 -0.023049036 0.46600002 4278538784
0.041118659 -0.023098499 0.46700001 4278538784
0.042635474 -0.023098499 0.46700001 4278472478
0.044246837 -0.023147959 0.46800002 4278205971
0.045766901 -0.023147959 0.46800002 4278199552
0.04738801 -0.02319742 0.46900001 4280177453
0.048911318 -0.02319742 0.46900001 4278401558
0.050542168 -0.023246882 0.47000003 4279193384
0.052068733 -0.023246882 0.47000003 4278732068
0.0055646491 -0.01927055 0.41700003 4279516703
0.0069190655 -0.01927055 0.41700003 4278734880
0.0082536414 -0.019224338 0.41600001 4278867749
0.0096048107 -0.019224338 0.41600001 4278934312
0.010982316 -0.01927055 0.41700003 4280118588
0.012336733 -0.01927055 0.41700003 4283999094
0.013723982 -0.019316763 0.41800001 4281432143
0.015081646 -0.019316763 0.41800001 4280053059
0.016517967 -0.019409187 0.42000002 4279593789
0.017967282 -0.019501612 0.42200002 4279528761
0.019337939 -0.019501612 0.42200002 4279068210
0.020757668 -0.019547824 0.42300001 4279002417
0.022183893 -0.019594038 0.42400002 4279265589
0.023616614 -0.019640248 0.42500001 4278870570
0.024997015 -0.019640248 0.42500001 4278606626
0.02643948 -0.019686462 0.42600003 4278540320
0.027953755 -0.019778887 0.42800003 4278540320
0.029275339 -0.019732675 0.42700002 4278211100
0.034450937 -0.02121147 0.45900002 4278604831
0.036176685 -0.021350106 0.46200001 4278933283
0.037758816 -0.021396318 0.46300003 4278537501
0.039432243 -0.021488745 0.46500003 4278205197
0.041030612 -0.021534955 0.46600002 4278198784
0.042635474 -0.021581167 0.46700001 4279126049
0.044152293 -0.021581167 0.46700001 4279783977
0.045766901 -0.02162738 0.46800002 4279718184
0.04738801 -0.021673592 0.46900001 4279455012
0.048911318 -0.021673592 0.46900001 4279192353
0.050542168 -0.021719806 0.47000003 4279390763
0.052068733 -0.021719806 0.47000003 4281953358
0.0055779936 -0.017958637 0.41800001 4279843358
0.0069190655 -0.017915675 0.41700003 4278863388
0.0082734823 -0.017915675 0.41700003 4278864671
0.0096278992 -0.017915675 0.41700003 4278537755
0.010982316 -0.017915675 0.41700003 4278802210
0.012366317 -0.017958637 0.41800001 4278540068
0.013723982 -0.017958637 0.41800001 4278607148
0.015117726 -0.018001603 0.41900003 4278740013
0.016557297 -0.018087529 0.42100003 4279201334
0.017967282 -0.018130491 0.42200002 4278674990
0.019383764 -0.018173454 0.42300001 4278476071
0.020806741 -0.018216418 0.42400002 4279001902
0.022236213 -0.01825938 0.42500001 4278540581
0.023672184 -0.018302346 0.42600003 4278605861
0.025114648 -0.018345308 0.42700002 4278802980
0.026563611 -0.018388271 0.42800003 4278933794
0.028084377 -0.018474197 0.43000001 4278933796
0.029275339 -0.018345308 0.42700002 4279196455
0.034300826 -0.019634206 0.45700002 4278798367
0.036020078 -0.019763093 0.46000001 4278199553
0.037677262 -0.019849021 0.46200001 4279257894
0.039347444 -0.019934949 0.46400002 4279323939
0.040942565 -0.019977912 0.46500003 4279258146
0.042544179 -0.020020874 0.46600002 4279127330
0.044152293 -0.020063836 0.46700001 4278600986
0.045766901 -0.020106802 0.46800002 4278600986
0.04738801 -0.020149764 0.46900001 4279981871
0.048911318 -0.020149764 0.46900001 4279522090
0.050542168 -0.020192727 0.47000003 4279324972
0.052068733 -0.020192727 0.47000003 4285374083
0.0055779936 -0.016600514 0.41800001 4280171293
0.0069356579 -0.016600514 0.41800001 4278993695
0.0082933232 -0.016600514 0.41800001 4278731804
0.0096509876 -0.016600514 0.41800001 4278930462
0.011008652 -0.016600514 0.41800001 4278997279
0.012395903 -0.016640229 0.41900003 4278604831
0.013756815 -0.016640229 0.41900003 4278671394
0.015153807 -0.016679943 0.42000002 4278540835
0.016557297 -0.016719656 0.42100003 4278410019
0.017967282 -0.016759371 0.42200002 4278804775
0.019383764 -0.016799085 0.42300001 4279001384
0.020806741 -0.016838798 0.42400002 4279065380
0.022288535 -0.016918227 0.42600003 4279394345
0.02372775 -0.016957941 0.42700002 4278405142
0.025232282 -0.017037369 0.42900002 4279523883
0.026687738 -0.017077083 0.43000001 4279852334
0.028280316 -0.017196227 0.43300003 4278402324
0.030098066 -0.017434511 0.43900001 4278198790
0.03181117 -0.017593367 0.44300002 4278264587
0.034150712 -0.018069938 0.45500001 4280704313
0.03586347 -0.01818908 0.45800003 4279323174
0.037514158 -0.018268507 0.46000001 4278205973
0.039177842 -0.018347936 0.46200001 4278798365
0.040854514 -0.018427365 0.46400002 4278600216
0.042544179 -0.018506793 0.46600002 4278271251
0.044152293 -0.018546507 0.46700001 4279586598
0.045766901 -0.018586222 0.46800002 4278862877
0.04738801 -0.018625936 0.46900001 4280310323
0.049015611 -0.018665651 0.47000003 4279390250
0.050542168 -0.018665651 0.47000003 4278731298
0.005591338 -0.015278853 0.41900003 4280106012
0.0069522504 -0.015278853 0.41900003 4279124252
0.0083131632 -0.015278853 0.41900003 4279059742
0.0096740769 -0.015278853 0.41900003 4278733085
0.011034989 -0.015278853 0.41900003 4278536474
0.012395903 -0.015278853 0.41900003 4278669857
0.013789647 -0.015315318 0.42000002 4278604577
0.015189888 -0.015351783 0.42100003 4278802210
0.016596625 -0.015388248 0.42200002 4278802980
0.018009858 -0.015424713 0.42300001 4279197736
0.019429589 -0.015461178 0.42400002 4279197738
0.020855812 -0.015497643 0.42500001 4279328554
0.022340855 -0.015570574 0.42700002 4279459373
0.023783321 -0.015607039 0.42800003 4280180018
0.025291096 -0.015679969 0.43000001 4278203405
0.026873933 -0.015789364 0.43300003 4278593806
0.028410941 -0.015862294 0.43500003 4278854927
0.030166626 -0.016044619 0.44000003 4279051025
0.031882979 -0.01619048 0.44400004 4278328585
0.033925544 -0.016482199 0.45200002 4280637750
0.035628553 -0.016591594 0.45500001 4278199303
0.037351053 -0.01670099 0.45800003 4279586859
0.03909304 -0.016810386 0.46100003 4278731804
0.040854514 -0.016919781 0.46400002 4279257635
0.042452883 -0.016956246 0.46500003 4279586600
0.044152293 -0.017029174 0.46700001 4279389221
0.045766901 -0.017065641 0.46800002 4281034044
0.04738801 -0.017102106 0.46900001 4278731291
0.049015611 -0.017138571 0.47000003 4279718699
0.050542168 -0.017138571 0.47000003 4280636737
0.0056046825 -0.013950695 0.42000002 4279843610
0.0069688428 -0.013950695 0.42000002 4279256349
0.0083330041 -0.013950695 0.42000002 4278599189
0.0096971644 -0.013950695 0.42000002 4278929951
0.011061325 -0.013950695 0.42000002 4279062050
0.012425486 -0.013950695 0.42000002 4279063332
0.01382248 -0.013983912 0.42100003 4278603294
0.015225968 -0.014017127 0.42200002 4278539038
0.016635953 -0.014050343 0.42300001 4278933796
0.018052435 -0.01408356 0.42400002 4278933796
0.019475412 -0.014116775 0.42500001 4279262507
0.020904887 -0.014149992 0.42600003 4279328302
0.022393174 -0.014216423 0.42800003 4278405919
0.023894455 -0.014282854 0.43000001 4280574526
0.02540873 -0.014349286 0.43200001 4278332947
0.026935996 -0.014415719 0.43400002 4279052822
0.028541565 -0.014515366 0.43700001 4281092403
0.030235186 -0.01464823 0.44100001 4280040485
0.031954788 -0.014781094 0.44500002 4278988310
0.03377543 -0.014947173 0.45000002 4278200331
0.035550252 -0.015080038 0.45400003 4278727189
0.037269499 -0.015179685 0.45700002 4278731039
0.039008241 -0.015279333 0.46000001 4278928416
0.040766466 -0.015378981 0.46300003 4280112944
0.042452883 -0.015445413 0.46500003 4278731291
0.044152293 -0.015511844 0.46700001 4278200324
0.045766901 -0.015545061 0.46800002 4279717672
0.04738801 -0.015578276 0.46900001 4280047410
0.049015611 -0.015611493 0.47000003 4279191851
0.0042607146 -0.012646006 0.42200002 4280039194
0.0056180274 -0.01261604 0.42100003 4279909916
0.0069854357 -0.01261604 0.42100003 4279058457
0.008352845 -0.01261604 0.42100003 4279257119
0.0097202538 -0.01261604 0.42100003 4278995744
0.011087662 -0.01261604 0.42100003 4279062050
0.012455071 -0.01261604 0.42100003 4278998052
0.013855312 -0.012646006 0.42200002 4278735650
0.015262048 -0.012675973 0.42300001 4278473245
0.016635953 -0.012675973 0.42300001 4279065382
0.018052435 -0.012705941 0.42400002 4279131175
0.019521238 -0.012765874 0.42600003 4279328302
0.020953959 -0.01279584 0.42700002 4279327791
0.022445494 -0.012855775 0.42900002 4278203404
0.023950025 -0.012915708 0.43100002 4280571707
0.025467549 -0.012975642 0.43300003 4279516453
0.026998062 -0.013035576 0.43500003 4279975207
0.028606879 -0.013125476 0.43800002 4279383070
0.030303748 -0.013245343 0.44200003 4281358141
0.031954788 -0.013335244 0.44500002 4279978026
0.033700373 -0.013455112 0.44900003 4278198787
0.035471946 -0.013574978 0.45300001 4281161530
0.037187949 -0.013664879 0.45600003 4279585832
0.038923439 -0.013754779 0.45900002 4278200583
0.040766466 -0.013874647 0.46300003 4278994209
0.042452883 -0.013934581 0.46500003 4280112690
0.044152293 -0.013994514 0.46700001 4279982641
0.045766901 -0.014024481 0.46800002 4279587883
0.04738801 -0.014054447 0.46900001 4279979059
0.0042607146 -0.011274885 0.42200002 4279908635
0.0056313714 -0.011274885 0.42200002 4279648541
0.0070020277 -0.011274885 0.42200002 4279058968
0.0083726849 -0.011274885 0.42200002 4279257371
0.0097433422 -0.011274885 0.42200002 4279126812
0.011113998 -0.011274885 0.42200002 4279062302
0.012484656 -0.011274885 0.42200002 4278866466
0.013888145 -0.011301603 0.42300001 4278867236
0.015262048 -0.011301603 0.42300001 4278933796
0.016675282 -0.011328321 0.42400002 4278737187
0.018095011 -0.011355039 0.42500001 4278933796
0.019521238 -0.011381757 0.42600003 4279525166
0.021003032 -0.011435192 0.42800003 4279655471
0.022445494 -0.01146191 0.42900002 4278204691
0.023950025 -0.011515345 0.43100002 4278268950
0.025467549 -0.011568781 0.43300003 4279056672
0.027060125 -0.011648934 0.43600002 4279251486
0.028606879 -0.01170237 0.43800002 4278856215
0.030303748 -0.011809241 0.44200003 4278461970
0.031954788 -0.011889393 0.44500002 4281030460
0.033625316 -0.011969547 0.44800001 4278334230
0.035315339 -0.0120497 0.45100003 4278992414
0.037106395 -0.012156571 0.45500001 4280375348
0.03883864 -0.012236725 0.45800003 4279718445
0.040678415 -0.012343595 0.46200001 4279785521
0.042361584 -0.01239703 0.46400002 4279785521
0.0042708106 -0.0099272327 0.42300001 4279844125
0.0056447159 -0.0099272327 0.42300001 4279320861
0.0070186201 -0.0099272327 0.42300001 4278664980
0.0083726849 -0.0099037644 0.42200002 4279059992
0.0097433422 -0.0099037644 0.42200002 4279193121
0.011113998 -0.0099037644 0.42200002 4279325220
0.012514239 -0.0099272327 0.42300001 4278603294
0.013888145 -0.0099272327 0.42300001 4278999076
0.015298129 -0.0099507011 0.42400002 4278802980
0.01671461 -0.0099741695 0.42500001 4278934566
0.018095011 -0.0099741695 0.42500001 4279459886
0.019567061 -0.010021107 0.42700002 4279919924
0.021003032 -0.010044577 0.42800003 4280181301
0.022497814 -0.010091512 0.43000001 4280047664
0.023950025 -0.010114982 0.43100002 4278530839
0.025526363 -0.010185388 0.43400002 4278790935
0.027060125 -0.010232325 0.43600002 4279183129
0.028606879 -0.010279262 0.43800002 4279248406
0.030235186 -0.010349668 0.44100001 4278462738
0.031882979 -0.010420075 0.44400004 4280505399
0.033550262 -0.01049048 0.44700003 4279982387
0.035237033 -0.010560886 0.45000002 4279916594
0.037024844 -0.010654761 0.45400003 4279982641
0.038753837 -0.010725167 0.45700002 4279127332
0.0042708106 -0.0085528623 0.42300001 4279779613
0.0056447159 -0.0085528623 0.42300001 4279058457
0.0070186201 -0.0085528623 0.42300001 4279125531
0.0083925249 -0.0085528623 0.42300001 4279126299
0.0097664297 -0.0085528623 0.42300001 4279193121
0.011140334 -0.0085528623 0.42300001 4279062820
0.012514239 -0.0085528623 0.42300001 4278538784
0.013888145 -0.0085528623 0.42300001 4278933796
0.015298129 -0.0085730823 0.42400002 4278737187
0.01671461 -0.0085933013 0.42500001 4278802726
0.018137589 -0.0086135212 0.42600003 4279394093
0.019567061 -0.0086337412 0.42700002 4279394093
0.021003032 -0.0086539611 0.42800003 4279061285
0.022497814 -0.0086943991 0.43000001 4280440373
0.023950025 -0.0087146191 0.43100002 4278200849
0.025467549 -0.0087550581 0.43300003 4278792218
0.027060125 -0.008815717 0.43600002 4280767290
0.028606879 -0.0088561559 0.43800002 4280637498
0.030235186 -0.0089168139 0.44100001 4279982389
0.03181117 -0.0089572538 0.44300002 4279720498
0.033550262 -0.0090381317 0.44700003 4279654959
0.035158731 -0.0090785706 0.44900003 4279325994
0.0042708106 -0.0071784919 0.42300001 4279386654
0.0056447159 -0.0071784919 0.42300001 4279387935
0.0070186201 -0.0071784919 0.42300001 4278928920
0.0083925249 -0.0071784919 0.42300001 4279061017
0.0097664297 -0.0071784919 0.42300001 4278996509
0.011140334 -0.0071784919 0.42300001 4279062818
0.012514239 -0.0071784919 0.42300001 4278604064
0.013920978 -0.0071954625 0.42400002 4278737187
0.015298129 -0.0071954625 0.42400002 4278802980
0.01671461 -0.0072124326 0.42500001 4278934566
0.018137589 -0.0072294036 0.42600003 4279394095
0.019567061 -0.0072463737 0.42700002 4279590961
0.021003032 -0.0072633442 0.42800003 4280640571
0.022445494 -0.0072803148 0.42900002 4280244278
0.023950025 -0.0073142555 0.43100002 4280442168
0.025467549 -0.0073481966 0.43300003 4279851568
0.026998062 -0.0073821372 0.43500003 4279523373
0.028541565 -0.0074160779 0.43700001 4279786291
0.030166626 -0.0074669896 0.44000003 4279523119
0.031739365 -0.0075009302 0.44200003 4279260201
0.0042708106 -0.005804122 0.42300001 4279453217
0.0056447159 -0.005804122 0.42300001 4278993947
0.0070186201 -0.005804122 0.42300001 4278928666
0.0083925249 -0.005804122 0.42300001 4279192092
0.0097664297 -0.005804122 0.42300001 4279128095
0.011140334 -0.005804122 0.42300001 4279063072
0.012514239 -0.005804122 0.42300001 4278800927
0.013920978 -0.0058178436 0.42400002 4278868003
0.015298129 -0.0058178436 0.42400002 4279065382
0.01671461 -0.0058315648 0.42500001 4279065382
0.018137589 -0.0058452864 0.42600003 4279328302
0.019567061 -0.0058590076 0.42700002 4279854133
0.021003032 -0.0058727288 0.42800003 4278600734
0.022445494 -0.0058864499 0.42900002 4280443451
0.023894455 -0.0059001711 0.43000001 4279524400
0.02540873 -0.0059276139 0.43200001 4279261228
0.026935996 -0.0059550568 0.43400002 4279457326
0.028476253 -0.0059824996 0.43600002 4278864167
0.0042708106 -0.0044297515 0.42300001 4279453215
0.0056447159 -0.0044297515 0.42300001 4279190556
0.0070186201 -0.0044297515 0.42300001 4279125533
0.0083925249 -0.0044297515 0.42300001 4278994461
0.0097664297 -0.0044297515 0.42300001 4279062820
0.011140334 -0.0044297515 0.42300001 4278998054
0.012514239 -0.0044297515 0.42300001 4278933029
0.013920978 -0.0044402243 0.42400002 4278867749
0.015298129 -0.0044402243 0.42400002 4278801956
0.01671461 -0.0044506961 0.42500001 4279130921
0.018095011 -0.0044506961 0.42500001 4279459373
0.019521238 -0.0044611688 0.42600003 4279524398
0.020953959 -0.0044716406 0.42700002 4279392047
0.022445494 -0.0044925851 0.42900002 4279523633
0.023894455 -0.0045030573 0.43000001 4279522603
0.025349915 -0.0045135296 0.43100002 4279585834
0.0042708106 -0.0030553816 0.42300001 4279321629
0.0056447159 -0.0030553816 0.42300001 4279585314
0.0070186201 -0.0030553816 0.42300001 4279388705
0.0083925249 -0.0030553816 0.42300001 4279389219
0.0097664297 -0.0030553816 0.42300001 4279194406
0.011140334 -0.0030553816 0.42300001 4279194920
0.012514239 -0.0030553816 0.42300001 4278867751
0.013920978 -0.0030626049 0.42400002 4278933544
0.015298129 -0.0030626049 0.42400002 4278868521
0.01671461 -0.0030698278 0.42500001 4279131693
0.018095011 -0.0030698278 0.42500001 4279196203
0.019521238 -0.0030770511 0.42600003 4279194922
0.020953959 -0.0030842742 0.42700002 4279256617
0.0070186201 -0.0016810115 0.42300001 4279190556
0.0083925249 -0.0016810115 0.42300001 4279783463
0.0097664297 -0.0016810115 0.42300001 4279456806
0.011140334 -0.0016810115 0.42300001 4279194918
0.012514239 -0.0016810115 0.42300001 4279129638
0.013920978 -0.0016849856 0.42400002 4279393580
0.015298129 -0.0016849856 0.42400002 4278866470
0.016675282 -0.0016849856 0.42400002 4278536224
0.018095011 -0.0016889595 0.42500001 4282346320
0.025455235 -0.015018726 0.43864703 4294967295
0.025455235 -0.015018726 0.43864703 4294901760
0.02560473 -0.015450618 0.43844426 4294901760
0.025754226 -0.015882511 0.43824148 4294901760
0.02590372 -0.016314402 0.43803868 4294901760
0.026053216 -0.016746296 0.4378359 4294901760
0.026202712 -0.017178187 0.43763313 4294901760
0.026352208 -0.017610079 0.43743035 4294901760
0.026501704 -0.018041972 0.43722758 4294901760
0.026651198 -0.018473864 0.43702477 4294901760
0.026800694 -0.018905757 0.436822 4294901760
0.02695019 -0.019337649 0.43661922 4294901760
0.027099686 -0.019769542 0.43641645 4294901760
0.02724918 -0.020201433 0.43621364 4294901760
0.027398676 -0.020633325 0.43601087 4294901760
0.027548172 -0.021065217 0.43580809 4294901760
0.027697667 -0.02149711 0.43560532 4294901760
0.027847163 -0.021929001 0.43540254 4294901760
0.027996659 -0.022360895 0.43519974 4294901760
0.028146153 -0.022792786 0.43499696 4294901760
0.028295649 -0.023224678 0.43479419 4294901760
0.028445145 -0.023656571 0.43459141 4294901760
0.028594639 -0.024088463 0.43438864 4294901760
0.028744135 -0.024520356 0.43418583 4294901760
0.028893631 -0.024952248 0.43398306 4294901760
0.029043127 -0.025384139 0.43378028 4294901760
0.029192623 -0.025816033 0.43357751 4294901760
0.029342119 -0.026247924 0.43337473 4294901760
0.029491615 -0.026679818 0.43317193 4294901760
0.029641109 -0.027111709 0.43296915 4294901760
0.029790604 -0.027543601 0.43276638 4294901760
0.0299401 -0.027975496 0.4325636 4294901760
0.030089594 -0.028407387 0.4323608 4294901760
0.03023909 -0.028839279 0.43215802 4294901760
0.030388586 -0.02927117 0.43195525 4294901760
0.030538082 -0.029703062 0.43175247 4294901760
0.030687578 -0.030134955 0.4315497 4294901760
0.030837074 -0.030566849 0.43134689 4294901760
0.030986568 -0.03099874 0.43114412 4294901760
0.031136064 -0.031430632 0.43094134 4294901760
0.031285558 -0.031862523 0.43073857 4294901760
0.031435054 -0.032294415 0.43053579 4294901760
0.03158455 -0.03272631 0.43033299 4294901760
0.031734046 -0.033158198 0.43013021 4294901760
0.031883541 -0.033590093 0.42992744 4294901760
0.032033037 -0.034021989 0.42972466 4294901760
0.032182533 -0.034453876 0.42952189 4294901760
0.032332029 -0.034885772 0.42931908 4294901760
0.032481521 -0.035317663 0.42911631 4294901760
0.032631017 -0.035749555 0.42891353 4294901760
0.032780513 -0.03618145 0.42871076 4294901760
0.032930009 -0.036613338 0.42850798 4294901760
0.033079505 -0.037045233 0.42830518 4294901760
0.033229001 -0.037477121 0.4281024 4294901760
0.033378497 -0.037909016 0.42789963 4294901760
0.033527993 -0.038340911 0.42769685 4294901760
0.033677489 -0.038772799 0.42749405 4294901760
0.033826984 -0.039204694 0.42729127 4294901760
0.03397648 -0.039636586 0.4270885 4294901760
0.034125973 -0.040068477 0.42688572 4294901760
0.034275468 -0.040500369 0.42668295 4294901760
0.034424964 -0.040932264 0.42648014 4294901760
0.03457446 -0.041364156 0.42627737 4294901760
0.034723956 -0.041796047 0.42607459 4294901760
0.034873452 -0.042227939 0.42587182 4294901760
0.035022948 -0.04265983 0.42566904 4294901760
0.03517244 -0.043091722 0.42546624 4294901760
0.03532194 -0.043523617 0.42526346 4294901760
0.035471432 -0.043955509 0.42506069 4294901760
0.035620928 -0.0443874 0.42485791 4294901760
0.035770424 -0.044819295 0.42465514 4294901760
0.03591992 -0.045251183 0.42445233 4294901760
0.036069416 -0.045683078 0.42424956 4294901760
0.036218911 -0.04611497 0.42404678 4294901760
0.036368407 -0.046546862 0.42384401 4294901760
0.036517903 -0.046978757 0.4236412 4294901760
0.036667399 -0.047410645 0.42343843 4294901760
0.036816895 -0.04784254 0.42323565 4294901760
0.036966387 -0.048274428 0.42303288 4294901760
0.037115883 -0.048706323 0.4228301 4294901760
0.037265379 -0.049138218 0.4226273 4294901760
0.037414875 -0.049570106 0.42242453 4294901760
0.037564371 -0.050002001 0.42222175 4294901760
0.037713867 -0.050433889 0.42201898 4294901760
0.037863363 -0.050865784 0.4218162 4294901760
0.038012855 -0.051297672 0.4216134 4294901760
0.038162354 -0.051729567 0.42141062 4294901760
0.038311847 -0.052161463 0.42120785 4294901760
0.038461342 -0.05259335 0.42100507 4294901760
0.038610838 -0.053025246 0.4208023 4294901760
0.038760334 -0.053457141 0.42059949 4294901760
0.03890983 -0.053889029 0.42039672 4294901760
0.039059326 -0.054320924 0.42019394 4294901760
0.039208822 -0.054752819 0.41999117 4294901760
0.039358318 -0.055184707 0.41978836 4294901760
0.039507814 -0.055616602 0.41958559 4294901760
0.03965731 -0.05604849 0.41938281 4294901760
0.039806802 -0.056480385 0.41918004 4294901760
0.039956301 -0.056912281 0.41897726 4294901760
0.040105794 -0.057344168 0.41877446 4294901760
0.04025529 -0.057776064 0.41857168 4294901760
0.040404785 -0.058207951 0.41836891 4294901760
0.025455235 -0.015018726 0.43864703 4278255360
0.025738362 -0.01510947 0.43904904 4278255360
0.026021488 -0.015200215 0.43945104 4278255360
0.026304616 -0.01529096 0.43985304 4278255360
0.026587741 -0.015381705 0.44025505 4278255360
0.026870869 -0.015472449 0.44065705 4278255360
0.027153995 -0.015563195 0.44105902 4278255360
0.027437123 -0.01565394 0.44146103 4278255360
0.02772025 -0.015744684 0.44186303 4278255360
0.028003376 -0.015835429 0.44226503 4278255360
0.028286504 -0.015926173 0.44266704 4278255360
0.028569631 -0.016016919 0.44306904 4278255360
0.028852757 -0.016107664 0.44347104 4278255360
0.029135885 -0.016198408 0.44387305 4278255360
0.029419011 -0.016289152 0.44427505 4278255360
0.029702138 -0.016379898 0.44467705 4278255360
0.029985264 -0.016470643 0.44507906 4278255360
0.030268392 -0.016561387 0.44548103 4278255360
0.030551519 -0.016652131 0.44588304 4278255360
0.030834645 -0.016742878 0.44628504 4278255360
0.031117773 -0.016833622 0.44668704 4278255360
0.0314009 -0.016924366 0.44708905 4278255360
0.031684026 -0.017015111 0.44749105 4278255360
0.031967152 -0.017105855 0.44789305 4278255360
0.032250278 -0.017196601 0.44829506 4278255360
0.032533407 -0.017287346 0.44869706 4278255360
0.032816533 -0.01737809 0.44909906 4278255360
0.033099659 -0.017468836 0.44950107 4278255360
0.033382788 -0.017559581 0.44990304 4278255360
0.033665914 -0.017650325 0.45030504 4278255360
0.03394904 -0.017741069 0.45070705 4278255360
0.034232169 -0.017831814 0.45110905 4278255360
0.034515295 -0.01792256 0.45151106 4278255360
0.034798421 -0.018013304 0.45191306 4278255360
0.03508155 -0.018104048 0.45231506 4278255360
0.035364676 -0.018194793 0.45271707 4278255360
0.035647802 -0.018285539 0.45311907 4278255360
0.035930932 -0.018376283 0.45352107 4278255360
0.036214057 -0.018467028 0.45392308 4278255360
0.036497183 -0.018557772 0.45432508 4278255360
0.036780309 -0.018648518 0.45472705 4278255360
0.037063435 -0.018739263 0.45512906 4278255360
0.037346564 -0.018830007 0.45553106 4278255360
0.03762969 -0.018920751 0.45593306 4278255360
0.037912816 -0.019011497 0.45633507 4278255360
0.038195945 -0.019102242 0.45673707 4278255360
0.038479071 -0.019192986 0.45713907 4278255360
0.038762197 -0.019283731 0.45754108 4278255360
0.039045326 -0.019374475 0.45794308 4278255360
0.039328452 -0.019465221 0.45834509 4278255360
0.039611578 -0.019555965 0.45874709 4278255360
0.039894708 -0.01964671 0.45914906 4278255360
0.040177833 -0.019737456 0.45955107 4278255360
0.040460959 -0.0198282 0.45995307 4278255360
0.040744089 -0.019918945 0.46035507 4278255360
0.041027214 -0.020009689 0.46075708 4278255360
0.04131034 -0.020100433 0.46115908 4278255360
0.04159347 -0.02019118 0.46156108 4278255360
0.041876592 -0.020281924 0.46196309 4278255360
0.042159721 -0.020372668 0.46236509 4278255360
0.042442851 -0.020463414 0.46276709 4278255360
0.042725973 -0.020554159 0.4631691 4278255360
0.043009102 -0.020644903 0.46357107 4278255360
0.043292228 -0.020735648 0.46397308 4278255360
0.043575354 -0.020826392 0.46437508 4278255360
0.043858483 -0.020917136 0.46477708 4278255360
0.044141609 -0.021007882 0.46517909 4278255360
0.044424735 -0.021098627 0.46558109 4278255360
0.044707865 -0.021189371 0.46598309 4278255360
0.04499099 -0.021280117 0.4663851 4278255360
0.045274116 -0.021370862 0.4667871 4278255360
0.045557246 -0.021461606 0.4671891 4278255360
0.045840371 -0.02155235 0.46759111 4278255360
0.046123497 -0.021643095 0.46799308 4278255360
0.046406627 -0.021733841 0.46839508 4278255360
0.046689749 -0.021824585 0.46879709 4278255360
0.046972878 -0.02191533 0.46919909 4278255360
0.047256004 -0.022006076 0.46960109 4278255360
0.04753913 -0.02209682 0.4700031 4278255360
0.047822259 -0.022187565 0.4704051 4278255360
0.048105385 -0.022278309 0.47080711 4278255360
0.048388511 -0.022369053 0.47120911 4278255360
0.04867164 -0.022459799 0.47161111 4278255360
0.048954766 -0.022550544 0.47201312 4278255360
0.049237892 -0.022641288 0.47241509 4278255360
0.049521022 -0.022732034 0.47281709 4278255360
0.049804147 -0.022822779 0.4732191 4278255360
0.050087273 -0.022913523 0.4736211 4278255360
0.050370403 -0.023004267 0.4740231 4278255360
0.050653525 -0.023095012 0.47442511 4278255360
0.050936654 -0.023185756 0.47482711 4278255360
0.051219784 -0.023276502 0.47522911 4278255360
0.05150291 -0.023367247 0.47563112 4278255360
0.051786035 -0.023457993 0.47603312 4278255360
0.052069161 -0.023548737 0.47643512 4278255360
0.052352287 -0.023639482 0.4768371 4278255360
0.052635416 -0.023730226 0.4772391 4278255360
0.052918546 -0.02382097 0.47764111 4278255360
0.053201668 -0.023911715 0.47804311 4278255360
0.053484797 -0.024002461 0.47844511 4278255360
0.053767923 -0.024093205 0.47884712 4278255360
0.025455235 -0.015018726 0.43864703 4278190335
0.02520166 -0.01527065 0.43899664 4278190335
0.024948085 -0.015522576 0.43934628 4278190335
0.02469451 -0.015774501 0.43969589 4278190335
0.024440935 -0.016026426 0.44004551 4278190335
0.02418736 -0.016278351 0.44039512 4278190335
0.023933785 -0.016530275 0.44074476 4278190335
0.02368021 -0.016782202 0.44109437 4278190335
0.023426635 -0.017034126 0.44144398 4278190335
0.02317306 -0.017286051 0.44179359 4278190335
0.022919485 -0.017537978 0.44214323 4278190335
0.02266591 -0.017789902 0.44249284 4278190335
0.022412336 -0.018041827 0.44284245 4278190335
0.022158761 -0.018293751 0.44319206 4278190335
0.021905186 -0.018545676 0.44354171 4278190335
0.021651611 -0.018797603 0.44389132 4278190335
0.021398036 -0.019049527 0.44424093 4278190335
0.021144461 -0.019301452 0.44459057 4278190335
0.020890886 -0.019553378 0.44494018 4278190335
0.020637311 -0.019805303 0.44528979 4278190335
0.020383736 -0.020057227 0.4456394 4278190335
0.020130161 -0.020309152 0.44598904 4278190335
0.019876586 -0.020561077 0.44633865 4278190335
0.019623011 -0.020813003 0.44668826 4278190335
0.019369436 -0.021064928 0.44703788 4278190335
0.019115862 -0.021316852 0.44738752 4278190335
0.018862287 -0.021568777 0.44773713 4278190335
0.018608712 -0.021820704 0.44808674 4278190335
0.018355137 -0.022072628 0.44843638 4278190335
0.018101562 -0.022324553 0.44878599 4278190335
0.017847985 -0.022576479 0.4491356 4278190335
0.017594412 -0.022828404 0.44948521 4278190335
0.017340837 -0.023080328 0.44983485 4278190335
0.017087262 -0.023332253 0.45018446 4278190335
0.016833685 -0.02358418 0.45053408 4278190335
0.016580112 -0.023836102 0.45088369 4278190335
0.016326535 -0.024088029 0.45123333 4278190335
0.016072962 -0.024339955 0.45158294 4278190335
0.015819386 -0.024591878 0.45193255 4278190335
0.015565813 -0.024843805 0.45228219 4278190335
0.015312237 -0.025095729 0.4526318 4278190335
0.015058662 -0.025347654 0.45298141 4278190335
0.014805088 -0.02559958 0.45333102 4278190335
0.014551512 -0.025851505 0.45368066 4278190335
0.014297937 -0.026103429 0.45403028 4278190335
0.014044362 -0.026355354 0.45437989 4278190335
0.013790787 -0.026607279 0.4547295 4278190335
0.013537212 -0.026859205 0.45507914 4278190335
0.013283637 -0.02711113 0.45542875 4278190335
0.013030062 -0.027363054 0.45577836 4278190335
0.012776488 -0.027614981 0.456128 4278190335
0.012522913 -0.027866904 0.45647761 4278190335
0.012269338 -0.02811883 0.45682722 4278190335
0.012015764 -0.028370755 0.45717683 4278190335
0.011762187 -0.028622681 0.45752648 4278190335
0.011508613 -0.028874606 0.45787609 4278190335
0.011255038 -0.029126531 0.4582257 4278190335
0.011001463 -0.029378455 0.45857531 4278190335
0.010747888 -0.029630382 0.45892495 4278190335
0.010494314 -0.029882304 0.45927456 4278190335
0.010240737 -0.030134231 0.45962417 4278190335
0.0099871624 -0.030386157 0.45997381 4278190335
0.0097335875 -0.03063808 0.46032342 4278190335
0.0094800126 -0.030890007 0.46067303 4278190335
0.0092264395 -0.031141931 0.46102265 4278190335
0.0089728646 -0.031393856 0.46137226 4278190335
0.0087192878 -0.031645782 0.4617219 4278190335
0.0084657129 -0.031897709 0.46207151 4278190335
0.008212138 -0.032149632 0.46242112 4278190335
0.007958563 -0.032401554 0.46277076 4278190335
0.0077049881 -0.032653481 0.46312037 4278190335
0.0074514151 -0.032905407 0.46346998 4278190335
0.0071978383 -0.033157334 0.46381962 4278190335
0.0069442634 -0.03340926 0.46416923 4278190335
0.0066906884 -0.033661183 0.46451885 4278190335
0.0064371135 -0.033913106 0.46486846 4278190335
0.0061835386 -0.034165032 0.46521807 4278190335
0.0059299637 -0.034416959 0.46556771 4278190335
0.0056763906 -0.034668881 0.46591732 4278190335
0.0054228138 -0.034920808 0.46626693 4278190335
0.0051692389 -0.035172731 0.46661657 4278190335
0.004915664 -0.035424657 0.46696618 4278190335
0.004662089 -0.035676584 0.46731579 4278190335
0.0044085141 -0.03592851 0.4676654 4278190335
0.0041549411 -0.036180433 0.46801504 4278190335
0.0039013643 -0.036432359 0.46836466 4278190335
0.0036477894 -0.036684282 0.46871427 4278190335
0.0033942144 -0.036936209 0.46906388 4278190335
0.0031406395 -0.037188135 0.46941352 4278190335
0.0028870646 -0.037440058 0.46976313 4278190335
0.0026334897 -0.037691981 0.47011274 4278190335
0.0023799147 -0.037943907 0.47046238 4278190335
0.0021263398 -0.038195834 0.47081199 4278190335
0.0018727649 -0.03844776 0.4711616 4278190335
0.00161919 -0.038699683 0.47151121 4278190335
0.0013656151 -0.038951609 0.47186086 4278190335
0.0011120401 -0.039203532 0.47221047 4278190335
0.00085846521 -0.039455459 0.47256008 4278190335
0.00060489029 -0.039707385 0.47290969 4278190335
0.00035131536 -0.039959311 0.47325933 4278190335
9.7740442e-05 -0.040211234 0.47360894 4278190335
0.025455235 -0.015018726 0.43864703 4294967295
0.026976684 -0.013507175 0.43654931 4294967295
0.028498134 -0.011995625 0.43445161 4294967295
0.030019583 -0.010484074 0.43235388 4294967295
0.031541035 -0.0089725237 0.43025619 4294967295
0.033062484 -0.0074609728 0.42815846 4294967295
0.034583934 -0.0059494227 0.42606074 4294967295
0.036105383 -0.0044378722 0.42396304 4294967295
0.037626833 -0.0029263217 0.42186531 4294967295
0.039148282 -0.0014147703 0.41976759 4294967295
0.040669732 9.6780248e-05 0.41766989 4294967295
0.042191181 0.0016083308 0.41557217 4294967295
0.043712631 0.0031198803 0.41347444 4294967295
0.04523408 0.0046314299 0.41137674 4294967295
0.04675553 0.0061429814 0.40927902 4294967295
0.048276983 0.0076545328 0.40718132 4294967295
0.049798429 0.0091660824 0.4050836 4294967295
0.051319882 0.010677634 0.40298587 4294967295
0.052841328 0.012189185 0.40088817 4294967295
0.054362778 0.013700735 0.39879045 4294967295
0.055884227 0.015212286 0.39669272 4294967295
0.05740568 0.016723836 0.39459503 4294967295
0.058927126 0.018235387 0.3924973 4294967295
0.060448579 0.019746939 0.39039958 4294967295
0.061970025 0.021258486 0.38830188 4294967295
0.063491479 0.022770038 0.38620415 4294967295
0.065012924 0.024281586 0.38410646 4294967295
0.066534378 0.025793141 0.38200873 4294967295
0.068055823 0.027304688 0.37991101 4294967295
0.069577277 0.02881624 0.37781331 4294967295
0.07109873 0.030327791 0.37571558 4294967295
0.072620176 0.031839341 0.37361789 4294967295
0.074141622 0.033350892 0.37152016 4294967295
0.075663075 0.034862444 0.36942244 4294967295
0.077184528 0.036373995 0.36732471 4294967295
0.078705974 0.037885539 0.36522701 4294967295
0.080227427 0.039397098 0.36312929 4294967295
0.081748873 0.040908642 0.36103159 4294967295
0.083270319 0.042420194 0.35893387 4294967295
0.084791772 0.043931745 0.35683614 4294967295
0.086313225 0.045443296 0.35473844 4294967295
0.087834671 0.046954848 0.35264072 4294967295
0.089356124 0.048466399 0.35054302 4294967295
0.090877578 0.049977951 0.3484453 4294967295
0.092399023 0.051489502 0.34634757 4294967295
0.093920469 0.053001046 0.34424987 4294967295
0.095441923 0.054512605 0.34215215 4294967295
0.096963368 0.056024149 0.34005445 4294967295
0.098484822 0.057535701 0.33795673 4294967295
0.10000627 0.059047252 0.335859 4294967295
0.10152772 0.060558803 0.33376127 4294967295
0.10304917 0.062070355 0.33166358 4294967295
0.10457062 0.063581899 0.32956585 4294967295
0.10609207 0.06509345 0.32746816 4294967295
0.10761353 0.066605009 0.32537043 4294967295
0.10913497 0.068116561 0.32327271 4294967295
0.11065642 0.069628105 0.32117501 4294967295
0.11217786 0.071139656 0.31907728 4294967295
0.11369932 0.072651207 0.31697959 4294967295
0.11522076 0.074162751 0.31488186 4294967295
0.11674222 0.07567431 0.31278414 4294967295
0.11826367 0.077185862 0.31068641 4294967295
0.11978512 0.078697413 0.30858871 4294967295
0.12130657 0.080208957 0.30649102 4294967295
0.12282801 0.081720509 0.30439329 4294967295
0.12434946 0.08323206 0.30229557 4294967295
0.12587091 0.084743619 0.30019784 4294967295
0.12739237 0.086255163 0.29810011 4294967295
0.12891382 0.087766714 0.29600242 4294967295
0.13043526 0.089278266 0.29390472 4294967295
0.13195671 0.09078981 0.291807 4294967295
0.13347815 0.092301361 0.28970927 4294967295
0.13499962 0.09381292 0.28761154 4294967295
0.13652106 0.095324472 0.28551385 4294967295
0.13804251 0.096836016 0.28341615 4294967295
0.13956396 0.098347567 0.28131843 4294967295
0.1410854 0.099859118 0.2792207 4294967295
0.14260685 0.10137066 0.27712297 4294967295
0.14412831 0.10288221 0.27502528 4294967295
0.14564976 0.10439377 0.27292755 4294967295
0.14717121 0.10590532 0.27082986 4294967295
0.14869265 0.10741687 0.26873213 4294967295
0.15021411 0.10892842 0.2666344 4294967295
0.15173556 0.11043996 0.26453671 4294967295
0.15325701 0.11195152 0.26243901 4294967295
0.15477847 0.11346308 0.26034129 4294967295
0.15629992 0.11497463 0.25824356 4294967295
0.15782136 0.11648617 0.25614583 4294967295
0.15934281 0.11799773 0.25404811 4294967295
0.16086425 0.11950927 0.25195041 4294967295
0.1623857 0.12102082 0.2498527 4294967295
0.16390716 0.12253238 0.24775498 4294967295
0.16542861 0.12404393 0.24565727 4294967295
0.16695006 0.12555547 0.24355955 4294967295
0.1684715 0.12706701 0.24146184 4294967295
0.16999295 0.12857857 0.23936412 4294967295
0.17151441 0.13009012 0.23726641 4294967295
0.17303586 0.13160168 0.23516868 4294967295
0.17455731 0.13311322 0.23307097 4294967295
0.17607875 0.13462478 0.23097326 4294967295
0.1776002 0.13613632 0.22887555 4294967295
