# .PCD v0.7 - Point Cloud Data file format
VERSION 0.7
FIELDS x y z rgb
SIZE 4 4 4 4
TYPE F F F U
COUNT 1 1 1 1
WIDTH 1032
HEIGHT 1
VIEWPOINT 0 0 0 1 0 0 0
POINTS 1032
DATA ascii
-0.0099595375 0.027977481 0.31 4279124511
-0.0089237783 0.027887233 0.30900002 4279190304
-0.007920146 0.027887233 0.30900002 4279190304
-0.0068941303 0.027796984 0.30800003 4279190304
-0.0058746096 0.027706733 0.30700001 4279716135
-0.0048774728 0.027706733 0.30700001 4279321377
-0.003867697 0.027616484 0.30600002 4279583779
-0.0028644169 0.027526233 0.30500001 4279056154
-0.0018676327 0.027435984 0.30400002 4278595089
-0.00087734463 0.027345732 0.303 4278198280
0.00010609491 0.027165234 0.30100003 4278197252
0.0010765425 0.026984734 0.29900002 4278196738
0.0020408465 0.026894484 0.29800001 4278198279
0.003008751 0.026894484 0.29800001 4278989845
0.0039499667 0.026713982 0.296 4279846438
0.0049113748 0.026713982 0.296 4278992925
0.0058529433 0.026623733 0.29500002 4278993949
0.0067880154 0.026533483 0.294 4278862877
0.0077429274 0.026533483 0.294 4278862877
0.0086978404 0.026533483 0.294 4278929183
0.0096199205 0.026443234 0.29300001 4278929183
0.010571584 0.026443234 0.29300001 4278863388
0.011523249 0.026443234 0.29300001 4278863388
0.012474914 0.026443234 0.29300001 4278732572
0.013380755 0.026352985 0.29200003 4278600986
0.014329172 0.026352985 0.29200003 4278798367
0.015277587 0.026352985 0.29200003 4281230657
0.016226003 0.026352985 0.29200003 4279783465
0.017174421 0.026352985 0.29200003 4278993949
0.018122837 0.026352985 0.29200003 4279518756
-0.035147592 0.030761188 0.32900003 4279257119
-0.034079 0.030761188 0.32900003 4279126047
-0.033010408 0.030761188 0.32900003 4279257633
-0.031844724 0.030667687 0.32800001 4279191840
-0.03077938 0.030667687 0.32800001 4279059490
-0.029714037 0.030667687 0.32800001 4278397970
-0.028561348 0.030574189 0.32700002 4279911463
-0.027499253 0.030574189 0.32700002 4279716135
-0.026356306 0.030480688 0.32600001 4278592271
-0.02521986 0.030387191 0.32500002 4279643934
-0.024015557 0.030200193 0.32300001 4278657037
-0.022895347 0.030106694 0.32200003 4278460171
-0.021781635 0.030013194 0.32100001 4278327302
-0.020609813 0.029826194 0.31900001 4279774748
-0.019512339 0.029732697 0.31800002 4278657037
-0.018421361 0.029639196 0.317 4278986002
-0.017391747 0.029639196 0.317 4279578650
-0.016310515 0.029545698 0.31600001 4278591755
-0.015235779 0.029452201 0.31500003 4279053590
-0.014167538 0.0293587 0.31400001 4279255838
-0.013105796 0.029265203 0.31300002 4278991644
-0.012050547 0.029171702 0.31200001 4278593806
-0.011001795 0.029078204 0.31100002 4278526730
-0.0099595375 0.028984703 0.31 4279582750
-0.0089237783 0.028891206 0.30900002 4278200069
-0.007920146 0.028891206 0.30900002 4278198530
-0.0068941303 0.028797708 0.30800003 4278927904
-0.0058746096 0.028704207 0.30700001 4278928418
-0.0048615853 0.02861071 0.30600002 4278994209
-0.003867697 0.02861071 0.30600002 4278927902
-0.0028644169 0.028517209 0.30500001 4279125535
-0.0018676327 0.02842371 0.30400002 4279190558
-0.00087444915 0.028236711 0.30200002 4279255838
0.00010609491 0.028143214 0.30100003 4279189791
0.0010765425 0.027956216 0.29900002 4279386402
0.0020408465 0.027862715 0.29800001 4279779877
0.003008751 0.027862715 0.29800001 4279252506
0.0039499667 0.027675716 0.296 4278396173
0.0049113748 0.027675716 0.296 4278197253
0.0058529433 0.027582219 0.29500002 4278196996
0.0068111038 0.027582219 0.29500002 4278198278
0.0077429274 0.027488718 0.294 4278331404
0.0086978404 0.027488718 0.294 4278796570
0.0096527524 0.027488718 0.294 4278797084
0.010571584 0.02739522 0.29300001 4278994461
0.011523249 0.02739522 0.29300001 4278928668
0.012474914 0.02739522 0.29300001 4278863388
0.013380755 0.027301723 0.29200003 4278863388
0.014329172 0.027301723 0.29200003 4278666009
0.015277587 0.027301723 0.29200003 4279126047
0.016226003 0.027301723 0.29200003 4278928668
0.017174421 0.027301723 0.29200003 4278731289
0.018122837 0.027301723 0.29200003 4278795800
0.019071253 0.027301723 0.29200003 4279055900
-0.035147592 0.031830143 0.32900003 4279322912
-0.034079 0.031830143 0.32900003 4279257119
-0.033010408 0.031830143 0.32900003 4279126047
-0.031941812 0.031830143 0.32900003 4278994461
-0.03077938 0.031733394 0.32800001 4279257121
-0.029714037 0.031733394 0.32800001 4278200588
-0.028561348 0.031636644 0.32700002 4279187740
-0.027499253 0.031636644 0.32700002 4279714854
-0.026356306 0.031539895 0.32600001 4278986004
-0.02521986 0.031443149 0.32500002 4278852111
-0.024015557 0.031249652 0.32300001 4278983697
-0.022824243 0.031056155 0.32100001 4279115023
-0.02171378 0.030959409 0.32000002 4278917644
-0.020609813 0.030862659 0.31900001 4278983951
-0.019512339 0.030765912 0.31800002 4278524431
-0.018421361 0.030669162 0.317 4280038692
-0.017336885 0.030572414 0.31600001 4279711774
-0.016310515 0.030572414 0.31600001 4278789134
-0.015235779 0.030475669 0.31500003 4279317529
-0.014167538 0.030378917 0.31400001 4279320861
-0.013105796 0.030282171 0.31300002 4278330380
-0.012050547 0.030185422 0.31200001 4278787853
-0.011001795 0.030088674 0.31100002 4278985232
-0.0099595375 0.029991925 0.31 4279381785
-0.0089237783 0.029895177 0.30900002 4279779361
-0.007920146 0.029895177 0.30900002 4280043047
-0.0068941303 0.029798431 0.30800003 4279977256
-0.0058746096 0.029701682 0.30700001 4278200847
-0.0048615853 0.029604934 0.30600002 4278990877
-0.0038550573 0.029508185 0.30500001 4278925851
-0.0028550255 0.029411437 0.30400002 4279059488
-0.0018614891 0.029314687 0.303 4278993695
-0.00087444915 0.029217942 0.30200002 4278993695
0.00010609491 0.029121194 0.30100003 4279125281
0.0010765425 0.028927697 0.29900002 4279059488
0.0020408465 0.028830947 0.29800001 4279125281
0.0029986545 0.0287342 0.29700002 4279256097
0.0039633112 0.0287342 0.29700002 4279190304
0.0049113748 0.02863745 0.296 4279255584
0.0058529433 0.028540704 0.29500002 4279583779
0.0068111038 0.028540704 0.29500002 4279385887
0.0077692643 0.028540704 0.29500002 4278857748
0.0086978404 0.028443955 0.294 4278200845
0.0096527524 0.028443955 0.294 4278795546
0.010607664 0.028443955 0.294 4278993949
0.011523249 0.028347207 0.29300001 4278993949
0.012474914 0.028347207 0.29300001 4278862877
0.013380755 0.02825046 0.29200003 4278731802
0.014329172 0.02825046 0.29200003 4278797595
0.015277587 0.02825046 0.29200003 4278731289
0.016226003 0.02825046 0.29200003 4278336531
0.017115602 0.02815371 0.29100001 4278797082
0.018060772 0.02815371 0.29100001 4278335249
0.019005939 0.02815371 0.29100001 4278794265
-0.034079 0.032899097 0.32900003 4279257631
-0.033010408 0.032899097 0.32900003 4279257631
-0.031941812 0.032899097 0.32900003 4279126047
-0.03077938 0.032799099 0.32800001 4279322912
-0.029714037 0.032799099 0.32800001 4279058205
-0.028561348 0.032699101 0.32700002 4279715367
-0.027499253 0.032699101 0.32700002 4279321377
-0.026356306 0.032599103 0.32600001 4278196742
-0.02521986 0.032499105 0.32500002 4278918928
-0.024015557 0.032299113 0.32300001 4279049490
-0.022824243 0.032099117 0.32100001 4278983183
-0.02171378 0.031999122 0.32000002 4278982670
-0.020609813 0.031899121 0.31900001 4279180049
-0.019512339 0.031799126 0.31800002 4278852111
-0.018421361 0.031699128 0.317 4278786318
-0.017336885 0.03159913 0.31600001 4278655502
-0.016258899 0.031499136 0.31500003 4278721549
-0.015235779 0.031499136 0.31500003 4279383068
-0.014167538 0.031399135 0.31400001 4279781158
-0.013105796 0.03129914 0.31300002 4278526478
-0.012050547 0.03119914 0.31200001 4279050514
-0.011001795 0.031099144 0.31100002 4279116053
-0.0099595375 0.030999146 0.31 4279118615
-0.0089237783 0.03089915 0.30900002 4279451680
-0.007920146 0.03089915 0.30900002 4279189791
-0.0068941303 0.030799154 0.30800003 4279450398
-0.0058746096 0.030699154 0.30700001 4279582244
-0.0048615853 0.03059916 0.30600002 4279189793
-0.0038550573 0.03049916 0.30500001 4278199301
-0.0028550255 0.030399164 0.30400002 4278199048
-0.0018614891 0.030299166 0.303 4279189021
-0.00087444915 0.03019917 0.30200002 4278860826
0.00010609491 0.030099174 0.30100003 4279058718
0.0010765425 0.029899178 0.29900002 4278862109
0.0020408465 0.02979918 0.29800001 4278993695
0.003008751 0.02979918 0.29800001 4278862363
0.0039633112 0.029699184 0.29700002 4278994463
0.0049113748 0.029599184 0.296 4278862877
0.0058727833 0.029599184 0.296 4278862877
0.0068111038 0.029499188 0.29500002 4279059742
0.0077692643 0.029499188 0.29500002 4279585316
0.0087274248 0.029499188 0.29500002 4278331917
0.0096527524 0.02939919 0.294 4279189791
0.010607664 0.02939919 0.294 4278993695
0.011562577 0.02939919 0.294 4278993695
0.012474914 0.029299194 0.29300001 4278797084
0.013426579 0.029299194 0.29300001 4278665498
0.014329172 0.029199198 0.29200003 4278862877
0.015277587 0.029199198 0.29200003 4278731291
0.016170435 0.0290992 0.29100001 4278533912
0.017115602 0.0290992 0.29100001 4278796570
0.018060772 0.0290992 0.29100001 4278334482
0.019005939 0.0290992 0.29100001 4278530580
0.019951109 0.0290992 0.29100001 4284185194
-0.035147592 0.03396805 0.32900003 4279191842
-0.034079 0.03396805 0.32900003 4279191842
-0.033010408 0.03396805 0.32900003 4279191840
-0.031941812 0.03396805 0.32900003 4278862875
-0.03077938 0.033864804 0.32800001 4279256867
-0.029714037 0.033864804 0.32800001 4278202898
-0.028648691 0.033864804 0.32800001 4278333460
-0.027499253 0.033761557 0.32700002 4279387685
-0.026356306 0.033658311 0.32600001 4279452965
-0.02521986 0.033555064 0.32500002 4279450912
-0.024015557 0.033348572 0.32300001 4279053590
-0.022824243 0.033142079 0.32100001 4278460171
-0.021645924 0.032935586 0.31900001 4278721549
-0.020545205 0.032832339 0.31800002 4279115537
-0.019450979 0.032729093 0.317 4279180562
-0.01836325 0.032625847 0.31600001 4279114769
-0.017336885 0.032625847 0.31600001 4279114769
-0.016258899 0.0325226 0.31500003 4279180562
-0.015187411 0.032419354 0.31400001 4279712287
-0.014167538 0.032419354 0.31400001 4279517473
-0.013105796 0.032316107 0.31300002 4278987797
-0.012050547 0.032212861 0.31200001 4278853648
-0.011001795 0.032109614 0.31100002 4278458636
-0.0099595375 0.032006368 0.31 4279908901
-0.0089237783 0.031903122 0.30900002 4278200334
-0.0078945141 0.031799879 0.30800003 4278398740
-0.0068941303 0.031799879 0.30800003 4279779877
-0.0058746096 0.031696629 0.30700001 4279056154
-0.0048615853 0.031593386 0.30600002 4279124000
-0.0038550573 0.031490136 0.30500001 4278199815
-0.0028550255 0.03138689 0.30400002 4279319326
-0.0018614891 0.031283643 0.303 4278989593
-0.00087444915 0.031180399 0.30200002 4278725908
0.00010609491 0.031077154 0.30100003 4278397197
0.0010765425 0.030870659 0.29900002 4278266124
0.002047695 0.030870659 0.29900002 4278200074
0.003008751 0.030767413 0.29800001 4278597656
0.0039633112 0.030664166 0.29700002 4278860826
0.0049113748 0.030560918 0.296 4278202896
0.0058727833 0.030560918 0.296 4278993949
0.0068341922 0.030560918 0.296 4278862877
0.0077692643 0.030457674 0.29500002 4278862363
0.0087274248 0.030457674 0.29500002 4278727189
0.0096855853 0.030457674 0.29500002 4279124511
0.010607664 0.030354425 0.294 4278928416
0.011562577 0.030354425 0.294 4278862623
0.012474914 0.030251181 0.29300001 4278731291
0.013426579 0.030251181 0.29300001 4278797084
0.014329172 0.030147936 0.29200003 4278731291
0.015277587 0.030147936 0.29200003 4278731291
0.016170435 0.030044688 0.29100001 4278533398
0.017115602 0.030044688 0.29100001 4278664214
0.018060772 0.030044688 0.29100001 4278532374
0.019005939 0.030044688 0.29100001 4278727959
-0.035147592 0.035037003 0.32900003 4278862623
-0.034079 0.035037003 0.32900003 4278994209
-0.033010408 0.035037003 0.32900003 4279126049
-0.031941812 0.035037003 0.32900003 4279126049
-0.03087322 0.035037003 0.32900003 4279059488
-0.029714037 0.034930509 0.32800001 4279388453
-0.028648691 0.034930509 0.32800001 4279190306
-0.027499253 0.034824014 0.32700002 4279388453
-0.026356306 0.034717515 0.32600001 4279652393
-0.02521986 0.034611024 0.32500002 4279257121
-0.024015557 0.03439803 0.32300001 4279190558
-0.02275314 0.034078546 0.32000002 4279255838
-0.021645924 0.033972047 0.31900001 4279584033
-0.020545205 0.033865556 0.31800002 4279517727
-0.019450979 0.033759058 0.317 4279581471
-0.01836325 0.033652563 0.31600001 4278461455
-0.01728202 0.033546068 0.31500003 4278525453
-0.016258899 0.033546068 0.31500003 4278787855
-0.015187411 0.033439573 0.31400001 4280239147
-0.014122419 0.033333078 0.31300002 4278858775
-0.013105796 0.033333078 0.31300002 4279778850
-0.012050547 0.033226579 0.31200001 4279712287
-0.011001795 0.033120085 0.31100002 4279843360
-0.0099595375 0.03301359 0.31 4279713316
-0.0089237783 0.032907095 0.30900002 4279189023
-0.0078945141 0.0328006 0.30800003 4279452195
-0.0068717459 0.032694105 0.30700001 4279058207
-0.0058554742 0.03258761 0.30600002 4278729242
-0.0048615853 0.03258761 0.30600002 4278200073
-0.0038550573 0.032481112 0.30500001 4279516703
-0.0028550255 0.032374617 0.30400002 4279780647
-0.0018614891 0.032268122 0.303 4278199564
-0.00087444915 0.032161627 0.30200002 4278527759
0.00010574244 0.031948637 0.30000001 4279515424
0.0010765425 0.031842142 0.29900002 4278595089
0.002047695 0.031842142 0.29900002 4279977254
0.003008751 0.031735644 0.29800001 4278199563
0.0039633112 0.031629149 0.29700002 4278198536
0.0049279677 0.031629149 0.29700002 4279318558
0.0058727833 0.031522654 0.296 4278795035
0.0068341922 0.031522654 0.296 4278796830
0.0077956002 0.031522654 0.296 4278862109
0.0087274248 0.031416159 0.29500002 4279384865
0.0096855853 0.031416159 0.29500002 4279123998
0.010643746 0.031416159 0.29500002 4278862877
0.011562577 0.031309661 0.294 4278797084
0.012517489 0.031309661 0.294 4278796570
0.013426579 0.031203168 0.29300001 4278993949
0.014329172 0.031096673 0.29200003 4279059740
0.015277587 0.031096673 0.29200003 4278862361
0.016170435 0.030990176 0.29100001 4278664212
0.017115602 0.030990176 0.29100001 4278663701
0.018060772 0.030990176 0.29100001 4278860310
0.019005939 0.030990176 0.29100001 4278530832
-0.034079 0.036105961 0.32900003 4279387937
-0.033010408 0.036105961 0.32900003 4279190558
-0.031941812 0.036105961 0.32900003 4279190558
-0.03087322 0.036105961 0.32900003 4279257121
-0.029714037 0.035996214 0.32800001 4279125535
-0.028648691 0.035996214 0.32800001 4279059742
-0.027583348 0.035996214 0.32800001 4279125535
-0.026437154 0.03588647 0.32700002 4278928670
-0.025297457 0.035776723 0.32600001 4278994463
-0.024312964 0.03588647 0.32700002 4278599191
-0.022682035 0.035008512 0.31900001 4278928156
-0.02157807 0.034898769 0.31800002 4279059742
-0.020480597 0.034789022 0.317 4279125535
-0.01938962 0.034679279 0.31600001 4279125535
-0.01836325 0.034679279 0.31600001 4279387937
-0.01728202 0.034569535 0.31500003 4279452193
-0.016207283 0.034459788 0.31400001 4279583779
-0.015187411 0.034459788 0.31400001 4279649059
-0.014122419 0.034350045 0.31300002 4279451682
-0.013063923 0.034240302 0.31200001 4278660369
-0.012011923 0.034130558 0.31100002 4278196738
-0.011001795 0.034130558 0.31100002 4278329099
-0.0099595375 0.034020811 0.31 4278461455
-0.0089237783 0.033911068 0.30900002 4278726423
-0.0078945141 0.033801325 0.30800003 4279319072
-0.0068717459 0.033691578 0.30700001 4279321379
-0.0058554742 0.033581834 0.30600002 4279321379
-0.0048456974 0.033472087 0.30500001 4279519271
-0.0038424178 0.033362344 0.30400002 4279124513
-0.0028456338 0.033252597 0.303 4279124511
-0.0018553457 0.033142857 0.30200002 4279321377
-0.00087155367 0.033033114 0.30100003 4279451682
0.00010574244 0.032923367 0.30000001 4279451682
0.0010765425 0.032813624 0.29900002 4278200588
0.0020408465 0.032703876 0.29800001 4278464017
0.003008751 0.032703876 0.29800001 4279186972
0.0039633112 0.032594133 0.29700002 4278791701
0.0049279677 0.032594133 0.29700002 4279581217
0.0058727833 0.032484386 0.296 4278924314
0.0068341922 0.032484386 0.296 4278796830
0.0077956002 0.032484386 0.296 4278796830
0.0087570092 0.032484386 0.296 4278991131
0.0096855853 0.032374643 0.29500002 4279058972
0.010643746 0.032374643 0.29500002 4279059742
0.011562577 0.032264896 0.294 4278928156
0.012517489 0.032264896 0.294 4278993949
0.013426579 0.032155152 0.29300001 4278862363
0.014329172 0.032045413 0.29200003 4278862361
0.015277587 0.032045413 0.29200003 4278862361
0.016170435 0.031935666 0.29100001 4278664982
0.017115602 0.031935666 0.29100001 4278730005
0.018060772 0.031935666 0.29100001 4279123482
0.019005939 0.031935666 0.29100001 4279056922
0.019951109 0.031935666 0.29100001 4285105526
-0.034079 0.037174914 0.32900003 4278791437
-0.033010408 0.037174914 0.32900003 4279516441
-0.031941812 0.037174914 0.32900003 4279648541
-0.03087322 0.037174914 0.32900003 4279190045
-0.029714037 0.037061919 0.32800001 4279255838
-0.028648691 0.037061919 0.32800001 4279124765
-0.027583348 0.037061919 0.32800001 4278993949
-0.026437154 0.036948927 0.32700002 4279059742
-0.025375059 0.036948927 0.32700002 4278862363
-0.024312964 0.036948927 0.32700002 4279059742
-0.022682035 0.036044974 0.31900001 4278862363
-0.02157807 0.035931982 0.31800002 4278796316
-0.020480597 0.035818987 0.317 4278993695
-0.01938962 0.035705995 0.31600001 4279256867
-0.01830514 0.035593003 0.31500003 4279125281
-0.01728202 0.035593003 0.31500003 4279059742
-0.016207283 0.035480008 0.31400001 4279125535
-0.015139044 0.035367016 0.31300002 4279256351
-0.014122419 0.035367016 0.31300002 4279190558
-0.013063923 0.03525402 0.31200001 4279256351
-0.012011923 0.035141028 0.31100002 4279256351
-0.011001795 0.035141028 0.31100002 4279321377
-0.0099595375 0.035028033 0.31 4279714852
-0.0089237783 0.034915041 0.30900002 4279779363
-0.0078945141 0.034802046 0.30800003 4278198793
-0.0068717459 0.03468905 0.30700001 4278197511
-0.0058554742 0.034576058 0.30600002 4278197766
-0.0048456974 0.034463063 0.30500001 4278198022
-0.0038424178 0.034350071 0.30400002 4278529042
-0.0028456338 0.034237076 0.303 4278991131
-0.0018553457 0.034124084 0.30200002 4279649059
-0.00087155367 0.034011092 0.30100003 4279321631
0.00010574244 0.033898097 0.30000001 4279124765
0.0010765425 0.033785105 0.29900002 4279190558
0.0020408465 0.033672109 0.29800001 4279452963
0.003008751 0.033672109 0.29800001 4279321377
0.0039633112 0.033559117 0.29700002 4279452963
0.0049279677 0.033559117 0.29700002 4278464017
0.0058727833 0.033446122 0.296 4279320094
0.0068341922 0.033446122 0.296 4278993695
0.0077956002 0.033446122 0.296 4278202898
0.0087570092 0.033446122 0.296 4278531093
0.0097184181 0.033446122 0.296 4278927902
0.010643746 0.03333313 0.29500002 4278994463
0.011601906 0.03333313 0.29500002 4278797084
0.012517489 0.033220135 0.294 4278862877
0.013426579 0.033107139 0.29300001 4278928670
0.014329172 0.032994147 0.29200003 4278797082
0.015277587 0.032994147 0.29200003 4278731289
0.016170435 0.032881152 0.29100001 4278533910
0.017115602 0.032881152 0.29100001 4278796568
0.018060772 0.032881152 0.29100001 4279190043
0.019005939 0.032881152 0.29100001 4278596371
-0.01938962 0.036732711 0.31600001 4278993949
-0.01830514 0.036616471 0.31500003 4278993947
-0.01728202 0.036616471 0.31500003 4278993947
-0.016207283 0.036500227 0.31400001 4278993947
-0.015139044 0.036383983 0.31300002 4279059742
-0.014122419 0.036383983 0.31300002 4278993949
-0.013063923 0.036267739 0.31200001 4278928670
-0.012011923 0.036151499 0.31100002 4278862877
-0.011001795 0.036151499 0.31100002 4278797084
-0.0099595375 0.036035255 0.31 4278928670
-0.0089237783 0.035919011 0.30900002 4278993949
-0.0078945141 0.03580277 0.30800003 4278928156
-0.0068717459 0.035686526 0.30700001 4279190304
-0.0058554742 0.035570286 0.30600002 4279321377
-0.0048456974 0.035454039 0.30500001 4279911463
-0.0038424178 0.035337798 0.30400002 4279252765
-0.0028456338 0.035221554 0.303 4278593552
-0.0018553457 0.035105314 0.30200002 4278196738
-0.00086865807 0.034872826 0.30000001 4278197253
0.00010574244 0.034872826 0.30000001 4278198023
0.0010765425 0.034756586 0.29900002 4278660628
0.0020408465 0.034640342 0.29800001 4279056670
0.003008751 0.034640342 0.29800001 4279321379
0.0039633112 0.034524098 0.29700002 4278992925
0.0049279677 0.034524098 0.29700002 4279124511
0.0058926241 0.034524098 0.29700002 4279256351
0.0068341922 0.034407854 0.296 4279190558
0.0077956002 0.034407854 0.296 4278662677
0.0087570092 0.034407854 0.296 4278991644
0.0097184181 0.034407854 0.296 4279125535
0.010643746 0.034291614 0.29500002 4278862877
0.011601906 0.034291614 0.29500002 4278862877
0.012517489 0.03417537 0.294 4278731291
0.013426579 0.034059126 0.29300001 4278797084
0.014378243 0.034059126 0.29300001 4278665498
0.015277587 0.033942886 0.29200003 4278665498
0.016170435 0.033826642 0.29100001 4278468117
0.017115602 0.033826642 0.29100001 4278336531
0.018060772 0.033826642 0.29100001 4278730005
0.019005939 0.033826642 0.29100001 4278530578
-0.015139044 0.037400953 0.31300002 4278928154
-0.014077298 0.037281457 0.31200001 4278862875
-0.013063923 0.037281457 0.31200001 4278928668
-0.012011923 0.037161969 0.31100002 4278928668
-0.011001795 0.037161969 0.31100002 4278862875
-0.0099595375 0.037042476 0.31 4278862875
-0.0089237783 0.036922984 0.30900002 4278797082
-0.0078945141 0.036803495 0.30800003 4278797082
-0.0068717459 0.036683999 0.30700001 4278928668
-0.0058554742 0.03656451 0.30600002 4278862875
-0.0048456974 0.036445014 0.30500001 4278993949
-0.0038424178 0.036325525 0.30400002 4279190558
-0.0028456338 0.036206033 0.303 4279255584
-0.0018492022 0.035967052 0.30100003 4279386400
-0.00086865807 0.035847556 0.30000001 4279911461
0.00010538997 0.035728067 0.29900002 4280437291
0.0010765425 0.035728067 0.29900002 4279121433
0.0020408465 0.035608575 0.29800001 4278660115
0.0029986545 0.035489082 0.29700002 4278330380
0.0039633112 0.035489082 0.29700002 4278330382
0.0049279677 0.035489082 0.29700002 4278396175
0.0058926241 0.035489082 0.29700002 4278660115
0.0068572811 0.035489082 0.29700002 4279056152
0.0077956002 0.03536959 0.296 4278725138
0.0087570092 0.03536959 0.296 4278991131
0.0097184181 0.03536959 0.296 4279124511
0.010679825 0.03536959 0.296 4278928670
0.011601906 0.035250098 0.29500002 4278928670
0.012517489 0.035130605 0.294 4278731291
0.013472402 0.035130605 0.294 4278862877
0.014378243 0.035011113 0.29300001 4278731291
0.015277587 0.034891624 0.29200003 4278731291
0.016226003 0.034891624 0.29200003 4278533398
0.017115602 0.034772132 0.29100001 4278532628
0.018060772 0.034772132 0.29100001 4278926103
0.019005939 0.034772132 0.29100001 4278200072
-0.014438256 0.039277107 0.32000002 4278993179
-0.013357024 0.039154366 0.31900001 4278862363
-0.012282288 0.039031625 0.31800002 4278862363
-0.01103717 0.03829518 0.31200001 4278993949
-0.0099595375 0.038049698 0.31 4278928156
-0.0089237783 0.037926957 0.30900002 4278664984
-0.0078945141 0.037804216 0.30800003 4278928156
-0.0068717459 0.037681475 0.30700001 4278928154
-0.0058554742 0.037558734 0.30600002 4278993947
-0.0048456974 0.037435994 0.30500001 4279059740
-0.0038424178 0.037313253 0.30400002 4279059740
-0.0028456338 0.037190508 0.303 4279059742
-0.0018614891 0.037190508 0.303 4279125535
-0.00086576259 0.036699548 0.29900002 4279255838
0.00010538997 0.036699548 0.29900002 4279255838
0.0010729419 0.036576804 0.29800001 4279321631
0.0020408465 0.036576804 0.29800001 4279321631
0.003008751 0.036576804 0.29800001 4279386654
0.0039633112 0.036454067 0.29700002 4279780645
0.0049279677 0.036454067 0.29700002 4279911209
0.0058926241 0.036454067 0.29700002 4279319072
0.0068572811 0.036454067 0.29700002 4278593552
0.0078219371 0.036454067 0.29700002 4278462738
0.0087865945 0.036454067 0.29700002 4279452965
0.0097184181 0.036331322 0.296 4279125281
0.010679825 0.036331322 0.296 4278862623
0.011601906 0.036208585 0.29500002 4278796830
0.012560067 0.036208585 0.29500002 4278797084
0.013472402 0.03608584 0.294 4278797084
0.014378243 0.035963099 0.29300001 4278731289
0.015277587 0.035840362 0.29200003 4278533910
0.016226003 0.035840362 0.29200003 4278533396
0.017115602 0.035717618 0.29100001 4278598419
0.018060772 0.035717618 0.29100001 4278924820
0.019005939 0.035717618 0.29100001 4279250969
-0.016878286 0.041198753 0.32700002 4279645463
-0.014483375 0.040442813 0.32100001 4279056406
-0.013398896 0.040316824 0.32000002 4279320861
-0.012320912 0.040190831 0.31900001 4279320861
-0.011320175 0.040316824 0.32000002 4279255838
-0.010248685 0.040190831 0.31900001 4279190045
-0.0091836946 0.040064842 0.31800002 4279321631
-0.0081251971 0.039938848 0.317 4279124252
-0.0070284307 0.039560881 0.31400001 4279058459
-0.005989423 0.039434891 0.31300002 4278993179
-0.0049569104 0.039308902 0.31200001 4279256097
-0.0040067318 0.039938848 0.317 4279124511
-0.0029771151 0.039938848 0.317 4278927902
-0.0019474985 0.039938848 0.317 4279059488
-0.00086576259 0.037671033 0.29900002 4279124765
0.00010538997 0.037671033 0.29900002 4279190558
0.0010729419 0.03754504 0.29800001 4279190558
0.0020408465 0.03754504 0.29800001 4279190558
0.003008751 0.03754504 0.29800001 4279190558
0.0039633112 0.037419051 0.29700002 4279190558
0.0049279677 0.037419051 0.29700002 4279190304
0.0058926241 0.037419051 0.29700002 4279256097
0.0068572811 0.037419051 0.29700002 4279124511
0.0078219371 0.037419051 0.29700002 4279255584
0.0087865945 0.037419051 0.29700002 4279124511
0.009751251 0.037419051 0.29700002 4278993695
0.010679825 0.037293058 0.296 4278862623
0.011641234 0.037293058 0.296 4278862623
0.012560067 0.037167072 0.29500002 4278796830
0.013472402 0.037041079 0.294 4278797084
0.014378243 0.03691509 0.29300001 4278533910
0.015329907 0.03691509 0.29300001 4278401810
0.016226003 0.036789101 0.29200003 4278466833
0.017174421 0.036789101 0.29200003 4278597906
0.018060772 0.036663108 0.29100001 4278858513
0.019005939 0.036663108 0.29100001 4279381787
-0.017940383 0.042261206 0.32700002 4279376908
-0.016878286 0.042261206 0.32700002 4279180299
-0.015719455 0.04200273 0.32500002 4278851847
-0.014528495 0.041615013 0.32200003 4278720261
-0.01348264 0.041615013 0.32200003 4278919689
-0.012398158 0.041485772 0.32100001 4279381523
-0.01135555 0.041485772 0.32100001 4279318551
-0.010280814 0.041356534 0.32000002 4279582236
-0.0092414534 0.041356534 0.32000002 4279648543
-0.0081764609 0.041227292 0.31900001 4279385887
-0.0071403487 0.041227292 0.31900001 4279320607
-0.0060659647 0.040968813 0.317 4279386400
-0.005036348 0.040968813 0.317 4279583779
-0.0040067318 0.040968813 0.317 4279781158
-0.0029771151 0.040968813 0.317 4279650855
-0.0019474985 0.040968813 0.317 4279519271
-0.00086576259 0.038642511 0.29900002 4279256097
0.00010538997 0.038642511 0.29900002 4279387683
0.0010729419 0.038513269 0.29800001 4279058718
0.0020408465 0.038513269 0.29800001 4279190304
0.003008751 0.038513269 0.29800001 4279190304
0.0039766557 0.038513269 0.29800001 4279190304
0.0049445597 0.038513269 0.29800001 4279256351
0.0059124646 0.038513269 0.29800001 4279190304
0.006880369 0.038513269 0.29800001 4278993695
0.007848273 0.038513269 0.29800001 4279125281
0.008816178 0.038513269 0.29800001 4279190304
0.009751251 0.038384032 0.29700002 4278993695
0.010715907 0.038384032 0.29700002 4278928416
0.011641234 0.03825479 0.296 4278928416
0.012560067 0.038125552 0.29500002 4278862623
0.013472402 0.037996311 0.294 4278797084
0.014378243 0.037867073 0.29300001 4278664984
0.015329907 0.037867073 0.29300001 4278664214
0.016226003 0.037737839 0.29200003 4278597908
0.017174421 0.037737839 0.29200003 4278794517
0.018122837 0.037737839 0.29200003 4279580186
0.019005939 0.037608597 0.29100001 4281289784
-0.017940383 0.043323666 0.32700002 4279376649
-0.016826671 0.043191176 0.32600001 4279376649
-0.015719455 0.04305869 0.32500002 4279179016
-0.014573614 0.04279371 0.32300001 4279442188
-0.013524511 0.04279371 0.32300001 4279179016
-0.012436783 0.042661224 0.32200003 4279376395
-0.011390925 0.042661224 0.32200003 4279377162
-0.010312941 0.042528734 0.32100001 4279641617
-0.0092703328 0.042528734 0.32100001 4279709207
-0.0082020927 0.042396247 0.32000002 4279709977
-0.0071627325 0.042396247 0.32000002 4279250453
-0.0061425068 0.042528734 0.32100001 4278922258
-0.0050998982 0.042528734 0.32100001 4279449113
-0.00405729 0.042528734 0.32100001 4279843871
-0.0030146814 0.042528734 0.32100001 4280042535
-0.0019720728 0.042528734 0.32100001 4279977256
0.00010538997 0.039613996 0.29900002 4280109610
0.0010729419 0.039481506 0.29800001 4279780645
0.0020408465 0.039481506 0.29800001 4279649574
0.003008751 0.039481506 0.29800001 4279584551
0.0039766557 0.039481506 0.29800001 4279584551
0.0049445597 0.039481506 0.29800001 4279584551
0.0059124646 0.039481506 0.29800001 4279255584
0.006880369 0.039481506 0.29800001 4279716135
0.007848273 0.039481506 0.29800001 4279518756
0.008816178 0.039481506 0.29800001 4279256097
0.0097840829 0.039481506 0.29800001 4279058718
0.010715907 0.039349016 0.29700002 4278796830
0.011641234 0.039216526 0.296 4278994209
0.012560067 0.03908404 0.29500002 4278731037
0.013472402 0.03895155 0.294 4278796830
0.014427315 0.03895155 0.294 4278795546
0.015329907 0.038819063 0.29300001 4278992925
0.016281571 0.038819063 0.29300001 4278991644
0.017174421 0.038686577 0.29200003 4279121947
0.018122837 0.038686577 0.29200003 4280171305
0.019071253 0.038686577 0.29200003 4285039733
-0.016826671 0.04425038 0.32600001 4279573004
-0.015719455 0.044114646 0.32500002 4279573004
-0.014618733 0.043978903 0.324 4279573004
-0.013524511 0.043843169 0.32300001 4279507211
-0.012436783 0.043707434 0.32200003 4279507211
-0.011390925 0.043707434 0.32200003 4279704590
-0.010345069 0.043707434 0.32200003 4280099602
-0.0092703328 0.043571692 0.32100001 4280561436
-0.0082277237 0.043571692 0.32100001 4280758815
-0.0071851155 0.043571692 0.32100001 4280759331
-0.0061425068 0.043571692 0.32100001 4280234016
-0.0050998982 0.043571692 0.32100001 4286026366
0.003008751 0.040449735 0.29800001 4279909416
0.0039766557 0.040449735 0.29800001 4279844393
0.0049445597 0.040449735 0.29800001 4279779627
0.0059323055 0.040585473 0.29900002 4280042799
0.0069034579 0.040585473 0.29900002 4279845416
0.0078746108 0.040585473 0.29900002 4279911979
0.0088457633 0.040585473 0.29900002 4279846699
0.0097840829 0.040449735 0.29800001 4279715113
0.010715907 0.040314 0.29700002 4279649574
0.011641234 0.040178258 0.296 4279518758
0.012560067 0.040042523 0.29500002 4279452965
0.013518227 0.040042523 0.29500002 4279255586
0.014427315 0.039906785 0.294 4279321379
0.015329907 0.039771046 0.29300001 4279386402
0.016281571 0.039771046 0.29300001 4279121947
0.017174421 0.039635312 0.29200003 4279843106
0.018122837 0.039635312 0.29200003 4283591773
-0.015719455 0.045170605 0.32500002 4279573004
-0.014618733 0.045031615 0.324 4279573004
-0.013524511 0.044892631 0.32300001 4279507211
-0.012475406 0.044892631 0.32300001 4279507211
-0.011390925 0.044753648 0.32200003 4279638797
-0.010345069 0.044753648 0.32200003 4279968016
-0.0092992131 0.044753648 0.32200003 4280626716
-0.0082533555 0.044753648 0.32200003 4280889888
-0.0072074994 0.044753648 0.32200003 4281021733
-0.0061616427 0.044753648 0.32200003 4281746228
-0.0051157856 0.044753648 0.32200003 4286157187
0.0069034579 0.041556958 0.29900002 4285106296
0.0078746108 0.041556958 0.29900002 4284119653
0.0088457633 0.041556958 0.29900002 4282410831
0.0098169157 0.041556958 0.29900002 4281423936
0.010715907 0.041278984 0.29700002 4280107563
0.011641234 0.041139994 0.296 4279647012
0.012602643 0.041139994 0.296 4278990109
0.013518227 0.041001011 0.29500002 4279384867
0.014427315 0.04086202 0.294 4279318558
0.015382227 0.04086202 0.294 4279515937
0.016281571 0.040723037 0.29300001 4280829235
0.017233236 0.040723037 0.29300001 4285434493
0.013518227 0.041959498 0.29500002 4285632640
0.014427315 0.041817259 0.294 4285764226
0.015382227 0.041817259 0.294 4285895812
-0.0055539529 0.032308158 0.30807689 4294967295
-0.0055539529 0.032308158 0.30807689 4294901760
-0.0054951943 0.031813908 0.30812448 4294901760
-0.0054364363 0.031319659 0.30817208 4294901760
-0.0053776777 0.030825412 0.30821967 4294901760
-0.0053189197 0.030331163 0.30826727 4294901760
-0.0052601611 0.029836914 0.30831489 4294901760
-0.0052014031 0.029342664 0.30836248 4294901760
-0.0051426445 0.028848415 0.30841008 4294901760
-0.0050838864 0.028354168 0.30845767 4294901760
-0.0050251279 0.027859919 0.30850527 4294901760
-0.0049663698 0.02736567 0.30855286 4294901760
-0.0049076113 0.02687142 0.30860046 4294901760
-0.0048488528 0.026377171 0.30864805 4294901760
-0.0047900947 0.025882922 0.30869567 4294901760
-0.0047313361 0.025388673 0.30874327 4294901760
-0.0046725781 0.024894424 0.30879086 4294901760
-0.0046138195 0.024400176 0.30883846 4294901760
-0.0045550615 0.023905927 0.30888605 4294901760
-0.0044963029 0.023411678 0.30893365 4294901760
-0.0044375444 0.022917431 0.30898124 4294901760
-0.0043787863 0.022423182 0.30902883 4294901760
-0.0043200282 0.021928933 0.30907646 4294901760
-0.0042612697 0.021434683 0.30912405 4294901760
-0.0042025112 0.020940434 0.30917165 4294901760
-0.0041437531 0.020446185 0.30921924 4294901760
-0.0040849946 0.019951936 0.30926684 4294901760
-0.0040262365 0.019457689 0.30931443 4294901760
-0.0039674779 0.018963438 0.30936202 4294901760
-0.0039087199 0.01846919 0.30940962 4294901760
-0.0038499613 0.017974943 0.30945721 4294901760
-0.0037912028 0.017480692 0.30950484 4294901760
-0.0037324447 0.016986445 0.30955243 4294901760
-0.0036736864 0.016492195 0.30960003 4294901760
-0.0036149281 0.015997946 0.30964762 4294901760
-0.0035561698 0.015503697 0.30969521 4294901760
-0.0034974115 0.015009448 0.30974281 4294901760
-0.003438653 0.014515199 0.3097904 4294901760
-0.0033798947 0.014020951 0.309838 4294901760
-0.0033211363 0.013526702 0.30988562 4294901760
-0.003262378 0.013032453 0.30993322 4294901760
-0.0032036197 0.012538204 0.30998081 4294901760
-0.0031448614 0.012043955 0.3100284 4294901760
-0.0030861031 0.011549708 0.310076 4294901760
-0.0030273448 0.011055458 0.31012359 4294901760
-0.0029685865 0.010561209 0.31017119 4294901760
-0.0029098282 0.01006696 0.31021878 4294901760
-0.0028510697 0.0095727108 0.31026641 4294901760
-0.0027923114 0.0090784617 0.310314 4294901760
-0.0027335531 0.0085842144 0.31036159 4294901760
-0.0026747948 0.0080899652 0.31040919 4294901760
-0.0026160365 0.007595716 0.31045678 4294901760
-0.0025572781 0.0071014669 0.31050438 4294901760
-0.0024985198 0.0066072196 0.31055197 4294901760
-0.0024397615 0.0061129704 0.31059957 4294901760
-0.002381003 0.0056187194 0.31064716 4294901760
-0.0023222447 0.0051244721 0.31069478 4294901760
-0.0022634864 0.0046302229 0.31074238 4294901760
-0.0022047281 0.0041359738 0.31078997 4294901760
-0.00214597 0.0036417264 0.31083757 4294901760
-0.0020872117 0.0031474773 0.31088516 4294901760
-0.0020284529 0.0026532263 0.31093276 4294901760
-0.0019696949 0.002158979 0.31098035 4294901760
-0.0019109366 0.0016647298 0.31102794 4294901760
-0.0018521782 0.0011704806 0.31107557 4294901760
-0.0017934199 0.00067623332 0.31112316 4294901760
-0.0017346616 0.00018198416 0.31117076 4294901760
-0.0016759031 -0.00031226501 0.31121835 4294901760
-0.0016171448 -0.00080651417 0.31126595 4294901760
-0.0015583867 -0.0013007633 0.31131354 4294901760
-0.0014996282 -0.0017950125 0.31136113 4294901760
-0.0014408701 -0.0022892617 0.31140873 4294901760
-0.0013821116 -0.0027835071 0.31145635 4294901760
-0.001323353 -0.00327776 0.31150395 4294901760
-0.001264595 -0.0037720092 0.31155154 4294901760
-0.0012058364 -0.0042662546 0.31159914 4294901760
-0.0011470784 -0.0047605038 0.31164673 4294901760
-0.0010883198 -0.0052547529 0.31169432 4294901760
-0.0010295617 -0.0057490021 0.31174192 4294901760
-0.0009708032 -0.0062432513 0.31178951 4294901760
-0.00091204466 -0.0067375004 0.31183711 4294901760
-0.00085328659 -0.0072317496 0.31188473 4294901760
-0.00079452805 -0.0077259988 0.31193233 4294901760
-0.00073576998 -0.0082202479 0.31197992 4294901760
-0.00067701191 -0.0087144934 0.31202751 4294901760
-0.00061825337 -0.0092087425 0.31207511 4294901760
-0.00055949483 -0.0097029954 0.3121227 4294901760
-0.00050073676 -0.010197241 0.3121703 4294901760
-0.00044197822 -0.01069149 0.31221789 4294901760
-0.00038322015 -0.011185739 0.31226552 4294901760
-0.00032446161 -0.011679988 0.31231311 4294901760
-0.00026570354 -0.012174238 0.3123607 4294901760
-0.000206945 -0.012668487 0.3124083 4294901760
-0.00014818646 -0.013162736 0.31245589 4294901760
-8.9428388e-05 -0.013656985 0.31250349 4294901760
-3.0669849e-05 -0.014151234 0.31255108 4294901760
2.8088223e-05 -0.01464548 0.31259868 4294901760
8.6846761e-05 -0.015139729 0.3126463 4294901760
0.0001456053 -0.015633982 0.31269389 4294901760
0.00020436337 -0.016128227 0.31274149 4294901760
0.00026312191 -0.016622476 0.31278908 4294901760
0.00032187998 -0.017116725 0.31283668 4294901760
-0.0055539529 0.032308158 0.30807689 4278255360
-0.005169421 0.032323129 0.30775765 4278255360
-0.0047848891 0.032338101 0.30743843 4278255360
-0.0044003571 0.03235307 0.30711919 4278255360
-0.0040158252 0.032368042 0.30679995 4278255360
-0.0036312931 0.032383014 0.30648071 4278255360
-0.0032467612 0.032397985 0.30616146 4278255360
-0.0028622292 0.032412957 0.30584225 4278255360
-0.0024776973 0.032427929 0.30552301 4278255360
-0.0020931652 0.032442898 0.30520377 4278255360
-0.0017086333 0.032457869 0.30488455 4278255360
-0.0013241014 0.032472841 0.30456531 4278255360
-0.00093956944 0.032487813 0.30424607 4278255360
-0.00055503752 0.032502785 0.30392683 4278255360
-0.00017050561 0.032517754 0.30360758 4278255360
0.00021402678 0.032532725 0.30328837 4278255360
0.00059855822 0.032547697 0.30296913 4278255360
0.00098309061 0.032562669 0.30264989 4278255360
0.0013676225 0.032577641 0.30233067 4278255360
0.001752154 0.032592613 0.30201143 4278255360
0.0021366864 0.032607581 0.30169219 4278255360
0.0025212183 0.032622553 0.30137295 4278255360
0.0029057502 0.032637525 0.3010537 4278255360
0.0032902821 0.032652497 0.30073449 4278255360
0.003674814 0.032667469 0.30041525 4278255360
0.0040593459 0.032682441 0.30009601 4278255360
0.0044438778 0.032697409 0.29977679 4278255360
0.0048284107 0.032712381 0.29945755 4278255360
0.0052129417 0.032727353 0.29913831 4278255360
0.0055974736 0.032742325 0.29881907 4278255360
0.0059820064 0.032757297 0.29849982 4278255360
0.0063665374 0.032772265 0.29818061 4278255360
0.0067510693 0.032787237 0.29786137 4278255360
0.0071356022 0.032802209 0.29754212 4278255360
0.0075201341 0.032817181 0.29722291 4278255360
0.0079046655 0.032832153 0.29690367 4278255360
0.0082891975 0.032847125 0.29658443 4278255360
0.0086737294 0.032862093 0.29626518 4278255360
0.0090582613 0.032877065 0.29594594 4278255360
0.0094427932 0.032892037 0.29562673 4278255360
0.0098273251 0.032907009 0.29530749 4278255360
0.010211857 0.032921981 0.29498824 4278255360
0.010596389 0.032936949 0.29466903 4278255360
0.010980921 0.032951921 0.29434979 4278255360
0.011365453 0.032966893 0.29403055 4278255360
0.011749985 0.032981865 0.2937113 4278255360
0.012134517 0.032996837 0.29339206 4278255360
0.012519049 0.033011809 0.29307285 4278255360
0.01290358 0.033026777 0.29275361 4278255360
0.013288112 0.033041749 0.29243436 4278255360
0.013672644 0.033056721 0.29211515 4278255360
0.014057176 0.033071693 0.29179591 4278255360
0.014441708 0.033086665 0.29147667 4278255360
0.014826238 0.033101633 0.29115742 4278255360
0.015210774 0.033116605 0.29083818 4278255360
0.015595304 0.033131577 0.29051897 4278255360
0.015979836 0.033146549 0.29019973 4278255360
0.016364368 0.033161521 0.28988048 4278255360
0.0167489 0.033176493 0.28956127 4278255360
0.017133432 0.033191461 0.28924203 4278255360
0.017517965 0.033206433 0.28892279 4278255360
0.017902497 0.033221405 0.28860354 4278255360
0.018287027 0.033236377 0.2882843 4278255360
0.018671559 0.033251349 0.28796509 4278255360
0.019056091 0.033266317 0.28764585 4278255360
0.019440623 0.033281289 0.2873266 4278255360
0.019825157 0.033296261 0.28700739 4278255360
0.020209689 0.033311233 0.28668815 4278255360
0.020594221 0.033326205 0.28636891 4278255360
0.020978751 0.033341177 0.28604966 4278255360
0.021363283 0.033356145 0.28573042 4278255360
0.021747814 0.033371117 0.28541121 4278255360
0.022132348 0.033386089 0.28509197 4278255360
0.02251688 0.033401061 0.28477272 4278255360
0.022901412 0.033416033 0.28445351 4278255360
0.023285944 0.033431001 0.28413427 4278255360
0.023670474 0.033445973 0.28381503 4278255360
0.024055006 0.033460945 0.28349578 4278255360
0.024439538 0.033475917 0.28317654 4278255360
0.024824072 0.033490889 0.28285733 4278255360
0.025208604 0.033505861 0.28253809 4278255360
0.025593136 0.033520829 0.28221884 4278255360
0.025977667 0.033535801 0.28189963 4278255360
0.026362199 0.033550773 0.28158039 4278255360
0.026746731 0.033565745 0.28126115 4278255360
0.027131263 0.033580717 0.2809419 4278255360
0.027515795 0.033595689 0.28062266 4278255360
0.027900327 0.033610657 0.28030345 4278255360
0.028284859 0.033625629 0.27998421 4278255360
0.028669391 0.033640601 0.27966496 4278255360
0.029053923 0.033655573 0.27934575 4278255360
0.029438455 0.033670545 0.27902651 4278255360
0.029822987 0.033685513 0.27870727 4278255360
0.030207518 0.033700485 0.27838802 4278255360
0.03059205 0.033715457 0.27806878 4278255360
0.030976582 0.033730429 0.27774957 4278255360
0.031361114 0.033745401 0.27743033 4278255360
0.031745646 0.033760373 0.27711108 4278255360
0.032130178 0.033775341 0.27679187 4278255360
0.03251471 0.033790313 0.27647263 4278255360
0.032899242 0.033805285 0.27615339 4278255360
-0.0055539529 0.032308158 0.30807689 4278190335
-0.0052363407 0.03238241 0.30845585 4278190335
-0.004918729 0.032456666 0.30883479 4278190335
-0.0046011168 0.032530919 0.30921376 4278190335
-0.0042835046 0.032605175 0.30959272 4278190335
-0.0039658924 0.032679427 0.30997169 4278190335
-0.0036482806 0.03275368 0.31035063 4278190335
-0.0033306684 0.032827936 0.31072959 4278190335
-0.0030130565 0.032902189 0.31110856 4278190335
-0.0026954443 0.032976445 0.3114875 4278190335
-0.0023778321 0.033050697 0.31186646 4278190335
-0.0020602201 0.03312495 0.31224543 4278190335
-0.0017426081 0.033199206 0.31262439 4278190335
-0.0014249962 0.033273458 0.31300333 4278190335
-0.001107384 0.033347715 0.3133823 4278190335
-0.00078977179 0.033421967 0.31376126 4278190335
-0.00047216006 0.03349622 0.3141402 4278190335
-0.00015454786 0.033570476 0.31451917 4278190335
0.00016306434 0.033644728 0.31489813 4278190335
0.00048067654 0.033718985 0.31527707 4278190335
0.00079828873 0.033793237 0.31565604 4278190335
0.0011159005 0.03386749 0.316035 4278190335
0.0014335127 0.033941746 0.31641397 4278190335
0.0017511249 0.034015998 0.31679291 4278190335
0.0020687366 0.034090254 0.31717187 4278190335
0.0023863488 0.034164507 0.31755084 4278190335
0.0027039605 0.034238759 0.31792977 4278190335
0.0030215732 0.034313016 0.31830874 4278190335
0.0033391849 0.034387268 0.31868771 4278190335
0.0036567966 0.034461524 0.31906667 4278190335
0.0039744093 0.034535777 0.31944561 4278190335
0.004292021 0.034610029 0.31982458 4278190335
0.0046096328 0.034684286 0.32020354 4278190335
0.0049272454 0.034758538 0.32058248 4278190335
0.0052448572 0.034832794 0.32096145 4278190335
0.0055624689 0.034907047 0.32134041 4278190335
0.0058800816 0.034981299 0.32171938 4278190335
0.0061976933 0.035055555 0.32209831 4278190335
0.006515306 0.035129808 0.32247728 4278190335
0.0068329177 0.035204064 0.32285625 4278190335
0.0071505303 0.035278317 0.32323518 4278190335
0.0074681421 0.035352569 0.32361415 4278190335
0.0077857538 0.035426825 0.32399312 4278190335
0.0081033669 0.035501078 0.32437208 4278190335
0.0084209777 0.035575334 0.32475102 4278190335
0.0087385904 0.035649586 0.32512999 4278190335
0.0090562031 0.035723839 0.32550895 4278190335
0.0093738139 0.035798095 0.32588789 4278190335
0.0096914265 0.035872348 0.32626686 4278190335
0.010009039 0.035946604 0.32664582 4278190335
0.01032665 0.036020856 0.32702476 4278190335
0.010644263 0.036095109 0.32740372 4278190335
0.010961873 0.036169365 0.32778269 4278190335
0.011279486 0.036243618 0.32816166 4278190335
0.011597099 0.036317874 0.32854059 4278190335
0.011914711 0.036392126 0.32891956 4278190335
0.012232322 0.036466379 0.32929853 4278190335
0.012549935 0.036540635 0.32967746 4278190335
0.012867546 0.036614887 0.33005643 4278190335
0.013185158 0.03668914 0.3304354 4278190335
0.013502771 0.036763396 0.33081436 4278190335
0.013820384 0.036837649 0.3311933 4278190335
0.014137994 0.036911905 0.33157226 4278190335
0.014455607 0.036986157 0.33195123 4278190335
0.014773218 0.037060414 0.33233017 4278190335
0.015090831 0.037134666 0.33270913 4278190335
0.015408443 0.037208922 0.3330881 4278190335
0.015726056 0.037283175 0.33346707 4278190335
0.016043667 0.037357427 0.333846 4278190335
0.016361279 0.037431683 0.33422497 4278190335
0.01667889 0.037505936 0.33460394 4278190335
0.016996503 0.037580188 0.33498287 4278190335
0.017314116 0.037654445 0.33536184 4278190335
0.017631728 0.037728697 0.3357408 4278190335
0.017949339 0.037802953 0.33611977 4278190335
0.018266952 0.037877206 0.33649871 4278190335
0.018584564 0.037951458 0.33687767 4278190335
0.018902175 0.038025714 0.33725664 4278190335
0.019219788 0.038099967 0.33763558 4278190335
0.0195374 0.038174223 0.33801454 4278190335
0.019855013 0.038248476 0.33839351 4278190335
0.020172624 0.038322728 0.33877248 4278190335
0.020490237 0.038396984 0.33915141 4278190335
0.020807847 0.038471237 0.33953038 4278190335
0.02112546 0.038545489 0.33990934 4278190335
0.021443073 0.038619746 0.34028828 4278190335
0.021760685 0.038693998 0.34066725 4278190335
0.022078296 0.038768254 0.34104621 4278190335
0.022395909 0.038842507 0.34142518 4278190335
0.02271352 0.038916763 0.34180412 4278190335
0.023031132 0.038991015 0.34218308 4278190335
0.023348745 0.039065272 0.34256205 4278190335
0.023666358 0.039139524 0.34294099 4278190335
0.023983968 0.039213777 0.34331995 4278190335
0.024301581 0.039288033 0.34369892 4278190335
0.024619192 0.039362285 0.34407786 4278190335
0.024936805 0.039436538 0.34445682 4278190335
0.025254417 0.039510794 0.34483579 4278190335
0.02557203 0.039585046 0.34521475 4278190335
0.025889643 0.039659303 0.34559369 4278190335
0.026207253 0.039733555 0.34597266 4278190335
-0.0055539529 0.032308158 0.30807689 4294967295
-0.0074596251 0.031862635 0.30580315 4294967295
-0.0093652979 0.031417109 0.30352938 4294967295
-0.01127097 0.030971587 0.30125564 4294967295
-0.013176642 0.030526062 0.2989819 4294967295
-0.015082315 0.030080538 0.29670817 4294967295
-0.016987987 0.029635016 0.2944344 4294967295
-0.018893659 0.029189492 0.29216066 4294967295
-0.020799331 0.028743967 0.28988692 4294967295
-0.022705005 0.028298443 0.28761318 4294967295
-0.024610678 0.027852919 0.28533942 4294967295
-0.02651635 0.027407397 0.28306568 4294967295
-0.028422022 0.026961872 0.28079194 4294967295
-0.030327694 0.026516348 0.2785182 4294967295
-0.032233365 0.026070824 0.27624443 4294967295
-0.034139041 0.0256253 0.27397069 4294967295
-0.036044709 0.025179777 0.27169695 4294967295
-0.037950385 0.024734253 0.26942319 4294967295
-0.039856058 0.024288729 0.26714945 4294967295
-0.04176173 0.023843206 0.26487571 4294967295
-0.043667402 0.02339768 0.26260197 4294967295
-0.045573074 0.022952158 0.26032823 4294967295
-0.047478747 0.022506636 0.25805447 4294967295
-0.049384419 0.02206111 0.25578073 4294967295
-0.051290091 0.021615587 0.25350699 4294967295
-0.053195763 0.021170063 0.25123322 4294967295
-0.055101436 0.020724539 0.24895948 4294967295
-0.057007112 0.020279014 0.24668574 4294967295
-0.05891278 0.01983349 0.24441199 4294967295
-0.060818452 0.019387968 0.24213825 4294967295
-0.062724128 0.018942444 0.2398645 4294967295
-0.064629793 0.018496919 0.23759076 4294967295
-0.066535465 0.018051397 0.23531701 4294967295
-0.068441145 0.017605871 0.23304325 4294967295
-0.070346817 0.017160349 0.23076952 4294967295
-0.07225249 0.016714826 0.22849578 4294967295
-0.074158162 0.0162693 0.22622201 4294967295
-0.076063834 0.015823778 0.22394827 4294967295
-0.077969506 0.015378254 0.22167453 4294967295
-0.079875171 0.014932731 0.21940079 4294967295
-0.081780851 0.014487205 0.21712703 4294967295
-0.083686523 0.014041683 0.21485329 4294967295
-0.085592195 0.013596158 0.21257955 4294967295
-0.087497868 0.013150634 0.2103058 4294967295
