# .PCD v0.7 - Point Cloud Data file format
VERSION 0.7
FIELDS x y z rgb
SIZE 4 4 4 4
TYPE F F F U
COUNT 1 1 1 1
WIDTH 1038
HEIGHT 1
VIEWPOINT 0 0 0 1 0 0 0
POINTS 1038
DATA ascii
-0.030497862 0.0092680249 0.32500002 4285540635
-0.02935167 0.0092395078 0.324 4285343002
-0.028299315 0.0092395078 0.324 4284883478
-0.027162869 0.0092109907 0.32300001 4284160525
-0.026113763 0.0092109907 0.32300001 4283898640
-0.02506466 0.0092109907 0.32300001 4283570188
-0.024015557 0.0092109907 0.32300001 4283176460
-0.02296645 0.0092109907 0.32300001 4282914573
-0.021917347 0.0092109907 0.32300001 4282849293
-0.020868244 0.0092109907 0.32300001 4282849807
-0.019819137 0.0092109907 0.32300001 4281867541
-0.053976405 0.011022838 0.347 4287599750
-0.032709397 0.010355749 0.32600001 4285738019
-0.031553462 0.010323984 0.32500002 4285211418
-0.030404022 0.010292217 0.324 4285014039
-0.02935167 0.010292217 0.324 4284685331
-0.028211974 0.010260452 0.32300001 4284095247
-0.027162869 0.010260452 0.32300001 4283701261
-0.026113763 0.010260452 0.32300001 4283241483
-0.02506466 0.010260452 0.32300001 4282848010
-0.024015557 0.010260452 0.32300001 4282520074
-0.02296645 0.010260452 0.32300001 4282454795
-0.021917347 0.010260452 0.32300001 4282324492
-0.020868244 0.010260452 0.32300001 4282259471
-0.019819137 0.010260452 0.32300001 4282392856
-0.018770032 0.010260452 0.32300001 4287992711
-0.053976405 0.012150276 0.347 4286266682
-0.052849352 0.012150276 0.347 4286399035
-0.032609064 0.011379941 0.32500002 4285082144
-0.031553462 0.011379941 0.32500002 4284751896
-0.030404022 0.011344926 0.324 4284555285
-0.02935167 0.011344926 0.324 4284160527
-0.028211974 0.011309911 0.32300001 4283701772
-0.027162869 0.011309911 0.32300001 4283176714
-0.026113763 0.011309911 0.32300001 4282717707
-0.02506466 0.011309911 0.32300001 4282389002
-0.023941206 0.011274897 0.32200003 4282126600
-0.02296645 0.011309911 0.32300001 4282061320
-0.021917347 0.011309911 0.32300001 4282127883
-0.020868244 0.011309911 0.32300001 4281930504
-0.019819137 0.011309911 0.32300001 4282261781
-0.018770032 0.011309911 0.32300001 4288123784
-0.055262264 0.013315978 0.34800002 4288966230
-0.054131959 0.013315978 0.34800002 4286003246
-0.052849352 0.013277714 0.347 4284820003
-0.031456374 0.012397635 0.324 4284425757
-0.030404022 0.012397635 0.324 4284030999
-0.029261079 0.01235937 0.32300001 4283703058
-0.028211974 0.01235937 0.32300001 4283112204
-0.027162869 0.01235937 0.32300001 4282849291
-0.026113763 0.01235937 0.32300001 4282390026
-0.024987061 0.012321107 0.32200003 4282258186
-0.023941206 0.012321107 0.32200003 4282258699
-0.022895347 0.012321107 0.32200003 4282127113
-0.021917347 0.01235937 0.32300001 4282127883
-0.020868244 0.01235937 0.32300001 4282259471
-0.019819137 0.01235937 0.32300001 4281998357
-0.018770032 0.01235937 0.32300001 4287992198
-0.057522871 0.014446666 0.34800002 4286660924
-0.056392573 0.014446666 0.34800002 4286660663
-0.055262264 0.014446666 0.34800002 4286597176
-0.054131959 0.014446666 0.34800002 4284951324
-0.031456374 0.013450343 0.324 4283902495
-0.030404022 0.013450343 0.324 4283573016
-0.029261079 0.01340883 0.32300001 4283441430
-0.028211974 0.01340883 0.32300001 4282850577
-0.027162869 0.01340883 0.32300001 4282455819
-0.026032917 0.013367318 0.32200003 4282455565
-0.024987061 0.013367318 0.32200003 4282390285
-0.023941206 0.013367318 0.32200003 4282324492
-0.022895347 0.013367318 0.32200003 4282324492
-0.021917347 0.01340883 0.32300001 4282390285
-0.020868244 0.01340883 0.32300001 4282324492
-0.019819137 0.01340883 0.32300001 4282261270
-0.018770032 0.01340883 0.32300001 4287530104
-0.05865318 0.015577354 0.34800002 4285089599
-0.057522871 0.015577354 0.34800002 4285870123
-0.056392573 0.015577354 0.34800002 4287844937
-0.055262264 0.015577354 0.34800002 4289027667
-0.054131959 0.015577354 0.34800002 4284884250
-0.031456374 0.014503052 0.324 4283638555
-0.030404022 0.014503052 0.324 4283507737
-0.029261079 0.01445829 0.32300001 4283310358
-0.028211974 0.01445829 0.32300001 4282455819
-0.027162869 0.01445829 0.32300001 4282455819
-0.026032917 0.014413528 0.32200003 4282258953
-0.024987061 0.014413528 0.32200003 4282324746
-0.023941206 0.014413528 0.32200003 4282192906
-0.022895347 0.014413528 0.32200003 4282390287
-0.021917347 0.01445829 0.32300001 4282915346
-0.020868244 0.01445829 0.32300001 4282587151
-0.019819137 0.01445829 0.32300001 4282392084
-0.057522871 0.016708042 0.34800002 4286264365
-0.056392573 0.016708042 0.34800002 4285474592
-0.055262264 0.016708042 0.34800002 4285739041
-0.041598201 0.016227927 0.33800003 4281284142
-0.040620197 0.016275937 0.33900002 4279506710
-0.039519124 0.016275937 0.33900002 4280164893
-0.038418051 0.016275937 0.33900002 4279835928
-0.037316978 0.016275937 0.33900002 4279243021
-0.036215909 0.016275937 0.33900002 4282930252
-0.033664662 0.015603775 0.32500002 4284506454
-0.032508727 0.015555763 0.324 4284296226
-0.031456374 0.015555763 0.324 4284492320
-0.030404022 0.015555763 0.324 4283440917
-0.02935167 0.015555763 0.324 4282718221
-0.028211974 0.015507751 0.32300001 4282193676
-0.027162869 0.015507751 0.32300001 4282523154
-0.026032917 0.015459741 0.32200003 4281932301
-0.024987061 0.015459741 0.32200003 4281866508
-0.023941206 0.015459741 0.32200003 4281931531
-0.022895347 0.015459741 0.32200003 4282391055
-0.021917347 0.015507751 0.32300001 4283309844
-0.057522871 0.01783873 0.34800002 4285476648
-0.056392573 0.01783873 0.34800002 4285278756
-0.055262264 0.01783873 0.34800002 4285147935
-0.04294866 0.017428642 0.34 4280686097
-0.041721269 0.017377382 0.33900002 4283123779
-0.040620197 0.017377382 0.33900002 4279769882
-0.039402552 0.017326122 0.33800003 4279770135
-0.038304724 0.017326122 0.33800003 4279704342
-0.037206899 0.017326122 0.33800003 4279572756
-0.036215909 0.017377382 0.33900002 4279900694
-0.033664662 0.016659733 0.32500002 4281936675
-0.032508727 0.016608471 0.324 4284033052
-0.031456374 0.016608471 0.324 4284557083
-0.030404022 0.016608471 0.324 4283965206
-0.02935167 0.016608471 0.324 4282717705
-0.028299315 0.016608471 0.324 4282261266
-0.027246963 0.016608471 0.324 4281998609
-0.02619461 0.016608471 0.324 4281341964
-0.025142258 0.016608471 0.324 4280882697
-0.024089906 0.016608471 0.324 4281145869
-0.023037553 0.016608471 0.324 4282523154
-0.021985201 0.016608471 0.324 4283835675
-0.059783485 0.018969417 0.34800002 4288717461
-0.05865318 0.018969417 0.34800002 4284563255
-0.057522871 0.018969417 0.34800002 4284754724
-0.04294866 0.018533338 0.34 4280357645
-0.041721269 0.018478828 0.33900002 4282334265
-0.040620197 0.018478828 0.33900002 4282797896
-0.039402552 0.018424319 0.33800003 4279507733
-0.038304724 0.018424319 0.33800003 4279638549
-0.037096821 0.018369809 0.33700001 4279638549
-0.036002245 0.018369809 0.33700001 4279506961
-0.033664662 0.017715691 0.32500002 4280229911
-0.032508727 0.01766118 0.324 4284759857
-0.031456374 0.01766118 0.324 4284163609
-0.030404022 0.01766118 0.324 4284359191
-0.02935167 0.01766118 0.324 4283242253
-0.028299315 0.01766118 0.324 4282195727
-0.027246963 0.01766118 0.324 4281934099
-0.02619461 0.01766118 0.324 4281014796
-0.025142258 0.01766118 0.324 4280620808
-0.024089906 0.01766118 0.324 4280882956
-0.023037553 0.01766118 0.324 4282457363
-0.021985201 0.01766118 0.324 4283769112
-0.057522871 0.020100104 0.34800002 4284758324
-0.056392573 0.020100104 0.34800002 4284297001
-0.055421062 0.020157862 0.34900001 4284165415
-0.04294866 0.019638032 0.34 4284374098
-0.041721269 0.019580273 0.33900002 4279638031
-0.040500373 0.019522516 0.33800003 4279966742
-0.039402552 0.019522516 0.33800003 4280033305
-0.038191397 0.019464755 0.33700001 4279836696
-0.037096821 0.019464755 0.33700001 4279507733
-0.036002245 0.019464755 0.33700001 4279836950
-0.034907665 0.019464755 0.33700001 4281679665
-0.032508727 0.01871389 0.324 4281210378
-0.031456374 0.01871389 0.324 4283770393
-0.030404022 0.01871389 0.324 4284687386
-0.02935167 0.01871389 0.324 4283702288
-0.028299315 0.01871389 0.324 4282326029
-0.027246963 0.01871389 0.324 4282130193
-0.02619461 0.01871389 0.324 4280620554
-0.025142258 0.01871389 0.324 4280227081
-0.024089906 0.01871389 0.324 4280555274
-0.023037553 0.01871389 0.324 4282327061
-0.021985201 0.01871389 0.324 4283637524
-0.057522871 0.021230791 0.34800002 4283511344
-0.056392573 0.021230791 0.34800002 4284299569
-0.055421062 0.021291798 0.34900001 4284362019
-0.04294866 0.020742726 0.34 4282929217
-0.041721269 0.020681718 0.33900002 4283127109
-0.040500373 0.020620711 0.33800003 4285429866
-0.039285973 0.020559702 0.33700001 4289443241
-0.038191397 0.020559702 0.33700001 4281943357
-0.037096821 0.020559702 0.33700001 4282535492
-0.034613431 0.019766597 0.324 4279574037
-0.033561077 0.019766597 0.324 4281021737
-0.032408394 0.01970559 0.32300001 4279832585
-0.031456374 0.019766597 0.324 4282063891
-0.030404022 0.019766597 0.324 4284490523
-0.02935167 0.019766597 0.324 4283504141
-0.028299315 0.019766597 0.324 4282456848
-0.027246963 0.019766597 0.324 4282063887
-0.02619461 0.019766597 0.324 4280818698
-0.025142258 0.019766597 0.324 4281017876
-0.024089906 0.019766597 0.324 4280096261
-0.023037553 0.019766597 0.324 4281670927
-0.021985201 0.019766597 0.324 4283637524
-0.056554615 0.022425735 0.34900001 4283451713
-0.055421062 0.022425735 0.34900001 4284625191
-0.042822342 0.021783166 0.33900002 4282600252
-0.041598201 0.02171891 0.33800003 4282139701
-0.040380549 0.021654651 0.33700001 4282006577
-0.039285973 0.021654651 0.33700001 4293980898
-0.03807807 0.021590395 0.33600003 4281545767
-0.037096821 0.021654651 0.33700001 4280624924
-0.034613431 0.020819308 0.324 4281416495
-0.033457495 0.020755051 0.32300001 4280429346
-0.032408394 0.020755051 0.32300001 4281611564
-0.0312622 0.020690795 0.32200003 4281081366
-0.030216344 0.020690795 0.32200003 4284228378
-0.029170489 0.020690795 0.32200003 4283767827
-0.028299315 0.020819308 0.324 4282193930
-0.027246963 0.020819308 0.324 4282261779
-0.02619461 0.020819308 0.324 4281212943
-0.025142258 0.020819308 0.324 4280359433
-0.024089906 0.020819308 0.324 4280294153
-0.023037553 0.020819308 0.324 4280816388
-0.021985201 0.020819308 0.324 4284097816
-0.044758853 0.022749599 0.33700001 4282852635
-0.042696025 0.022817105 0.33800003 4281677857
-0.041475128 0.022749599 0.33700001 4285032519
-0.040260728 0.022682093 0.33600003 4285821517
-0.039169401 0.022682093 0.33600003 4283386672
-0.037964739 0.022614585 0.33500001 4281085470
-0.036766581 0.022547081 0.33400002 4281481001
-0.034613431 0.021872018 0.324 4282403390
-0.033457495 0.021804512 0.32300001 4279771670
-0.032408394 0.021804512 0.32300001 4282600765
-0.0312622 0.021737006 0.32200003 4280031760
-0.030216344 0.021737006 0.32200003 4283311128
-0.029170489 0.021737006 0.32200003 4283637778
-0.028299315 0.021872018 0.324 4282522125
-0.027246963 0.021872018 0.324 4282195475
-0.02619461 0.021872018 0.324 4281541140
-0.025142258 0.021872018 0.324 4280622605
-0.023792502 0.021601994 0.32000002 4280096520
-0.02275314 0.021601994 0.32000002 4280160257
-0.02171378 0.021601994 0.32000002 4283768851
-0.020674421 0.021601994 0.32000002 4283504909
-0.019635059 0.021601994 0.32000002 4282586381
-0.055421062 0.024693608 0.34900001 4284364849
-0.050886851 0.024693608 0.34900001 4281996560
-0.049753297 0.024693608 0.34900001 4289108366
-0.048619747 0.024693608 0.34900001 4287207558
-0.047486193 0.024693608 0.34900001 4287139971
-0.044758853 0.023844546 0.33700001 4281148697
-0.04366428 0.023844546 0.33700001 4282071334
-0.042569701 0.023844546 0.33700001 4281611031
-0.041352056 0.023773791 0.33600003 4284768316
-0.040260728 0.023773791 0.33600003 4283385118
-0.039052822 0.023703035 0.33500001 4281807377
-0.037964739 0.023703035 0.33500001 4282664757
-0.036766581 0.023632281 0.33400002 4281810220
-0.035574917 0.023561524 0.333 4280955942
-0.034596916 0.023632281 0.33400002 4278916107
-0.032408394 0.022853971 0.32300001 4279573008
-0.0312622 0.022783216 0.32200003 4279309062
-0.030216344 0.022783216 0.32200003 4282391822
-0.029170489 0.022783216 0.32200003 4283901720
-0.028037285 0.02271246 0.32100001 4282587405
-0.026994677 0.02271246 0.32100001 4282457361
-0.025952067 0.02271246 0.32100001 4281737490
-0.025142258 0.022924725 0.324 4280621321
-0.023792502 0.022641705 0.32000002 4279964423
-0.02275314 0.022641705 0.32000002 4280160003
-0.02171378 0.022641705 0.32000002 4283964946
-0.020674421 0.022641705 0.32000002 4283964433
-0.019635059 0.022641705 0.32000002 4282849807
-0.055421062 0.025827546 0.34900001 4284036143
-0.051032662 0.02590155 0.35000002 4281536523
-0.04989586 0.02590155 0.35000002 4288978577
-0.048759062 0.02590155 0.35000002 4287077256
-0.04762226 0.02590155 0.35000002 4287011465
-0.044626039 0.024865489 0.33600003 4284969313
-0.04366428 0.024939492 0.33700001 4282007597
-0.042443383 0.024865489 0.33600003 4282006820
-0.041352056 0.024865489 0.33600003 4282203681
-0.040140901 0.024791483 0.33500001 4281740304
-0.039052822 0.024791483 0.33500001 4281608464
-0.037964739 0.024791483 0.33500001 4284441938
-0.036766581 0.02471748 0.33400002 4280758048
-0.035681751 0.02471748 0.33400002 4280758052
-0.034596916 0.02471748 0.33400002 4279902489
-0.032408394 0.023903431 0.32300001 4283324490
-0.0312622 0.023829427 0.32200003 4281152036
-0.030216344 0.023829427 0.32200003 4282459158
-0.029170489 0.023829427 0.32200003 4283573014
-0.02812463 0.023829427 0.32200003 4282521871
-0.026994677 0.023755422 0.32100001 4282194705
-0.025952067 0.023755422 0.32100001 4281737492
-0.025142258 0.023977434 0.324 4280819470
-0.024089906 0.023977434 0.324 4279964421
-0.02275314 0.023681419 0.32000002 4279963137
-0.02171378 0.023681419 0.32000002 4284294425
-0.020674421 0.023681419 0.32000002 4284096017
-0.019635059 0.023681419 0.32000002 4282915084
-0.018595697 0.023681419 0.32000002 4282587664
-0.055421062 0.026961481 0.34900001 4283969837
-0.054443061 0.027038736 0.35000002 4284361767
-0.050038416 0.027115989 0.35100001 4289044370
-0.048898373 0.027115989 0.35100001 4286945670
-0.047758322 0.027115989 0.35100001 4287011465
-0.044626039 0.025957188 0.33600003 4285760114
-0.043534715 0.025957188 0.33600003 4282272054
-0.042443383 0.025957188 0.33600003 4281677857
-0.041352056 0.025957188 0.33600003 4281545499
-0.040140901 0.025879933 0.33500001 4281477396
-0.039052822 0.025879933 0.33500001 4280885773
-0.037964739 0.025879933 0.33500001 4282402875
-0.036766581 0.025802679 0.33400002 4280034327
-0.035681751 0.025802679 0.33400002 4280427545
-0.034596916 0.025802679 0.33400002 4280230168
-0.032408394 0.02495289 0.32300001 4280034075
-0.0312622 0.024875637 0.32200003 4279244041
-0.030216344 0.024875637 0.32200003 4282130963
-0.029170489 0.024875637 0.32200003 4283967772
-0.02812463 0.024875637 0.32200003 4282521873
-0.026994677 0.024798384 0.32100001 4282260498
-0.025952067 0.024798384 0.32100001 4281606420
-0.024909461 0.024798384 0.32100001 4280556298
-0.023866853 0.024798384 0.32100001 4280227593
-0.02275314 0.024721131 0.32000002 4279962626
-0.02171378 0.024721131 0.32000002 4283899151
-0.020674421 0.024721131 0.32000002 4284753177
-0.019635059 0.024721131 0.32000002 4283308559
-0.018595697 0.024721131 0.32000002 4282718991
-0.017556338 0.024721131 0.32000002 4281933584
-0.055421062 0.028095419 0.34900001 4284365362
-0.050323538 0.028417429 0.35300002 4289042573
-0.049176995 0.028417429 0.35300002 4287472016
-0.048030451 0.028417429 0.35300002 4287208846
-0.044626039 0.027048886 0.33600003 4287339662
-0.043534715 0.027048886 0.33600003 4281482286
-0.042443383 0.027048886 0.33600003 4282138406
-0.041352056 0.027048886 0.33600003 4282861865
-0.040140901 0.026968382 0.33500001 4284046137
-0.039052822 0.026968382 0.33500001 4280888850
-0.037964739 0.026968382 0.33500001 4282863678
-0.036766581 0.026887881 0.33400002 4279836178
-0.035681751 0.026887881 0.33400002 4281876529
-0.033561077 0.026082853 0.324 4280230934
-0.032408394 0.026002351 0.32300001 4279638547
-0.031359285 0.026002351 0.32300001 4279177480
-0.030216344 0.02592185 0.32200003 4282065170
-0.029170489 0.02592185 0.32200003 4283770395
-0.02812463 0.02592185 0.32200003 4282717453
-0.026994677 0.025841344 0.32100001 4282522643
-0.025952067 0.025841344 0.32100001 4281933588
-0.024909461 0.025841344 0.32100001 4281408527
-0.023866853 0.025841344 0.32100001 4280947206
-0.022824243 0.025841344 0.32100001 4282718739
-0.02171378 0.025760842 0.32000002 4285016349
-0.020674421 0.025760842 0.32000002 4285213215
-0.019635059 0.025760842 0.32000002 4283702034
-0.018595697 0.025760842 0.32000002 4282981393
-0.017556338 0.025760842 0.32000002 4282130447
-0.055579863 0.029313108 0.35000002 4283906608
-0.054443061 0.029313108 0.35000002 4284493351
-0.053458568 0.029396858 0.35100001 4284427042
-0.049176995 0.029564362 0.35300002 4287077258
-0.048030451 0.029564362 0.35300002 4287340430
-0.044626039 0.028140584 0.33600003 4287998108
-0.04366428 0.028224334 0.33700001 4282864972
-0.042443383 0.028140584 0.33600003 4282995262
-0.041352056 0.028140584 0.33600003 4281151772
-0.040260728 0.028140584 0.33600003 4280888339
-0.039052822 0.02805683 0.33500001 4282073642
-0.037964739 0.02805683 0.33500001 4280099348
-0.03687666 0.02805683 0.33500001 4281085473
-0.035788581 0.02805683 0.33500001 4281285159
-0.034700498 0.02805683 0.33500001 4278915844
-0.033612419 0.02805683 0.33500001 4279703570
-0.031359285 0.02705181 0.32300001 4278978820
-0.030216344 0.02696806 0.32200003 4282327572
-0.029170489 0.02696806 0.32200003 4283768597
-0.02812463 0.02696806 0.32200003 4283964946
-0.026994677 0.026884306 0.32100001 4285017634
-0.025952067 0.026884306 0.32100001 4285082660
-0.024909461 0.026884306 0.32100001 4285148453
-0.023866853 0.026884306 0.32100001 4285016097
-0.022824243 0.026884306 0.32100001 4285279010
-0.02171378 0.026800556 0.32000002 4286924346
-0.020674421 0.026800556 0.32000002 4286594870
-0.019635059 0.026800556 0.32000002 4284161558
-0.018595697 0.026800556 0.32000002 4283375122
-0.017556338 0.026800556 0.32000002 4282392336
-0.016516978 0.026800556 0.32000002 4281803281
-0.053458568 0.030537292 0.35100001 4284492322
-0.049176995 0.030711295 0.35300002 4287076740
-0.048030451 0.030711295 0.35300002 4287274635
-0.04366428 0.029319281 0.33700001 4280496938
-0.042569701 0.029319281 0.33700001 4282667332
-0.041475128 0.029319281 0.33700001 4282600765
-0.040260728 0.029232282 0.33600003 4281482023
-0.039169401 0.029232282 0.33600003 4285496163
-0.037964739 0.02914528 0.33500001 4280822044
-0.03687666 0.02914528 0.33500001 4281940782
-0.035788581 0.02914528 0.33500001 4282666045
-0.03387183 0.028449275 0.32700002 4279770385
-0.032709397 0.028362272 0.32600001 4279769360
-0.031359285 0.028101269 0.32300001 4280755483
-0.030216344 0.028014271 0.32200003 4283443227
-0.029170489 0.028014271 0.32200003 4285082914
-0.02812463 0.028014271 0.32200003 4286989878
-0.026994677 0.027927268 0.32100001 4286198822
-0.025952067 0.027927268 0.32100001 4285803812
-0.024909461 0.027927268 0.32100001 4285869348
-0.023866853 0.027927268 0.32100001 4285407512
-0.022824243 0.027927268 0.32100001 4285407512
-0.021781635 0.027927268 0.32100001 4285210133
-0.020674421 0.027840268 0.32000002 4285144853
-0.019635059 0.027840268 0.32000002 4284292115
-0.018595697 0.027840268 0.32000002 4283439886
-0.017556338 0.027840268 0.32000002 4282720274
-0.016516978 0.027840268 0.32000002 4282195986
-0.053458568 0.03167773 0.35100001 4284754724
-0.052318517 0.03167773 0.35100001 4284556831
-0.051324278 0.031767983 0.35200003 4284491038
-0.048030451 0.031858232 0.35300002 4287011465
-0.046883903 0.031858232 0.35300002 4286815371
-0.04379385 0.030504482 0.33800003 4282143046
-0.042696025 0.030504482 0.33800003 4280955944
-0.041475128 0.030414231 0.33700001 4282797631
-0.040380549 0.030414231 0.33700001 4281482288
-0.039169401 0.030323982 0.33600003 4283061570
-0.03807807 0.030323982 0.33600003 4282929471
-0.03687666 0.030233731 0.33500001 4282995264
-0.035788581 0.030233731 0.33500001 4279244041
-0.033975415 0.029601982 0.32800001 4279638801
-0.032809734 0.029511733 0.32700002 4279703570
-0.031359285 0.029150732 0.32300001 4282531379
-0.030216344 0.029060483 0.32200003 4283375122
-0.029170489 0.029060483 0.32200003 4285672994
-0.02812463 0.029060483 0.32200003 4286197280
-0.026994677 0.028970232 0.32100001 4287974976
-0.025952067 0.028970232 0.32100001 4286329897
-0.024909461 0.028970232 0.32100001 4285736990
-0.023866853 0.028970232 0.32100001 4285341719
-0.022824243 0.028970232 0.32100001 4285210133
-0.021781635 0.028970232 0.32100001 4285013267
-0.020674421 0.028879983 0.32000002 4284685072
-0.019635059 0.028879983 0.32000002 4284094734
-0.018595697 0.028879983 0.32000002 4283898640
-0.017556338 0.028879983 0.32000002 4283178770
-0.016516978 0.028879983 0.32000002 4282523922
-0.052318517 0.032818165 0.35100001 4284622111
-0.051178467 0.032818165 0.35100001 4284622111
-0.047894388 0.032911666 0.35200003 4287077258
-0.046883903 0.033005163 0.35300002 4287143564
-0.043923415 0.031696178 0.33900002 4287933082
-0.042696025 0.031602681 0.33800003 4282206781
-0.041598201 0.031602681 0.33800003 4282863937
-0.040380549 0.03150918 0.33700001 4279640084
-0.039285973 0.03150918 0.33700001 4279771670
-0.03807807 0.031415682 0.33600003 4279837979
-0.036986742 0.031415682 0.33600003 4279047434
-0.035788581 0.031322181 0.33500001 4279309836
-0.033975415 0.030667687 0.32800001 4279704340
-0.032809734 0.030574189 0.32700002 4279045637
-0.0312622 0.030106694 0.32200003 4281477921
-0.030216344 0.030106694 0.32200003 4283702288
-0.029170489 0.030106694 0.32200003 4285738017
-0.028037285 0.030013194 0.32100001 4286066209
-0.026994677 0.030013194 0.32100001 4287844935
-0.025952067 0.030013194 0.32100001 4285670938
-0.024909461 0.030013194 0.32100001 4285406996
-0.023866853 0.030013194 0.32100001 4285144594
-0.022824243 0.030013194 0.32100001 4284750865
-0.021781635 0.030013194 0.32100001 4284553745
-0.020739028 0.030013194 0.32100001 4284291343
-0.019696418 0.030013194 0.32100001 4283832077
-0.018653808 0.030013194 0.32100001 4283701774
-0.017611202 0.030013194 0.32100001 4282915598
-0.016568592 0.030013194 0.32100001 4281996810
-0.054287508 0.033765104 0.34900001 4284366392
-0.052169465 0.033861853 0.35000002 4284885281
-0.051178467 0.033958599 0.35100001 4284883998
-0.04989586 0.033861853 0.35000002 4285016867
-0.048759062 0.033861853 0.35000002 4287727481
-0.047894388 0.034055348 0.35200003 4286944900
-0.04542293 0.033087865 0.34200001 4287208844
-0.044052981 0.032894369 0.34 4287274637
-0.042822342 0.032797623 0.33900002 4282338880
-0.041598201 0.032700874 0.33800003 4281350702
-0.040500373 0.032700874 0.33800003 4281086763
-0.039285973 0.032604124 0.33700001 4279771416
-0.03807807 0.032507379 0.33600003 4279376145
-0.036986742 0.032507379 0.33600003 4281678130
-0.035788581 0.032410629 0.33500001 4281876279
-0.034079 0.031830143 0.32900003 4279638547
-0.033010408 0.031830143 0.32900003 4280491798
-0.0312622 0.031152904 0.32200003 4281606681
-0.030216344 0.031152904 0.32200003 4285542693
-0.029170489 0.031152904 0.32200003 4285803553
-0.028037285 0.031056155 0.32100001 4286328614
-0.026994677 0.031056155 0.32100001 4285670684
-0.025952067 0.031056155 0.32100001 4285539098
-0.024909461 0.031056155 0.32100001 4285210646
-0.023866853 0.031056155 0.32100001 4284619538
-0.022824243 0.031056155 0.32100001 4284291345
-0.021781635 0.031056155 0.32100001 4283964179
-0.020739028 0.031056155 0.32100001 4283569934
-0.019696418 0.031056155 0.32100001 4283176460
-0.018653808 0.031056155 0.32100001 4283176462
-0.017611202 0.031056155 0.32100001 4282849807
-0.016568592 0.031056155 0.32100001 4282128396
-0.015525984 0.031056155 0.32100001 4288191371
-0.054287508 0.034899037 0.34900001 4284169015
-0.052020404 0.034899037 0.34900001 4285279010
-0.050886851 0.034899037 0.34900001 4285146654
-0.049753297 0.034899037 0.34900001 4285212447
-0.04848044 0.034799043 0.34800002 4283179801
-0.046941943 0.034499053 0.34500003 4288256905
-0.045555748 0.034299057 0.34300002 4287011465
-0.04418255 0.034099061 0.34100002 4287274639
-0.04294866 0.033999063 0.34 4288129178
-0.041721269 0.033899069 0.33900002 4280167457
-0.040500373 0.033799071 0.33800003 4283587159
-0.039402552 0.033799071 0.33800003 4279902238
-0.038191397 0.033699073 0.33700001 4284114524
-0.036986742 0.033599075 0.33600003 4279442451
-0.035788581 0.033499077 0.33500001 4281876792
-0.034700498 0.033499077 0.33500001 4279967512
-0.032308057 0.032199115 0.32200003 4281015573
-0.0312622 0.032199115 0.32200003 4281997074
-0.030216344 0.032199115 0.32200003 4285279008
-0.029170489 0.032199115 0.32200003 4285803553
-0.028037285 0.032099117 0.32100001 4285605145
-0.026994677 0.032099117 0.32100001 4285539352
-0.025952067 0.032099117 0.32100001 4285211418
-0.024909461 0.032099117 0.32100001 4284686103
-0.023866853 0.032099117 0.32100001 4283962896
-0.022824243 0.032099117 0.32100001 4283701007
-0.021781635 0.032099117 0.32100001 4283176208
-0.020739028 0.032099117 0.32100001 4282781963
-0.019696418 0.032099117 0.32100001 4282651660
-0.018653808 0.032099117 0.32100001 4282454795
-0.017611202 0.032099117 0.32100001 4282390287
-0.016568592 0.032099117 0.32100001 4282062607
-0.015525984 0.032099117 0.32100001 4287929998
-0.055262264 0.035929732 0.34800002 4285483076
-0.054131959 0.035929732 0.34800002 4285740340
-0.053001657 0.035929732 0.34800002 4286330674
-0.052020404 0.036032975 0.34900001 4285145625
-0.050741047 0.035929732 0.34800002 4285736992
-0.049610738 0.035929732 0.34800002 4285671199
-0.048341125 0.035826482 0.347 4284818718
-0.046941943 0.035619993 0.34500003 4289368195
-0.045555748 0.0354135 0.34300002 4287273351
-0.04418255 0.035207007 0.34100002 4287142281
-0.04294866 0.035103757 0.34 4287340430
-0.041721269 0.035000514 0.33900002 4287997590
-0.040620197 0.035000514 0.33900002 4281679932
-0.039402552 0.034897268 0.33800003 4280428584
-0.038191397 0.034794021 0.33700001 4279968284
-0.037096821 0.034794021 0.33700001 4280361497
-0.036002245 0.034794021 0.33700001 4280556823
-0.034907665 0.034794021 0.33700001 4281409820
-0.032408394 0.033348572 0.32300001 4282391832
-0.031359285 0.033348572 0.32300001 4283178520
-0.030216344 0.033245325 0.32200003 4285213217
-0.029170489 0.033245325 0.32200003 4285343261
-0.02812463 0.033245325 0.32200003 4285079062
-0.026994677 0.033142079 0.32100001 4285079832
-0.025952067 0.033142079 0.32100001 4284555285
-0.024909461 0.033142079 0.32100001 4283964433
-0.023866853 0.033142079 0.32100001 4283438864
-0.022824243 0.033142079 0.32100001 4283045389
-0.021781635 0.033142079 0.32100001 4282651660
-0.020739028 0.033142079 0.32100001 4282323209
-0.019696418 0.033142079 0.32100001 4282192908
-0.018653808 0.033142079 0.32100001 4282127885
-0.017611202 0.033142079 0.32100001 4282062607
-0.016568592 0.033142079 0.32100001 4282063637
-0.015525984 0.033142079 0.32100001 4287733902
-0.055103462 0.036953922 0.347 4286267709
-0.053976405 0.036953922 0.347 4286464315
-0.053001657 0.037060417 0.34800002 4289950313
-0.051871352 0.037060417 0.34800002 4286000936
-0.050741047 0.037060417 0.34800002 4286131748
-0.049468178 0.036953922 0.347 4285934369
-0.048201814 0.036847427 0.34600002 4285802272
-0.046805877 0.036634434 0.34400001 4284950304
-0.045555748 0.036527943 0.34300002 4287469701
-0.04418255 0.036314949 0.34100002 4287339144
-0.04294866 0.036208451 0.34 4287339660
-0.041844342 0.036208451 0.34 4287537039
-0.040620197 0.03610196 0.33900002 4287208592
-0.039402552 0.035995465 0.33800003 4287274900
-0.038191397 0.035888966 0.33700001 4281544488
-0.037096821 0.035888966 0.33700001 4282263584
-0.035468087 0.035356492 0.33200002 4283837222
-0.034907665 0.035888966 0.33700001 4284493351
-0.032408394 0.03439803 0.32300001 4284427042
-0.031359285 0.03439803 0.32300001 4284492322
-0.030310182 0.03439803 0.32300001 4284819742
-0.029170489 0.034291536 0.32200003 4285279523
-0.02812463 0.034291536 0.32200003 4284621591
-0.027078776 0.034291536 0.32200003 4284621593
-0.025952067 0.034185041 0.32100001 4283965460
-0.024909461 0.034185041 0.32100001 4283637265
-0.023866853 0.034185041 0.32100001 4283177745
-0.022824243 0.034185041 0.32100001 4282586381
-0.021781635 0.034185041 0.32100001 4282324492
-0.020739028 0.034185041 0.32100001 4282324492
-0.019696418 0.034185041 0.32100001 4282062090
-0.018653808 0.034185041 0.32100001 4282193676
-0.017611202 0.034185041 0.32100001 4282326291
-0.016568592 0.034185041 0.32100001 4282064152
-0.015525984 0.034185041 0.32100001 4287734418
-0.056230523 0.038081359 0.347 4284633927
-0.055103462 0.038081359 0.347 4289557361
-0.053976405 0.038081359 0.347 4286332729
-0.052849352 0.038081359 0.347 4286265135
-0.051722292 0.038081359 0.347 4286461744
-0.050595235 0.038081359 0.347 4286198572
-0.049325619 0.037971616 0.34600002 4285935141
-0.048062503 0.037861872 0.34500003 4285868063
-0.046805877 0.037752125 0.34400001 4285934371
-0.045555748 0.037642382 0.34300002 4287265131
-0.04418255 0.037422892 0.34100002 4287469701
-0.04294866 0.037313148 0.34 4287208074
-0.041844342 0.037313148 0.34 4287405453
-0.040620197 0.037203405 0.33900002 4287274637
-0.039519124 0.037203405 0.33900002 4287011465
-0.038418051 0.037203405 0.33900002 4283317297
-0.03654642 0.036435191 0.33200002 4284822831
-0.035468087 0.036435191 0.33200002 4285345834
-0.034907665 0.036983915 0.33700001 4285279523
-0.032508727 0.035557233 0.324 4285016351
-0.031456374 0.035557233 0.324 4284752925
-0.030310182 0.035447489 0.32300001 4284490777
-0.029261079 0.035447489 0.32300001 4284425497
-0.028211974 0.035447489 0.32300001 4284229402
-0.027078776 0.035337746 0.32200003 4284163868
-0.026032917 0.035337746 0.32200003 4283704087
-0.024987061 0.035337746 0.32200003 4283441430
-0.023941206 0.035337746 0.32200003 4282718739
-0.022824243 0.035228003 0.32100001 4282391057
-0.021781635 0.035228003 0.32100001 4282522641
-0.020739028 0.035228003 0.32100001 4282456848
-0.019696418 0.035228003 0.32100001 4282456848
-0.018653808 0.035228003 0.32100001 4282523154
-0.017611202 0.035228003 0.32100001 4282195736
-0.016568592 0.035228003 0.32100001 4282000158
-0.015525984 0.035228003 0.32100001 4287274385
-0.052697051 0.039095804 0.34600002 4285935398
-0.051573239 0.039095804 0.34600002 4286724916
-0.050449431 0.039095804 0.34600002 4286002479
-0.049325619 0.039095804 0.34600002 4285935916
-0.048062503 0.038982812 0.34500003 4286131748
-0.046805877 0.038869817 0.34400001 4286131748
-0.04542293 0.03864383 0.34200001 4285213217
-0.04418255 0.038530838 0.34100002 4289893254
-0.04294866 0.038417842 0.34 4287470730
-0.041844342 0.038417842 0.34 4287405453
-0.040620197 0.03830485 0.33900002 4287340430
-0.039519124 0.03830485 0.33900002 4287208844
-0.038418051 0.03830485 0.33900002 4283842098
-0.037316978 0.03830485 0.33900002 4285018666
-0.034933928 0.036948927 0.32700002 4285475619
-0.03387183 0.036948927 0.32700002 4285738021
-0.032609064 0.036722939 0.32500002 4286001193
-0.031553462 0.036722939 0.32500002 4284687386
-0.030404022 0.036609944 0.324 4283704087
-0.02935167 0.036609944 0.324 4283901466
-0.028211974 0.036496952 0.32300001 4284297253
-0.027162869 0.036496952 0.32300001 4283969058
-0.026113763 0.036496952 0.32300001 4283639839
-0.024987061 0.036383957 0.32200003 4283179290
-0.023941206 0.036383957 0.32200003 4282850840
-0.022895347 0.036383957 0.32200003 4282588436
-0.021849493 0.036383957 0.32200003 4282720022
-0.020803636 0.036383957 0.32200003 4282654229
-0.019696418 0.036270961 0.32100001 4282851608
-0.018653808 0.036270961 0.32100001 4282786328
-0.017611202 0.036270961 0.32100001 4283249196
-0.016568592 0.036270961 0.32100001 4287069813
-0.015525984 0.036270961 0.32100001 4287340178
-0.053665306 0.040103752 0.34500003 4284819488
-0.05254475 0.040103752 0.34500003 4285016097
-0.051424187 0.040103752 0.34500003 4285344033
-0.050303623 0.040103752 0.34500003 4288569171
-0.049183063 0.040103752 0.34500003 4288767833
-0.047923192 0.039987508 0.34400001 4286461737
-0.046669815 0.039871268 0.34300002 4286395174
-0.04542293 0.03975502 0.34200001 4286591786
-0.04418255 0.03963878 0.34100002 4286065442
-0.04294866 0.039522536 0.34 4288977032
-0.041844342 0.039522536 0.34 4287339398
-0.040620197 0.039406296 0.33900002 4287208844
-0.039519124 0.039406296 0.33900002 4287340430
-0.038418051 0.039406296 0.33900002 4283840813
-0.037316978 0.039406296 0.33900002 4285412138
-0.035040759 0.038127623 0.32800001 4285870375
-0.03387183 0.038011383 0.32700002 4285738789
-0.032709397 0.037895139 0.32600001 4285015584
-0.031650547 0.037895139 0.32600001 4284031001
-0.030497862 0.037778895 0.32500002 4283180573
-0.029442262 0.037778895 0.32500002 4283775538
-0.028299315 0.037662651 0.324 4285094739
-0.027246963 0.037662651 0.324 4283447088
-0.02619461 0.037662651 0.324 4284300083
-0.02506466 0.037546411 0.32300001 4283707946
-0.024015557 0.037546411 0.32300001 4283115295
-0.02296645 0.037546411 0.32300001 4282786330
-0.021849493 0.037430171 0.32200003 4282654742
-0.020803636 0.037430171 0.32200003 4282983707
-0.019757777 0.037430171 0.32200003 4282983707
-0.018653808 0.037313923 0.32100001 4283181600
-0.017611202 0.037313923 0.32100001 4282926650
-0.016568592 0.037313923 0.32100001 4287208074
-0.015525984 0.037313923 0.32100001 4287209105
-0.053665306 0.041224692 0.34500003 4284557861
-0.05254475 0.041224692 0.34500003 4284425759
-0.051424187 0.041224692 0.34500003 4284622624
-0.050303623 0.041224692 0.34500003 4285343259
-0.0490405 0.0411052 0.34400001 4288239175
-0.047923192 0.0411052 0.34400001 4286592553
-0.046669815 0.040985707 0.34300002 4286460454
-0.04542293 0.040866215 0.34200001 4286722086
-0.04418255 0.040746726 0.34100002 4286458914
-0.04294866 0.04062723 0.34 4285803812
-0.041721269 0.040507741 0.33900002 4287125838
-0.038418051 0.040507741 0.33900002 4284953386
-0.037316978 0.040507741 0.33900002 4285872430
-0.035040759 0.039193328 0.32800001 4285936168
-0.033975415 0.039193328 0.32800001 4285804582
-0.032809734 0.03907384 0.32700002 4284229148
-0.031747639 0.03907384 0.32700002 4283639071
-0.0305917 0.038954344 0.32600001 4283384121
-0.029532854 0.038954344 0.32600001 4287863694
-0.02838666 0.038834855 0.32500002 4287076490
-0.027331062 0.038834855 0.32500002 4288062869
-0.02627546 0.038834855 0.32500002 4285689960
-0.025142258 0.038715359 0.324 4283315248
-0.024089906 0.038715359 0.324 4284300081
-0.02296645 0.03859587 0.32300001 4283773735
-0.021917347 0.03859587 0.32300001 4283642919
-0.020868244 0.03859587 0.32300001 4283642919
-0.019757777 0.038476381 0.32200003 4282854949
-0.018711921 0.038476381 0.32200003 4285820000
-0.017611202 0.038356885 0.32100001 4287011467
-0.016568592 0.038356885 0.32100001 4287011980
-0.015525984 0.038356885 0.32100001 4287209359
-0.051275127 0.042222891 0.34400001 4284099108
-0.050157815 0.042222891 0.34400001 4284163868
-0.0490405 0.042222891 0.34400001 4285738789
-0.047783881 0.04210015 0.34300002 4286657831
-0.046533749 0.041977406 0.34200001 4287447347
-0.04542293 0.041977406 0.34200001 4286590752
-0.04418255 0.041854668 0.34100002 4286590495
-0.04294866 0.041731924 0.34 4286524450
-0.041721269 0.041609187 0.33900002 4286524453
-0.040380549 0.041363701 0.33700001 4285279271
-0.039169401 0.041240964 0.33600003 4286533188
-0.037851412 0.040995482 0.33400002 4286928198
-0.03654642 0.040750001 0.33200002 4285411877
-0.035254423 0.040504515 0.33000001 4285936938
-0.034079 0.040381778 0.32900003 4285147935
-0.032910071 0.040259033 0.32800001 4283376669
-0.031844724 0.040259033 0.32800001 4283642417
-0.030685542 0.040136296 0.32700002 4286942853
-0.029623447 0.040136296 0.32700002 4286879627
-0.028474003 0.040013552 0.32600001 4287011726
-0.027415155 0.040013552 0.32600001 4287011726
-0.026356306 0.040013552 0.32600001 4288585877
-0.02521986 0.039890811 0.32500002 4282065435
-0.024164259 0.039890811 0.32500002 4283246881
-0.023037553 0.03976807 0.324 4283444258
-0.021985201 0.03976807 0.324 4283445544
-0.020868244 0.039645329 0.32300001 4284566085
-0.019757777 0.039522592 0.32200003 4286811267
-0.018711921 0.039522592 0.32200003 4287340180
-0.017666066 0.039522592 0.32200003 4287143312
-0.016620209 0.039522592 0.32200003 4287209359
-0.015574352 0.039522592 0.32200003 4287275152
-0.048897941 0.043214593 0.34300002 4283836448
-0.047783881 0.043214593 0.34300002 4286067752
-0.046533749 0.043088604 0.34200001 4286658344
-0.045290116 0.042962614 0.34100002 4286854440
-0.044052981 0.042836621 0.34 4286393889
-0.042822342 0.042710632 0.33900002 4286524707
-0.041598201 0.042584646 0.33800003 4286590500
-0.040380549 0.042458653 0.33700001 4285606176
-0.039052822 0.042206671 0.33500001 4287780425
-0.037738085 0.041954692 0.333 4287782472
-0.03654642 0.041828703 0.33200002 4285476637
-0.035254423 0.041576721 0.33000001 4285083425
-0.034182582 0.041576721 0.33000001 4284098077
-0.033010408 0.041450735 0.32900003 4282263846
-0.031941812 0.041450735 0.32900003 4287269765
-0.03077938 0.041324742 0.32800001 4287142029
-0.029714037 0.041324742 0.32800001 4287077006
-0.028561348 0.041198753 0.32700002 4287143312
-0.027499253 0.041198753 0.32700002 4287209105
-0.026437154 0.041198753 0.32700002 4283776053
-0.025297457 0.04107276 0.32600001 4283508770
-0.024238611 0.04107276 0.32600001 4283378467
-0.023108657 0.040946774 0.32500002 4283115809
-0.021985201 0.040820781 0.324 4283778366
-0.020932849 0.040820781 0.324 4287598984
-0.019880496 0.040820781 0.324 4287143566
-0.018828142 0.040820781 0.324 4287011726
-0.017775791 0.040820781 0.324 4287011980
-0.016723439 0.040820781 0.324 4287209359
-0.015671086 0.040820781 0.324 4287275152
-0.046397686 0.044070557 0.34100002 4285413937
-0.045157298 0.043941315 0.34 4286199340
-0.043923415 0.043812077 0.33900002 4286395690
-0.042696025 0.04368284 0.33800003 4286723626
-0.041475128 0.043553598 0.33700001 4287775544
-0.040260728 0.04342436 0.33600003 4289884770
-0.038936246 0.043165881 0.33400002 4286198822
-0.037738085 0.04303664 0.333 4286001443
-0.03654642 0.042907402 0.33200002 4285082140
-0.035361256 0.042778164 0.33100003 4283505938
-0.034182582 0.042648923 0.33000001 4285419080
-0.033110742 0.042648923 0.33000001 4287470734
-0.031941812 0.042519685 0.32900003 4287077006
-0.03087322 0.042519685 0.32900003 4287340178
-0.02980463 0.042519685 0.32900003 4287405971
-0.028648691 0.042390443 0.32800001 4287143312
-0.027583348 0.042390443 0.32800001 4284705632
-0.026437154 0.042261206 0.32700002 4284166698
-0.025375059 0.042261206 0.32700002 4283968806
-0.024238611 0.042131964 0.32600001 4283312672
-0.02317976 0.042131964 0.32600001 4283708975
-0.022053057 0.04200273 0.32500002 4287535244
-0.020932849 0.041873489 0.324 4287011467
-0.045024484 0.044913523 0.33900002 4284954669
-0.04379385 0.044781037 0.33800003 4285413422
-0.042569701 0.044648547 0.33700001 4285936936
-0.041352056 0.044516061 0.33600003 4286395944
-0.040140901 0.044383571 0.33500001 4286722856
-0.038936246 0.044251084 0.33400002 4286262305
-0.037624758 0.043986108 0.33200002 4284686619
-0.03654642 0.043986108 0.33200002 4284161558
-0.035361256 0.043853618 0.33100003 4282258701
-0.034182582 0.043721128 0.33000001 4288386956
-0.033110742 0.043721128 0.33000001 4286814601
-0.032038901 0.043721128 0.33000001 4287209359
-0.03087322 0.043588642 0.32900003 4287340432
-0.02980463 0.043588642 0.32900003 4287208846
-0.028736036 0.043588642 0.32900003 4286545517
-0.027667444 0.043588642 0.32900003 4283511848
-0.026518 0.043456152 0.32800001 4283771940
-0.025452657 0.043456152 0.32800001 4283508768
-0.024312964 0.043323666 0.32700002 4283380012
-0.02317976 0.043191176 0.32600001 4287071098
-0.042443383 0.045607757 0.33600003 4286070836
-0.041228984 0.045472018 0.33500001 4286265385
-0.040021081 0.04533628 0.33400002 4285539611
-0.038819671 0.045200542 0.333 4290675832
-0.037624758 0.045064807 0.33200002 4286529077
-0.036436345 0.044929069 0.33100003 4285015584
-0.035361256 0.044929069 0.33100003 4283966237
-0.034182582 0.04479333 0.33000001 4286668377
-0.033110742 0.04479333 0.33000001 4287864207
-0.032038901 0.04479333 0.33000001 4287733904
-0.03096706 0.04479333 0.33000001 4287997590
-0.02989522 0.04479333 0.33000001 4285034593
-0.028823378 0.04479333 0.33000001 4282852887
-0.027667444 0.044657595 0.32900003 4284035364
-0.02659885 0.044657595 0.32900003 4283574813
-0.025530258 0.044657595 0.32900003 4283180571
-0.024387313 0.044521853 0.32800001 4284967007
-0.042317063 0.046560466 0.33500001 4285546552
-0.041105915 0.046421483 0.33400002 4286134830
-0.039901253 0.046282496 0.333 4286263338
-0.038703095 0.046143509 0.33200002 4285736740
-0.037624758 0.046143509 0.33200002 4285935141
-0.036436345 0.046004526 0.33100003 4285474847
-0.035361256 0.046004526 0.33100003 4284358937
-0.034286167 0.046004526 0.33100003 4283702806
-0.033110742 0.045865536 0.33000001 4282916120
-0.032038901 0.045865536 0.33000001 4281602056
-0.03096706 0.045865536 0.33000001 4281603853
-0.02989522 0.045865536 0.33000001 4282655256
-0.028823378 0.045865536 0.33000001 4283507483
-0.027751539 0.045865536 0.33000001 4283639323
-0.026679697 0.045865536 0.33000001 4283443227
-0.025530258 0.045726553 0.32900003 4283116838
-0.042190745 0.047506686 0.33400002 4284891193
-0.040982839 0.047364447 0.333 4285938482
-0.039901253 0.047364447 0.333 4285408799
-0.038703095 0.047222216 0.33200002 4285606178
-0.037511431 0.04707998 0.33100003 4285607203
-0.036436345 0.04707998 0.33100003 4284817687
-0.035361256 0.04707998 0.33100003 4284096019
-0.034286167 0.04707998 0.33100003 4283438862
-0.033110742 0.046937741 0.33000001 4282389774
-0.032038901 0.046937741 0.33000001 4282521875
-0.031060901 0.04707998 0.33100003 4282456850
-0.02989522 0.046937741 0.33000001 4283245083
-0.028823378 0.046937741 0.33000001 4283639069
-0.027751539 0.046937741 0.33000001 4283376667
-0.026679697 0.046937741 0.33000001 4282129682
-0.025607856 0.046937741 0.33000001 4288781968
-0.040982839 0.048446395 0.333 4285480759
-0.039781433 0.048300914 0.33200002 4285147685
-0.038703095 0.048300914 0.33200002 4284818718
-0.037511431 0.048155431 0.33100003 4284555546
-0.036436345 0.048155431 0.33100003 4283964179
-0.035361256 0.048155431 0.33100003 4283439632
-0.034286167 0.048155431 0.33100003 4283308046
-0.033211078 0.048155431 0.33100003 4282784784
-0.03213599 0.048155431 0.33100003 4282391055
-0.031060901 0.048155431 0.33100003 4282587666
-0.029985813 0.048155431 0.33100003 4283770655
-0.028910723 0.048155431 0.33100003 4283376667
-0.027835635 0.048155431 0.33100003 4283377950
-0.026679697 0.048009943 0.33000001 4285030997
-0.04085977 0.049379617 0.33200002 4284301114
-0.039781433 0.049379617 0.33200002 4284888111
-0.038586523 0.049230885 0.33100003 4284755755
-0.037511431 0.049230885 0.33100003 4284098593
-0.036436345 0.049230885 0.33100003 4283704089
-0.035361256 0.049230885 0.33100003 4283244565
-0.034286167 0.049230885 0.33100003 4282916370
-0.033211078 0.049230885 0.33100003 4282785043
-0.03213599 0.049230885 0.33100003 4282523154
-0.031060901 0.049230885 0.33100003 4282851606
-0.029985813 0.049230885 0.33100003 4283245594
-0.028910723 0.049230885 0.33100003 4283246877
-0.027835635 0.049230885 0.33100003 4282129684
-0.04085977 0.050458316 0.33200002 4284639067
-0.039781433 0.050458316 0.33200002 4284759866
-0.038586523 0.050306335 0.33100003 4284034860
-0.037511431 0.050306335 0.33100003 4283837220
-0.036436345 0.050306335 0.33100003 4283508766
-0.035361256 0.050306335 0.33100003 4283048215
-0.034286167 0.050306335 0.33100003 4283048215
-0.033211078 0.050306335 0.33100003 4283048985
-0.03213599 0.050306335 0.33100003 4282917399
-0.031060901 0.050306335 0.33100003 4282917399
-0.029985813 0.050306335 0.33100003 4283312157
-0.028910723 0.050306335 0.33100003 4283247395
-0.027835635 0.050306335 0.33100003 4286672488
-0.039661609 0.051381789 0.33100003 4285424992
-0.038586523 0.051381789 0.33100003 4284236350
-0.037511431 0.051381789 0.33100003 4283576106
-0.036436345 0.051381789 0.33100003 4283444520
-0.035361256 0.051381789 0.33100003 4283312674
-0.034286167 0.051381789 0.33100003 4283378467
-0.033211078 0.051381789 0.33100003 4283312161
-0.03213599 0.051381789 0.33100003 4283312159
-0.031060901 0.051381789 0.33100003 4283444258
-0.029985813 0.051381789 0.33100003 4283378979
-0.028910723 0.051381789 0.33100003 4281936929
-0.037511431 0.052457239 0.33100003 4284964954
-0.036436345 0.052457239 0.33100003 4282988852
-0.035361256 0.052457239 0.33100003 4283579958
-0.034286167 0.052457239 0.33100003 4283907639
-0.033211078 0.052457239 0.33100003 4283709745
-0.03213599 0.052457239 0.33100003 4283577389
-0.031060901 0.052457239 0.33100003 4283052330
-0.029985813 0.052457239 0.33100003 4284766798
-0.038667604 0.022081081 0.33481127 4294967295
-0.038667604 0.022081081 0.33481127 4294901760
-0.038667604 0.022081081 0.33531126 4294901760
-0.038667604 0.022081081 0.33581126 4294901760
-0.038667604 0.022081081 0.33631128 4294901760
-0.038667604 0.022081081 0.33681127 4294901760
-0.038667604 0.022081081 0.33731127 4294901760
-0.038667604 0.022081081 0.33781126 4294901760
-0.038667604 0.022081081 0.33831128 4294901760
-0.038667604 0.022081081 0.33881128 4294901760
-0.038667604 0.022081081 0.33931127 4294901760
-0.038667604 0.022081081 0.33981127 4294901760
-0.038667604 0.022081081 0.34031126 4294901760
-0.038667604 0.022081081 0.34081128 4294901760
-0.038667604 0.022081081 0.34131128 4294901760
-0.038667604 0.022081081 0.34181127 4294901760
-0.038667604 0.022081081 0.34231126 4294901760
-0.038667604 0.022081081 0.34281129 4294901760
-0.038667604 0.022081081 0.34331128 4294901760
-0.038667604 0.022081081 0.34381127 4294901760
-0.038667604 0.022081081 0.34431127 4294901760
-0.038667604 0.022081081 0.34481126 4294901760
-0.038667604 0.022081081 0.34531128 4294901760
-0.038667604 0.022081081 0.34581128 4294901760
-0.038667604 0.022081081 0.34631127 4294901760
-0.038667604 0.022081081 0.34681126 4294901760
-0.038667604 0.022081081 0.34731126 4294901760
-0.038667604 0.022081081 0.34781128 4294901760
-0.038667604 0.022081081 0.34831128 4294901760
-0.038667604 0.022081081 0.34881127 4294901760
-0.038667604 0.022081081 0.34931126 4294901760
-0.038667604 0.022081081 0.34981129 4294901760
-0.038667604 0.022081081 0.35031128 4294901760
-0.038667604 0.022081081 0.35081127 4294901760
-0.038667604 0.022081081 0.35131127 4294901760
-0.038667604 0.022081081 0.35181129 4294901760
-0.038667604 0.022081081 0.35231128 4294901760
-0.038667604 0.022081081 0.35281128 4294901760
-0.038667604 0.022081081 0.35331127 4294901760
-0.038667604 0.022081081 0.35381126 4294901760
-0.038667604 0.022081081 0.35431129 4294901760
-0.038667604 0.022081081 0.35481128 4294901760
-0.038667604 0.022081081 0.35531127 4294901760
-0.038667604 0.022081081 0.35581127 4294901760
-0.038667604 0.022081081 0.35631126 4294901760
-0.038667604 0.022081081 0.35681129 4294901760
-0.038667604 0.022081081 0.35731128 4294901760
-0.038667604 0.022081081 0.35781127 4294901760
-0.038667604 0.022081081 0.35831127 4294901760
-0.038667604 0.022081081 0.35881129 4294901760
-0.038667604 0.022081081 0.35931128 4294901760
-0.038667604 0.022081081 0.35981128 4294901760
-0.038667604 0.022081081 0.36031127 4294901760
-0.038667604 0.022081081 0.36081126 4294901760
-0.038667604 0.022081081 0.36131129 4294901760
-0.038667604 0.022081081 0.36181128 4294901760
-0.038667604 0.022081081 0.36231127 4294901760
-0.038667604 0.022081081 0.36281127 4294901760
-0.038667604 0.022081081 0.36331129 4294901760
-0.038667604 0.022081081 0.36381128 4294901760
-0.038667604 0.022081081 0.36431128 4294901760
-0.038667604 0.022081081 0.36481127 4294901760
-0.038667604 0.022081081 0.36531126 4294901760
-0.038667604 0.022081081 0.36581129 4294901760
-0.038667604 0.022081081 0.36631128 4294901760
-0.038667604 0.022081081 0.36681128 4294901760
-0.038667604 0.022081081 0.36731127 4294901760
-0.038667604 0.022081081 0.36781129 4294901760
-0.038667604 0.022081081 0.36831129 4294901760
-0.038667604 0.022081081 0.36881128 4294901760
-0.038667604 0.022081081 0.36931127 4294901760
-0.038667604 0.022081081 0.36981127 4294901760
-0.038667604 0.022081081 0.37031129 4294901760
-0.038667604 0.022081081 0.37081128 4294901760
-0.038667604 0.022081081 0.37131128 4294901760
-0.038667604 0.022081081 0.37181127 4294901760
