# .PCD v0.7 - Point Cloud Data file format
VERSION 0.7
FIELDS x y z rgb
SIZE 4 4 4 4
TYPE F F F U
COUNT 1 1 1 1
WIDTH 642
HEIGHT 1
VIEWPOINT 0 0 0 1 0 0 0
POINTS 642
DATA ascii
-0.091130883 0.02083973 0.50200003 4281360192
-0.13778795 0.023768893 0.53100002 4281881407
-0.13580702 0.023724129 0.53000003 4279650342
-0.13307361 0.023545079 0.52600002 4279519523
-0.13111542 0.023500318 0.52500004 4279453728
-0.12891723 0.023410792 0.523 4279125533
-0.12673202 0.023321267 0.52100003 4279125533
-0.092391811 0.022381254 0.5 4279127330
-0.090949349 0.022426018 0.50100005 4279390502
-0.089143805 0.022381254 0.5 4279061537
-0.087344766 0.022336492 0.49900001 4280047151
-0.085724019 0.022336492 0.49900001 4280374578
-0.13726899 0.025398144 0.52900004 4281881407
-0.1350383 0.02530212 0.52700001 4279518756
-0.13282062 0.025206098 0.52500004 4279519523
-0.13061593 0.025110073 0.523 4279256349
-0.12842424 0.025014052 0.52100003 4279453728
-0.12624554 0.024918029 0.51900005 4279125533
-0.12383982 0.024773993 0.51600003 4279125535
-0.1219271 0.024725983 0.51500005 4278793750
-0.12002087 0.024677968 0.514 4279255584
-0.11812114 0.024629958 0.51300001 4279124763
-0.097263813 0.024005806 0.5 4279192353
-0.09563981 0.024005806 0.5 4278929181
-0.093827777 0.023957795 0.49900001 4279060767
-0.092207029 0.023957795 0.49900001 4278798365
-0.090767808 0.024005806 0.5 4278732572
-0.08896552 0.023957795 0.49900001 4278995742
-0.087169729 0.023909785 0.49800003 4278929949
-0.08555223 0.023909785 0.49800003 4278995746
-0.08359763 0.02381376 0.49600002 4279390504
-0.08182133 0.02376575 0.49500003 4279652906
-0.080051519 0.023717737 0.49400002 4279849772
-0.078288212 0.023669727 0.49300003 4280178483
-0.13700949 0.027065657 0.528 4282079038
-0.13478206 0.026963137 0.52600002 4279519008
-0.13231464 0.026809353 0.523 4279519008
-0.13036619 0.026758093 0.52200001 4279584799
-0.12817775 0.026655573 0.52000004 4279453213
-0.12600228 0.02655305 0.51800001 4279256349
-0.12383982 0.02645053 0.51600003 4278663447
-0.1219271 0.02639927 0.51500005 4278198016
-0.12002087 0.026348006 0.514 4280108840
-0.11812114 0.026296746 0.51300001 4278723341
-0.11600091 0.026194226 0.51100004 4278853646
-0.11411743 0.026142966 0.51000005 4278853133
-0.11201991 0.026040444 0.50800002 4278787853
-0.11015267 0.025989184 0.50700003 4278394378
-0.10829192 0.025937922 0.50600004 4278197513
-0.10643765 0.02588666 0.505 4278461453
-0.10458989 0.0258354 0.50400001 4278858261
-0.10274863 0.02578414 0.50300002 4279255068
-0.10111488 0.02578414 0.50300002 4279189275
-0.099283367 0.02573288 0.50200003 4279453730
-0.097263813 0.025630357 0.5 4278993947
-0.09563981 0.025630357 0.5 4278993947
-0.093827777 0.025579097 0.49900001 4279059740
-0.092207029 0.025579097 0.49900001 4278994461
-0.090586275 0.025579097 0.49900001 4278928668
-0.088787235 0.025527837 0.49800003 4278994459
-0.086994685 0.025476575 0.49700001 4278994459
-0.085380435 0.025476575 0.49700001 4279060767
-0.083429091 0.025374055 0.49500003 4278798365
-0.081656031 0.025322793 0.49400002 4278995744
-0.079889476 0.025271533 0.49300003 4278929951
-0.078288212 0.025271533 0.49300003 4278995744
-0.076531388 0.025220271 0.49200001 4278929951
-0.07493338 0.025220271 0.49200001 4279127330
-0.073335357 0.025220271 0.49200001 4279851053
-0.071737342 0.025220271 0.49200001 4279916596
-0.068541311 0.025220271 0.49200001 4279911979
-0.13675 0.028726673 0.52700001 4280763176
-0.13452582 0.028617654 0.52500004 4279321627
-0.13231464 0.028508633 0.523 4279651105
-0.13011645 0.028399615 0.52100003 4279585312
-0.12793125 0.028290598 0.51900005 4279387933
-0.12600228 0.028236084 0.51800001 4279519519
-0.12383982 0.028127067 0.51600003 4279847205
-0.1219271 0.028072556 0.51500005 4280437293
-0.11978737 0.027963536 0.51300001 4280437291
-0.11789089 0.027909027 0.51200002 4278984719
-0.11600091 0.027854517 0.51100004 4279115535
-0.11389366 0.027745496 0.509 4279049742
-0.11201991 0.027690986 0.50800002 4279049742
-0.11015267 0.027636478 0.50700003 4279049744
-0.10829192 0.027581969 0.50600004 4278983951
-0.10643765 0.027527457 0.505 4278983951
-0.10458989 0.027472947 0.50400001 4279708955
-0.10274863 0.027418438 0.50300002 4280042535
-0.10111488 0.027418438 0.50300002 4279581984
-0.099283367 0.027363928 0.50200003 4279055640
-0.097458348 0.02730942 0.50100005 4278726675
-0.09563981 0.027254907 0.5 4278198275
-0.093827777 0.027200399 0.49900001 4278199046
-0.092022248 0.027145889 0.49800003 4278198275
-0.090404741 0.027145889 0.49800003 4278661394
-0.088608943 0.027091378 0.49700001 4278991642
-0.086819649 0.02703687 0.49600002 4279649826
-0.085036851 0.02698236 0.49500003 4279190558
-0.083260544 0.026927849 0.49400002 4278862877
-0.081656031 0.026927849 0.49400002 4278862875
-0.079889476 0.026873341 0.49300003 4279191838
-0.078129411 0.026818831 0.49200001 4278797595
-0.076531388 0.026818831 0.49200001 4279060769
-0.07493338 0.026818831 0.49200001 4278798367
-0.073335357 0.026818831 0.49200001 4278995746
-0.071737342 0.026818831 0.49200001 4278996005
-0.070139319 0.026818831 0.49200001 4278864419
-0.068541311 0.026818831 0.49200001 4284388723
-0.066943288 0.026818831 0.49200001 4279716396
-0.13675 0.03043895 0.52700001 4280435495
-0.13452582 0.030323433 0.52500004 4279386650
-0.13231464 0.030207913 0.523 4279256347
-0.13011645 0.030092398 0.52100003 4279257117
-0.12793125 0.02997688 0.51900005 4279322910
-0.12575904 0.029861361 0.51700002 4279257117
-0.12383982 0.029803602 0.51600003 4279979561
-0.12169035 0.029688083 0.514 4280503598
-0.11978737 0.029630324 0.51300001 4280503598
-0.11789089 0.029572567 0.51200002 4278393863
-0.11577391 0.029457049 0.51000005 4280301862
-0.11389366 0.029399289 0.509 4279972127
-0.11201991 0.02934153 0.50800002 4278458888
-0.11015267 0.029283771 0.50700003 4279511576
-0.10829192 0.029226014 0.50600004 4279379479
-0.10643765 0.029168252 0.505 4280366374
-0.10458989 0.029110495 0.50400001 4279643932
-0.10274863 0.029052736 0.50300002 4279386141
-0.10091387 0.028994977 0.50200003 4278464015
-0.099283367 0.028994977 0.50200003 4278989845
-0.097458348 0.028937221 0.50100005 4279780129
-0.09563981 0.028879458 0.5 4279386141
-0.093827777 0.028821699 0.49900001 4279320607
-0.092022248 0.028763942 0.49800003 4279386400
-0.090223201 0.028706182 0.49700001 4279715367
-0.088430658 0.028648423 0.49600002 4280241198
-0.086644612 0.028590666 0.49500003 4279912233
-0.085036851 0.028590666 0.49500003 4279385117
-0.083260544 0.028532906 0.49400002 4278726673
-0.081490733 0.028475147 0.49300003 4278199303
-0.079889476 0.028475147 0.49300003 4278198275
-0.078129411 0.028417388 0.49200001 4278198789
-0.076531388 0.028417388 0.49200001 4278398222
-0.07493338 0.028417388 0.49200001 4278928670
-0.073335357 0.028417388 0.49200001 4278994463
-0.071737342 0.028417388 0.49200001 4278797597
-0.070139319 0.028417388 0.49200001 4278863390
-0.068541311 0.028417388 0.49200001 4279126308
-0.066943288 0.028417388 0.49200001 4279192101
-0.065212458 0.028359629 0.49100003 4279386402
-0.13675 0.032151226 0.52700001 4280699180
-0.13452582 0.032029212 0.52500004 4279584799
-0.13231464 0.031907193 0.523 4279125531
-0.13011645 0.031785179 0.52100003 4279125533
-0.12793125 0.031663164 0.51900005 4279125533
-0.12600228 0.031602152 0.51800001 4279125533
-0.12383982 0.031480137 0.51600003 4278200327
-0.1219271 0.031419132 0.51500005 4279120920
-0.11978737 0.031297114 0.51300001 4279713570
-0.11789089 0.031236107 0.51200002 4278919439
-0.11577391 0.031114092 0.51000005 4278195461
-0.11389366 0.031053081 0.509 4279445785
-0.11201991 0.030992074 0.50800002 4278589963
-0.11015267 0.030931067 0.50700003 4278853135
-0.10829192 0.03087006 0.50600004 4280301862
-0.10643765 0.030809049 0.505 4279116820
-0.10458989 0.030748041 0.50400001 4279644445
-0.10274863 0.030687034 0.50300002 4279187992
-0.10091387 0.030626027 0.50200003 4278460683
-0.099283367 0.030626027 0.50200003 4278196740
-0.097458348 0.03056502 0.50100005 4278856465
-0.09563981 0.030504009 0.5 4279385887
-0.093639746 0.030381994 0.49800003 4278991129
-0.091837466 0.030320985 0.49700001 4279056922
-0.090223201 0.030320985 0.49700001 4279385887
-0.088430658 0.030259978 0.49600002 4279255586
-0.086644612 0.030198971 0.49500003 4279321377
-0.084865063 0.030137962 0.49400002 4279189791
-0.083260544 0.030137962 0.49400002 4279321377
-0.081490733 0.030076955 0.49300003 4279255584
-0.079889476 0.030076955 0.49300003 4279321377
-0.078129411 0.030015945 0.49200001 4279452193
-0.076531388 0.030015945 0.49200001 4279386400
-0.07493338 0.030015945 0.49200001 4279716389
-0.073335357 0.030015945 0.49200001 4279125535
-0.071737342 0.030015945 0.49200001 4279125535
-0.070139319 0.030015945 0.49200001 4279059742
-0.068541311 0.030015945 0.49200001 4278928156
-0.066943288 0.030015945 0.49200001 4278993949
-0.065345272 0.030015945 0.49200001 4279058205
-0.13700949 0.033927761 0.528 4279844895
-0.13478206 0.03379925 0.52600002 4279255834
-0.13256763 0.033670735 0.52400005 4279257117
-0.13036619 0.03354222 0.52200001 4279257119
-0.12817775 0.033413704 0.52000004 4279257119
-0.12600228 0.033285189 0.51800001 4279257121
-0.12407982 0.033220932 0.51700002 4280110123
-0.1219271 0.033092421 0.51500005 4280042533
-0.11978737 0.032963905 0.51300001 4280239912
-0.11789089 0.032899648 0.51200002 4278656267
-0.11577391 0.032771137 0.51000005 4279049744
-0.11389366 0.032706875 0.509 4279180562
-0.11201991 0.032642618 0.50800002 4279114769
-0.11015267 0.032578364 0.50700003 4278983437
-0.10829192 0.032514106 0.50600004 4278852365
-0.10643765 0.032449845 0.505 4278721549
-0.10458989 0.032385591 0.50400001 4279710752
-0.10274863 0.032321334 0.50300002 4279252506
-0.10091387 0.032257076 0.50200003 4278723343
-0.099283367 0.032257076 0.50200003 4278657548
-0.097458348 0.032192823 0.50100005 4278528011
-0.095448531 0.032064304 0.49900001 4279450910
-0.093639746 0.03200005 0.49800003 4278595603
-0.091837466 0.031935789 0.49700001 4279648291
-0.090041667 0.031871535 0.49600002 4278595603
-0.088252373 0.031807277 0.49500003 4278858261
-0.086644612 0.031807277 0.49500003 4279253019
-0.084865063 0.03174302 0.49400002 4278990361
-0.083092004 0.031678762 0.49300003 4278266638
-0.081490733 0.031678762 0.49300003 4279451934
-0.079727426 0.031614505 0.49200001 4278267660
-0.078129411 0.031614505 0.49200001 4279124252
-0.076531388 0.031614505 0.49200001 4278992666
-0.07493338 0.031614505 0.49200001 4278861080
-0.073335357 0.031614505 0.49200001 4279125535
-0.071737342 0.031614505 0.49200001 4279257121
-0.070139319 0.031614505 0.49200001 4279059742
-0.068541311 0.031614505 0.49200001 4278993949
-0.066943288 0.031614505 0.49200001 4278862363
-0.065345272 0.031614505 0.49200001 4278860826
-0.063617691 0.031550247 0.49100003 4282607949
-0.13752846 0.035778299 0.53000003 4280633124
-0.13529454 0.035643287 0.528 4279255834
-0.13307361 0.035508275 0.52600002 4279453726
-0.13086569 0.035373263 0.52400005 4279388703
-0.12867074 0.035238251 0.52200001 4279125531
-0.12648879 0.035103239 0.52000004 4279059742
-0.12431981 0.034968223 0.51800001 4278201612
-0.12216385 0.034833215 0.51600003 4279187738
-0.12002087 0.034698199 0.514 4279583779
-0.11789089 0.034563188 0.51200002 4279847205
-0.11600091 0.034495682 0.51100004 4280108326
-0.11389366 0.03436067 0.509 4280172325
-0.11201991 0.034293164 0.50800002 4279315478
-0.11015267 0.034225658 0.50700003 4278524681
-0.10829192 0.034158152 0.50600004 4278656267
-0.10643765 0.034090642 0.505 4278524170
-0.10458989 0.034023136 0.50400001 4280565547
-0.10274863 0.033955634 0.50300002 4279252506
-0.10091387 0.033888128 0.50200003 4280039715
-0.099283367 0.033888128 0.50200003 4279908899
-0.097458348 0.033820622 0.50100005 4279713057
-0.095448531 0.033685606 0.49900001 4279516703
-0.093639746 0.0336181 0.49800003 4279649059
-0.091837466 0.033550594 0.49700001 4278398992
-0.090041667 0.033483088 0.49600002 4279845668
-0.088252373 0.033415582 0.49500003 4278199303
-0.086644612 0.033415582 0.49500003 4278331663
-0.084865063 0.033348076 0.49400002 4279318299
-0.083092004 0.03328057 0.49300003 4279647264
-0.081490733 0.03328057 0.49300003 4278989845
-0.079889476 0.03328057 0.49300003 4279121431
-0.078129411 0.033213064 0.49200001 4279254555
-0.076531388 0.033213064 0.49200001 4278859797
-0.07493338 0.033213064 0.49200001 4280175657
-0.073335357 0.033213064 0.49200001 4279190556
-0.071737342 0.033213064 0.49200001 4279190556
-0.070139319 0.033213064 0.49200001 4279256349
-0.068541311 0.033213064 0.49200001 4279256349
-0.066943288 0.033213064 0.49200001 4278862361
-0.065345272 0.033213064 0.49200001 4279256097
-0.13606326 0.03757108 0.53100002 4279451930
-0.13383259 0.037429571 0.52900004 4279321627
-0.13136517 0.037217304 0.52600002 4279255834
-0.12916373 0.037075795 0.52400005 4279255834
-0.12697527 0.036934283 0.52200001 4279190554
-0.12455983 0.036722019 0.51900005 4279256347
-0.1224006 0.036580503 0.51700002 4279387935
-0.12025438 0.036438994 0.51500005 4279124763
-0.11812114 0.036297482 0.51300001 4278993179
-0.11600091 0.036155973 0.51100004 4279124765
-0.11411743 0.036085218 0.51000005 4279190558
-0.11201991 0.035943706 0.50800002 4279190045
-0.11015267 0.035872951 0.50700003 4279320348
-0.10829192 0.035802197 0.50600004 4279582750
-0.10643765 0.035731439 0.505 4279582496
-0.10458989 0.035660684 0.50400001 4279516703
-0.10274863 0.03558993 0.50300002 4279911461
-0.10111488 0.03558993 0.50300002 4279976742
-0.099283367 0.035519175 0.50200003 4279647010
-0.097458348 0.035448421 0.50100005 4278594322
-0.095448531 0.035306908 0.49900001 4278198536
-0.093639746 0.035236154 0.49800003 4278196480
-0.091837466 0.035165396 0.49700001 4278199047
-0.090041667 0.035094641 0.49600002 4278726162
-0.088252373 0.035023887 0.49500003 4279779877
-0.086469568 0.034953132 0.49400002 4279845416
-0.084865063 0.034953132 0.49400002 4279649059
-0.083092004 0.034882378 0.49300003 4280175657
-0.081490733 0.034882378 0.49300003 4279451934
-0.079889476 0.034882378 0.49300003 4279780129
-0.078129411 0.03481162 0.49200001 4279517727
-0.076531388 0.03481162 0.49200001 4278464269
-0.07493338 0.03481162 0.49200001 4279583779
-0.073335357 0.03481162 0.49200001 4279190558
-0.071737342 0.03481162 0.49200001 4279453730
-0.070139319 0.03481162 0.49200001 4279256351
-0.068541311 0.03481162 0.49200001 4279058972
-0.066943288 0.03481162 0.49200001 4279058970
-0.065345272 0.03481162 0.49200001 4278992664
-0.13236414 0.039222348 0.53000003 4279648025
-0.13014971 0.039074335 0.528 4279516953
-0.12746178 0.038778324 0.52400005 4279320346
-0.12503982 0.038556308 0.52100003 4279320859
-0.12287412 0.038408302 0.51900005 4279255064
-0.12072138 0.038260289 0.51700002 4279255064
-0.11835139 0.038038276 0.514 4278992664
-0.11622792 0.037890267 0.51200002 4278992664
-0.11434118 0.037816264 0.51100004 4279124763
-0.11224042 0.037668254 0.509 4279058970
-0.11036994 0.037594251 0.50800002 4279124763
-0.10829192 0.037446242 0.50600004 4279190556
-0.10643765 0.037372235 0.505 4279190558
-0.10458989 0.037298232 0.50400001 4279124765
-0.1029529 0.037298232 0.50400001 4279124765
-0.10111488 0.037224229 0.50300002 4279321631
-0.099283367 0.037150223 0.50200003 4279453217
-0.097458348 0.03707622 0.50100005 4279321631
-0.095448531 0.03692821 0.49900001 4279321631
-0.093639746 0.036854208 0.49800003 4279583779
-0.091837466 0.036780201 0.49700001 4279649059
-0.090041667 0.036706198 0.49600002 4279517473
-0.088252373 0.036632195 0.49500003 4280306221
-0.086469568 0.036558188 0.49400002 4279385119
-0.084865063 0.036558188 0.49400002 4279385119
-0.083092004 0.036484186 0.49300003 4278200077
-0.081490733 0.036484186 0.49300003 4278198018
-0.079889476 0.036484186 0.49300003 4278198018
-0.078129411 0.036410179 0.49200001 4278198530
-0.076531388 0.036410179 0.49200001 4278200074
-0.07493338 0.036410179 0.49200001 4279452195
-0.073335357 0.036410179 0.49200001 4279190304
-0.071737342 0.036410179 0.49200001 4279190558
-0.070139319 0.036410179 0.49200001 4279124765
-0.068541311 0.036410179 0.49200001 4279124765
-0.066943288 0.036410179 0.49200001 4278993179
-0.065345272 0.036410179 0.49200001 4279121947
-0.12334762 0.040249091 0.52100003 4279314701
-0.12095489 0.040017329 0.51800001 4279381262
-0.11881191 0.039862823 0.51600003 4279908633
-0.11668193 0.039708313 0.514 4279844123
-0.11434118 0.039476555 0.51100004 4279254553
-0.11246094 0.039399303 0.51000005 4279254553
-0.11036994 0.039244793 0.50800002 4279255066
-0.10850593 0.039167542 0.50700003 4279058457
-0.10664843 0.039090287 0.50600004 4278927386
-0.10479741 0.039013032 0.505 4279058972
-0.1029529 0.038935781 0.50400001 4279124765
-0.10111488 0.038858525 0.50300002 4279124765
-0.099283367 0.038781274 0.50200003 4279190558
-0.097458348 0.038704023 0.50100005 4279256351
-0.095448531 0.038549513 0.49900001 4279256351
-0.093639746 0.038472258 0.49800003 4279256351
-0.091837466 0.038395002 0.49700001 4279256351
-0.090041667 0.038317751 0.49600002 4279387937
-0.088252373 0.0382405 0.49500003 4279453730
-0.086469568 0.038163245 0.49400002 4279321631
-0.084865063 0.038163245 0.49400002 4279518756
-0.083092004 0.038085993 0.49300003 4279452963
-0.081490733 0.038085993 0.49300003 4279649572
-0.079727426 0.038008738 0.49200001 4279583779
-0.078129411 0.038008738 0.49200001 4279846951
-0.076531388 0.038008738 0.49200001 4279649572
-0.07493338 0.038008738 0.49200001 4279452963
-0.073335357 0.038008738 0.49200001 4279453476
-0.071737342 0.038008738 0.49200001 4279125535
-0.070139319 0.038008738 0.49200001 4279125535
-0.068541311 0.038008738 0.49200001 4278993949
-0.066943288 0.038008738 0.49200001 4278861080
-0.065345272 0.038008738 0.49200001 4278461966
-0.11668193 0.041378353 0.514 4279179783
-0.11456494 0.041217349 0.51200002 4278786822
-0.11246094 0.041056346 0.51000005 4278853385
-0.11058719 0.040975839 0.509 4279117838
-0.10850593 0.040814836 0.50700003 4279249937
-0.10664843 0.040734332 0.50600004 4279382807
-0.10479741 0.040653829 0.505 4279055127
-0.1029529 0.040573325 0.50400001 4279383320
-0.10111488 0.040492825 0.50300002 4279976740
-0.099283367 0.040412322 0.50200003 4279254303
-0.097458348 0.040331822 0.50100005 4279452195
-0.095448531 0.040170815 0.49900001 4279780645
-0.093639746 0.040090311 0.49800003 4279780645
-0.091837466 0.040009808 0.49700001 4279584803
-0.090041667 0.039929304 0.49600002 4279650596
-0.088252373 0.039848804 0.49500003 4279650342
-0.086469568 0.039768301 0.49400002 4279453478
-0.084865063 0.039768301 0.49400002 4279453478
-0.083092004 0.039687797 0.49300003 4279584551
-0.081490733 0.039687797 0.49300003 4279518756
-0.079727426 0.039607294 0.49200001 4279518756
-0.078129411 0.039607294 0.49200001 4279518756
-0.076531388 0.039607294 0.49200001 4279584549
-0.07493338 0.039607294 0.49200001 4279518756
-0.073335357 0.039607294 0.49200001 4279321377
-0.071737342 0.039607294 0.49200001 4279190304
-0.070139319 0.039607294 0.49200001 4279256351
-0.068541311 0.039607294 0.49200001 4279453217
-0.066943288 0.039607294 0.49200001 4279254814
-0.065345272 0.039607294 0.49200001 4281947198
-0.11246094 0.042713385 0.51000005 4279705614
-0.11058719 0.042629629 0.509 4280035092
-0.095448531 0.041792113 0.49900001 4285499761
-0.093639746 0.041708365 0.49800003 4284644711
-0.091837466 0.041624609 0.49700001 4283527516
-0.090041667 0.041540861 0.49600002 4282541136
-0.088252373 0.041457109 0.49500003 4281685573
-0.086469568 0.041373357 0.49400002 4281291069
-0.084865063 0.041373357 0.49400002 4280369967
-0.083092004 0.041289605 0.49300003 4280106793
-0.081490733 0.041289605 0.49300003 4280172586
-0.079727426 0.041205853 0.49200001 4279712033
-0.078129411 0.041205853 0.49200001 4279646240
-0.076531388 0.041205853 0.49200001 4279647010
-0.07493338 0.041205853 0.49200001 4279581730
-0.073335357 0.041205853 0.49200001 4279647525
-0.071737342 0.041205853 0.49200001 4279713320
-0.070139319 0.041205853 0.49200001 4280108078
-0.068541311 0.041205853 0.49200001 4279450148
-0.066943288 0.041205853 0.49200001 4282408267
-0.081325442 0.042804409 0.49200001 4285566331
-0.079727426 0.042804409 0.49200001 4285632124
-0.078129411 0.042804409 0.49200001 4285697403
-0.076531388 0.042804409 0.49200001 4286157954
-0.074781075 0.042717412 0.49100003 4286092159
-0.073186301 0.042717412 0.49100003 4285828987
-0.071737342 0.042804409 0.49200001 4285697401
-0.070139319 0.042804409 0.49200001 4285697399
-0.068541311 0.042804409 0.49200001 4285763192
-0.097414263 0.032743167 0.50276351 4294967295
-0.097414263 0.032743167 0.50276351 4294901760
-0.097414263 0.032743167 0.50326353 4294901760
-0.097414263 0.032743167 0.5037635 4294901760
-0.097414263 0.032743167 0.50426352 4294901760
-0.097414263 0.032743167 0.50476348 4294901760
-0.097414263 0.032743167 0.50526351 4294901760
-0.097414263 0.032743167 0.50576353 4294901760
-0.097414263 0.032743167 0.50626349 4294901760
-0.097414263 0.032743167 0.50676352 4294901760
-0.097414263 0.032743167 0.50726348 4294901760
-0.097414263 0.032743167 0.5077635 4294901760
-0.097414263 0.032743167 0.50826353 4294901760
-0.097414263 0.032743167 0.50876349 4294901760
-0.097414263 0.032743167 0.50926352 4294901760
-0.097414263 0.032743167 0.50976354 4294901760
-0.097414263 0.032743167 0.5102635 4294901760
-0.097414263 0.032743167 0.51076353 4294901760
-0.097414263 0.032743167 0.51126349 4294901760
-0.097414263 0.032743167 0.51176351 4294901760
-0.097414263 0.032743167 0.51226354 4294901760
-0.097414263 0.032743167 0.5127635 4294901760
-0.097414263 0.032743167 0.51326352 4294901760
-0.097414263 0.032743167 0.51376349 4294901760
-0.097414263 0.032743167 0.51426351 4294901760
-0.097414263 0.032743167 0.51476353 4294901760
-0.097414263 0.032743167 0.5152635 4294901760
-0.097414263 0.032743167 0.51576352 4294901760
-0.097414263 0.032743167 0.51626348 4294901760
-0.097414263 0.032743167 0.51676351 4294901760
-0.097414263 0.032743167 0.51726353 4294901760
-0.097414263 0.032743167 0.5177635 4294901760
-0.097414263 0.032743167 0.51826352 4294901760
-0.097414263 0.032743167 0.51876354 4294901760
-0.097414263 0.032743167 0.51926351 4294901760
-0.097414263 0.032743167 0.51976353 4294901760
-0.097414263 0.032743167 0.52026349 4294901760
-0.097414263 0.032743167 0.52076352 4294901760
-0.097414263 0.032743167 0.52126354 4294901760
-0.097414263 0.032743167 0.5217635 4294901760
-0.097414263 0.032743167 0.52226353 4294901760
-0.097414263 0.032743167 0.52276349 4294901760
-0.097414263 0.032743167 0.52326351 4294901760
-0.097414263 0.032743167 0.52376354 4294901760
-0.097414263 0.032743167 0.5242635 4294901760
-0.097414263 0.032743167 0.52476352 4294901760
-0.097414263 0.032743167 0.52526349 4294901760
-0.097414263 0.032743167 0.52576351 4294901760
-0.097414263 0.032743167 0.52626354 4294901760
-0.097414263 0.032743167 0.5267635 4294901760
-0.097414263 0.032743167 0.52726352 4294901760
-0.097414263 0.032743167 0.52776349 4294901760
-0.097414263 0.032743167 0.52826351 4294901760
-0.097414263 0.032743167 0.52876353 4294901760
-0.097414263 0.032743167 0.5292635 4294901760
-0.097414263 0.032743167 0.52976352 4294901760
-0.097414263 0.032743167 0.53026354 4294901760
-0.097414263 0.032743167 0.53076351 4294901760
-0.097414263 0.032743167 0.53126353 4294901760
-0.097414263 0.032743167 0.53176349 4294901760
-0.097414263 0.032743167 0.53226352 4294901760
-0.097414263 0.032743167 0.53276354 4294901760
-0.097414263 0.032743167 0.5332635 4294901760
-0.097414263 0.032743167 0.53376353 4294901760
-0.097414263 0.032743167 0.53426349 4294901760
-0.097414263 0.032743167 0.53476351 4294901760
-0.097414263 0.032743167 0.53526354 4294901760
-0.097414263 0.032743167 0.5357635 4294901760
-0.097414263 0.032743167 0.53626353 4294901760
-0.097414263 0.032743167 0.53676355 4294901760
-0.097414263 0.032743167 0.53726351 4294901760
-0.097414263 0.032743167 0.53776354 4294901760
-0.097414263 0.032743167 0.5382635 4294901760
-0.097414263 0.032743167 0.53876352 4294901760
-0.097414263 0.032743167 0.53926355 4294901760
-0.097414263 0.032743167 0.53976351 4294901760
-0.097414263 0.032743167 0.54026353 4294901760
-0.097414263 0.032743167 0.5407635 4294901760
-0.097414263 0.032743167 0.54126352 4294901760
-0.097414263 0.032743167 0.54176354 4294901760
-0.097414263 0.032743167 0.54226351 4294901760
-0.097414263 0.032743167 0.54276353 4294901760
-0.097414263 0.032743167 0.54326349 4294901760
-0.097414263 0.032743167 0.54376352 4294901760
-0.097414263 0.032743167 0.54426354 4294901760
-0.097414263 0.032743167 0.54476351 4294901760
-0.097414263 0.032743167 0.54526353 4294901760
-0.097414263 0.032743167 0.54576349 4294901760
-0.097414263 0.032743167 0.54626352 4294901760
-0.097414263 0.032743167 0.54676354 4294901760
-0.097414263 0.032743167 0.5472635 4294901760
-0.097414263 0.032743167 0.54776353 4294901760
-0.097414263 0.032743167 0.54826355 4294901760
-0.097414263 0.032743167 0.54876351 4294901760
-0.097414263 0.032743167 0.54926354 4294901760
-0.097414263 0.032743167 0.5497635 4294901760
-0.097414263 0.032743167 0.55026352 4294901760
-0.097414263 0.032743167 0.55076355 4294901760
-0.097414263 0.032743167 0.55126351 4294901760
-0.097414263 0.032743167 0.55176353 4294901760
-0.097414263 0.032743167 0.5522635 4294901760
-0.097414263 0.032743167 0.55276352 4294901760
-0.097414263 0.032743167 0.50276351 4278255360
-0.097169295 0.032741852 0.5031994 4278255360
-0.096924327 0.032740541 0.50363529 4278255360
-0.09667936 0.032739226 0.50407112 4278255360
-0.096434392 0.032737914 0.50450701 4278255360
-0.096189424 0.032736599 0.50494289 4278255360
-0.095944457 0.032735288 0.50537878 4278255360
-0.095699489 0.032733973 0.50581467 4278255360
-0.095454521 0.032732662 0.5062505 4278255360
-0.095209554 0.032731347 0.50668639 4278255360
-0.094964586 0.032730032 0.50712228 4278255360
-0.094719619 0.03272872 0.50755817 4278255360
-0.094474651 0.032727405 0.50799406 4278255360
-0.094229683 0.032726094 0.50842994 4278255360
-0.093984716 0.032724779 0.50886577 4278255360
-0.093739748 0.032723468 0.50930166 4278255360
-0.09349478 0.032722153 0.50973755 4278255360
-0.093249813 0.032720838 0.51017344 4278255360
-0.093004845 0.032719526 0.51060933 4278255360
-0.092759877 0.032718211 0.51104516 4278255360
-0.09251491 0.0327169 0.51148105 4278255360
-0.092269942 0.032715585 0.51191694 4278255360
-0.092024975 0.032714274 0.51235282 4278255360
-0.091780007 0.032712959 0.51278871 4278255360
-0.091535047 0.032711647 0.51322454 4278255360
-0.091290072 0.032710332 0.51366043 4278255360
-0.091045111 0.032709017 0.51409632 4278255360
-0.090800136 0.032707706 0.51453221 4278255360
-0.090555176 0.032706391 0.5149681 4278255360
-0.090310208 0.03270508 0.51540393 4278255360
-0.090065241 0.032703765 0.51583982 4278255360
-0.089820273 0.032702453 0.5162757 4278255360
-0.089575306 0.032701138 0.51671159 4278255360
-0.089330338 0.032699827 0.51714748 4278255360
-0.08908537 0.032698512 0.51758337 4278255360
-0.088840403 0.032697197 0.5180192 4278255360
-0.088595435 0.032695886 0.51845509 4278255360
-0.088350467 0.032694571 0.51889098 4278255360
-0.0881055 0.032693259 0.51932687 4278255360
-0.087860532 0.032691944 0.51976275 4278255360
-0.087615564 0.032690633 0.52019858 4278255360
-0.087370597 0.032689318 0.52063447 4278255360
-0.087125629 0.032688003 0.52107036 4278255360
-0.086880662 0.032686692 0.52150625 4278255360
-0.086635694 0.032685377 0.52194214 4278255360
-0.086390726 0.032684065 0.52237797 4278255360
-0.086145759 0.03268275 0.52281386 4278255360
-0.085900791 0.032681439 0.52324975 4278255360
-0.085655823 0.032680124 0.52368563 4278255360
-0.085410856 0.032678813 0.52412152 4278255360
-0.085165888 0.032677498 0.52455735 4278255360
-0.08492092 0.032676183 0.52499324 4278255360
-0.084675953 0.032674871 0.52542913 4278255360
-0.084430985 0.032673556 0.52586502 4278255360
-0.084186018 0.032672245 0.52630091 4278255360
-0.08394105 0.03267093 0.5267368 4278255360
-0.083696082 0.032669619 0.52717263 4278255360
-0.083451115 0.032668304 0.52760851 4278255360
-0.083206147 0.032666992 0.5280444 4278255360
-0.082961179 0.032665677 0.52848029 4278255360
-0.082716212 0.032664362 0.52891618 4278255360
-0.082471244 0.032663051 0.52935201 4278255360
-0.082226276 0.032661736 0.5297879 4278255360
-0.081981309 0.032660425 0.53022379 4278255360
-0.081736341 0.03265911 0.53065968 4278255360
-0.081491381 0.032657798 0.53109556 4278255360
-0.081246406 0.032656483 0.53153139 4278255360
-0.081001438 0.032655168 0.53196728 4278255360
-0.080756471 0.032653857 0.53240317 4278255360
-0.08051151 0.032652542 0.53283906 4278255360
-0.080266535 0.032651231 0.53327495 4278255360
-0.080021575 0.032649916 0.53371084 4278255360
-0.0797766 0.032648604 0.53414667 4278255360
-0.07953164 0.032647289 0.53458256 4278255360
-0.079286665 0.032645978 0.53501844 4278255360
-0.079041705 0.032644663 0.53545433 4278255360
-0.078796729 0.032643348 0.53589022 4278255360
-0.078551769 0.032642037 0.53632605 4278255360
-0.078306802 0.032640722 0.53676194 4278255360
-0.078061834 0.03263941 0.53719783 4278255360
-0.077816859 0.032638095 0.53763372 4278255360
-0.077571899 0.032636784 0.53806961 4278255360
-0.077326931 0.032635469 0.53850543 4278255360
-0.077081963 0.032634158 0.53894132 4278255360
-0.076836996 0.032632843 0.53937721 4278255360
-0.076592028 0.032631528 0.5398131 4278255360
-0.076347061 0.032630216 0.54024899 4278255360
-0.076102093 0.032628901 0.54068482 4278255360
-0.075857125 0.03262759 0.54112071 4278255360
-0.075612158 0.032626275 0.5415566 4278255360
-0.07536719 0.032624964 0.54199249 4278255360
-0.075122222 0.032623649 0.54242837 4278255360
-0.074877255 0.032622334 0.54286426 4278255360
-0.074632287 0.032621022 0.54330009 4278255360
-0.074387319 0.032619707 0.54373598 4278255360
-0.074142352 0.032618396 0.54417187 4278255360
-0.073897384 0.032617081 0.54460776 4278255360
-0.073652416 0.03261577 0.54504365 4278255360
-0.073407449 0.032614455 0.54547948 4278255360
-0.073162481 0.032613143 0.54591537 4278255360
-0.072917514 0.032611828 0.54635125 4278255360
