# .PCD v0.7 - Point Cloud Data file format
VERSION 0.7
FIELDS x y z rgb
SIZE 4 4 4 4
TYPE F F F U
COUNT 1 1 1 1
WIDTH 1036
HEIGHT 1
VIEWPOINT 0 0 0 1 0 0 0
POINTS 1036
DATA ascii
0.003369451 0.049198646 0.49200001 4280945158
0.0049674679 0.049198646 0.49200001 4287208076
0.0065654851 0.049198646 0.49200001 4286091648
0.0081469091 0.049098648 0.49100003 4285894015
0.0097416788 0.049098648 0.49100003 4285959808
0.011313358 0.04899865 0.49000001 4283721565
0.012878543 0.048898656 0.48900002 4278915596
0.014437232 0.048798658 0.48800004 4279440400
0.015989425 0.04869866 0.48700002 4279375124
0.01753512 0.048598666 0.48600003 4278719247
0.019113649 0.048598666 0.48600003 4281680185
0.020649601 0.048498664 0.48500001 4280824104
0.022179058 0.04839867 0.48400003 4283390283
0.023751091 0.04839867 0.48400003 4279438340
0.025270801 0.048298672 0.48300001 4281016597
0.02678402 0.048198674 0.48200002 4280556808
0.028290741 0.04809868 0.48100004 4281017613
0.029853029 0.04809868 0.48100004 4282131730
0.031350002 0.047998678 0.48000002 4283573268
0.032840487 0.047898684 0.47900003 4284688406
0.034324467 0.047798686 0.47800002 4285083162
0.035877012 0.047798686 0.47800002 4285014546
0.03742956 0.047798686 0.47800002 4285474072
0.03890055 0.047698688 0.47700003 4285341973
-0.0062186499 0.050797205 0.49200001 4286157702
-0.0046206331 0.050797205 0.49200001 4285951072
-0.003022616 0.050797205 0.49200001 4283312159
-0.0014245992 0.050797205 0.49200001 4283968034
0.00017341759 0.050797205 0.49200001 4282585867
0.0017714344 0.050797205 0.49200001 4282128400
0.003369451 0.050797205 0.49200001 4284039995
0.0049674679 0.050797205 0.49200001 4286091646
0.0065521407 0.050693959 0.49100003 4286288773
0.0081469091 0.050693959 0.49100003 4286091396
0.0097218379 0.050590709 0.49000001 4286749326
0.011313358 0.050590709 0.49000001 4278981136
0.012878543 0.050487466 0.48900002 4279375124
0.014437232 0.05038422 0.48800004 4279177745
0.015989425 0.050280973 0.48700002 4281481270
0.01753512 0.050177727 0.48600003 4283719768
0.019074319 0.05007448 0.48500001 4283852381
0.020649601 0.05007448 0.48500001 4281681729
0.022179058 0.049971234 0.48400003 4278915858
0.023702018 0.049867988 0.48300001 4280626212
0.025218481 0.049764741 0.48200002 4279835408
0.02678402 0.049764741 0.48200002 4280426509
0.028290741 0.049661495 0.48100004 4280162567
0.029790964 0.049558248 0.48000002 4281015564
0.031284694 0.049455002 0.47900003 4283443225
0.032771926 0.049351756 0.47800002 4285409047
0.034324467 0.049351756 0.47800002 4285670936
0.035801958 0.049248509 0.47700003 4288896076
0.037351254 0.049248509 0.47700003 4285342486
0.03890055 0.049248509 0.47700003 4285341203
-0.0078166658 0.052395761 0.49200001 4286157702
-0.0062186499 0.052395761 0.49200001 4286749324
-0.0046206331 0.052395761 0.49200001 4284035114
-0.003022616 0.052395761 0.49200001 4283244313
-0.0014245992 0.052395761 0.49200001 4282915598
0.00017341759 0.052395761 0.49200001 4282651914
0.0017714344 0.052395761 0.49200001 4281931021
0.003369451 0.052395761 0.49200001 4287859069
0.0049674679 0.052395761 0.49200001 4285960060
0.0065521407 0.052289266 0.49100003 4286091648
0.0081469091 0.052289266 0.49100003 4286157187
0.0097218379 0.052182771 0.49000001 4281945154
0.011290271 0.052076276 0.48900002 4282403138
0.012852207 0.051969782 0.48800004 4278718217
0.014407647 0.051863287 0.48700002 4283193937
0.015956592 0.051756792 0.48600003 4282536773
0.01753512 0.051756792 0.48600003 4289443743
0.019074319 0.051650293 0.48500001 4283851602
0.020607024 0.051543798 0.48400003 4288656805
0.022179058 0.051543798 0.48400003 4284840811
0.023702018 0.051437303 0.48300001 4281942587
0.025218481 0.051330809 0.48200002 4280165915
0.026728451 0.051224314 0.48100004 4279769867
0.028231923 0.051117815 0.48000002 4279834631
0.029728901 0.051011324 0.47900003 4280096007
0.031284694 0.051011324 0.47900003 4281933586
0.032771926 0.050904825 0.47800002 4284882708
0.034252662 0.05079833 0.47700003 4285079314
0.035801958 0.05079833 0.47700003 4285210133
0.037272949 0.050691836 0.47600001 4285144340
0.038818996 0.050691836 0.47600001 4284618509
0.040280249 0.050585341 0.47500002 4284224778
-0.0094146831 0.05399432 0.49200001 4286289288
-0.0078166658 0.05399432 0.49200001 4286223493
-0.0062186499 0.05399432 0.49200001 4286416761
-0.0046206331 0.05399432 0.49200001 4285809724
-0.003022616 0.05399432 0.49200001 4285348660
-0.0014245992 0.05399432 0.49200001 4283440917
0.00017341759 0.05399432 0.49200001 4282717453
0.0017714344 0.05399432 0.49200001 4281931533
0.0033626028 0.053884577 0.49100003 4287924860
0.0049573714 0.053884577 0.49100003 4287075459
0.0065521407 0.053884577 0.49100003 4286218869
0.0081303166 0.05377483 0.49000001 4284438608
0.009701997 0.053665087 0.48900002 4279440141
0.011267182 0.053555343 0.48800004 4279574039
0.01282587 0.053445596 0.48700002 4280955690
0.014407647 0.053445596 0.48700002 4281680435
0.015956592 0.053335853 0.48600003 4284310606
0.017499039 0.05322611 0.48500001 4284967507
0.019034991 0.053116366 0.48400003 4282139955
0.020607024 0.053116366 0.48400003 4283721047
0.022133233 0.053006619 0.48300001 4285629044
0.023652947 0.052896876 0.48200002 4279113486
0.025218481 0.052896876 0.48200002 4280100381
0.026728451 0.052787133 0.48100004 4279046662
0.028231923 0.052677386 0.48000002 4279440648
0.029728901 0.052567642 0.47900003 4279636741
0.031219378 0.052457895 0.47800002 4280554761
0.032703366 0.052348152 0.47700003 4284359704
0.034252662 0.052348152 0.47700003 4284621078
0.035726897 0.052238405 0.47600001 4284750867
0.037272949 0.052238405 0.47600001 4284685074
0.038818996 0.052238405 0.47600001 4283700489
0.040280249 0.052128665 0.47500002 4283306503
-0.0110127 0.055592876 0.49200001 4286486667
-0.0094146831 0.055592876 0.49200001 4286355081
-0.0078166658 0.055592876 0.49200001 4287074693
-0.0062186499 0.055592876 0.49200001 4284366905
-0.0046206331 0.055592876 0.49200001 4285082144
-0.003022616 0.055592876 0.49200001 4285082144
-0.0014245992 0.055592876 0.49200001 4284885796
0.00017341759 0.055592876 0.49200001 4282782733
0.0017678339 0.055479884 0.49100003 4281996301
0.0033626028 0.055479884 0.49100003 4282324244
0.0049573714 0.055479884 0.49100003 4283967272
0.0065387962 0.055366889 0.49000001 4284098345
0.0081137242 0.055253897 0.48900002 4283903274
0.009701997 0.055253897 0.48900002 4279961604
0.011267182 0.055140905 0.48800004 4280560673
0.01282587 0.05502791 0.48700002 4282337597
0.014378063 0.054914918 0.48600003 4280757530
0.015923759 0.054801922 0.48500001 4282795818
0.017499039 0.054801922 0.48500001 4282926623
0.019034991 0.054688931 0.48400003 4282269476
0.020564448 0.054575935 0.48300001 4283522900
0.022133233 0.054575935 0.48300001 4279443734
0.023652947 0.054462943 0.48200002 4280561704
0.025166161 0.054349951 0.48100004 4278785293
0.026728451 0.054349951 0.48100004 4279178768
0.028231923 0.054236956 0.48000002 4279506445
0.029728901 0.05412396 0.47900003 4279636489
0.031219378 0.054010965 0.47800002 4280096009
0.032703366 0.053897973 0.47700003 4283111182
0.034252662 0.053897973 0.47700003 4284161812
0.035726897 0.053784978 0.47600001 4285543463
0.037272949 0.053784978 0.47600001 4283702286
0.038818996 0.053784978 0.47600001 4282782985
0.040280249 0.053671986 0.47500002 4282585867
0.041823048 0.053671986 0.47500002 4282391059
-0.0110127 0.057191435 0.49200001 4286355081
-0.0094146831 0.057191435 0.49200001 4286552458
-0.0078166658 0.057191435 0.49200001 4285223499
-0.0062186499 0.057191435 0.49200001 4285543726
-0.0046206331 0.057191435 0.49200001 4290806131
-0.003022616 0.057191435 0.49200001 4286727737
-0.0014217037 0.057075195 0.49100003 4284556316
0.00017306513 0.057075195 0.49100003 4283045389
0.0017678339 0.057075195 0.49100003 4282454797
0.0033626028 0.057075195 0.49100003 4283835423
0.0049472749 0.056958951 0.49000001 4284490271
0.0065387962 0.056958951 0.49000001 4284686880
0.0081137242 0.056842707 0.48900002 4283967007
0.0096821571 0.056726467 0.48800004 4280222720
0.011244093 0.056610223 0.48700002 4281284909
0.012799534 0.056493983 0.48600003 4282074423
0.014348478 0.056377735 0.48500001 4280822807
0.015923759 0.056377735 0.48500001 4281545753
0.017462958 0.056261495 0.48400003 4280952331
0.019034991 0.056261495 0.48400003 4280492550
0.020564448 0.056145251 0.48300001 4282206009
0.022133233 0.056145251 0.48300001 4279311119
0.023652947 0.056029011 0.48200002 4279969567
0.025166161 0.055912767 0.48100004 4281021485
0.026728451 0.055912767 0.48100004 4280100122
0.028231923 0.055796523 0.48000002 4279440652
0.029728901 0.055680282 0.47900003 4279636487
0.031219378 0.055564038 0.47800002 4280490253
0.032703366 0.055447794 0.47700003 4283835675
0.034252662 0.055447794 0.47700003 4283504657
0.035726897 0.055331551 0.47600001 4283177743
0.037272949 0.055331551 0.47600001 4282784012
0.038818996 0.055331551 0.47600001 4282455819
0.040365048 0.055331551 0.47600001 4282389772
0.041823048 0.05521531 0.47500002 4282655258
-0.0110127 0.058789995 0.49200001 4286355081
-0.0094146831 0.058789995 0.49200001 4287340945
-0.0078166658 0.058789995 0.49200001 4284823345
-0.0062186499 0.058789995 0.49200001 4285607721
-0.0046206331 0.058789995 0.49200001 4289883746
-0.0030164726 0.058670502 0.49100003 4285146652
-0.0014217037 0.058670502 0.49100003 4284358167
0.00017306513 0.058670502 0.49100003 4283110669
0.0017678339 0.058670502 0.49100003 4282717453
0.0033626028 0.058670502 0.49100003 4283637526
0.0049472749 0.05855101 0.49000001 4284555287
0.0065254518 0.058431517 0.48900002 4284621080
0.0080971317 0.058312029 0.48800004 4284097564
0.0096821571 0.058312029 0.48800004 4281142535
0.011244093 0.058192536 0.48700002 4282139705
0.012799534 0.058073044 0.48600003 4281679665
0.014348478 0.057953551 0.48500001 4281416484
0.015890928 0.057834059 0.48400003 4281414937
0.017462958 0.057834059 0.48400003 4281677339
0.018995663 0.057714567 0.48300001 4280296456
0.020564448 0.057714567 0.48300001 4281679667
0.022087408 0.057595074 0.48200002 4280034842
0.023652947 0.057595074 0.48200002 4278522119
0.025166161 0.057475585 0.48100004 4279310614
0.026728451 0.057475585 0.48100004 4279177996
0.028231923 0.057356093 0.48000002 4279506186
0.029728901 0.057236601 0.47900003 4279636489
0.031219378 0.057117108 0.47800002 4280819218
0.032703366 0.056997616 0.47700003 4283638809
0.034252662 0.056997616 0.47700003 4283176975
0.035726897 0.056878123 0.47600001 4282784784
0.037272949 0.056878123 0.47600001 4282258953
0.038818996 0.056878123 0.47600001 4282390539
0.040365048 0.056878123 0.47600001 4282851606
-0.0110127 0.06038855 0.49200001 4286486667
-0.0094146831 0.06038855 0.49200001 4287537559
-0.0078166658 0.06038855 0.49200001 4283968808
-0.0062060105 0.060265813 0.49100003 4285082921
-0.0046112416 0.060265813 0.49100003 4285147170
-0.0030164726 0.060265813 0.49100003 4284555287
-0.0014217037 0.060265813 0.49100003 4284030226
0.00017306513 0.060265813 0.49100003 4283833620
0.0017678339 0.060265813 0.49100003 4283111698
0.0033557541 0.060143068 0.49000001 4283374100
0.0049472749 0.060143068 0.49000001 4284161558
0.0065254518 0.060020328 0.48900002 4284358937
0.0080971317 0.05989759 0.48800004 4284031517
0.0096623162 0.059774846 0.48700002 4282325527
0.011221006 0.059652109 0.48600003 4279637779
0.012799534 0.059652109 0.48600003 4279375375
0.014348478 0.059529364 0.48500001 4282337334
0.015890928 0.059406627 0.48400003 4280560151
0.017462958 0.059406627 0.48400003 4281217308
0.018995663 0.059283882 0.48300001 4282205748
0.020564448 0.059283882 0.48300001 4282009400
0.022087408 0.059161142 0.48200002 4280298014
0.023652947 0.059161142 0.48200002 4279376660
0.025166161 0.059038404 0.48100004 4281153071
0.026728451 0.059038404 0.48100004 4279243016
0.028231923 0.05891566 0.48000002 4279702795
0.029728901 0.058792923 0.47900003 4279965452
0.031219378 0.058670178 0.47800002 4280950032
0.032703366 0.058547437 0.47700003 4283507223
0.034252662 0.058547437 0.47700003 4282651914
0.035801958 0.058547437 0.47700003 4281671697
0.037272949 0.058424696 0.47600001 4281277966
0.038818996 0.058424696 0.47600001 4281735437
0.040365048 0.058424696 0.47600001 4281931535
-0.0110127 0.061987113 0.49200001 4286420361
-0.0093955481 0.061861124 0.49100003 4286880912
-0.0078007788 0.061861124 0.49100003 4282921260
-0.0062060105 0.061861124 0.49100003 4284427821
-0.0046112416 0.061861124 0.49100003 4284229409
-0.0030164726 0.061861124 0.49100003 4284163357
-0.0014217037 0.061861124 0.49100003 4283900183
0.00017306513 0.061861124 0.49100003 4283834390
0.0017642335 0.061735131 0.49000001 4283637013
0.0033557541 0.061735131 0.49000001 4283571220
0.0049472749 0.061735131 0.49000001 4283637276
0.0065254518 0.061609145 0.48900002 4283047452
0.0080971317 0.061483156 0.48800004 4282394146
0.0096623162 0.061357163 0.48700002 4282199849
0.011221006 0.061231174 0.48600003 4279046159
0.012773197 0.061105181 0.48500001 4279638296
0.014348478 0.061105181 0.48500001 4278718217
0.015890928 0.060979195 0.48400003 4282468670
0.017462958 0.060979195 0.48400003 4282600765
0.018995663 0.060853202 0.48300001 4281745456
0.020564448 0.060853202 0.48300001 4279838231
0.022133233 0.060853202 0.48300001 4279903772
0.023652947 0.060727213 0.48200002 4282470214
0.025166161 0.060601223 0.48100004 4279903772
0.026728451 0.060601223 0.48100004 4280031247
0.028231923 0.060475234 0.48000002 4280359694
0.029728901 0.060349245 0.47900003 4280293901
0.031219378 0.060223252 0.47800002 4281738265
0.032703366 0.060097262 0.47700003 4283441428
0.034252662 0.060097262 0.47700003 4282522125
0.035801958 0.060097262 0.47700003 4280951056
0.037272949 0.059971273 0.47600001 4280359946
0.038818996 0.059971273 0.47600001 4280686601
0.040365048 0.059971273 0.47600001 4281473550
-0.010990317 0.063456431 0.49100003 4286551947
-0.0093955481 0.063456431 0.49100003 4286288775
-0.0078007788 0.063456431 0.49100003 4286546812
-0.0062060105 0.063456431 0.49100003 4282592813
-0.0046112416 0.063456431 0.49100003 4283771688
-0.0030164726 0.063456431 0.49100003 4283508257
-0.0014217037 0.063456431 0.49100003 4283967772
0.00017306513 0.063456431 0.49100003 4284229661
0.0017642335 0.063327186 0.49000001 4283899413
0.0033557541 0.063327186 0.49000001 4283702034
0.0049371785 0.063197948 0.48900002 4288318589
0.0065254518 0.063197948 0.48900002 4286944127
0.0080971317 0.06306871 0.48800004 4286550144
0.0096623162 0.062939472 0.48700002 4286484351
0.011221006 0.062810235 0.48600003 4286155906
0.012773197 0.06268099 0.48500001 4278850835
0.014348478 0.06268099 0.48500001 4279441689
0.015890928 0.062551752 0.48400003 4279244308
0.017462958 0.062551752 0.48400003 4281875511
0.019034991 0.062551752 0.48400003 4279309584
0.020564448 0.062422514 0.48300001 4280034077
0.022133233 0.062422514 0.48300001 4279968797
0.023652947 0.062293276 0.48200002 4282205757
0.025218481 0.062293276 0.48200002 4279571981
0.026728451 0.062164038 0.48100004 4285089599
0.028231923 0.062034797 0.48000002 4282721049
0.029728901 0.061905559 0.47900003 4282264350
0.031219378 0.061776318 0.47800002 4282656539
0.032703366 0.06164708 0.47700003 4282914573
0.034252662 0.06164708 0.47700003 4282128396
0.035801958 0.06164708 0.47700003 4280425224
0.037351254 0.06164708 0.47700003 4281083667
0.03890055 0.06164708 0.47700003 4281605136
0.04044985 0.06164708 0.47700003 4282064404
-0.0093955481 0.065051742 0.49100003 4286420361
-0.0078007788 0.065051742 0.49100003 4286485384
-0.0062060105 0.065051742 0.49100003 4286614658
-0.0046112416 0.065051742 0.49100003 4282856498
-0.0030164726 0.065051742 0.49100003 4283380012
-0.0014217037 0.065051742 0.49100003 4284036393
0.00017306513 0.065051742 0.49100003 4283574300
0.0017642335 0.064919248 0.49000001 4284161558
0.0033557541 0.064919248 0.49000001 4284489753
0.0049371785 0.064786762 0.48900002 4285354052
0.0065121073 0.064654276 0.48800004 4286811258
0.0080971317 0.064654276 0.48800004 4286353537
0.0096623162 0.06452179 0.48700002 4286222464
0.011221006 0.064389303 0.48600003 4286024831
0.012773197 0.06425681 0.48500001 4286024831
0.014348478 0.06425681 0.48500001 4278916628
0.015890928 0.064124323 0.48400003 4279507995
0.017462958 0.064124323 0.48400003 4280890416
0.019034991 0.064124323 0.48400003 4279179798
0.020564448 0.063991837 0.48300001 4282402372
0.022133233 0.063991837 0.48300001 4279178768
0.023652947 0.063859344 0.48200002 4280225548
0.025166161 0.063726857 0.48100004 4283443493
0.026728451 0.063726857 0.48100004 4286068274
0.028231923 0.063594371 0.48000002 4285412138
0.029728901 0.063461885 0.47900003 4283375635
0.031219378 0.063329391 0.47800002 4283901466
0.032703366 0.063196905 0.47700003 4282586635
0.034252662 0.063196905 0.47700003 4282788377
0.035801958 0.063196905 0.47700003 4281280531
0.037351254 0.063196905 0.47700003 4281083152
0.03890055 0.063196905 0.47700003 4282457361
0.04044985 0.063196905 0.47700003 4282261266
-0.0062060105 0.066647045 0.49100003 4286420361
-0.0046112416 0.066647045 0.49100003 4287535762
-0.0030164726 0.066647045 0.49100003 4282070832
-0.0014217037 0.066647045 0.49100003 4282328094
0.00017306513 0.066647045 0.49100003 4286077264
0.0017642335 0.066511311 0.49000001 4284819488
0.0033557541 0.066511311 0.49000001 4284687386
0.0049371785 0.066375569 0.48900002 4284228380
0.0065121073 0.066239834 0.48800004 4288578427
0.0080805393 0.066104099 0.48700002 4286681730
0.0096623162 0.066104099 0.48700002 4286419330
0.011221006 0.065968364 0.48600003 4286090878
0.012773197 0.065832622 0.48500001 4286090878
0.014348478 0.065832622 0.48500001 4286880140
0.015890928 0.065696888 0.48400003 4284971892
0.017462958 0.065696888 0.48400003 4280826424
0.019034991 0.065696888 0.48400003 4279576357
0.020564448 0.065561146 0.48300001 4280627246
0.022133233 0.065561146 0.48300001 4280623645
0.023652947 0.065425411 0.48200002 4284097823
0.025166161 0.065289676 0.48100004 4284687132
0.026728451 0.065289676 0.48100004 4285079832
0.028231923 0.065153934 0.48000002 4285671969
0.029728901 0.065018199 0.47900003 4285015836
0.031219378 0.064882457 0.47800002 4284226835
0.032703366 0.064746723 0.47700003 4282589199
0.034252662 0.064746723 0.47700003 4281738769
0.035801958 0.064746723 0.47700003 4281280531
0.037351254 0.064746723 0.47700003 4281542419
0.03890055 0.064746723 0.47700003 4282523154
0.04044985 0.064746723 0.47700003 4282328342
-0.0046206331 0.068381347 0.49200001 4286420361
-0.003022616 0.068381347 0.49200001 4287470994
-0.0014217037 0.068242356 0.49100003 4282724397
0.00017271264 0.068103373 0.49000001 4282458910
0.0017642335 0.068103373 0.49000001 4284492833
0.0033489058 0.067964382 0.48900002 4284819488
0.0049371785 0.067964382 0.48900002 4284752666
0.0065121073 0.067825399 0.48800004 4283964181
0.0080805393 0.067686416 0.48700002 4287927940
0.0096424762 0.067547426 0.48600003 4286287224
0.011221006 0.067547426 0.48600003 4286222462
0.012773197 0.067408442 0.48500001 4286090876
0.014348478 0.067408442 0.48500001 4286222464
0.015890928 0.067269452 0.48400003 4286288257
0.017462958 0.067269452 0.48400003 4286024831
0.019034991 0.067269452 0.48400003 4285894015
0.020564448 0.067130469 0.48300001 4286157187
0.022133233 0.067130469 0.48300001 4283060035
0.023652947 0.066991478 0.48200002 4284229150
0.025166161 0.066852495 0.48100004 4284884252
0.026672881 0.066713504 0.48000002 4285474072
0.028231923 0.066713504 0.48000002 4285671451
0.029728901 0.066574521 0.47900003 4285145884
0.031219378 0.066435531 0.47800002 4283898386
0.032703366 0.066296548 0.47700003 4282132500
0.034252662 0.066296548 0.47700003 4281476880
0.035801958 0.066296548 0.47700003 4281476880
0.037351254 0.066296548 0.47700003 4282196240
0.03890055 0.066296548 0.47700003 4282457615
0.04044985 0.066296548 0.47700003 4281868304
-0.0046206331 0.069979906 0.49200001 4286486667
-0.003022616 0.069979906 0.49200001 4286222982
-0.0014217037 0.069837674 0.49100003 4287732369
0.00017271264 0.069695435 0.49000001 4282395943
0.0017642335 0.069695435 0.49000001 4284166698
0.0033489058 0.069553204 0.48900002 4284624167
0.004927082 0.069410965 0.48800004 4285278240
0.0065121073 0.069410965 0.48800004 4285278240
0.0080805393 0.069268726 0.48700002 4284030747
0.0096424762 0.069126494 0.48600003 4288316792
0.011197916 0.068984255 0.48500001 4286156154
0.012773197 0.068984255 0.48500001 4286024572
0.014318894 0.068842024 0.48400003 4286353537
0.015890928 0.068842024 0.48400003 4286287744
0.017462958 0.068842024 0.48400003 4286288257
0.018995663 0.068699785 0.48300001 4286090878
0.020564448 0.068699785 0.48300001 4286222464
0.022087408 0.068557553 0.48200002 4286551429
0.023652947 0.068557553 0.48200002 4283640354
0.025166161 0.068415321 0.48100004 4284686619
0.026672881 0.068273082 0.48000002 4285736477
0.028173108 0.068130843 0.47900003 4285670684
0.029728901 0.068130843 0.47900003 4285079580
0.031219378 0.067988604 0.47800002 4283701007
0.032703366 0.067846373 0.47700003 4282262033
0.034252662 0.067846373 0.47700003 4281672976
0.035801958 0.067846373 0.47700003 4282131215
0.037351254 0.067846373 0.47700003 4282850575
0.03890055 0.067846373 0.47700003 4282458127
0.04044985 0.067846373 0.47700003 4281475343
-0.003022616 0.071578458 0.49200001 4286289288
-0.0014217037 0.071432978 0.49100003 4286288773
0.00017271264 0.07128749 0.49000001 4285825396
0.001760633 0.07114201 0.48900002 4283378213
0.0033489058 0.07114201 0.48900002 4284035114
0.004927082 0.070996523 0.48800004 4285280039
0.0064987629 0.070851035 0.48700002 4285213217
0.0080805393 0.070851035 0.48700002 4285671971
0.0096424762 0.070705555 0.48600003 4285277216
0.011197916 0.070560068 0.48500001 4286604891
0.012773197 0.070560068 0.48500001 4287336062
0.014318894 0.070414588 0.48400003 4286155388
0.015890928 0.070414588 0.48400003 4286221181
0.017462958 0.070414588 0.48400003 4286024572
0.018995663 0.0702691 0.48300001 4286090365
0.020564448 0.0702691 0.48300001 4286024572
0.022087408 0.070123613 0.48200002 4286090363
0.023603875 0.069978133 0.48100004 4288183919
0.025166161 0.069978133 0.48100004 4285215013
0.026672881 0.069832645 0.48000002 4285932316
0.028173108 0.069687165 0.47900003 4285340949
0.029728901 0.069687165 0.47900003 4288963416
0.031219378 0.069541678 0.47800002 4285212445
0.032703366 0.06939619 0.47700003 4284162323
0.034252662 0.06939619 0.47700003 4283375376
0.035801958 0.06939619 0.47700003 4282717959
0.037351254 0.06939619 0.47700003 4283112463
0.03890055 0.06939619 0.47700003 4282197010
0.04044985 0.06939619 0.47700003 4280753675
-0.0014217037 0.073028289 0.49100003 4286288775
0.00017236017 0.072730824 0.48900002 4286682761
0.001760633 0.072730824 0.48900002 4284303940
0.0033420573 0.072582088 0.48800004 4283575592
0.004927082 0.072582088 0.48800004 4287390557
0.0064987629 0.072433352 0.48700002 4285280300
0.0080639469 0.072284624 0.48600003 4285606435
0.0096226353 0.072135888 0.48500001 4285738021
0.011197916 0.072135888 0.48500001 4285738537
0.01274686 0.071987152 0.48400003 4284687650
0.014318894 0.071987152 0.48400003 4285349175
0.015890928 0.071987152 0.48400003 4286537041
0.017426878 0.071838416 0.48300001 4286805348
0.018995663 0.071838416 0.48300001 4286937447
0.020564448 0.071838416 0.48300001 4286409820
0.022087408 0.071689688 0.48200002 4285485377
0.023603875 0.071540952 0.48100004 4286004012
0.025166161 0.071540952 0.48100004 4285934369
0.026672881 0.071392216 0.48000002 4285998109
0.028173108 0.071243487 0.47900003 4285011984
0.029728901 0.071243487 0.47900003 4287976773
0.031219378 0.071094751 0.47800002 4285342486
0.032771926 0.071094751 0.47800002 4284553743
0.034252662 0.070946015 0.47700003 4284029454
0.035801958 0.070946015 0.47700003 4283242766
0.037351254 0.070946015 0.47700003 4282849291
0.03890055 0.070946015 0.47700003 4282132762
0.00017236017 0.074319631 0.48900002 4286354566
0.0017570326 0.074167646 0.48800004 4287666576
0.0033420573 0.074167646 0.48800004 4282462508
0.0049169855 0.074015662 0.48700002 4284560175
0.0064987629 0.074015662 0.48700002 4285280302
0.0080639469 0.073863678 0.48600003 4285539613
0.0096226353 0.073711693 0.48500001 4286065444
0.011197916 0.073711693 0.48500001 4287251776
0.01274686 0.073559716 0.48400003 4286989887
0.014318894 0.073559716 0.48400003 4286066984
0.015890928 0.073559716 0.48400003 4285935141
0.017426878 0.073407732 0.48300001 4285475619
0.018995663 0.073407732 0.48300001 4285607205
0.020521872 0.073255748 0.48200002 4285739561
0.022087408 0.073255748 0.48200002 4285804582
0.023603875 0.073103771 0.48100004 4285343259
0.02511384 0.072951779 0.48000002 4285343002
0.026672881 0.072951779 0.48000002 4285538328
0.028173108 0.072799802 0.47900003 4285472535
0.029728901 0.072799802 0.47900003 4284487693
0.031219378 0.072647817 0.47800002 4284948498
0.032771926 0.072647817 0.47800002 4283963146
0.034252662 0.072495833 0.47700003 4283372807
0.035801958 0.072495833 0.47700003 4283046672
0.037351254 0.072495833 0.47700003 4282587664
0.03890055 0.072495833 0.47700003 4281541658
0.0001720077 0.075753212 0.48800004 4286420361
0.0017570326 0.075753212 0.48800004 4286551945
0.0033352089 0.075597979 0.48700002 4285956980
0.0049169855 0.075597979 0.48700002 4286269762
0.0064854184 0.075442746 0.48600003 4285673516
0.0080639469 0.075442746 0.48600003 4286657581
0.0096226353 0.075287513 0.48500001 4285801502
0.011197916 0.075287513 0.48500001 4285275928
0.01274686 0.075132281 0.48400003 4285211418
0.014318894 0.075132281 0.48400003 4286066984
0.015890928 0.075132281 0.48400003 4285870375
0.017426878 0.074977048 0.48300001 4285870123
0.018995663 0.074977048 0.48300001 4285541928
0.020521872 0.074821822 0.48200002 4284754210
0.022087408 0.074821822 0.48200002 4283901729
0.023603875 0.074666589 0.48100004 4284828226
0.02511384 0.074511357 0.48000002 4283506969
0.026672881 0.074511357 0.48000002 4285014298
0.028173108 0.074356124 0.47900003 4284750867
0.029728901 0.074356124 0.47900003 4284816917
0.031219378 0.074200891 0.47800002 4284093964
0.032771926 0.074200891 0.47800002 4283241223
0.034324467 0.074200891 0.47800002 4282781956
0.035877012 0.074200891 0.47800002 4282455565
0.037351254 0.074045658 0.47700003 4282457363
0.038982101 0.074200891 0.47800002 4280423436
0.00017165522 0.077180289 0.48700002 4286223495
0.001753432 0.077180289 0.48700002 4286157702
0.0033352089 0.077180289 0.48700002 4286945933
0.0049068891 0.077021807 0.48600003 4284429870
0.0064854184 0.077021807 0.48600003 4287188549
0.0080639469 0.077021807 0.48600003 4285671199
0.0096226353 0.076863326 0.48500001 4285276441
0.011197916 0.076863326 0.48500001 4284949273
0.01274686 0.076704845 0.48400003 4283832077
0.014318894 0.076704845 0.48400003 4284429357
0.015890928 0.076704845 0.48400003 4287793274
0.017462958 0.076704845 0.48400003 4287270012
0.018995663 0.076546364 0.48300001 4287533441
0.020564448 0.076546364 0.48300001 4286878082
0.022087408 0.076387882 0.48200002 4286615423
0.023603875 0.076229401 0.48100004 4286221177
0.02511384 0.07607092 0.48000002 4284901210
0.026672881 0.07607092 0.48000002 4283701268
0.028173108 0.075912438 0.47900003 4284095765
0.029728901 0.075912438 0.47900003 4283964946
0.031284694 0.075912438 0.47900003 4283570188
0.032771926 0.075753957 0.47800002 4282913803
0.034324467 0.075753957 0.47800002 4282586121
0.035877012 0.075753957 0.47800002 4282325777
0.03742956 0.075753957 0.47800002 4282195988
0.038982101 0.075753957 0.47800002 4279832585
0.00017165522 0.078762606 0.48700002 4286551947
0.001753432 0.078762606 0.48700002 4286354568
0.0033283604 0.078600876 0.48600003 4286288775
0.0049068891 0.078600876 0.48600003 4284172095
0.0064854184 0.078600876 0.48600003 4284493351
0.0080639469 0.078600876 0.48600003 4284818718
0.0096226353 0.078439139 0.48500001 4284489753
0.011197916 0.078439139 0.48500001 4283964692
0.012773197 0.078439139 0.48500001 4283373841
0.014318894 0.078277417 0.48400003 4281143048
0.015890928 0.078277417 0.48400003 4287794051
0.017462958 0.078277417 0.48400003 4286878082
0.019034991 0.078277417 0.48400003 4286878595
0.020564448 0.078115679 0.48300001 4286681730
0.022087408 0.07795395 0.48200002 4286747009
0.023603875 0.077792227 0.48100004 4286612085
0.025166161 0.077792227 0.48100004 4283119918
0.026672881 0.07763049 0.48000002 4283771940
0.028231923 0.07763049 0.48000002 4283441690
0.029728901 0.07746876 0.47900003 4283309590
0.031284694 0.07746876 0.47900003 4282520588
0.032840487 0.07746876 0.47900003 4282390285
0.034324467 0.077307031 0.47800002 4282522641
0.035877012 0.077307031 0.47800002 4282524440
0.03742956 0.077307031 0.47800002 4282723617
0.0033283604 0.080179937 0.48600003 4286419591
0.0049068891 0.080179937 0.48600003 4286678650
0.0064854184 0.080179937 0.48600003 4284499776
0.0080639469 0.080179937 0.48600003 4284099108
0.0096226353 0.080014952 0.48500001 4283835423
0.011197916 0.080014952 0.48500001 4283441692
0.012773197 0.080014952 0.48500001 4283113497
0.014348478 0.080014952 0.48500001 4282589981
0.015923759 0.080014952 0.48500001 4282393887
0.017499039 0.080014952 0.48500001 4281671709
0.019034991 0.079849973 0.48400003 4281803297
0.020607024 0.079849973 0.48400003 4281540638
0.022133233 0.079684995 0.48300001 4281803556
0.023652947 0.079520017 0.48200002 4281408285
0.025166161 0.079355039 0.48100004 4281802783
0.026672881 0.07919006 0.48000002 4282327322
0.028231923 0.07919006 0.48000002 4284630329
0.029728901 0.079025082 0.47900003 4283378979
0.031284694 0.079025082 0.47900003 4282325777
0.032840487 0.079025082 0.47900003 4282326293
0.034324467 0.078860097 0.47800002 4282327063
0.035877012 0.078860097 0.47800002 4281408787
0.03742956 0.078860097 0.47800002 4279964171
0.0033283604 0.081758998 0.48600003 4286354568
0.0049068891 0.081758998 0.48600003 4286419589
0.0064854184 0.081758998 0.48600003 4284115039
0.0080639469 0.081758998 0.48600003 4283117358
0.0096424762 0.081758998 0.48600003 4283576878
0.011197916 0.081590772 0.48500001 4282721569
0.012773197 0.081590772 0.48500001 4283313706
0.014348478 0.081590772 0.48500001 4283380782
0.015923759 0.081590772 0.48500001 4282328607
0.017499039 0.081590772 0.48500001 4283054647
0.019074319 0.081590772 0.48500001 4284767575
0.020607024 0.081422545 0.48400003 4286613888
0.022133233 0.081254311 0.48300001 4287272588
0.023652947 0.081086084 0.48200002 4286943623
0.025166161 0.080917858 0.48100004 4282205244
0.026672881 0.080749631 0.48000002 4281809200
0.028231923 0.080749631 0.48000002 4281414183
0.029728901 0.080581404 0.47900003 4280819995
0.031284694 0.080581404 0.47900003 4280819480
0.032840487 0.080581404 0.47900003 4280753687
0.0049068891 0.083338059 0.48600003 4286419338
0.0064854184 0.083338059 0.48600003 4286682510
0.0080639469 0.083338059 0.48600003 4287536273
0.0096424762 0.083338059 0.48600003 4284639839
0.011221006 0.083338059 0.48600003 4284176721
0.012799534 0.083338059 0.48600003 4283847754
0.014378063 0.083338059 0.48600003 4284769883
0.015956592 0.083338059 0.48600003 4287206279
0.01753512 0.083338059 0.48600003 4286484099
0.019074319 0.083166584 0.48500001 4286353283
0.020607024 0.082995109 0.48400003 4286484869
0.022179058 0.082995109 0.48400003 4286287490
0.0064854184 0.084917128 0.48600003 4286551177
0.0080639469 0.084917128 0.48600003 4286551177
0.0096424762 0.084917128 0.48600003 4286485384
0.011221006 0.084917128 0.48600003 4286419076
0.012799534 0.084917128 0.48600003 4286484869
0.014378063 0.084917128 0.48600003 4286419076
0.015956592 0.084917128 0.48600003 4286353283
0.01753512 0.084917128 0.48600003 4286090111
0.019113649 0.084917128 0.48600003 4286155904
0.017447054 0.058304243 0.48428464 4294967295
0.017447054 0.058304243 0.48428464 4294901760
0.017447054 0.057804912 0.48431048 4294901760
0.017447054 0.057305578 0.48433635 4294901760
0.017447054 0.056806248 0.48436219 4294901760
0.017447054 0.056306917 0.48438802 4294901760
0.017447054 0.055807587 0.48441386 4294901760
0.017447054 0.055308253 0.48443973 4294901760
0.017447054 0.054808922 0.48446557 4294901760
0.017447054 0.054309592 0.48449141 4294901760
0.017447054 0.053810261 0.48451728 4294901760
0.017447054 0.053310927 0.48454311 4294901760
0.017447054 0.052811597 0.48456895 4294901760
0.017447054 0.052312266 0.48459479 4294901760
0.017447054 0.051812932 0.48462066 4294901760
0.017447054 0.051313601 0.4846465 4294901760
0.017447054 0.050814271 0.48467234 4294901760
0.017447054 0.050314941 0.48469821 4294901760
0.017447054 0.04981561 0.48472404 4294901760
0.017447054 0.049316276 0.48474988 4294901760
0.017447054 0.048816945 0.48477575 4294901760
0.017447054 0.048317611 0.48480159 4294901760
0.017447054 0.047818281 0.48482743 4294901760
0.017447054 0.04731895 0.48485327 4294901760
0.017447054 0.04681962 0.48487914 4294901760
0.017447054 0.046320289 0.48490497 4294901760
0.017447054 0.045820955 0.48493081 4294901760
0.017447054 0.045321625 0.48495668 4294901760
0.017447054 0.044822291 0.48498252 4294901760
0.017447054 0.04432296 0.48500836 4294901760
0.017447054 0.04382363 0.4850342 4294901760
0.017447054 0.043324299 0.48506007 4294901760
0.017447054 0.042824969 0.4850859 4294901760
0.017447054 0.042325638 0.48511174 4294901760
0.017447054 0.041826304 0.48513761 4294901760
0.017447054 0.041326974 0.48516345 4294901760
0.017447054 0.040827639 0.48518929 4294901760
0.017447054 0.040328309 0.48521513 4294901760
0.017447054 0.039828978 0.485241 4294901760
0.017447054 0.039329648 0.48526683 4294901760
0.017447054 0.038830318 0.48529267 4294901760
0.017447054 0.038330983 0.48531854 4294901760
0.017447054 0.037831653 0.48534438 4294901760
0.017447054 0.037332322 0.48537022 4294901760
0.017447054 0.036832988 0.48539606 4294901760
0.017447054 0.036333658 0.48542193 4294901760
0.017447054 0.035834327 0.48544776 4294901760
0.017447054 0.035334997 0.4854736 4294901760
0.017447054 0.034835666 0.48549947 4294901760
0.017447054 0.034336332 0.48552531 4294901760
0.017447054 0.033836998 0.48555115 4294901760
0.017447054 0.033337668 0.48557699 4294901760
0.017447054 0.032838337 0.48560286 4294901760
0.017447054 0.032339007 0.48562869 4294901760
0.017447054 0.031839676 0.48565453 4294901760
0.017447054 0.031340342 0.4856804 4294901760
0.017447054 0.030841012 0.48570624 4294901760
0.017447054 0.030341681 0.48573208 4294901760
0.017447054 0.029842349 0.48575795 4294901760
0.017447054 0.029343018 0.48578379 4294901760
0.017447054 0.028843688 0.48580962 4294901760
0.017447054 0.028344354 0.48583546 4294901760
0.017447054 0.027845023 0.48586133 4294901760
0.017447054 0.027345691 0.48588717 4294901760
0.017447054 0.02684636 0.48591301 4294901760
0.017447054 0.02634703 0.48593888 4294901760
0.017447054 0.025847699 0.48596472 4294901760
0.017447054 0.025348365 0.48599055 4294901760
0.017447054 0.024849035 0.48601639 4294901760
0.017447054 0.024349704 0.48604226 4294901760
0.017447054 0.02385037 0.4860681 4294901760
0.017447054 0.02335104 0.48609394 4294901760
0.017447054 0.022851709 0.48611981 4294901760
0.017447054 0.022352375 0.48614565 4294901760
0.017447054 0.021853045 0.48617148 4294901760
0.017447054 0.021353714 0.48619732 4294901760
0.017447054 0.020854384 0.48622319 4294901760
0.017447054 0.020355053 0.48624903 4294901760
0.017447054 0.019855719 0.48627487 4294901760
0.017447054 0.019356389 0.48630074 4294901760
0.017447054 0.018857054 0.48632658 4294901760
0.017447054 0.018357724 0.48635241 4294901760
0.017447054 0.017858393 0.48637825 4294901760
0.017447054 0.017359063 0.48640412 4294901760
0.017447054 0.016859733 0.48642996 4294901760
0.017447054 0.016360402 0.4864558 4294901760
0.017447054 0.015861068 0.48648167 4294901760
0.017447054 0.015361737 0.48650751 4294901760
0.017447054 0.014862403 0.48653334 4294901760
0.017447054 0.014363073 0.48655921 4294901760
0.017447054 0.013863742 0.48658505 4294901760
0.017447054 0.013364412 0.48661089 4294901760
0.017447054 0.012865078 0.48663673 4294901760
0.017447054 0.012365747 0.4866626 4294901760
0.017447054 0.011866417 0.48668844 4294901760
0.017447054 0.011367086 0.48671427 4294901760
0.017447054 0.010867756 0.48674014 4294901760
0.017447054 0.010368422 0.48676598 4294901760
0.017447054 0.0098690875 0.48679182 4294901760
0.017447054 0.009369757 0.48681766 4294901760
0.017447054 0.0088704266 0.48684353 4294901760
0.017447054 0.0083710961 0.48686936 4294901760
0.017447054 0.058304243 0.48428464 4278255360
0.017923288 0.058296368 0.48413253 4278255360
0.018399522 0.058288496 0.48398042 4278255360
0.018875755 0.058280621 0.48382828 4278255360
0.019351989 0.058272745 0.48367617 4278255360
0.019828223 0.058264874 0.48352405 4278255360
0.020304456 0.058256999 0.48337194 4278255360
0.02078069 0.058249123 0.48321983 4278255360
0.021256924 0.058241248 0.48306769 4278255360
0.021733157 0.058233377 0.48291558 4278255360
0.022209391 0.058225501 0.48276347 4278255360
0.022685625 0.058217626 0.48261136 4278255360
0.023161858 0.058209755 0.48245925 4278255360
0.023638092 0.058201879 0.48230714 4278255360
0.024114326 0.058194004 0.482155 4278255360
0.024590559 0.058186132 0.48200288 4278255360
0.025066793 0.058178257 0.48185077 4278255360
0.025543027 0.058170382 0.48169866 4278255360
0.02601926 0.05816251 0.48154655 4278255360
0.026495494 0.058154635 0.48139441 4278255360
0.026971728 0.05814676 0.4812423 4278255360
0.027447961 0.058138888 0.48109019 4278255360
0.027924195 0.058131013 0.48093808 4278255360
0.028400429 0.058123138 0.48078597 4278255360
0.028876662 0.058115263 0.48063383 4278255360
0.029352896 0.058107391 0.48048171 4278255360
0.02982913 0.058099516 0.4803296 4278255360
0.030305363 0.05809164 0.48017749 4278255360
0.030781597 0.058083769 0.48002538 4278255360
0.031257831 0.058075894 0.47987324 4278255360
0.031734064 0.058068018 0.47972113 4278255360
0.032210298 0.058060147 0.47956902 4278255360
0.032686532 0.058052272 0.47941691 4278255360
0.033162765 0.058044396 0.4792648 4278255360
0.033638999 0.058036525 0.47911268 4278255360
0.034115233 0.05802865 0.47896054 4278255360
0.034591466 0.058020774 0.47880843 4278255360
0.0350677 0.058012899 0.47865632 4278255360
0.035543934 0.058005027 0.47850421 4278255360
0.036020167 0.057997152 0.4783521 4278255360
0.036496401 0.057989277 0.47819996 4278255360
0.036972634 0.057981405 0.47804785 4278255360
0.037448868 0.05797353 0.47789574 4278255360
0.037925102 0.057965655 0.47774363 4278255360
0.038401335 0.057957783 0.47759151 4278255360
0.038877569 0.057949908 0.47743937 4278255360
0.039353803 0.057942033 0.47728726 4278255360
0.039830036 0.057934161 0.47713515 4278255360
0.04030627 0.057926286 0.47698304 4278255360
0.040782504 0.057918411 0.47683093 4278255360
0.041258737 0.057910539 0.47667879 4278255360
0.041734971 0.057902664 0.47652668 4278255360
0.042211205 0.057894789 0.47637457 4278255360
0.042687438 0.057886913 0.47622246 4278255360
0.043163672 0.057879042 0.47607034 4278255360
0.043639906 0.057871167 0.47591823 4278255360
0.044116139 0.057863291 0.47576609 4278255360
0.044592373 0.05785542 0.47561398 4278255360
0.045068607 0.057847545 0.47546187 4278255360
0.04554484 0.057839669 0.47530976 4278255360
0.046021074 0.057831798 0.47515765 4278255360
0.046497308 0.057823922 0.47500551 4278255360
0.046973541 0.057816047 0.4748534 4278255360
0.047449775 0.057808176 0.47470129 4278255360
0.047926009 0.0578003 0.47454917 4278255360
0.048402242 0.057792425 0.47439706 4278255360
0.048878476 0.05778455 0.47424492 4278255360
0.04935471 0.057776678 0.47409281 4278255360
0.049830943 0.057768803 0.4739407 4278255360
0.050307177 0.057760928 0.47378859 4278255360
0.050783411 0.057753056 0.47363648 4278255360
0.051259644 0.057745181 0.47348437 4278255360
0.051735878 0.057737306 0.47333223 4278255360
0.052212112 0.057729434 0.47318012 4278255360
0.052688345 0.057721559 0.473028 4278255360
0.053164579 0.057713684 0.47287589 4278255360
0.053640813 0.057705812 0.47272378 4278255360
0.054117046 0.057697937 0.47257164 4278255360
0.05459328 0.057690062 0.47241953 4278255360
0.055069514 0.057682186 0.47226742 4278255360
0.055545747 0.057674315 0.47211531 4278255360
0.056021981 0.05766644 0.4719632 4278255360
0.056498215 0.057658564 0.47181106 4278255360
0.056974448 0.057650693 0.47165895 4278255360
0.057450682 0.057642817 0.47150683 4278255360
0.057926916 0.057634942 0.47135472 4278255360
0.058403149 0.057627071 0.47120261 4278255360
0.058879383 0.057619195 0.47105047 4278255360
0.059355617 0.05761132 0.47089836 4278255360
0.05983185 0.057603449 0.47074625 4278255360
0.060308084 0.057595573 0.47059414 4278255360
0.060784318 0.057587698 0.47044203 4278255360
0.061260551 0.057579827 0.47028989 4278255360
0.061736785 0.057571951 0.47013777 4278255360
0.062213019 0.057564076 0.46998566 4278255360
0.062689252 0.057556201 0.46983355 4278255360
0.063165486 0.057548329 0.46968144 4278255360
0.06364172 0.057540454 0.46952933 4278255360
0.064117953 0.057532579 0.46937719 4278255360
0.064594187 0.057524707 0.46922508 4278255360
0.065070421 0.057516832 0.46907297 4278255360
0.017447054 0.058304243 0.48428464 4278190335
0.017599374 0.058328863 0.48476022 4278190335
0.017751696 0.05835348 0.48523584 4278190335
0.017904015 0.0583781 0.48571143 4278190335
0.018056337 0.058402717 0.48618704 4278190335
0.018208656 0.058427338 0.48666263 4278190335
0.018360978 0.058451954 0.48713821 4278190335
0.018513298 0.058476575 0.48761383 4278190335
0.018665619 0.058501191 0.48808941 4278190335
0.018817939 0.058525812 0.488565 4278190335
0.018970259 0.058550429 0.48904061 4278190335
0.01912258 0.058575049 0.4895162 4278190335
0.0192749 0.058599666 0.48999181 4278190335
0.019427221 0.058624286 0.4904674 4278190335
0.019579541 0.058648903 0.49094298 4278190335
0.019731862 0.058673523 0.4914186 4278190335
0.019884182 0.05869814 0.49189419 4278190335
0.020036504 0.058722761 0.49236977 4278190335
0.020188823 0.058747377 0.49284539 4278190335
0.020341143 0.058771998 0.49332097 4278190335
0.020493465 0.058796614 0.49379659 4278190335
0.020645784 0.058821235 0.49427217 4278190335
0.020798106 0.058845852 0.49474776 4278190335
0.020950425 0.058870472 0.49522337 4278190335
0.021102745 0.058895089 0.49569896 4278190335
0.021255067 0.058919709 0.49617457 4278190335
0.021407386 0.058944326 0.49665016 4278190335
0.021559708 0.058968946 0.49712574 4278190335
0.021712027 0.058993563 0.49760136 4278190335
0.021864349 0.059018183 0.49807695 4278190335
0.022016669 0.0590428 0.49855253 4278190335
0.02216899 0.059067421 0.49902815 4278190335
0.02232131 0.059092037 0.49950373 4278190335
0.022473631 0.059116658 0.49997935 4278190335
0.022625951 0.059141275 0.5004549 4278190335
0.022778271 0.059165895 0.50093055 4278190335
0.022930592 0.059190512 0.50140613 4278190335
0.023082912 0.059215132 0.50188172 4278190335
0.023235234 0.059239749 0.5023573 4278190335
0.023387553 0.059264369 0.50283289 4278190335
0.023539875 0.059288986 0.50330853 4278190335
0.023692194 0.059313606 0.50378412 4278190335
0.023844514 0.059338223 0.50425971 4278190335
0.023996836 0.059362844 0.50473529 4278190335
0.024149155 0.05938746 0.50521088 4278190335
0.024301477 0.059412081 0.50568652 4278190335
0.024453796 0.059436698 0.50616211 4278190335
0.024606118 0.059461318 0.50663769 4278190335
0.024758438 0.059485935 0.50711328 4278190335
0.024910759 0.059510555 0.50758886 4278190335
0.025063079 0.059535176 0.50806451 4278190335
0.025215399 0.059559792 0.50854009 4278190335
0.025367718 0.059584409 0.50901568 4278190335
0.02552004 0.059609029 0.50949126 4278190335
0.025672361 0.05963365 0.50996685 4278190335
0.025824681 0.059658267 0.51044244 4278190335
0.025977001 0.059682887 0.51091808 4278190335
0.026129322 0.059707504 0.51139367 4278190335
0.026281644 0.059732124 0.51186925 4278190335
0.026433963 0.059756741 0.51234484 4278190335
0.026586283 0.059781361 0.51282042 4278190335
0.026738605 0.059805978 0.51329607 4278190335
0.026890926 0.059830599 0.51377165 4278190335
0.027043246 0.059855215 0.51424724 4278190335
0.027195565 0.059879836 0.51472282 4278190335
0.027347885 0.059904452 0.51519841 4278190335
0.027500208 0.059929073 0.51567405 4278190335
0.027652528 0.05995369 0.51614964 4278190335
0.027804848 0.05997831 0.51662523 4278190335
0.027957167 0.060002927 0.51710081 4278190335
0.028109487 0.060027547 0.5175764 4278190335
0.028261809 0.060052164 0.51805198 4278190335
0.02841413 0.060076784 0.51852763 4278190335
0.02856645 0.060101401 0.51900321 4278190335
0.02871877 0.060126022 0.5194788 4278190335
0.028871091 0.060150638 0.51995438 4278190335
0.029023413 0.060175259 0.52042997 4278190335
0.029175732 0.060199875 0.52090561 4278190335
0.029328052 0.060224496 0.5213812 4278190335
0.029480373 0.060249113 0.52185678 4278190335
0.029632695 0.060273733 0.52233237 4278190335
0.029785015 0.06029835 0.52280796 4278190335
0.029937334 0.06032297 0.5232836 4278190335
0.030089654 0.060347587 0.52375919 4278190335
0.030241974 0.060372207 0.52423477 4278190335
0.030394297 0.060396824 0.52471036 4278190335
0.030546617 0.060421444 0.52518594 4278190335
0.030698936 0.060446061 0.52566159 4278190335
0.030851256 0.060470682 0.52613717 4278190335
0.031003578 0.060495298 0.52661276 4278190335
0.031155899 0.060519919 0.52708834 4278190335
0.031308219 0.060544536 0.52756393 4278190335
0.031460539 0.060569156 0.52803957 4278190335
0.031612858 0.060593773 0.52851516 4278190335
0.031765182 0.060618393 0.52899075 4278190335
0.031917501 0.06064301 0.52946633 4278190335
0.032069821 0.06066763 0.52994192 4278190335
0.032222144 0.060692251 0.5304175 4278190335
0.032374464 0.060716867 0.53089315 4278190335
0.032526784 0.060741484 0.53136873 4278190335
0.032679103 0.060766105 0.53184432 4278190335
0.017447054 0.058304243 0.48428464 4294967295
0.017142413 0.058255006 0.48333344 4294967295
0.016837772 0.058205768 0.48238224 4294967295
0.016533131 0.058156531 0.48143107 4294967295
0.01622849 0.058107294 0.48047987 4294967295
0.015923848 0.058058057 0.47952867 4294967295
0.015619208 0.05800882 0.47857746 4294967295
0.015314567 0.057959583 0.47762629 4294967295
0.015009927 0.057910345 0.47667509 4294967295
0.014705285 0.057861108 0.47572389 4294967295
0.014400644 0.057811871 0.47477269 4294967295
0.014096003 0.057762634 0.47382152 4294967295
0.013791362 0.057713397 0.47287032 4294967295
0.013486721 0.05766416 0.47191912 4294967295
0.013182079 0.057614923 0.47096792 4294967295
0.012877438 0.057565685 0.47001672 4294967295
0.012572798 0.057516448 0.46906555 4294967295
0.012268157 0.057467211 0.46811435 4294967295
0.011963516 0.057417974 0.46716315 4294967295
0.011658875 0.057368737 0.46621194 4294967295
0.011354234 0.0573195 0.46526077 4294967295
0.011049593 0.057270262 0.46430957 4294967295
0.010744952 0.057221025 0.46335837 4294967295
0.01044031 0.057171788 0.46240717 4294967295
0.010135669 0.057122551 0.461456 4294967295
0.0098310281 0.05707331 0.4605048 4294967295
0.0095263878 0.057024077 0.4595536 4294967295
0.0092217466 0.056974836 0.4586024 4294967295
0.0089171054 0.056925599 0.4576512 4294967295
0.0086124642 0.056876361 0.45670003 4294967295
0.008307823 0.056827124 0.45574883 4294967295
0.0080031827 0.056777887 0.45479763 4294967295
0.0076985415 0.05672865 0.45384642 4294967295
0.0073939003 0.056679413 0.45289522 4294967295
0.0070892591 0.056630176 0.45194405 4294967295
0.0067846179 0.056580938 0.45099285 4294967295
0.0064799767 0.056531701 0.45004165 4294967295
0.0061753364 0.056482464 0.44909048 4294967295
0.0058706952 0.056433227 0.44813928 4294967295
0.005566054 0.05638399 0.44718808 4294967295
0.0052614128 0.056334753 0.44623688 4294967295
0.0049567716 0.056285515 0.44528568 4294967295
0.0046521313 0.056236278 0.44433451 4294967295
0.0043474901 0.056187041 0.44338331 4294967295
0.0040428489 0.056137804 0.44243211 4294967295
0.0037382077 0.056088567 0.4414809 4294967295
0.0034335665 0.05603933 0.4405297 4294967295
0.0031289253 0.055990092 0.43957853 4294967295
0.0028242851 0.055940855 0.43862733 4294967295
0.0025196439 0.055891618 0.43767613 4294967295
0.0022150027 0.055842381 0.43672496 4294967295
0.0019103615 0.055793144 0.43577376 4294967295
0.0016057212 0.055743907 0.43482256 4294967295
0.00130108 0.055694669 0.43387136 4294967295
0.00099643879 0.055645432 0.43292016 4294967295
0.00069179758 0.055596195 0.43196899 4294967295
0.00038715638 0.055546958 0.43101779 4294967295
8.251518e-05 0.055497721 0.43006659 4294967295
-0.00022212602 0.055448484 0.42911538 4294967295
-0.00052676536 0.055399247 0.42816421 4294967295
