# .PCD v0.7 - Point Cloud Data file format
VERSION 0.7
FIELDS x y z rgb
SIZE 4 4 4 4
TYPE F F F U
COUNT 1 1 1 1
WIDTH 934
HEIGHT 1
VIEWPOINT 0 0 0 1 0 0 0
POINTS 934
DATA ascii
-0.042412139 0.0061616744 0.39700001 4285240962
-0.041122679 0.0061616744 0.39700001 4286293650
-0.048982497 0.0074703381 0.39800003 4282536771
-0.047689788 0.0074703381 0.39800003 4282470980
-0.046397086 0.0074703381 0.39800003 4282274371
-0.045104381 0.0074703381 0.39800003 4282208574
-0.043811675 0.0074703381 0.39800003 4282077501
-0.042518973 0.0074703381 0.39800003 4281552956
-0.041226264 0.0074703381 0.39800003 4281158970
-0.039933562 0.0074703381 0.39800003 4280568114
-0.038640857 0.0074703381 0.39800003 4281952329
-0.037348151 0.0074703381 0.39800003 4280509244
-0.036055449 0.0074703381 0.39800003 4281167946
-0.050401516 0.0087854993 0.39900002 4281880126
-0.049105566 0.0087854993 0.39900002 4281813820
-0.047809612 0.0087854993 0.39900002 4282207806
-0.046513662 0.0087854993 0.39900002 4282010427
-0.045217704 0.0087854993 0.39900002 4282471230
-0.042518973 0.0087634809 0.39800003 4281813816
-0.041226264 0.0087634809 0.39800003 4281945404
-0.039933562 0.0087634809 0.39800003 4282406466
-0.038640857 0.0087634809 0.39800003 4280896559
-0.037348151 0.0087634809 0.39800003 4279984947
-0.036055449 0.0087634809 0.39800003 4278407968
-0.034850083 0.0087854993 0.39900002 4279790650
-0.031117426 0.0088295368 0.40100002 4281035329
-0.029814979 0.0088295368 0.40100002 4280641348
-0.052993421 0.010081891 0.39900002 4281683513
-0.050527837 0.010107159 0.40000001 4281814331
-0.049228635 0.010107159 0.40000001 4281616439
-0.047929432 0.010107159 0.40000001 4281484081
-0.046630234 0.010107159 0.40000001 4281549874
-0.045217704 0.010081891 0.39900002 4281286956
-0.042518973 0.010056623 0.39800003 4281615667
-0.041226264 0.010056623 0.39800003 4281878839
-0.039933562 0.010056623 0.39800003 4281287726
-0.038640857 0.010056623 0.39800003 4280762665
-0.037348151 0.010056623 0.39800003 4279455010
-0.036146037 0.010081891 0.39900002 4279325990
-0.034850083 0.010081891 0.39900002 4278670370
-0.033638228 0.010107159 0.40000001 4278802726
-0.032419875 0.010132426 0.40100002 4278276382
-0.031117426 0.010132426 0.40100002 4280446783
-0.029814979 0.010132426 0.40100002 4283605365
-0.028583631 0.010157694 0.40200001 4280119365
-0.027345791 0.010182963 0.40300003 4280250951
-0.026036849 0.010182963 0.40300003 4280579916
-0.024789261 0.01020823 0.40400001 4280053057
-0.023535181 0.010233498 0.40500003 4280316229
-0.022274604 0.010258766 0.40600002 4279920959
-0.02100753 0.010284034 0.40700001 4280051773
-0.019685593 0.010284034 0.40700001 4280576834
-0.018408775 0.010309302 0.40800002 4280707647
-0.053745121 0.011264214 0.39500001 4281549101
-0.053126235 0.0114068 0.40000001 4285564523
-0.05182704 0.0114068 0.40000001 4282143548
-0.050654158 0.011435317 0.40100002 4281616950
-0.049351711 0.011435317 0.40100002 4281222194
-0.04804926 0.011435317 0.40100002 4281287726
-0.046746813 0.011435317 0.40100002 4281024554
-0.045331031 0.0114068 0.40000001 4281221933
-0.043921754 0.011378283 0.39900002 4282207544
-0.042625804 0.011378283 0.39900002 4282207029
-0.041226264 0.011349767 0.39800003 4281549099
-0.039933562 0.011349767 0.39800003 4281352749
-0.038640857 0.011349767 0.39800003 4280695848
-0.037348151 0.011349767 0.39800003 4280045867
-0.036146037 0.011378283 0.39900002 4279455012
-0.034850083 0.011378283 0.39900002 4279193888
-0.033638228 0.0114068 0.40000001 4279326244
-0.032419875 0.011435317 0.40100002 4279130662
-0.031117426 0.011435317 0.40100002 4279198252
-0.02988933 0.011463834 0.40200001 4279264304
-0.028583631 0.011463834 0.40200001 4279462966
-0.027345791 0.011492351 0.40300003 4279661115
-0.026101455 0.011520868 0.40400001 4279200564
-0.024850622 0.011549385 0.40500003 4279134771
-0.023535181 0.011549385 0.40500003 4279594552
-0.022274604 0.011577902 0.40600002 4279594293
-0.02100753 0.011606419 0.40700001 4279462707
-0.019733962 0.011634936 0.40800002 4279265328
-0.018408775 0.011634936 0.40800002 4279331121
-0.017083593 0.011634936 0.40800002 4279067179
-0.053745121 0.01254761 0.39500001 4282928426
-0.053259052 0.012738207 0.40100002 4282404140
-0.051956609 0.012738207 0.40100002 4282076720
-0.050780475 0.012769973 0.40200001 4281353519
-0.04947478 0.012769973 0.40200001 4281419058
-0.04816908 0.012769973 0.40200001 4280761128
-0.046746813 0.012738207 0.40100002 4280958507
-0.045444362 0.012738207 0.40100002 4281155886
-0.044031832 0.012706441 0.40000001 4282339128
-0.042625804 0.012674675 0.39900002 4282469168
-0.041226264 0.01264291 0.39800003 4281021724
-0.039933562 0.01264291 0.39800003 4281286956
-0.038640857 0.01264291 0.39800003 4280565286
-0.037348151 0.01264291 0.39800003 4279650596
-0.036146037 0.012674675 0.39900002 4280047149
-0.034850083 0.012674675 0.39900002 4279192351
-0.033638228 0.012706441 0.40000001 4279587361
-0.032419875 0.012738207 0.40100002 4279261217
-0.031117426 0.012738207 0.40100002 4279328552
-0.02988933 0.012769973 0.40200001 4279132972
-0.028654736 0.012801739 0.40300003 4278936363
-0.027345791 0.012801739 0.40300003 4279594039
-0.026101455 0.012833506 0.40400001 4279331121
-0.024850622 0.012865272 0.40500003 4278936876
-0.023593292 0.012897038 0.40600002 4279265841
-0.022329466 0.012928803 0.40700001 4279133742
-0.021059146 0.01296057 0.40800002 4279922488
-0.019782327 0.012992335 0.40900001 4279396142
-0.018453894 0.012992335 0.40900001 4279265326
-0.017125463 0.012992335 0.40900001 4279528498
-0.01579703 0.012992335 0.40900001 4279331373
-0.053391866 0.014076112 0.40200001 4282403111
-0.052086174 0.014076112 0.40200001 4282141738
-0.050780475 0.014076112 0.40200001 4281286956
-0.04947478 0.014076112 0.40200001 4280761128
-0.04816908 0.014076112 0.40200001 4280892716
-0.046746813 0.014041097 0.40100002 4280892716
-0.045444362 0.014041097 0.40100002 4280958509
-0.044031832 0.014006081 0.40000001 4282010165
-0.042625804 0.013971067 0.39900002 4282602041
-0.041226264 0.013936052 0.39800003 4281220386
-0.039933562 0.013936052 0.39800003 4281024552
-0.038640857 0.013936052 0.39800003 4280565284
-0.037348151 0.013936052 0.39800003 4279650596
-0.036146037 0.013971067 0.39900002 4279388707
-0.034850083 0.013971067 0.39900002 4279193121
-0.033638228 0.014006081 0.40000001 4279653926
-0.032419875 0.014041097 0.40100002 4279260963
-0.031117426 0.014041097 0.40100002 4279591211
-0.02988933 0.014076112 0.40200001 4279066664
-0.028654736 0.014111128 0.40300003 4279067177
-0.027413648 0.014146143 0.40400001 4279396660
-0.026101455 0.014146143 0.40400001 4278804523
-0.024850622 0.014181159 0.40500003 4278870570
-0.023651402 0.014251187 0.40700001 4278410019
-0.022384331 0.014286203 0.40800002 4279395117
-0.02111076 0.014321218 0.40900001 4278867488
-0.019830696 0.014356234 0.41000003 4279724080
-0.018544134 0.014391249 0.41100001 4279264043
-0.017125463 0.014321218 0.40900001 4279066918
-0.01579703 0.014321218 0.40900001 4279132711
-0.053391866 0.015382251 0.40200001 4282731304
-0.052086174 0.015382251 0.40200001 4282140455
-0.050780475 0.015382251 0.40200001 4281286956
-0.04947478 0.015382251 0.40200001 4280826151
-0.04816908 0.015382251 0.40200001 4280826923
-0.046746813 0.015343987 0.40100002 4280695339
-0.045444362 0.015343987 0.40100002 4280958509
-0.044031832 0.015305722 0.40000001 4281484081
-0.042625804 0.015267458 0.39900002 4281155368
-0.041226264 0.015229194 0.39800003 4281483819
-0.039933562 0.015229194 0.39800003 4281023782
-0.038640857 0.015229194 0.39800003 4280697383
-0.037348151 0.015229194 0.39800003 4279519010
-0.036146037 0.015267458 0.39900002 4279191840
-0.034850083 0.015267458 0.39900002 4279193375
-0.033638228 0.015305722 0.40000001 4279522853
-0.032419875 0.015343987 0.40100002 4279524137
-0.031195026 0.015382251 0.40200001 4279590441
-0.02988933 0.015382251 0.40200001 4279328552
-0.028654736 0.015420516 0.40300003 4279789103
-0.027413648 0.015458779 0.40400001 4279724594
-0.026166065 0.015497045 0.40500003 4279132457
-0.024911981 0.015535308 0.40600002 4279329836
-0.023651402 0.015573572 0.40700001 4278868771
-0.022439193 0.015650101 0.40900001 4278735652
-0.021162378 0.015688365 0.41000003 4278734367
-0.019927431 0.015764894 0.41200003 4279263529
-0.018634373 0.015803158 0.41300002 4279198250
-0.017627923 0.016109273 0.42100003 4279264043
-0.01633776 0.016185801 0.42300001 4278869285
-0.053391866 0.01668839 0.40200001 4283389234
-0.051956609 0.016646877 0.40100002 4282468904
-0.050654158 0.016646877 0.40100002 4281220647
-0.04947478 0.01668839 0.40200001 4281418542
-0.04816908 0.01668839 0.40200001 4280958507
-0.046746813 0.016646877 0.40100002 4280826923
-0.045331031 0.016605362 0.40000001 4281549874
-0.043921754 0.01656385 0.39900002 4281549614
-0.042625804 0.01656385 0.39900002 4281680939
-0.041226264 0.016522337 0.39800003 4281351974
-0.039933562 0.016522337 0.39800003 4281156138
-0.038640857 0.016522337 0.39800003 4280040739
-0.037348151 0.016522337 0.39800003 4279388705
-0.036146037 0.01656385 0.39900002 4279521318
-0.034850083 0.01656385 0.39900002 4279456293
-0.033638228 0.016605362 0.40000001 4279325220
-0.032419875 0.016646877 0.40100002 4279392551
-0.031195026 0.01668839 0.40200001 4278735134
-0.029963681 0.016729904 0.40300003 4279460140
-0.028654736 0.016729904 0.40300003 4279855668
-0.027413648 0.016771417 0.40400001 4279264045
-0.026166065 0.01681293 0.40500003 4279329838
-0.024973338 0.016895955 0.40700001 4279131945
-0.023709515 0.01693747 0.40800002 4279329322
-0.022494059 0.017020497 0.41000003 4279393580
-0.021265609 0.017103525 0.41200003 4279129638
-0.020024167 0.017186552 0.41400003 4278201089
-0.018724613 0.017228065 0.41500002 4278201607
-0.017627923 0.017477145 0.42100003 4278201611
-0.01633776 0.017560171 0.42300001 4278202382
-0.015069982 0.017684711 0.42600003 4278202380
-0.013750589 0.017767739 0.42800003 4278468632
-0.012418202 0.017850764 0.43000001 4278272282
-0.011047194 0.017892279 0.43100002 4278667040
-0.0096696885 0.017933792 0.43200001 4279522601
-0.05182704 0.017905002 0.40000001 4284443473
-0.050654158 0.017949766 0.40100002 4281615407
-0.049351711 0.017949766 0.40100002 4281483567
-0.04804926 0.017949766 0.40100002 4281813046
-0.046746813 0.017949766 0.40100002 4281747253
-0.045331031 0.017905002 0.40000001 4281746739
-0.043921754 0.017860241 0.39900002 4281681198
-0.042625804 0.017860241 0.39900002 4281286440
-0.041226264 0.01781548 0.39800003 4281089061
-0.039933562 0.01781548 0.39800003 4280761893
-0.038640857 0.01781548 0.39800003 4279779361
-0.037441991 0.017860241 0.39900002 4279060767
-0.036146037 0.017860241 0.39900002 4279193121
-0.034937426 0.017905002 0.40000001 4279391013
-0.033722326 0.017949766 0.40100002 4279325990
-0.032419875 0.017949766 0.40100002 4279655723
-0.031195026 0.017994529 0.40200001 4278998306
-0.029963681 0.018039292 0.40300003 4279525933
-0.028725838 0.018084053 0.40400001 4279461424
-0.027481504 0.018128816 0.40500003 4279198252
-0.026230671 0.018173579 0.40600002 4279264045
-0.024973338 0.01821834 0.40700001 4279264045
-0.023767626 0.018307867 0.40900001 4279526963
-0.022548921 0.018397391 0.41100001 4278201088
-0.021317223 0.018486917 0.41300002 4280639799
-0.020072535 0.018576441 0.41500002 4278857494
-0.018814852 0.018665968 0.41700003 4278723857
-0.017627923 0.018845016 0.42100003 4279249689
-0.016376384 0.018979304 0.42400002 4279183383
-0.015069982 0.01906883 0.42600003 4278199307
-0.013782715 0.019203117 0.42900002 4280571957
-0.012418202 0.019247878 0.43000001 4279851055
-0.011072825 0.019337403 0.43200001 4279982641
-0.0096920719 0.019382168 0.43300003 4280706364
-0.0083239581 0.019471692 0.43500003 4280311606
-0.0069269645 0.019516453 0.43600002 4279522090
-0.0055234754 0.019561216 0.43700001 4279785521
-0.050527837 0.019204644 0.40000001 4282075704
-0.049228635 0.019204644 0.40000001 4281878325
-0.047929432 0.019204644 0.40000001 4282339130
-0.046630234 0.019204644 0.40000001 4282405437
-0.045331031 0.019204644 0.40000001 4282602816
-0.044031832 0.019204644 0.40000001 4281418026
-0.042625804 0.019156635 0.39900002 4281286440
-0.04132985 0.019156635 0.39900002 4281220647
-0.040033896 0.019156635 0.39900002 4279907354
-0.038737942 0.019156635 0.39900002 4279780899
-0.037441991 0.019156635 0.39900002 4278600986
-0.036236629 0.019204644 0.40000001 4279193123
-0.034937426 0.019204644 0.40000001 4279062048
-0.033722326 0.019252658 0.40100002 4279523623
-0.032500722 0.019300669 0.40200001 4279327271
-0.031195026 0.019300669 0.40200001 4279327269
-0.029963681 0.019348681 0.40300003 4279591978
-0.028725838 0.019396693 0.40400001 4279461162
-0.027481504 0.019444704 0.40500003 4278868771
-0.026230671 0.019492716 0.40600002 4279131943
-0.0250347 0.019588739 0.40800002 4279264045
-0.023825739 0.019684762 0.41000003 4278869033
-0.022603786 0.019780785 0.41200003 4278204169
-0.021368841 0.01987681 0.41400003 4279652391
-0.0201209 0.019972831 0.41600001 4279448861
-0.018905092 0.020116867 0.41900003 4279579936
-0.017669793 0.020260902 0.42200002 4281158968
-0.016415007 0.020404935 0.42500001 4279908901
-0.015105357 0.02050096 0.42700002 4278199820
-0.013782715 0.020596983 0.42900002 4280046897
-0.012447082 0.020693006 0.43100002 4278202630
-0.011072825 0.020741018 0.43200001 4278601751
-0.0097144553 0.020837041 0.43400002 4279523621
-0.0083239581 0.020885052 0.43500003 4279523621
-0.0069428519 0.020981075 0.43700001 4279393580
-0.0055234754 0.020981075 0.43700001 4279130408
-0.051567905 0.020401767 0.39800003 4281814329
-0.050275199 0.020401767 0.39800003 4281945402
-0.049105566 0.020453027 0.39900002 4282339644
-0.047929432 0.020504287 0.40000001 4282405437
-0.046630234 0.020504287 0.40000001 4282339644
-0.045331031 0.020504287 0.40000001 4281353517
-0.044031832 0.020504287 0.40000001 4281221931
-0.042732634 0.020504287 0.40000001 4281353519
-0.04132985 0.020453027 0.39900002 4281024554
-0.040033896 0.020453027 0.39900002 4280566311
-0.03883503 0.020504287 0.40000001 4279715619
-0.037535828 0.020504287 0.40000001 4279061537
-0.036236629 0.020504287 0.40000001 4279193121
-0.035024773 0.020555547 0.40100002 4279127841
-0.033722326 0.020555547 0.40100002 4279326504
-0.032500722 0.020606807 0.40200001 4279591213
-0.031195026 0.020606807 0.40200001 4279328554
-0.029963681 0.020658068 0.40300003 4279197736
-0.028725838 0.020709328 0.40400001 4279724080
-0.027481504 0.02076059 0.40500003 4279329322
-0.026230671 0.02081185 0.40600002 4279131943
-0.0250347 0.020914372 0.40800002 4279066664
-0.023825739 0.021016894 0.41000003 4279592496
-0.022603786 0.021119416 0.41200003 4279193634
-0.021420455 0.021273198 0.41500002 4278202888
-0.020169269 0.021375719 0.41700003 4280108588
-0.018950211 0.021529501 0.42000002 4280108074
-0.017711665 0.021683281 0.42300001 4279844391
-0.016453631 0.021837065 0.42600003 4280304942
-0.015140734 0.021939587 0.42800003 4278728472
-0.013814842 0.022042107 0.43000001 4278796570
-0.012447082 0.022093369 0.43100002 4278729240
-0.011098457 0.022195891 0.43300003 4280178735
-0.0097144553 0.022247151 0.43400002 4279061019
-0.0083430931 0.022349672 0.43600002 4278798617
-0.0069428519 0.022400932 0.43700001 4278667544
-0.0055361153 0.022452194 0.43800002 4278206479
-0.05130877 0.021585887 0.39600003 4282076218
-0.050148878 0.021640398 0.39700001 4282076220
-0.048982497 0.021694908 0.39800003 4282010425
-0.047809612 0.021749416 0.39900002 4282603586
-0.046630234 0.021803927 0.40000001 4282603586
-0.045331031 0.021803927 0.40000001 4281880122
-0.044031832 0.021803927 0.40000001 4281155886
-0.042732634 0.021803927 0.40000001 4281287472
-0.041433431 0.021803927 0.40000001 4280827434
-0.040134232 0.021803927 0.40000001 4279713055
-0.03883503 0.021803927 0.40000001 4279716389
-0.037535828 0.021803927 0.40000001 4279587111
-0.036327224 0.021858437 0.40100002 4279193121
-0.035024773 0.021858437 0.40100002 4279128093
-0.033806417 0.021912945 0.40200001 4279457058
-0.032500722 0.021912945 0.40200001 4279458855
-0.031272627 0.021967458 0.40300003 4279393832
-0.029963681 0.021967458 0.40300003 4279263529
-0.028725838 0.022021966 0.40400001 4279527215
-0.027481504 0.022076476 0.40500003 4279198504
-0.026295278 0.022185495 0.40700001 4278869539
-0.0250347 0.022240005 0.40800002 4279198250
-0.023825739 0.022349026 0.41000003 4279525420
-0.022658648 0.022512555 0.41300002 4280049197
-0.021420455 0.022621574 0.41500002 4278200064
-0.020217637 0.022785103 0.41800001 4278331663
-0.01899533 0.022948634 0.42100003 4279120668
-0.017753538 0.023112163 0.42400002 4278397458
-0.016453631 0.023221184 0.42600003 4281095223
-0.015140734 0.023330202 0.42800003 4280900409
-0.013814842 0.023439221 0.43000001 4278199558
-0.012475962 0.02354824 0.43200001 4279517473
-0.011098457 0.023602752 0.43300003 4279783211
-0.0097368397 0.023711771 0.43500003 4278995746
-0.0083430931 0.023766281 0.43600002 4280311604
-0.0069428519 0.02382079 0.43700001 4278205458
-0.05130877 0.022872532 0.39600003 4282339390
-0.050148878 0.022930291 0.39700001 4282010427
-0.047809612 0.023045808 0.39900002 4282274367
-0.046513662 0.023045808 0.39900002 4282406207
-0.045331031 0.023103567 0.40000001 4281944632
-0.044031832 0.023103567 0.40000001 4281615669
-0.042732634 0.023103567 0.40000001 4281813046
-0.041433431 0.023103567 0.40000001 4280630825
-0.040134232 0.023103567 0.40000001 4279781160
-0.038932119 0.023161327 0.40100002 4279585062
-0.037629671 0.023161327 0.40100002 4279323941
-0.036327224 0.023161327 0.40100002 4279587109
-0.035024773 0.023161327 0.40100002 4279456545
-0.033806417 0.023219084 0.40200001 4279326242
-0.032500722 0.023219084 0.40200001 4279393834
-0.031272627 0.023276845 0.40300003 4279328554
-0.029963681 0.023276845 0.40300003 4279460908
-0.028725838 0.023334604 0.40400001 4279592494
-0.027481504 0.023392363 0.40500003 4279329836
-0.026295278 0.02350788 0.40700001 4279066664
-0.0250347 0.023565639 0.40800002 4279329322
-0.023825739 0.023681156 0.41000003 4278205706
-0.022658648 0.023854433 0.41300002 4281165114
-0.021420455 0.023969952 0.41500002 4278531345
-0.020169269 0.02408547 0.41700003 4279118615
-0.01899533 0.024316506 0.42100003 4279118103
-0.017753538 0.024489783 0.42400002 4279117849
-0.016492255 0.024663059 0.42700002 4278921238
-0.015176109 0.024778577 0.42900002 4280440371
-0.013846971 0.024894094 0.43100002 4278202126
-0.012475962 0.024951853 0.43200001 4280375348
-0.011124087 0.02506737 0.43400002 4279719467
-0.0097368397 0.025125131 0.43500003 4279457578
-0.0083430931 0.025182888 0.43600002 4279786543
-0.0069587394 0.025298407 0.43800002 4279852850
-0.046513662 0.0243422 0.39900002 4282602564
-0.045217704 0.0243422 0.39900002 4282405437
-0.044031832 0.024403207 0.40000001 4281944886
-0.042732634 0.024403207 0.40000001 4281353265
-0.041433431 0.024403207 0.40000001 4280499752
-0.040234569 0.024464216 0.40100002 4280110125
-0.038932119 0.024464216 0.40100002 4279848488
-0.037629671 0.024464216 0.40100002 4278666011
-0.036327224 0.024464216 0.40100002 4279323939
-0.035024773 0.024464216 0.40100002 4279654185
-0.033806417 0.024525223 0.40200001 4279458603
-0.032500722 0.024525223 0.40200001 4279263531
-0.031272627 0.024586232 0.40300003 4279066666
-0.029963681 0.024586232 0.40300003 4279658289
-0.028725838 0.02464724 0.40400001 4279264558
-0.027481504 0.024708249 0.40500003 4279001386
-0.026295278 0.024830263 0.40700001 4279264558
-0.0250347 0.024891272 0.40800002 4279066664
-0.023825739 0.025013288 0.41000003 4280116787
-0.022603786 0.025135305 0.41200003 4280442168
-0.021368841 0.025257321 0.41400003 4278201354
-0.020169269 0.025440345 0.41700003 4278660115
-0.01899533 0.025684377 0.42100003 4278331152
-0.017795408 0.025928408 0.42500001 4278461970
-0.016492255 0.026050424 0.42700002 4278199565
-0.015176109 0.02617244 0.42900002 4278201614
-0.013846971 0.026294457 0.43100002 4278200074
-0.012504841 0.026416473 0.43300003 4278201102
-0.011124087 0.02647748 0.43400002 4278199817
-0.0097592231 0.026599497 0.43600002 4278200587
-0.008362229 0.026660504 0.43700001 4278200843
-0.0069587394 0.026721513 0.43800002 4278200329
-0.042732634 0.025702849 0.40000001 4282144318
-0.041433431 0.025702849 0.40000001 4280830768
-0.040134232 0.025702849 0.40000001 4279716650
-0.038932119 0.025767108 0.40100002 4279323174
-0.037629671 0.025767108 0.40100002 4279061539
-0.036327224 0.025767108 0.40100002 4279258918
-0.035024773 0.025767108 0.40100002 4279457578
-0.033806417 0.025831364 0.40200001 4279919154
-0.032500722 0.025831364 0.40200001 4279197998
-0.031195026 0.025831364 0.40200001 4279395890
-0.029963681 0.025895622 0.40300003 4279067179
-0.028725838 0.025959879 0.40400001 4278540835
-0.027481504 0.026024137 0.40500003 4278540835
-0.026230671 0.026088392 0.40600002 4278935593
-0.0250347 0.026216907 0.40800002 4279461424
-0.023825739 0.026345422 0.41000003 4278273818
-0.022548921 0.026409678 0.41100001 4279786291
-0.021317223 0.026538193 0.41300002 4279720752
-0.020072535 0.026666706 0.41500002 4279654957
-0.01899533 0.027052252 0.42100003 4279392301
-0.01783728 0.027373536 0.42600003 4279523635
-0.016530879 0.027502051 0.42800003 4279721014
-0.015211483 0.027630564 0.43000001 4279392301
-0.013879098 0.027759077 0.43200001 4279589680
-0.012504841 0.027823336 0.43300003 4279523633
-0.011149719 0.02795185 0.43500003 4279326254
-0.0097592231 0.028016107 0.43600002 4279721012
-0.008362229 0.028080363 0.43700001 4279720498
-0.0069587394 0.02814462 0.43800002 4279589426
-0.045217704 0.026934985 0.39900002 4281026360
-0.043921754 0.026934985 0.39900002 4281619519
-0.042732634 0.027002489 0.40000001 4280832051
-0.041433431 0.027002489 0.40000001 4280437807
-0.040134232 0.027002489 0.40000001 4280110895
-0.038932119 0.027069997 0.40100002 4279586094
-0.037629671 0.027069997 0.40100002 4279390504
-0.036327224 0.027069997 0.40100002 4279653676
-0.035024773 0.027069997 0.40100002 4279654957
-0.033722326 0.027069997 0.40100002 4279721775
-0.032500722 0.027137503 0.40200001 4279328300
-0.031195026 0.027137503 0.40200001 4279329070
-0.029963681 0.027205011 0.40300003 4279198511
-0.028725838 0.027272515 0.40400001 4279527476
-0.027481504 0.027340023 0.40500003 4279132720
-0.026230671 0.027407529 0.40600002 4279001132
-0.024973338 0.027475033 0.40700001 4279066666
-0.023767626 0.027610047 0.40900001 4279131691
-0.022494059 0.027677553 0.41000003 4279721777
-0.021265609 0.027812567 0.41200003 4279524398
-0.019975798 0.027880071 0.41300002 4279590961
-0.01899533 0.028420122 0.42100003 4279065130
-0.017879151 0.028825158 0.42700002 4279131693
-0.016569501 0.028960172 0.42900002 4279131693
-0.015211483 0.029027676 0.43000001 4279394865
-0.013879098 0.02916269 0.43200001 4279130923
-0.012533721 0.029297702 0.43400002 4279262509
-0.011149719 0.02936521 0.43500003 4279262511
-0.0097592231 0.029432716 0.43600002 4279459890
-0.008362229 0.02950022 0.43700001 4279328304
-0.0069587394 0.029567728 0.43800002 4279262257
-0.041433431 0.028302131 0.40000001 4282148175
-0.040134232 0.028302131 0.40000001 4280437557
-0.03883503 0.028302131 0.40000001 4279977776
-0.037629671 0.028372888 0.40100002 4279387433
-0.036327224 0.028372888 0.40100002 4279849268
-0.035024773 0.028372888 0.40100002 4280113975
-0.033722326 0.028372888 0.40100002 4280114488
-0.032500722 0.028443642 0.40200001 4279853883
-0.031195026 0.028443642 0.40200001 4279525429
-0.029963681 0.028514398 0.40300003 4279131693
-0.028654736 0.028514398 0.40300003 4279723830
-0.027413648 0.028585153 0.40400001 4279394865
-0.026230671 0.028726663 0.40600002 4279789625
-0.024973338 0.028797418 0.40700001 4279065128
-0.023709515 0.028868174 0.40800002 4279459886
-0.022439193 0.028938929 0.40900001 4279459636
-0.021162378 0.029009685 0.41000003 4278932779
-0.019879064 0.029080439 0.41100001 4279656754
-0.018453894 0.028938929 0.40900001 4279262509
-0.017879151 0.030212525 0.42700002 4279460658
-0.016569501 0.030354036 0.42900002 4278868521
-0.015211483 0.03042479 0.43000001 4279459375
-0.013911226 0.030637057 0.43300003 4279656754
-0.012533721 0.030707812 0.43400002 4279459123
-0.011149719 0.030778568 0.43500003 4279459123
-0.0097592231 0.030849323 0.43600002 4279589939
-0.008362229 0.030920077 0.43700001 4279260209
-0.0069587394 0.030990833 0.43800002 4279849266
-0.032500722 0.029749781 0.40200001 4280243514
-0.031195026 0.029749781 0.40200001 4280244541
-0.029963681 0.029823786 0.40300003 4280574789
-0.028654736 0.029823786 0.40300003 4279522099
-0.027413648 0.029897789 0.40400001 4279062318
-0.026230671 0.030045798 0.40600002 4279062318
-0.024973338 0.030119803 0.40700001 4279587377
-0.023709515 0.030193808 0.40800002 4279389998
-0.022439193 0.03026781 0.40900001 4279192621
-0.021162378 0.030341817 0.41000003 4279718713
-0.019830696 0.030341817 0.41000003 4279849529
-0.018453894 0.03026781 0.40900001 4279521334
-0.017879151 0.03159989 0.42700002 4278929962
-0.016569501 0.0317479 0.42900002 4279455793
-0.015211483 0.031821903 0.43000001 4279717170
-0.017879151 0.032987259 0.42700002 4287344793
-0.016569501 0.033141766 0.42900002 4287476379
-0.017879151 0.034374624 0.42700002 4287343771
-0.016569501 0.034535628 0.42900002 4287409564
-0.030380329 0.019580692 0.40834397 4294967295
-0.030380329 0.019580692 0.40834397 4294901760
-0.030233432 0.019102968 0.40832978 4294901760
-0.030086536 0.018625244 0.40831557 4294901760
-0.029939638 0.018147521 0.40830138 4294901760
-0.029792741 0.017669797 0.4082872 4294901760
-0.029645845 0.017192075 0.40827298 4294901760
-0.029498948 0.016714351 0.4082588 4294901760
-0.02935205 0.016236627 0.40824461 4294901760
-0.029205155 0.015758904 0.40823039 4294901760
-0.029058257 0.01528118 0.40821621 4294901760
-0.02891136 0.014803456 0.40820202 4294901760
-0.028764464 0.014325732 0.40818781 4294901760
-0.028617566 0.01384801 0.40817362 4294901760
-0.028470669 0.013370287 0.40815943 4294901760
-0.028323773 0.012892563 0.40814522 4294901760
-0.028176876 0.012414839 0.40813103 4294901760
-0.028029978 0.011937115 0.40811685 4294901760
-0.027883081 0.011459392 0.40810263 4294901760
-0.027736185 0.010981668 0.40808845 4294901760
-0.027589288 0.010503945 0.40807426 4294901760
-0.02744239 0.010026221 0.40806004 4294901760
-0.027295494 0.0095484974 0.40804586 4294901760
-0.027148597 0.0090707736 0.40803167 4294901760
-0.027001699 0.0085930498 0.40801746 4294901760
-0.026854804 0.008115327 0.40800327 4294901760
-0.026707906 0.0076376032 0.40798908 4294901760
-0.026561009 0.0071598804 0.40797487 4294901760
-0.026414111 0.0066821557 0.40796068 4294901760
-0.026267216 0.0062044328 0.4079465 4294901760
-0.026120318 0.005726709 0.40793228 4294901760
-0.025973421 0.0052489853 0.4079181 4294901760
-0.025826525 0.0047712615 0.40790391 4294901760
-0.025679627 0.0042935386 0.40788969 4294901760
-0.02553273 0.0038158149 0.40787551 4294901760
-0.025385834 0.0033380911 0.40786132 4294901760
-0.025238937 0.0028603673 0.40784711 4294901760
-0.025092039 0.0023826435 0.40783292 4294901760
-0.024945144 0.0019049197 0.40781873 4294901760
-0.024798246 0.0014271978 0.40780452 4294901760
-0.024651349 0.00094947405 0.40779033 4294901760
-0.024504453 0.00047175027 0.40777615 4294901760
-0.024357555 -5.973503e-06 0.40776193 4294901760
-0.024210658 -0.00048369728 0.40774775 4294901760
-0.024063762 -0.00096142106 0.40773356 4294901760
-0.023916865 -0.0014391448 0.40771934 4294901760
-0.023769967 -0.0019168667 0.40770516 4294901760
-0.023623072 -0.0023945924 0.40769097 4294901760
-0.023476174 -0.0028723143 0.40767676 4294901760
-0.023329277 -0.0033500381 0.40766257 4294901760
-0.023182381 -0.0038277619 0.40764838 4294901760
-0.023035483 -0.0043054856 0.4076342 4294901760
-0.022888586 -0.0047832094 0.40761998 4294901760
-0.02274169 -0.0052609313 0.4076058 4294901760
-0.022594793 -0.0057386551 0.40759161 4294901760
-0.022447895 -0.0062163807 0.4075774 4294901760
-0.022301 -0.0066941045 0.40756321 4294901760
-0.022154102 -0.0071718264 0.40754902 4294901760
-0.022007205 -0.0076495502 0.40753481 4294901760
-0.021860309 -0.008127274 0.40752062 4294901760
-0.021713411 -0.0086049959 0.40750644 4294901760
-0.021566514 -0.0090827215 0.40749222 4294901760
-0.021419618 -0.0095604453 0.40747803 4294901760
-0.021272721 -0.010038169 0.40746385 4294901760
-0.021125823 -0.010515891 0.40744963 4294901760
-0.020978928 -0.010993615 0.40743545 4294901760
-0.02083203 -0.011471339 0.40742126 4294901760
-0.020685133 -0.011949062 0.40740705 4294901760
-0.020538237 -0.012426786 0.40739286 4294901760
-0.020391338 -0.01290451 0.40737867 4294901760
-0.020244442 -0.013382234 0.40736446 4294901760
-0.020097546 -0.013859957 0.40735027 4294901760
-0.019950649 -0.014337678 0.40733609 4294901760
-0.019803751 -0.014815405 0.40732187 4294901760
-0.019656854 -0.015293129 0.40730768 4294901760
-0.019509956 -0.015770853 0.4072935 4294901760
-0.019363061 -0.016248576 0.40727928 4294901760
-0.019216165 -0.016726296 0.4072651 4294901760
-0.019069267 -0.01720402 0.40725091 4294901760
-0.01892237 -0.017681744 0.4072367 4294901760
-0.018775472 -0.018159471 0.40722251 4294901760
-0.018628575 -0.018637192 0.40720832 4294901760
-0.018481679 -0.019114915 0.40719411 4294901760
-0.018334784 -0.019592639 0.40717992 4294901760
-0.018187884 -0.020070363 0.40716574 4294901760
-0.018040989 -0.020548087 0.40715152 4294901760
-0.017894091 -0.02102581 0.40713733 4294901760
-0.017747194 -0.021503534 0.40712315 4294901760
-0.017600298 -0.021981258 0.40710893 4294901760
-0.0174534 -0.022458982 0.40709475 4294901760
-0.017306503 -0.022936702 0.40708056 4294901760
-0.017159607 -0.023414426 0.40706635 4294901760
-0.01701271 -0.023892153 0.40705216 4294901760
-0.016865812 -0.024369877 0.40703797 4294901760
-0.016718917 -0.024847601 0.40702376 4294901760
-0.016572019 -0.025325321 0.40700957 4294901760
-0.016425122 -0.025803044 0.40699539 4294901760
-0.016278226 -0.026280768 0.40698117 4294901760
-0.016131328 -0.026758496 0.40696698 4294901760
-0.015984431 -0.027236216 0.4069528 4294901760
-0.015837535 -0.02771394 0.40693858 4294901760
-0.015690638 -0.028191663 0.4069244 4294901760
-0.030380329 0.019580692 0.40834397 4278255360
-0.030028289 0.019678801 0.40868521 4278255360
-0.029676251 0.019776912 0.40902644 4278255360
-0.029324211 0.019875022 0.40936768 4278255360
-0.028972171 0.019973131 0.40970892 4278255360
-0.028620131 0.020071242 0.41005015 4278255360
-0.028268093 0.020169351 0.41039139 4278255360
-0.027916053 0.020267462 0.41073263 4278255360
-0.027564013 0.020365572 0.41107386 4278255360
-0.027211973 0.020463681 0.4114151 4278255360
-0.026859935 0.020561792 0.41175634 4278255360
-0.026507895 0.020659901 0.41209757 4278255360
-0.026155856 0.02075801 0.41243881 4278255360
-0.025803816 0.020856122 0.41278005 4278255360
-0.025451778 0.020954231 0.41312128 4278255360
-0.025099738 0.021052342 0.41346252 4278255360
-0.024747698 0.021150451 0.41380376 4278255360
-0.02439566 0.02124856 0.41414499 4278255360
-0.02404362 0.021346672 0.41448623 4278255360
-0.02369158 0.021444781 0.41482747 4278255360
-0.02333954 0.02154289 0.4151687 4278255360
-0.0229875 0.021641001 0.41550994 4278255360
-0.022635462 0.02173911 0.41585118 4278255360
-0.022283422 0.02183722 0.41619241 4278255360
-0.021931384 0.021935331 0.41653365 4278255360
-0.021579344 0.02203344 0.41687489 4278255360
-0.021227304 0.022131551 0.41721612 4278255360
-0.020875264 0.02222966 0.41755736 4278255360
-0.020523224 0.02232777 0.4178986 4278255360
-0.020171184 0.022425881 0.41823983 4278255360
-0.019819144 0.02252399 0.41858107 4278255360
-0.019467106 0.022622101 0.41892231 4278255360
-0.019115068 0.02272021 0.41926354 4278255360
-0.018763028 0.022818319 0.41960478 4278255360
-0.018410988 0.022916431 0.41994601 4278255360
-0.018058948 0.02301454 0.42028725 4278255360
-0.017706908 0.023112649 0.42062849 4278255360
-0.017354868 0.02321076 0.42096972 4278255360
-0.01700283 0.023308869 0.42131096 4278255360
-0.016650792 0.023406979 0.4216522 4278255360
-0.016298752 0.02350509 0.42199343 4278255360
-0.015946712 0.023603199 0.42233467 4278255360
-0.015594672 0.02370131 0.42267591 4278255360
-0.015242632 0.023799419 0.42301714 4278255360
-0.014890593 0.023897529 0.42335838 4278255360
-0.014538554 0.023995638 0.42369962 4278255360
-0.014186515 0.024093749 0.42404085 4278255360
-0.013834475 0.02419186 0.42438209 4278255360
-0.013482437 0.024289969 0.42472333 4278255360
-0.013130397 0.024388079 0.42506456 4278255360
-0.012778357 0.024486188 0.4254058 4278255360
-0.012426317 0.024584299 0.42574704 4278255360
-0.012074279 0.024682408 0.42608827 4278255360
-0.011722239 0.024780519 0.42642951 4278255360
-0.011370199 0.024878629 0.42677078 4278255360
-0.011018159 0.024976738 0.42711201 4278255360
-0.010666121 0.025074849 0.42745325 4278255360
-0.010314081 0.025172958 0.42779449 4278255360
-0.0099620409 0.025271067 0.42813572 4278255360
-0.0096100029 0.025369179 0.42847696 4278255360
-0.0092579611 0.025467288 0.4288182 4278255360
-0.008905923 0.025565399 0.42915943 4278255360
-0.0085538831 0.025663508 0.42950067 4278255360
-0.0082018431 0.025761617 0.42984191 4278255360
-0.0078498051 0.025859728 0.43018314 4278255360
-0.0074977651 0.025957838 0.43052438 4278255360
-0.0071457252 0.026055947 0.43086562 4278255360
-0.0067936853 0.026154058 0.43120685 4278255360
-0.0064416472 0.026252167 0.43154809 4278255360
-0.0060896073 0.026350278 0.43188933 4278255360
-0.0057375673 0.026448388 0.43223056 4278255360
-0.0053855292 0.026546497 0.4325718 4278255360
-0.0050334875 0.026644608 0.43291304 4278255360
-0.0046814494 0.026742717 0.43325427 4278255360
-0.0043294095 0.026840828 0.43359551 4278255360
-0.0039773714 0.026938938 0.43393674 4278255360
-0.0036253314 0.027037047 0.43427798 4278255360
-0.0032732915 0.027135156 0.43461922 4278255360
-0.0029212534 0.027233267 0.43496045 4278255360
-0.0025692116 0.027331376 0.43530169 4278255360
-0.0022171736 0.027429488 0.43564293 4278255360
-0.0018651336 0.027527597 0.43598416 4278255360
-0.0015130937 0.027625706 0.4363254 4278255360
-0.0011610556 0.027723815 0.43666664 4278255360
-0.00080901571 0.027821926 0.43700787 4278255360
-0.00045697577 0.027920038 0.43734911 4278255360
-0.00010493584 0.028018147 0.43769035 4278255360
0.00024710223 0.028116256 0.43803158 4278255360
0.00059914216 0.028214365 0.43837282 4278255360
0.00095118023 0.028312476 0.43871406 4278255360
0.0013032202 0.028410586 0.43905529 4278255360
0.0016552601 0.028508697 0.43939653 4278255360
0.0020073 0.028606806 0.43973777 4278255360
0.00235934 0.028704915 0.440079 4278255360
0.0027113799 0.028803026 0.44042024 4278255360
0.0030634198 0.028901136 0.44076148 4278255360
0.003415456 0.028999247 0.44110271 4278255360
0.0037674997 0.029097356 0.44144395 4278255360
0.0041195359 0.029195465 0.44178519 4278255360
0.0044715758 0.029293574 0.44212642 4278255360
0.0048236158 0.029391686 0.44246766 4278255360
-0.030380329 0.019580692 0.40834397 4278190335
-0.030589191 0.019503167 0.4087916 4278190335
-0.030798052 0.019425642 0.40923923 4278190335
-0.031006914 0.019348118 0.40968683 4278190335
-0.031215774 0.019270593 0.41013446 4278190335
-0.031424638 0.019193068 0.4105821 4278190335
-0.031633496 0.019115543 0.4110297 4278190335
-0.031842358 0.019038018 0.41147733 4278190335
-0.032051221 0.018960495 0.41192496 4278190335
-0.032260083 0.018882969 0.41237259 4278190335
-0.032468945 0.018805444 0.41282022 4278190335
-0.032677803 0.018727919 0.41326782 4278190335
-0.032886665 0.018650394 0.41371545 4278190335
-0.033095527 0.018572871 0.41416308 4278190335
-0.03330439 0.018495345 0.41461068 4278190335
-0.033513252 0.01841782 0.41505831 4278190335
-0.03372211 0.018340295 0.41550595 4278190335
-0.033930972 0.01826277 0.41595358 4278190335
-0.034139834 0.018185245 0.41640121 4278190335
-0.034348696 0.018107722 0.41684881 4278190335
-0.034557559 0.018030196 0.41729644 4278190335
-0.034766417 0.017952671 0.41774407 4278190335
-0.034975279 0.017875146 0.41819167 4278190335
-0.035184141 0.017797621 0.4186393 4278190335
-0.035393003 0.017720098 0.41908693 4278190335
-0.035601866 0.017642573 0.41953456 4278190335
-0.035810724 0.017565047 0.41998219 4278190335
-0.036019586 0.017487522 0.4204298 4278190335
-0.036228448 0.017409997 0.42087743 4278190335
-0.03643731 0.017332472 0.42132506 4278190335
-0.036646172 0.017254949 0.42177269 4278190335
-0.036855035 0.017177423 0.42222029 4278190335
-0.037063893 0.017099898 0.42266792 4278190335
-0.037272755 0.017022373 0.42311555 4278190335
-0.037481617 0.016944848 0.42356318 4278190335
-0.037690479 0.016867325 0.42401078 4278190335
-0.037899338 0.0167898 0.42445841 4278190335
-0.0381082 0.016712274 0.42490605 4278190335
-0.038317062 0.016634749 0.42535365 4278190335
-0.038525924 0.016557224 0.42580128 4278190335
-0.038734786 0.016479701 0.42624891 4278190335
-0.038943648 0.016402176 0.42669654 4278190335
-0.039152507 0.01632465 0.42714417 4278190335
-0.039361369 0.016247125 0.42759177 4278190335
-0.039570231 0.0161696 0.4280394 4278190335
-0.039779093 0.016092077 0.42848703 4278190335
-0.039987952 0.016014552 0.42893463 4278190335
-0.040196814 0.015937027 0.42938226 4278190335
-0.040405676 0.015859501 0.4298299 4278190335
-0.040614538 0.015781976 0.43027753 4278190335
-0.0408234 0.015704453 0.43072516 4278190335
-0.041032262 0.015626928 0.43117276 4278190335
-0.041241121 0.015549403 0.43162039 4278190335
-0.041449983 0.015471878 0.43206802 4278190335
-0.041658845 0.015394352 0.43251565 4278190335
-0.041867707 0.015316828 0.43296325 4278190335
-0.042076565 0.015239304 0.43341088 4278190335
-0.042285427 0.015161779 0.43385851 4278190335
-0.04249429 0.015084254 0.43430614 4278190335
-0.042703152 0.015006728 0.43475375 4278190335
-0.042912014 0.014929203 0.43520138 4278190335
-0.043120876 0.014851679 0.43564901 4278190335
-0.043329738 0.014774155 0.43609661 4278190335
-0.043538596 0.01469663 0.43654424 4278190335
-0.043747459 0.014619105 0.43699187 4278190335
-0.043956321 0.01454158 0.4374395 4278190335
-0.044165183 0.014464055 0.43788713 4278190335
-0.044374041 0.014386531 0.43833473 4278190335
-0.044582903 0.014309006 0.43878236 4278190335
-0.044791766 0.014231481 0.43923 4278190335
-0.045000628 0.014153956 0.4396776 4278190335
-0.04520949 0.014076431 0.44012523 4278190335
-0.045418352 0.013998906 0.44057286 4278190335
-0.04562721 0.013921382 0.44102049 4278190335
-0.045836072 0.013843857 0.44146812 4278190335
-0.046044935 0.013766332 0.44191572 4278190335
-0.046253793 0.013688807 0.44236335 4278190335
-0.046462655 0.013611283 0.44281098 4278190335
-0.046671517 0.013533758 0.44325858 4278190335
-0.046880379 0.013456233 0.44370621 4278190335
-0.047089241 0.013378708 0.44415385 4278190335
-0.047298104 0.013301183 0.44460148 4278190335
-0.047506966 0.013223658 0.44504911 4278190335
-0.047715824 0.013146134 0.44549671 4278190335
-0.047924686 0.013068609 0.44594434 4278190335
-0.048133548 0.012991084 0.44639197 4278190335
-0.04834241 0.012913559 0.44683957 4278190335
-0.048551269 0.012836034 0.4472872 4278190335
-0.048760131 0.01275851 0.44773483 4278190335
-0.048968993 0.012680985 0.44818246 4278190335
-0.049177855 0.01260346 0.44863009 4278190335
-0.049386717 0.012525935 0.4490777 4278190335
-0.04959558 0.012448411 0.44952533 4278190335
-0.049804442 0.012370886 0.44997296 4278190335
-0.0500133 0.012293361 0.45042056 4278190335
-0.050222162 0.012215836 0.45086819 4278190335
-0.050431021 0.012138311 0.45131582 4278190335
-0.050639883 0.012060786 0.45176345 4278190335
-0.050848745 0.011983261 0.45221108 4278190335
-0.051057607 0.011905737 0.45265868 4278190335
-0.051266469 0.011828212 0.45310631 4278190335
-0.030380329 0.019580692 0.40834397 4294967295
-0.02912716 0.020045841 0.40565822 4294967295
-0.027873993 0.02051099 0.40297249 4294967295
-0.026620824 0.020976139 0.40028673 4294967295
-0.025367655 0.021441288 0.39760101 4294967295
-0.024114486 0.021906435 0.39491525 4294967295
-0.022861317 0.022371585 0.39222953 4294967295
-0.021608148 0.022836734 0.38954377 4294967295
-0.020354981 0.023301883 0.38685805 4294967295
-0.019101812 0.023767032 0.38417229 4294967295
-0.017848644 0.024232181 0.38148656 4294967295
-0.016595475 0.02469733 0.37880081 4294967295
-0.015342306 0.025162477 0.37611508 4294967295
-0.014089137 0.025627626 0.37342933 4294967295
-0.012835968 0.026092775 0.3707436 4294967295
-0.011582799 0.026557924 0.36805785 4294967295
-0.010329632 0.027023073 0.36537212 4294967295
-0.0090764631 0.027488222 0.36268637 4294967295
-0.007823294 0.027953371 0.36000064 4294967295
-0.0065701269 0.028418519 0.35731488 4294967295
-0.0053169578 0.02888367 0.35462916 4294967295
-0.0040637888 0.029348817 0.3519434 4294967295
-0.0028106198 0.029813968 0.34925768 4294967295
-0.0015574507 0.030279115 0.34657192 4294967295
-0.00030428357 0.030744264 0.3438862 4294967295
0.00094888546 0.031209413 0.34120044 4294967295
0.0022020545 0.03167456 0.33851469 4294967295
0.0034552235 0.032139711 0.33582896 4294967295
0.0047083925 0.032604858 0.33314323 4294967295
0.0059615579 0.033070009 0.33045748 4294967295
0.0072147306 0.033535156 0.32777172 4294967295
0.0084678959 0.034000307 0.325086 4294967295
0.0097210649 0.034465455 0.32240027 4294967295
0.010974234 0.034930605 0.31971452 4294967295
0.012227403 0.035395753 0.31702876 4294967295
0.013480572 0.035860904 0.31434304 4294967295
0.014733741 0.036326051 0.31165728 4294967295
0.01598691 0.036791198 0.30897155 4294967295
0.017240075 0.037256345 0.3062858 4294967295
0.018493244 0.037721496 0.30360007 4294967295
0.019746413 0.038186647 0.30091432 4294967295
0.020999582 0.038651794 0.29822859 4294967295
0.022252752 0.039116941 0.29554284 4294967295
0.023505921 0.039582092 0.29285711 4294967295
0.02475909 0.040047243 0.29017136 4294967295
0.026012255 0.04051239 0.28748563 4294967295
0.027265428 0.040977538 0.28479987 4294967295
0.028518593 0.041442685 0.28211415 4294967295
0.029771762 0.041907836 0.27942839 4294967295
0.031024931 0.042372987 0.27674264 4294967295
0.032278098 0.042838134 0.27405691 4294967295
0.033531263 0.043303281 0.27137119 4294967295
0.034784436 0.043768428 0.26868543 4294967295
0.036037602 0.044233579 0.26599967 4294967295
0.037290774 0.04469873 0.26331395 4294967295
0.03854394 0.045163877 0.26062822 4294967295
0.039797112 0.045629025 0.25794247 4294967295
0.041050278 0.046094175 0.25525671 4294967295
0.042303443 0.046559326 0.25257099 4294967295
0.043556616 0.047024474 0.24988525 4294967295
0.044809788 0.047489621 0.24719949 4294967295
0.046062954 0.047954772 0.24451375 4294967295
0.047316119 0.048419923 0.24182801 4294967295
0.048569292 0.04888507 0.23914228 4294967295
0.049822457 0.049350217 0.23645654 4294967295
0.051075622 0.049815364 0.2337708 4294967295
0.052328795 0.050280519 0.23108505 4294967295
0.053581968 0.050745666 0.22839931 4294967295
0.054835133 0.051210813 0.22571357 4294967295
0.056088299 0.05167596 0.22302783 4294967295
0.057341471 0.052141111 0.22034208 4294967295
0.058594637 0.052606259 0.21765636 4294967295
0.059847809 0.053071409 0.2149706 4294967295
0.061100975 0.053536557 0.21228486 4294967295
0.062354147 0.054001708 0.20959912 4294967295
0.063607313 0.054466855 0.20691338 4294967295
0.064860478 0.054932002 0.20422764 4294967295
0.066113651 0.055397153 0.2015419 4294967295
0.067366816 0.0558623 0.19885616 4294967295
0.068619989 0.056327451 0.1961704 4294967295
0.069873154 0.056792598 0.19348468 4294967295
0.071126327 0.057257749 0.19079894 4294967295
0.072379492 0.057722896 0.1881132 4294967295
0.073632658 0.058188044 0.18542746 4294967295
0.07488583 0.058653194 0.18274172 4294967295
0.076139003 0.059118345 0.18005596 4294967295
0.077392168 0.059583493 0.17737022 4294967295
0.078645334 0.06004864 0.17468448 4294967295
0.079898506 0.060513791 0.17199875 4294967295
0.081151672 0.060978938 0.16931301 4294967295
0.082404837 0.061444085 0.16662727 4294967295
0.08365801 0.061909236 0.16394152 4294967295
0.084911183 0.062374387 0.16125578 4294967295
0.086164348 0.062839538 0.15857004 4294967295
0.087417513 0.063304678 0.1558843 4294967295
0.088670686 0.063769832 0.15319857 4294967295
0.089923851 0.064234979 0.15051281 4294967295
0.091177024 0.064700127 0.14782706 4294967295
0.092430189 0.065165281 0.14514133 4294967295
0.093683362 0.065630428 0.14245558 4294967295
0.094936527 0.066095576 0.13976985 4294967295
