# .PCD v0.7 - Point Cloud Data file format
VERSION 0.7
FIELDS x y z rgb
SIZE 4 4 4 4
TYPE F F F U
COUNT 1 1 1 1
WIDTH 805
HEIGHT 1
VIEWPOINT 0 0 0 1 0 0 0
POINTS 805
DATA ascii
0.033040255 0.049698401 0.32700002 4281677855
0.033040255 0.050760861 0.32700002 4281875236
0.035164446 0.052885775 0.32700002 4281350185
0.036115758 0.052724041 0.32600001 4281217829
0.028703818 0.053783245 0.32600001 4284511329
0.029762665 0.053783245 0.32600001 4284708710
0.030916061 0.053948227 0.32700002 4284247387
0.02764497 0.054842453 0.32600001 4284509784
0.028703818 0.054842453 0.32600001 4283656274
0.029762665 0.054842453 0.32600001 4283260746
0.031880364 0.054842453 0.32600001 4281153319
0.02764497 0.055901662 0.32600001 4283454777
0.028703818 0.055901662 0.32600001 4282799420
0.029762665 0.055901662 0.32600001 4281351722
0.030821515 0.055901662 0.32600001 4280758563
0.031880364 0.055901662 0.32600001 4280889897
0.035056908 0.055901662 0.32600001 4280956973
0.036004975 0.055730186 0.32500002 4282931017
0.041155949 0.055558704 0.324 4281218599
0.028703818 0.05696087 0.32600001 4283324477
0.031880364 0.05696087 0.32600001 4282602566
0.032939211 0.05696087 0.32600001 4282932301
0.033893771 0.056786146 0.32500002 4283656537
0.034949373 0.056786146 0.32500002 4284247391
0.036004975 0.056786146 0.32500002 4282996810
0.036946539 0.056611415 0.324 4281879613
0.037998892 0.056611415 0.324 4284511329
0.029762665 0.058020078 0.32600001 4280694051
0.033893771 0.057842106 0.32500002 4283524184
0.034841835 0.057664126 0.324 4285301108
0.035894189 0.057664126 0.324 4283525982
0.036946539 0.057664126 0.324 4284182366
0.028615769 0.058898062 0.32500002 4282734918
0.029671369 0.058898062 0.32500002 4282932301
0.030726971 0.058898062 0.32500002 4282602312
0.031782571 0.058898062 0.32500002 4282536519
0.032737132 0.058716834 0.324 4283655772
0.034841835 0.058716834 0.324 4280563501
0.035894189 0.058716834 0.324 4288853932
0.039979823 0.058535609 0.32300001 4279509266
0.027475368 0.059769545 0.324 4283523666
0.02852772 0.059769545 0.324 4283328088
0.029671369 0.059954021 0.32500002 4283459674
0.030632425 0.059769545 0.324 4283920225
0.031684779 0.059769545 0.324 4283525467
0.032737132 0.059769545 0.324 4283327318
0.033685196 0.059585072 0.32300001 4282866767
0.034734298 0.059585072 0.32300001 4282274371
0.035783406 0.059585072 0.32300001 4282405955
0.036832508 0.059585072 0.32300001 4280628776
0.037764337 0.059400603 0.32200003 4283721817
0.03881019 0.059400603 0.32200003 4282141499
0.027475368 0.060822252 0.324 4283392080
0.02852772 0.060822252 0.324 4283787871
0.029580072 0.060822252 0.324 4283656285
0.030632425 0.060822252 0.324 4283590492
0.031684779 0.060822252 0.324 4283458906
0.032636091 0.060634531 0.32300001 4283392600
0.033685196 0.060634531 0.32300001 4283457621
0.034734298 0.060634531 0.32300001 4281154604
0.037764337 0.06044681 0.32200003 4280496674
0.03881019 0.06044681 0.32200003 4283917910
0.039856046 0.06044681 0.32200003 4282273599
0.044039473 0.06044681 0.32200003 4281153319
0.027475368 0.061874963 0.324 4285167975
0.02852772 0.061874963 0.324 4284049496
0.029580072 0.061874963 0.324 4283456594
0.030537883 0.061683994 0.32300001 4283786586
0.031586986 0.061683994 0.32300001 4283655772
0.032636091 0.061683994 0.32300001 4284050782
0.037764337 0.061493024 0.32200003 4282207808
0.03881019 0.061493024 0.32200003 4280497190
0.039856046 0.061493024 0.32200003 4282207808
0.04194776 0.061493024 0.32200003 4280232737
0.04299362 0.061493024 0.32200003 4279639571
0.044039473 0.061493024 0.32200003 4280560671
0.04508533 0.061493024 0.32200003 4281087013
0.049268756 0.061493024 0.32200003 4281285929
0.025370663 0.062927671 0.324 4281416491
0.026423015 0.062927671 0.324 4284905057
0.027475368 0.062927671 0.324 4284378713
0.028439673 0.062733449 0.32300001 4284773217
0.029488776 0.062733449 0.32300001 4284707426
0.030537883 0.062733449 0.32300001 4284773733
0.031489193 0.062539235 0.32200003 4283457875
0.032535054 0.062539235 0.32200003 4282140988
0.033580907 0.062539235 0.32200003 4282863937
0.034519225 0.062345006 0.32100001 4282931277
0.035561837 0.062345006 0.32100001 4282668877
0.036604442 0.062345006 0.32100001 4282340425
0.037647054 0.062345006 0.32100001 4282537804
0.038689662 0.062345006 0.32100001 4282866767
0.040901903 0.062539235 0.32200003 4280628008
0.04194776 0.062539235 0.32200003 4280364323
0.050314616 0.062539235 0.32200003 4281154091
0.051360469 0.062539235 0.32200003 4281219112
0.025370663 0.063980378 0.324 4281548849
0.026423015 0.063980378 0.324 4284444252
0.027390569 0.063782915 0.32300001 4284510047
0.028439673 0.063782915 0.32300001 4284247127
0.029488776 0.063782915 0.32300001 4282535996
0.031489193 0.063585445 0.32200003 4284706393
0.032535054 0.063585445 0.32200003 4284444506
0.033476617 0.063387968 0.32100001 4283391564
0.034519225 0.063387968 0.32100001 4284115289
0.035561837 0.063387968 0.32100001 4282930763
0.036604442 0.063387968 0.32100001 4282997070
0.037647054 0.063387968 0.32100001 4282932049
0.038689662 0.063387968 0.32100001 4282867539
0.039856046 0.063585445 0.32200003 4282866767
0.042078033 0.063782915 0.32300001 4280628008
0.025370663 0.065033086 0.324 4280562729
0.026341463 0.064832367 0.32300001 4284773219
0.027390569 0.064832367 0.32300001 4285299563
0.028439673 0.064832367 0.32300001 4283061568
0.02939748 0.064631656 0.32200003 4282994996
0.030443339 0.064631656 0.32200003 4283652151
0.031489193 0.064631656 0.32200003 4282664486
0.032434009 0.06443093 0.32100001 4281348372
0.033476617 0.06443093 0.32100001 4285232474
0.034519225 0.06443093 0.32100001 4285168481
0.035561837 0.06443093 0.32100001 4283786576
0.036604442 0.06443093 0.32100001 4283457621
0.037647054 0.06443093 0.32100001 4283392600
0.038689662 0.06443093 0.32100001 4283129941
0.039856046 0.064631656 0.32200003 4282866254
0.040901903 0.064631656 0.32200003 4283194449
0.043127138 0.064832367 0.32300001 4280759335
0.025370663 0.066085801 0.324 4281221429
0.026341463 0.065881833 0.32300001 4283588945
0.027390569 0.065881833 0.32300001 4284575840
0.028351625 0.065677866 0.32200003 4283390272
0.02939748 0.065677866 0.32200003 4282665256
0.030443339 0.065677866 0.32200003 4285230148
0.031391401 0.065473892 0.32100001 4282992934
0.032434009 0.065473892 0.32100001 4282860578
0.033476617 0.065473892 0.32100001 4282400027
0.034519225 0.065473892 0.32100001 4283652408
0.035561837 0.065473892 0.32100001 4284904792
0.036604442 0.065473892 0.32100001 4283852629
0.037647054 0.065473892 0.32100001 4283523668
0.03881019 0.065677866 0.32200003 4283063633
0.039856046 0.065677866 0.32200003 4282734922
0.041028924 0.065881833 0.32300001 4282932047
0.042078033 0.065881833 0.32300001 4280431143
0.026341463 0.066931292 0.32300001 4280561702
0.027390569 0.066931292 0.32300001 4285233257
0.028351625 0.066724077 0.32200003 4283587651
0.02939748 0.066724077 0.32200003 4283981116
0.030443339 0.066724077 0.32200003 4284308528
0.031391401 0.066516854 0.32100001 4285559365
0.032434009 0.066516854 0.32100001 4284177460
0.033476617 0.066516854 0.32100001 4283584553
0.034519225 0.066516854 0.32100001 4283321122
0.035561837 0.066516854 0.32100001 4283256358
0.036604442 0.066516854 0.32100001 4284378963
0.037764337 0.066724077 0.32200003 4282733888
0.03881019 0.066724077 0.32200003 4284182368
0.039856046 0.066724077 0.32200003 4282405955
0.041028924 0.066931292 0.32300001 4281944636
0.042208303 0.067138501 0.324 4280496676
0.027305769 0.067770287 0.32200003 4280890921
0.028351625 0.067770287 0.32200003 4284641624
0.02939748 0.067770287 0.32200003 4283916866
0.030443339 0.067770287 0.32200003 4284177460
0.031391401 0.067559816 0.32100001 4284373810
0.032434009 0.067559816 0.32100001 4285821765
0.033476617 0.067559816 0.32100001 4284835124
0.034519225 0.067559816 0.32100001 4285295421
0.035672624 0.067770287 0.32200003 4283057696
0.036718477 0.067770287 0.32200003 4280626966
0.037764337 0.067770287 0.32200003 4284773735
0.041028924 0.067980751 0.32300001 4280497190
0.027305769 0.068816498 0.32200003 4281352245
0.028351625 0.068816498 0.32200003 4280890151
0.02939748 0.068816498 0.32200003 4284771927
0.030443339 0.068816498 0.32200003 4284441924
0.031489193 0.068816498 0.32200003 4283651379
0.032535054 0.068816498 0.32200003 4284045104
0.033580907 0.068816498 0.32200003 4283979052
0.034626763 0.068816498 0.32200003 4285887560
0.035672624 0.068816498 0.32200003 4281347078
0.036718477 0.068816498 0.32200003 4282598959
0.037764337 0.068816498 0.32200003 4285430636
0.038930718 0.06903021 0.32300001 4284313184
0.039979823 0.06903021 0.32300001 4282010429
0.053120185 0.068389066 0.32000002 4280890401
0.028351625 0.069862708 0.32200003 4280956975
0.02939748 0.069862708 0.32200003 4281023020
0.030443339 0.069862708 0.32200003 4283982924
0.031489193 0.069862708 0.32200003 4284179016
0.032535054 0.069862708 0.32200003 4283782454
0.033580907 0.069862708 0.32200003 4283979063
0.034626763 0.069862708 0.32200003 4283978546
0.035672624 0.069862708 0.32200003 4282070553
0.036832508 0.070079669 0.32300001 4282994492
0.037881613 0.070079669 0.32300001 4284575838
0.038930718 0.070079669 0.32300001 4284642147
0.039979823 0.070079669 0.32300001 4282667330
0.041155949 0.07029663 0.324 4282009911
0.042338576 0.070513599 0.32500002 4280891171
0.052080821 0.069428779 0.32000002 4281416491
0.053120185 0.069428779 0.32000002 4281284905
0.028351625 0.070908919 0.32200003 4281088308
0.02939748 0.070908919 0.32200003 4281088561
0.030443339 0.070908919 0.32200003 4281220145
0.031489193 0.070908919 0.32200003 4281745458
0.032535054 0.070908919 0.32200003 4285297497
0.033685196 0.071129136 0.32300001 4283850305
0.034734298 0.071129136 0.32300001 4283191603
0.035783406 0.071129136 0.32300001 4282862386
0.036832508 0.071129136 0.32300001 4284444506
0.037881613 0.071129136 0.32300001 4284576606
0.038930718 0.071129136 0.32300001 4284444766
0.040103596 0.071349345 0.324 4282272572
0.041155949 0.071349345 0.324 4282140986
0.042338576 0.071569562 0.32500002 4280495391
0.043394178 0.071569562 0.32500002 4280428565
0.044586543 0.071789771 0.32600001 4280559381
0.045785412 0.072009988 0.32700002 4280362002
0.046847511 0.072009988 0.32700002 4280625944
0.051041458 0.070468493 0.32000002 4281219366
0.030443339 0.07195513 0.32200003 4280825650
0.031489193 0.07195513 0.32200003 4280957487
0.032636091 0.072178587 0.32300001 4280957227
0.033685196 0.072178587 0.32300001 4280430370
0.034734298 0.072178587 0.32300001 4284442969
0.035783406 0.072178587 0.32300001 4284641372
0.036832508 0.072178587 0.32300001 4284707676
0.037881613 0.072178587 0.32300001 4284773983
0.038930718 0.072178587 0.32300001 4283983955
0.040103596 0.072402053 0.324 4282074675
0.041155949 0.072402053 0.324 4281086243
0.042208303 0.072402053 0.324 4280560153
0.043394178 0.072625518 0.32500002 4280296981
0.044586543 0.072848976 0.32600001 4280362004
0.050783385 0.072625518 0.32500002 4281481771
0.031586986 0.073228054 0.32300001 4280892213
0.032636091 0.073228054 0.32300001 4280694317
0.033685196 0.073228054 0.32300001 4280628524
0.034734298 0.073228054 0.32300001 4280693288
0.035783406 0.073228054 0.32300001 4280430116
0.036832508 0.073228054 0.32300001 4280297499
0.037881613 0.073228054 0.32300001 4280296729
0.038930718 0.073228054 0.32300001 4280099350
0.039979823 0.073228054 0.32300001 4281020450
0.041155949 0.07345476 0.324 4280888864
0.042208303 0.07345476 0.324 4280296727
0.043394178 0.073681481 0.32500002 4280165143
0.032636091 0.074277513 0.32300001 4280958259
0.033685196 0.074277513 0.32300001 4280760880
0.035894189 0.074507467 0.324 4280891694
0.037998892 0.074507467 0.324 4280693288
0.038930718 0.074277513 0.32300001 4280232737
0.039979823 0.074277513 0.32300001 4280034588
0.041028924 0.074277513 0.32300001 4280231967
0.042208303 0.074507467 0.324 4280034588
0.043394178 0.074737437 0.32500002 4279771416
0.044586543 0.074967392 0.32600001 4279639832
0.045785412 0.075197354 0.32700002 4279771418
0.046847511 0.075197354 0.32700002 4279771418
0.047909606 0.075197354 0.32700002 4279771416
0.048971701 0.075197354 0.32700002 4279968795
0.0500338 0.075197354 0.32700002 4281548851
0.049220819 0.072437823 0.31500003 4280430368
0.050243936 0.072437823 0.31500003 4280495391
0.039051246 0.075560182 0.324 4280957227
0.039979823 0.075326972 0.32300001 4280759848
0.041028924 0.075326972 0.32300001 4280890667
0.042208303 0.075560182 0.324 4281153839
0.043394178 0.075793393 0.32500002 4280627495
0.044586543 0.076026604 0.32600001 4280232739
0.045785412 0.076259814 0.32700002 4280166946
0.046847511 0.076259814 0.32700002 4279706395
0.047909606 0.076259814 0.32700002 4279969565
0.048971701 0.076259814 0.32700002 4280166944
0.048197698 0.073461294 0.31500003 4280824358
0.049220819 0.073461294 0.31500003 4280561186
0.050243936 0.073461294 0.31500003 4280429087
0.034841835 0.076612882 0.324 4280364838
0.035894189 0.076612882 0.324 4281088559
0.036946539 0.076612882 0.324 4280233504
0.037998892 0.076612882 0.324 4280694055
0.042208303 0.076612882 0.324 4280824874
0.043394178 0.076849349 0.32500002 4280561964
0.044586543 0.077085808 0.32600001 4280562217
0.045785412 0.077322267 0.32700002 4280693290
0.046847511 0.077322267 0.32700002 4280824876
0.047909606 0.077322267 0.32700002 4280759083
0.048197698 0.074484758 0.31500003 4280363807
0.049220819 0.074484758 0.31500003 4280363294
0.050243936 0.074484758 0.31500003 4280888866
0.0533133 0.074484758 0.31500003 4280697385
0.048197698 0.075508229 0.31500003 4279969049
0.049220819 0.075508229 0.31500003 4280429600
0.050243936 0.075508229 0.31500003 4280692770
0.052290183 0.075508229 0.31500003 4280436008
0.0533133 0.075508229 0.31500003 4279911461
0.048197698 0.076531693 0.31500003 4281021737
0.049220819 0.076531693 0.31500003 4280495139
0.050243936 0.076531693 0.31500003 4280892714
0.051267058 0.076531693 0.31500003 4280303909
0.052290183 0.076531693 0.31500003 4279781412
0.0533133 0.076531693 0.31500003 4279584033
0.048197698 0.077555157 0.31500003 4281351470
0.049220819 0.077555157 0.31500003 4280825639
0.050243936 0.077555157 0.31500003 4280107043
0.051267058 0.077555157 0.31500003 4279517725
0.052290183 0.077555157 0.31500003 4279519008
0.049220819 0.078578629 0.31500003 4280630055
0.050243936 0.078578629 0.31500003 4279582748
0.051267058 0.078578629 0.31500003 4279255836
0.052290183 0.078578629 0.31500003 4279387935
0.04743265 0.079345785 0.31 4280304163
0.048439533 0.079345785 0.31 4279715102
0.049446411 0.079345785 0.31 4279124761
0.05045329 0.079345785 0.31 4278993177
0.04743265 0.080353007 0.31 4280239649
0.048439533 0.080353007 0.31 4279255064
0.049446411 0.080353007 0.31 4279190554
0.05045329 0.080353007 0.31 4279190554
0.046425767 0.081360221 0.31 4281091628
0.04743265 0.081360221 0.31 4279911711
0.048439533 0.081360221 0.31 4279321627
0.049446411 0.081360221 0.31 4279058968
0.05045329 0.081360221 0.31 4279387933
0.051460173 0.081360221 0.31 4279648289
0.045418892 0.08236745 0.31 4281157423
0.046425767 0.08236745 0.31 4280896300
0.04743265 0.08236745 0.31 4279386650
0.048439533 0.08236745 0.31 4279387933
0.049446411 0.08236745 0.31 4279124763
0.05045329 0.08236745 0.31 4279453215
0.051460173 0.08236745 0.31 4279187478
0.044268746 0.083105728 0.30900002 4281418542
0.046425767 0.083374672 0.31 4280765225
0.04743265 0.083374672 0.31 4279584799
0.048439533 0.083374672 0.31 4279190554
0.049446411 0.083374672 0.31 4279059740
0.05045329 0.083374672 0.31 4279256349
0.046425767 0.084381893 0.31 4280567846
0.047279645 0.084109701 0.30900002 4279519519
0.048283279 0.084109701 0.30900002 4279453726
0.049286909 0.084109701 0.30900002 4279257633
0.05029054 0.084109701 0.30900002 4279126047
0.051294174 0.084109701 0.30900002 4280043049
0.045418892 0.085389122 0.31 4280567846
0.046425767 0.085389122 0.31 4280963889
0.047279645 0.085113674 0.30900002 4279716387
0.048283279 0.085113674 0.30900002 4279716900
0.049286909 0.085113674 0.30900002 4279652391
0.05029054 0.085113674 0.30900002 4279191840
0.051294174 0.085113674 0.30900002 4279649311
0.044412009 0.086396337 0.31 4280633126
0.04743265 0.086396337 0.31 4280571698
0.048283279 0.08611764 0.30900002 4279650596
0.049286909 0.08611764 0.30900002 4283071832
0.05029054 0.08611764 0.30900002 4280571698
0.051294174 0.08611764 0.30900002 4279780897
0.044555277 0.087685511 0.31100002 4281159470
0.04743265 0.087403558 0.31 4281096755
0.048283279 0.087121613 0.30900002 4280109860
0.049286909 0.087121613 0.30900002 4279256347
0.05029054 0.087121613 0.30900002 4286361480
0.051294174 0.087121613 0.30900002 4278859795
0.052128557 0.086839668 0.30800003 4279649311
0.053128943 0.086839668 0.30800003 4280108578
0.054129332 0.086839668 0.30800003 4280501542
0.043545146 0.088695981 0.31100002 4281158188
0.048283279 0.088125587 0.30900002 4280438057
0.049286909 0.088125587 0.30900002 4279782178
0.05029054 0.088125587 0.30900002 4282808656
0.051128179 0.087840393 0.30800003 4280505135
0.052128557 0.087840393 0.30800003 4279124250
0.053128943 0.087840393 0.30800003 4279519008
0.054129332 0.087840393 0.30800003 4279846690
0.055129718 0.087840393 0.30800003 4280436262
0.049286909 0.08912956 0.30900002 4279913514
0.05029054 0.08912956 0.30900002 4279059488
0.051128179 0.088841125 0.30800003 4280704313
0.052128557 0.088841125 0.30800003 4279980074
0.053128943 0.088841125 0.30800003 4279256349
0.054129332 0.088841125 0.30800003 4279256349
0.055129718 0.088841125 0.30800003 4279650594
0.056130096 0.088841125 0.30800003 4279781410
0.051128179 0.089841835 0.30800003 4279520293
0.052128557 0.089841835 0.30800003 4279586082
0.053128943 0.089841835 0.30800003 4279586082
0.054129332 0.089841835 0.30800003 4279322910
0.055129718 0.089841835 0.30800003 4278993945
0.055947855 0.089550138 0.30700001 4279322910
0.056944992 0.089550138 0.30700001 4279650594
0.051128179 0.090842567 0.30800003 4280703284
0.052128557 0.090842567 0.30800003 4279980072
0.053128943 0.090842567 0.30800003 4279520289
0.054129332 0.090842567 0.30800003 4279388957
0.054950722 0.090547614 0.30700001 4279388703
0.055947855 0.090547614 0.30700001 4279257117
0.056944992 0.090547614 0.30700001 4279125533
0.05794213 0.090547614 0.30700001 4279519521
0.05874728 0.090252675 0.30600002 4280306471
0.053128943 0.091843292 0.30800003 4279979557
0.053953584 0.09154509 0.30700001 4279454496
0.054950722 0.09154509 0.30700001 4279322910
0.055947855 0.09154509 0.30700001 4279389217
0.056944992 0.09154509 0.30700001 4279389219
0.057753395 0.091246903 0.30600002 4278862877
0.05874728 0.091246903 0.30600002 4279124765
0.059741173 0.091246903 0.30600002 4279584801
0.060735062 0.091246903 0.30600002 4279977254
0.054950722 0.092542566 0.30700001 4279388703
0.055947855 0.092542566 0.30700001 4279520289
0.056759506 0.092241131 0.30600002 4279586082
0.057753395 0.092241131 0.30600002 4279257631
0.05874728 0.092241131 0.30600002 4279323426
0.059741173 0.092241131 0.30600002 4279257119
0.060536578 0.091939688 0.30500001 4279453728
0.061527215 0.091939688 0.30500001 4279716135
0.055947855 0.093540035 0.30700001 4279912994
0.056759506 0.093235351 0.30600002 4279585312
0.057753395 0.093235351 0.30600002 4279453726
0.05874728 0.093235351 0.30600002 4279322912
0.059545934 0.092930652 0.30500001 4279717670
0.060536578 0.092930652 0.30500001 4279257119
0.061527215 0.092930652 0.30500001 4279519521
0.062312882 0.092625968 0.30400002 4279650594
0.063300274 0.092625968 0.30400002 4279978278
0.057753395 0.094229579 0.30600002 4279782178
0.05874728 0.094229579 0.30600002 4279322910
0.059545934 0.093921632 0.30500001 4279388703
0.060536578 0.093921632 0.30500001 4279585312
0.061527215 0.093921632 0.30500001 4279519519
0.062312882 0.093613699 0.30400002 4279256347
0.063300274 0.093613699 0.30400002 4279519521
0.064076193 0.093305752 0.303 4279715619
0.065060332 0.093305752 0.303 4280042787
0.05874728 0.095223807 0.30600002 4279913766
0.059545934 0.094912611 0.30500001 4279387933
0.060536578 0.094912611 0.30500001 4279585312
0.061325487 0.094601423 0.30400002 4279651105
0.062312882 0.094601423 0.30400002 4279519519
0.063300274 0.094601423 0.30400002 4279387933
0.064076193 0.094290234 0.303 4279256349
0.065060332 0.094290234 0.303 4279519008
0.065826513 0.093979046 0.30200002 4279911461
0.060536578 0.09590359 0.30500001 4279322910
0.061325487 0.095589153 0.30400002 4279388957
0.062312882 0.095589153 0.30400002 4279454750
0.063092045 0.095274709 0.303 4279257371
0.064076193 0.095274709 0.303 4279387933
0.065060332 0.095274709 0.303 4279256347
0.065826513 0.09496028 0.30200002 4279519008
0.066807412 0.09496028 0.30200002 4279650596
0.06778831 0.09496028 0.30200002 4279911463
0.05874728 0.097212255 0.30600002 4280895530
0.059741173 0.097212255 0.30600002 4280435749
0.061325487 0.096576884 0.30400002 4279782180
0.062312882 0.096576884 0.30400002 4279058455
0.063092045 0.096259192 0.303 4279782178
0.064076193 0.096259192 0.303 4279519519
0.065060332 0.096259192 0.303 4279453726
0.065826513 0.095941506 0.30200002 4279322912
0.066807412 0.095941506 0.30200002 4279059742
0.06778831 0.095941506 0.30200002 4279452963
0.068769202 0.095941506 0.30200002 4279715365
0.05874728 0.098206475 0.30600002 4280630309
0.063092045 0.097243659 0.303 4279584283
0.064076193 0.097243659 0.303 4279717152
0.065060332 0.097243659 0.303 4279848484
0.065826513 0.096922733 0.30200002 4279256347
0.066807412 0.096922733 0.30200002 4279453726
0.06778831 0.096922733 0.30200002 4279322910
0.068769202 0.096922733 0.30200002 4279257117
0.069519147 0.096601799 0.30100003 4279912998
0.070730999 0.096922733 0.30200002 4280174119
0.055129718 0.099849075 0.30800003 4281026089
0.056130096 0.099849075 0.30800003 4281157675
0.064076193 0.098228142 0.303 4280175907
0.065060332 0.098228142 0.303 4279649822
0.065826513 0.097903959 0.30200002 4279650592
0.066807412 0.097903959 0.30200002 4279453726
0.06778831 0.097903959 0.30200002 4279453726
0.068769202 0.097903959 0.30200002 4279387935
0.0697501 0.097903959 0.30200002 4279256349
0.070730999 0.097903959 0.30200002 4279650594
0.07171189 0.097903959 0.30200002 4279977508
0.062312882 0.099540062 0.30400002 4280632104
0.065060332 0.099212624 0.303 4280241448
0.06604448 0.099212624 0.303 4280110375
0.066807412 0.098885193 0.30200002 4279781408
0.06778831 0.098885193 0.30200002 4279847201
0.068769202 0.098885193 0.30200002 4279650592
0.0697501 0.098885193 0.30200002 4279519519
0.070730999 0.098885193 0.30200002 4279256347
0.07171189 0.098885193 0.30200002 4279650594
0.072692789 0.098885193 0.30200002 4279912483
0.073673688 0.098885193 0.30200002 4280304422
0.074654587 0.098885193 0.30200002 4281420854
0.059741173 0.10118916 0.30600002 4280764460
0.066807412 0.09986642 0.30200002 4280307241
0.06778831 0.09986642 0.30200002 4279847201
0.068769202 0.09986642 0.30200002 4279650592
0.0697501 0.09986642 0.30200002 4279519519
0.070730999 0.09986642 0.30200002 4279387933
0.07171189 0.09986642 0.30200002 4279650594
0.072692789 0.09986642 0.30200002 4279650594
0.073673688 0.09986642 0.30200002 4279912998
0.074654587 0.09986642 0.30200002 4280109094
0.075635478 0.09986642 0.30200002 4280370217
0.068769202 0.10084765 0.30200002 4279912483
0.0697501 0.10084765 0.30200002 4279585312
0.070730999 0.10084765 0.30200002 4279651105
0.07171189 0.10084765 0.30200002 4279519521
0.072692789 0.10084765 0.30200002 4279716900
0.073673688 0.10084765 0.30200002 4279584031
0.074654587 0.10084765 0.30200002 4279781410
0.075385034 0.10051372 0.30100003 4279912998
0.076362684 0.10051372 0.30100003 4280306219
0.0697501 0.10182887 0.30200002 4280110123
0.070730999 0.10182887 0.30200002 4279716389
0.07171189 0.10182887 0.30200002 4279585314
0.072692789 0.10182887 0.30200002 4279651107
0.073673688 0.10182887 0.30200002 4279585314
0.074407384 0.1014917 0.30100003 4279519521
0.075385034 0.1014917 0.30100003 4279453217
0.076362684 0.1014917 0.30100003 4279781158
0.077083379 0.10115451 0.30000001 4280240426
0.07171189 0.10281011 0.30200002 4279651109
0.072692789 0.10281011 0.30200002 4279453730
0.073429734 0.10246968 0.30100003 4279519523
0.074407384 0.10246968 0.30100003 4279585316
0.075385034 0.10246968 0.30100003 4279585314
0.076362684 0.10246968 0.30100003 4279387935
0.077083379 0.10212924 0.30000001 4279584033
0.078057781 0.10212924 0.30000001 4279912485
0.079032183 0.10212924 0.30000001 4280437545
0.073673688 0.10379133 0.30200002 4279585832
0.074407384 0.10344766 0.30100003 4279388453
0.075385034 0.10344766 0.30100003 4279585316
0.076362684 0.10344766 0.30100003 4279650594
0.077083379 0.10310397 0.30000001 4279387935
0.078057781 0.10310397 0.30000001 4279519521
0.079032183 0.10310397 0.30000001 4279584801
0.079739906 0.1027603 0.29900002 4279847203
0.080711059 0.1027603 0.29900002 4280304676
0.074407384 0.10442565 0.30100003 4279650342
0.075385034 0.10442565 0.30100003 4279519006
0.076362684 0.10442565 0.30100003 4279716385
0.077083379 0.10407871 0.30000001 4279716387
0.078057781 0.10407871 0.30000001 4279584801
0.079032183 0.10407871 0.30000001 4279453215
0.079739906 0.10373178 0.29900002 4279584801
0.080711059 0.10373178 0.29900002 4279912996
0.081682198 0.10373178 0.29900002 4280109862
0.075385034 0.10540362 0.30100003 4280175655
0.076362684 0.10540362 0.30100003 4279912994
0.077083379 0.10505343 0.30000001 4279782180
0.078057781 0.10505343 0.30000001 4279650596
0.079032183 0.10505343 0.30000001 4279716387
0.079739906 0.10470325 0.29900002 4279584799
0.080711059 0.10470325 0.29900002 4279321627
0.081682198 0.10470325 0.29900002 4279584799
0.08237692 0.10435308 0.29800001 4280043299
0.083344825 0.10435308 0.29800001 4280437032
0.076362684 0.1063816 0.30100003 4280306471
0.077340335 0.1063816 0.30100003 4279979561
0.078057781 0.10602816 0.30000001 4279782182
0.079032183 0.10602816 0.30000001 4279912996
0.079739906 0.10567474 0.29900002 4279584029
0.080711059 0.10567474 0.29900002 4279584029
0.081682198 0.10567474 0.29900002 4279584029
0.08237692 0.10532131 0.29800001 4279846688
0.083344825 0.10532131 0.29800001 4280043297
0.08431273 0.10532131 0.29800001 4280240680
0.084994465 0.10496788 0.29700002 4280371752
0.078057781 0.1070029 0.30000001 4280307243
0.079032183 0.1070029 0.30000001 4280109864
0.079739906 0.10664622 0.29900002 4280109862
0.080711059 0.10664622 0.29900002 4279781410
0.081682198 0.10664622 0.29900002 4279715617
0.082653359 0.10664622 0.29900002 4279912994
0.083344825 0.10628954 0.29800001 4279780895
0.08431273 0.10628954 0.29800001 4279715104
0.084994465 0.10593287 0.29700002 4279780897
0.079739906 0.10761771 0.29900002 4280175657
0.080711059 0.10761771 0.29900002 4279847205
0.081682198 0.10761771 0.29900002 4279716389
0.082653359 0.10761771 0.29900002 4279979561
0.083344825 0.10725778 0.29800001 4279715617
0.08431273 0.10725778 0.29800001 4279649824
0.085280634 0.10725778 0.29800001 4279584803
0.085959122 0.10689785 0.29700002 4279715619
0.086923771 0.10689785 0.29700002 4279911461
0.081682198 0.10858919 0.29900002 4279847205
0.082653359 0.10858919 0.29900002 4279716387
0.083624512 0.10858919 0.29900002 4279650594
0.08431273 0.108226 0.29800001 4279585314
0.085280634 0.108226 0.29800001 4279453728
0.086248539 0.108226 0.29800001 4279519519
0.086923771 0.10786283 0.29700002 4279847201
0.087888427 0.10786283 0.29700002 4279845922
0.089451425 0.10858919 0.29900002 4280174373
0.050329167 0.080740586 0.31365719 4294967295
0.050329167 0.080740586 0.31365719 4294901760
0.050329167 0.080740586 0.31415719 4294901760
0.050329167 0.080740586 0.31465718 4294901760
0.050329167 0.080740586 0.3151572 4294901760
0.050329167 0.080740586 0.3156572 4294901760
0.050329167 0.080740586 0.31615719 4294901760
0.050329167 0.080740586 0.31665719 4294901760
0.050329167 0.080740586 0.31715721 4294901760
0.050329167 0.080740586 0.3176572 4294901760
0.050329167 0.080740586 0.3181572 4294901760
0.050329167 0.080740586 0.31865719 4294901760
0.050329167 0.080740586 0.31915718 4294901760
0.050329167 0.080740586 0.31965721 4294901760
0.050329167 0.080740586 0.3201572 4294901760
0.050329167 0.080740586 0.32065719 4294901760
0.050329167 0.080740586 0.32115719 4294901760
0.050329167 0.080740586 0.32165718 4294901760
0.050329167 0.080740586 0.3221572 4294901760
0.050329167 0.080740586 0.3226572 4294901760
0.050329167 0.080740586 0.32315719 4294901760
0.050329167 0.080740586 0.32365718 4294901760
0.050329167 0.080740586 0.32415721 4294901760
0.050329167 0.080740586 0.3246572 4294901760
0.050329167 0.080740586 0.3251572 4294901760
0.050329167 0.080740586 0.32565719 4294901760
0.050329167 0.080740586 0.32615721 4294901760
0.050329167 0.080740586 0.32665721 4294901760
0.050329167 0.080740586 0.3271572 4294901760
0.050329167 0.080740586 0.32765719 4294901760
0.050329167 0.080740586 0.32815719 4294901760
0.050329167 0.080740586 0.32865721 4294901760
0.050329167 0.080740586 0.3291572 4294901760
0.050329167 0.080740586 0.3296572 4294901760
0.050329167 0.080740586 0.33015719 4294901760
0.050329167 0.080740586 0.33065718 4294901760
0.050329167 0.080740586 0.33115721 4294901760
0.050329167 0.080740586 0.3316572 4294901760
0.050329167 0.080740586 0.33215719 4294901760
0.050329167 0.080740586 0.33265719 4294901760
0.050329167 0.080740586 0.33315721 4294901760
0.050329167 0.080740586 0.33365721 4294901760
0.050329167 0.080740586 0.3341572 4294901760
0.050329167 0.080740586 0.33465719 4294901760
0.050329167 0.080740586 0.33515722 4294901760
0.050329167 0.080740586 0.33565721 4294901760
0.050329167 0.080740586 0.3361572 4294901760
0.050329167 0.080740586 0.3366572 4294901760
0.050329167 0.080740586 0.33715719 4294901760
0.050329167 0.080740586 0.33765721 4294901760
0.050329167 0.080740586 0.33815721 4294901760
0.050329167 0.080740586 0.3386572 4294901760
0.050329167 0.080740586 0.33915719 4294901760
0.050329167 0.080740586 0.33965719 4294901760
0.050329167 0.080740586 0.34015721 4294901760
0.050329167 0.080740586 0.3406572 4294901760
0.050329167 0.080740586 0.3411572 4294901760
0.050329167 0.080740586 0.34165719 4294901760
0.050329167 0.080740586 0.34215719 4294901760
0.050329167 0.080740586 0.34265721 4294901760
0.050329167 0.080740586 0.3431572 4294901760
0.050329167 0.080740586 0.3436572 4294901760
0.050329167 0.080740586 0.34415719 4294901760
0.050329167 0.080740586 0.34465721 4294901760
0.050329167 0.080740586 0.34515721 4294901760
0.050329167 0.080740586 0.3456572 4294901760
0.050329167 0.080740586 0.34615719 4294901760
0.050329167 0.080740586 0.34665722 4294901760
0.050329167 0.080740586 0.34715721 4294901760
0.050329167 0.080740586 0.3476572 4294901760
0.050329167 0.080740586 0.3481572 4294901760
0.050329167 0.080740586 0.34865719 4294901760
0.050329167 0.080740586 0.34915721 4294901760
0.050329167 0.080740586 0.34965721 4294901760
0.050329167 0.080740586 0.3501572 4294901760
0.050329167 0.080740586 0.35065719 4294901760
0.050329167 0.080740586 0.35115719 4294901760
0.050329167 0.080740586 0.35165721 4294901760
0.050329167 0.080740586 0.35215721 4294901760
0.050329167 0.080740586 0.3526572 4294901760
0.050329167 0.080740586 0.35315719 4294901760
0.050329167 0.080740586 0.35365722 4294901760
0.050329167 0.080740586 0.35415721 4294901760
0.050329167 0.080740586 0.3546572 4294901760
0.050329167 0.080740586 0.3551572 4294901760
0.050329167 0.080740586 0.35565719 4294901760
0.050329167 0.080740586 0.35615721 4294901760
0.050329167 0.080740586 0.35665721 4294901760
0.050329167 0.080740586 0.3571572 4294901760
0.050329167 0.080740586 0.35765719 4294901760
0.050329167 0.080740586 0.35815722 4294901760
0.050329167 0.080740586 0.35865721 4294901760
0.050329167 0.080740586 0.3591572 4294901760
0.050329167 0.080740586 0.3596572 4294901760
0.050329167 0.080740586 0.36015719 4294901760
0.050329167 0.080740586 0.36065722 4294901760
0.050329167 0.080740586 0.36115721 4294901760
0.050329167 0.080740586 0.3616572 4294901760
0.050329167 0.080740586 0.3621572 4294901760
0.050329167 0.080740586 0.36265722 4294901760
0.050329167 0.080740586 0.36315721 4294901760
0.050329167 0.080740586 0.36365721 4294901760
0.050329167 0.080740586 0.31365719 4278255360
0.050350301 0.080965512 0.31410325 4278255360
0.050371431 0.08119043 0.3145493 4278255360
0.050392564 0.081415355 0.31499535 4278255360
0.050413698 0.081640281 0.3154414 4278255360
0.050434828 0.081865199 0.31588745 4278255360
0.050455961 0.082090124 0.3163335 4278255360
0.050477095 0.082315043 0.31677955 4278255360
0.050498225 0.082539968 0.31722561 4278255360
0.050519358 0.082764894 0.31767166 4278255360
0.050540492 0.082989812 0.31811774 4278255360
0.050561622 0.083214737 0.31856379 4278255360
0.050582755 0.083439663 0.31900984 4278255360
0.050603885 0.083664581 0.31945589 4278255360
0.050625019 0.083889507 0.31990194 4278255360
0.050646152 0.084114432 0.32034799 4278255360
0.050667282 0.08433935 0.32079405 4278255360
0.050688416 0.084564276 0.3212401 4278255360
0.050709549 0.084789202 0.32168615 4278255360
0.050730679 0.08501412 0.3221322 4278255360
0.050751813 0.085239045 0.32257825 4278255360
0.050772946 0.085463963 0.3230243 4278255360
0.050794076 0.085688889 0.32347035 4278255360
0.05081521 0.085913815 0.32391641 4278255360
0.050836343 0.086138733 0.32436246 4278255360
0.050857473 0.086363658 0.32480851 4278255360
0.050878607 0.086588584 0.32525456 4278255360
0.05089974 0.086813502 0.32570061 4278255360
0.05092087 0.087038428 0.32614666 4278255360
0.050942004 0.087263353 0.32659271 4278255360
0.050963134 0.087488271 0.32703879 4278255360
0.050984267 0.087713197 0.32748485 4278255360
0.051005401 0.087938115 0.3279309 4278255360
0.051026531 0.088163041 0.32837695 4278255360
0.051047664 0.088387966 0.328823 4278255360
0.051068798 0.088612884 0.32926905 4278255360
0.051089928 0.08883781 0.3297151 4278255360
0.051111061 0.089062735 0.33016115 4278255360
0.051132195 0.089287654 0.33060721 4278255360
0.051153325 0.089512579 0.33105326 4278255360
0.051174458 0.089737505 0.33149931 4278255360
0.051195592 0.089962423 0.33194536 4278255360
0.051216722 0.090187348 0.33239141 4278255360
0.051237855 0.090412274 0.33283746 4278255360
0.051258989 0.090637192 0.33328351 4278255360
0.051280119 0.090862118 0.33372957 4278255360
0.051301252 0.091087043 0.33417562 4278255360
0.051322386 0.091311961 0.33462167 4278255360
0.051343516 0.091536887 0.33506772 4278255360
0.051364649 0.091761805 0.33551377 4278255360
0.051385783 0.091986731 0.33595985 4278255360
0.051406913 0.092211656 0.3364059 4278255360
0.051428046 0.092436574 0.33685195 4278255360
0.051449176 0.0926615 0.33729801 4278255360
0.051470309 0.092886426 0.33774406 4278255360
0.051491443 0.093111344 0.33819011 4278255360
0.051512573 0.093336269 0.33863616 4278255360
0.051533706 0.093561187 0.33908221 4278255360
0.05155484 0.093786113 0.33952826 4278255360
0.05157597 0.094011039 0.33997431 4278255360
0.051597103 0.094235957 0.34042037 4278255360
0.051618237 0.094460882 0.34086642 4278255360
0.051639367 0.094685808 0.34131247 4278255360
0.0516605 0.094910726 0.34175852 4278255360
0.051681634 0.095135652 0.34220457 4278255360
0.051702764 0.095360577 0.34265062 4278255360
0.051723897 0.095585495 0.34309667 4278255360
0.051745031 0.095810421 0.34354272 4278255360
0.051766161 0.096035346 0.34398878 4278255360
0.051787294 0.096260265 0.34443483 4278255360
0.051808424 0.09648519 0.34488088 4278255360
0.051829558 0.096710116 0.34532696 4278255360
0.051850691 0.096935034 0.34577301 4278255360
0.051871821 0.097159959 0.34621906 4278255360
0.051892955 0.097384885 0.34666511 4278255360
0.051914088 0.097609803 0.34711117 4278255360
0.051935218 0.097834721 0.34755722 4278255360
0.051956352 0.098059647 0.34800327 4278255360
0.051977485 0.098284572 0.34844932 4278255360
0.051998615 0.09850949 0.34889537 4278255360
0.052019749 0.098734416 0.34934142 4278255360
0.052040882 0.098959342 0.34978747 4278255360
0.052062012 0.09918426 0.35023353 4278255360
0.052083146 0.099409185 0.35067958 4278255360
0.052104279 0.099634111 0.35112563 4278255360
0.052125409 0.099859029 0.35157168 4278255360
0.052146543 0.10008395 0.35201773 4278255360
0.052167676 0.10030888 0.35246378 4278255360
0.052188806 0.1005338 0.35290983 4278255360
0.05220994 0.10075872 0.35335588 4278255360
0.052231073 0.10098365 0.35380197 4278255360
0.052252203 0.10120857 0.35424802 4278255360
0.052273337 0.10143349 0.35469407 4278255360
0.052294467 0.10165842 0.35514012 4278255360
0.0523156 0.10188334 0.35558617 4278255360
0.052336734 0.10210826 0.35603222 4278255360
0.052357864 0.10233319 0.35647827 4278255360
0.052378997 0.10255811 0.35692433 4278255360
0.052400131 0.10278303 0.35737038 4278255360
0.052421261 0.10300796 0.35781643 4278255360
0.052442394 0.10323288 0.35826248 4278255360
