# .PCD v0.7 - Point Cloud Data file format
VERSION 0.7
FIELDS x y z rgb
SIZE 4 4 4 4
TYPE F F F U
COUNT 1 1 1 1
WIDTH 879
HEIGHT 1
VIEWPOINT 0 0 0 1 0 0 0
POINTS 879
DATA ascii
0.01327359 0.029110495 0.50400001 4285365358
0.01327359 0.030748041 0.50400001 4286154872
0.00017377008 0.031678762 0.49300003 4280168213
0.01327359 0.032385591 0.50400001 4286352251
-0.0014101216 0.032875534 0.48700002 4280241963
0.00017306513 0.033145558 0.49100003 4280636721
0.0017750349 0.03328057 0.49300003 4280176170
0.01327359 0.034023136 0.50400001 4286156158
-0.0029611809 0.034104068 0.48200002 4279716389
-0.0013985395 0.034174822 0.48300001 4278996257
0.0001720077 0.034528602 0.48800004 4279325222
0.0017678339 0.034740865 0.49100003 4279391015
0.0033831482 0.034953132 0.49400002 4279325222
0.0050179502 0.035165396 0.49700001 4279587881
0.0066588963 0.035306908 0.49900001 4279718697
0.0083128344 0.035448421 0.50100005 4279652393
0.009959924 0.035519175 0.50200003 4279914797
0.011636597 0.035660684 0.50400001 4280307250
0.01327359 0.035660684 0.50400001 4281556806
-0.0044985432 0.035448123 0.47900003 4280436780
-0.0029427505 0.035448123 0.47900003 4279190556
-0.0013869575 0.035448123 0.47900003 4278732570
0.0017642335 0.036262169 0.49000001 4278798365
0.0033762997 0.036484186 0.49300003 4279127330
0.0050179502 0.036780201 0.49700001 4279127330
0.0066588963 0.03692821 0.49900001 4278929951
0.0083128344 0.03707622 0.50100005 4278996257
0.009959924 0.037150223 0.50200003 4279062820
0.011636597 0.037298232 0.50400001 4279325992
0.01327359 0.037298232 0.50400001 4279457578
-0.0044703684 0.03677268 0.47600001 4280108326
-0.0029181761 0.036695428 0.47500002 4279190556
-0.0013753753 0.036695428 0.47500002 4278797080
0.00016566315 0.03630916 0.47000003 4278928666
0.001685023 0.036154654 0.46800002 4278862873
0.0031982393 0.036077399 0.46700001 4278731800
0.0050179502 0.038395002 0.49700001 4278863386
0.0066722408 0.038626764 0.5 4278929179
0.0083128344 0.038704023 0.50100005 4278863386
0.009959924 0.038781274 0.50200003 4278863386
0.011636597 0.038935781 0.50400001 4278798363
0.01327359 0.038935781 0.50400001 4279127328
0.014940167 0.039013032 0.505 4279061535
-0.004442194 0.038077746 0.47300002 4280042535
-0.0029058892 0.038077746 0.47300002 4279058970
-0.0013666888 0.037997242 0.47200003 4278862875
0.00016531067 0.037755735 0.46900001 4278928668
0.0016814225 0.037594728 0.46700001 4278862873
0.0031845423 0.037433725 0.46500003 4278731287
0.0046746703 0.037272722 0.46300003 4278665494
0.0066722408 0.040251315 0.5 4278665494
0.0083294269 0.040412322 0.50200003 4278533394
0.009959924 0.040412322 0.50200003 4278202119
0.011636597 0.040573325 0.50400001 4278993947
0.01327359 0.040573325 0.50400001 4278731287
0.014940167 0.040653829 0.505 4278797080
-0.0044328026 0.039530821 0.47200003 4280043049
-0.002893602 0.039447065 0.47100002 4278993179
-0.0013580021 0.039279561 0.46900001 4278862877
0.00016460572 0.039112058 0.46700001 4278797084
0.0016742216 0.038944557 0.46500003 4278862875
0.0031708453 0.038777053 0.46300003 4278797082
0.0046544774 0.038609549 0.46100003 4278862613
0.0060984283 0.038274541 0.45700002 4278862613
0.0075661722 0.038190793 0.45600003 4279058970
0.0090274205 0.038107038 0.45500001 4278596625
0.011636597 0.042210873 0.50400001 4278199554
0.01327359 0.042210873 0.50400001 4278730005
-0.0044234111 0.040977392 0.47100002 4279780645
-0.0028813148 0.040803391 0.46900001 4278993179
-0.001352211 0.040629391 0.46700001 4278994463
0.00016390078 0.04045539 0.46500003 4278731291
0.0016670206 0.040281389 0.46300003 4278862877
0.0031571484 0.040107384 0.46100003 4278797082
0.0046342839 0.039933383 0.45900002 4278928154
0.0060984283 0.039759383 0.45700002 4278796568
0.0075495797 0.039585378 0.45500001 4278795283
0.0090075806 0.039498381 0.45400003 4278859795
0.010435997 0.039324377 0.45200002 4279386652
0.011904093 0.039324377 0.45200002 4278597906
0.013342606 0.03923738 0.45100003 4278202634
0.014774622 0.039150376 0.45000002 4278333966
0.031452131 0.038106367 0.43800002 4278533910
0.032799695 0.038019363 0.43700001 4278533910
0.034140769 0.037932366 0.43600002 4278665496
0.035556898 0.037932366 0.43600002 4278665496
0.036888227 0.037845366 0.43500003 4278797595
-0.0044140196 0.042417474 0.47000003 4279912998
-0.0028751716 0.042236976 0.46800002 4278928154
-0.0013493155 0.042056475 0.46600002 4278993947
0.00016354831 0.041875973 0.46400002 4278993947
0.0016634201 0.041695476 0.46200001 4278797082
0.0031502999 0.041514974 0.46000001 4278862875
0.0046241879 0.041334476 0.45800003 4278731289
0.0060850838 0.041153975 0.45600003 4278665498
0.0075329873 0.040973477 0.45400003 4278794517
0.0089877397 0.040883224 0.45300001 4278197766
0.010435997 0.040792976 0.45200002 4278530832
0.011877757 0.040702727 0.45100003 4278860310
0.013342606 0.040702727 0.45100003 4278394378
0.014774622 0.040612474 0.45000002 4278262281
0.016164061 0.040431976 0.44800001 4278589709
0.017579837 0.040341727 0.44700003 4278589709
0.018989118 0.040251475 0.44600001 4278524683
0.020391902 0.040161226 0.44500002 4278393865
0.021788191 0.040070977 0.44400004 4278196996
0.023177981 0.039980724 0.44300002 4278331150
0.024561279 0.039890476 0.44200003 4278660880
0.025996897 0.039890476 0.44200003 4278859797
0.027370447 0.039800227 0.44100001 4278664210
0.028737504 0.039709978 0.44000003 4278795798
0.030166626 0.039709978 0.44000003 4279058972
0.031452131 0.039529476 0.43800002 4278599189
0.032799695 0.039439224 0.43700001 4278664982
0.034140769 0.039348975 0.43600002 4278664982
0.035556898 0.039348975 0.43600002 4278468117
0.036888227 0.039258726 0.43500003 4278468117
0.038125012 0.039078228 0.43300003 4278533910
0.0393488 0.038897727 0.43100002 4278402837
0.040559601 0.038717225 0.42900002 4278468630
0.041855201 0.038626976 0.42800003 4278731804
0.043043267 0.038446479 0.42600003 4278797343
0.044322625 0.038356226 0.42500001 4278796830
0.045595489 0.038265977 0.42400002 4279125795
-0.0044046277 0.043851051 0.46900001 4279123482
-0.0028690279 0.043664053 0.46700001 4278928154
-0.00134642 0.043477058 0.46500003 4278862875
0.00016319583 0.04329006 0.46300003 4278797082
0.0016598196 0.043103062 0.46100003 4278797082
0.0031434514 0.042916063 0.45900002 4278797082
0.004614091 0.042729065 0.45700002 4278665496
0.0060717394 0.042542066 0.45500001 4278665498
0.0075329873 0.042448569 0.45400003 4278532115
0.0089877397 0.042355068 0.45300001 4278197762
0.010435997 0.042261571 0.45200002 4279187992
0.011877757 0.04216807 0.45100003 4278399246
0.013313021 0.042074572 0.45000002 4278590222
0.01474179 0.041981071 0.44900003 4278589709
0.016164061 0.041887574 0.44800001 4278720525
0.017579837 0.041794073 0.44700003 4278851597
0.018989118 0.041700576 0.44600001 4278917392
0.020391902 0.041607074 0.44500002 4278851599
0.021788191 0.041513577 0.44400004 4278588941
0.023177981 0.041420076 0.44300002 4278654732
0.024616847 0.041420076 0.44300002 4278458123
0.025996897 0.041326579 0.44200003 4278459656
0.027370447 0.041233078 0.44100001 4279385371
0.028802816 0.041233078 0.44100001 4278198787
0.030166626 0.04113958 0.44000003 4278196224
0.031523935 0.041046079 0.43900001 4278196224
0.032874752 0.040952582 0.43800002 4278197504
0.034219075 0.040859081 0.43700001 4278200072
0.035556898 0.040765584 0.43600002 4278859543
0.036888227 0.040672086 0.43500003 4279255068
0.038125012 0.040485088 0.43300003 4278730007
0.0393488 0.040298089 0.43100002 4278664984
0.040654145 0.040204588 0.43000001 4278533398
0.041855201 0.040017594 0.42800003 4278664984
0.043043267 0.039830595 0.42600003 4278731291
0.044322625 0.039737094 0.42500001 4278533912
0.045595489 0.039643597 0.42400002 4278665498
0.046972644 0.039643597 0.42400002 4278665498
0.048235759 0.039550096 0.42300001 4278731804
0.049609669 0.039550096 0.42300001 4278731804
0.051104102 0.039643597 0.42400002 4278535195
0.052481253 0.039643597 0.42400002 4278994209
0.053985428 0.039737094 0.42500001 4279585064
0.055365831 0.039737094 0.42500001 4279914545
0.05922078 0.040485088 0.43300003 4286360460
0.060627166 0.040485088 0.43300003 4281492294
0.062033553 0.040485088 0.43300003 4279584803
0.063439943 0.040485088 0.43300003 4279058459
-0.0043952363 0.045278132 0.46800002 4279452963
-0.0028628844 0.045084637 0.46600002 4278796570
-0.0013435245 0.044891141 0.46400002 4278862877
0.00016284335 0.044697642 0.46200001 4278797084
0.0016562191 0.044504147 0.46000001 4278797084
0.0031366032 0.044310652 0.45800003 4278797084
0.004603995 0.044117156 0.45600003 4278797084
0.0060717394 0.044020407 0.45500001 4278533912
0.0075329873 0.043923661 0.45400003 4279386400
0.0089877397 0.043826912 0.45300001 4278197762
0.010435997 0.043730162 0.45200002 4278859797
0.011877757 0.043633416 0.45100003 4278200586
0.013313021 0.043536667 0.45000002 4278459406
0.01474179 0.043439921 0.44900003 4278985750
0.016164061 0.043343168 0.44800001 4278787601
0.017579837 0.043246422 0.44700003 4279971362
0.018989118 0.043149672 0.44600001 4279050773
0.020391902 0.043052927 0.44500002 4280104485
0.021788191 0.042956181 0.44400004 4278985234
0.023177981 0.042859428 0.44300002 4278984980
0.024616847 0.042859428 0.44300002 4278786318
0.025996897 0.042762682 0.44200003 4278919439
0.027370447 0.042665932 0.44100001 4278991896
0.028802816 0.042665932 0.44100001 4278926103
0.030166626 0.042569187 0.44000003 4279188762
0.031523935 0.042472437 0.43900001 4278990359
0.032874752 0.042375688 0.43800002 4279187738
0.034219075 0.042278938 0.43700001 4278924566
0.035556898 0.042182192 0.43600002 4279253017
0.036888227 0.042085446 0.43500003 4278726675
0.038125012 0.041891947 0.43300003 4278198532
0.039440095 0.041795198 0.43200001 4278196480
0.040654145 0.041601703 0.43000001 4278196736
0.041952994 0.041504957 0.42900002 4278198533
0.043144308 0.041311458 0.42700002 4278529296
0.044426914 0.041214712 0.42600003 4279385117
0.045703024 0.041117962 0.42500001 4279255068
0.047083426 0.041117962 0.42500001 4279321631
0.048349794 0.041021217 0.42400002 4278795798
0.049726948 0.041021217 0.42400002 4278599189
0.051224627 0.041117962 0.42500001 4278665496
0.052605029 0.041117962 0.42500001 4278665496
0.054112453 0.041214712 0.42600003 4278665496
0.055626374 0.041311458 0.42700002 4278797084
0.057413835 0.041601703 0.43000001 4278533912
0.059084009 0.041795198 0.43200001 4279257121
0.060627166 0.041891947 0.43300003 4278401558
0.062033553 0.041891947 0.43300003 4279126049
0.063439943 0.041891947 0.43300003 4279323426
0.064846322 0.041891947 0.43300003 4278994461
-0.0043952363 0.046798714 0.46800002 4279255838
-0.0028628844 0.046598718 0.46600002 4278797084
-0.0013435245 0.046398722 0.46400002 4278731291
0.00016249088 0.046098731 0.46100003 4278862877
0.0016526188 0.045898739 0.45900002 4278862877
0.0031366032 0.045798741 0.45800003 4278797084
0.004603995 0.045598745 0.45600003 4278665498
0.0060717394 0.045498747 0.45500001 4278731291
0.0075163944 0.045298751 0.45300001 4278727189
0.0089678997 0.045198757 0.45200002 4278197510
0.010412908 0.045098759 0.45100003 4279517727
0.01185142 0.044998761 0.45000002 4278200329
0.013313021 0.044998761 0.45000002 4278919441
0.01474179 0.044898767 0.44900003 4278459406
0.016127981 0.044698771 0.44700003 4279314967
0.017540509 0.044598773 0.44600001 4279446553
0.018989118 0.044598773 0.44600001 4278194433
0.020391902 0.044498775 0.44500002 4278195460
0.021788191 0.044398781 0.44400004 4278262281
0.023177981 0.044298783 0.44300002 4279776031
0.024616847 0.044298783 0.44300002 4278656269
0.025996897 0.044198785 0.44200003 4278854416
0.027432514 0.044198785 0.44200003 4278729494
0.028802816 0.044098787 0.44100001 4278201866
0.030166626 0.043998789 0.44000003 4278263304
0.031523935 0.043898791 0.43900001 4278330634
0.032874752 0.043798797 0.43800002 4278991129
0.034219075 0.043698795 0.43700001 4278267406
0.035556898 0.043598801 0.43600002 4279123228
0.036888227 0.043498803 0.43500003 4278991642
0.038213059 0.043398805 0.43400002 4279321377
0.039531395 0.043298811 0.43300003 4278795033
0.040748693 0.043098815 0.43100002 4279123228
0.042050786 0.042998817 0.43000001 4279451680
0.043245349 0.042798825 0.42800003 4279977254
0.044531204 0.042698827 0.42700002 4279253017
0.045810562 0.042598829 0.42600003 4278858259
0.047194213 0.042598829 0.42600003 4278199561
0.04857786 0.042598829 0.42600003 4278197248
0.049961511 0.042598829 0.42600003 4278196480
0.051345158 0.042598829 0.42600003 4278196480
0.052852582 0.042698827 0.42700002 4278199046
0.054366503 0.042798825 0.42800003 4279715104
0.055756651 0.042798825 0.42800003 4279058457
0.057547357 0.043098815 0.43100002 4278862361
0.059084009 0.043198809 0.43200001 4278796568
0.060627166 0.043298811 0.43300003 4278796568
0.062033553 0.043298811 0.43300003 4278796568
0.063439943 0.043298811 0.43300003 4278665496
0.064846322 0.043298811 0.43300003 4278862875
0.066099696 0.043198809 0.43200001 4279058972
-0.0044046277 0.048422538 0.46900001 4279058459
-0.0028628844 0.048112798 0.46600002 4278862877
-0.0013435245 0.047906306 0.46400002 4278797084
0.00016249088 0.047596566 0.46100003 4278862877
0.0016526188 0.047390074 0.45900002 4278665498
0.0031297544 0.047183581 0.45700002 4278797084
0.004603995 0.047080338 0.45600003 4278731291
0.0060717394 0.046977088 0.45500001 4278665498
0.0075163944 0.046770595 0.45300001 4279121947
0.0089678997 0.046667352 0.45200002 4278198282
0.010412908 0.046564106 0.45100003 4279188508
0.01185142 0.046460856 0.45000002 4278198532
0.013283437 0.046357613 0.44900003 4278786572
0.014708957 0.046254363 0.44800001 4278654732
0.016127981 0.04615112 0.44700003 4278786318
0.017540509 0.04604787 0.44600001 4278589709
0.018946541 0.045944627 0.44500002 4278458123
0.020391902 0.045944627 0.44500002 4278523916
0.021788191 0.045841381 0.44400004 4279117590
0.023177981 0.045738135 0.44300002 4279776031
0.024616847 0.045738135 0.44300002 4278788625
0.025996897 0.045634888 0.44200003 4279578652
0.027432514 0.045634888 0.44200003 4278794004
0.028802816 0.045531642 0.44100001 4278198277
0.030166626 0.045428395 0.44000003 4278655754
0.031523935 0.045325149 0.43900001 4278656267
0.032874752 0.045221902 0.43800002 4278198279
0.034219075 0.045118652 0.43700001 4279319326
0.035556898 0.04501541 0.43600002 4278200331
0.036888227 0.044912163 0.43500003 4278266638
0.038213059 0.044808917 0.43400002 4279187740
0.039531395 0.04470567 0.43300003 4278198789
0.040843233 0.044602424 0.43200001 4278992666
0.042050786 0.044395931 0.43000001 4278861080
0.043346386 0.044292685 0.42900002 4278795287
0.044635493 0.044189438 0.42800003 4278992666
0.045918096 0.044086192 0.42700002 4278663701
0.047304995 0.044086192 0.42700002 4279255068
0.048691891 0.044086192 0.42700002 4279255068
0.050078791 0.044086192 0.42700002 4279320861
0.051465686 0.044086192 0.42700002 4279386141
0.052976359 0.044189438 0.42800003 4279516703
0.054493528 0.044292685 0.42900002 4278660369
0.05601719 0.044395931 0.43000001 4279318810
0.057547357 0.044499177 0.43100002 4278928154
0.059084009 0.044602424 0.43200001 4278928154
0.060627166 0.04470567 0.43300003 4278862361
0.062033553 0.04470567 0.43300003 4278796566
0.063439943 0.04470567 0.43300003 4278599187
0.064696558 0.044602424 0.43200001 4278599187
0.066099696 0.044602424 0.43200001 4278664212
0.067502834 0.044602424 0.43200001 4278201351
-0.0044140196 0.050052863 0.47000003 4279124252
-0.0028690279 0.049733374 0.46700001 4278993949
-0.0013435245 0.04941389 0.46400002 4278928670
0.00016284335 0.0492009 0.46200001 4278862877
0.0016526188 0.048881412 0.45900002 4278862875
0.0031366032 0.04877492 0.45800003 4278666009
0.004603995 0.048561927 0.45600003 4278468630
0.0060717394 0.048455428 0.45500001 4278468630
0.0075163944 0.048242439 0.45300001 4278201612
0.0089678997 0.048135944 0.45200002 4278331917
0.010412908 0.048029449 0.45100003 4278860826
0.01185142 0.047922954 0.45000002 4279058205
0.013283437 0.047816459 0.44900003 4278854414
0.014708957 0.04770996 0.44800001 4278655754
0.016127981 0.047603469 0.44700003 4278589193
0.017540509 0.047496971 0.44600001 4278720779
0.018946541 0.047390476 0.44500002 4278720525
0.020346079 0.047283981 0.44400004 4278720013
0.021788191 0.047283981 0.44400004 4278786320
0.023177981 0.047177486 0.44300002 4278588941
0.024616847 0.047177486 0.44300002 4278589963
0.025996897 0.047070991 0.44200003 4279381271
0.027370447 0.046964493 0.44100001 4279187992
0.028802816 0.046964493 0.44100001 4278197764
0.030166626 0.046858002 0.44000003 4278589963
0.031523935 0.046751503 0.43900001 4278656269
0.032874752 0.046645008 0.43800002 4278725392
0.034219075 0.046538509 0.43700001 4279450398
0.035556898 0.046432018 0.43600002 4278198789
0.036973029 0.046432018 0.43600002 4278199817
0.038301107 0.046325523 0.43500003 4279516189
0.039531395 0.04611253 0.43300003 4278529294
0.040843233 0.046006035 0.43200001 4279187226
0.042148579 0.04589954 0.43100002 4278398224
0.043447427 0.045793042 0.43000001 4278660880
0.044739779 0.04568655 0.42900002 4278398992
0.046133172 0.04568655 0.42900002 4278197760
0.047415782 0.045580056 0.42800003 4278398992
0.048805926 0.045580056 0.42800003 4279189275
0.050196074 0.045580056 0.42800003 4279452447
0.051706742 0.04568655 0.42900002 4279124252
0.053100135 0.04568655 0.42900002 4279058459
0.054620549 0.045793042 0.43000001 4278792466
0.05601719 0.045793042 0.43000001 4279910947
0.057547357 0.04589954 0.43100002 4278928154
0.059084009 0.046006035 0.43200001 4278928154
0.060627166 0.04611253 0.43300003 4278796566
0.062033553 0.04611253 0.43300003 4278796566
0.063439943 0.04611253 0.43300003 4278927382
0.064696558 0.046006035 0.43200001 4278664210
0.066099696 0.046006035 0.43200001 4278662931
0.067502834 0.046006035 0.43200001 4278201866
-0.0044234111 0.051689684 0.47100002 4278860308
-0.0028751716 0.051360451 0.46800002 4278927384
-0.00134642 0.051031221 0.46500003 4278796568
0.00016284335 0.050701983 0.46200001 4278468117
0.0016562191 0.050482493 0.46000001 4278336531
0.0031366032 0.050263006 0.45800003 4278402324
0.004614091 0.050153259 0.45700002 4278402837
0.0060717394 0.049933773 0.45500001 4278337044
0.0075329873 0.049824029 0.45400003 4278598421
0.0089678997 0.049604539 0.45200002 4278925849
0.010412908 0.049494796 0.45100003 4278729755
0.01185142 0.049385048 0.45000002 4278927132
0.013283437 0.049275305 0.44900003 4279058205
0.014708957 0.049165558 0.44800001 4279254814
0.016127981 0.049055815 0.44700003 4279581984
0.017540509 0.048946071 0.44600001 4279647777
0.018946541 0.048836328 0.44500002 4279318812
0.020346079 0.048726585 0.44400004 4279712033
0.021739118 0.048616838 0.44300002 4279118103
0.023177981 0.048616838 0.44300002 4278524683
0.024561279 0.048507094 0.44200003 4278458375
0.025996897 0.048507094 0.44200003 4279711520
0.027370447 0.048397347 0.44100001 4278331915
0.028802816 0.048397347 0.44100001 4279382809
0.030166626 0.048287604 0.44000003 4279710236
0.031523935 0.048177857 0.43900001 4279512857
0.032874752 0.048068114 0.43800002 4279385119
0.034219075 0.04795837 0.43700001 4279319326
0.035556898 0.047848627 0.43600002 4279385887
0.036888227 0.047738884 0.43500003 4278859543
0.038301107 0.047738884 0.43500003 4278198018
0.039622691 0.047629137 0.43400002 4278397710
0.040937781 0.047519393 0.43300003 4279318812
0.042246372 0.047409646 0.43200001 4278265357
0.043548469 0.047299903 0.43100002 4278198024
0.044844069 0.047190156 0.43000001 4279843619
0.046133172 0.047080413 0.42900002 4279187226
0.047526564 0.047080413 0.42900002 4278660882
0.048919957 0.047080413 0.42900002 4278396943
0.050313354 0.047080413 0.42900002 4279975975
0.051706742 0.047080413 0.42900002 4278530578
0.053223912 0.047190156 0.43000001 4278992666
0.054620549 0.047190156 0.43000001 4278198016
0.056147467 0.047299903 0.43100002 4279516189
0.057680875 0.047409646 0.43200001 4278993177
0.059084009 0.047409646 0.43200001 4278795798
0.060627166 0.047519393 0.43300003 4278993177
0.062033553 0.047519393 0.43300003 4278795798
0.063293427 0.047409646 0.43200001 4278532626
0.064696558 0.047409646 0.43200001 4278598419
0.066099696 0.047409646 0.43200001 4278662931
0.06734658 0.047299903 0.43100002 4278727957
-0.0028813148 0.052994024 0.46900001 4279646744
-0.0013493155 0.052655045 0.46600002 4278859795
0.00016319583 0.052316062 0.46300003 4279189273
0.0016598196 0.052090075 0.46100003 4278664212
0.0031434514 0.051864088 0.45900002 4278730005
0.0046241879 0.051751096 0.45800003 4278533398
0.0060850838 0.051525109 0.45600003 4278467605
0.0075329873 0.051299121 0.45400003 4278795800
0.0089678997 0.051073134 0.45200002 4278993179
0.010412908 0.050960138 0.45100003 4278729753
0.01185142 0.050847143 0.45000002 4278795546
0.013283437 0.050734151 0.44900003 4278992925
0.014676125 0.050508164 0.44700003 4279058718
0.0160919 0.050395168 0.44600001 4279058718
0.017501181 0.050282177 0.44500002 4278992925
0.018903965 0.050169185 0.44400004 4278795546
0.020346079 0.050169185 0.44400004 4278992925
0.021739118 0.050056189 0.44300002 4279058205
0.023125662 0.049943198 0.44200003 4278860826
0.024561279 0.049943198 0.44200003 4279188508
0.025938079 0.049830202 0.44100001 4279254555
0.027370447 0.049830202 0.44100001 4279714852
0.028737504 0.04971721 0.44000003 4279188510
0.030098066 0.049604215 0.43900001 4279120920
0.031523935 0.049604215 0.43900001 4278198277
0.032874752 0.049491223 0.43800002 4278194944
0.034219075 0.049378227 0.43700001 4278195456
0.035556898 0.049265232 0.43600002 4278197765
0.036888227 0.04915224 0.43500003 4278200077
0.038213059 0.049039245 0.43400002 4279515937
0.039531395 0.048926253 0.43300003 4279319326
0.040937781 0.048926253 0.43300003 4279649059
0.042246372 0.048813257 0.43200001 4279188508
0.043548469 0.048700266 0.43100002 4279385887
0.044844069 0.04858727 0.43000001 4279254301
0.046240706 0.04858727 0.43000001 4279121945
0.047637347 0.04858727 0.43000001 4278661394
0.049033988 0.04858727 0.43000001 4279581984
0.050430629 0.04858727 0.43000001 4278199047
0.051827271 0.04858727 0.43000001 4278397708
0.053223912 0.04858727 0.43000001 4279320348
0.054747578 0.048700266 0.43100002 4278198532
0.056147467 0.048700266 0.43100002 4279253019
0.057680875 0.048813257 0.43200001 4279058457
0.059084009 0.048813257 0.43200001 4279124250
0.060627166 0.048926253 0.43300003 4278861078
0.062033553 0.048926253 0.43300003 4278795798
0.063293427 0.048813257 0.43200001 4278730005
0.064696558 0.048813257 0.43200001 4278598419
0.066099696 0.048813257 0.43200001 4278795285
0.06734658 0.048700266 0.43100002 4279255068
-0.001352211 0.054285366 0.46700001 4278721799
0.00016354831 0.053936638 0.46400002 4278524933
0.0016598196 0.05358791 0.46100003 4278723595
0.0046342839 0.053355426 0.45900002 4278923541
0.0060984283 0.053122938 0.45700002 4278792466
0.0075495797 0.052890453 0.45500001 4279057176
0.0089877397 0.052657969 0.45300001 4279057176
0.010412908 0.052425485 0.45100003 4279123482
0.01185142 0.052309241 0.45000002 4279123998
0.013283437 0.052192997 0.44900003 4279255584
0.014676125 0.051960513 0.44700003 4278992412
0.0160919 0.051844269 0.44600001 4279058718
0.017501181 0.051728029 0.44500002 4278992925
0.018903965 0.051611785 0.44400004 4278795546
0.020300254 0.051495541 0.44300002 4278927132
0.021739118 0.051495541 0.44300002 4279058972
0.023125662 0.051379301 0.44200003 4278993179
0.02450571 0.051263057 0.44100001 4278993177
0.025938079 0.051263057 0.44100001 4278730005
0.027308384 0.051146813 0.44000003 4278927384
0.028737504 0.051146813 0.44000003 4278795798
0.030098066 0.051030569 0.43900001 4278795798
0.031452131 0.050914329 0.43800002 4278992666
0.032799695 0.050798085 0.43700001 4278991896
0.034140769 0.050681841 0.43600002 4279057176
0.035556898 0.050681841 0.43600002 4278991383
0.036888227 0.0505656 0.43500003 4279648289
0.038213059 0.050449356 0.43400002 4279253019
0.039531395 0.050333116 0.43300003 4278595089
0.040843233 0.050216869 0.43200001 4278199818
0.042246372 0.050216869 0.43200001 4278196994
0.043548469 0.050100628 0.43100002 4278196736
0.044948358 0.050100628 0.43100002 4278197763
0.046240706 0.049984384 0.43000001 4278791185
0.047637347 0.049984384 0.43000001 4279713057
0.049033988 0.049984384 0.43000001 4279976994
0.050430629 0.049984384 0.43000001 4279451164
0.051827271 0.049984384 0.43000001 4279780129
0.053347688 0.050100628 0.43100002 4279188762
0.054747578 0.050100628 0.43100002 4278196736
0.056277737 0.050216869 0.43200001 4279845922
0.057680875 0.050216869 0.43200001 4279189271
0.05922078 0.050333116 0.43300003 4278992662
0.060627166 0.050333116 0.43300003 4279124248
0.062033553 0.050333116 0.43300003 4278993175
0.063439943 0.050333116 0.43300003 4278795796
0.064696558 0.050216869 0.43200001 4278532626
0.066099696 0.050216869 0.43200001 4278729494
0.06734658 0.050100628 0.43100002 4278728470
0.0075661722 0.05448829 0.45600003 4279511061
0.014676125 0.053412862 0.44700003 4279319074
0.0160919 0.053293366 0.44600001 4279320357
0.017461853 0.053054389 0.44400004 4279583529
0.018861389 0.052934892 0.44300002 4279255332
0.020300254 0.052934892 0.44300002 4279189793
0.021690046 0.052815404 0.44200003 4279123998
0.023125662 0.052815404 0.44200003 4279123998
0.02450571 0.052695908 0.44100001 4278861080
0.025938079 0.052695908 0.44100001 4278993179
0.027308384 0.052576419 0.44000003 4279058972
0.02867219 0.052456923 0.43900001 4278993179
0.030098066 0.052456923 0.43900001 4278730007
0.031452131 0.052337434 0.43800002 4278795798
0.032799695 0.052217942 0.43700001 4278927384
0.034140769 0.052098449 0.43600002 4278730005
0.035475347 0.051978961 0.43500003 4278795798
0.036803428 0.051859464 0.43400002 4278795800
0.038213059 0.051859464 0.43400002 4278795800
0.039531395 0.051739976 0.43300003 4278927386
0.040843233 0.051620483 0.43200001 4278991896
0.042246372 0.051620483 0.43200001 4278991896
0.043548469 0.051500991 0.43100002 4279254555
0.044948358 0.051500991 0.43100002 4279187738
0.046240706 0.051381499 0.43000001 4280042535
0.047637347 0.051381499 0.43000001 4279581984
0.049033988 0.051381499 0.43000001 4278857748
0.050430629 0.051381499 0.43000001 4278197762
0.051947802 0.051500991 0.43100002 4278195712
0.053347688 0.051500991 0.43100002 4278196481
0.054874599 0.051620483 0.43200001 4278198787
0.056277737 0.051620483 0.43200001 4279188762
0.057814401 0.051739976 0.43300003 4278991892
0.05922078 0.051739976 0.43300003 4279190295
0.060627166 0.051739976 0.43300003 4279124761
0.062033553 0.051739976 0.43300003 4278927382
0.063439943 0.051739976 0.43300003 4278730003
0.064696558 0.051620483 0.43200001 4278730003
0.066099696 0.051620483 0.43200001 4278532115
0.067502834 0.051620483 0.43200001 4278199563
0.017461853 0.054496989 0.44400004 4285302905
0.018861389 0.054374244 0.44300002 4283856742
0.020300254 0.054374244 0.44300002 4281423173
0.021690046 0.054251507 0.44200003 4279581219
0.023073342 0.054128762 0.44100001 4279186461
0.02450571 0.054128762 0.44100001 4278991392
0.025879264 0.054006021 0.44000003 4279583529
0.027308384 0.054006021 0.44000003 4279715113
0.02867219 0.053883281 0.43900001 4279386402
0.030029505 0.05376054 0.43800002 4278992412
0.031380318 0.053637799 0.43700001 4279058205
0.032799695 0.053637799 0.43700001 4278795546
0.034140769 0.053515058 0.43600002 4278795546
0.035475347 0.053392321 0.43500003 4278927132
0.036803428 0.053269576 0.43400002 4278795546
0.038125012 0.053146835 0.43300003 4278795546
0.039531395 0.053146835 0.43300003 4278927132
0.040843233 0.053024095 0.43200001 4278729753
0.042148579 0.052901354 0.43100002 4278795546
0.043548469 0.052901354 0.43100002 4278927132
0.044948358 0.052901354 0.43100002 4278927132
0.046240706 0.052778613 0.43000001 4278992925
0.047637347 0.052778613 0.43000001 4278992925
0.049033988 0.052778613 0.43000001 4279058718
0.050547913 0.052901354 0.43100002 4278927132
0.051947802 0.052901354 0.43100002 4279189791
0.053347688 0.052901354 0.43100002 4279254814
0.054874599 0.053024095 0.43200001 4279189275
0.056408014 0.053146835 0.43300003 4279320861
0.057814401 0.053146835 0.43300003 4279124250
0.05922078 0.053146835 0.43300003 4279124248
0.060627166 0.053146835 0.43300003 4279058970
0.062033553 0.053146835 0.43300003 4278730005
0.063439943 0.053146835 0.43300003 4278795798
0.064846322 0.053146835 0.43300003 4278664212
0.066099696 0.053024095 0.43200001 4278859545
0.067502834 0.053024095 0.43200001 4281751620
0.023073342 0.055561621 0.44100001 4285434231
0.02450571 0.055561621 0.44100001 4285434745
0.025879264 0.055435631 0.44000003 4285303675
0.027246319 0.055309638 0.43900001 4284053608
0.02867219 0.055309638 0.43900001 4282671439
0.030029505 0.055183649 0.43800002 4279844391
0.031380318 0.05505766 0.43700001 4279121179
0.032724638 0.05493167 0.43600002 4279188256
0.034062468 0.054805681 0.43500003 4279385635
0.035393793 0.054679688 0.43400002 4279649061
0.036803428 0.054679688 0.43400002 4279517475
0.038125012 0.054553702 0.43300003 4279386148
0.039440095 0.054427709 0.43200001 4279386148
0.040843233 0.054427709 0.43200001 4279451941
0.042148579 0.05430172 0.43100002 4279189023
0.043548469 0.05430172 0.43100002 4278860056
0.044948358 0.05430172 0.43100002 4279320607
0.046348244 0.05430172 0.43100002 4279189791
0.047637347 0.054175727 0.43000001 4279058718
0.049148023 0.05430172 0.43100002 4279058718
0.050547913 0.05430172 0.43100002 4279124511
0.051947802 0.05430172 0.43100002 4278927132
0.053471465 0.054427709 0.43200001 4279058718
0.054874599 0.054427709 0.43200001 4278992925
0.056408014 0.054553702 0.43300003 4278927386
0.057814401 0.054553702 0.43300003 4278927386
0.059357546 0.054679688 0.43400002 4278927384
0.060767181 0.054679688 0.43400002 4278927382
0.062176816 0.054679688 0.43400002 4278927382
0.063586451 0.054679688 0.43400002 4278597908
0.064846322 0.054553702 0.43300003 4278795033
0.066252708 0.054553702 0.43300003 4278396173
0.067502834 0.054427709 0.43200001 4283395162
0.027246319 0.056735992 0.43900001 4284776301
0.028606879 0.056606755 0.43800002 4284644715
0.030029505 0.056606755 0.43800002 4284447336
0.031380318 0.056477513 0.43700001 4284513129
0.032724638 0.056348275 0.43600002 4284907887
0.034062468 0.056219038 0.43500003 4284973680
0.035393793 0.056089796 0.43400002 4284974194
0.036803428 0.056089796 0.43400002 4284579436
0.038125012 0.055960558 0.43300003 4284251241
0.039440095 0.055831317 0.43200001 4283527518
0.040843233 0.055831317 0.43200001 4282146376
0.042148579 0.055702079 0.43100002 4281027895
0.043548469 0.055702079 0.43100002 4279976490
0.044948358 0.055702079 0.43100002 4279252767
0.046348244 0.055702079 0.43100002 4279121181
0.047748134 0.055702079 0.43100002 4279186974
0.049148023 0.055702079 0.43100002 4279450144
0.050547913 0.055702079 0.43100002 4279975975
0.051947802 0.055702079 0.43100002 4279845416
0.053471465 0.055831317 0.43200001 4279451428
0.055001624 0.055960558 0.43300003 4279780393
0.056408014 0.055960558 0.43300003 4279648807
0.057947919 0.056089796 0.43400002 4279649061
0.059357546 0.056089796 0.43400002 4279452193
0.060767181 0.056089796 0.43400002 4279452447
0.062176816 0.056089796 0.43400002 4279452447
0.063586451 0.056089796 0.43400002 4279319064
0.064996079 0.056089796 0.43400002 4279054357
0.066252708 0.055960558 0.43300003 4283788893
0.055001624 0.057367422 0.43300003 4285699198
0.056408014 0.057367422 0.43300003 4284975475
0.057947919 0.057499908 0.43400002 4284514413
0.059357546 0.057499908 0.43400002 4283199066
0.060767181 0.057499908 0.43400002 4281817411
0.062176816 0.057499908 0.43400002 4281817413
0.063586451 0.057499908 0.43400002 4283395160
0.064996079 0.057499908 0.43400002 4284184162
0.030592721 0.046492659 0.44472066 4294967295
0.030592721 0.046492659 0.44472066 4294901760
0.030592721 0.046492659 0.44522065 4294901760
0.030592721 0.046492659 0.44572064 4294901760
0.030592721 0.046492659 0.44622067 4294901760
0.030592721 0.046492659 0.44672066 4294901760
0.030592721 0.046492659 0.44722065 4294901760
0.030592721 0.046492659 0.44772065 4294901760
0.030592721 0.046492659 0.44822067 4294901760
0.030592721 0.046492659 0.44872066 4294901760
0.030592721 0.046492659 0.44922066 4294901760
0.030592721 0.046492659 0.44972065 4294901760
0.030592721 0.046492659 0.45022064 4294901760
0.030592721 0.046492659 0.45072067 4294901760
0.030592721 0.046492659 0.45122066 4294901760
0.030592721 0.046492659 0.45172065 4294901760
0.030592721 0.046492659 0.45222065 4294901760
0.030592721 0.046492659 0.45272064 4294901760
0.030592721 0.046492659 0.45322067 4294901760
0.030592721 0.046492659 0.45372066 4294901760
0.030592721 0.046492659 0.45422065 4294901760
0.030592721 0.046492659 0.45472065 4294901760
0.030592721 0.046492659 0.45522067 4294901760
0.030592721 0.046492659 0.45572066 4294901760
0.030592721 0.046492659 0.45622066 4294901760
0.030592721 0.046492659 0.45672065 4294901760
0.030592721 0.046492659 0.45722067 4294901760
0.030592721 0.046492659 0.45772067 4294901760
0.030592721 0.046492659 0.45822066 4294901760
0.030592721 0.046492659 0.45872065 4294901760
0.030592721 0.046492659 0.45922065 4294901760
0.030592721 0.046492659 0.45972067 4294901760
0.030592721 0.046492659 0.46022066 4294901760
0.030592721 0.046492659 0.46072066 4294901760
0.030592721 0.046492659 0.46122065 4294901760
0.030592721 0.046492659 0.46172065 4294901760
0.030592721 0.046492659 0.46222067 4294901760
0.030592721 0.046492659 0.46272066 4294901760
0.030592721 0.046492659 0.46322066 4294901760
0.030592721 0.046492659 0.46372065 4294901760
0.030592721 0.046492659 0.46422067 4294901760
0.030592721 0.046492659 0.46472067 4294901760
0.030592721 0.046492659 0.46522066 4294901760
0.030592721 0.046492659 0.46572065 4294901760
0.030592721 0.046492659 0.46622068 4294901760
0.030592721 0.046492659 0.46672067 4294901760
0.030592721 0.046492659 0.46722066 4294901760
0.030592721 0.046492659 0.46772066 4294901760
0.030592721 0.046492659 0.46822065 4294901760
0.030592721 0.046492659 0.46872067 4294901760
0.030592721 0.046492659 0.46922067 4294901760
0.030592721 0.046492659 0.46972066 4294901760
0.030592721 0.046492659 0.47022066 4294901760
0.030592721 0.046492659 0.47072065 4294901760
0.030592721 0.046492659 0.47122067 4294901760
0.030592721 0.046492659 0.47172067 4294901760
0.030592721 0.046492659 0.47222066 4294901760
0.030592721 0.046492659 0.47272065 4294901760
0.030592721 0.046492659 0.47322065 4294901760
0.030592721 0.046492659 0.47372067 4294901760
0.030592721 0.046492659 0.47422066 4294901760
0.030592721 0.046492659 0.47472066 4294901760
0.030592721 0.046492659 0.47522065 4294901760
0.030592721 0.046492659 0.47572067 4294901760
0.030592721 0.046492659 0.47622067 4294901760
0.030592721 0.046492659 0.47672066 4294901760
0.030592721 0.046492659 0.47722065 4294901760
0.030592721 0.046492659 0.47772068 4294901760
0.030592721 0.046492659 0.47822067 4294901760
0.030592721 0.046492659 0.47872066 4294901760
0.030592721 0.046492659 0.47922066 4294901760
0.030592721 0.046492659 0.47972065 4294901760
0.030592721 0.046492659 0.48022068 4294901760
0.030592721 0.046492659 0.48072067 4294901760
0.030592721 0.046492659 0.48122066 4294901760
0.030592721 0.046492659 0.48172066 4294901760
0.030592721 0.046492659 0.48222065 4294901760
0.030592721 0.046492659 0.48272067 4294901760
0.030592721 0.046492659 0.48322067 4294901760
0.030592721 0.046492659 0.48372066 4294901760
0.030592721 0.046492659 0.48422065 4294901760
0.030592721 0.046492659 0.48472068 4294901760
0.030592721 0.046492659 0.48522067 4294901760
0.030592721 0.046492659 0.48572066 4294901760
0.030592721 0.046492659 0.48622066 4294901760
0.030592721 0.046492659 0.48672065 4294901760
0.030592721 0.046492659 0.48722067 4294901760
0.030592721 0.046492659 0.48772067 4294901760
0.030592721 0.046492659 0.48822066 4294901760
0.030592721 0.046492659 0.48872066 4294901760
0.030592721 0.046492659 0.48922068 4294901760
0.030592721 0.046492659 0.48972067 4294901760
0.030592721 0.046492659 0.49022067 4294901760
0.030592721 0.046492659 0.49072066 4294901760
0.030592721 0.046492659 0.49122065 4294901760
0.030592721 0.046492659 0.49172068 4294901760
0.030592721 0.046492659 0.49222067 4294901760
0.030592721 0.046492659 0.49272066 4294901760
0.030592721 0.046492659 0.49322066 4294901760
0.030592721 0.046492659 0.49372068 4294901760
0.030592721 0.046492659 0.49422067 4294901760
0.030592721 0.046492659 0.49472067 4294901760
0.030592721 0.046492659 0.44472066 4278255360
0.0308304 0.046552315 0.44515648 4278255360
0.031068079 0.046611976 0.44559231 4278255360
0.031305756 0.046671633 0.44602814 4278255360
0.031543437 0.046731289 0.44646397 4278255360
0.031781115 0.04679095 0.44689983 4278255360
0.032018796 0.046850607 0.44733566 4278255360
0.032256473 0.046910264 0.44777149 4278255360
0.032494154 0.046969924 0.44820732 4278255360
0.032731831 0.047029581 0.44864315 4278255360
0.032969512 0.047089238 0.44907898 4278255360
0.033207189 0.047148898 0.44951481 4278255360
0.03344487 0.047208555 0.44995064 4278255360
0.033682548 0.047268212 0.45038646 4278255360
0.033920228 0.047327872 0.45082229 4278255360
0.034157906 0.047387529 0.45125815 4278255360
0.034395583 0.047447186 0.45169398 4278255360
0.034633264 0.047506846 0.45212981 4278255360
0.034870945 0.047566503 0.45256564 4278255360
0.035108622 0.04762616 0.45300147 4278255360
0.035346299 0.047685821 0.4534373 4278255360
0.03558398 0.047745477 0.45387313 4278255360
0.035821658 0.047805134 0.45430896 4278255360
0.036059339 0.047864795 0.45474479 4278255360
0.036297016 0.047924452 0.45518062 4278255360
0.036534697 0.047984108 0.45561647 4278255360
0.036772374 0.048043769 0.4560523 4278255360
0.037010055 0.048103426 0.45648813 4278255360
0.037247732 0.048163082 0.45692396 4278255360
0.037485413 0.048222743 0.45735979 4278255360
0.03772309 0.0482824 0.45779562 4278255360
0.037960771 0.048342057 0.45823145 4278255360
0.038198449 0.048401717 0.45866728 4278255360
0.03843613 0.048461374 0.45910311 4278255360
0.038673807 0.048521031 0.45953894 4278255360
0.038911484 0.048580691 0.45997477 4278255360
0.039149165 0.048640348 0.46041062 4278255360
0.039386846 0.048700005 0.46084645 4278255360
0.039624523 0.048759665 0.46128228 4278255360
0.039862201 0.048819322 0.46171811 4278255360
0.040099882 0.048878979 0.46215394 4278255360
0.040337559 0.048938639 0.46258977 4278255360
0.04057524 0.048998296 0.4630256 4278255360
0.040812917 0.049057953 0.46346143 4278255360
0.041050598 0.04911761 0.46389726 4278255360
0.041288275 0.04917727 0.46433312 4278255360
0.041525956 0.049236927 0.46476895 4278255360
0.041763633 0.049296588 0.46520478 4278255360
0.042001314 0.049356245 0.4656406 4278255360
0.042238992 0.049415901 0.46607643 4278255360
0.042476669 0.049475558 0.46651226 4278255360
0.04271435 0.049535219 0.46694809 4278255360
0.042952027 0.049594875 0.46738392 4278255360
0.043189708 0.049654532 0.46781975 4278255360
0.043427385 0.049714193 0.46825558 4278255360
0.043665066 0.04977385 0.46869141 4278255360
0.043902744 0.049833506 0.46912727 4278255360
0.044140425 0.049893167 0.4695631 4278255360
0.044378102 0.049952824 0.46999893 4278255360
0.044615783 0.05001248 0.47043476 4278255360
0.04485346 0.050072141 0.47087058 4278255360
0.045091141 0.050131798 0.47130641 4278255360
0.045328818 0.050191455 0.47174224 4278255360
0.045566499 0.050251115 0.47217807 4278255360
0.045804176 0.050310772 0.4726139 4278255360
0.046041854 0.050370429 0.47304973 4278255360
0.046279535 0.050430089 0.47348559 4278255360
0.046517216 0.050489746 0.47392142 4278255360
0.046754893 0.050549403 0.47435725 4278255360
0.04699257 0.050609063 0.47479308 4278255360
0.047230251 0.05066872 0.47522891 4278255360
0.047467928 0.050728377 0.47566473 4278255360
0.047705609 0.050788037 0.47610056 4278255360
0.047943287 0.050847694 0.47653639 4278255360
0.048180968 0.050907351 0.47697222 4278255360
0.048418645 0.050967012 0.47740805 4278255360
0.048656322 0.051026668 0.47784391 4278255360
0.048894003 0.051086325 0.47827974 4278255360
0.049131684 0.051145986 0.47871557 4278255360
0.049369365 0.051205643 0.4791514 4278255360
0.049607038 0.051265299 0.47958723 4278255360
0.049844719 0.05132496 0.48002306 4278255360
0.0500824 0.051384617 0.48045889 4278255360
0.050320078 0.051444273 0.48089471 4278255360
0.050557755 0.051503934 0.48133054 4278255360
0.050795436 0.051563591 0.4817664 4278255360
0.051033117 0.051623248 0.48220223 4278255360
0.051270794 0.051682908 0.48263806 4278255360
0.051508471 0.051742565 0.48307389 4278255360
0.051746152 0.051802222 0.48350972 4278255360
0.05198383 0.051861882 0.48394555 4278255360
0.052221511 0.051921539 0.48438138 4278255360
0.052459188 0.051981196 0.48481721 4278255360
0.052696869 0.052040856 0.48525304 4278255360
0.052934546 0.052100513 0.48568887 4278255360
0.053172223 0.05216017 0.48612469 4278255360
0.053409904 0.05221983 0.48656055 4278255360
0.053647585 0.052279487 0.48699638 4278255360
0.053885262 0.052339144 0.48743221 4278255360
0.05412294 0.052398805 0.48786804 4278255360
0.054360621 0.052458461 0.48830387 4278255360
