# .PCD v0.7 - Point Cloud Data file format
VERSION 0.7
FIELDS x y z rgb
SIZE 4 4 4 4
TYPE F F F U
COUNT 1 1 1 1
WIDTH 1014
HEIGHT 1
VIEWPOINT 0 0 0 1 0 0 0
POINTS 1014
DATA ascii
0.015180798 -0.0015339727 0.38600001 4285085994
-0.01150166 -0.00025952145 0.35800001 4282075704
-0.010309996 -0.00025879653 0.35700002 4282997572
-0.0091504594 -0.00025879653 0.35700002 4284905309
-0.0079909237 -0.00025879653 0.35700002 4284168231
-0.0068505215 -0.00025952145 0.35800001 4284888613
-0.0056877369 -0.00025952145 0.35800001 4285674016
-0.0045249527 -0.00025952145 0.35800001 4285542430
-0.0033715598 -0.00026024636 0.35900003 4284490257
-0.0022055269 -0.00026024636 0.35900003 4284490003
-0.0010423897 -0.00026097128 0.36000001 4284292624
0.00012689093 -0.00026097128 0.36000001 4285147933
0.0012997721 -0.0002616962 0.36100003 4285477152
0.0024723008 -0.0002616962 0.36100003 4285608223
0.0036549256 -0.00026242112 0.36200002 4286463016
0.0048307027 -0.00026242112 0.36200002 4286264867
0.006354921 -0.00027764443 0.38300002 4285935645
0.0075989058 -0.00027764443 0.38300002 4286204475
0.0088659786 -0.00027836935 0.384 4287802777
0.010113211 -0.00027836935 0.384 4288132254
0.011390029 -0.0002790943 0.38500002 4282392082
0.01264051 -0.0002790943 0.38500002 4283704089
0.013927069 -0.00027981919 0.38600001 4284296991
0.015180798 -0.00027981919 0.38600001 4284889128
0.016477104 -0.00028054413 0.38700002 4284757542
-0.011469533 0.000901133 0.35700002 4282338095
-0.010309996 0.000901133 0.35700002 4282205998
-0.0091504594 0.000901133 0.35700002 4282467373
-0.0079909237 0.000901133 0.35700002 4284495915
-0.0068313861 0.000901133 0.35700002 4285149480
-0.0056718495 0.000901133 0.35700002 4285607201
-0.0045249527 0.00090365717 0.35800001 4285739039
-0.0033715598 0.00090618141 0.35900003 4284162321
-0.0022055269 0.00090618141 0.35900003 4283965460
-0.0010423897 0.00090870552 0.36000001 4284360218
0.0001272434 0.00091122976 0.36100003 4285149730
0.0012997721 0.00091122976 0.36100003 4285150754
0.002479149 0.00091375393 0.36200002 4285215777
0.0036650221 0.00091627805 0.36300001 4285676328
0.0048440467 0.00091627805 0.36300001 4284952091
0.0060064788 0.00091375393 0.36200002 4284493085
0.0075989058 0.00096676173 0.38300002 4289700755
0.0088659786 0.0009692859 0.384 4287279000
0.010139548 0.00097181014 0.38500002 4287344791
0.011419613 0.00097433425 0.38600001 4283713590
0.012673343 0.00097433425 0.38600001 4283179542
0.013963151 0.00097685843 0.38700002 4284035103
0.015220128 0.00097685843 0.38700002 4284495654
0.016477104 0.00097685843 0.38700002 4285807660
0.017734082 0.00097685843 0.38700002 4286923061
-0.011469533 0.0020610625 0.35700002 4282272041
-0.010309996 0.0020610625 0.35700002 4282664750
-0.0091248276 0.0020552892 0.35600001 4282530086
-0.0079685394 0.0020552892 0.35600001 4284494116
-0.0068313861 0.0020610625 0.35700002 4285215011
-0.0056718495 0.0020610625 0.35700002 4286460967
-0.0045249527 0.0020668358 0.35800001 4285606685
-0.0033715598 0.002072609 0.35900003 4287069805
-0.0022055269 0.002072609 0.35900003 4287006068
-0.0010452853 0.0020841558 0.36100003 4286537295
0.0001272434 0.0020841558 0.36100003 4283901720
0.0013033724 0.0020899288 0.36200002 4284031249
0.0024859975 0.0020957021 0.36300001 4285216547
0.003685215 0.0021072486 0.36500001 4284229913
0.0048573916 0.0021014756 0.36400002 4283114008
0.0063383286 0.0022053947 0.38200003 4280622353
0.0075989058 0.0022111679 0.38300002 4287403143
0.0088659786 0.002216941 0.384 4287279002
0.010139548 0.0022227145 0.38500002 4287147414
0.011419613 0.0022284877 0.38600001 4287007865
0.012706175 0.002234261 0.38700002 4282984989
0.013963151 0.002234261 0.38700002 4283968540
0.015259456 0.0022400343 0.38800001 4284429091
0.016519681 0.0022400343 0.38800001 4285937703
0.017734082 0.002234261 0.38700002 4287184688
-0.011469533 0.0032209919 0.35700002 4284639301
-0.010281117 0.0032119695 0.35600001 4280426759
-0.0091248276 0.0032119695 0.35600001 4282725410
-0.0079685394 0.0032119695 0.35600001 4284954406
-0.0068122507 0.0032119695 0.35600001 4285280543
-0.0056718495 0.0032209919 0.35700002 4286658346
-0.0045249527 0.0032300141 0.35800001 4287714630
-0.0033715598 0.0032390368 0.35900003 4287077508
-0.0022055269 0.0032390368 0.35900003 4288195991
-0.0010452853 0.0032570816 0.36100003 4283842096
0.00012759588 0.0032661038 0.36200002 4283772192
0.0013069729 0.003275126 0.36300001 4284359704
0.0024996945 0.0032931708 0.36500001 4285741869
0.0036953117 0.0033021935 0.36600003 4283114260
0.004870736 0.0032931708 0.36500001 4281015566
0.0063217357 0.0034375291 0.38100001 4283654225
0.0075989058 0.0034555739 0.38300002 4279246096
0.0088659786 0.0034645961 0.384 4288133541
0.010165884 0.003482641 0.38600001 4287147416
0.011449198 0.0034916636 0.38700002 4288655258
0.012706175 0.0034916636 0.38700002 4281999892
0.013999231 0.0035006858 0.38800001 4283771161
0.015259456 0.0035006858 0.38800001 4284099610
0.016562259 0.0035097084 0.38900003 4285607971
-0.0091248276 0.0043686498 0.35600001 4283052317
-0.0079685394 0.0043686498 0.35600001 4285346336
-0.0068122507 0.0043686498 0.35600001 4285673248
-0.0056718495 0.0043809214 0.35700002 4286659114
-0.0045249527 0.0043931929 0.35800001 4289958269
-0.0033715598 0.0044054645 0.35900003 4285424978
-0.0022055269 0.0044054645 0.35900003 4284695607
-0.0010481807 0.0044422788 0.36200002 4284364075
0.00012794834 0.0044545503 0.36300001 4283837472
0.0013105734 0.0044668219 0.36400002 4285213728
0.002506543 0.004491365 0.36600003 4286334006
0.0037155047 0.0045159082 0.36800003 4281208578
0.0050308695 0.0046263509 0.377 4281872933
0.0063051437 0.0046631657 0.38000003 4280296731
0.0075989058 0.0046999799 0.38300002 4280758052
0.0088890679 0.0047245231 0.38500002 4288066463
0.010165884 0.0047367946 0.38600001 4287278230
0.011449198 0.0047490662 0.38700002 4289050016
0.012739007 0.0047613373 0.38800001 4281738004
0.014035312 0.0047736093 0.38900003 4283901720
0.015298785 0.0047736093 0.38900003 4284493085
0.016604833 0.0047858804 0.39000002 4285608225
0.01791738 0.004798152 0.39100003 4286789417
0.01918735 0.004798152 0.39100003 4290011988
-0.011437405 0.0055253301 0.35600001 4281348111
-0.010252237 0.0055098101 0.35500002 4281672974
-0.0091248276 0.0055253301 0.35600001 4284496937
-0.0079685394 0.0055253301 0.35600001 4285082394
-0.0068122507 0.0055253301 0.35600001 4286133024
-0.0056559616 0.0055253301 0.35600001 4285937955
-0.0045249527 0.0055563715 0.35800001 4287587923
-0.0033715598 0.0055718925 0.35900003 4285415218
-0.0022055269 0.0055718925 0.35900003 4285283119
-0.0010481807 0.005618454 0.36200002 4284033565
0.00012794834 0.0056339744 0.36300001 4284559650
0.0013141739 0.0056650154 0.36500001 4285805604
0.0025133914 0.0056960569 0.36700001 4285741353
0.0037457941 0.0057581393 0.37100002 4281477146
0.0050308695 0.0058512627 0.377 4283785041
0.0063051437 0.0058978247 0.38000003 4279375377
0.0075790659 0.0059288661 0.38200003 4280428835
0.0088890679 0.0059754276 0.38500002 4287144847
0.010192221 0.006006469 0.38700002 4287344793
0.011478783 0.006021989 0.38800001 4288128147
0.01277184 0.00603751 0.38900003 4281867793
0.014071392 0.0060530305 0.39000002 4283833874
0.015338113 0.0060530305 0.39000002 4284820765
0.016647412 0.0060685514 0.39100003 4285476637
0.01791738 0.0060685514 0.39100003 4286132254
0.019236421 0.0060840719 0.39200002 4286723108
0.020509636 0.0060840719 0.39200002 4286657831
-0.012593693 0.0066820108 0.35600001 4280953351
-0.011437405 0.0066820108 0.35600001 4281413134
-0.010281117 0.0066820108 0.35600001 4284237356
-0.0091248276 0.0066820108 0.35600001 4284693542
-0.0079685394 0.0066820108 0.35600001 4285542684
-0.0068122507 0.0066820108 0.35600001 4286264608
-0.0056559616 0.0066820108 0.35600001 4286266407
-0.0045123133 0.0067007807 0.35700002 4285412642
-0.0033527766 0.0067007807 0.35700002 4285347111
-0.0022116704 0.0067570894 0.36000001 4284754976
-0.0010481807 0.0067946292 0.36200002 4284754722
0.00012794834 0.0068133986 0.36300001 4285082912
0.0013141739 0.0068509378 0.36500001 4286200875
0.0025133914 0.0068884776 0.36700001 4283769364
0.0037558903 0.006982326 0.37200001 4285366640
0.0050175255 0.0070574046 0.37600002 4282406468
0.0062885508 0.0071137138 0.37900001 4282206779
0.0075989058 0.0071887928 0.38300002 4281153323
0.0088890679 0.0072263321 0.38500002 4285960062
0.010192221 0.0072638714 0.38700002 4287081623
0.011508367 0.0073014111 0.38900003 4283717190
0.012804672 0.0073201805 0.39000002 4283311387
0.014107473 0.0073389504 0.39100003 4284228632
0.015377442 0.0073389504 0.39100003 4285083423
0.016647412 0.0073389504 0.39100003 4285608736
0.017963205 0.0073577198 0.39200002 4285804062
0.019236421 0.0073577198 0.39200002 4286264356
0.020509636 0.0073577198 0.39200002 4286200362
-0.013788607 0.0078607099 0.35700002 4281744150
-0.012593693 0.0078386907 0.35600001 4280624903
-0.011437405 0.0078386907 0.35600001 4281018124
-0.010281117 0.0078386907 0.35600001 4283774239
-0.0091248276 0.0078386907 0.35600001 4285020710
-0.0079685394 0.0078386907 0.35600001 4285935900
-0.0068122507 0.0078386907 0.35600001 4286658596
-0.0056718495 0.0078607099 0.35700002 4285213467
-0.0045123133 0.0078607099 0.35700002 4285280289
-0.0033621681 0.0078827282 0.35800001 4285281316
-0.0022116704 0.0079267658 0.36000001 4284689181
-0.0010481807 0.0079708034 0.36200002 4285280804
0.00012794834 0.0079928227 0.36300001 4285279521
0.0013177744 0.0080588795 0.36600003 4286794295
0.0025202399 0.0081029171 0.36800003 4287195995
0.0037558903 0.0081909914 0.37200001 4285235052
0.0050175255 0.0082790665 0.37600002 4281944634
0.0062719584 0.0083231041 0.37800002 4283786586
0.0075989058 0.0084331986 0.38300002 4280957741
0.0089121563 0.0084992545 0.38600001 4285893497
0.010218557 0.0085432921 0.38800001 4288198819
0.011537951 0.0085873296 0.39000002 4282988073
0.012837506 0.0086093489 0.39100003 4283836700
0.014107473 0.0086093489 0.39100003 4284426007
0.01541677 0.0086313672 0.39200002 4284952091
0.016689988 0.0086313672 0.39200002 4285213465
0.017963205 0.0086313672 0.39200002 4285674016
0.019236421 0.0086313672 0.39200002 4285479467
0.020509636 0.0086313672 0.39200002 4287656805
-0.014948144 0.0090206396 0.35700002 4281875738
-0.013788607 0.0090206396 0.35700002 4281414165
-0.012629069 0.0090206396 0.35700002 4280688909
-0.011437405 0.0089953709 0.35600001 4280754189
-0.010281117 0.0089953709 0.35600001 4284956205
-0.0091248276 0.0089953709 0.35600001 4285412388
-0.0079685394 0.0089953709 0.35600001 4286723876
-0.0068122507 0.0089953709 0.35600001 4286921768
-0.0056718495 0.0090206396 0.35700002 4285213467
-0.0045249527 0.0090459064 0.35800001 4285346595
-0.0033621681 0.0090459064 0.35800001 4285743150
-0.0022116704 0.0090964427 0.36000001 4284360984
-0.0010481807 0.0091469781 0.36200002 4284689181
0.00012830083 0.0091975145 0.36400002 4284885531
0.0013177744 0.0092480499 0.36600003 4284889124
0.0025270884 0.009323854 0.36900002 4285554761
0.0037558903 0.0093996571 0.37200001 4281878579
0.0050041811 0.0094754612 0.37500003 4288984485
0.0062553659 0.0095259966 0.377 4282733636
0.0075790659 0.0096523371 0.38200003 4282403388
0.0089352448 0.0097786766 0.38700002 4282801226
0.010244895 0.009829212 0.38900003 4287867285
0.011537951 0.0098544797 0.39000002 4282786326
0.012870338 0.0099050151 0.39200002 4283835673
0.014143554 0.0099050151 0.39200002 4285081881
0.015456098 0.0099302828 0.39300001 4285345051
0.016732562 0.0099302828 0.39300001 4285804832
0.018009027 0.0099302828 0.39300001 4285543715
0.019236421 0.0099050151 0.39200002 4285954150
-0.014948144 0.010180569 0.35700002 4281744154
-0.013788607 0.010180569 0.35700002 4280887823
-0.012629069 0.010180569 0.35700002 4280623886
-0.011437405 0.010152051 0.35600001 4280950282
-0.010281117 0.010152051 0.35600001 4284953634
-0.0091248276 0.010152051 0.35600001 4285544226
-0.0079685394 0.010152051 0.35600001 4286460706
-0.0068313861 0.010180569 0.35700002 4287184938
-0.0056718495 0.010180569 0.35700002 4284490255
-0.0045249527 0.010209085 0.35800001 4285940018
-0.0033715598 0.010237603 0.35900003 4284954921
-0.0022116704 0.01026612 0.36000001 4284099097
-0.0010452853 0.010294638 0.36100003 4284754974
0.00012830083 0.010380188 0.36400002 4285279519
0.0013177744 0.010437222 0.36600003 4283706134
0.0025270884 0.010522773 0.36900002 4281738515
0.0037457941 0.010579807 0.37100002 4281611814
0.0049774921 0.010636841 0.37300003 4288258702
0.0062221815 0.010693875 0.37500003 4287533407
0.0075989058 0.010922011 0.38300002 4284441136
0.0089583332 0.011064596 0.38800001 4283125555
0.010271231 0.01112163 0.39000002 4283452213
0.011567537 0.011150148 0.39100003 4283508507
0.01290317 0.011207181 0.39300001 4284426009
0.014179633 0.011207181 0.39300001 4285014546
0.015456098 0.011207181 0.39300001 4284817167
0.016775141 0.011235698 0.39400002 4285016347
0.018009027 0.011207181 0.39300001 4289961097
-0.014948144 0.011340499 0.35700002 4281612314
-0.013788607 0.011340499 0.35700002 4280755983
-0.012629069 0.011340499 0.35700002 4280689679
-0.011437405 0.011308732 0.35600001 4282329879
-0.010281117 0.011308732 0.35600001 4285544226
-0.0091248276 0.011308732 0.35600001 4285937188
-0.0079685394 0.011308732 0.35600001 4286854694
-0.0068313861 0.011340499 0.35700002 4286526497
-0.0056718495 0.011340499 0.35700002 4284623124
-0.0045249527 0.011372264 0.35800001 4285678644
-0.0033715598 0.011404031 0.35900003 4284889640
-0.0022116704 0.011435797 0.36000001 4284494368
-0.0010452853 0.011467564 0.36100003 4285215009
0.00012830083 0.011562862 0.36400002 4284818968
0.0013177744 0.011626394 0.36600003 4283246100
0.0025270884 0.011721692 0.36900002 4281871386
0.0037457941 0.011785224 0.37100002 4281281566
0.0049774921 0.011848757 0.37300003 4284835151
0.0062055886 0.011880523 0.37400001 4281939467
0.0074005011 0.011848757 0.37300003 4283255063
0.0089814216 0.012357014 0.38900003 4281808662
0.010271231 0.01238878 0.39000002 4281937431
0.01159712 0.012452313 0.39200002 4284164122
0.012936003 0.012515845 0.39400002 4285147933
0.014215714 0.012515845 0.39400002 4285606426
0.015495427 0.012515845 0.39400002 4286001184
0.016775141 0.012515845 0.39400002 4284953121
-0.014948144 0.012500429 0.35700002 4281414937
-0.013788607 0.012500429 0.35700002 4280953362
-0.012629069 0.012500429 0.35700002 4281081870
-0.011469533 0.012500429 0.35700002 4284497964
-0.010281117 0.012465413 0.35600001 4285806887
-0.0091248276 0.012465413 0.35600001 4285804832
-0.0079685394 0.012465413 0.35600001 4287709233
-0.0068313861 0.012500429 0.35700002 4287840817
-0.0056718495 0.012500429 0.35700002 4287054124
-0.0045249527 0.012535443 0.35800001 4285938471
-0.0033715598 0.012570458 0.35900003 4283967513
-0.0022116704 0.012605473 0.36000001 4283967513
-0.0010452853 0.012640489 0.36100003 4285017630
0.00012830083 0.012745535 0.36400002 4286069035
0.0013177744 0.012815565 0.36600003 4283312922
0.0025270884 0.012920611 0.36900002 4281739798
0.0037457941 0.012990641 0.37100002 4281478427
0.0049641472 0.013025655 0.37200001 4283716670
0.0061889961 0.013060671 0.37300003 4281413906
0.0074005011 0.013060671 0.37300003 4282070551
0.0089814216 0.013620915 0.38900003 4281282066
0.010271231 0.01365593 0.39000002 4281675029
0.011745043 0.013901036 0.39700001 4284491804
0.012968834 0.013831005 0.39500001 4285540638
0.014251795 0.013831005 0.39500001 4285605143
0.015534755 0.013831005 0.39500001 4286066207
0.016817717 0.013831005 0.39500001 4284890412
-0.014948144 0.013660357 0.35700002 4281743905
-0.013788607 0.013660357 0.35700002 4280954134
-0.012629069 0.013660357 0.35700002 4281539593
-0.011469533 0.013660357 0.35700002 4285021224
-0.010281117 0.013622093 0.35600001 4286134567
-0.0091248276 0.013622093 0.35600001 4286460452
-0.0079685394 0.013622093 0.35600001 4290669409
-0.0068313861 0.013660357 0.35700002 4287380011
-0.0056718495 0.013660357 0.35700002 4288233263
-0.0045249527 0.013698622 0.35800001 4287576103
-0.0033715598 0.013736886 0.35900003 4287445032
-0.0022116704 0.01377515 0.36000001 4286853924
-0.0010452853 0.013813416 0.36100003 4288633161
0.00012865329 0.013966472 0.36500001 4286133799
0.0013213749 0.014043001 0.36700001 4281865738
0.0025270884 0.014119529 0.36900002 4281805082
0.0037457941 0.014196058 0.37100002 4281806625
0.0049641472 0.014234321 0.37200001 4282927152
0.0061889961 0.014272586 0.37300003 4284309561
0.0074005011 0.014272586 0.37300003 4284177460
0.0091430414 0.015152666 0.39600003 4281807129
0.010455586 0.015190929 0.39700001 4282130963
0.011745043 0.015190929 0.39700001 4285148703
0.012968834 0.015114401 0.39500001 4285869598
0.014251795 0.015114401 0.39500001 4286263073
0.015534755 0.015114401 0.39500001 4286262303
0.016817717 0.015114401 0.39500001 4286274893
-0.014948144 0.014820287 0.35700002 4281678884
-0.013788607 0.014820287 0.35700002 4281415712
-0.012629069 0.014820287 0.35700002 4283313436
-0.011469533 0.014820287 0.35700002 4285217576
-0.010281117 0.014778772 0.35600001 4286067231
-0.0091248276 0.014778772 0.35600001 4286854694
-0.0079685394 0.014778772 0.35600001 4287445032
-0.0068313861 0.014820287 0.35700002 4287641126
-0.0056718495 0.014820287 0.35700002 4287640610
-0.0045249527 0.0148618 0.35800001 4287837989
-0.0033621681 0.0148618 0.35800001 4288167470
-0.0022055269 0.014903313 0.35900003 4288232747
-0.0010452853 0.014986341 0.36100003 4288233263
0.00012900577 0.015193908 0.36600003 4287644726
0.0013213749 0.01523542 0.36700001 4281470982
0.0025339369 0.01535996 0.37 4282068254
0.0037457941 0.015401474 0.37100002 4282598964
0.0049641472 0.015442987 0.37200001 4284772186
0.0061724037 0.015442987 0.37200001 4280888850
0.0078568328 0.016439309 0.39600003 4283125810
0.0091430414 0.016439309 0.39600003 4283318319
0.010455586 0.016480822 0.39700001 4282981393
0.011745043 0.016480822 0.39700001 4285542430
0.013001667 0.016439309 0.39600003 4286066461
0.014287875 0.016439309 0.39600003 4286853924
0.015574085 0.016439309 0.39600003 4286919717
0.016860293 0.016439309 0.39600003 4289240200
-0.016107678 0.015980216 0.35700002 4281811501
-0.014948144 0.015980216 0.35700002 4282007851
-0.013788607 0.015980216 0.35700002 4281810470
-0.012629069 0.015980216 0.35700002 4283972138
-0.011437405 0.015935453 0.35600001 4285020199
-0.010281117 0.015935453 0.35600001 4286001184
-0.0091248276 0.015935453 0.35600001 4286459936
-0.0079685394 0.015935453 0.35600001 4287181347
-0.0068313861 0.015980216 0.35700002 4286983966
-0.0056718495 0.015980216 0.35700002 4287772196
-0.0045123133 0.015980216 0.35700002 4289154369
-0.0033621681 0.016024979 0.35800001 4293702822
-0.0022055269 0.016069742 0.35900003 4287119665
-0.0010423897 0.016114503 0.36000001 4288101679
0.00012935825 0.016427841 0.36700001 4288169782
0.0013249754 0.016472604 0.36800003 4281470984
0.0025407854 0.016606892 0.37100002 4282265892
0.0037457941 0.016606892 0.37100002 4281019934
0.0049641472 0.016651653 0.37200001 4281876013
0.0065208455 0.017591666 0.39300001 4282927154
0.0078369919 0.017681191 0.39500001 4288453253
0.0091199521 0.017681191 0.39500001 4282985502
0.01042925 0.017725954 0.39600003 4284359704
0.011715459 0.017725954 0.39600003 4285935643
0.013001667 0.017725954 0.39600003 4286723106
0.014287875 0.017725954 0.39600003 4287051044
0.015574085 0.017725954 0.39600003 4287249968
-0.016107678 0.017140146 0.35700002 4287541141
-0.014948144 0.017140146 0.35700002 4287209607
-0.013788607 0.017140146 0.35700002 4284050778
-0.012629069 0.017140146 0.35700002 4284103983
-0.011437405 0.017092135 0.35600001 4284757542
-0.010281117 0.017092135 0.35600001 4286067231
-0.0091248276 0.017092135 0.35600001 4286394143
-0.0079685394 0.017092135 0.35600001 4286459164
-0.0068313861 0.017140146 0.35700002 4286590493
-0.0056718495 0.017140146 0.35700002 4287312161
-0.0045123133 0.017140146 0.35700002 4287641126
-0.0033621681 0.017188158 0.35800001 4287184429
-0.0022055269 0.017236169 0.35900003 4293306254
-0.0010423897 0.017284181 0.36000001 4286918940
0.00012971072 0.017668275 0.36800003 4287643179
0.0013285758 0.017716285 0.36900002 4281470468
0.0025476338 0.017860319 0.37200001 4279832069
0.0037558903 0.017860319 0.37200001 4279835149
0.0049641472 0.017860319 0.37200001 4283913797
0.0065042535 0.018820552 0.39200002 4283311641
0.007817151 0.018916577 0.39400002 4285808432
0.0090968646 0.018916577 0.39400002 4283962378
0.010402913 0.018964587 0.39500001 4286197282
0.011685873 0.018964587 0.39500001 4286591520
0.012968834 0.018964587 0.39500001 4286853922
0.014251795 0.018964587 0.39500001 4286853665
0.015574085 0.0190126 0.39600003 4286461737
-0.014906271 0.018248815 0.35600001 4286752656
-0.013749982 0.018248815 0.35600001 4287804061
-0.012593693 0.018248815 0.35600001 4283711280
-0.011437405 0.018248815 0.35600001 4284364327
-0.010281117 0.018248815 0.35600001 4285738271
-0.0091248276 0.018248815 0.35600001 4285605656
-0.0079909237 0.018300075 0.35700002 4286130971
-0.0068313861 0.018300075 0.35700002 4286196762
-0.0056718495 0.018300075 0.35700002 4286590491
-0.0045249527 0.018351335 0.35800001 4286655514
-0.0033621681 0.018351335 0.35800001 4287377184
-0.0022055269 0.018402597 0.35900003 4287180577
-0.0010423897 0.018453857 0.36000001 4287971113
0.0001300632 0.018915204 0.36900002 4288959550
0.0013285758 0.018915204 0.36900002 4284822316
0.0025544823 0.019120248 0.37300003 4281803033
0.0037558903 0.019068986 0.37200001 4280887837
0.005177659 0.019889157 0.38800001 4282463012
0.006487661 0.020042941 0.39100003 4287319104
0.0077774702 0.020094201 0.39200002 4287514423
0.0090737753 0.020145461 0.39300001 4289751639
0.010376576 0.020196723 0.39400002 4287118636
0.011685873 0.020247983 0.39500001 4287247653
0.012968834 0.020247983 0.39500001 4287313446
0.014251795 0.020247983 0.39500001 4287446061
0.015574085 0.020299245 0.39600003 4288044112
-0.014906271 0.019405494 0.35600001 4286422923
-0.013749982 0.019405494 0.35600001 4287802779
-0.012593693 0.019405494 0.35600001 4282658854
-0.011437405 0.019405494 0.35600001 4283574559
-0.010281117 0.019405494 0.35600001 4285147420
-0.0091504594 0.019460006 0.35700002 4285146904
-0.0079909237 0.019460006 0.35700002 4285605910
-0.0068313861 0.019460006 0.35700002 4285736983
-0.0056718495 0.019460006 0.35700002 4286261783
-0.0045249527 0.019514514 0.35800001 4286459162
-0.0033715598 0.019569024 0.35900003 4286391829
-0.0022116704 0.019623535 0.36000001 4287247138
-0.0010452853 0.019678045 0.36100003 4287576353
0.00012759588 0.019732554 0.36200002 4288235570
0.0013249754 0.020059614 0.36800003 4284361767
0.0025681793 0.020441182 0.37500003 4281867543
0.0038770481 0.020931769 0.384 4281145615
0.0051643145 0.0210953 0.38700002 4284888622
0.0064544762 0.021204319 0.38900003 4287842872
0.0077576302 0.021313339 0.39100003 4287906610
0.0090506868 0.021367848 0.39200002 4290738537
0.010350239 0.021422358 0.39300001 4287052589
0.011626705 0.021422358 0.39300001 4287774767
0.012936003 0.021476869 0.39400002 4287774767
0.014215714 0.021476869 0.39400002 4287580993
-0.014906271 0.020562174 0.35600001 4287146644
-0.013749982 0.020562174 0.35600001 4287342740
-0.012629069 0.020619934 0.35700002 4282922539
-0.011469533 0.020619934 0.35700002 4283904294
-0.010309996 0.020619934 0.35700002 4284557081
-0.0091504594 0.020619934 0.35700002 4284556566
-0.0079909237 0.020619934 0.35700002 4284752916
-0.0068313861 0.020619934 0.35700002 4284883732
-0.0056877369 0.020677693 0.35800001 4285475097
-0.0045375922 0.020735452 0.35900003 4286001184
-0.0033715598 0.020735452 0.35900003 4285736983
-0.0022116704 0.020793211 0.36000001 4286590752
-0.0010481807 0.020908728 0.36200002 4286985508
0.00012794834 0.020966487 0.36300001 4286459934
0.0013213749 0.021197524 0.36700001 4287593331
0.0025750278 0.021717353 0.37600002 4281607199
0.0038871446 0.022237184 0.38500002 4284232491
0.0051643145 0.022352701 0.38700002 4285476387
0.0064378832 0.02241046 0.38800001 4287511854
0.0077377893 0.022525977 0.39000002 4287314214
0.0090275994 0.022583738 0.39100003 4292383355
0.010323904 0.022641497 0.39200002 4287118382
0.01159712 0.022641497 0.39200002 4287515202
0.01290317 0.022699254 0.39300001 4288831828
0.014179633 0.022699254 0.39300001 4287916890
-0.014906271 0.021718854 0.35600001 4287212437
-0.013788607 0.021779863 0.35700002 4288067746
-0.012629069 0.021779863 0.35700002 4282594344
-0.011469533 0.021779863 0.35700002 4283904807
-0.010309996 0.021779863 0.35700002 4284296478
-0.0091504594 0.021779863 0.35700002 4284229400
-0.0080133062 0.02184087 0.35800001 4284360216
-0.0068505215 0.02184087 0.35800001 4284359704
-0.0057036243 0.021901879 0.35900003 4284818968
-0.0045375922 0.021901879 0.35900003 4285213980
-0.003380951 0.021962887 0.36000001 4285805604
-0.0022178141 0.022023896 0.36100003 4286199592
-0.0010510762 0.02214591 0.36300001 4286396971
0.00012830083 0.022206919 0.36400002 4285674277
0.0013177744 0.022328936 0.36600003 4289704610
0.0038871446 0.023488088 0.38500002 4284300083
0.0051643145 0.023610104 0.38700002 4285675562
0.0064378832 0.023671111 0.38800001 4287776566
0.0077179489 0.02373212 0.38900003 4288696124
0.00900451 0.023793127 0.39000002 4288564281
0.010297568 0.023854136 0.39100003 4292316029
0.01159712 0.023915144 0.39200002 4294965983
0.012870338 0.023915144 0.39200002 4290284664
0.014143554 0.023915144 0.39200002 4287252026
0.01541677 0.023915144 0.39200002 4289693562
-0.014906271 0.022875536 0.35600001 4286884242
-0.013788607 0.022939794 0.35700002 4287344793
-0.012629069 0.022939794 0.35700002 4283122487
-0.01150166 0.023004051 0.35800001 4283971886
-0.010338875 0.023004051 0.35800001 4284298023
-0.0091760904 0.023004051 0.35800001 4284692011
-0.0080133062 0.023004051 0.35800001 4284362017
-0.0068696574 0.023068309 0.35900003 4284493603
-0.0057195118 0.023132564 0.36000001 4284755746
-0.0045502316 0.023132564 0.36000001 4285084709
-0.0033903427 0.023196824 0.36100003 4285610283
-0.0022239573 0.02326108 0.36200002 4285610283
-0.0010539718 0.023389595 0.36400002 4285347109
0.00012865329 0.02345385 0.36500001 4285281316
0.0013177744 0.023518108 0.36600003 4289574046
0.0025133914 0.023582365 0.36700001 4287868055
0.0038972411 0.024803249 0.38600001 4286348915
0.0051643145 0.024867509 0.38700002 4283707432
0.0064378832 0.024931764 0.38800001 4289421902
0.0077179489 0.024996022 0.38900003 4288167724
0.00900451 0.025060279 0.39000002 4288561455
0.010271231 0.025060279 0.39000002 4288758837
0.011567537 0.025124537 0.39100003 4287840562
0.012837506 0.025124537 0.39100003 4288497722
0.014143554 0.025188792 0.39200002 4288497722
0.01541677 0.025188792 0.39200002 4286987311
-0.01382723 0.024167228 0.35800001 4287213209
-0.012664445 0.024167228 0.35800001 4288458141
-0.01150166 0.024167228 0.35800001 4284438345
-0.010367756 0.024234736 0.35900003 4284496944
-0.0092017232 0.024234736 0.35900003 4284299306
-0.0080356905 0.024234736 0.35900003 4283968286
-0.0068887929 0.024302242 0.36000001 4284691495
-0.0057353997 0.024369748 0.36100003 4284823081
-0.004575511 0.024437254 0.36200002 4284231976
-0.0033997342 0.024437254 0.36200002 4284364075
-0.0022301008 0.02450476 0.36300001 4284033567
-0.0010539718 0.024572266 0.36400002 4284558876
0.00012865329 0.024639772 0.36500001 4284953121
0.0013213749 0.024774784 0.36700001 4289505943
0.0025133914 0.024774784 0.36700001 4287999641
0.0039073378 0.02612491 0.38700002 4287802777
0.0051643145 0.02612491 0.38700002 4286219121
0.0064378832 0.026192416 0.38800001 4287250222
0.0077179489 0.026259923 0.38900003 4287970345
0.0089814216 0.026259923 0.38900003 4288560683
0.010271231 0.026327427 0.39000002 4288626474
0.011537951 0.026327427 0.39000002 4288693296
0.012837506 0.026394935 0.39100003 4288694068
0.014107473 0.026394935 0.39100003 4288102960
0.01541677 0.026462441 0.39200002 4288169782
-0.01382723 0.025330408 0.35800001 4287607197
-0.012664445 0.025330408 0.35800001 4287738270
-0.011533787 0.025401164 0.35900003 4285827193
-0.010396635 0.025471918 0.36000001 4285485640
-0.0092273541 0.025471918 0.36000001 4284628530
-0.0080804573 0.025542675 0.36100003 4284758826
-0.0069079287 0.025542675 0.36100003 4283047438
-0.0057512871 0.025613429 0.36200002 4289638560
-0.00458815 0.025684183 0.36300001 4289116839
-0.0034091256 0.025684183 0.36300001 4289510827
-0.0022362445 0.02575494 0.36400002 4283517758
-0.0010568673 0.025825694 0.36500001 4284034851
0.00012900577 0.025896451 0.36600003 4285020201
0.0013213749 0.025967205 0.36700001 4285420867
0.0025133914 0.025967205 0.36700001 4288326032
0.0039073378 0.027382312 0.38700002 4288655256
0.0051643145 0.027382312 0.38700002 4286341969
0.0064378832 0.027453067 0.38800001 4287971374
0.007698108 0.027453067 0.38800001 4287772712
0.0089814216 0.027523823 0.38900003 4288297511
0.010244895 0.027523823 0.38900003 4288560683
0.011537951 0.027594578 0.39000002 4288824625
0.012804672 0.027594578 0.39000002 4288100904
0.014107473 0.027665334 0.39100003 4287970345
0.015377442 0.027665334 0.39100003 4287906351
-0.013865854 0.026567591 0.35900003 4287607713
-0.012699821 0.026567591 0.35900003 4287673506
-0.011565915 0.026641594 0.36000001 4288528045
-0.010425515 0.026715601 0.36100003 4283514678
-0.0092529859 0.026715601 0.36100003 4284563251
-0.0081028407 0.026789604 0.36200002 4284627240
-0.0069270642 0.026789604 0.36200002 4284363296
-0.0057671745 0.026863607 0.36300001 4289508253
-0.0046007899 0.026937613 0.36400002 4288000922
-0.0034279088 0.027011616 0.36500001 4288001440
-0.002242388 0.027011616 0.36500001 4285102696
-0.0010597629 0.027085623 0.36600003 4283642923
0.00012935825 0.027159626 0.36700001 4284099874
0.0013213749 0.027159626 0.36700001 4285546545
0.0026572095 0.028713718 0.38800001 4289364084
0.0039073378 0.028639715 0.38700002 4287120442
0.005177659 0.028713718 0.38800001 4287906355
0.0064378832 0.028713718 0.38800001 4290670434
0.007698108 0.028713718 0.38800001 4287972148
0.0089814216 0.028787725 0.38900003 4288494892
0.010244895 0.028787725 0.38900003 4288495662
0.011537951 0.028861728 0.39000002 4287641898
0.012804672 0.028861728 0.39000002 4287049763
0.014107473 0.028935732 0.39100003 4287115554
0.015377442 0.028935732 0.39100003 4286526245
-0.013865854 0.027734019 0.35900003 4287607713
-0.012699821 0.027734019 0.35900003 4287739299
-0.01163017 0.027965778 0.36200002 4287935908
-0.010454394 0.027965778 0.36200002 4286678648
-0.0093042487 0.028043032 0.36300001 4284236854
-0.0081252242 0.028043032 0.36300001 4284890158
-0.006965335 0.028120287 0.36400002 4285217839
-0.005783062 0.028120287 0.36400002 4286806633
-0.0046134293 0.028197538 0.36500001 4288131481
-0.0034279088 0.028197538 0.36500001 4287738781
-0.0022485317 0.028274793 0.36600003 4288396200
-0.0010626584 0.028352046 0.36700001 4285293915
0.00012935825 0.028352046 0.36700001 4283313186
0.0013249754 0.028429301 0.36800003 4285807150
0.0025613308 0.028892821 0.37400001 4287054649
0.0039073378 0.029897118 0.38700002 4288565576
0.005177659 0.029974369 0.38800001 4290276446
0.0064378832 0.029974369 0.38800001 4288234037
0.007698108 0.029974369 0.38800001 4288298290
0.0089814216 0.030051624 0.38900003 4288429874
0.010244895 0.030051624 0.38900003 4287576105
0.011508367 0.030051624 0.38900003 4285935391
0.012804672 0.030128878 0.39000002 4286330151
0.014071392 0.030128878 0.39000002 4286463282
0.015377442 0.030206133 0.39100003 4287063387
-0.011662297 0.029222455 0.36300001 4288133287
-0.010483273 0.029222455 0.36300001 4289512114
-0.0093298806 0.029302958 0.36400002 4283122746
-0.0081476076 0.029302958 0.36400002 4284561708
-0.0069844704 0.02938346 0.36500001 4285217839
-0.0057989494 0.02938346 0.36500001 4284101157
-0.0046260692 0.029463964 0.36600003 4289245597
-0.0034373004 0.029463964 0.36600003 4288066463
-0.0022546751 0.029544465 0.36700001 4287738268
-0.001065554 0.029624971 0.36800003 4288459942
0.00012971072 0.029624971 0.36800003 4283520586
0.0013285758 0.029705472 0.36900002 4284294171
0.0025544823 0.030027483 0.37300003 4286790448
0.0039073378 0.031154519 0.38700002 4287708206
0.0051643145 0.031154519 0.38700002 4288167474
0.0064378832 0.031235021 0.38800001 4289153597
0.007698108 0.031235021 0.38800001 4288364851
0.0089583332 0.031235021 0.38800001 4287116842
0.010244895 0.031315524 0.38900003 4286265385
0.011508367 0.031315524 0.38900003 4285611568
0.012804672 0.031396028 0.39000002 4285283119
0.014071392 0.031396028 0.39000002 4285755488
-0.011694426 0.030485632 0.36400002 4287936162
-0.010541032 0.030569382 0.36500001 4288066211
-0.0093555115 0.030569382 0.36500001 4283719248
-0.008169991 0.030569382 0.36500001 4284364847
-0.0070036063 0.030653136 0.36600003 4284362792
-0.0058148373 0.030653136 0.36600003 4285479469
-0.0046387082 0.030736886 0.36700001 4289234808
-0.0034466919 0.030736886 0.36700001 4287671703
-0.0022608186 0.03082064 0.36800003 4287738266
-0.001065554 0.03082064 0.36800003 4287475096
0.0001300632 0.03090439 0.36900002 4288587415
0.0013321763 0.03098814 0.37 4285739820
0.0025476338 0.031155644 0.37200001 4286329899
0.003765987 0.031239398 0.37300003 4288826685
0.0051643145 0.032411922 0.38700002 4288430644
0.0064378832 0.032495674 0.38800001 4287642413
0.007698108 0.032495674 0.38800001 4286726706
0.0089583332 0.032495674 0.38800001 4284564788
0.010244895 0.032579426 0.38900003 4284106040
0.011508367 0.032579426 0.38900003 4285755236
0.01277184 0.032579426 0.38900003 4287600522
-0.011694426 0.031668305 0.36400002 4288002471
-0.010541032 0.031755306 0.36500001 4287935908
-0.0093811434 0.031842306 0.36600003 4288327586
-0.0081923753 0.031842306 0.36600003 4284563255
-0.0070227417 0.031929307 0.36700001 4284364075
-0.0058307247 0.031929307 0.36700001 4285545260
-0.0046387082 0.031929307 0.36700001 4285148703
-0.0034560836 0.032016307 0.36800003 4285353021
-0.0022608186 0.032016307 0.36800003 4285552712
-0.0010684495 0.032103308 0.36900002 4285944131
0.0001300632 0.032103308 0.36900002 4285477418
0.0013321763 0.032190308 0.37 4286461994
0.0025476338 0.032364309 0.37200001 4292779914
0.003765987 0.032451313 0.37300003 4288168755
0.0049774921 0.032451313 0.37300003 4288036656
0.0064378832 0.033756323 0.38800001 4289889142
0.007698108 0.033756323 0.38800001 4288586381
0.0089583332 0.033756323 0.38800001 4287340941
0.010244895 0.033843327 0.38900003 4287340943
0.011508367 0.033843327 0.38900003 4287078543
-0.010569912 0.033031482 0.36600003 4288067494
-0.0094067743 0.033121731 0.36700001 4289317048
-0.0082147587 0.033121731 0.36700001 4283708975
-0.0070227417 0.033121731 0.36700001 4284693040
-0.0058307247 0.033121731 0.36700001 4285218093
-0.0046513481 0.03321198 0.36800003 4285412904
-0.0034560836 0.03321198 0.36800003 4285344803
-0.0022669621 0.033302229 0.36900002 4284818718
-0.0010684495 0.033302229 0.36900002 4286000934
0.00013041566 0.033392478 0.37 4286722602
0.0013357768 0.03348273 0.37100002 4287181862
0.0025476338 0.033572979 0.37200001 4287773999
0.003765987 0.033663232 0.37300003 4287970345
0.0049774921 0.033663232 0.37300003 4288695097
-0.010598792 0.034314148 0.36700001 4287935908
-0.0094067743 0.034314148 0.36700001 4288001188
-0.0082147587 0.034314148 0.36700001 4284040768
-0.0070418776 0.034407649 0.36800003 4284036395
-0.0058466126 0.034407649 0.36800003 4285085994
-0.0046513481 0.034407649 0.36800003 4284756257
-0.0034654748 0.034501147 0.36900002 4285147937
-0.0022669621 0.034501147 0.36900002 4285213215
-0.0010684495 0.034501147 0.36900002 4285606431
0.00013041566 0.034594648 0.37 4286394920
0.0013357768 0.034688145 0.37100002 4286722086
0.0025476338 0.034781646 0.37200001 4286918436
0.0037558903 0.034781646 0.37200001 4287510310
0.0049774921 0.034875143 0.37300003 4287313444
-0.010598792 0.035506569 0.36700001 4287936678
-0.0094324071 0.035603318 0.36800003 4287805092
-0.0082371421 0.035603318 0.36800003 4284768341
-0.0070418776 0.035603318 0.36800003 4284300083
-0.0058466126 0.035603318 0.36800003 4284560423
-0.0046639876 0.035700068 0.36900002 4284296224
-0.0034654748 0.035700068 0.36900002 4284491290
-0.0022669621 0.035700068 0.36900002 4284491288
-0.0010713449 0.035796814 0.37 4284819738
0.00013041566 0.035796814 0.37 4286003242
0.0013357768 0.035893563 0.37100002 4286199592
0.0025476338 0.035990309 0.37200001 4286659116
0.0037558903 0.035990309 0.37200001 4286658346
0.0049774921 0.036087058 0.37300003 4286922288
-0.0094324071 0.036798988 0.36800003 4288199080
-0.0082371421 0.036798988 0.36800003 4288390553
-0.0070610126 0.036898986 0.36900002 4283776053
-0.0058624996 0.036898986 0.36900002 4284627501
-0.0046639876 0.036898986 0.36900002 4284034851
-0.0034654748 0.036898986 0.36900002 4284559396
-0.0022669621 0.036898986 0.36900002 4285085994
-0.0010713449 0.03699898 0.37 4284953638
0.00013041566 0.03699898 0.37 4285019431
0.0013357768 0.037098981 0.37100002 4285676076
0.0025476338 0.037198976 0.37200001 4286202420
0.0037558903 0.037198976 0.37200001 4285742900
0.0049774921 0.037298974 0.37300003 4285352255
-0.0094324071 0.037994657 0.36800003 4288264875
-0.0082595255 0.038097903 0.36900002 4289250737
-0.0070610126 0.038097903 0.36900002 4283256896
-0.0058624996 0.038097903 0.36900002 4284825913
-0.0046639876 0.038097903 0.36900002 4284694325
-0.0034654748 0.038097903 0.36900002 4284890419
-0.0022731056 0.03820115 0.37 4284890673
-0.0010713449 0.03820115 0.37 4284956466
0.00013041566 0.03820115 0.37 4285022259
0.0013357768 0.038304396 0.37100002 4285021492
0.0025407854 0.038304396 0.37100002 4285483328
0.0037558903 0.038407642 0.37200001 4286612857
-0.0082595255 0.039296821 0.36900002 4288132774
-0.0070610126 0.039296821 0.36900002 4288790188
-0.0058624996 0.039296821 0.36900002 4285889132
-0.004676627 0.039403316 0.37 4284768341
-0.0034748663 0.039403316 0.37 4284833105
-0.0022731056 0.039403316 0.37 4284109380
-0.0010713449 0.039403316 0.37 4285095761
0.00013041566 0.039403316 0.37 4285425242
0.0013357768 0.039509814 0.37100002 4286679672
0.0025407854 0.039509814 0.37100002 4287998612
0.0037558903 0.039616309 0.37200001 4287015058
-0.0070610126 0.040495742 0.36900002 4287870115
-0.005878387 0.040605485 0.37 4287738529
-0.004676627 0.040605485 0.37 4287804063
-0.0034748663 0.040605485 0.37 4287803293
-0.0022731056 0.040605485 0.37 4287408535
-0.0010713449 0.040605485 0.37 4287474326
0.00013076815 0.040715229 0.37100002 4287408533
0.0013357768 0.040715229 0.37100002 4287145361
0.0025407854 0.040715229 0.37100002 4287211924
0.0037558903 0.040824972 0.37200001 4286948754
-0.005878387 0.041807652 0.37 4287738529
-0.004676627 0.041807652 0.37 4287606943
-0.0034748663 0.041807652 0.37 4287409564
-0.0022731056 0.041807652 0.37 4287212187
-0.0010713449 0.041807652 0.37 4287343773
0.00013076815 0.041920647 0.37100002 4287146392
0.0013357768 0.041920647 0.37100002 4287014806
0.0025407854 0.041920647 0.37100002 4287146392
0.0037558903 0.042033639 0.37200001 4287014547
0.0037740022 0.012727628 0.37547567 4294967295
0.0037740022 0.012727628 0.37547567 4294901760
0.0037740022 0.012727628 0.37597567 4294901760
0.0037740022 0.012727628 0.37647566 4294901760
0.0037740022 0.012727628 0.37697569 4294901760
0.0037740022 0.012727628 0.37747568 4294901760
0.0037740022 0.012727628 0.37797567 4294901760
0.0037740022 0.012727628 0.37847567 4294901760
0.0037740022 0.012727628 0.37897569 4294901760
0.0037740022 0.012727628 0.37947568 4294901760
0.0037740022 0.012727628 0.37997568 4294901760
0.0037740022 0.012727628 0.38047567 4294901760
0.0037740022 0.012727628 0.38097566 4294901760
0.0037740022 0.012727628 0.38147569 4294901760
0.0037740022 0.012727628 0.38197568 4294901760
0.0037740022 0.012727628 0.38247567 4294901760
0.0037740022 0.012727628 0.38297567 4294901760
0.0037740022 0.012727628 0.38347566 4294901760
0.0037740022 0.012727628 0.38397568 4294901760
0.0037740022 0.012727628 0.38447568 4294901760
0.0037740022 0.012727628 0.38497567 4294901760
0.0037740022 0.012727628 0.38547567 4294901760
0.0037740022 0.012727628 0.38597569 4294901760
0.0037740022 0.012727628 0.38647568 4294901760
0.0037740022 0.012727628 0.38697568 4294901760
0.0037740022 0.012727628 0.38747567 4294901760
0.0037740022 0.012727628 0.38797569 4294901760
0.0037740022 0.012727628 0.38847569 4294901760
0.0037740022 0.012727628 0.38897568 4294901760
0.0037740022 0.012727628 0.38947567 4294901760
0.0037740022 0.012727628 0.38997567 4294901760
0.0037740022 0.012727628 0.39047569 4294901760
0.0037740022 0.012727628 0.39097568 4294901760
0.0037740022 0.012727628 0.39147568 4294901760
0.0037740022 0.012727628 0.39197567 4294901760
0.0037740022 0.012727628 0.39247566 4294901760
0.0037740022 0.012727628 0.39297569 4294901760
0.0037740022 0.012727628 0.39347568 4294901760
0.0037740022 0.012727628 0.39397568 4294901760
0.0037740022 0.012727628 0.39447567 4294901760
0.0037740022 0.012727628 0.39497569 4294901760
0.0037740022 0.012727628 0.39547569 4294901760
0.0037740022 0.012727628 0.39597568 4294901760
0.0037740022 0.012727628 0.39647567 4294901760
0.0037740022 0.012727628 0.3969757 4294901760
0.0037740022 0.012727628 0.39747569 4294901760
0.0037740022 0.012727628 0.39797568 4294901760
0.0037740022 0.012727628 0.39847568 4294901760
0.0037740022 0.012727628 0.39897567 4294901760
0.0037740022 0.012727628 0.39947569 4294901760
0.0037740022 0.012727628 0.39997569 4294901760
0.0037740022 0.012727628 0.40047568 4294901760
0.0037740022 0.012727628 0.40097567 4294901760
0.0037740022 0.012727628 0.40147567 4294901760
0.0037740022 0.012727628 0.40197569 4294901760
0.0037740022 0.012727628 0.40247568 4294901760
0.0037740022 0.012727628 0.40297568 4294901760
0.0037740022 0.012727628 0.40347567 4294901760
0.0037740022 0.012727628 0.40397567 4294901760
0.0037740022 0.012727628 0.40447569 4294901760
0.0037740022 0.012727628 0.40497568 4294901760
0.0037740022 0.012727628 0.40547568 4294901760
0.0037740022 0.012727628 0.40597567 4294901760
0.0037740022 0.012727628 0.40647569 4294901760
0.0037740022 0.012727628 0.40697569 4294901760
0.0037740022 0.012727628 0.40747568 4294901760
0.0037740022 0.012727628 0.40797567 4294901760
0.0037740022 0.012727628 0.4084757 4294901760
0.0037740022 0.012727628 0.40897569 4294901760
0.0037740022 0.012727628 0.40947568 4294901760
0.0037740022 0.012727628 0.40997568 4294901760
0.0037740022 0.012727628 0.41047567 4294901760
0.0037740022 0.012727628 0.41097569 4294901760
0.0037740022 0.012727628 0.41147569 4294901760
0.0037740022 0.012727628 0.41197568 4294901760
0.0037740022 0.012727628 0.41247568 4294901760
0.0037740022 0.012727628 0.41297567 4294901760
0.0037740022 0.012727628 0.41347569 4294901760
0.0037740022 0.012727628 0.41397569 4294901760
0.0037740022 0.012727628 0.41447568 4294901760
0.0037740022 0.012727628 0.41497567 4294901760
0.0037740022 0.012727628 0.4154757 4294901760
0.0037740022 0.012727628 0.41597569 4294901760
0.0037740022 0.012727628 0.41647568 4294901760
0.0037740022 0.012727628 0.41697568 4294901760
0.0037740022 0.012727628 0.41747567 4294901760
0.0037740022 0.012727628 0.41797569 4294901760
0.0037740022 0.012727628 0.41847569 4294901760
0.0037740022 0.012727628 0.41897568 4294901760
0.0037740022 0.012727628 0.41947567 4294901760
0.0037740022 0.012727628 0.4199757 4294901760
0.0037740022 0.012727628 0.42047569 4294901760
0.0037740022 0.012727628 0.42097569 4294901760
0.0037740022 0.012727628 0.42147568 4294901760
0.0037740022 0.012727628 0.42197567 4294901760
0.0037740022 0.012727628 0.4224757 4294901760
0.0037740022 0.012727628 0.42297569 4294901760
0.0037740022 0.012727628 0.42347568 4294901760
0.0037740022 0.012727628 0.42397568 4294901760
0.0037740022 0.012727628 0.4244757 4294901760
0.0037740022 0.012727628 0.42497569 4294901760
0.0037740022 0.012727628 0.42547569 4294901760
0.0037740022 0.012727628 0.37547567 4278255360
0.0033599115 0.0126562 0.37574664 4278255360
0.0029458206 0.012584772 0.37601763 4278255360
0.0025317296 0.012513343 0.37628859 4278255360
0.0021176389 0.012441915 0.37655956 4278255360
0.001703548 0.012370488 0.37683055 4278255360
0.0012894573 0.01229906 0.37710151 4278255360
0.00087536639 0.012227632 0.3773725 4278255360
0.00046127569 0.012156203 0.37764347 4278255360
4.7184527e-05 0.012084776 0.37791443 4278255360
-0.00036690617 0.012013348 0.37818542 4278255360
-0.00078099687 0.01194192 0.37845638 4278255360
-0.0011950876 0.011870492 0.37872735 4278255360
-0.0016091783 0.011799064 0.37899834 4278255360
-0.0020232694 0.011727636 0.3792693 4278255360
-0.0024373606 0.011656208 0.37954029 4278255360
-0.0028514508 0.01158478 0.37981126 4278255360
-0.003265542 0.011513351 0.38008222 4278255360
-0.0036796331 0.011441924 0.38035321 4278255360
-0.0040937234 0.011370496 0.38062418 4278255360
-0.0045078145 0.011299068 0.38089514 4278255360
-0.0049219048 0.01122764 0.38116613 4278255360
-0.0053359959 0.011156212 0.38143709 4278255360
-0.0057500871 0.011084784 0.38170809 4278255360
-0.0061641773 0.011013356 0.38197905 4278255360
-0.0065782685 0.010941928 0.38225001 4278255360
-0.0069923587 0.0108705 0.382521 4278255360
-0.0074064508 0.010799072 0.38279197 4278255360
-0.007820541 0.010727644 0.38306293 4278255360
-0.0082346313 0.010656216 0.38333392 4278255360
-0.0086487234 0.010584788 0.38360488 4278255360
-0.0090628136 0.01051336 0.38387585 4278255360
-0.0094769038 0.010441932 0.38414684 4278255360
-0.0098909959 0.010370504 0.3844178 4278255360
-0.010305086 0.010299076 0.38468879 4278255360
-0.010719176 0.010227649 0.38495976 4278255360
-0.011133268 0.01015622 0.38523072 4278255360
-0.011547359 0.010084792 0.38550171 4278255360
-0.011961449 0.010013364 0.38577268 4278255360
-0.012375539 0.0099419365 0.38604364 4278255360
-0.012789631 0.0098705087 0.38631463 4278255360
-0.013203721 0.00979908 0.38658559 4278255360
-0.013617812 0.0097276522 0.38685659 4278255360
-0.014031904 0.0096562244 0.38712755 4278255360
-0.014445994 0.0095847966 0.38739851 4278255360
-0.014860084 0.0095133688 0.3876695 4278255360
-0.015274176 0.0094419401 0.38794047 4278255360
-0.015688267 0.0093705123 0.38821143 4278255360
-0.016102357 0.0092990845 0.38848242 4278255360
-0.016516449 0.0092276568 0.38875338 4278255360
-0.016930539 0.009156229 0.38902438 4278255360
-0.017344629 0.0090848003 0.38929534 4278255360
-0.01775872 0.0090133725 0.3895663 4278255360
-0.01817281 0.0089419447 0.38983729 4278255360
-0.018586904 0.008870516 0.39010826 4278255360
-0.019000994 0.0087990891 0.39037922 4278255360
-0.019415084 0.0087276604 0.39065021 4278255360
-0.019829175 0.0086562326 0.39092118 4278255360
-0.020243265 0.0085848048 0.39119214 4278255360
-0.020657355 0.008513377 0.39146313 4278255360
-0.021071449 0.0084419483 0.39173409 4278255360
-0.021485539 0.0083705205 0.39200509 4278255360
-0.021899629 0.0082990928 0.39227605 4278255360
-0.02231372 0.008227665 0.39254701 4278255360
-0.02272781 0.0081562363 0.392818 4278255360
-0.0231419 0.0080848094 0.39308897 4278255360
-0.023555994 0.0080133807 0.39335993 4278255360
-0.023970084 0.0079419529 0.39363092 4278255360
-0.024384174 0.0078705251 0.39390188 4278255360
-0.024798265 0.0077990969 0.39417285 4278255360
-0.025212355 0.0077276691 0.39444384 4278255360
-0.025626445 0.0076562413 0.3947148 4278255360
-0.026040539 0.0075848126 0.3949858 4278255360
-0.026454629 0.0075133848 0.39525676 4278255360
-0.02686872 0.007441957 0.39552772 4278255360
-0.02728281 0.0073705288 0.39579871 4278255360
-0.0276969 0.007299101 0.39606968 4278255360
-0.028110992 0.0072276732 0.39634067 4278255360
-0.028525081 0.0071562454 0.39661163 4278255360
-0.028939173 0.0070848167 0.39688259 4278255360
-0.029353265 0.0070133889 0.39715359 4278255360
-0.029767353 0.0069419611 0.39742455 4278255360
-0.030181445 0.0068705333 0.39769551 4278255360
-0.030595537 0.0067991051 0.3979665 4278255360
-0.031009626 0.0067276773 0.39823747 4278255360
-0.031423718 0.0066562491 0.39850843 4278255360
-0.03183781 0.0065848213 0.39877942 4278255360
-0.032251898 0.006513393 0.39905038 4278255360
-0.03266599 0.0064419652 0.39932138 4278255360
-0.033080082 0.0063705374 0.39959234 4278255360
-0.033494171 0.0062991097 0.3998633 4278255360
-0.033908263 0.0062276809 0.4001343 4278255360
-0.034322355 0.0061562532 0.40040526 4278255360
-0.034736443 0.0060848254 0.40067622 4278255360
-0.035150535 0.0060133976 0.40094721 4278255360
-0.035564627 0.0059419693 0.40121818 4278255360
-0.035978716 0.0058705416 0.40148914 4278255360
-0.036392808 0.0057991133 0.40176013 4278255360
-0.0368069 0.0057276855 0.40203109 4278255360
