# .PCD v0.7 - Point Cloud Data file format
VERSION 0.7
FIELDS x y z rgb
SIZE 4 4 4 4
TYPE F F F U
COUNT 1 1 1 1
WIDTH 659
HEIGHT 1
VIEWPOINT 0 0 0 1 0 0 0
POINTS 659
DATA ascii
0.06561517 -0.059855565 0.45800003 4286487433
0.067102753 -0.059855565 0.45800003 4285961859
0.063987561 -0.058240037 0.45700002 4283660896
0.065471902 -0.058240037 0.45700002 4282281040
0.066956237 -0.058240037 0.45700002 4280967487
0.068590336 -0.05836748 0.45800003 4280440889
0.059274007 -0.056506816 0.45500001 4286159497
0.060751848 -0.056506816 0.45500001 4283331933
0.062229685 -0.056506816 0.45500001 4282148943
0.063847549 -0.05663101 0.45600003 4280704827
0.065471902 -0.056755196 0.45700002 4280114486
0.066956237 -0.056755196 0.45700002 4280181049
0.068440571 -0.056755196 0.45700002 4279852084
0.070077918 -0.05687939 0.45800003 4280109873
0.057542115 -0.054786589 0.45300001 4282609496
0.059143737 -0.054907534 0.45400003 4281361993
0.06061833 -0.054907534 0.45400003 4280705088
0.062092919 -0.054907534 0.45400003 4280114488
0.06370753 -0.055028476 0.45500001 4279852852
0.065328635 -0.055149417 0.45600003 4279524398
0.066809729 -0.055149417 0.45600003 4279327789
0.068440571 -0.055270359 0.45700002 4279261226
0.069924913 -0.055270359 0.45700002 4279715115
0.054478899 -0.053197056 0.45200002 4282871382
0.055946995 -0.053197056 0.45200002 4281558087
0.057415091 -0.053197056 0.45200002 4280048695
0.05901346 -0.053314749 0.45300001 4279523633
0.060484808 -0.053314749 0.45300001 4279459375
0.062092919 -0.053432442 0.45400003 4279327789
0.063567512 -0.053432442 0.45400003 4279130410
0.065185368 -0.053550132 0.45500001 4279130410
0.066663213 -0.053550132 0.45500001 4279064617
0.068290815 -0.053667828 0.45600003 4279325740
0.069924913 -0.053785518 0.45700002 4282937175
0.049853042 -0.051499572 0.45000002 4286093445
0.051314641 -0.051499572 0.45000002 4283331933
0.052776244 -0.051499572 0.45000002 4281492296
0.054358374 -0.051614016 0.45100003 4280443453
0.055823222 -0.051614016 0.45100003 4279984438
0.057288069 -0.051614016 0.45100003 4280051512
0.05888319 -0.051728461 0.45200002 4279130921
0.06035129 -0.051728461 0.45200002 4278802726
0.061956149 -0.051842902 0.45300001 4278934312
0.063427493 -0.051842902 0.45300001 4279590959
0.065042108 -0.051957346 0.45400003 4279063845
0.066516705 -0.051957346 0.45400003 4279062822
0.068141051 -0.052071787 0.45500001 4280507709
0.069924913 -0.052300677 0.45700002 4285173626
0.045165118 -0.049703892 0.44700003 4285961089
0.048176363 -0.049815089 0.44800001 4284055145
0.049742259 -0.049926285 0.44900003 4281819978
0.05120061 -0.049926285 0.44900003 4280837696
0.052658964 -0.049926285 0.44900003 4279589680
0.054237843 -0.050037477 0.45000002 4279327789
0.055699442 -0.050037477 0.45000002 4279788340
0.057161041 -0.050037477 0.45000002 4278868521
0.05875292 -0.050148673 0.45100003 4278802726
0.060217768 -0.050148673 0.45100003 4278933542
0.061682615 -0.050148673 0.45100003 4279328300
0.063287482 -0.050259866 0.45200002 4278865439
0.064898841 -0.050371058 0.45300001 4278468632
0.066370189 -0.050371058 0.45300001 4279585064
0.067991294 -0.050482254 0.45400003 4279979822
0.043419883 -0.047927711 0.44400004 4286092421
0.044963036 -0.048035655 0.44500002 4286488462
0.046408396 -0.048035655 0.44500002 4282148175
0.048068829 -0.048251547 0.44700003 4281034046
0.04952069 -0.048251547 0.44700003 4280048945
0.051086575 -0.048359491 0.44800001 4279328552
0.052541681 -0.048359491 0.44800001 4279262759
0.053996786 -0.048359491 0.44800001 4279131173
0.055451889 -0.048359491 0.44800001 4278999589
0.057034019 -0.048467435 0.44900003 4279064615
0.058492374 -0.048467435 0.44900003 4278998822
0.060084246 -0.048575379 0.45000002 4278997025
0.061545841 -0.048575379 0.45000002 4278203660
0.063147463 -0.048683327 0.45100003 4280506166
0.064755581 -0.048791271 0.45200002 4278795548
0.066223674 -0.048791271 0.45200002 4280637239
0.067991294 -0.049007162 0.45400003 4282148941
0.041977771 -0.046485111 0.44400004 4285896066
0.043224297 -0.046275716 0.44200003 4283726180
0.044760954 -0.046380412 0.44300002 4281427784
0.046199817 -0.046380412 0.44300002 4279523119
0.047746222 -0.046485111 0.44400004 4279590191
0.049299117 -0.046589803 0.44500002 4279525166
0.050858509 -0.046694499 0.44600001 4278802980
0.052307121 -0.046694499 0.44600001 4278802980
0.053755727 -0.046694499 0.44600001 4278933542
0.055328112 -0.046799198 0.44700003 4278933029
0.056779969 -0.046799198 0.44700003 4279260711
0.0583621 -0.046903893 0.44800001 4279390500
0.059950728 -0.047008589 0.44900003 4278796568
0.061409075 -0.047008589 0.44900003 4279848486
0.063007444 -0.047113284 0.45000002 4280309039
0.064612314 -0.047217984 0.45100003 4279124765
0.066077165 -0.047217984 0.45100003 4280571705
0.04112687 -0.044129483 0.43500003 4282018892
0.042833127 -0.044433825 0.43800002 4280507963
0.044457834 -0.044636719 0.44000003 4279458607
0.045991242 -0.044738166 0.44100001 4279327789
0.047531147 -0.044839613 0.44200003 4279065128
0.049077548 -0.04494106 0.44300002 4278868519
0.050516412 -0.04494106 0.44300002 4278736933
0.052072562 -0.045042507 0.44400004 4278736933
0.053635199 -0.045143954 0.44500002 4278933029
0.055080559 -0.045143954 0.44500002 4279786541
0.056652941 -0.045245402 0.44600001 4278203149
0.058231827 -0.045346849 0.44700003 4278927386
0.059817206 -0.045448296 0.44800001 4279849258
0.061409075 -0.045549743 0.44900003 4279256351
0.062867433 -0.045549743 0.44900003 4281032249
0.064469047 -0.04565119 0.45000002 4279190558
0.066077165 -0.045752637 0.45100003 4281162048
0.0393488 -0.042323332 0.43100002 4280441143
0.040937781 -0.04251973 0.43300003 4279721777
0.042637542 -0.042814322 0.43600002 4279525168
0.044154711 -0.04291252 0.43700001 4279130921
0.045678377 -0.043010719 0.43800002 4278999335
0.047208536 -0.043108914 0.43900001 4278999335
0.048745196 -0.043207116 0.44000003 4279065128
0.050288346 -0.043305311 0.44100001 4278867751
0.051837999 -0.04340351 0.44200003 4278735652
0.053394143 -0.043501709 0.44300002 4278995746
0.054956786 -0.043599907 0.44400004 4278467605
0.056398895 -0.043599907 0.44400004 4279848488
0.058101553 -0.043796301 0.44600001 4279520293
0.059550162 -0.043796301 0.44600001 4278993179
0.061272305 -0.043992698 0.44800001 4279255584
0.062867433 -0.044090897 0.44900003 4279189023
0.064469047 -0.044189092 0.45000002 4280636215
0.06593065 -0.044189092 0.45000002 4284777844
0.036464226 -0.040828019 0.43000001 4281557319
0.037772816 -0.040733073 0.42900002 4280574776
0.039257504 -0.040828019 0.43000001 4279589676
0.040748693 -0.04092297 0.43100002 4279328300
0.042344164 -0.041112866 0.43300003 4278999335
0.043851592 -0.041207816 0.43400002 4278933796
0.045469798 -0.041397713 0.43600002 4278999589
0.046993461 -0.04149266 0.43700001 4278472991
0.048523627 -0.041587614 0.43800002 4278670372
0.050060283 -0.04168256 0.43900001 4278931234
0.05160344 -0.04177751 0.44000003 4278202380
0.053153086 -0.041872457 0.44100001 4279256867
0.05470923 -0.041967407 0.44200003 4279125281
0.05627187 -0.042062357 0.44300002 4278992414
0.05784101 -0.042157307 0.44400004 4278597656
0.059416644 -0.042252254 0.44500002 4279452965
0.061135538 -0.04244215 0.44700003 4278400277
0.062727414 -0.042537101 0.44800001 4280438327
0.064325787 -0.042632051 0.44900003 4284121451
0.017243482 -0.037138414 0.40500003 4280374330
0.018558923 -0.037138414 0.40500003 4280244539
0.019874364 -0.037138414 0.40500003 4282547044
0.036464226 -0.039430905 0.43000001 4280443705
0.037596717 -0.039155807 0.42700002 4279525933
0.039074913 -0.039247509 0.42800003 4278868773
0.040559601 -0.039339207 0.42900002 4278671908
0.042148579 -0.039522607 0.43100002 4278671908
0.04364951 -0.039614305 0.43200001 4278868003
0.045261223 -0.039797705 0.43400002 4278473245
0.046778392 -0.039889406 0.43500003 4278734880
0.048302058 -0.039981104 0.43600002 4279062820
0.049832217 -0.040072802 0.43700001 4278468119
0.051486157 -0.040256202 0.43900001 4279915051
0.053032558 -0.040347904 0.44000003 4278927386
0.054585453 -0.040439606 0.44100001 4279387937
0.056144848 -0.040531304 0.44200003 4279321377
0.057710737 -0.040623005 0.44300002 4280044330
0.059416644 -0.040806405 0.44500002 4279780647
0.060998768 -0.040898103 0.44600001 4279517475
0.062587395 -0.040989805 0.44700003 4284778098
0.017243482 -0.035822526 0.40500003 4281026864
0.018558923 -0.035822526 0.40500003 4280373297
0.019874364 -0.035822526 0.40500003 4279326769
0.021189803 -0.035822526 0.40500003 4279787320
0.022449676 -0.035734076 0.40400001 4279719996
0.023820685 -0.035822526 0.40500003 4282612322
0.025136126 -0.035822526 0.40500003 4285833099
0.026451567 -0.035822526 0.40500003 4286490259
0.037420619 -0.037591539 0.42500001 4278869033
0.038892318 -0.037679993 0.42600003 4278408736
0.040370513 -0.037768442 0.42700002 4278868773
0.041952994 -0.037945341 0.42900002 4278341659
0.043548469 -0.038122244 0.43100002 4278603548
0.045052644 -0.038210694 0.43200001 4278932000
0.04656332 -0.038299147 0.43300003 4278661142
0.048191275 -0.038476046 0.43500003 4278859545
0.049718186 -0.038564496 0.43600002 4279254814
0.051251594 -0.038652945 0.43700001 4278267919
0.052791502 -0.038741399 0.43800002 4278860826
0.0543379 -0.038829848 0.43900001 4279189791
0.05601782 -0.039006751 0.44100001 4278202896
0.057710737 -0.03918365 0.44300002 4280110377
0.059283126 -0.039272103 0.44400004 4279912233
0.019874364 -0.034506641 0.40500003 4279062820
0.021189803 -0.034506641 0.40500003 4279327789
0.022505244 -0.034506641 0.40500003 4278934316
0.023820685 -0.034506641 0.40500003 4279591992
0.025136126 -0.034506641 0.40500003 4279524148
0.026516879 -0.034591842 0.40600002 4279983932
0.027904129 -0.034677044 0.40700001 4280115518
0.029297873 -0.034762245 0.40800002 4279589174
0.030698113 -0.034847446 0.40900001 4279130158
0.032104854 -0.034932647 0.41000003 4279262511
0.033518083 -0.035017848 0.41100001 4279000621
0.03553142 -0.035699464 0.41900003 4278737447
0.037244525 -0.036040269 0.42300001 4278934566
0.038709726 -0.03612547 0.42400002 4278539808
0.040275969 -0.036295872 0.42600003 4278538525
0.041757409 -0.036381073 0.42700002 4278538525
0.043346386 -0.036551479 0.42900002 4278532628
0.044948358 -0.036721881 0.43100002 4278396943
0.046455778 -0.036807083 0.43200001 4279183894
0.047969706 -0.036892284 0.43300003 4280567342
0.049604155 -0.03706269 0.43500003 4278726162
0.051134314 -0.037147891 0.43600002 4279450396
0.052670971 -0.037233088 0.43700001 4279386400
0.054214124 -0.037318293 0.43800002 4278267919
0.055890799 -0.037488695 0.44000003 4280045100
0.019874364 -0.033190753 0.40500003 4279190556
0.021189803 -0.033190753 0.40500003 4278732570
0.022505244 -0.033190753 0.40500003 4278604577
0.023820685 -0.033190753 0.40500003 4278407970
0.025198191 -0.033272706 0.40600002 4279526965
0.026516879 -0.033272706 0.40600002 4282948203
0.027904129 -0.033354659 0.40700001 4280249154
0.029297873 -0.033436611 0.40800002 4279460408
0.030698113 -0.033518564 0.40900001 4279526967
0.032183155 -0.033682469 0.41100001 4279000621
0.033599637 -0.033764422 0.41200003 4278540068
0.035446618 -0.034256134 0.41800001 4278737187
0.03706843 -0.034501996 0.42100003 4278670111
0.038618427 -0.034665897 0.42300001 4278204679
0.04008688 -0.03474785 0.42400002 4279060765
0.041659616 -0.034911755 0.42600003 4278201611
0.043245349 -0.035075661 0.42800003 4278789136
0.044739779 -0.035157613 0.42900002 4279380762
0.046348244 -0.035321519 0.43100002 4279512859
0.04785892 -0.035403471 0.43200001 4281159479
0.04949012 -0.035567377 0.43400002 4278396943
0.051017039 -0.035649329 0.43500003 4278199820
0.052550443 -0.035731282 0.43600002 4279846438
0.054214124 -0.035895187 0.43800002 4280242479
0.018604746 -0.03195357 0.40600002 4283393100
0.019923436 -0.03195357 0.40600002 4279320348
0.021242123 -0.03195357 0.40600002 4278928154
0.022560813 -0.03195357 0.40600002 4278469913
0.023879502 -0.03195357 0.40600002 4278800160
0.025198191 -0.03195357 0.40600002 4278473761
0.026582189 -0.03203227 0.40700001 4278277411
0.027972691 -0.032110974 0.40800002 4278343722
0.02936968 -0.032189678 0.40900001 4278737197
0.03077317 -0.032268383 0.41000003 4278869035
0.032261461 -0.032425791 0.41200003 4278408482
0.033681188 -0.032504492 0.41300002 4278210843
0.035361819 -0.032819305 0.41700003 4278539038
0.036980379 -0.033055414 0.42000002 4278864669
0.038527131 -0.033212822 0.42200002 4278797080
0.039992332 -0.033291526 0.42300001 4278200072
0.041561823 -0.033448931 0.42500001 4278854929
0.043144308 -0.033606339 0.42700002 4280170278
0.044635493 -0.033685043 0.42800003 4280104996
0.046240706 -0.033842448 0.43000001 4278790931
0.047748134 -0.033921152 0.43100002 4280108328
0.049376089 -0.034078561 0.43300003 4279187486
0.050899755 -0.034157261 0.43400002 4279846440
0.052550443 -0.03431467 0.43600002 4279320096
0.019923436 -0.030634433 0.40600002 4279253271
0.021242123 -0.030634433 0.40600002 4278993177
0.022560813 -0.030634433 0.40600002 4278863386
0.023938317 -0.030709887 0.40700001 4278732570
0.025260255 -0.030709887 0.40700001 4278800160
0.026647503 -0.030785341 0.40800002 4278867236
0.028041249 -0.030860795 0.40900001 4278670370
0.029441491 -0.03093625 0.41000003 4278539554
0.030848226 -0.031011704 0.41100001 4278736933
0.032261461 -0.03108716 0.41200003 4278868519
0.033762742 -0.031238068 0.41400003 4278734621
0.035361819 -0.031464431 0.41700003 4279194658
0.036892332 -0.031615339 0.41900003 4279257633
0.038435835 -0.031766247 0.42100003 4280044582
0.039992332 -0.031917155 0.42300001 4279382037
0.041464031 -0.031992611 0.42400002 4279315480
0.043043267 -0.032143518 0.42600003 4279446555
0.044635493 -0.032294426 0.42800003 4278657039
0.046133172 -0.032369882 0.42900002 4279317275
0.047748134 -0.03252079 0.43100002 4280240426
0.049262054 -0.032596242 0.43200001 4279716135
0.050782476 -0.032671697 0.43300003 4279911979
0.019972509 -0.029387502 0.40700001 4279516955
0.021294443 -0.029387502 0.40700001 4279124250
0.022616381 -0.029387502 0.40700001 4278796568
0.023938317 -0.029387502 0.40700001 4278929179
0.02532232 -0.029459707 0.40800002 4279062048
0.026712814 -0.029531913 0.40900001 4279194404
0.028041249 -0.029531913 0.40900001 4278998052
0.029441491 -0.029604118 0.41000003 4279129638
0.030923283 -0.029748529 0.41200003 4278866720
0.032339767 -0.029820735 0.41300002 4279129379
0.033844296 -0.029965144 0.41500002 4278997279
0.035361819 -0.030109555 0.41700003 4279193888
0.036892332 -0.030253965 0.41900003 4278201607
0.038435835 -0.030398376 0.42100003 4279386400
0.039897792 -0.03047058 0.42200002 4279317016
0.041464031 -0.030614991 0.42400002 4279183892
0.042942226 -0.030687196 0.42500001 4278657039
0.044531204 -0.030831605 0.42700002 4279710754
0.046133172 -0.030976016 0.42900002 4279978026
0.047637347 -0.031048222 0.43000001 4279715367
0.049148023 -0.031120427 0.43100002 4282411347
0.020021582 -0.028134074 0.40800002 4279255066
0.021346765 -0.028134074 0.40800002 4279190043
0.022671949 -0.028134074 0.40800002 4279059740
0.023997135 -0.028134074 0.40800002 4279258144
0.025384383 -0.028203029 0.40900001 4279127841
0.026712814 -0.028203029 0.40900001 4279127841
0.028109811 -0.028271988 0.41000003 4279195431
0.029513298 -0.028340943 0.41100001 4279129638
0.03099834 -0.028478855 0.41300002 4279129379
0.032418072 -0.028547812 0.41400003 4279326758
0.033925846 -0.028685723 0.41600001 4278996509
0.035446618 -0.028823635 0.41800001 4279193375
0.036892332 -0.028892592 0.41900003 4278201865
0.03834454 -0.028961547 0.42000002 4278200585
0.039897792 -0.029099459 0.42200002 4278920724
0.041366238 -0.029168414 0.42300001 4278722832
0.042841185 -0.029237373 0.42400002 4280239660
0.044426914 -0.029375285 0.42600003 4279583781
0.046025638 -0.029513197 0.42800003 4279911983
0.047526564 -0.029582152 0.42900002 4285699716
0.017413788 -0.026874147 0.40900001 4283131461
0.018696396 -0.026808441 0.40800002 4279909401
0.020021582 -0.026808441 0.40800002 4279320859
0.021399084 -0.026874147 0.40900001 4279190043
0.022727517 -0.026874147 0.40900001 4279059738
0.02405595 -0.026874147 0.40900001 4279257631
0.025446448 -0.026939856 0.41000003 4279588646
0.026778128 -0.026939856 0.41000003 4278865693
0.028178371 -0.027005563 0.41100001 4279129638
0.029585108 -0.027071269 0.41200003 4279261478
0.03099834 -0.027136976 0.41300002 4279260965
0.032496374 -0.027268389 0.41500002 4278931486
0.033925846 -0.027334096 0.41600001 4279325474
0.035446618 -0.027465511 0.41800001 4279522086
0.036892332 -0.027531218 0.41900003 4279912998
0.03834454 -0.027596924 0.42000002 4278198789
0.039803248 -0.027662633 0.42100003 4280173356
0.041366238 -0.027794044 0.42300001 4280175405
0.042841185 -0.027859753 0.42400002 4279846699
0.044322625 -0.02792546 0.42500001 4282741080
0.017413788 -0.025545266 0.40900001 4281552429
0.01874222 -0.025545266 0.40900001 4279909914
0.020070653 -0.025545266 0.40900001 4279190043
0.021451406 -0.025607724 0.41000003 4279321629
0.022783088 -0.025607724 0.41000003 4278928152
0.024114769 -0.025607724 0.41000003 4279192351
0.025508514 -0.025670182 0.41100001 4279063072
0.02684344 -0.025670182 0.41100001 4279260451
0.028246932 -0.02573264 0.41200003 4279260965
0.029656915 -0.025795097 0.41300002 4278998306
0.031073397 -0.025857557 0.41400003 4279523623
0.032496374 -0.025920013 0.41500002 4279194658
0.0340074 -0.026044929 0.41700003 4278930462
0.035446618 -0.026107386 0.41800001 4278337044
0.036892332 -0.026169846 0.41900003 4280439860
0.03834454 -0.026232302 0.42000002 4279716137
0.039803248 -0.02629476 0.42100003 4279190052
0.041268446 -0.026357219 0.42200002 4280637239
0.042740144 -0.026419675 0.42300001 4285305210
0.017456364 -0.024275592 0.41000003 4279382291
0.018788045 -0.024275592 0.41000003 4279648029
0.020119727 -0.024275592 0.41000003 4279058972
0.021503726 -0.024334799 0.41100001 4279124765
0.022838654 -0.024334799 0.41100001 4279520291
0.024173584 -0.024334799 0.41100001 4279653674
0.025570579 -0.024394009 0.41200003 4279062818
0.026974065 -0.024453219 0.41300002 4279326244
0.028315492 -0.024453219 0.41300002 4279457830
0.029728726 -0.024512429 0.41400003 4278932000
0.031148452 -0.024571637 0.41500002 4279852336
0.03257468 -0.024630845 0.41600001 4279325992
0.0340074 -0.024690054 0.41700003 4279325220
0.035446618 -0.024749262 0.41800001 4279126560
0.036892332 -0.024808472 0.41900003 4279783463
0.03834454 -0.02486768 0.42000002 4279586086
0.0397087 -0.02486768 0.42000002 4283002966
0.01616401 -0.022999419 0.41100001 4283064387
0.01749894 -0.022999419 0.41100001 4279909405
0.01883387 -0.022999419 0.41100001 4279516957
0.020217871 -0.02305538 0.41200003 4279190558
0.021556048 -0.02305538 0.41200003 4279190558
0.022894224 -0.02305538 0.41200003 4279126047
0.024291217 -0.02311134 0.41300002 4279390500
0.025632642 -0.02311134 0.41300002 4279062818
0.027039379 -0.023167299 0.41400003 4279326758
0.028384054 -0.023167299 0.41400003 4279589928
0.029800532 -0.023223259 0.41500002 4279392037
0.031223508 -0.023279218 0.41600001 4280641854
0.032652985 -0.023335177 0.41700003 4279194408
0.034088951 -0.023391137 0.41800001 4279060767
0.035446618 -0.023391137 0.41800001 4279586086
0.036892332 -0.023447098 0.41900003 4281229374
0.038253244 -0.023447098 0.41900003 4285240180
0.017541517 -0.021716749 0.41200003 4279844641
0.018925518 -0.021769458 0.41300002 4279385371
0.020266943 -0.021769458 0.41300002 4279124765
0.021608368 -0.021769458 0.41300002 4279190558
0.023005361 -0.021822169 0.41400003 4279520291
0.024350034 -0.021822169 0.41400003 4279652389
0.025694707 -0.021822169 0.41400003 4278931232
0.027104691 -0.02187488 0.41500002 4279721262
0.028452614 -0.02187488 0.41500002 4279326504
0.029872341 -0.02192759 0.41600001 4279721262
0.031223508 -0.02192759 0.41600001 4279787057
0.032652985 -0.021980301 0.41700003 4279260201
0.034088951 -0.022033012 0.41800001 4280571444
0.035446618 -0.022033012 0.41800001 4282608976
0.036892332 -0.022085723 0.41900003 4287080338
0.014829082 -0.020328658 0.41100001 4280762665
0.01620334 -0.020378118 0.41200003 4280105246
0.017584093 -0.020427579 0.41300002 4279647775
0.018971344 -0.020477042 0.41400003 4279320348
0.020316016 -0.020477042 0.41400003 4278730007
0.021713009 -0.020526502 0.41500002 4279126049
0.023060929 -0.020526502 0.41500002 4279389217
0.024408851 -0.020526502 0.41500002 4279652902
0.025756771 -0.020526502 0.41500002 4279127841
0.027170002 -0.020575963 0.41600001 4279523883
0.028521173 -0.020575963 0.41600001 4279327789
0.029872341 -0.020575963 0.41600001 4280182328
0.031298567 -0.020625426 0.41700003 4280377910
0.032652985 -0.020625426 0.41700003 4280047149
0.034088951 -0.020674886 0.41800001 4285568893
0.035446618 -0.020674886 0.41800001 4286225542
0.014829082 -0.018993275 0.41100001 4280039201
0.016242668 -0.019085702 0.41300002 4279974946
0.017626671 -0.019131914 0.41400003 4279385887
0.019017167 -0.019178126 0.41500002 4279254814
0.020365089 -0.019178126 0.41500002 4279124252
0.021765329 -0.019224338 0.41600001 4279520293
0.023116497 -0.019224338 0.41600001 4279587109
0.024467666 -0.019224338 0.41600001 4279456293
0.025818836 -0.019224338 0.41600001 4279457576
0.027170002 -0.019224338 0.41600001 4279654955
0.028589735 -0.01927055 0.41700003 4278800162
0.02994415 -0.01927055 0.41700003 4280443192
0.031298567 -0.01927055 0.41700003 4282149195
0.020414161 -0.017872712 0.41600001 4279255586
0.021765329 -0.017872712 0.41600001 4279453476
0.023172066 -0.017915675 0.41700003 4279521318
0.024526484 -0.017915675 0.41700003 4279061537
0.025880901 -0.017915675 0.41700003 4279983152
0.027235316 -0.017915675 0.41700003 4279983922
0.028589735 -0.017915675 0.41700003 4280374578
0.02994415 -0.017915675 0.41700003 4285043063
0.040807039 -0.035791226 0.42796922 4294967295
0.040807039 -0.035791226 0.42796922 4294901760
0.040807039 -0.035791226 0.42846921 4294901760
0.040807039 -0.035791226 0.4289692 4294901760
0.040807039 -0.035791226 0.42946923 4294901760
0.040807039 -0.035791226 0.42996922 4294901760
0.040807039 -0.035791226 0.43046921 4294901760
0.040807039 -0.035791226 0.43096921 4294901760
0.040807039 -0.035791226 0.43146923 4294901760
0.040807039 -0.035791226 0.43196923 4294901760
0.040807039 -0.035791226 0.43246922 4294901760
0.040807039 -0.035791226 0.43296921 4294901760
0.040807039 -0.035791226 0.43346921 4294901760
0.040807039 -0.035791226 0.43396923 4294901760
0.040807039 -0.035791226 0.43446922 4294901760
0.040807039 -0.035791226 0.43496922 4294901760
0.040807039 -0.035791226 0.43546921 4294901760
0.040807039 -0.035791226 0.43596923 4294901760
0.040807039 -0.035791226 0.43646923 4294901760
0.040807039 -0.035791226 0.43696922 4294901760
0.040807039 -0.035791226 0.43746921 4294901760
0.040807039 -0.035791226 0.43796921 4294901760
0.040807039 -0.035791226 0.43846923 4294901760
0.040807039 -0.035791226 0.43896922 4294901760
0.040807039 -0.035791226 0.43946922 4294901760
0.040807039 -0.035791226 0.43996921 4294901760
0.040807039 -0.035791226 0.44046921 4294901760
0.040807039 -0.035791226 0.44096923 4294901760
0.040807039 -0.035791226 0.44146922 4294901760
0.040807039 -0.035791226 0.44196922 4294901760
0.040807039 -0.035791226 0.44246921 4294901760
0.040807039 -0.035791226 0.44296923 4294901760
0.040807039 -0.035791226 0.44346923 4294901760
0.040807039 -0.035791226 0.44396922 4294901760
0.040807039 -0.035791226 0.44446921 4294901760
0.040807039 -0.035791226 0.44496924 4294901760
0.040807039 -0.035791226 0.44546923 4294901760
0.040807039 -0.035791226 0.44596922 4294901760
0.040807039 -0.035791226 0.44646922 4294901760
0.040807039 -0.035791226 0.44696921 4294901760
0.040807039 -0.035791226 0.44746923 4294901760
0.040807039 -0.035791226 0.44796923 4294901760
0.040807039 -0.035791226 0.44846922 4294901760
0.040807039 -0.035791226 0.44896922 4294901760
0.040807039 -0.035791226 0.44946921 4294901760
0.040807039 -0.035791226 0.44996923 4294901760
0.040807039 -0.035791226 0.45046923 4294901760
0.040807039 -0.035791226 0.45096922 4294901760
0.040807039 -0.035791226 0.45146921 4294901760
0.040807039 -0.035791226 0.45196924 4294901760
0.040807039 -0.035791226 0.45246923 4294901760
0.040807039 -0.035791226 0.45296922 4294901760
0.040807039 -0.035791226 0.45346922 4294901760
0.040807039 -0.035791226 0.45396921 4294901760
0.040807039 -0.035791226 0.45446923 4294901760
0.040807039 -0.035791226 0.45496923 4294901760
0.040807039 -0.035791226 0.45546922 4294901760
0.040807039 -0.035791226 0.45596921 4294901760
0.040807039 -0.035791226 0.45646924 4294901760
0.040807039 -0.035791226 0.45696923 4294901760
0.040807039 -0.035791226 0.45746922 4294901760
0.040807039 -0.035791226 0.45796922 4294901760
0.040807039 -0.035791226 0.45846921 4294901760
0.040807039 -0.035791226 0.45896924 4294901760
0.040807039 -0.035791226 0.45946923 4294901760
0.040807039 -0.035791226 0.45996922 4294901760
0.040807039 -0.035791226 0.46046922 4294901760
0.040807039 -0.035791226 0.46096924 4294901760
0.040807039 -0.035791226 0.46146923 4294901760
0.040807039 -0.035791226 0.46196923 4294901760
0.040807039 -0.035791226 0.46246922 4294901760
0.040807039 -0.035791226 0.46296921 4294901760
0.040807039 -0.035791226 0.46346924 4294901760
0.040807039 -0.035791226 0.46396923 4294901760
0.040807039 -0.035791226 0.46446922 4294901760
0.040807039 -0.035791226 0.46496922 4294901760
0.040807039 -0.035791226 0.46546924 4294901760
0.040807039 -0.035791226 0.46596923 4294901760
0.040807039 -0.035791226 0.46646923 4294901760
0.040807039 -0.035791226 0.46696922 4294901760
0.040807039 -0.035791226 0.46746922 4294901760
0.040807039 -0.035791226 0.46796924 4294901760
0.040807039 -0.035791226 0.46846923 4294901760
0.040807039 -0.035791226 0.46896923 4294901760
0.040807039 -0.035791226 0.46946922 4294901760
0.040807039 -0.035791226 0.46996921 4294901760
0.040807039 -0.035791226 0.47046924 4294901760
0.040807039 -0.035791226 0.47096923 4294901760
0.040807039 -0.035791226 0.47146922 4294901760
0.040807039 -0.035791226 0.47196922 4294901760
0.040807039 -0.035791226 0.47246921 4294901760
0.040807039 -0.035791226 0.47296923 4294901760
0.040807039 -0.035791226 0.47346923 4294901760
0.040807039 -0.035791226 0.47396922 4294901760
0.040807039 -0.035791226 0.47446924 4294901760
0.040807039 -0.035791226 0.47496924 4294901760
0.040807039 -0.035791226 0.47546923 4294901760
0.040807039 -0.035791226 0.47596923 4294901760
0.040807039 -0.035791226 0.47646922 4294901760
0.040807039 -0.035791226 0.47696924 4294901760
0.040807039 -0.035791226 0.47746924 4294901760
0.040807039 -0.035791226 0.47796923 4294901760
0.040807039 -0.035791226 0.42796922 4278255360
0.040523857 -0.035580251 0.42832318 4278255360
0.040240675 -0.035369277 0.42867717 4278255360
0.039957494 -0.035158306 0.42903113 4278255360
0.039674316 -0.034947332 0.42938513 4278255360
0.039391134 -0.034736358 0.42973909 4278255360
0.039107952 -0.034525383 0.43009308 4278255360
0.038824771 -0.034314409 0.43044704 4278255360
0.038541589 -0.034103435 0.43080103 4278255360
0.038258407 -0.03389246 0.431155 4278255360
0.037975226 -0.03368149 0.43150896 4278255360
0.037692048 -0.033470515 0.43186295 4278255360
0.037408866 -0.033259541 0.43221691 4278255360
0.037125684 -0.033048566 0.4325709 4278255360
0.036842503 -0.032837592 0.43292487 4278255360
0.036559321 -0.032626618 0.43327886 4278255360
0.036276139 -0.032415647 0.43363282 4278255360
0.035992958 -0.032204673 0.43398678 4278255360
0.035709776 -0.031993698 0.43434078 4278255360
0.035426598 -0.031782724 0.43469474 4278255360
0.035143416 -0.03157175 0.43504873 4278255360
0.034860235 -0.031360775 0.43540269 4278255360
0.034577053 -0.031149803 0.43575668 4278255360
0.034293871 -0.03093883 0.43611065 4278255360
0.034010693 -0.030727856 0.43646464 4278255360
0.033727512 -0.030516881 0.4368186 4278255360
0.03344433 -0.030305909 0.43717256 4278255360
0.033161148 -0.030094935 0.43752655 4278255360
0.032877967 -0.02988396 0.43788052 4278255360
0.032594785 -0.029672988 0.43823451 4278255360
0.032311603 -0.029462013 0.43858847 4278255360
0.032028422 -0.029251039 0.43894246 4278255360
0.031745244 -0.029040067 0.43929642 4278255360
0.031462062 -0.028829092 0.43965042 4278255360
0.03117888 -0.028618118 0.44000438 4278255360
0.030895699 -0.028407145 0.44035834 4278255360
0.030612517 -0.028196171 0.44071233 4278255360
0.030329335 -0.027985197 0.44106629 4278255360
0.030046156 -0.027774222 0.44142029 4278255360
0.029762976 -0.02756325 0.44177425 4278255360
0.029479794 -0.027352275 0.44212824 4278255360
0.029196613 -0.027141303 0.4424822 4278255360
0.028913431 -0.026930328 0.44283617 4278255360
0.028630249 -0.026719354 0.44319016 4278255360
0.028347069 -0.02650838 0.44354412 4278255360
0.028063888 -0.026297407 0.44389811 4278255360
0.027780706 -0.026086433 0.44425207 4278255360
0.027497526 -0.02587546 0.44460607 4278255360
0.027214345 -0.025664486 0.44496003 4278255360
0.026931163 -0.025453512 0.44531402 4278255360
0.026647981 -0.025242537 0.44566798 4278255360
0.026364801 -0.025031565 0.44602194 4278255360
0.026081622 -0.024820592 0.44637594 4278255360
0.02579844 -0.024609618 0.4467299 4278255360
0.025515258 -0.024398644 0.44708389 4278255360
0.025232077 -0.024187669 0.44743785 4278255360
0.024948895 -0.023976695 0.44779184 4278255360
0.024665715 -0.023765722 0.44814581 4278255360
0.024382534 -0.02355475 0.4484998 4278255360
0.024099354 -0.023343775 0.44885376 4278255360
0.02381617 -0.023132801 0.44920772 4278255360
0.023532989 -0.022921827 0.44956172 4278255360
0.023249809 -0.022710852 0.44991568 4278255360
0.022966627 -0.02249988 0.45026967 4278255360
0.022683447 -0.022288907 0.45062363 4278255360
0.022400266 -0.022077933 0.45097762 4278255360
0.022117084 -0.021866959 0.45133159 4278255360
0.021833902 -0.021655984 0.45168555 4278255360
0.021550722 -0.02144501 0.45203954 4278255360
0.021267541 -0.021234037 0.4523935 4278255360
0.020984359 -0.021023063 0.45274749 4278255360
0.020701179 -0.02081209 0.45310146 4278255360
0.020417996 -0.020601116 0.45345545 4278255360
0.020134816 -0.020390142 0.45380941 4278255360
0.019851634 -0.020179167 0.4541634 4278255360
0.019568454 -0.019968195 0.45451736 4278255360
0.019285273 -0.019757221 0.45487133 4278255360
0.019002093 -0.019546248 0.45522532 4278255360
0.018718911 -0.019335274 0.45557928 4278255360
0.01843573 -0.019124299 0.45593327 4278255360
0.018152548 -0.018913325 0.45628724 4278255360
0.017869366 -0.018702352 0.45664123 4278255360
0.017586187 -0.018491378 0.45699519 4278255360
0.017303005 -0.018280406 0.45734918 4278255360
0.017019825 -0.018069431 0.45770314 4278255360
0.016736642 -0.017858457 0.45805711 4278255360
0.016453462 -0.017647482 0.4584111 4278255360
0.01617028 -0.01743651 0.45876506 4278255360
0.0158871 -0.017225536 0.45911905 4278255360
0.015603919 -0.017014563 0.45947301 4278255360
0.015320737 -0.016803589 0.45982701 4278255360
0.015037555 -0.016592614 0.46018097 4278255360
0.014754374 -0.01638164 0.46053493 4278255360
0.014471194 -0.016170667 0.46088892 4278255360
0.014188012 -0.015959693 0.46124288 4278255360
0.013904832 -0.015748719 0.46159688 4278255360
0.013621651 -0.015537746 0.46195084 4278255360
0.013338469 -0.015326772 0.46230483 4278255360
0.013055287 -0.015115798 0.46265879 4278255360
0.012772107 -0.014904825 0.46301278 4278255360
0.012488926 -0.014693851 0.46336675 4278255360
