# .PCD v0.7 - Point Cloud Data file format
VERSION 0.7
FIELDS x y z rgb
SIZE 4 4 4 4
TYPE F F F U
COUNT 1 1 1 1
WIDTH 1052
HEIGHT 1
VIEWPOINT 0 0 0 1 0 0 0
POINTS 1052
DATA ascii
0.090536557 0.023915144 0.39200002 4278858259
0.091809772 0.023915144 0.39200002 4278595601
0.092845537 0.023854136 0.39100003 4278793750
0.094115503 0.023854136 0.39100003 4278991129
0.095385469 0.023854136 0.39100003 4278794004
0.096655443 0.023854136 0.39100003 4278925590
0.097925402 0.023854136 0.39100003 4278727441
0.09995646 0.02403716 0.39400002 4278924820
0.10123618 0.02403716 0.39400002 4278924820
0.10277608 0.024098167 0.39500001 4278924820
0.10405904 0.024098167 0.39500001 4278924820
0.10480863 0.023976151 0.39300001 4278595855
0.10635503 0.02403716 0.39400002 4278596625
0.10763474 0.02403716 0.39400002 4278728211
0.10974374 0.024220183 0.39700001 4278991383
0.11131289 0.024281193 0.39800003 4278531343
0.1126056 0.024281193 0.39800003 4278662929
0.11418448 0.0243422 0.39900002 4278728722
0.033496205 0.025381563 0.39500001 4279640082
0.034691118 0.025317308 0.39400002 4280034327
0.035970829 0.025317308 0.39400002 4280100120
0.037061453 0.025188792 0.39200002 4279771668
0.038236879 0.025124537 0.39100003 4279442703
0.039405808 0.025060279 0.39000002 4279378191
0.04056824 0.024996022 0.38900003 4279313936
0.041724171 0.024931764 0.38800001 4278922769
0.042873617 0.024867509 0.38700002 4278989845
0.044016559 0.024803249 0.38600001 4278661648
0.045153007 0.024738993 0.38500002 4278794002
0.046403486 0.024738993 0.38500002 4278795285
0.047653969 0.024738993 0.38500002 4278532113
0.048904449 0.024738993 0.38500002 4278598419
0.050024655 0.024674736 0.384 4278532626
0.051271889 0.024674736 0.384 4278335247
0.052519117 0.024674736 0.384 4278466833
0.053766351 0.024674736 0.384 4278532626
0.055013586 0.024674736 0.384 4278269454
0.05626082 0.024674736 0.384 4278532626
0.057508048 0.024674736 0.384 4278466833
0.058755282 0.024674736 0.384 4278400527
0.060002517 0.024674736 0.384 4278399757
0.061249748 0.024674736 0.384 4278197766
0.062496983 0.024674736 0.384 4278857494
0.063744217 0.024674736 0.384 4278530578
0.064991444 0.024674736 0.384 4278197764
0.066411175 0.024738993 0.38500002 4278195463
0.067661658 0.024738993 0.38500002 4278194950
0.069091134 0.024803249 0.38600001 4278325767
0.070527099 0.024867509 0.38700002 4278259974
0.071784079 0.024867509 0.38700002 4278326021
0.07322979 0.024931764 0.38800001 4278391814
0.074490011 0.024931764 0.38800001 4278391814
0.075750239 0.024931764 0.38800001 4278391814
0.077010468 0.024931764 0.38800001 4278325767
0.078472421 0.024996022 0.38900003 4278325767
0.07973589 0.024996022 0.38900003 4278196740
0.080999367 0.024996022 0.38900003 4278857746
0.082474314 0.025060279 0.39000002 4279251734
0.083741032 0.025060279 0.39000002 4279054355
0.085225724 0.025124537 0.39100003 4279119383
0.08649569 0.025124537 0.39100003 4278987797
0.08799012 0.025188792 0.39200002 4279053590
0.089263335 0.025188792 0.39200002 4278988051
0.090536557 0.025188792 0.39200002 4278922258
0.091809772 0.025188792 0.39200002 4279251223
0.093082987 0.025188792 0.39200002 4278659086
0.094356209 0.025188792 0.39200002 4278922258
0.095629416 0.025188792 0.39200002 4279382809
0.096902639 0.025188792 0.39200002 4278988051
0.098426297 0.02525305 0.39300001 4279382809
0.09995646 0.025317308 0.39400002 4279382809
0.10149312 0.025381563 0.39500001 4278790672
0.10277608 0.025381563 0.39500001 4278922258
0.10432249 0.025445823 0.39600003 4279317016
0.10534201 0.025381563 0.39500001 4278922258
0.10662497 0.025381563 0.39500001 4278725392
0.10818111 0.025445823 0.39600003 4278791185
0.10974374 0.025510078 0.39700001 4278987027
0.11131289 0.025574338 0.39800003 4278195456
0.11288852 0.025638593 0.39900002 4278465550
0.11418448 0.025638593 0.39900002 4278465550
0.11576986 0.025702849 0.40000001 4278794515
0.033496205 0.026664959 0.39500001 4279639569
0.034691118 0.026597453 0.39400002 4279573778
0.03587953 0.026529947 0.39300001 4279639571
0.037061453 0.026462441 0.39200002 4279507983
0.038236879 0.026394935 0.39100003 4279771668
0.039304767 0.026259923 0.38900003 4279444238
0.04046395 0.026192416 0.38800001 4279511828
0.041616637 0.02612491 0.38700002 4279120918
0.042873617 0.02612491 0.38700002 4278989845
0.044016559 0.026057404 0.38600001 4278727441
0.045270287 0.026057404 0.38600001 4278728209
0.046403486 0.025989898 0.38500002 4278597906
0.047653969 0.025989898 0.38500002 4278663697
0.048904449 0.025989898 0.38500002 4278335245
0.050154928 0.025989898 0.38500002 4278335245
0.051271889 0.02592239 0.384 4278203659
0.052519117 0.02592239 0.384 4278466831
0.053766351 0.02592239 0.384 4278269454
0.055013586 0.02592239 0.384 4278335247
0.05626082 0.02592239 0.384 4278401810
0.057508048 0.02592239 0.384 4278532626
0.058755282 0.02592239 0.384 4278662929
0.060002517 0.02592239 0.384 4278662929
0.061249748 0.02592239 0.384 4278195201
0.062496983 0.02592239 0.384 4278922517
0.063744217 0.02592239 0.384 4278858261
0.065160699 0.025989898 0.38500002 4278196228
0.066411175 0.025989898 0.38500002 4278456839
0.067661658 0.025989898 0.38500002 4278522121
0.069091134 0.026057404 0.38600001 4278391046
0.070527099 0.02612491 0.38700002 4278522632
0.071784079 0.02612491 0.38700002 4278522632
0.07322979 0.026192416 0.38800001 4278391046
0.074490011 0.026192416 0.38800001 4278522632
0.075750239 0.026192416 0.38800001 4278456839
0.077010468 0.026192416 0.38800001 4278325253
0.078472421 0.026259923 0.38900003 4278456839
0.07973589 0.026259923 0.38900003 4278197511
0.080999367 0.026259923 0.38900003 4278923793
0.082474314 0.026327427 0.39000002 4278727441
0.083741032 0.026327427 0.39000002 4278464269
0.085225724 0.026394935 0.39100003 4279252504
0.08649569 0.026394935 0.39100003 4279581469
0.087765656 0.026394935 0.39100003 4279055640
0.089263335 0.026462441 0.39200002 4279450396
0.090536557 0.026462441 0.39200002 4278990611
0.091809772 0.026462441 0.39200002 4278859025
0.093082987 0.026462441 0.39200002 4279319064
0.094356209 0.026462441 0.39200002 4278990099
0.095873371 0.026529947 0.39300001 4279056406
0.097149834 0.026529947 0.39300001 4279122199
0.098426297 0.026529947 0.39300001 4278859027
0.09995646 0.026597453 0.39400002 4278859027
0.10149312 0.026664959 0.39500001 4278859027
0.10277608 0.026664959 0.39500001 4279055892
0.10432249 0.026732467 0.39600003 4278792720
0.1056087 0.026732467 0.39600003 4278858513
0.10689491 0.026732467 0.39600003 4278859027
0.10845429 0.026799971 0.39700001 4278727187
0.11002018 0.026867479 0.39800003 4278858259
0.11131289 0.026867479 0.39800003 4278195968
0.11288852 0.026934985 0.39900002 4278530830
0.11447065 0.027002489 0.40000001 4278728722
0.11605928 0.027069997 0.40100002 4278728722
0.11794706 0.027205011 0.40300003 4278662929
0.11955193 0.027272515 0.40400001 4278662929
0.12086412 0.027272515 0.40400001 4278794517
0.026807161 0.027665334 0.39100003 4284709995
0.028148938 0.027736088 0.39200002 4284381030
0.029497208 0.027806843 0.39300001 4283986272
0.030851981 0.027877599 0.39400002 4284182881
0.032213245 0.027948353 0.39500001 4283457875
0.033496205 0.027948353 0.39500001 4279575320
0.034691118 0.027877599 0.39400002 4279507731
0.03587953 0.027806843 0.39300001 4279639317
0.036966912 0.027665334 0.39100003 4279705362
0.038139086 0.027594578 0.39000002 4279573776
0.039304767 0.027523823 0.38900003 4279575570
0.04046395 0.027453067 0.38800001 4279249426
0.041616637 0.027382312 0.38700002 4279120918
0.042873617 0.027382312 0.38700002 4278990613
0.044016559 0.027311556 0.38600001 4278728211
0.045270287 0.027311556 0.38600001 4278794517
0.046403486 0.027240802 0.38500002 4278729492
0.047653969 0.027240802 0.38500002 4278532113
0.048904449 0.027240802 0.38500002 4278532626
0.050154928 0.027240802 0.38500002 4278532626
0.051405411 0.027240802 0.38500002 4278466833
0.052655887 0.027240802 0.38500002 4278335247
0.053766351 0.027170045 0.384 4278269454
0.055013586 0.027170045 0.384 4278335247
0.05626082 0.027170045 0.384 4278466833
0.057508048 0.027170045 0.384 4278335247
0.058755282 0.027170045 0.384 4278400527
0.060002517 0.027170045 0.384 4278465037
0.061249748 0.027170045 0.384 4278263304
0.062496983 0.027170045 0.384 4278792468
0.063910216 0.027240802 0.38500002 4278396427
0.065160699 0.027240802 0.38500002 4278327302
0.066411175 0.027240802 0.38500002 4279510041
0.067837402 0.027311556 0.38600001 4278720525
0.069091134 0.027311556 0.38600001 4278786572
0.070527099 0.027382312 0.38700002 4279116307
0.071784079 0.027382312 0.38700002 4278721549
0.07322979 0.027453067 0.38800001 4278985234
0.074490011 0.027453067 0.38800001 4278524683
0.075750239 0.027453067 0.38800001 4278327304
0.077010468 0.027453067 0.38800001 4279116818
0.078472421 0.027523823 0.38900003 4278458375
0.07973589 0.027523823 0.38900003 4279448348
0.080999367 0.027523823 0.38900003 4278661394
0.082474314 0.027594578 0.39000002 4278265609
0.083741032 0.027594578 0.39000002 4278196997
0.085007749 0.027594578 0.39000002 4278262277
0.08649569 0.027665334 0.39100003 4279118613
0.087765656 0.027665334 0.39100003 4278331404
0.089263335 0.027736088 0.39200002 4279383838
0.090536557 0.027736088 0.39200002 4278593806
0.091809772 0.027736088 0.39200002 4278199559
0.093082987 0.027736088 0.39200002 4279120918
0.094596907 0.027806843 0.39300001 4278199045
0.095873371 0.027806843 0.39300001 4278529548
0.097149834 0.027806843 0.39300001 4279055892
0.098676749 0.027877599 0.39400002 4278726927
0.10021015 0.027948353 0.39500001 4278266376
0.10149312 0.027948353 0.39500001 4278199042
0.10303628 0.028019112 0.39600003 4278199042
0.10432249 0.028019112 0.39600003 4279318297
0.1056087 0.028019112 0.39600003 4278198533
0.10716484 0.028089866 0.39700001 4278199301
0.10845429 0.028089866 0.39700001 4278858773
0.11002018 0.028160622 0.39800003 4278661394
0.11159257 0.028231377 0.39900002 4278396427
0.11317145 0.028302131 0.40000001 4278794004
0.11447065 0.028302131 0.40000001 4278859795
0.11634871 0.028443642 0.40200001 4278859795
0.11794706 0.028514398 0.40300003 4278794002
0.11955193 0.028585153 0.40400001 4278794515
0.12086412 0.028585153 0.40400001 4278991896
0.032213245 0.029231749 0.39500001 4284117858
0.033496205 0.029231749 0.39500001 4284841581
0.035788238 0.029009737 0.39200002 4279574037
0.036966912 0.028935732 0.39100003 4279902741
0.038041294 0.028787725 0.38900003 4279639569
0.039203726 0.028713718 0.38800001 4279575570
0.04046395 0.028713718 0.38800001 4279315219
0.041616637 0.028639715 0.38700002 4279055638
0.042762831 0.028565709 0.38600001 4278990613
0.044016559 0.028565709 0.38600001 4278465552
0.045270287 0.028565709 0.38600001 4278662931
0.046403486 0.028491706 0.38500002 4278729494
0.047653969 0.028491706 0.38500002 4278532628
0.048904449 0.028491706 0.38500002 4278466833
0.050154928 0.028491706 0.38500002 4278466833
0.051405411 0.028491706 0.38500002 4278466833
0.052655887 0.028491706 0.38500002 4278466833
0.05390637 0.028491706 0.38500002 4278598419
0.055156853 0.028491706 0.38500002 4278466833
0.05626082 0.028417701 0.384 4278598419
0.057508048 0.028417701 0.384 4278532626
0.058755282 0.028417701 0.384 4278794515
0.060002517 0.028417701 0.384 4278464267
0.061249748 0.028417701 0.384 4278395660
0.062659733 0.028491706 0.38500002 4278858261
0.063910216 0.028491706 0.38500002 4278527246
0.065160699 0.028491706 0.38500002 4278392584
0.066411175 0.028491706 0.38500002 4278853135
0.067837402 0.028565709 0.38600001 4279445785
0.069091134 0.028565709 0.38600001 4278393097
0.070527099 0.028639715 0.38700002 4278853648
0.071784079 0.028639715 0.38700002 4278193923
0.07322979 0.028713718 0.38800001 4278195718
0.074490011 0.028713718 0.38800001 4278458888
0.075750239 0.028713718 0.38800001 4279249172
0.077010468 0.028713718 0.38800001 4278723341
0.078472421 0.028787725 0.38900003 4278392582
0.07973589 0.028787725 0.38900003 4278857748
0.080999367 0.028787725 0.38900003 4278661394
0.082474314 0.028861728 0.39000002 4278262277
0.083741032 0.028861728 0.39000002 4278589191
0.085007749 0.028861728 0.39000002 4278589191
0.08649569 0.028935732 0.39100003 4278986000
0.087765656 0.028935732 0.39100003 4278923541
0.08903563 0.028935732 0.39100003 4279318812
0.090536557 0.029009737 0.39200002 4278593806
0.091809772 0.029009737 0.39200002 4278528013
0.093082987 0.029009737 0.39200002 4279581982
0.094596907 0.02908374 0.39300001 4278198017
0.095873371 0.02908374 0.39300001 4278988562
0.097397037 0.029157747 0.39400002 4278461705
0.098676749 0.029157747 0.39400002 4278460937
0.10021015 0.029231749 0.39500001 4279514395
0.10175007 0.029305754 0.39600003 4279382809
0.10303628 0.029305754 0.39600003 4278988051
0.10458592 0.029379759 0.39700001 4278593041
0.10587539 0.029379759 0.39700001 4278856211
0.10716484 0.029379759 0.39700001 4278196992
0.10872748 0.029453764 0.39800003 4278661648
0.11029661 0.029527768 0.39900002 4279055125
0.11159257 0.029527768 0.39900002 4279384092
0.11317145 0.029601771 0.40000001 4278399505
0.11475683 0.029675776 0.40100002 4278662677
0.11634871 0.029749781 0.40200001 4278662931
0.11794706 0.029823786 0.40300003 4278728724
0.11955193 0.029897789 0.40400001 4278794004
0.12086412 0.029897789 0.40400001 4279254555
0.12247874 0.029971795 0.40500003 4279054103
0.033496205 0.030515144 0.39500001 4284578409
0.034691118 0.030437892 0.39400002 4284775534
0.035696942 0.030206133 0.39100003 4285038706
0.036872365 0.030128878 0.39000002 4279377682
0.038041294 0.030051624 0.38900003 4279837461
0.039203726 0.029974369 0.38800001 4279379475
0.040359661 0.029897118 0.38700002 4279447578
0.041616637 0.029897118 0.38700002 4279186711
0.042762831 0.029819863 0.38600001 4278989845
0.044016559 0.029819863 0.38600001 4278728211
0.045270287 0.029819863 0.38600001 4278926103
0.046524014 0.029819863 0.38600001 4278597908
0.047653969 0.02974261 0.38500002 4278466835
0.048904449 0.02974261 0.38500002 4278532626
0.050154928 0.02974261 0.38500002 4278269454
0.051405411 0.02974261 0.38500002 4278598419
0.052655887 0.02974261 0.38500002 4278598419
0.05390637 0.02974261 0.38500002 4278466833
0.055156853 0.02974261 0.38500002 4278466833
0.056407336 0.02974261 0.38500002 4278532626
0.057657812 0.02974261 0.38500002 4278400527
0.058908295 0.02974261 0.38500002 4278596625
0.060158778 0.02974261 0.38500002 4278396173
0.061409254 0.02974261 0.38500002 4278658834
0.062659733 0.02974261 0.38500002 4278792468
0.063910216 0.02974261 0.38500002 4278657550
0.065160699 0.02974261 0.38500002 4278523400
0.066583671 0.029819863 0.38600001 4278523146
0.067837402 0.029819863 0.38600001 4278654218
0.069091134 0.029819863 0.38600001 4278391560
0.070527099 0.029897118 0.38700002 4278391560
0.071784079 0.029897118 0.38700002 4278325767
0.07322979 0.029974369 0.38800001 4278522632
0.074490011 0.029974369 0.38800001 4278391814
0.075750239 0.029974369 0.38800001 4278194435
0.077010468 0.029974369 0.38800001 4278194946
0.078472421 0.030051624 0.38900003 4278458375
0.07973589 0.030051624 0.38900003 4278792468
0.080999367 0.030051624 0.38900003 4278727189
0.082474314 0.030128878 0.39000002 4278393097
0.083741032 0.030128878 0.39000002 4278654472
0.085007749 0.030128878 0.39000002 4278392580
0.08649569 0.030206133 0.39100003 4279382039
0.087765656 0.030206133 0.39100003 4278198791
0.08903563 0.030206133 0.39100003 4278265611
0.090536557 0.030283384 0.39200002 4279055127
0.091809772 0.030283384 0.39200002 4278397197
0.093320444 0.030360637 0.39300001 4278330634
0.094596907 0.030360637 0.39300001 4279317527
0.095873371 0.030360637 0.39300001 4279120918
0.097397037 0.030437892 0.39400002 4279318297
0.098676749 0.030437892 0.39400002 4279185941
0.10021015 0.030515144 0.39500001 4279383322
0.10175007 0.030592399 0.39600003 4278988564
0.10303628 0.030592399 0.39600003 4278922771
0.10458592 0.030669652 0.39700001 4279251223
0.10587539 0.030669652 0.39700001 4278330121
0.10743479 0.030746907 0.39800003 4278923539
0.10872748 0.030746907 0.39800003 4278858773
0.11029661 0.030824158 0.39900002 4278196736
0.11187225 0.030901412 0.40000001 4279514906
0.11317145 0.030901412 0.40000001 4278793750
0.11475683 0.030978667 0.40100002 4278859543
0.11634871 0.03105592 0.40200001 4278794517
0.11794706 0.031133173 0.40300003 4278794517
0.11925601 0.031133173 0.40300003 4278991383
0.12086412 0.031210426 0.40400001 4279582750
0.12217632 0.031210426 0.40400001 4285632124
0.035696942 0.031476531 0.39100003 4284907633
0.03677782 0.031315524 0.38900003 4285697149
0.037943501 0.031235021 0.38800001 4279116820
0.039102685 0.031154519 0.38700002 4279249685
0.040359661 0.031154519 0.38700002 4279185689
0.041616637 0.031154519 0.38700002 4279055640
0.042762831 0.031074015 0.38600001 4278858773
0.044016559 0.031074015 0.38600001 4278728724
0.045270287 0.031074015 0.38600001 4278992666
0.046524014 0.031074015 0.38600001 4278730007
0.047777742 0.031074015 0.38600001 4278532628
0.048904449 0.030993514 0.38500002 4278598419
0.050154928 0.030993514 0.38500002 4278466833
0.051405411 0.030993514 0.38500002 4278598419
0.052655887 0.030993514 0.38500002 4278532626
0.05390637 0.030993514 0.38500002 4278466833
0.055156853 0.030993514 0.38500002 4278466833
0.056407336 0.030993514 0.38500002 4278532626
0.057657812 0.030993514 0.38500002 4278400527
0.058908295 0.030993514 0.38500002 4278727957
0.060158778 0.030993514 0.38500002 4278197509
0.061409254 0.030993514 0.38500002 4279316762
0.062659733 0.030993514 0.38500002 4278924568
0.063910216 0.030993514 0.38500002 4278789136
0.065160699 0.030993514 0.38500002 4278391560
0.066583671 0.031074015 0.38600001 4278654220
0.067837402 0.031074015 0.38600001 4278456839
0.069270127 0.031154519 0.38700002 4278654218
0.070527099 0.031154519 0.38700002 4278719498
0.071784079 0.031154519 0.38700002 4278719500
0.07322979 0.031235021 0.38800001 4278587912
0.074490011 0.031235021 0.38800001 4278587912
0.075750239 0.031235021 0.38800001 4278587912
0.077010468 0.031235021 0.38800001 4278587912
0.078472421 0.031315524 0.38900003 4278523398
0.07973589 0.031315524 0.38900003 4278856978
0.080999367 0.031315524 0.38900003 4278660369
0.082474314 0.031396028 0.39000002 4278789648
0.083741032 0.031396028 0.39000002 4279643932
0.085007749 0.031396028 0.39000002 4279249685
0.08649569 0.031476531 0.39100003 4279118099
0.087765656 0.031476531 0.39100003 4278922258
0.08903563 0.031476531 0.39100003 4278988564
0.090536557 0.031557031 0.39200002 4278725392
0.091809772 0.031557031 0.39200002 4279251736
0.093320444 0.031637534 0.39300001 4279054357
0.094596907 0.031637534 0.39300001 4278791955
0.096117325 0.031718038 0.39400002 4279054357
0.097397037 0.031718038 0.39400002 4278593806
0.098927192 0.031798538 0.39500001 4278856978
0.10021015 0.031798538 0.39500001 4278791183
0.10175007 0.031879045 0.39600003 4278725390
0.10303628 0.031879045 0.39600003 4278856976
0.10458592 0.031959545 0.39700001 4279251736
0.10587539 0.031959545 0.39700001 4278593806
0.10743479 0.032040048 0.39800003 4278396427
0.10900066 0.032120552 0.39900002 4278791185
0.11029661 0.032120552 0.39900002 4278196224
0.11187225 0.032201052 0.40000001 4279055127
0.11317145 0.032201052 0.40000001 4278793750
0.11475683 0.032281555 0.40100002 4278662677
0.11634871 0.032362059 0.40200001 4278794517
0.11765439 0.032362059 0.40200001 4278860310
0.11925601 0.032442562 0.40300003 4279057176
0.12086412 0.032523062 0.40400001 4278792468
0.12217632 0.032523062 0.40400001 4285433718
0.036683276 0.032495674 0.38800001 4284907633
0.037845708 0.032411922 0.38700002 4284249703
0.039102685 0.032411922 0.38700002 4278658066
0.040359661 0.032411922 0.38700002 4279250971
0.041509099 0.03232817 0.38600001 4279186713
0.042762831 0.03232817 0.38600001 4278858775
0.044016559 0.03232817 0.38600001 4278662677
0.045270287 0.03232817 0.38600001 4278795287
0.046524014 0.03232817 0.38600001 4278730007
0.047777742 0.03232817 0.38600001 4278598421
0.04903147 0.03232817 0.38600001 4278598421
0.050154928 0.032244418 0.38500002 4278269456
0.051405411 0.032244418 0.38500002 4278335249
0.052655887 0.032244418 0.38500002 4278532628
0.05390637 0.032244418 0.38500002 4278532628
0.055156853 0.032244418 0.38500002 4278466835
0.056407336 0.032244418 0.38500002 4278532626
0.057657812 0.032244418 0.38500002 4278466833
0.058908295 0.032244418 0.38500002 4278201353
0.060158778 0.032244418 0.38500002 4278331404
0.061409254 0.032244418 0.38500002 4278791955
0.062659733 0.032244418 0.38500002 4278859797
0.063910216 0.032244418 0.38500002 4278858773
0.065329939 0.03232817 0.38600001 4279120666
0.066583671 0.03232817 0.38600001 4279054105
0.067837402 0.03232817 0.38600001 4278987799
0.069270127 0.032411922 0.38700002 4279579936
0.070527099 0.032411922 0.38700002 4279382557
0.071784079 0.032411922 0.38700002 4279316764
0.07322979 0.032495674 0.38800001 4279711522
0.074490011 0.032495674 0.38800001 4279514143
0.075750239 0.032495674 0.38800001 4279250971
0.077010468 0.032495674 0.38800001 4279316762
0.078472421 0.032579426 0.38900003 4279119383
0.07973589 0.032579426 0.38900003 4279778080
0.080999367 0.032579426 0.38900003 4279317529
0.082474314 0.032663178 0.39000002 4279383322
0.083741032 0.032663178 0.39000002 4279646240
0.085007749 0.032663178 0.39000002 4279646240
0.08649569 0.03274693 0.39100003 4279908899
0.087765656 0.03274693 0.39100003 4279974692
0.08903563 0.03274693 0.39100003 4279711520
0.090536557 0.032830682 0.39200002 4279974946
0.091809772 0.032830682 0.39200002 4279712287
0.093320444 0.03291443 0.39300001 4279514908
0.094596907 0.03291443 0.39300001 4279251736
0.096117325 0.032998186 0.39400002 4279646494
0.097397037 0.032998186 0.39400002 4279711774
0.098927192 0.033081934 0.39500001 4279514395
0.10021015 0.033081934 0.39500001 4279119637
0.10175007 0.033165686 0.39600003 4279909153
0.10303628 0.033165686 0.39600003 4279711774
0.10458592 0.033249438 0.39700001 4279843106
0.10614207 0.03333319 0.39800003 4279382555
0.10743479 0.03333319 0.39800003 4279843106
0.10900066 0.033416942 0.39900002 4279316762
0.11029661 0.033416942 0.39900002 4279252506
0.11187225 0.033500694 0.40000001 4279187224
0.11317145 0.033500694 0.40000001 4279188762
0.11475683 0.033584446 0.40100002 4278728724
0.11634871 0.033668198 0.40200001 4278860310
0.11765439 0.033668198 0.40200001 4279123482
0.11925601 0.03375195 0.40300003 4278857494
0.12086412 0.033835702 0.40400001 4285500536
0.12217632 0.033835702 0.40400001 4285761913
0.036588732 0.033669323 0.38700002 4284776047
0.037845708 0.033669323 0.38700002 4284710254
0.039102685 0.033669323 0.38700002 4285303159
0.040255371 0.033582322 0.38600001 4278921236
0.041509099 0.033582322 0.38600001 4279251736
0.042762831 0.033582322 0.38600001 4279056154
0.044016559 0.033582322 0.38600001 4278729494
0.045270287 0.033582322 0.38600001 4278927386
0.046524014 0.033582322 0.38600001 4278599191
0.047777742 0.033582322 0.38600001 4278466835
0.04903147 0.033582322 0.38600001 4278664212
0.050154928 0.033495322 0.38500002 4278664212
0.051405411 0.033495322 0.38500002 4278664212
0.052655887 0.033495322 0.38500002 4278730005
0.05390637 0.033495322 0.38500002 4278532628
0.055156853 0.033495322 0.38500002 4278598421
0.056407336 0.033495322 0.38500002 4278598421
0.057657812 0.033495322 0.38500002 4278795287
0.058908295 0.033495322 0.38500002 4278925590
0.060158778 0.033495322 0.38500002 4278661394
0.061409254 0.033495322 0.38500002 4279121945
0.062659733 0.033495322 0.38500002 4278991383
0.063910216 0.033495322 0.38500002 4278860308
0.065329939 0.033582322 0.38600001 4278926101
0.066583671 0.033582322 0.38600001 4278925590
0.067837402 0.033582322 0.38600001 4278991383
0.069270127 0.033669323 0.38700002 4279254555
0.070527099 0.033669323 0.38700002 4278991896
0.071784079 0.033669323 0.38700002 4279189275
0.07322979 0.033756323 0.38800001 4278860056
0.074490011 0.033756323 0.38800001 4278860056
0.075750239 0.033756323 0.38800001 4278925849
0.077010468 0.033756323 0.38800001 4278860310
0.078472421 0.033843327 0.38900003 4279188762
0.07973589 0.033843327 0.38900003 4279188762
0.080999367 0.033843327 0.38900003 4279057176
0.082474314 0.033930324 0.39000002 4278926103
0.083741032 0.033930324 0.39000002 4278926103
0.085007749 0.033930324 0.39000002 4279255068
0.08649569 0.034017328 0.39100003 4279254555
0.087765656 0.034017328 0.39100003 4279254555
0.08903563 0.034017328 0.39100003 4279254555
0.090536557 0.034104329 0.39200002 4279057176
0.091809772 0.034104329 0.39200002 4279254555
0.093320444 0.034191329 0.39300001 4279188762
0.094596907 0.034191329 0.39300001 4279188762
0.096117325 0.034278329 0.39400002 4279188762
0.097397037 0.034278329 0.39400002 4278991383
0.098927192 0.03436533 0.39500001 4279254301
0.10021015 0.03436533 0.39500001 4279057176
0.10175007 0.03445233 0.39600003 4278924820
0.10303628 0.03445233 0.39600003 4279319578
0.10458592 0.034539331 0.39700001 4279122199
0.10614207 0.034626335 0.39800003 4279187992
0.10743479 0.034626335 0.39800003 4279385369
0.10900066 0.034713335 0.39900002 4279451162
0.11057305 0.034800332 0.40000001 4279451162
0.11187225 0.034800332 0.40000001 4279451162
0.11345438 0.034887336 0.40100002 4279320346
0.11475683 0.034887336 0.40100002 4279386141
0.11634871 0.034974337 0.40200001 4279516957
0.11765439 0.034974337 0.40200001 4279449115
0.11925601 0.035061337 0.40300003 4285696886
0.12086412 0.035148337 0.40400001 4285499507
0.12217632 0.035148337 0.40400001 4285761911
0.036588732 0.034926727 0.38700002 4284907635
0.037845708 0.034926727 0.38700002 4284907635
0.039001644 0.034836479 0.38600001 4284907633
0.040255371 0.034836479 0.38600001 4285105780
0.041509099 0.034836479 0.38600001 4282145863
0.042762831 0.034836479 0.38600001 4278988312
0.044016559 0.034836479 0.38600001 4278990361
0.045270287 0.034836479 0.38600001 4279123228
0.046524014 0.034836479 0.38600001 4278992412
0.047777742 0.034836479 0.38600001 4279190045
0.04903147 0.034836479 0.38600001 4279124252
0.050154928 0.03474623 0.38500002 4278992664
0.051405411 0.03474623 0.38500002 4279058457
0.052655887 0.03474623 0.38500002 4279058457
0.05390637 0.03474623 0.38500002 4278992666
0.055156853 0.03474623 0.38500002 4278992666
0.056407336 0.03474623 0.38500002 4279058459
0.057657812 0.03474623 0.38500002 4279058459
0.058908295 0.03474623 0.38500002 4279058459
0.060158778 0.03474623 0.38500002 4279058459
0.061409254 0.03474623 0.38500002 4278861080
0.062659733 0.03474623 0.38500002 4278992666
0.064076215 0.034836479 0.38600001 4278992664
0.065329939 0.034836479 0.38600001 4278992664
0.066583671 0.034836479 0.38600001 4279124250
0.067837402 0.034836479 0.38600001 4278861080
0.069270127 0.034926727 0.38700002 4279124252
0.070527099 0.034926727 0.38700002 4279058459
0.071784079 0.034926727 0.38700002 4279058459
0.07322979 0.035016976 0.38800001 4279058459
0.074490011 0.035016976 0.38800001 4279058459
0.075750239 0.035016976 0.38800001 4279058459
0.077010468 0.035016976 0.38800001 4278991896
0.078472421 0.035107229 0.38900003 4278991894
0.07973589 0.035107229 0.38900003 4279123480
0.080999367 0.035107229 0.38900003 4279123480
0.082474314 0.035197478 0.39000002 4279123480
0.083741032 0.035197478 0.39000002 4279123480
0.085007749 0.035197478 0.39000002 4279123480
0.08649569 0.03528773 0.39100003 4279189273
0.087765656 0.03528773 0.39100003 4279189273
0.08903563 0.03528773 0.39100003 4279189273
0.090536557 0.035377979 0.39200002 4279320346
0.091809772 0.035377979 0.39200002 4279320346
0.093320444 0.035468228 0.39300001 4279451162
0.094596907 0.035468228 0.39300001 4279451162
0.096117325 0.035558477 0.39400002 4279319576
0.097397037 0.035558477 0.39400002 4279451164
0.098927192 0.035648726 0.39500001 4279187992
0.10021015 0.035648726 0.39500001 4279385371
0.10175007 0.035738979 0.39600003 4279516443
0.10303628 0.035738979 0.39600003 4279582236
0.10458592 0.035829227 0.39700001 4279515930
0.10614207 0.03591948 0.39800003 4279384344
0.10743479 0.03591948 0.39800003 4279186195
0.10900066 0.036009729 0.39900002 4279646746
0.11057305 0.036099978 0.40000001 4279383574
0.11187225 0.036099978 0.40000001 4279778078
0.11345438 0.036190227 0.40100002 4281356599
0.11475683 0.036190227 0.40100002 4283394644
0.11634871 0.036280476 0.40200001 4286025083
0.11765439 0.036280476 0.40200001 4285959290
0.11925601 0.036370728 0.40300003 4285629810
0.12086412 0.036460977 0.40400001 4285827189
0.12217632 0.036460977 0.40400001 4285958007
0.039001644 0.036090631 0.38600001 4284973428
0.040255371 0.036090631 0.38600001 4284973426
0.041509099 0.036090631 0.38600001 4284842608
0.042762831 0.036090631 0.38600001 4285040757
0.044016559 0.036090631 0.38600001 4284185707
0.045270287 0.036090631 0.38600001 4280567346
0.046524014 0.036090631 0.38600001 4279054103
0.047777742 0.036090631 0.38600001 4279121433
0.04903147 0.036090631 0.38600001 4278859545
0.050154928 0.035997134 0.38500002 4279254303
0.051405411 0.035997134 0.38500002 4279385889
0.052655887 0.035997134 0.38500002 4279320096
0.05390637 0.035997134 0.38500002 4279188508
0.055156853 0.035997134 0.38500002 4279320094
0.056407336 0.035997134 0.38500002 4279254301
0.057657812 0.035997134 0.38500002 4279056922
0.058908295 0.035997134 0.38500002 4279254814
0.060158778 0.035997134 0.38500002 4279189021
0.061409254 0.035997134 0.38500002 4279254814
0.062659733 0.035997134 0.38500002 4279123228
0.064076215 0.036090631 0.38600001 4278991642
0.065329939 0.036090631 0.38600001 4279254814
0.066583671 0.036090631 0.38600001 4279385887
0.067837402 0.036090631 0.38600001 4279385887
0.069270127 0.036184132 0.38700002 4279320094
0.070527099 0.036184132 0.38700002 4279385887
0.071784079 0.036184132 0.38700002 4279385887
0.073041059 0.036184132 0.38700002 4279254301
0.074490011 0.036277629 0.38800001 4279056922
0.075750239 0.036277629 0.38800001 4279188508
0.077010468 0.036277629 0.38800001 4279319324
0.078472421 0.03637113 0.38900003 4279450910
0.07973589 0.03637113 0.38900003 4279450910
0.080999367 0.03637113 0.38900003 4279516703
0.082474314 0.036464628 0.39000002 4279450910
0.083741032 0.036464628 0.39000002 4279056152
0.085007749 0.036464628 0.39000002 4279056152
0.08649569 0.036558129 0.39100003 4279121945
0.087765656 0.036558129 0.39100003 4278792720
0.08903563 0.036558129 0.39100003 4279384344
0.090536557 0.036651626 0.39200002 4279055379
0.091809772 0.036651626 0.39200002 4279055379
0.093320444 0.036745124 0.39300001 4279383320
0.094596907 0.036745124 0.39300001 4280238631
0.096117325 0.036838625 0.39400002 4281422138
0.097397037 0.036838625 0.39400002 4281882691
0.098927192 0.036932122 0.39500001 4283460955
0.10021015 0.036932122 0.39500001 4284645227
0.10175007 0.037025623 0.39600003 4285106030
0.10303628 0.037025623 0.39600003 4285961339
0.10458592 0.03711912 0.39700001 4285763710
0.10614207 0.037212621 0.39800003 4285960835
0.10743479 0.037212621 0.39800003 4285828989
0.11475683 0.037493117 0.40100002 4285499509
0.11634871 0.037586614 0.40200001 4285564532
0.11765439 0.037586614 0.40200001 4285630325
0.11925601 0.037680116 0.40300003 4285827706
0.12086412 0.037773613 0.40400001 4285827706
0.12217632 0.037773613 0.40400001 4285958779
0.11634871 0.038892753 0.40200001 4285564534
0.11765439 0.038892753 0.40200001 4285761913
0.11925601 0.038989503 0.40300003 4285827706
0.12086412 0.039086252 0.40400001 4285893499
0.12217632 0.039086252 0.40400001 4285761913
0.11634871 0.040198892 0.40200001 4285564280
0.11765439 0.040198892 0.40200001 4285827452
0.11925601 0.040298894 0.40300003 4285761659
0.12086412 0.040398888 0.40400001 4285761659
0.072155133 0.0277438 0.39009333 4294967295
0.072155133 0.0277438 0.39009333 4294901760
0.07220196 0.027246887 0.39006358 4294901760
0.072248787 0.026749972 0.39003384 4294901760
0.072295614 0.02625306 0.3900041 4294901760
0.07234244 0.025756147 0.38997436 4294901760
0.07238926 0.025259234 0.38994461 4294901760
0.072436087 0.024762321 0.38991487 4294901760
0.072482914 0.024265407 0.38988513 4294901760
0.072529741 0.023768494 0.38985538 4294901760
0.072576568 0.023271579 0.38982564 4294901760
0.072623394 0.022774667 0.3897959 4294901760
0.072670221 0.022277754 0.38976616 4294901760
0.072717048 0.021780841 0.38973641 4294901760
0.072763875 0.021283928 0.3897067 4294901760
0.072810695 0.020787014 0.38967696 4294901760
0.072857521 0.020290101 0.38964722 4294901760
0.072904348 0.019793188 0.38961747 4294901760
0.072951175 0.019296274 0.38958773 4294901760
0.072998002 0.018799361 0.38955799 4294901760
0.073044829 0.018302448 0.38952824 4294901760
0.073091656 0.017805535 0.3894985 4294901760
0.073138483 0.017308623 0.38946876 4294901760
0.07318531 0.01681171 0.38943902 4294901760
0.073232129 0.016314795 0.38940927 4294901760
0.073278956 0.015817882 0.38937953 4294901760
0.073325783 0.015320969 0.38934979 4294901760
0.07337261 0.014824056 0.38932005 4294901760
0.073419437 0.014327141 0.3892903 4294901760
0.073466264 0.013830229 0.38926056 4294901760
0.073513091 0.013333316 0.38923082 4294901760
0.073559918 0.012836402 0.38920107 4294901760
0.073606744 0.01233949 0.38917133 4294901760
0.073653564 0.011842577 0.38914159 4294901760
0.073700391 0.011345662 0.38911185 4294901760
0.073747218 0.010848749 0.3890821 4294901760
0.073794045 0.010351837 0.38905236 4294901760
0.073840871 0.0098549221 0.38902262 4294901760
0.073887698 0.0093580093 0.38899288 4294901760
0.073934525 0.0088610966 0.38896316 4294901760
0.073981352 0.0083641838 0.38893342 4294901760
0.074028179 0.0078672692 0.38890368 4294901760
0.074074998 0.0073703565 0.38887393 4294901760
0.074121825 0.0068734437 0.38884419 4294901760
0.074168652 0.006376531 0.38881445 4294901760
0.074215479 0.0058796182 0.38878471 4294901760
0.074262306 0.0053827055 0.38875496 4294901760
0.074309133 0.0048857909 0.38872522 4294901760
0.07435596 0.0043888781 0.38869548 4294901760
0.074402787 0.0038919654 0.38866574 4294901760
0.074449614 0.0033950508 0.38863599 4294901760
0.074496433 0.002898138 0.38860625 4294901760
0.07454326 0.0024012253 0.38857651 4294901760
0.074590087 0.0019043125 0.38854676 4294901760
0.074636914 0.0014073998 0.38851702 4294901760
0.074683741 0.0009104833 0.38848728 4294901760
0.074730568 0.00041357055 0.38845754 4294901760
0.074777395 -8.3342195e-05 0.38842779 4294901760
0.074824221 -0.00058025494 0.38839805 4294901760
0.074871048 -0.0010771677 0.38836831 4294901760
0.074917868 -0.0015740804 0.38833857 4294901760
0.074964695 -0.002070995 0.38830882 4294901760
0.075011522 -0.0025679078 0.38827908 4294901760
0.075058348 -0.0030648205 0.38824934 4294901760
0.075105175 -0.0035617333 0.38821962 4294901760
0.075152002 -0.004058646 0.38818988 4294901760
0.075198829 -0.0045555588 0.38816014 4294901760
0.075245656 -0.0050524753 0.3881304 4294901760
0.075292483 -0.005549388 0.38810065 4294901760
0.07533931 -0.0060463008 0.38807091 4294901760
0.075386129 -0.0065432135 0.38804117 4294901760
0.075432956 -0.0070401262 0.38801143 4294901760
0.075479783 -0.007537039 0.38798168 4294901760
0.07552661 -0.0080339555 0.38795194 4294901760
0.075573437 -0.0085308682 0.3879222 4294901760
0.075620264 -0.009027781 0.38789245 4294901760
0.075667091 -0.0095246937 0.38786271 4294901760
0.075713918 -0.010021606 0.38783297 4294901760
0.075760745 -0.010518519 0.38780323 4294901760
0.075807564 -0.011015432 0.38777348 4294901760
0.075854391 -0.011512348 0.38774374 4294901760
0.075901218 -0.012009261 0.387714 4294901760
0.075948045 -0.012506174 0.38768426 4294901760
0.075994872 -0.013003087 0.38765451 4294901760
0.076041698 -0.013499999 0.38762477 4294901760
0.076088525 -0.013996912 0.38759503 4294901760
0.076135352 -0.014493825 0.38756528 4294901760
0.076182179 -0.014990738 0.38753554 4294901760
0.076228999 -0.01548765 0.3875058 4294901760
0.076275826 -0.015984563 0.38747609 4294901760
0.076322652 -0.016481476 0.38744634 4294901760
0.076369479 -0.016978389 0.3874166 4294901760
0.076416306 -0.017475305 0.38738686 4294901760
0.076463133 -0.017972218 0.38735712 4294901760
0.07650996 -0.018469131 0.38732737 4294901760
0.076556787 -0.018966043 0.38729763 4294901760
0.076603614 -0.019462956 0.38726789 4294901760
0.076650433 -0.019959869 0.38723814 4294901760
0.07669726 -0.020456785 0.3872084 4294901760
0.076744087 -0.020953698 0.38717866 4294901760
0.076790914 -0.021450611 0.38714892 4294901760
0.076837741 -0.021947524 0.38711917 4294901760
0.072155133 0.0277438 0.39009333 4278255360
0.072648101 0.027785935 0.39016551 4278255360
0.073141068 0.027828069 0.39023766 4278255360
0.073634036 0.027870204 0.39030984 4278255360
0.074127004 0.027912339 0.39038199 4278255360
0.074619971 0.027954474 0.39045417 4278255360
0.075112939 0.027996609 0.39052632 4278255360
0.075605899 0.028038744 0.39059851 4278255360
0.076098867 0.028080879 0.39067066 4278255360
0.076591834 0.028123014 0.39074284 4278255360
0.077084802 0.028165149 0.39081499 4278255360
0.07757777 0.028207283 0.39088717 4278255360
0.078070737 0.028249418 0.39095932 4278255360
0.078563705 0.028291553 0.3910315 4278255360
0.079056673 0.028333688 0.39110366 4278255360
0.07954964 0.028375823 0.39117584 4278255360
0.080042608 0.028417956 0.39124799 4278255360
0.080535576 0.028460093 0.39132017 4278255360
0.081028543 0.028502226 0.39139235 4278255360
0.081521511 0.028544361 0.3914645 4278255360
0.082014479 0.028586496 0.39153668 4278255360
0.082507446 0.028628631 0.39160883 4278255360
0.083000407 0.028670765 0.39168102 4278255360
0.083493374 0.0287129 0.39175317 4278255360
0.083986342 0.028755035 0.39182535 4278255360
0.08447931 0.02879717 0.3918975 4278255360
0.084972277 0.028839305 0.39196968 4278255360
0.085465245 0.02888144 0.39204183 4278255360
0.085958213 0.028923575 0.39211401 4278255360
0.08645118 0.02896571 0.39218616 4278255360
0.086944148 0.029007845 0.39225835 4278255360
0.087437116 0.02904998 0.3923305 4278255360
0.087930083 0.029092114 0.39240268 4278255360
0.088423051 0.029134249 0.39247483 4278255360
0.088916019 0.029176384 0.39254701 4278255360
0.089408979 0.029218519 0.39261919 4278255360
0.089901954 0.029260654 0.39269134 4278255360
0.090394914 0.029302789 0.39276353 4278255360
0.090887882 0.029344924 0.39283568 4278255360
0.091380849 0.029387059 0.39290786 4278255360
0.091873817 0.029429194 0.39298001 4278255360
0.092366785 0.029471328 0.39305219 4278255360
0.092859752 0.029513463 0.39312434 4278255360
0.09335272 0.029555598 0.39319652 4278255360
0.093845688 0.029597733 0.39326867 4278255360
0.094338655 0.029639868 0.39334086 4278255360
0.094831623 0.029682003 0.39341301 4278255360
0.095324591 0.029724138 0.39348519 4278255360
0.095817551 0.029766273 0.39355734 4278255360
0.096310526 0.029808406 0.39362952 4278255360
0.096803486 0.029850543 0.39370167 4278255360
0.097296454 0.029892676 0.39377385 4278255360
0.097789422 0.02993481 0.39384604 4278255360
0.098282389 0.029976945 0.39391819 4278255360
0.098775357 0.03001908 0.39399037 4278255360
0.099268325 0.030061215 0.39406252 4278255360
0.099761292 0.03010335 0.3941347 4278255360
0.10025426 0.030145485 0.39420685 4278255360
0.10074723 0.03018762 0.39427903 4278255360
0.1012402 0.030229755 0.39435118 4278255360
0.10173316 0.03027189 0.39442337 4278255360
0.10222613 0.030314025 0.39449552 4278255360
0.1027191 0.030356159 0.3945677 4278255360
0.10321206 0.030398294 0.39463985 4278255360
0.10370503 0.030440429 0.39471203 4278255360
0.10419799 0.030482564 0.39478418 4278255360
0.10469097 0.030524699 0.39485636 4278255360
0.10518393 0.030566834 0.39492854 4278255360
0.1056769 0.030608969 0.3950007 4278255360
0.10616986 0.030651104 0.39507288 4278255360
0.10666283 0.030693239 0.39514503 4278255360
0.1071558 0.030735373 0.39521721 4278255360
0.10764877 0.030777508 0.39528936 4278255360
0.10814174 0.030819643 0.39536154 4278255360
0.1086347 0.030861778 0.39543369 4278255360
0.10912767 0.030903913 0.39550588 4278255360
0.10962063 0.030946048 0.39557803 4278255360
0.11011361 0.030988183 0.39565021 4278255360
0.11060657 0.031030318 0.39572236 4278255360
0.11109954 0.031072453 0.39579454 4278255360
0.1115925 0.031114588 0.39586669 4278255360
0.11208548 0.031156722 0.39593887 4278255360
0.11257844 0.031198855 0.39601102 4278255360
0.1130714 0.031240992 0.39608321 4278255360
0.11356437 0.031283125 0.39615539 4278255360
0.11405734 0.031325262 0.39622754 4278255360
0.11455031 0.031367395 0.39629972 4278255360
0.11504328 0.031409532 0.39637187 4278255360
0.11553624 0.031451665 0.39644405 4278255360
0.1160292 0.031493802 0.3965162 4278255360
0.11652218 0.031535935 0.39658839 4278255360
0.11701515 0.031578071 0.39666054 4278255360
0.11750811 0.031620204 0.39673272 4278255360
0.11800107 0.031662341 0.39680487 4278255360
0.11849405 0.031704474 0.39687705 4278255360
0.11898701 0.031746611 0.3969492 4278255360
0.11947998 0.031788744 0.39702138 4278255360
0.11997294 0.031830881 0.39709353 4278255360
0.12046592 0.031873014 0.39716572 4278255360
0.12095888 0.031915151 0.39723787 4278255360
0.12145185 0.031957284 0.39731005 4278255360
0.072155133 0.0277438 0.39009333 4278190335
0.072030634 0.027703186 0.39057589 4278190335
0.071906127 0.027662572 0.39105842 4278190335
0.071781628 0.027621958 0.39154097 4278190335
0.071657121 0.027581343 0.3920235 4278190335
0.071532622 0.02754073 0.39250606 4278190335
0.071408123 0.027500115 0.39298859 4278190335
0.071283616 0.027459502 0.39347115 4278190335
0.071159117 0.027418887 0.39395368 4278190335
0.07103461 0.027378274 0.39443624 4278190335
0.070910111 0.027337659 0.39491877 4278190335
0.070785612 0.027297046 0.39540133 4278190335
0.070661105 0.027256431 0.39588386 4278190335
0.070536606 0.027215818 0.39636642 4278190335
0.070412099 0.027175203 0.39684895 4278190335
0.0702876 0.02713459 0.39733151 4278190335
0.070163101 0.027093975 0.39781404 4278190335
0.070038594 0.027053362 0.39829659 4278190335
0.069914095 0.027012747 0.39877912 4278190335
0.069789588 0.026972134 0.39926168 4278190335
0.069665089 0.026931519 0.39974421 4278190335
0.06954059 0.026890906 0.40022677 4278190335
0.069416083 0.026850291 0.4007093 4278190335
0.069291584 0.026809677 0.40119186 4278190335
0.069167085 0.026769064 0.40167439 4278190335
0.069042578 0.026728449 0.40215695 4278190335
0.068918079 0.026687836 0.40263951 4278190335
0.068793572 0.026647221 0.40312204 4278190335
0.068669073 0.026606608 0.4036046 4278190335
0.068544574 0.026565993 0.40408713 4278190335
0.068420067 0.02652538 0.40456969 4278190335
0.068295568 0.026484765 0.40505221 4278190335
0.068171062 0.026444152 0.40553477 4278190335
0.068046562 0.026403537 0.4060173 4278190335
0.067922063 0.026362924 0.40649986 4278190335
0.067797557 0.026322309 0.40698239 4278190335
0.067673057 0.026281696 0.40746495 4278190335
0.067548551 0.026241081 0.40794748 4278190335
0.067424051 0.026200468 0.40843004 4278190335
0.067299552 0.026159853 0.40891257 4278190335
0.067175046 0.02611924 0.40939513 4278190335
0.067050546 0.026078625 0.40987766 4278190335
0.06692604 0.026038012 0.41036022 4278190335
0.066801541 0.025997397 0.41084275 4278190335
0.066677041 0.025956783 0.41132531 4278190335
0.066552535 0.025916168 0.41180784 4278190335
0.066428035 0.025875555 0.41229039 4278190335
0.066303529 0.02583494 0.41277292 4278190335
0.06617903 0.025794327 0.41325548 4278190335
0.06605453 0.025753714 0.41373801 4278190335
0.065930024 0.025713099 0.41422057 4278190335
0.065805525 0.025672484 0.41470313 4278190335
0.065681025 0.025631871 0.41518566 4278190335
0.065556519 0.025591258 0.41566819 4278190335
0.06543202 0.025550643 0.41615075 4278190335
0.065307513 0.02551003 0.41663331 4278190335
0.065183014 0.025469415 0.41711584 4278190335
0.065058514 0.025428802 0.4175984 4278190335
0.064934008 0.025388187 0.41808093 4278190335
0.064809509 0.025347574 0.41856349 4278190335
0.064685002 0.025306959 0.41904601 4278190335
0.064560503 0.025266346 0.41952857 4278190335
0.064436004 0.025225731 0.4200111 4278190335
0.064311497 0.025185117 0.42049366 4278190335
0.064186998 0.025144503 0.42097619 4278190335
0.064062491 0.025103889 0.42145875 4278190335
0.063937992 0.025063274 0.42194128 4278190335
0.063813493 0.025022661 0.42242384 4278190335
0.063688986 0.024982046 0.42290637 4278190335
0.063564487 0.024941433 0.42338893 4278190335
0.06343998 0.024900818 0.42387146 4278190335
0.063315481 0.024860205 0.42435402 4278190335
0.063190982 0.02481959 0.42483658 4278190335
0.063066475 0.024778977 0.42531911 4278190335
0.062941976 0.024738364 0.42580163 4278190335
0.062817469 0.024697749 0.42628419 4278190335
0.06269297 0.024657134 0.42676675 4278190335
0.062568471 0.024616521 0.42724928 4278190335
0.062443964 0.024575908 0.42773181 4278190335
0.062319465 0.024535293 0.42821437 4278190335
0.062194962 0.02449468 0.42869693 4278190335
0.062070459 0.024454065 0.42917946 4278190335
0.061945956 0.024413452 0.42966202 4278190335
0.061821453 0.024372837 0.43014455 4278190335
0.061696954 0.024332223 0.43062711 4278190335
0.061572451 0.024291608 0.43110964 4278190335
0.061447948 0.024250995 0.4315922 4278190335
0.061323445 0.02421038 0.43207473 4278190335
0.061198942 0.024169767 0.43255728 4278190335
0.061074443 0.024129152 0.43303981 4278190335
0.06094994 0.024088539 0.43352237 4278190335
0.060825437 0.024047924 0.4340049 4278190335
0.060700934 0.024007311 0.43448746 4278190335
0.060576431 0.023966696 0.43496999 4278190335
0.060451932 0.023926083 0.43545255 4278190335
0.060327429 0.023885468 0.43593508 4278190335
0.060202926 0.023844855 0.43641764 4278190335
0.060078423 0.02380424 0.4369002 4278190335
0.059953921 0.023763627 0.43738273 4278190335
0.059829421 0.023723014 0.43786526 4278190335
0.059704918 0.023682399 0.43834782 4278190335
0.072155133 0.0277438 0.39009333 4294967295
0.072902143 0.027987484 0.38719806 4294967295
0.073649161 0.028231168 0.38430279 4294967295
0.074396171 0.028474852 0.38140753 4294967295
0.075143188 0.028718535 0.37851223 4294967295
0.075890198 0.028962219 0.37561697 4294967295
0.076637208 0.029205903 0.3727217 4294967295
0.077384226 0.029449588 0.36982644 4294967295
0.078131236 0.029693272 0.36693117 4294967295
0.078878246 0.029936956 0.3640359 4294967295
0.079625264 0.030180641 0.36114061 4294967295
0.080372274 0.030424323 0.35824534 4294967295
0.081119284 0.030668007 0.35535008 4294967295
0.081866302 0.030911691 0.35245481 4294967295
0.082613312 0.031155376 0.34955955 4294967295
0.083360329 0.03139906 0.34666428 4294967295
0.084107339 0.031642742 0.34376901 4294967295
0.084854349 0.031886429 0.34087372 4294967295
0.085601367 0.032130111 0.33797845 4294967295
0.086348377 0.032373797 0.33508319 4294967295
0.087095395 0.03261748 0.33218792 4294967295
0.087842405 0.032861166 0.32929265 4294967295
0.088589415 0.033104848 0.32639739 4294967295
0.089336433 0.033348531 0.32350212 4294967295
0.090083443 0.033592217 0.32060683 4294967295
0.09083046 0.033835899 0.31771156 4294967295
0.09157747 0.034079585 0.3148163 4294967295
0.09232448 0.034323268 0.31192103 4294967295
0.093071498 0.034566954 0.30902576 4294967295
0.093818508 0.034810636 0.3061305 4294967295
0.094565526 0.035054322 0.30323523 4294967295
0.095312536 0.035298005 0.30033994 4294967295
0.096059546 0.035541687 0.29744467 4294967295
0.096806563 0.035785373 0.29454941 4294967295
0.097553574 0.036029056 0.29165414 4294967295
0.098300584 0.036272742 0.28875887 4294967295
0.099047601 0.036516424 0.28586358 4294967295
0.099794611 0.03676011 0.28296834 4294967295
0.10054162 0.037003793 0.28007305 4294967295
0.10128864 0.037247475 0.27717778 4294967295
0.10203565 0.037491161 0.27428252 4294967295
0.10278267 0.037734844 0.27138725 4294967295
0.10352968 0.03797853 0.26849198 4294967295
0.10427669 0.038222212 0.26559669 4294967295
0.1050237 0.038465895 0.26270145 4294967295
0.10577071 0.038709581 0.25980616 4294967295
0.10651773 0.038953267 0.25691089 4294967295
0.10726474 0.039196949 0.25401562 4294967295
0.10801175 0.039440632 0.25112036 4294967295
0.10875876 0.039684318 0.24822508 4294967295
0.10950578 0.039928 0.24532981 4294967295
0.1102528 0.040171683 0.24243455 4294967295
0.11099981 0.040415369 0.23953928 4294967295
0.11174682 0.040659051 0.23664401 4294967295
0.11249383 0.040902738 0.23374872 4294967295
0.11324085 0.04114642 0.23085345 4294967295
0.11398786 0.041390106 0.22795819 4294967295
0.11473487 0.041633788 0.22506292 4294967295
0.11548188 0.041877471 0.22216766 4294967295
0.11622889 0.042121157 0.21927239 4294967295
0.11697591 0.042364843 0.21637711 4294967295
0.11772293 0.042608526 0.21348183 4294967295
