# .PCD v0.7 - Point Cloud Data file format
VERSION 0.7
FIELDS x y z rgb
SIZE 4 4 4 4
TYPE F F F U
COUNT 1 1 1 1
WIDTH 876
HEIGHT 1
VIEWPOINT 0 0 0 1 0 0 0
POINTS 876
DATA ascii
-0.017617021 0.03200005 0.49800003 4279455014
-0.016031643 0.032064304 0.49900001 4278995746
-0.01443977 0.032128561 0.5 4279258916
-0.011191769 0.032128561 0.5 4284978546
-0.019080032 0.033348076 0.49400002 4279778596
-0.017510895 0.033415582 0.49500003 4278928156
-0.015967388 0.033550594 0.49700001 4278863390
-0.014382011 0.0336181 0.49800003 4278863388
-0.012790138 0.033685606 0.49900001 4279060767
-0.011169385 0.033685606 0.49900001 4278928416
-0.019002784 0.03481162 0.49200001 4279778596
-0.017440144 0.034882378 0.49300003 4278862361
-0.015871005 0.034953132 0.49400002 4278928154
-0.014324252 0.035094641 0.49600002 4278731289
-0.012713243 0.035094641 0.49600002 4278731289
-0.011124618 0.035165396 0.49700001 4278797082
-0.018925538 0.036262169 0.49000001 4279581730
-0.017369393 0.036336176 0.49100003 4278927386
-0.015806749 0.036410179 0.49200001 4278862361
-0.014237614 0.036484186 0.49300003 4278731289
-0.01266198 0.036558188 0.49400002 4278533910
-0.011057468 0.036558188 0.49400002 4278862875
-0.0058521037 0.03426405 0.46300003 4278665498
-0.004348279 0.03426405 0.46300003 4278665498
-0.0028444538 0.03426405 0.46300003 4278665498
-0.0013377335 0.034190048 0.46200001 4278533398
0.00016284335 0.034190048 0.46200001 4278533912
0.0016598196 0.034116041 0.46100003 4278468632
0.0031571484 0.034116041 0.46100003 4278468632
0.0046443804 0.034042038 0.46000001 4278468630
0.0061251172 0.033968035 0.45900002 4278731802
0.0075993575 0.033894029 0.45800003 4278863390
0.0090869423 0.033894029 0.45800003 4279061539
-0.018886914 0.037776977 0.48900002 4279648037
-0.017298641 0.037776977 0.48900002 4278862109
-0.015742496 0.037854228 0.49000001 4278796570
-0.014179855 0.037931483 0.49100003 4278862363
-0.012610717 0.038008738 0.49200001 4278796570
-0.0110127 0.038008738 0.49200001 4278993949
-0.0058521037 0.035768386 0.46300003 4278796570
-0.004348279 0.035768386 0.46300003 4278862361
-0.0028444538 0.035768386 0.46300003 4278199552
-0.0013377335 0.035691131 0.46200001 4278727189
0.00016284335 0.035691131 0.46200001 4279123998
0.0016598196 0.03561388 0.46100003 4278664982
0.0031571484 0.03561388 0.46100003 4278599189
0.0046443804 0.035536624 0.46000001 4278599189
0.0061251172 0.035459369 0.45900002 4278468117
0.0075993575 0.035382118 0.45800003 4278533910
0.0090869423 0.035382118 0.45800003 4278665496
0.010551439 0.035304863 0.45700002 4278533910
0.012035775 0.035304863 0.45700002 4278533910
-0.018809667 0.039204784 0.48700002 4279450912
-0.01722789 0.039204784 0.48700002 4278862363
-0.015678242 0.039285287 0.48800004 4278993949
-0.014122096 0.039365787 0.48900002 4278797084
-0.012559454 0.039446291 0.49000001 4278665498
-0.0058521037 0.037272722 0.46300003 4279124763
-0.004348279 0.037272722 0.46300003 4278993177
-0.0028444538 0.037272722 0.46300003 4279255838
-0.0013377335 0.037192214 0.46200001 4278924568
0.00016284335 0.037192214 0.46200001 4279189021
0.0016598196 0.037111714 0.46100003 4279124250
0.0031571484 0.037111714 0.46100003 4278860308
0.0046443804 0.037031211 0.46000001 4279451932
0.0061251172 0.036950707 0.45900002 4279123480
0.0076159495 0.036950707 0.45900002 4279124763
0.0090869423 0.036870208 0.45800003 4278795798
0.010574528 0.036870208 0.45800003 4278795798
0.012035775 0.036789704 0.45700002 4278664982
-0.018732419 0.040619589 0.48500001 4279385887
-0.017157139 0.040619589 0.48500001 4278796570
-0.015581857 0.040619589 0.48500001 4278862363
-0.014093217 0.040870849 0.48800004 4278796568
-0.012508191 0.040870849 0.48800004 4278664982
-0.0088980244 0.038944557 0.46500003 4278862361
-0.0073718154 0.038860805 0.46400002 4278993177
-0.0058521037 0.038777053 0.46300003 4278993177
-0.004348279 0.038777053 0.46300003 4278993177
-0.0028444538 0.038777053 0.46300003 4278198530
-0.0013377335 0.038693301 0.46200001 4278195712
0.00016284335 0.038693301 0.46200001 4279056924
0.0016598196 0.038609549 0.46100003 4278195969
0.0031571484 0.038609549 0.46100003 4278524681
0.0046443804 0.038525797 0.46000001 4278458890
0.0061384616 0.038525797 0.46000001 4278524683
0.0076159495 0.038442045 0.45900002 4278195971
0.0091067832 0.038442045 0.45900002 4278196742
0.010574528 0.038358297 0.45800003 4278197253
0.012062112 0.038358297 0.45800003 4278198280
0.013549698 0.038358297 0.45800003 4278660882
0.015037282 0.038358297 0.45800003 4278792468
0.016524866 0.038358297 0.45800003 4278925590
0.018012451 0.038358297 0.45800003 4278926101
0.019500036 0.038358297 0.45800003 4278993177
0.020987622 0.038358297 0.45800003 4278730005
0.023805827 0.038107038 0.45500001 4278664210
0.025228102 0.038023289 0.45400003 4278598417
0.026702695 0.038023289 0.45400003 4278664210
-0.020223958 0.042021401 0.48300001 4280040739
-0.018655173 0.042021401 0.48300001 4279386141
-0.017086387 0.042021401 0.48300001 4278665498
-0.015485475 0.041934405 0.48200002 4278797082
-0.014064336 0.042369407 0.48700002 4278731289
-0.010453112 0.040629391 0.46700001 4278731289
-0.0089171594 0.04054239 0.46600002 4278665496
-0.0073877033 0.04045539 0.46500003 4278993947
-0.0058647431 0.040368386 0.46400002 4278993177
-0.004348279 0.040281389 0.46300003 4279058457
-0.0028444538 0.040281389 0.46300003 4278200331
-0.0013377335 0.040194385 0.46200001 4280173354
0.00016284335 0.040194385 0.46200001 4279517475
0.0016598196 0.040107384 0.46100003 4278327302
0.0031571484 0.040107384 0.46100003 4278654986
0.0046443804 0.040020384 0.46000001 4278786572
0.0061384616 0.040020384 0.46000001 4278786318
0.0076159495 0.039933383 0.45900002 4278654732
0.0091067832 0.039933383 0.45900002 4278720525
0.010597616 0.039933383 0.45900002 4278654732
0.012062112 0.039846383 0.45800003 4278654732
0.013579281 0.039933383 0.45900002 4278523916
0.015070114 0.039933383 0.45900002 4278458123
0.016524866 0.039846383 0.45800003 4278195712
0.018012451 0.039846383 0.45800003 4278595089
0.019500036 0.039846383 0.45800003 4278198274
0.020941796 0.039759383 0.45700002 4278196480
0.022377061 0.039672382 0.45600003 4278195456
0.023805827 0.039585378 0.45500001 4278197762
0.025283668 0.039585378 0.45500001 4278595087
0.026702695 0.039498381 0.45400003 4278858513
0.028177287 0.039498381 0.45400003 4278990611
0.029586565 0.039411377 0.45300001 4278925588
0.031057913 0.039411377 0.45300001 4278663699
0.032457449 0.039324377 0.45200002 4278269454
0.033925544 0.039324377 0.45200002 4278599189
0.03539364 0.039324377 0.45200002 4278796568
0.036861736 0.039324377 0.45200002 4278402324
0.038245037 0.03923738 0.45100003 4278468117
0.039709885 0.03923738 0.45100003 4278402324
0.041083433 0.039150376 0.45000002 4278665496
0.042545035 0.039150376 0.45000002 4278665496
0.043908846 0.039063375 0.44900003 4278666009
0.045165118 0.038889375 0.44700003 4278797593
0.046616975 0.038889375 0.44700003 4278863386
0.048283901 0.039063375 0.44900003 4278863388
0.049853042 0.039150376 0.45000002 4279389732
0.051428676 0.03923738 0.45100003 4279192355
0.053010803 0.039324377 0.45200002 4279258918
0.054478899 0.039324377 0.45200002 4279192103
-0.020140216 0.043410223 0.48100004 4279909412
-0.018539302 0.043319974 0.48000002 4279188762
-0.016980261 0.043319974 0.48000002 4278664984
-0.015356964 0.043139473 0.47800002 4278797084
-0.012046823 0.042417474 0.47000003 4278797082
-0.010453112 0.042146724 0.46700001 4278665496
-0.0089171594 0.042056475 0.46600002 4278796570
-0.0073877033 0.041966226 0.46500003 4278796568
-0.0058647431 0.041875973 0.46400002 4279058970
-0.004348279 0.041785724 0.46300003 4279124761
-0.0028444538 0.041785724 0.46300003 4278198016
-0.0013377335 0.041695476 0.46200001 4279779877
0.00016284335 0.041695476 0.46200001 4279452193
0.0016598196 0.041605227 0.46100003 4278656265
0.0031571484 0.041605227 0.46100003 4280497958
0.0046544774 0.041605227 0.46100003 4278984719
0.0061384616 0.041514974 0.46000001 4279248406
0.0076325419 0.041514974 0.46000001 4279051027
0.0091067832 0.041424725 0.45900002 4279445785
0.010597616 0.041424725 0.45900002 4279775520
0.012088448 0.041424725 0.45900002 4279445785
0.013579281 0.041424725 0.45900002 4278984467
0.015070114 0.041424725 0.45900002 4278655502
0.016524866 0.041334476 0.45800003 4278262792
0.018012451 0.041334476 0.45800003 4279318812
0.019500036 0.041334476 0.45800003 4279056922
0.020941796 0.041244224 0.45700002 4278991129
0.022426134 0.041244224 0.45700002 4278990359
0.023858149 0.041153975 0.45600003 4279780129
0.025283668 0.041063726 0.45500001 4279319064
0.026761509 0.041063726 0.45500001 4279384344
0.028177287 0.040973477 0.45400003 4278922769
0.029651878 0.040973477 0.45400003 4278264839
0.031057913 0.040883224 0.45300001 4278197506
0.032529257 0.040883224 0.45300001 4278195968
0.034000598 0.040883224 0.45300001 4278196992
0.03539364 0.040792976 0.45200002 4278198533
0.036861736 0.040792976 0.45200002 4278595603
0.038329836 0.040792976 0.45200002 4278727189
0.039709885 0.040702727 0.45100003 4278925849
0.041174732 0.040702727 0.45100003 4278728470
0.042545035 0.040612474 0.45000002 4278993179
0.044006635 0.040612474 0.45000002 4278730005
0.0453672 0.040522225 0.44900003 4278664210
0.04682555 0.040522225 0.44900003 4278664980
0.048391439 0.040612474 0.45000002 4278665494
0.049963828 0.040702727 0.45100003 4278533908
0.051542707 0.040792976 0.45200002 4278731289
0.053010803 0.040792976 0.45200002 4278797082
0.054599427 0.040883224 0.45300001 4278731804
0.056194548 0.040973477 0.45400003 4278928929
0.05766914 0.040973477 0.45400003 4279256099
-0.020056473 0.044786043 0.47900003 4279647264
-0.018462054 0.044692542 0.47800002 4279255068
-0.016874135 0.044599045 0.47700003 4278862363
-0.01529271 0.044505544 0.47600001 4278797084
-0.013631144 0.044131551 0.47200003 4278665498
-0.012046823 0.043944553 0.47000003 4278665498
-0.010453112 0.043664053 0.46700001 4278665498
-0.0089171594 0.043570556 0.46600002 4278862363
-0.0073877033 0.043477058 0.46500003 4278796568
-0.0058647431 0.043383557 0.46400002 4278862361
-0.004348279 0.04329006 0.46300003 4279124248
-0.0028444538 0.04329006 0.46300003 4278197761
-0.0013377335 0.043196559 0.46200001 4279187478
0.00016284335 0.043196559 0.46200001 4279452447
0.0016598196 0.043103062 0.46100003 4278590476
0.0031571484 0.043103062 0.46100003 4279840541
0.0046544774 0.043103062 0.46100003 4278986002
0.0061384616 0.043009561 0.46000001 4278854416
0.0076325419 0.043009561 0.46000001 4278458890
0.0091266232 0.043009561 0.46000001 4279117590
0.010597616 0.042916063 0.45900002 4278458636
0.012088448 0.042916063 0.45900002 4278194437
0.013579281 0.042916063 0.45900002 4279578141
0.015070114 0.042916063 0.45900002 4278393097
0.016560946 0.042916063 0.45900002 4279381271
0.018012451 0.042822566 0.45800003 4279056154
0.019500036 0.042822566 0.45800003 4278464785
0.020987622 0.042822566 0.45800003 4278198788
0.022426134 0.042729065 0.45700002 4278197248
0.023858149 0.042635567 0.45600003 4279187992
0.025339238 0.042635567 0.45600003 4278200838
0.026761509 0.042542066 0.45500001 4278924818
0.028177287 0.042448569 0.45400003 4279187992
0.029651878 0.042448569 0.45400003 4279516957
0.031126473 0.042448569 0.45400003 4279451164
0.032529257 0.042355068 0.45300001 4279057176
0.034000598 0.042355068 0.45300001 4278925590
0.035471946 0.042355068 0.45300001 4279188508
0.036861736 0.042261571 0.45200002 4279516703
0.038329836 0.042261571 0.45200002 4279450396
0.039797932 0.042261571 0.45200002 4279252504
0.041266028 0.042261571 0.45200002 4278199045
0.042639583 0.04216807 0.45100003 4278196994
0.044104431 0.04216807 0.45100003 4278196736
0.045468237 0.042074572 0.45000002 4278195200
0.04692984 0.042074572 0.45000002 4278198533
0.048498977 0.04216807 0.45100003 4278729753
0.050074611 0.042261571 0.45200002 4278335247
0.051542707 0.042261571 0.45200002 4278795798
0.053128082 0.042355068 0.45300001 4278599189
0.054599427 0.042355068 0.45300001 4278796568
0.056194548 0.042448569 0.45400003 4278468117
0.05766914 0.042448569 0.45400003 4279125535
0.059143737 0.042448569 0.45400003 4278663447
-0.020014601 0.046245612 0.47800002 4280239399
-0.018423432 0.046148866 0.47700003 4279058459
-0.016803384 0.045955371 0.47500002 4278796570
-0.015228455 0.045858625 0.47400004 4278664984
-0.013602264 0.045568377 0.47100002 4278731291
-0.012021191 0.045374881 0.46900001 4278533912
-0.010453112 0.045181382 0.46700001 4278664984
-0.0089171594 0.045084637 0.46600002 4278862363
-0.0073877033 0.044987891 0.46500003 4278796568
-0.0058647431 0.044891141 0.46400002 4278664982
-0.004348279 0.044794392 0.46300003 4278729492
-0.0028444538 0.044794392 0.46300003 4278198533
-0.0013377335 0.044697642 0.46200001 4279055892
0.00016284335 0.044697642 0.46200001 4279780129
0.0016598196 0.044600897 0.46100003 4278853135
0.0031571484 0.044600897 0.46100003 4278524170
0.0046544774 0.044600897 0.46100003 4278720525
0.0061384616 0.044504147 0.46000001 4278654732
0.0076325419 0.044504147 0.46000001 4278654732
0.0091266232 0.044504147 0.46000001 4278523146
0.010597616 0.044407401 0.45900002 4278589709
0.012088448 0.044407401 0.45900002 4279445785
0.013579281 0.044407401 0.45900002 4279973410
0.015070114 0.044407401 0.45900002 4278920211
0.016560946 0.044407401 0.45900002 4279843106
0.018012451 0.044310652 0.45800003 4279187740
0.019500036 0.044310652 0.45800003 4278262790
0.020987622 0.044310652 0.45800003 4278524681
0.022426134 0.044213902 0.45700002 4278524679
0.023858149 0.044117156 0.45600003 4278329349
0.025339238 0.044117156 0.45600003 4279187478
0.026761509 0.044020407 0.45500001 4278529294
0.028239351 0.044020407 0.45500001 4278529042
0.02971719 0.044020407 0.45500001 4279318558
0.031126473 0.043923661 0.45400003 4278199563
0.032601066 0.043923661 0.45400003 4279187486
0.034075655 0.043923661 0.45400003 4279188510
0.035471946 0.043826912 0.45300001 4278794263
0.03694329 0.043826912 0.45300001 4278794263
0.038414635 0.043826912 0.45300001 4278794517
0.039797932 0.043730162 0.45200002 4278794517
0.041266028 0.043730162 0.45200002 4278859543
0.042734127 0.043730162 0.45200002 4278991129
0.044202223 0.043730162 0.45200002 4278925336
0.045569282 0.043633416 0.45100003 4279254301
0.047138415 0.043730162 0.45200002 4279385119
0.048606511 0.043730162 0.45200002 4278530326
0.050185394 0.043826912 0.45300001 4278795287
0.051656738 0.043826912 0.45300001 4278663699
0.053245366 0.043923661 0.45400003 4278730005
0.054719958 0.043923661 0.45400003 4278599189
0.056194548 0.043923661 0.45400003 4278599189
0.05766914 0.043923661 0.45400003 4278928154
0.059274007 0.044020407 0.45500001 4278993177
0.060751848 0.044020407 0.45500001 4284252272
-0.020014601 0.047798686 0.47800002 4280634157
-0.018384809 0.04759869 0.47600001 4278991896
-0.016768008 0.047398698 0.47400004 4278928156
-0.0151642 0.047198702 0.47200003 4278993949
-0.013573385 0.046998709 0.47000003 4278665498
-0.01199556 0.046798714 0.46800002 4278797084
-0.010453112 0.046698716 0.46700001 4279257121
-0.0089171594 0.046598718 0.46600002 4278862363
-0.0073718154 0.046398722 0.46400002 4278928156
-0.0058647431 0.046398722 0.46400002 4278796570
-0.004348279 0.046298727 0.46300003 4278662677
-0.0028383103 0.046198729 0.46200001 4278660628
-0.0013377335 0.046198729 0.46200001 4278990359
0.00016284335 0.046198729 0.46200001 4278991896
0.0016598196 0.046098731 0.46100003 4279514141
0.0031571484 0.046098731 0.46100003 4278195973
0.0046443804 0.045998733 0.46000001 4278260744
0.0061384616 0.045998733 0.46000001 4278786318
0.0076325419 0.045998733 0.46000001 4278785804
0.0091266232 0.045998733 0.46000001 4278654732
0.010597616 0.045898739 0.45900002 4278654732
0.012088448 0.045898739 0.45900002 4278654732
0.013579281 0.045898739 0.45900002 4278654732
0.015070114 0.045898739 0.45900002 4278654732
0.016560946 0.045898739 0.45900002 4278988564
0.018012451 0.045798741 0.45800003 4278925851
0.019500036 0.045798741 0.45800003 4278460173
0.020987622 0.045798741 0.45800003 4278655756
0.022426134 0.045698743 0.45700002 4278196486
0.023910468 0.045698743 0.45700002 4279119637
0.025339238 0.045598745 0.45600003 4279318810
0.026820328 0.045598745 0.45600003 4278199817
0.028239351 0.045498747 0.45500001 4278331150
0.02971719 0.045498747 0.45500001 4279121179
0.031126473 0.045398753 0.45400003 4279186972
0.032601066 0.045398753 0.45400003 4279120668
0.034075655 0.045398753 0.45400003 4278725910
0.035550252 0.045398753 0.45400003 4278198795
0.03694329 0.045298751 0.45300001 4278199303
0.038414635 0.045298751 0.45300001 4278200074
0.039885979 0.045298751 0.45300001 4278197504
0.041357324 0.045298751 0.45300001 4279121947
0.042828668 0.045298751 0.45300001 4278333201
0.044202223 0.045198757 0.45200002 4279056922
0.045670319 0.045198757 0.45200002 4278860056
0.047138415 0.045198757 0.45200002 4278860056
0.048714045 0.045298751 0.45300001 4279056154
0.050185394 0.045298751 0.45300001 4278861080
0.051770773 0.045398753 0.45400003 4278795285
0.053245366 0.045398753 0.45400003 4278795285
0.054719958 0.045398753 0.45400003 4278730007
0.056194548 0.045398753 0.45400003 4278664214
0.057796162 0.045498747 0.45500001 4278730007
0.059274007 0.045498747 0.45500001 4278927132
0.060751848 0.045498747 0.45500001 4282542165
-0.020014601 0.049351756 0.47800002 4279118867
-0.018384809 0.049145263 0.47600001 4278990613
-0.016732633 0.048835523 0.47300002 4278730007
-0.0151642 0.048732277 0.47200003 4278927386
-0.013573385 0.048525784 0.47000003 4278664730
-0.01199556 0.048319291 0.46800002 4278664732
-0.010453112 0.048216045 0.46700001 4278664730
-0.0088980244 0.048009556 0.46500003 4278796316
-0.0073718154 0.047906306 0.46400002 4278796316
-0.0058521037 0.047803063 0.46300003 4278598937
-0.004348279 0.047803063 0.46300003 4278795033
-0.0028383103 0.047699813 0.46200001 4279254303
-0.0013377335 0.047699813 0.46200001 4279189021
0.00016249088 0.047596566 0.46100003 4278861080
0.0016598196 0.047596566 0.46100003 4278992666
0.0031571484 0.047596566 0.46100003 4278860826
0.0046443804 0.04749332 0.46000001 4279123230
0.0061384616 0.04749332 0.46000001 4279320609
0.0076325419 0.04749332 0.46000001 4279516705
0.0091266232 0.04749332 0.46000001 4279581217
0.010597616 0.047390074 0.45900002 4279316764
0.012088448 0.047390074 0.45900002 4278922006
0.013579281 0.047390074 0.45900002 4278854931
0.015070114 0.047390074 0.45900002 4278392843
0.016560946 0.047390074 0.45900002 4279844389
0.018012451 0.047286831 0.45800003 4278199046
0.019500036 0.047286831 0.45800003 4278790931
0.020987622 0.047286831 0.45800003 4279579934
0.022426134 0.047183581 0.45700002 4279908131
0.023910468 0.047183581 0.45700002 4279317275
0.025339238 0.047080338 0.45600003 4279055640
0.026820328 0.047080338 0.45600003 4279121433
0.028239351 0.046977088 0.45500001 4279055640
0.02971719 0.046977088 0.45500001 4278331917
0.031195033 0.046977088 0.45500001 4278529296
0.032601066 0.046873845 0.45400003 4278989847
0.034075655 0.046873845 0.45400003 4278331663
0.035550252 0.046873845 0.45400003 4278199307
0.037024844 0.046873845 0.45400003 4279318047
0.038414635 0.046770595 0.45300001 4278396945
0.039885979 0.046770595 0.45300001 4278857494
0.041357324 0.046770595 0.45300001 4278594322
0.042828668 0.046770595 0.45300001 4278790931
0.044300012 0.046770595 0.45300001 4278462736
0.04577136 0.046770595 0.45300001 4278925336
0.047242705 0.046770595 0.45300001 4278398992
0.048714045 0.046770595 0.45300001 4278530578
0.05029618 0.046873845 0.45400003 4278861080
0.051770773 0.046873845 0.45400003 4278795287
0.053245366 0.046873845 0.45400003 4278861080
0.054840483 0.046977088 0.45500001 4278664214
0.056318324 0.046977088 0.45500001 4278730007
0.057796162 0.046977088 0.45500001 4278664214
0.059274007 0.046977088 0.45500001 4279255584
0.060751848 0.046977088 0.45500001 4279778600
-0.016732633 0.050372347 0.47300002 4279186713
-0.015132072 0.050159357 0.47100002 4278990107
-0.013573385 0.050052863 0.47000003 4278992160
-0.01199556 0.049839873 0.46800002 4279518758
-0.010430729 0.049626879 0.46600002 4279255586
-0.0088980244 0.049520388 0.46500003 4279256099
-0.0073718154 0.04941389 0.46400002 4279190306
-0.0058521037 0.049307395 0.46300003 4278795548
-0.004348279 0.049307395 0.46300003 4278400277
-0.0028383103 0.0492009 0.46200001 4278860828
-0.0013377335 0.0492009 0.46200001 4278860826
0.00016249088 0.049094405 0.46100003 4278860826
0.0016598196 0.049094405 0.46100003 4278729753
0.0031502999 0.048987906 0.46000001 4278927132
0.0046443804 0.048987906 0.46000001 4278729753
0.0061384616 0.048987906 0.46000001 4278729753
0.0076325419 0.048987906 0.46000001 4278927132
0.0091266232 0.048987906 0.46000001 4278927132
0.010597616 0.048881412 0.45900002 4278860826
0.012088448 0.048881412 0.45900002 4278860826
0.013579281 0.048881412 0.45900002 4279189021
0.015070114 0.048881412 0.45900002 4279056922
0.016560946 0.048881412 0.45900002 4279188508
0.018012451 0.04877492 0.45800003 4279056922
0.019500036 0.04877492 0.45800003 4279516705
0.020987622 0.04877492 0.45800003 4279450144
0.022426134 0.048668422 0.45700002 4279515424
0.023910468 0.048668422 0.45700002 4278199564
0.025339238 0.048561927 0.45600003 4278196994
0.026820328 0.048561927 0.45600003 4278196480
0.028239351 0.048455428 0.45500001 4278195968
0.02971719 0.048455428 0.45500001 4278195968
0.031195033 0.048455428 0.45500001 4278396943
0.032601066 0.048348937 0.45400003 4278726675
0.034075655 0.048348937 0.45400003 4279318810
0.035550252 0.048348937 0.45400003 4279187738
0.037024844 0.048348937 0.45400003 4279385887
0.038499437 0.048348937 0.45400003 4278925338
0.039885979 0.048242439 0.45300001 4278859545
0.041357324 0.048242439 0.45300001 4279121947
0.042828668 0.048242439 0.45300001 4278595087
0.044300012 0.048242439 0.45300001 4278792468
0.04577136 0.048242439 0.45300001 4279319324
0.047346994 0.048348937 0.45400003 4278199046
0.048821583 0.048348937 0.45400003 4279452193
0.05029618 0.048348937 0.45400003 4278795800
0.051770773 0.048348937 0.45400003 4278795798
0.053362645 0.048455428 0.45500001 4278927384
0.054840483 0.048455428 0.45500001 4278927386
0.056318324 0.048455428 0.45500001 4278795546
0.057796162 0.048455428 0.45500001 4278795546
0.059274007 0.048455428 0.45500001 4279124511
0.060751848 0.048455428 0.45500001 4280173617
-0.011969929 0.051250704 0.46700001 4283922276
-0.010430729 0.05114096 0.46600002 4281883206
-0.0088980244 0.051031221 0.46500003 4280369967
-0.0073718154 0.050921474 0.46400002 4279120668
-0.0058521037 0.05081173 0.46300003 4279319074
-0.004348279 0.05081173 0.46300003 4279188256
-0.0028383103 0.050701983 0.46200001 4279648807
-0.001334838 0.05059224 0.46100003 4279517221
0.00016249088 0.05059224 0.46100003 4279122976
0.0016598196 0.05059224 0.46100003 4279452965
0.0031502999 0.050482493 0.46000001 4279255586
0.0046443804 0.050482493 0.46000001 4278860828
0.0061384616 0.050482493 0.46000001 4278992414
0.0076325419 0.050482493 0.46000001 4278729755
0.0091266232 0.050482493 0.46000001 4278729755
0.010597616 0.05037275 0.45900002 4278927134
0.012088448 0.05037275 0.45900002 4278927132
0.013579281 0.05037275 0.45900002 4278663960
0.015070114 0.05037275 0.45900002 4278466581
0.016560946 0.05037275 0.45900002 4278927132
0.018012451 0.050263006 0.45800003 4278795800
0.019500036 0.050263006 0.45800003 4278664214
0.020987622 0.050263006 0.45800003 4278992925
0.022426134 0.050153259 0.45700002 4278663447
0.023910468 0.050153259 0.45700002 4278860826
0.025339238 0.050043516 0.45600003 4278925849
0.026820328 0.050043516 0.45600003 4279320607
0.028239351 0.049933773 0.45500001 4278859545
0.02971719 0.049933773 0.45500001 4279254303
0.031195033 0.049933773 0.45500001 4279056154
0.032601066 0.049824029 0.45400003 4279056154
0.034075655 0.049824029 0.45400003 4278791955
0.035550252 0.049824029 0.45400003 4278199818
0.037024844 0.049824029 0.45400003 4278196224
0.038499437 0.049824029 0.45400003 4278194688
0.03997403 0.049824029 0.45400003 4278197508
0.041448619 0.049824029 0.45400003 4278198022
0.042923216 0.049824029 0.45400003 4278857494
0.044397809 0.049824029 0.45400003 4278857494
0.045872401 0.049824029 0.45400003 4279318812
0.047346994 0.049824029 0.45400003 4278198532
0.048821583 0.049824029 0.45400003 4278860828
0.05029618 0.049824029 0.45400003 4278795800
0.051884804 0.049933773 0.45500001 4278664214
0.053362645 0.049933773 0.45500001 4278795800
0.054840483 0.049933773 0.45500001 4278993179
0.056318324 0.049933773 0.45500001 4278664214
0.057796162 0.049933773 0.45500001 4278795546
0.059274007 0.049933773 0.45500001 4278992925
0.060751848 0.049933773 0.45500001 4283791719
-0.0073718154 0.052429054 0.46400002 4284381543
-0.0058521037 0.052316062 0.46300003 4284316264
-0.0043388871 0.052203067 0.46200001 4284842608
-0.0028383103 0.052203067 0.46200001 4284776815
-0.001334838 0.052090075 0.46100003 4284251241
0.00016249088 0.052090075 0.46100003 4282277449
0.0016598196 0.052090075 0.46100003 4280698669
0.0031571484 0.052090075 0.46100003 4279383322
0.0046443804 0.051977079 0.46000001 4278858009
0.0061384616 0.051977079 0.46000001 4279055902
0.0076325419 0.051977079 0.46000001 4279517221
0.0091266232 0.051977079 0.46000001 4279517221
0.010597616 0.051864088 0.45900002 4279452711
0.012088448 0.051864088 0.45900002 4279321125
0.013579281 0.051864088 0.45900002 4279452965
0.015070114 0.051864088 0.45900002 4279255586
0.016560946 0.051864088 0.45900002 4279189791
0.018012451 0.051751096 0.45800003 4278992412
0.019500036 0.051751096 0.45800003 4278992412
0.020987622 0.051751096 0.45800003 4278729240
0.022426134 0.0516381 0.45700002 4278532374
0.023910468 0.0516381 0.45700002 4278729753
0.025339238 0.051525109 0.45600003 4278795546
0.026820328 0.051525109 0.45600003 4278532374
0.028239351 0.051412113 0.45500001 4278729753
0.02971719 0.051412113 0.45500001 4278795546
0.031195033 0.051412113 0.45500001 4278795800
0.032601066 0.051299121 0.45400003 4278795800
0.034075655 0.051299121 0.45400003 4278992666
0.035550252 0.051299121 0.45400003 4278860310
0.037024844 0.051299121 0.45400003 4279188762
0.038499437 0.051299121 0.45400003 4279057176
0.03997403 0.051299121 0.45400003 4279057176
0.041448619 0.051299121 0.45400003 4279056922
0.042923216 0.051299121 0.45400003 4280108328
0.044397809 0.051299121 0.45400003 4279450144
0.045872401 0.051299121 0.45400003 4278726421
0.047346994 0.051299121 0.45400003 4278989593
0.048821583 0.051299121 0.45400003 4279058205
0.050406963 0.051412113 0.45500001 4278730007
0.051884804 0.051412113 0.45500001 4278927386
0.053362645 0.051412113 0.45500001 4278795800
0.054961015 0.051525109 0.45600003 4278993179
0.056442104 0.051525109 0.45600003 4278993179
0.057796162 0.051412113 0.45500001 4278795033
0.059274007 0.051412113 0.45500001 4278399505
0.060751848 0.051412113 0.45500001 4285567360
-0.001334838 0.05358791 0.46100003 4284249957
0.00016249088 0.05358791 0.46100003 4284381541
0.0016598196 0.05358791 0.46100003 4284315748
0.0031571484 0.05358791 0.46100003 4284447334
0.0046544774 0.05358791 0.46100003 4284907885
0.0061384616 0.053471666 0.46000001 4285236850
0.0076325419 0.053471666 0.46000001 4284776815
0.0091266232 0.053471666 0.46000001 4284843124
0.010620704 0.053471666 0.46000001 4283527264
0.012088448 0.053355426 0.45900002 4281554757
0.013579281 0.053355426 0.45900002 4279516203
0.015070114 0.053355426 0.45900002 4278858271
0.016560946 0.053355426 0.45900002 4278990109
0.018012451 0.053239185 0.45800003 4279516453
0.019500036 0.053239185 0.45800003 4279451430
0.020987622 0.053239185 0.45800003 4279451945
0.022426134 0.053122938 0.45700002 4279386148
0.023910468 0.053122938 0.45700002 4279386402
0.025339238 0.053006697 0.45600003 4279189791
0.026820328 0.053006697 0.45600003 4279189791
0.028239351 0.052890453 0.45500001 4279254814
0.02971719 0.052890453 0.45500001 4279123998
0.031195033 0.052890453 0.45500001 4278860826
0.032672875 0.052890453 0.45500001 4278729240
0.034075655 0.052774213 0.45400003 4278992666
0.035550252 0.052774213 0.45400003 4279124252
0.037024844 0.052774213 0.45400003 4278861080
0.038499437 0.052774213 0.45400003 4279058459
0.03997403 0.052774213 0.45400003 4278861080
0.041448619 0.052774213 0.45400003 4278992666
0.042923216 0.052774213 0.45400003 4279058459
0.044397809 0.052774213 0.45400003 4278860826
0.045872401 0.052774213 0.45400003 4278925849
0.047346994 0.052774213 0.45400003 4279123228
0.048929121 0.052890453 0.45500001 4278795287
0.050406963 0.052890453 0.45500001 4278861080
0.051884804 0.052890453 0.45500001 4278927386
0.053479929 0.053006697 0.45600003 4278927386
0.054961015 0.053006697 0.45600003 4278730007
0.056442104 0.053006697 0.45600003 4278993179
0.05792319 0.053006697 0.45600003 4279188256
0.059274007 0.052890453 0.45500001 4282081355
0.00016249088 0.055085748 0.46100003 4284184164
0.0016598196 0.055085748 0.46100003 4284446821
0.0031571484 0.055085748 0.46100003 4284381028
0.0046544774 0.055085748 0.46100003 4284381028
0.0061384616 0.054966252 0.46000001 4284775786
0.0076325419 0.054966252 0.46000001 4284579436
0.0091266232 0.054966252 0.46000001 4284644975
0.010620704 0.054966252 0.46000001 4285039733
0.012088448 0.054846764 0.45900002 4285105526
0.013579281 0.054846764 0.45900002 4284974710
0.015070114 0.054846764 0.45900002 4285172089
0.016560946 0.054846764 0.45900002 4285435515
0.018012451 0.054727271 0.45800003 4285764480
0.019500036 0.054727271 0.45800003 4285500284
0.020987622 0.054727271 0.45800003 4284973940
0.022426134 0.054607779 0.45700002 4282738515
0.023910468 0.054607779 0.45700002 4281356860
0.025339238 0.05448829 0.45600003 4279647527
0.026820328 0.05448829 0.45600003 4279252515
0.028239351 0.054368794 0.45500001 4279055390
0.02971719 0.054368794 0.45500001 4278726423
0.031195033 0.054368794 0.45500001 4279186972
0.032672875 0.054368794 0.45500001 4279450658
0.034150712 0.054368794 0.45500001 4279320096
0.035628553 0.054368794 0.45500001 4279451682
0.037106395 0.054368794 0.45500001 4279385889
0.038584236 0.054368794 0.45500001 4279385889
0.040062077 0.054368794 0.45500001 4279385635
0.041539915 0.054368794 0.45500001 4279451682
0.042923216 0.054249305 0.45400003 4279452195
0.044397809 0.054249305 0.45400003 4279452195
0.045973442 0.054368794 0.45500001 4279452193
0.04745128 0.054368794 0.45500001 4279583779
0.048929121 0.054368794 0.45500001 4279255584
0.050406963 0.054368794 0.45500001 4279452963
0.051998835 0.05448829 0.45600003 4279255584
0.053479929 0.05448829 0.45600003 4279452963
0.054961015 0.05448829 0.45600003 4279189791
0.056442104 0.05448829 0.45600003 4279254303
0.05792319 0.05448829 0.45600003 4281093436
0.026820328 0.055969879 0.45600003 4283921252
0.028239351 0.055847134 0.45500001 4283658082
0.02971719 0.055847134 0.45500001 4283592289
0.031195033 0.055847134 0.45500001 4284118631
0.032672875 0.055847134 0.45500001 4281947462
0.034150712 0.055847134 0.45500001 4283264092
0.035628553 0.055847134 0.45500001 4284448620
0.037106395 0.055847134 0.45500001 4284448620
0.038584236 0.055847134 0.45500001 4284975477
0.040062077 0.055847134 0.45500001 4284843637
0.041539915 0.055847134 0.45500001 4284580465
0.04301776 0.055847134 0.45500001 4284054121
0.044495597 0.055847134 0.45500001 4283461984
0.045973442 0.055847134 0.45500001 4282673238
0.04745128 0.055847134 0.45500001 4282081101
0.048929121 0.055847134 0.45500001 4281225792
0.050406963 0.055847134 0.45500001 4281094206
0.051998835 0.055969879 0.45600003 4280633909
0.053479929 0.055969879 0.45600003 4280436530
0.054961015 0.055969879 0.45600003 4281292098
0.056442104 0.055969879 0.45600003 4284844409
0.019443087 0.045732185 0.46023977 4294967295
0.019443087 0.045732185 0.46023977 4294901760
0.019443087 0.045732185 0.46073976 4294901760
0.019443087 0.045732185 0.46123976 4294901760
0.019443087 0.045732185 0.46173978 4294901760
0.019443087 0.045732185 0.46223977 4294901760
0.019443087 0.045732185 0.46273977 4294901760
0.019443087 0.045732185 0.46323976 4294901760
0.019443087 0.045732185 0.46373978 4294901760
0.019443087 0.045732185 0.46423978 4294901760
0.019443087 0.045732185 0.46473977 4294901760
0.019443087 0.045732185 0.46523976 4294901760
0.019443087 0.045732185 0.46573976 4294901760
0.019443087 0.045732185 0.46623978 4294901760
0.019443087 0.045732185 0.46673977 4294901760
0.019443087 0.045732185 0.46723977 4294901760
0.019443087 0.045732185 0.46773976 4294901760
0.019443087 0.045732185 0.46823978 4294901760
0.019443087 0.045732185 0.46873978 4294901760
0.019443087 0.045732185 0.46923977 4294901760
0.019443087 0.045732185 0.46973976 4294901760
0.019443087 0.045732185 0.47023976 4294901760
0.019443087 0.045732185 0.47073978 4294901760
0.019443087 0.045732185 0.47123978 4294901760
0.019443087 0.045732185 0.47173977 4294901760
0.019443087 0.045732185 0.47223976 4294901760
0.019443087 0.045732185 0.47273976 4294901760
0.019443087 0.045732185 0.47323978 4294901760
0.019443087 0.045732185 0.47373977 4294901760
0.019443087 0.045732185 0.47423977 4294901760
0.019443087 0.045732185 0.47473976 4294901760
0.019443087 0.045732185 0.47523978 4294901760
0.019443087 0.045732185 0.47573978 4294901760
0.019443087 0.045732185 0.47623977 4294901760
0.019443087 0.045732185 0.47673976 4294901760
0.019443087 0.045732185 0.47723979 4294901760
0.019443087 0.045732185 0.47773978 4294901760
0.019443087 0.045732185 0.47823977 4294901760
0.019443087 0.045732185 0.47873977 4294901760
0.019443087 0.045732185 0.47923976 4294901760
0.019443087 0.045732185 0.47973979 4294901760
0.019443087 0.045732185 0.48023978 4294901760
0.019443087 0.045732185 0.48073977 4294901760
0.019443087 0.045732185 0.48123977 4294901760
0.019443087 0.045732185 0.48173976 4294901760
0.019443087 0.045732185 0.48223978 4294901760
0.019443087 0.045732185 0.48273978 4294901760
0.019443087 0.045732185 0.48323977 4294901760
0.019443087 0.045732185 0.48373976 4294901760
0.019443087 0.045732185 0.48423979 4294901760
0.019443087 0.045732185 0.48473978 4294901760
0.019443087 0.045732185 0.48523977 4294901760
0.019443087 0.045732185 0.48573977 4294901760
0.019443087 0.045732185 0.48623976 4294901760
0.019443087 0.045732185 0.48673978 4294901760
0.019443087 0.045732185 0.48723978 4294901760
0.019443087 0.045732185 0.48773977 4294901760
0.019443087 0.045732185 0.48823977 4294901760
0.019443087 0.045732185 0.48873979 4294901760
0.019443087 0.045732185 0.48923978 4294901760
0.019443087 0.045732185 0.48973978 4294901760
0.019443087 0.045732185 0.49023977 4294901760
0.019443087 0.045732185 0.49073976 4294901760
0.019443087 0.045732185 0.49123979 4294901760
0.019443087 0.045732185 0.49173978 4294901760
0.019443087 0.045732185 0.49223977 4294901760
0.019443087 0.045732185 0.49273977 4294901760
0.019443087 0.045732185 0.49323979 4294901760
0.019443087 0.045732185 0.49373978 4294901760
0.019443087 0.045732185 0.49423978 4294901760
0.019443087 0.045732185 0.49473977 4294901760
0.019443087 0.045732185 0.49523976 4294901760
0.019443087 0.045732185 0.49573979 4294901760
0.019443087 0.045732185 0.49623978 4294901760
0.019443087 0.045732185 0.49673977 4294901760
0.019443087 0.045732185 0.49723977 4294901760
0.019443087 0.045732185 0.49773979 4294901760
0.019443087 0.045732185 0.49823979 4294901760
0.019443087 0.045732185 0.49873978 4294901760
0.019443087 0.045732185 0.49923977 4294901760
0.019443087 0.045732185 0.49973977 4294901760
0.019443087 0.045732185 0.50023979 4294901760
0.019443087 0.045732185 0.50073975 4294901760
0.019443087 0.045732185 0.50123978 4294901760
0.019443087 0.045732185 0.5017398 4294901760
0.019443087 0.045732185 0.50223976 4294901760
0.019443087 0.045732185 0.50273979 4294901760
0.019443087 0.045732185 0.50323975 4294901760
0.019443087 0.045732185 0.50373977 4294901760
0.019443087 0.045732185 0.5042398 4294901760
0.019443087 0.045732185 0.50473976 4294901760
0.019443087 0.045732185 0.50523978 4294901760
0.019443087 0.045732185 0.50573981 4294901760
0.019443087 0.045732185 0.50623977 4294901760
0.019443087 0.045732185 0.5067398 4294901760
0.019443087 0.045732185 0.50723976 4294901760
0.019443087 0.045732185 0.50773978 4294901760
0.019443087 0.045732185 0.50823981 4294901760
0.019443087 0.045732185 0.50873977 4294901760
0.019443087 0.045732185 0.50923979 4294901760
0.019443087 0.045732185 0.50973976 4294901760
0.019443087 0.045732185 0.51023978 4294901760
0.019443087 0.045732185 0.46023977 4278255360
0.019564839 0.045704108 0.46072391 4278255360
0.019686589 0.045676034 0.46120805 4278255360
0.019808341 0.045647956 0.46169218 4278255360
0.019930093 0.045619883 0.46217632 4278255360
0.020051843 0.045591805 0.46266046 4278255360
0.020173594 0.045563731 0.4631446 4278255360
0.020295346 0.045535654 0.46362874 4278255360
0.020417096 0.04550758 0.46411288 4278255360
0.020538848 0.045479503 0.46459699 4278255360
0.0206606 0.045451425 0.46508113 4278255360
0.02078235 0.045423351 0.46556526 4278255360
0.020904101 0.045395274 0.4660494 4278255360
0.021025853 0.0453672 0.46653354 4278255360
0.021147603 0.045339122 0.46701768 4278255360
0.021269355 0.045311049 0.46750182 4278255360
0.021391107 0.045282971 0.46798596 4278255360
0.021512857 0.045254897 0.4684701 4278255360
0.021634609 0.04522682 0.46895424 4278255360
0.021756358 0.045198746 0.46943837 4278255360
0.02187811 0.045170669 0.46992251 4278255360
0.021999862 0.045142591 0.47040665 4278255360
0.022121612 0.045114517 0.47089079 4278255360
0.022243364 0.04508644 0.47137493 4278255360
0.022365116 0.045058366 0.47185907 4278255360
0.022486866 0.045030288 0.47234321 4278255360
0.022608617 0.045002215 0.47282732 4278255360
0.022730369 0.044974137 0.47331145 4278255360
0.022852119 0.044946063 0.47379559 4278255360
0.022973871 0.044917986 0.47427973 4278255360
0.023095623 0.044889908 0.47476387 4278255360
0.023217373 0.044861834 0.47524801 4278255360
0.023339124 0.044833757 0.47573215 4278255360
0.023460876 0.044805683 0.47621629 4278255360
0.023582626 0.044777606 0.47670043 4278255360
0.023704378 0.044749532 0.47718456 4278255360
0.02382613 0.044721454 0.4776687 4278255360
0.02394788 0.044693381 0.47815284 4278255360
0.024069631 0.044665303 0.47863698 4278255360
0.024191383 0.044637229 0.47912112 4278255360
0.024313133 0.044609152 0.47960526 4278255360
0.024434885 0.044581074 0.4800894 4278255360
0.024556637 0.044553 0.48057351 4278255360
0.024678387 0.044524923 0.48105764 4278255360
0.024800139 0.044496849 0.48154178 4278255360
0.02492189 0.044468772 0.48202592 4278255360
0.02504364 0.044440698 0.48251006 4278255360
0.025165392 0.04441262 0.4829942 4278255360
0.025287144 0.044384547 0.48347834 4278255360
0.025408894 0.044356469 0.48396248 4278255360
0.025530646 0.044328392 0.48444661 4278255360
0.025652397 0.044300318 0.48493075 4278255360
0.025774147 0.04427224 0.48541489 4278255360
0.025895899 0.044244166 0.48589903 4278255360
0.026017651 0.044216089 0.48638317 4278255360
0.026139401 0.044188015 0.48686731 4278255360
0.026261153 0.044159938 0.48735145 4278255360
0.026382904 0.044131864 0.48783559 4278255360
0.026504654 0.044103786 0.48831969 4278255360
0.026626406 0.044075713 0.48880383 4278255360
0.026748158 0.044047635 0.48928797 4278255360
0.026869908 0.044019558 0.48977211 4278255360
0.02699166 0.043991484 0.49025625 4278255360
0.027113412 0.043963406 0.49074039 4278255360
0.027235162 0.043935332 0.49122453 4278255360
0.027356911 0.043907255 0.49170867 4278255360
0.027478665 0.043879181 0.4921928 4278255360
0.027600415 0.043851104 0.49267694 4278255360
0.027722167 0.04382303 0.49316108 4278255360
0.027843919 0.043794952 0.49364522 4278255360
0.027965669 0.043766879 0.49412936 4278255360
0.028087419 0.043738801 0.4946135 4278255360
0.028209172 0.043710724 0.49509764 4278255360
0.028330922 0.04368265 0.49558178 4278255360
0.028452674 0.043654572 0.49606591 4278255360
0.028574426 0.043626498 0.49655002 4278255360
0.028696176 0.043598421 0.49703416 4278255360
0.028817926 0.043570347 0.4975183 4278255360
0.028939679 0.04354227 0.49800244 4278255360
0.029061429 0.043514196 0.49848658 4278255360
0.029183181 0.043486118 0.49897072 4278255360
0.029304933 0.043458041 0.49945486 4278255360
0.029426683 0.043429967 0.49993899 4278255360
0.029548433 0.04340189 0.50042313 4278255360
0.029670186 0.043373816 0.50090724 4278255360
0.029791936 0.043345738 0.50139141 4278255360
0.029913688 0.043317664 0.50187552 4278255360
0.03003544 0.043289587 0.50235969 4278255360
0.03015719 0.043261513 0.5028438 4278255360
0.03027894 0.043233436 0.50332797 4278255360
0.030400692 0.043205358 0.50381207 4278255360
0.030522443 0.043177284 0.50429624 4278255360
0.030644195 0.043149207 0.50478035 4278255360
0.030765947 0.043121133 0.50526452 4278255360
0.030887697 0.043093055 0.50574863 4278255360
0.031009447 0.043064982 0.5062328 4278255360
0.031131199 0.043036904 0.50671691 4278255360
0.03125295 0.04300883 0.50720108 4278255360
0.0313747 0.042980753 0.50768518 4278255360
0.031496454 0.042952679 0.50816935 4278255360
0.031618204 0.042924602 0.50865346 4278255360
