# .PCD v0.7 - Point Cloud Data file format
VERSION 0.7
FIELDS x y z rgb
SIZE 4 4 4 4
TYPE F F F U
COUNT 1 1 1 1
WIDTH 968
HEIGHT 1
VIEWPOINT 0 0 0 1 0 0 0
POINTS 968
DATA ascii
-0.11015984 0.023528669 0.45900002 4279848484
-0.10866901 0.023528669 0.45900002 4279914531
-0.10741168 0.023579929 0.46000001 4279848738
-0.10614786 0.023631191 0.46100003 4279717668
-0.10487753 0.023682451 0.46200001 4279849508
-0.10360072 0.023733713 0.46300003 4279980324
-0.10253792 0.023836233 0.46500003 4280177190
-0.10146212 0.023938753 0.46700001 4280373799
-0.10015932 0.023990015 0.46800002 4280241959
-0.099060789 0.024092536 0.47000003 4281030966
-0.097949266 0.024195058 0.47200003 4280832817
-0.095486224 0.02434884 0.47500002 4279909151
-0.092984207 0.024502622 0.47800002 4279051275
-0.11735777 0.024965497 0.45800003 4286351999
-0.11587019 0.024965497 0.45800003 4281549110
-0.1143826 0.024965497 0.45800003 4281352245
-0.11140743 0.024965497 0.45800003 4279782182
-0.10991984 0.024965497 0.45800003 4279454496
-0.10843226 0.024965497 0.45800003 4279454750
-0.10694467 0.024965497 0.45800003 4279323164
-0.10568734 0.025020007 0.45900002 4279061019
-0.10465053 0.025129026 0.46100003 4279061019
-0.10337695 0.025183534 0.46200001 4279257885
-0.10209689 0.025238046 0.46300003 4279389471
-0.1010276 0.025347065 0.46500003 4279389984
-0.099945299 0.025456084 0.46700001 4279258398
-0.098850019 0.025565105 0.46900001 4279258398
-0.097741745 0.025674123 0.47100002 4279258398
-0.096620485 0.025783144 0.47300002 4278797847
-0.095486224 0.025892163 0.47500002 4279389730
-0.094141193 0.025946673 0.47600001 4279586596
-0.092984207 0.026055692 0.47800002 4279718182
-0.091622941 0.026110204 0.47900003 4279849254
-0.11587019 0.026453586 0.45800003 4280628008
-0.11413285 0.026395826 0.45700002 4280891694
-0.11264852 0.026395826 0.45700002 4281156401
-0.11116417 0.026395826 0.45700002 4279782180
-0.10967984 0.026395826 0.45700002 4279388187
-0.10819551 0.026395826 0.45700002 4279125785
-0.10671116 0.026395826 0.45700002 4279388957
-0.10545709 0.026453586 0.45800003 4278994459
-0.10442352 0.026569102 0.46000001 4279060765
-0.10292944 0.026569102 0.46000001 4279126045
-0.10187638 0.026684619 0.46200001 4278928920
-0.10081033 0.026800139 0.46400002 4278797847
-0.099731289 0.026915656 0.46600002 4278732052
-0.098639257 0.027031174 0.46800002 4278929431
-0.097741745 0.02720445 0.47100002 4278929431
-0.096620485 0.027319968 0.47300002 4278797845
-0.095285207 0.027377728 0.47400004 4279061017
-0.094141193 0.027493244 0.47600001 4278732824
-0.092984207 0.027608763 0.47800002 4279061789
-0.091622941 0.027666522 0.47900003 4278995996
-0.090255179 0.027724281 0.48000002 4279128095
-0.089065708 0.027839798 0.48200002 4279061789
-0.11587019 0.027941674 0.45800003 4280496422
-0.10988721 0.026843529 0.44000003 4280759848
-0.10845809 0.026843529 0.44000003 4281025585
-0.10678571 0.02678252 0.43900001 4279452447
-0.10535984 0.02678252 0.43900001 4279256349
-0.10369723 0.026721513 0.43800002 4279125531
-0.1020411 0.026660504 0.43700001 4278994459
-0.10062172 0.026660504 0.43700001 4278862875
-0.10292944 0.028063688 0.46000001 4278928666
-0.10165587 0.028124698 0.46100003 4278204429
-0.10059307 0.028246714 0.46300003 4278796566
-0.099517278 0.02836873 0.46500003 4278797334
-0.09842848 0.028490745 0.46700001 4278863125
-0.097741745 0.028734777 0.47100002 4278928918
-0.096620485 0.028856793 0.47300002 4278797334
-0.095285207 0.028917802 0.47400004 4278994711
-0.094141193 0.029039817 0.47600001 4278928920
-0.092984207 0.029161833 0.47800002 4278994713
-0.091622941 0.029222842 0.47900003 4278929433
-0.090255179 0.02928385 0.48000002 4278929433
-0.089065708 0.029405866 0.48200002 4278929433
-0.11156932 0.028337391 0.44100001 4280365604
-0.10988721 0.028273135 0.44000003 4280628776
-0.10821159 0.028208878 0.43900001 4281223475
-0.10678571 0.028208878 0.43900001 4279453217
-0.10511985 0.02814462 0.43800002 4279190556
-0.10346047 0.028080363 0.43700001 4279125533
-0.10180759 0.028016107 0.43600002 4279257119
-0.10016121 0.02795185 0.43500003 4278993947
-0.097840302 0.027694821 0.43100002 4279059740
-0.095992886 0.027566306 0.42900002 4279124765
-0.094158471 0.027437793 0.42700002 4278925336
-0.092554316 0.027373536 0.42600003 4278198784
-0.091170669 0.027373536 0.42600003 4279124761
-0.09842848 0.030008078 0.46700001 4278994199
-0.097741745 0.030265106 0.47100002 4278599441
-0.096620485 0.030393621 0.47300002 4278797080
-0.095285207 0.030457878 0.47400004 4278797080
-0.094141193 0.030586392 0.47600001 4278862359
-0.092984207 0.030714905 0.47800002 4278862873
-0.091622941 0.030779164 0.47900003 4278862873
-0.090255179 0.03084342 0.48000002 4278797080
-0.11156932 0.029770246 0.44100001 4280825641
-0.10988721 0.02970274 0.44000003 4280695335
-0.10821159 0.029635234 0.43900001 4281947452
-0.10654248 0.029567728 0.43800002 4279519008
-0.10487984 0.02950022 0.43700001 4279255836
-0.10322372 0.029432716 0.43600002 4279453728
-0.10134058 0.029297702 0.43400002 4279322912
-0.099700697 0.029230196 0.43300003 4278993947
-0.09761329 0.029027676 0.43000001 4278993947
-0.09576913 0.028892666 0.42800003 4279124763
-0.094158471 0.028825158 0.42700002 4278859797
-0.092554316 0.028757654 0.42600003 4279516955
-0.090956643 0.028690146 0.42500001 4279255318
-0.089365482 0.02862264 0.42400002 4278992662
-0.087780803 0.028555132 0.42300001 4279189273
-0.086406901 0.028555132 0.42300001 4279387935
-0.095285207 0.031997953 0.47400004 4278927382
-0.094141193 0.032132965 0.47600001 4278927382
-0.092984207 0.032267977 0.47800002 4278796566
-0.091622941 0.032335483 0.47900003 4278928152
-0.090255179 0.032402989 0.48000002 4278928152
-0.067440607 0.027542541 0.40800002 4278994461
-0.065953381 0.027475033 0.40700001 4279126047
-0.064472646 0.027407529 0.40600002 4278994461
-0.062998399 0.027340023 0.40500003 4278863388
-0.061530661 0.027272515 0.40400001 4278797595
-0.060069412 0.027205011 0.40300003 4278929181
-0.058760464 0.027205011 0.40300003 4279060767
-0.057308957 0.027137503 0.40200001 4279258146
-0.056003265 0.027137503 0.40200001 4279192353
-0.054561503 0.027069997 0.40100002 4279127330
-0.048982497 0.026867479 0.39800003 4279916594
-0.047689788 0.026867479 0.39800003 4280375348
-0.11505161 0.031769142 0.44900003 4281285675
-0.11182231 0.031273857 0.44200003 4282140986
-0.10988721 0.031132344 0.44000003 4280825639
-0.10821159 0.031061588 0.43900001 4282079038
-0.10654248 0.030990833 0.43800002 4279453215
-0.10463984 0.030849323 0.43600002 4279321629
-0.10298698 0.030778568 0.43500003 4279256349
-0.10110708 0.030637057 0.43300003 4279257119
-0.099240184 0.030495547 0.43100002 4279059740
-0.097386286 0.030354036 0.42900002 4278928668
-0.09576913 0.030283282 0.42800003 4279124511
-0.093937963 0.030141771 0.42600003 4278199303
-0.09233705 0.030071015 0.42500001 4279187478
-0.090956643 0.030071015 0.42500001 4279977506
-0.089365482 0.03000026 0.42400002 4278788105
-0.087780803 0.029929504 0.42300001 4278656267
-0.086202629 0.029858749 0.42200002 4278524681
-0.084429927 0.029717239 0.42000002 4278524681
-0.082867987 0.029646484 0.41900003 4278393093
-0.081312552 0.029575726 0.41800001 4278394376
-0.079954885 0.029575726 0.41800001 4278395914
-0.078409187 0.029504972 0.41700003 4278330121
-0.076869987 0.029434215 0.41600001 4278792466
-0.075337283 0.029363461 0.41500002 4279715617
-0.073989362 0.029363461 0.41500002 4279190043
-0.072466403 0.029292706 0.41400003 4279124250
-0.070778146 0.029151196 0.41200003 4279453217
-0.069271423 0.029080439 0.41100001 4279058972
-0.067605905 0.028938929 0.40900001 4279058972
-0.066115431 0.028868174 0.40800002 4279059742
-0.064472646 0.028726663 0.40600002 4278993947
-0.062998399 0.028655909 0.40500003 4279059740
-0.061530661 0.028585153 0.40400001 4279257119
-0.060218465 0.028585153 0.40400001 4279257119
-0.058760464 0.028514398 0.40300003 4279257119
-0.057308957 0.028443642 0.40200001 4279257119
-0.056003265 0.028443642 0.40200001 4279191840
-0.054561503 0.028372888 0.40100002 4278994461
-0.051697474 0.028231377 0.39900002 4278929181
-0.050401516 0.028231377 0.39900002 4279126562
-0.048982497 0.028160622 0.39800003 4279193125
-0.047689788 0.028160622 0.39800003 4279390504
-0.046513662 0.028231377 0.39900002 4279061539
-0.045217704 0.028231377 0.39900002 4279193125
-0.043921754 0.028231377 0.39900002 4279587629
-0.041744184 0.028514398 0.40300003 4281492294
-0.03922338 0.028585153 0.40400001 4281818696
-0.12049059 0.033524007 0.45300001 4282533691
-0.11182231 0.03270996 0.44200003 4280626462
-0.10988721 0.03256195 0.44000003 4280759844
-0.10821159 0.032487944 0.43900001 4281421106
-0.10629922 0.032339934 0.43700001 4279453215
-0.10439985 0.032191928 0.43500003 4279453215
-0.10275022 0.032117922 0.43400002 4279453728
-0.10087357 0.031969912 0.43200001 4279059740
-0.099009924 0.031821903 0.43000001 4279125533
-0.097159281 0.031673897 0.42800003 4278993947
-0.095545366 0.03159989 0.42700002 4279190556
-0.093937963 0.031525888 0.42600003 4278197504
-0.09233705 0.031451881 0.42500001 4279648029
-0.090742633 0.031377878 0.42400002 4280108578
-0.089154705 0.031303871 0.42300001 4278918926
-0.087573282 0.03122987 0.42200002 4279049742
-0.086202629 0.03122987 0.42200002 4278917390
-0.084429927 0.031081861 0.42000002 4278983437
-0.082867987 0.031007856 0.41900003 4279115023
-0.081312552 0.030933851 0.41800001 4278983437
-0.079954885 0.030933851 0.41800001 4278852111
-0.078409187 0.030859848 0.41700003 4278983697
-0.076869987 0.030785842 0.41600001 4278589963
-0.075337283 0.030711839 0.41500002 4280304424
-0.073989362 0.030711839 0.41500002 4278990359
-0.072466403 0.030637836 0.41400003 4278594574
-0.070949942 0.030563829 0.41300002 4278199045
-0.069271423 0.03041582 0.41100001 4278197248
-0.067771204 0.030341817 0.41000003 4278198790
-0.066115431 0.030193808 0.40800002 4278397197
-0.06463144 0.030119803 0.40700001 4278266890
-0.063153952 0.030045798 0.40600002 4279517727
-0.061682966 0.029971795 0.40500003 4279386654
-0.060218465 0.029897789 0.40400001 4279190045
-0.058760464 0.029823786 0.40300003 4279124763
-0.057451516 0.029823786 0.40300003 4279059740
-0.056003265 0.029749781 0.40200001 4279059742
-0.054561503 0.029675776 0.40100002 4278993947
-0.053259052 0.029675776 0.40100002 4278928668
-0.05182704 0.029601771 0.40000001 4279126047
-0.050527837 0.029601771 0.40000001 4279126049
-0.049105566 0.029527768 0.39900002 4278928670
-0.047809612 0.029527768 0.39900002 4278928670
-0.046630234 0.029601771 0.40000001 4279060769
-0.045331031 0.029601771 0.40000001 4278995746
-0.044031832 0.029601771 0.40000001 4278798367
-0.042946298 0.029749781 0.40200001 4279258664
-0.041744184 0.029823786 0.40300003 4278731298
-0.04043524 0.029823786 0.40300003 4286360206
-0.039126292 0.029823786 0.40300003 4279321125
-0.037817348 0.029823786 0.40300003 4280044848
-0.11650997 0.034686837 0.44900003 4281154091
-0.11428289 0.034455076 0.44600001 4280890147
-0.11182231 0.034146063 0.44200003 4280495389
-0.10988721 0.033991553 0.44000003 4282537023
-0.1079651 0.033837046 0.43800002 4280632104
-0.10605597 0.03368254 0.43600002 4279190043
-0.10439985 0.033605289 0.43500003 4279190556
-0.10251347 0.033450779 0.43300003 4279125533
-0.10064007 0.033296272 0.43100002 4279125533
-0.099009924 0.033219017 0.43000001 4279059740
-0.097159281 0.033064511 0.42800003 4279059740
-0.095545366 0.032987259 0.42700002 4279190043
-0.093937963 0.032910004 0.42600003 4278196736
-0.09233705 0.032832749 0.42500001 4279451164
-0.090742633 0.032755498 0.42400002 4279187478
-0.089154705 0.032678243 0.42300001 4278194946
-0.087573282 0.032600991 0.42200002 4278655756
-0.085998364 0.032523736 0.42100003 4280300581
-0.084429927 0.032446481 0.42000002 4279511063
-0.082867987 0.03236923 0.41900003 4279445783
-0.081312552 0.032291975 0.41800001 4280301862
-0.079954885 0.032291975 0.41800001 4279313686
-0.078409187 0.032214724 0.41700003 4279115537
-0.076869987 0.032137468 0.41600001 4278721549
-0.075518817 0.032137468 0.41600001 4280435497
-0.073989362 0.032060217 0.41500002 4279386141
-0.072466403 0.031982962 0.41400003 4279649313
-0.070949942 0.031905707 0.41300002 4279385887
-0.06943997 0.031828456 0.41200003 4279385887
-0.067771204 0.031673949 0.41000003 4279845668
-0.066277474 0.031596694 0.40900001 4279779361
-0.064790241 0.031519443 0.40800002 4280108326
-0.063309498 0.031442188 0.40700001 4279713568
-0.061835267 0.031364933 0.40600002 4278792468
-0.060367521 0.031287681 0.40500003 4278529296
-0.058906268 0.031210426 0.40400001 4278198536
-0.057451516 0.031133173 0.40300003 4278196224
-0.056003265 0.03105592 0.40200001 4278198533
-0.054697566 0.03105592 0.40200001 4278199818
-0.053259052 0.030978667 0.40100002 4278990359
-0.051956609 0.030978667 0.40100002 4279121945
-0.050527837 0.030901412 0.40000001 4279649572
-0.049228635 0.030901412 0.40000001 4279058459
-0.047929432 0.030901412 0.40000001 4279058972
-0.046746813 0.030978667 0.40100002 4278993949
-0.045444362 0.030978667 0.40100002 4278928670
-0.044141915 0.030978667 0.40100002 4278929183
-0.042946298 0.03105592 0.40200001 4278863136
-0.041744184 0.031133173 0.40300003 4279586859
-0.04043524 0.031133173 0.40300003 4279191588
-0.039126292 0.031133173 0.40300003 4279257381
-0.037817348 0.031133173 0.40300003 4279125281
-0.036508407 0.031133173 0.40300003 4279124513
-0.11182231 0.035582166 0.44200003 4281351722
-0.10988721 0.035421159 0.44000003 4280037405
-0.1079651 0.035260152 0.43800002 4280830253
-0.10605597 0.035099149 0.43600002 4279715615
-0.10415985 0.034938142 0.43400002 4279190554
-0.10227671 0.034777138 0.43200001 4279257631
-0.10064007 0.034696635 0.43100002 4279059738
-0.098779671 0.034535628 0.42900002 4279059738
-0.09693227 0.034374624 0.42700002 4279125531
-0.095321611 0.034294121 0.42600003 4279452445
-0.093717448 0.034213617 0.42500001 4278196736
-0.092119791 0.034133118 0.42400002 4279845922
-0.090742633 0.034133118 0.42400002 4278792466
-0.089154705 0.034052614 0.42300001 4278458886
-0.087573282 0.033972111 0.42200002 4278590472
-0.085998364 0.033891611 0.42100003 4278328070
-0.084429927 0.033811107 0.42000002 4279445783
-0.082867987 0.033730604 0.41900003 4278525453
-0.081312552 0.0336501 0.41800001 4278459658
-0.079954885 0.0336501 0.41800001 4278458888
-0.078409187 0.033569597 0.41700003 4280038690
-0.076869987 0.033489093 0.41600001 4278657550
-0.075518817 0.033489093 0.41600001 4280304424
-0.073989362 0.033408593 0.41500002 4279255068
-0.072466403 0.03332809 0.41400003 4278199817
-0.070949942 0.033247586 0.41300002 4278397197
-0.06943997 0.033167087 0.41200003 4279779877
-0.067936495 0.033086583 0.41100001 4278201612
-0.066439524 0.033006079 0.41000003 4278530578
-0.064949036 0.032925576 0.40900001 4279386654
-0.063465059 0.032845076 0.40800002 4278926103
-0.061835267 0.032684069 0.40600002 4279846951
-0.060367521 0.032603566 0.40500003 4279386400
-0.058906268 0.032523062 0.40400001 4279386400
-0.057594076 0.032523062 0.40400001 4279386400
-0.056142576 0.032442562 0.40300003 4279517473
-0.054697566 0.032362059 0.40200001 4279516703
-0.053391866 0.032362059 0.40200001 4280306219
-0.051956609 0.032281555 0.40100002 4279910947
-0.050654158 0.032281555 0.40100002 4279187226
-0.049351711 0.032281555 0.40100002 4278397710
-0.04804926 0.032281555 0.40100002 4278199561
-0.046746813 0.032281555 0.40100002 4279253019
-0.045444362 0.032281555 0.40100002 4278993695
-0.044251993 0.032362059 0.40200001 4278993949
-0.042946298 0.032362059 0.40200001 4278731291
-0.041744184 0.032442562 0.40300003 4278797084
-0.04043524 0.032442562 0.40300003 4278731804
-0.039126292 0.032442562 0.40300003 4278731804
-0.037817348 0.032442562 0.40300003 4278928670
-0.036508407 0.032442562 0.40300003 4278796570
-0.11156932 0.036934514 0.44100001 4282337845
-0.10963747 0.03676701 0.43900001 4281287726
-0.1077186 0.036599506 0.43700001 4280567594
-0.10581274 0.036432005 0.43500003 4279386652
-0.10415985 0.036348253 0.43400002 4279190554
-0.10227671 0.03618075 0.43200001 4279125531
-0.10040656 0.036013246 0.43000001 4279322910
-0.098779671 0.035929494 0.42900002 4278993945
-0.09693227 0.03576199 0.42700002 4278993945
-0.095321611 0.035678241 0.42600003 4279189275
-0.093717448 0.035594486 0.42500001 4278330119
-0.092119791 0.035510737 0.42400002 4279385371
-0.090742633 0.035510737 0.42400002 4279055638
-0.089154705 0.035426982 0.42300001 4278655754
-0.087573282 0.035343233 0.42200002 4278983949
-0.085998364 0.035259482 0.42100003 4278918926
-0.084429927 0.03517573 0.42000002 4279050512
-0.082867987 0.035091978 0.41900003 4278721549
-0.081312552 0.035008226 0.41800001 4278853135
-0.079954885 0.035008226 0.41800001 4280433961
-0.078409187 0.034924474 0.41700003 4280104996
-0.076869987 0.034840722 0.41600001 4278590474
-0.075518817 0.034840722 0.41600001 4279843873
-0.073989362 0.03475697 0.41500002 4278595087
-0.072466403 0.034673218 0.41400003 4278526476
-0.071121737 0.034673218 0.41400003 4278789136
-0.06960851 0.034589466 0.41300002 4279448348
-0.068101794 0.034505714 0.41200003 4279977254
-0.066601567 0.034421962 0.41100001 4279911461
-0.064949036 0.034254458 0.40900001 4279056152
-0.063465059 0.03417071 0.40800002 4279648291
-0.061987568 0.034086954 0.40700001 4278398994
-0.060516577 0.034003206 0.40600002 4278991896
-0.05905208 0.033919454 0.40500003 4279386654
-0.057594076 0.033835702 0.40400001 4279255068
-0.056281887 0.033835702 0.40400001 4279124252
-0.054833632 0.03375195 0.40300003 4279058459
-0.053524684 0.03375195 0.40300003 4279321631
-0.052086174 0.033668198 0.40200001 4279255838
-0.050780475 0.033668198 0.40200001 4279255838
-0.04947478 0.033668198 0.40200001 4279321631
-0.04816908 0.033668198 0.40200001 4279451680
-0.046863385 0.033668198 0.40200001 4278197250
-0.045557689 0.033668198 0.40200001 4279058718
-0.044251993 0.033668198 0.40200001 4278993949
-0.043053132 0.03375195 0.40300003 4278797084
-0.041744184 0.03375195 0.40300003 4278797084
-0.04043524 0.03375195 0.40300003 4278797084
-0.039126292 0.03375195 0.40300003 4278797084
-0.037817348 0.03375195 0.40300003 4278796570
-0.036508407 0.03375195 0.40300003 4278335249
-0.11131633 0.038280368 0.44000003 4280295436
-0.10938773 0.038106367 0.43800002 4279247109
-0.10747211 0.037932366 0.43600002 4280304161
-0.10581274 0.037845366 0.43500003 4279452445
-0.10391985 0.037671361 0.43300003 4279387935
-0.10227671 0.037584361 0.43200001 4279387935
-0.10040656 0.03741036 0.43000001 4279190554
-0.098779671 0.037323359 0.42900002 4278993945
-0.09693227 0.037149355 0.42700002 4279059738
-0.095321611 0.037062358 0.42600003 4278992664
-0.093717448 0.036975354 0.42500001 4279121685
-0.09233705 0.036975354 0.42500001 4279319578
-0.090742633 0.036888354 0.42400002 4279516443
-0.089154705 0.036801353 0.42300001 4278721549
-0.087573282 0.036714353 0.42200002 4278983951
-0.085998364 0.036627352 0.42100003 4278917390
-0.084429927 0.036540352 0.42000002 4278917390
-0.082867987 0.036453351 0.41900003 4279114769
-0.081507079 0.036453351 0.41900003 4278917390
-0.079954885 0.036366347 0.41800001 4278720779
-0.078409187 0.036279351 0.41700003 4278655756
-0.077054776 0.036279351 0.41700003 4278590472
-0.075518817 0.036192346 0.41600001 4279909664
-0.073989362 0.036105346 0.41500002 4279317527
-0.07264144 0.036105346 0.41500002 4278788621
-0.071121737 0.036018349 0.41400003 4278854418
-0.06960851 0.035931345 0.41300002 4280236582
-0.068101794 0.035844345 0.41200003 4279779363
-0.066601567 0.035757344 0.41100001 4279253019
-0.065107845 0.035670344 0.41000003 4278989845
-0.063620605 0.03558334 0.40900001 4279450912
-0.062139876 0.035496343 0.40800002 4279320096
-0.06066563 0.035409339 0.40700001 4279582498
-0.059197884 0.035322338 0.40600002 4279646240
-0.057736639 0.035235338 0.40500003 4279975205
-0.056281887 0.035148337 0.40400001 4279581984
-0.054969691 0.035148337 0.40400001 4278200844
-0.053524684 0.035061337 0.40300003 4278201356
-0.052215744 0.035061337 0.40300003 4278991642
-0.050906796 0.035061337 0.40300003 4278399759
-0.049597852 0.035061337 0.40300003 4279190558
-0.048288908 0.035061337 0.40300003 4279255584
-0.046979964 0.035061337 0.40300003 4278198792
-0.045671016 0.035061337 0.40300003 4279124513
-0.044362072 0.035061337 0.40300003 4279059742
-0.043053132 0.035061337 0.40300003 4279059742
-0.041744184 0.035061337 0.40300003 4278797084
-0.04043524 0.035061337 0.40300003 4278797084
-0.039126292 0.035061337 0.40300003 4278533912
-0.037817348 0.035061337 0.40300003 4278730007
-0.036508407 0.035061337 0.40300003 4278730007
-0.03519946 0.035061337 0.40300003 4279316766
-0.11106334 0.039619725 0.43900001 4281413402
-0.10938773 0.039529476 0.43800002 4279903754
-0.10747211 0.039348975 0.43600002 4280304159
-0.10556948 0.039168477 0.43400002 4279584029
-0.10391985 0.039078228 0.43300003 4279255834
-0.10227671 0.038987976 0.43200001 4279255836
-0.10040656 0.038807474 0.43000001 4279256349
-0.098779671 0.038717225 0.42900002 4278993947
-0.09693227 0.038536727 0.42700002 4278862361
-0.095321611 0.038446479 0.42600003 4278794002
-0.093937963 0.038446479 0.42600003 4279055379
-0.09233705 0.038356226 0.42500001 4279386141
-0.090742633 0.038265977 0.42400002 4279386654
-0.089154705 0.038175724 0.42300001 4279516703
-0.087573282 0.038085476 0.42200002 4279910949
-0.085998364 0.037995227 0.42100003 4279777826
-0.084429927 0.037904978 0.42000002 4278854927
-0.083065763 0.037904978 0.42000002 4278525451
-0.081507079 0.037814729 0.41900003 4278195716
-0.079954885 0.037724476 0.41800001 4278589963
-0.078597218 0.037724476 0.41800001 4278983951
-0.077054776 0.037634227 0.41700003 4278655754
-0.075518817 0.037543975 0.41600001 4279909153
-0.074167646 0.037543975 0.41600001 4280042020
-0.07264144 0.037453726 0.41500002 4279579418
-0.071121737 0.037363477 0.41400003 4279512857
-0.06960851 0.037273228 0.41300002 4279713057
-0.068101794 0.037182979 0.41200003 4279779363
-0.066763617 0.037182979 0.41200003 4279582498
-0.065266639 0.037092727 0.41100001 4279516703
-0.063776158 0.037002478 0.41000003 4278198787
-0.062292177 0.036912225 0.40900001 4278529808
-0.06081469 0.036821976 0.40800002 4279845670
-0.059343692 0.036731727 0.40700001 4278726675
-0.057879195 0.036641479 0.40600002 4278197766
-0.056421202 0.03655123 0.40500003 4280371246
-0.054969691 0.036460977 0.40400001 4279582244
-0.053657498 0.036460977 0.40400001 4278198021
-0.052215744 0.036370728 0.40300003 4278197765
-0.050906796 0.036370728 0.40300003 4278858261
-0.049597852 0.036370728 0.40300003 4279386400
-0.048288908 0.036370728 0.40300003 4279320607
-0.046979964 0.036370728 0.40300003 4278265870
-0.045671016 0.036370728 0.40300003 4279123998
-0.044362072 0.036370728 0.40300003 4279058718
-0.043053132 0.036370728 0.40300003 4278993695
-0.041744184 0.036370728 0.40300003 4278928156
-0.04043524 0.036370728 0.40300003 4278928156
-0.039126292 0.036370728 0.40300003 4278928156
-0.037817348 0.036370728 0.40300003 4279058972
-0.036508407 0.036370728 0.40300003 4279453730
-0.03519946 0.036370728 0.40300003 4279053592
-0.10722561 0.040672086 0.43500003 4281222694
-0.10556948 0.040578585 0.43400002 4279713818
-0.10391985 0.040485088 0.43300003 4279452443
-0.10227671 0.040391587 0.43200001 4279255834
-0.10064007 0.040298089 0.43100002 4279058968
-0.098779671 0.040111091 0.42900002 4278796566
-0.097159281 0.040017594 0.42800003 4278928154
-0.095545366 0.039924093 0.42700002 4279190043
-0.093937963 0.039830595 0.42600003 4279320859
-0.09233705 0.039737094 0.42500001 4279649311
-0.090956643 0.039737094 0.42500001 4279189273
-0.089365482 0.039643597 0.42400002 4279255066
-0.087780803 0.039550096 0.42300001 4279058457
-0.086202629 0.039456598 0.42200002 4279190043
-0.084630951 0.039363101 0.42100003 4279386654
-0.083065763 0.0392696 0.42000002 4279320859
-0.081507079 0.039176103 0.41900003 4279452445
-0.080146164 0.039176103 0.41900003 4279846692
-0.078597218 0.039082602 0.41800001 4279582236
-0.077054776 0.038989104 0.41700003 4280239912
-0.075700358 0.038989104 0.41700003 4279450396
-0.074167646 0.038895603 0.41600001 4278660369
-0.07264144 0.038802106 0.41500002 4278197763
-0.071121737 0.038708605 0.41400003 4278195968
-0.069777057 0.038708605 0.41400003 4278196740
-0.068267085 0.038615108 0.41300002 4278198281
-0.066763617 0.038521606 0.41200003 4279384092
-0.065266639 0.038428109 0.41100001 4279253019
-0.063776158 0.038334608 0.41000003 4279779361
-0.062292177 0.038241111 0.40900001 4279977254
-0.06081469 0.03814761 0.40800002 4279386141
-0.059343692 0.038054112 0.40700001 4279386141
-0.057879195 0.037960611 0.40600002 4279386141
-0.056421202 0.037867114 0.40500003 4279385887
-0.055105757 0.037867114 0.40500003 4279254303
-0.053657498 0.037773613 0.40400001 4279254303
-0.052345309 0.037773613 0.40400001 4278990361
-0.051033117 0.037773613 0.40400001 4278199049
-0.049720924 0.037773613 0.40400001 4279254303
-0.048288908 0.037680116 0.40300003 4279189023
-0.046979964 0.037680116 0.40300003 4278333201
-0.045671016 0.037680116 0.40300003 4279189791
-0.044362072 0.037680116 0.40300003 4279124511
-0.043053132 0.037680116 0.40300003 4279190304
-0.041744184 0.037680116 0.40300003 4278927132
-0.04043524 0.037680116 0.40300003 4278993949
-0.039126292 0.037680116 0.40300003 4278862363
-0.037817348 0.037680116 0.40300003 4278993179
-0.036508407 0.037680116 0.40300003 4278993179
-0.03519946 0.037680116 0.40300003 4278461455
-0.10722561 0.042085446 0.43500003 4281087515
-0.10556948 0.041988697 0.43400002 4279841813
-0.10391985 0.041891947 0.43300003 4279448852
-0.10251347 0.041891947 0.43300003 4279385369
-0.10064007 0.041698452 0.43100002 4279451162
-0.099009924 0.041601703 0.43000001 4279320346
-0.097159281 0.041408207 0.42800003 4279189273
-0.095545366 0.041311458 0.42700002 4279189273
-0.093937963 0.041214712 0.42600003 4279189273
-0.092554316 0.041214712 0.42600003 4279255066
-0.090956643 0.041117962 0.42500001 4279255066
-0.089365482 0.041021217 0.42400002 4279255066
-0.087780803 0.040924467 0.42300001 4279058457
-0.086202629 0.040827718 0.42200002 4279058457
-0.084630951 0.040730972 0.42100003 4279124250
-0.083263539 0.040730972 0.42100003 4279124763
-0.081701607 0.040634222 0.42000002 4278927384
-0.080146164 0.040537477 0.41900003 4279058970
-0.078785248 0.040537477 0.41900003 4279124763
-0.077239558 0.040440727 0.41800001 4279321629
-0.075700358 0.040343978 0.41700003 4279321629
-0.074345939 0.040343978 0.41700003 4279255838
-0.072816476 0.040247228 0.41600001 4279321631
-0.071293525 0.040150482 0.41500002 4279451680
-0.069777057 0.040053736 0.41400003 4279451680
-0.068267085 0.039956983 0.41300002 4279582496
-0.066763617 0.039860237 0.41200003 4280108840
-0.065266639 0.039763488 0.41100001 4279713568
-0.063776158 0.039666742 0.41000003 4279253019
-0.062292177 0.039569993 0.40900001 4278462990
-0.06081469 0.039473243 0.40800002 4278198277
-0.059343692 0.039376494 0.40700001 4278197763
-0.058021754 0.039376494 0.40700001 4278396427
-0.056560513 0.039279748 0.40600002 4278726162
-0.055105757 0.039183002 0.40500003 4278989847
-0.053790316 0.039183002 0.40500003 4279319324
-0.052345309 0.039086252 0.40400001 4279516703
-0.051033117 0.039086252 0.40400001 4279517473
-0.049720924 0.039086252 0.40400001 4279583779
-0.048408728 0.039086252 0.40400001 4279451682
-0.047096539 0.039086252 0.40400001 4278529810
-0.045784343 0.039086252 0.40400001 4279321377
-0.044362072 0.038989503 0.40300003 4279124765
-0.043053132 0.038989503 0.40300003 4279124765
-0.041744184 0.038989503 0.40300003 4279058972
-0.04043524 0.038989503 0.40300003 4279190556
-0.039126292 0.038989503 0.40300003 4278993177
-0.037817348 0.038989503 0.40300003 4278992664
-0.036508407 0.038989503 0.40300003 4278992664
-0.10298698 0.043498803 0.43500003 4281089313
-0.10087357 0.043198809 0.43200001 4279510795
-0.099009924 0.042998817 0.43000001 4280105498
-0.097386286 0.042898819 0.42900002 4279909403
-0.09576913 0.042798825 0.42800003 4279515928
-0.094158471 0.042698827 0.42700002 4279450648
-0.092554316 0.042598829 0.42600003 4279385369
-0.091170669 0.042598829 0.42600003 4279188760
-0.089576244 0.042498831 0.42500001 4278991381
-0.087988324 0.042398833 0.42400002 4279189273
-0.086406901 0.042298835 0.42300001 4278926101
-0.084831975 0.042198841 0.42200002 4279189273
-0.083263539 0.042098843 0.42100003 4278861078
-0.081701607 0.041998845 0.42000002 4278927384
-0.080337442 0.041998845 0.42000002 4278993177
-0.078785248 0.04189885 0.41900003 4279058970
-0.07742434 0.04189885 0.41900003 4278795798
-0.075881891 0.041798849 0.41800001 4279124763
-0.074345939 0.041698854 0.41700003 4279058970
-0.072816476 0.041598856 0.41600001 4279256349
-0.071293525 0.041498858 0.41500002 4279124763
-0.069945604 0.041498858 0.41500002 4279190556
-0.068432383 0.041398864 0.41400003 4279124763
-0.066925667 0.041298863 0.41300002 4279124765
-0.065425441 0.041198868 0.41200003 4279190558
-0.063931711 0.04109887 0.41100001 4279190558
-0.062444482 0.040998872 0.41000003 4279255838
-0.060963742 0.040898874 0.40900001 4279320861
-0.0594895 0.040798876 0.40800002 4279386654
-0.058021754 0.040698878 0.40700001 4279649826
-0.056560513 0.040598884 0.40600002 4279517473
-0.055105757 0.040498886 0.40500003 4280043049
-0.053790316 0.040498886 0.40500003 4279318812
-0.052345309 0.040398888 0.40400001 4278594576
-0.051033117 0.040398888 0.40400001 4278197766
-0.049720924 0.040398888 0.40400001 4278197766
-0.048408728 0.040398888 0.40400001 4278197252
-0.047096539 0.040398888 0.40400001 4279647777
-0.045784343 0.040398888 0.40400001 4279256351
-0.044472151 0.040398888 0.40400001 4279256351
-0.043053132 0.040298894 0.40300003 4279190556
-0.041744184 0.040298894 0.40300003 4278927384
-0.04043524 0.040298894 0.40300003 4279256349
-0.039126292 0.040298894 0.40300003 4279058970
-0.037817348 0.040298894 0.40300003 4278861078
-0.036508407 0.040298894 0.40300003 4278926101
-0.097386286 0.044292685 0.42900002 4279903243
-0.09576913 0.044189438 0.42800003 4279378184
-0.094158471 0.044086192 0.42700002 4279049219
-0.092771575 0.044086192 0.42700002 4278852099
-0.091170669 0.043982945 0.42600003 4278656004
-0.089576244 0.043879699 0.42500001 4278855433
-0.087988324 0.043776453 0.42400002 4279579154
-0.086406901 0.043673206 0.42300001 4279778330
-0.084831975 0.04356996 0.42200002 4279251986
-0.083461314 0.04356996 0.42200002 4279319062
-0.081896134 0.043466717 0.42100003 4279319576
-0.080528729 0.043466717 0.42100003 4279320344
-0.078973278 0.043363467 0.42000002 4279254551
-0.07742434 0.04326022 0.41900003 4279451932
-0.075881891 0.043156974 0.41800001 4279452445
-0.074524224 0.043156974 0.41800001 4279452445
-0.07299152 0.043053728 0.41700003 4279649826
-0.071465313 0.042950481 0.41600001 4279452447
-0.069945604 0.042847235 0.41500002 4279452447
-0.068432383 0.042743992 0.41400003 4279453215
-0.066925667 0.042640742 0.41300002 4279190558
-0.065425441 0.042537499 0.41200003 4279124765
-0.063931711 0.042434249 0.41100001 4279190558
-0.062444482 0.042331006 0.41000003 4279190558
-0.060963742 0.042227756 0.40900001 4279190556
-0.0594895 0.04212451 0.40800002 4279256349
-0.058021754 0.042021263 0.40700001 4279256349
-0.056560513 0.041918017 0.40600002 4279256097
-0.055241819 0.041918017 0.40600002 4279124511
-0.053790316 0.041814774 0.40500003 4279321377
-0.052474879 0.041814774 0.40500003 4279321377
-0.051033117 0.041711524 0.40400001 4279649059
-0.049720924 0.041711524 0.40400001 4279451680
-0.048408728 0.041711524 0.40400001 4279649059
-0.047096539 0.041711524 0.40400001 4279452193
-0.045784343 0.041711524 0.40400001 4279256097
-0.044472151 0.041711524 0.40400001 4279059742
-0.043159962 0.041711524 0.40400001 4278928154
-0.041847765 0.041711524 0.40400001 4278862361
-0.04043524 0.041608281 0.40300003 4278993949
-0.039126292 0.041608281 0.40300003 4278664984
-0.037817348 0.041608281 0.40300003 4278729240
-0.036508407 0.041608281 0.40300003 4278266636
-0.092771575 0.045473557 0.42700002 4279573258
-0.091384679 0.045473557 0.42700002 4279375879
-0.089787014 0.045367062 0.42600003 4279442442
-0.087988324 0.045154072 0.42400002 4279245063
-0.086611174 0.045154072 0.42400002 4279312139
-0.085032992 0.045047574 0.42300001 4279246859
-0.083461314 0.044941083 0.42200002 4279116555
-0.081896134 0.044834588 0.42100003 4279446287
-0.080528729 0.044834588 0.42100003 4279644434
-0.078973278 0.044728089 0.42000002 4279907606
-0.077609122 0.044728089 0.42000002 4279514393
-0.076063432 0.044621594 0.41900003 4279448600
-0.074524224 0.044515099 0.41800001 4279515676
-0.07299152 0.044408605 0.41700003 4280042535
-0.071465313 0.044302106 0.41600001 4279845668
-0.069945604 0.044195615 0.41500002 4279911461
-0.068597674 0.044195615 0.41500002 4279977508
-0.067087717 0.04408912 0.41400003 4279846692
-0.065584242 0.043982621 0.41300002 4279584549
-0.064087264 0.043876126 0.41200003 4279452963
-0.062596783 0.043769632 0.41100001 4279452965
-0.061112799 0.043663137 0.41000003 4279452963
-0.059635308 0.043556638 0.40900001 4279255838
-0.058164313 0.043450143 0.40800002 4279321631
-0.05669982 0.043343648 0.40700001 4279518756
-0.055241819 0.043237153 0.40600002 4279452963
-0.053790316 0.043130659 0.40500003 4279321377
-0.052474879 0.043130659 0.40500003 4279452963
-0.051159438 0.043130659 0.40500003 4279452963
-0.049720924 0.043024164 0.40400001 4279189791
-0.048408728 0.043024164 0.40400001 4279321377
-0.047096539 0.043024164 0.40400001 4279452963
-0.045784343 0.043024164 0.40400001 4279190304
-0.044472151 0.043024164 0.40400001 4278927902
-0.043159962 0.043024164 0.40400001 4279125535
-0.041847765 0.043024164 0.40400001 4278862363
-0.040535573 0.043024164 0.40400001 4278795546
-0.03922338 0.043024164 0.40400001 4278927134
-0.037817348 0.042917669 0.40300003 4278991131
-0.036508407 0.042917669 0.40300003 4279448863
-0.069945604 0.045543991 0.41500002 4284973167
-0.068597674 0.045543991 0.41500002 4283132760
-0.067087717 0.045434248 0.41400003 4282080585
-0.065584242 0.045324501 0.41300002 4280764721
-0.064087264 0.045214757 0.41200003 4279975459
-0.062596783 0.04510501 0.41100001 4279974946
-0.061112799 0.044995267 0.41000003 4279777313
-0.059635308 0.04488552 0.40900001 4279515424
-0.058164313 0.044775777 0.40800002 4279318558
-0.05669982 0.044666033 0.40700001 4279582248
-0.055241819 0.04455629 0.40600002 4279648041
-0.053790316 0.044446547 0.40500003 4279845420
-0.052474879 0.044446547 0.40500003 4280371248
-0.051159438 0.044446547 0.40500003 4280108074
-0.049720924 0.0443368 0.40400001 4280240174
-0.048408728 0.0443368 0.40400001 4279714600
-0.047096539 0.0443368 0.40400001 4279648807
-0.045784343 0.0443368 0.40400001 4279714854
-0.044472151 0.0443368 0.40400001 4279649061
-0.043159962 0.0443368 0.40400001 4279583781
-0.041847765 0.0443368 0.40400001 4279583781
-0.040535573 0.0443368 0.40400001 4279451941
-0.03922338 0.0443368 0.40400001 4279385635
-0.037911188 0.0443368 0.40400001 4280565545
-0.061112799 0.046327401 0.41000003 4285828476
-0.059635308 0.046214405 0.40900001 4286223747
-0.058164313 0.04610141 0.40800002 4286157954
-0.05669982 0.045988414 0.40700001 4286158468
-0.055241819 0.045875423 0.40600002 4286290824
-0.053790316 0.045762431 0.40500003 4285961859
-0.052474879 0.045762431 0.40500003 4285632892
-0.051159438 0.045762431 0.40500003 4285567101
-0.049720924 0.045649435 0.40400001 4285172343
-0.048408728 0.045649435 0.40400001 4284580204
-0.047096539 0.045649435 0.40400001 4283593309
-0.045784343 0.045649435 0.40400001 4282869586
-0.044472151 0.045649435 0.40400001 4282540619
-0.043159962 0.045649435 0.40400001 4281948482
-0.041847765 0.045649435 0.40400001 4281356858
-0.040535573 0.045649435 0.40400001 4282080583
-0.03922338 0.045649435 0.40400001 4284316260
-0.055241819 0.047194559 0.40600002 4285828222
-0.053790316 0.047078319 0.40500003 4285762429
-0.052474879 0.047078319 0.40500003 4285828476
-0.051159438 0.047078319 0.40500003 4285631097
-0.049720924 0.046962075 0.40400001 4285368438
-0.048408728 0.046962075 0.40400001 4285236852
-0.047096539 0.046962075 0.40400001 4284973680
-0.045784343 0.046962075 0.40400001 4284842092
-0.040535573 0.046962075 0.40400001 4284776299
-0.073881686 0.035538021 0.42057252 4294967295
-0.073881686 0.035538021 0.42057252 4294901760
-0.073881686 0.035538021 0.42107251 4294901760
-0.073881686 0.035538021 0.42157251 4294901760
-0.073881686 0.035538021 0.42207253 4294901760
-0.073881686 0.035538021 0.42257252 4294901760
-0.073881686 0.035538021 0.42307252 4294901760
-0.073881686 0.035538021 0.42357251 4294901760
-0.073881686 0.035538021 0.42407253 4294901760
-0.073881686 0.035538021 0.42457253 4294901760
-0.073881686 0.035538021 0.42507252 4294901760
-0.073881686 0.035538021 0.42557251 4294901760
-0.073881686 0.035538021 0.42607251 4294901760
-0.073881686 0.035538021 0.42657253 4294901760
-0.073881686 0.035538021 0.42707253 4294901760
-0.073881686 0.035538021 0.42757252 4294901760
-0.073881686 0.035538021 0.42807251 4294901760
-0.073881686 0.035538021 0.42857254 4294901760
-0.073881686 0.035538021 0.42907253 4294901760
-0.073881686 0.035538021 0.42957252 4294901760
-0.073881686 0.035538021 0.43007252 4294901760
-0.073881686 0.035538021 0.43057251 4294901760
-0.073881686 0.035538021 0.43107253 4294901760
-0.073881686 0.035538021 0.43157253 4294901760
-0.073881686 0.035538021 0.43207252 4294901760
-0.073881686 0.035538021 0.43257251 4294901760
-0.073881686 0.035538021 0.43307251 4294901760
-0.073881686 0.035538021 0.43357253 4294901760
-0.073881686 0.035538021 0.43407252 4294901760
-0.073881686 0.035538021 0.43457252 4294901760
-0.073881686 0.035538021 0.43507251 4294901760
-0.073881686 0.035538021 0.43557253 4294901760
-0.073881686 0.035538021 0.43607253 4294901760
-0.073881686 0.035538021 0.43657252 4294901760
-0.073881686 0.035538021 0.43707252 4294901760
-0.073881686 0.035538021 0.43757254 4294901760
-0.073881686 0.035538021 0.43807253 4294901760
-0.073881686 0.035538021 0.43857253 4294901760
-0.073881686 0.035538021 0.43907252 4294901760
-0.073881686 0.035538021 0.43957251 4294901760
-0.073881686 0.035538021 0.44007254 4294901760
-0.073881686 0.035538021 0.44057253 4294901760
-0.073881686 0.035538021 0.44107252 4294901760
-0.073881686 0.035538021 0.44157252 4294901760
-0.073881686 0.035538021 0.44207251 4294901760
-0.073881686 0.035538021 0.44257253 4294901760
-0.073881686 0.035538021 0.44307253 4294901760
-0.073881686 0.035538021 0.44357252 4294901760
-0.073881686 0.035538021 0.44407251 4294901760
-0.073881686 0.035538021 0.44457254 4294901760
-0.073881686 0.035538021 0.44507253 4294901760
-0.073881686 0.035538021 0.44557253 4294901760
-0.073881686 0.035538021 0.44607252 4294901760
-0.073881686 0.035538021 0.44657251 4294901760
-0.073881686 0.035538021 0.44707254 4294901760
-0.073881686 0.035538021 0.44757253 4294901760
-0.073881686 0.035538021 0.44807252 4294901760
-0.073881686 0.035538021 0.44857252 4294901760
-0.073881686 0.035538021 0.44907254 4294901760
-0.073881686 0.035538021 0.44957253 4294901760
-0.073881686 0.035538021 0.45007253 4294901760
-0.073881686 0.035538021 0.45057252 4294901760
-0.073881686 0.035538021 0.45107251 4294901760
-0.073881686 0.035538021 0.45157254 4294901760
-0.073881686 0.035538021 0.45207253 4294901760
-0.073881686 0.035538021 0.45257252 4294901760
-0.073881686 0.035538021 0.45307252 4294901760
-0.073881686 0.035538021 0.45357254 4294901760
-0.073881686 0.035538021 0.45407254 4294901760
-0.073881686 0.035538021 0.45457253 4294901760
-0.073881686 0.035538021 0.45507252 4294901760
-0.073881686 0.035538021 0.45557252 4294901760
-0.073881686 0.035538021 0.45607254 4294901760
-0.073881686 0.035538021 0.45657253 4294901760
-0.073881686 0.035538021 0.45707253 4294901760
-0.073881686 0.035538021 0.45757252 4294901760
-0.073881686 0.035538021 0.45807254 4294901760
-0.073881686 0.035538021 0.45857254 4294901760
-0.073881686 0.035538021 0.45907253 4294901760
-0.073881686 0.035538021 0.45957252 4294901760
-0.073881686 0.035538021 0.46007252 4294901760
-0.073881686 0.035538021 0.46057254 4294901760
-0.073881686 0.035538021 0.46107253 4294901760
-0.073881686 0.035538021 0.46157253 4294901760
-0.073881686 0.035538021 0.46207252 4294901760
-0.073881686 0.035538021 0.46257252 4294901760
-0.073881686 0.035538021 0.46307254 4294901760
-0.073881686 0.035538021 0.46357253 4294901760
-0.073881686 0.035538021 0.46407253 4294901760
-0.073881686 0.035538021 0.46457252 4294901760
-0.073881686 0.035538021 0.46507251 4294901760
-0.073881686 0.035538021 0.46557254 4294901760
-0.073881686 0.035538021 0.46607253 4294901760
-0.073881686 0.035538021 0.46657252 4294901760
-0.073881686 0.035538021 0.46707255 4294901760
-0.073881686 0.035538021 0.46757254 4294901760
-0.073881686 0.035538021 0.46807253 4294901760
-0.073881686 0.035538021 0.46857253 4294901760
-0.073881686 0.035538021 0.46907252 4294901760
-0.073881686 0.035538021 0.46957254 4294901760
-0.073881686 0.035538021 0.47007254 4294901760
-0.073881686 0.035538021 0.47057253 4294901760
-0.073881686 0.035538021 0.42057252 4278255360
-0.073645338 0.035404835 0.42099252 4278255360
-0.073408984 0.035271648 0.42141253 4278255360
-0.073172636 0.035138462 0.42183253 4278255360
-0.072936282 0.035005271 0.42225251 4278255360
-0.072699934 0.034872085 0.42267251 4278255360
-0.072463587 0.034738898 0.42309251 4278255360
-0.072227232 0.034605712 0.42351252 4278255360
-0.071990885 0.034472525 0.42393252 4278255360
-0.07175453 0.034339339 0.42435253 4278255360
-0.071518183 0.034206152 0.4247725 4278255360
-0.071281835 0.034072962 0.42519251 4278255360
-0.071045481 0.033939775 0.42561251 4278255360
-0.070809133 0.033806589 0.42603251 4278255360
-0.070572786 0.033673402 0.42645252 4278255360
-0.070336431 0.033540215 0.42687252 4278255360
-0.070100084 0.033407029 0.42729253 4278255360
-0.069863729 0.033273842 0.4277125 4278255360
-0.069627382 0.033140652 0.4281325 4278255360
-0.069391035 0.033007465 0.42855251 4278255360
-0.06915468 0.032874279 0.42897251 4278255360
-0.068918332 0.032741092 0.42939252 4278255360
-0.068681978 0.032607906 0.42981252 4278255360
-0.06844563 0.032474719 0.43023252 4278255360
-0.068209283 0.032341532 0.4306525 4278255360
-0.067972928 0.032208346 0.4310725 4278255360
-0.067736581 0.032075156 0.43149251 4278255360
-0.067500226 0.031941969 0.43191251 4278255360
-0.067263879 0.031808782 0.43233252 4278255360
-0.067027532 0.031675596 0.43275252 4278255360
-0.066791177 0.031542409 0.43317252 4278255360
-0.066554829 0.031409223 0.4335925 4278255360
-0.066318482 0.031276032 0.4340125 4278255360
-0.066082127 0.031142848 0.43443251 4278255360
-0.06584578 0.031009659 0.43485251 4278255360
-0.065609425 0.030876473 0.43527251 4278255360
-0.065373078 0.030743286 0.43569252 4278255360
-0.065136731 0.030610099 0.43611249 4278255360
-0.064900376 0.030476913 0.4365325 4278255360
-0.064664029 0.030343724 0.4369525 4278255360
-0.064427674 0.030210538 0.43737251 4278255360
-0.064191326 0.030077349 0.43779251 4278255360
-0.063954979 0.029944163 0.43821251 4278255360
-0.063718624 0.029810976 0.43863252 4278255360
-0.063482277 0.02967779 0.43905249 4278255360
-0.063245922 0.029544603 0.4394725 4278255360
-0.063009575 0.029411415 0.4398925 4278255360
-0.062773228 0.029278228 0.4403125 4278255360
-0.062536873 0.029145041 0.44073251 4278255360
-0.062300526 0.029011853 0.44115251 4278255360
-0.062064175 0.028878666 0.44157249 4278255360
-0.061827824 0.02874548 0.44199249 4278255360
-0.061591476 0.028612293 0.4424125 4278255360
-0.061355125 0.028479105 0.4428325 4278255360
-0.061118774 0.028345918 0.4432525 4278255360
-0.060882423 0.02821273 0.44367251 4278255360
-0.060646072 0.028079543 0.44409251 4278255360
-0.060409725 0.027946357 0.44451249 4278255360
-0.060173374 0.02781317 0.44493249 4278255360
-0.059937023 0.027679984 0.44535249 4278255360
-0.059700672 0.027546795 0.4457725 4278255360
-0.059464321 0.027413609 0.4461925 4278255360
-0.059227973 0.02728042 0.44661251 4278255360
-0.058991622 0.027147233 0.44703251 4278255360
-0.058755271 0.027014047 0.44745249 4278255360
-0.058518924 0.02688086 0.44787249 4278255360
-0.058282569 0.026747674 0.44829249 4278255360
-0.058046222 0.026614485 0.4487125 4278255360
-0.057809871 0.026481299 0.4491325 4278255360
-0.05757352 0.02634811 0.44955251 4278255360
-0.057337172 0.026214924 0.44997251 4278255360
-0.057100821 0.026081737 0.45039248 4278255360
-0.05686447 0.025948551 0.45081249 4278255360
-0.056628119 0.025815364 0.45123249 4278255360
-0.056391768 0.025682176 0.4516525 4278255360
-0.056155421 0.025548989 0.4520725 4278255360
-0.05591907 0.025415802 0.45249251 4278255360
-0.055682719 0.025282614 0.45291248 4278255360
-0.055446371 0.025149427 0.45333248 4278255360
-0.055210017 0.025016241 0.45375249 4278255360
-0.054973669 0.024883054 0.45417249 4278255360
-0.054737318 0.024749868 0.4545925 4278255360
-0.054500967 0.024616679 0.4550125 4278255360
-0.05426462 0.024483493 0.45543247 4278255360
-0.054028265 0.024350304 0.45585248 4278255360
-0.053791918 0.024217118 0.45627248 4278255360
-0.053555567 0.024083931 0.45669249 4278255360
-0.053319216 0.023950744 0.45711249 4278255360
-0.053082868 0.023817558 0.4575325 4278255360
-0.052846514 0.023684369 0.4579525 4278255360
-0.052610166 0.023551183 0.45837247 4278255360
-0.052373815 0.023417994 0.45879248 4278255360
-0.052137464 0.023284808 0.45921248 4278255360
-0.051901117 0.023151621 0.45963249 4278255360
-0.051664762 0.023018435 0.46005249 4278255360
-0.051428415 0.022885248 0.46047249 4278255360
-0.051192068 0.022752061 0.4608925 4278255360
-0.050955713 0.022618871 0.46131247 4278255360
-0.050719365 0.022485685 0.46173248 4278255360
-0.050483011 0.022352498 0.46215248 4278255360
-0.050246663 0.022219311 0.46257249 4278255360
