# .PCD v0.7 - Point Cloud Data file format
VERSION 0.7
FIELDS x y z rgb
SIZE 4 4 4 4
TYPE F F F U
COUNT 1 1 1 1
WIDTH 1068
HEIGHT 1
VIEWPOINT 0 0 0 1 0 0 0
POINTS 1068
DATA ascii
0.069698036 0.039178807 0.35700002 4279911713
0.070659086 0.03906906 0.35600001 4279846690
0.071815372 0.03906906 0.35600001 4279649313
0.072766684 0.038959317 0.35500002 4279189275
0.0737115 0.03884957 0.354 4279320348
0.074438356 0.038630083 0.35200003 4279187990
0.075366922 0.038520336 0.35100001 4279319576
0.076289006 0.038410597 0.35000002 4279385369
0.077204593 0.038300849 0.34900001 4279319576
0.078113675 0.038191106 0.34800002 4279385369
0.079243988 0.038191106 0.34800002 4279122199
0.080143325 0.038081359 0.347 4279318297
0.081270382 0.038081359 0.347 4279251221
0.082397439 0.038081359 0.347 4278988051
0.083524495 0.038081359 0.347 4279712285
0.084407598 0.037971616 0.34600002 4279516443
0.085531406 0.037971616 0.34600002 4279253271
0.086655214 0.037971616 0.34600002 4279187478
0.087779023 0.037971616 0.34600002 4279253271
0.088902831 0.037971616 0.34600002 4279319064
0.086935401 0.036215704 0.33000001 4279187992
0.088007249 0.036215704 0.33000001 4279319578
0.089079089 0.036215704 0.33000001 4279122199
0.090150923 0.036215704 0.33000001 4279122199
0.091222763 0.036215704 0.33000001 4279187990
0.092294604 0.036215704 0.33000001 4279385369
0.093366444 0.036215704 0.33000001 4279122197
0.094724469 0.036325447 0.33100003 4279122197
0.096088983 0.036435191 0.33200002 4279122197
0.097459979 0.036544934 0.333 4279451162
0.099725246 0.036983915 0.33700001 4279122197
0.101119 0.037093662 0.33800003 4279056404
0.10282166 0.037313148 0.34 4278990611
0.10392597 0.037313148 0.34 4278924820
0.10533921 0.037422892 0.34100002 4278859027
0.10644679 0.037422892 0.34100002 4278595855
0.10755435 0.037422892 0.34100002 4279056406
0.10866191 0.037422892 0.34100002 4278924820
0.10976949 0.037422892 0.34100002 4279319574
0.11087705 0.037422892 0.34100002 4279385367
0.11231302 0.037532635 0.34200001 4279385367
0.11342384 0.037532635 0.34200001 4279187988
0.12562439 0.037861872 0.34500003 4279056402
0.12674496 0.037861872 0.34500003 4279319062
0.12749489 0.037752125 0.34400001 4279515928
0.12861221 0.037752125 0.34400001 4279779100
0.13010664 0.037861872 0.34500003 4279647516
0.1312272 0.037861872 0.34500003 4280107297
0.13234776 0.037861872 0.34500003 4279844125
0.13346832 0.037861872 0.34500003 4280368934
0.13458888 0.037861872 0.34500003 4280171041
0.13570945 0.037861872 0.34500003 4280696872
0.13722661 0.037971616 0.34600002 4282011962
0.062443756 0.040903702 0.36200002 4284182881
0.063443795 0.040790711 0.36100003 4280301860
0.064616323 0.040790711 0.36100003 4279779102
0.065606602 0.040677715 0.36000001 4279779615
0.066590399 0.040564723 0.35900003 4279648543
0.067756437 0.040564723 0.35900003 4279516957
0.06892246 0.040564723 0.35900003 4279386141
0.069893263 0.040451728 0.35800001 4280109610
0.07085757 0.040338736 0.35700002 4279911715
0.072017103 0.040338736 0.35700002 4279582750
0.072766684 0.040112749 0.35500002 4279516957
0.0737115 0.039999753 0.354 4279451164
0.074649826 0.039886761 0.35300002 4279648027
0.075581647 0.03977377 0.35200003 4279516441
0.076506972 0.039660774 0.35100001 4279450648
0.077425815 0.039547779 0.35000002 4279187476
0.078338139 0.039434783 0.34900001 4279187992
0.079243988 0.039321791 0.34800002 4279385117
0.080374293 0.039321791 0.34800002 4278592523
0.081504591 0.039321791 0.34800002 4278723082
0.082397439 0.039208796 0.347 4278922256
0.083524495 0.039208796 0.347 4279515160
0.084651552 0.039208796 0.347 4278922256
0.085778609 0.039208796 0.347 4278459910
0.086905658 0.039208796 0.347 4278459140
0.087779023 0.039095804 0.34600002 4278327300
0.088902831 0.039095804 0.34600002 4278524933
0.090286836 0.039208796 0.347 4279117840
0.091413893 0.039208796 0.347 4279184660
0.090150923 0.037287906 0.33000001 4279252504
0.093710653 0.03830485 0.33900002 4279252758
0.09481173 0.03830485 0.33900002 4279319062
0.095912807 0.03830485 0.33900002 4279319062
0.097013876 0.03830485 0.33900002 4279319062
0.098114952 0.03830485 0.33900002 4279319064
0.10009404 0.03864383 0.34200001 4279450648
0.10061301 0.038417842 0.34 4279187476
0.10171733 0.038417842 0.34 4279253269
0.10312407 0.038530838 0.34100002 4279319576
0.10423165 0.038530838 0.34100002 4279319062
0.10564812 0.03864383 0.34200001 4279384342
0.10675894 0.03864383 0.34200001 4279515928
0.10786975 0.03864383 0.34200001 4279318551
0.10898057 0.03864383 0.34200001 4279516443
0.11009139 0.03864383 0.34200001 4279319062
0.1112022 0.03864383 0.34200001 4279187476
0.11264143 0.038756825 0.34300002 4279186963
0.11375549 0.038756825 0.34300002 4279055377
0.11486955 0.038756825 0.34300002 4278792716
0.11598361 0.038756825 0.34300002 4278859023
0.11709768 0.038756825 0.34300002 4278990613
0.11821175 0.038756825 0.34300002 4279319578
0.11932582 0.038756825 0.34300002 4279319576
0.12079101 0.038869817 0.34400001 4279385367
0.12190833 0.038869817 0.34400001 4279056404
0.12302563 0.038869817 0.34400001 4278924818
0.12414294 0.038869817 0.34400001 4278924818
0.12526026 0.038869817 0.34400001 4278924818
0.12637757 0.038869817 0.34400001 4278859025
0.12749489 0.038869817 0.34400001 4279055890
0.12861221 0.038869817 0.34400001 4279187476
0.13010664 0.038982812 0.34500003 4278990097
0.1312272 0.038982812 0.34500003 4279253269
0.13234776 0.038982812 0.34500003 4278661132
0.13346832 0.038982812 0.34500003 4279187476
0.13458888 0.038982812 0.34500003 4279648027
0.13570945 0.038982812 0.34500003 4279779100
0.13722661 0.039095804 0.34600002 4279844893
0.13835041 0.039095804 0.34600002 4279646746
0.13947421 0.039095804 0.34600002 4280172577
0.14059803 0.039095804 0.34600002 4280236319
0.061437227 0.042196121 0.36300001 4284314985
0.062443756 0.042079877 0.36200002 4284314983
0.063443795 0.041963637 0.36100003 4284381030
0.064616323 0.041963637 0.36100003 4279646492
0.065606602 0.041847393 0.36000001 4279910947
0.066775888 0.041847393 0.36000001 4279516957
0.067756437 0.041731153 0.35900003 4279386141
0.06892246 0.041731153 0.35900003 4279780899
0.070088498 0.041731153 0.35900003 4279978278
0.071056046 0.041614905 0.35800001 4279845922
0.072017103 0.041498665 0.35700002 4279648543
0.072971664 0.041382421 0.35600001 4279451164
0.073919728 0.041266181 0.35500002 4279451164
0.074649826 0.041033693 0.35300002 4279187992
0.075581647 0.040917452 0.35200003 4279319578
0.076506972 0.040801208 0.35100001 4279385369
0.077425815 0.040684965 0.35000002 4279319576
0.078338139 0.040568721 0.34900001 4279319578
0.079471692 0.040568721 0.34900001 4279121945
0.080374293 0.04045248 0.34800002 4278592009
0.081504591 0.04045248 0.34800002 4279314965
0.082634896 0.04045248 0.34800002 4279449115
0.083765201 0.04045248 0.34800002 4279449113
0.084651552 0.040336236 0.347 4278523396
0.085778609 0.040336236 0.347 4279048713
0.086905658 0.040336236 0.347 4279509266
0.088032715 0.040336236 0.347 4279048717
0.089159779 0.040336236 0.347 4279048717
0.090286836 0.040336236 0.347 4279180303
0.091413893 0.040336236 0.347 4278917131
0.09254095 0.040336236 0.347 4279180814
0.093668006 0.040336236 0.347 4278786570
0.094795056 0.040336236 0.347 4278654984
0.095922112 0.040336236 0.347 4278589191
0.097049169 0.040336236 0.347 4278655754
0.097893305 0.040219992 0.34600002 4278656519
0.099017113 0.040219992 0.34600002 4278985484
0.099851504 0.040103752 0.34500003 4279184660
0.10038671 0.039871268 0.34300002 4279448600
0.10120485 0.03975502 0.34200001 4279515160
0.10231567 0.03975502 0.34200001 4279449367
0.10372891 0.039871268 0.34300002 4279252758
0.10484298 0.039871268 0.34300002 4279515930
0.10595704 0.039871268 0.34300002 4279383574
0.10707111 0.039871268 0.34300002 4279449367
0.10818516 0.039871268 0.34300002 4279646746
0.10929923 0.039871268 0.34300002 4279449367
0.1104133 0.039871268 0.34300002 4279384344
0.11152736 0.039871268 0.34300002 4279384344
0.11264143 0.039871268 0.34300002 4279318551
0.11375549 0.039871268 0.34300002 4279252756
0.11486955 0.039871268 0.34300002 4279515928
0.11598361 0.039871268 0.34300002 4279253269
0.11709768 0.039871268 0.34300002 4279319578
0.11821175 0.039871268 0.34300002 4279253271
0.11932582 0.039871268 0.34300002 4278923793
0.12079101 0.039987508 0.34400001 4279186963
0.12190833 0.039987508 0.34400001 4278858511
0.12302563 0.039987508 0.34400001 4279253269
0.12414294 0.039987508 0.34400001 4278990611
0.12526026 0.039987508 0.34400001 4279385369
0.12674496 0.040103752 0.34500003 4279385369
0.12786552 0.040103752 0.34500003 4280372264
0.12898608 0.040103752 0.34500003 4279319576
0.13010664 0.040103752 0.34500003 4279056404
0.1312272 0.040103752 0.34500003 4279056404
0.13234776 0.040103752 0.34500003 4278990611
0.13346832 0.040103752 0.34500003 4279055890
0.13458888 0.040103752 0.34500003 4279187476
0.13570945 0.040103752 0.34500003 4279121681
0.13722661 0.040219992 0.34600002 4279055888
0.13835041 0.040219992 0.34600002 4279253267
0.13947421 0.040219992 0.34600002 4279253269
0.14059803 0.040219992 0.34600002 4279515928
0.14213143 0.040336236 0.347 4279976481
0.061437227 0.043375544 0.36300001 4284380778
0.062443756 0.043256052 0.36200002 4284117606
0.063443795 0.043136563 0.36100003 4283986018
0.064616323 0.043136563 0.36100003 4283723609
0.065606602 0.043017067 0.36000001 4280565797
0.066775888 0.043017067 0.36000001 4280042787
0.067756437 0.042897578 0.35900003 4279845922
0.06892246 0.042897578 0.35900003 4279912485
0.070088498 0.042897578 0.35900003 4280241450
0.071056046 0.042778086 0.35800001 4279715106
0.072017103 0.042658594 0.35700002 4279386139
0.072971664 0.042539101 0.35600001 4279451162
0.073919728 0.042419609 0.35500002 4279451162
0.074861296 0.042300116 0.354 4279319576
0.075581647 0.042061135 0.35200003 4279451162
0.076506972 0.041941643 0.35100001 4279319576
0.077647023 0.041941643 0.35100001 4279187992
0.07856261 0.04182215 0.35000002 4279319578
0.079471692 0.041702658 0.34900001 4279253017
0.080605246 0.041702658 0.34900001 4278723341
0.0817388 0.041702658 0.34900001 4280039201
0.082634896 0.041583166 0.34800002 4279318299
0.083765201 0.041583166 0.34800002 4279712287
0.084895507 0.041583166 0.34800002 4278982924
0.086025812 0.041583166 0.34800002 4280167198
0.08715611 0.041583166 0.34800002 4279576086
0.088032715 0.041463673 0.347 4279312914
0.089159779 0.041463673 0.347 4278852365
0.090286836 0.041463673 0.347 4280365602
0.091413893 0.041463673 0.347 4280233502
0.09254095 0.041463673 0.347 4279641365
0.093668006 0.041463673 0.347 4280365602
0.094795056 0.041463673 0.347 4279049742
0.095922112 0.041463673 0.347 4279311887
0.097049169 0.041463673 0.347 4279180301
0.098176233 0.041463673 0.347 4278982924
0.099017113 0.041344184 0.34600002 4279048717
0.10014093 0.041344184 0.34600002 4278524170
0.10097206 0.041224692 0.34500003 4279579164
0.10179669 0.0411052 0.34400001 4279382039
0.10291401 0.0411052 0.34400001 4278921488
0.10403132 0.0411052 0.34400001 4278263558
0.10514864 0.0411052 0.34400001 4278263558
0.10626595 0.0411052 0.34400001 4278197251
0.10738327 0.0411052 0.34400001 4279053072
0.10850057 0.0411052 0.34400001 4279250451
0.10961788 0.0411052 0.34400001 4280171553
0.11073519 0.0411052 0.34400001 4279777565
0.11185251 0.0411052 0.34400001 4279580440
0.11296982 0.0411052 0.34400001 4279383061
0.11408714 0.0411052 0.34400001 4279580438
0.11520445 0.0411052 0.34400001 4279712537
0.11598361 0.040985707 0.34300002 4279383572
0.11709768 0.040985707 0.34300002 4279581721
0.11821175 0.040985707 0.34300002 4279450648
0.1196737 0.0411052 0.34400001 4279253269
0.12079101 0.0411052 0.34400001 4279384342
0.12190833 0.0411052 0.34400001 4279515928
0.12302563 0.0411052 0.34400001 4279187478
0.12414294 0.0411052 0.34400001 4279187478
0.12562439 0.041224692 0.34500003 4279121685
0.12674496 0.041224692 0.34500003 4279319064
0.12786552 0.041224692 0.34500003 4279121685
0.12898608 0.041224692 0.34500003 4278990097
0.13010664 0.041224692 0.34500003 4278990611
0.1312272 0.041224692 0.34500003 4279582234
0.13234776 0.041224692 0.34500003 4279318549
0.13346832 0.041224692 0.34500003 4279581721
0.13458888 0.041224692 0.34500003 4279384342
0.13570945 0.041224692 0.34500003 4279450648
0.13722661 0.041344184 0.34600002 4279253269
0.13835041 0.041344184 0.34600002 4279187476
0.13947421 0.041344184 0.34600002 4278990097
0.14100438 0.041463673 0.347 4279121683
0.14213143 0.041463673 0.347 4278990095
0.1432585 0.041463673 0.347 4279515410
0.062443756 0.044432227 0.36200002 4284248422
0.063443795 0.044309489 0.36100003 4284116836
0.06443733 0.044186745 0.36000001 4283920225
0.065424368 0.044064008 0.35900003 4284052065
0.066590399 0.044064008 0.35900003 4280895024
0.067756437 0.044064008 0.35900003 4280304170
0.06892246 0.044064008 0.35900003 4280240428
0.069893263 0.043941263 0.35800001 4279977256
0.071056046 0.043941263 0.35800001 4279517473
0.072017103 0.043818522 0.35700002 4279320348
0.072971664 0.043695781 0.35600001 4279451932
0.073919728 0.043573041 0.35500002 4279517725
0.074861296 0.0434503 0.354 4279385369
0.075581647 0.043204818 0.35200003 4279582748
0.076724946 0.043204818 0.35200003 4279451162
0.077647023 0.043082077 0.35100001 4279385371
0.07856261 0.042959336 0.35000002 4279450650
0.079699412 0.042959336 0.35000002 4279580188
0.080605246 0.042836595 0.34900001 4278986002
0.0817388 0.042836595 0.34900001 4279710750
0.082872353 0.042836595 0.34900001 4279646494
0.083765201 0.042713854 0.34800002 4278329351
0.084895507 0.042713854 0.34800002 4278983183
0.086025812 0.042713854 0.34800002 4278917390
0.08715611 0.042713854 0.34800002 4278983183
0.088286422 0.042713854 0.34800002 4279246869
0.089416727 0.042713854 0.34800002 4279050260
0.090547033 0.042713854 0.34800002 4279379225
0.091677338 0.042713854 0.34800002 4278852365
0.092807643 0.042713854 0.34800002 4280300579
0.093937948 0.042713854 0.34800002 4278720777
0.095068246 0.042713854 0.34800002 4278851851
0.096198551 0.042713854 0.34800002 4279443986
0.097328857 0.042713854 0.34800002 4279707158
0.098176233 0.04259111 0.347 4279247121
0.09930329 0.04259111 0.347 4278983949
0.10043035 0.04259111 0.347 4280565032
0.10126472 0.042468373 0.34600002 4279777567
0.10238854 0.042468373 0.34600002 4279843871
0.10351235 0.042468373 0.34600002 4279383320
0.10463616 0.042468373 0.34600002 4279249937
0.10575996 0.042468373 0.34600002 4279644697
0.10688378 0.042468373 0.34600002 4279711004
0.10800759 0.042468373 0.34600002 4279711002
0.10881598 0.042345632 0.34500003 4279513623
0.10993654 0.042345632 0.34500003 4280236832
0.1110571 0.042345632 0.34500003 4280171039
0.11217767 0.042345632 0.34500003 4279315730
0.11329823 0.042345632 0.34500003 4278920972
0.11408714 0.042222891 0.34400001 4279118351
0.11520445 0.042222891 0.34400001 4278723080
0.11632176 0.042222891 0.34400001 4278854920
0.11743907 0.042222891 0.34400001 4279381777
0.11855639 0.042222891 0.34400001 4279381777
0.1196737 0.042222891 0.34400001 4279317268
0.12079101 0.042222891 0.34400001 4279580440
0.12190833 0.042222891 0.34400001 4279777819
0.12302563 0.042222891 0.34400001 4279383574
0.12450383 0.042345632 0.34500003 4279646744
0.12562439 0.042345632 0.34500003 4279778330
0.12674496 0.042345632 0.34500003 4279449365
0.12786552 0.042345632 0.34500003 4279449365
0.12898608 0.042345632 0.34500003 4279515158
0.13010664 0.042345632 0.34500003 4279318547
0.1312272 0.042345632 0.34500003 4279515926
0.13234776 0.042345632 0.34500003 4279252756
0.13346832 0.042345632 0.34500003 4279318549
0.13458888 0.042345632 0.34500003 4279121170
0.13570945 0.042345632 0.34500003 4279055377
0.13722661 0.042468373 0.34600002 4279384344
0.13835041 0.042468373 0.34600002 4279121683
0.13947421 0.042468373 0.34600002 4279319062
0.14100438 0.04259111 0.347 4279450648
0.14213143 0.04259111 0.347 4279055890
0.1432585 0.04259111 0.347 4278923789
0.14438555 0.04259111 0.347 4279449363
0.062443756 0.045608405 0.36200002 4284248420
0.063443795 0.045482416 0.36100003 4284248420
0.064258337 0.045230437 0.35900003 4284116834
0.065242119 0.045104444 0.35800001 4283787869
0.066404909 0.045104444 0.35800001 4284577385
0.067567699 0.045104444 0.35800001 4284841581
0.068730474 0.045104444 0.35800001 4281881919
0.069698036 0.044978455 0.35700002 4279908899
0.07085757 0.044978455 0.35700002 4279844389
0.071815372 0.044852462 0.35600001 4279975975
0.072766684 0.044726476 0.35500002 4279648289
0.0737115 0.044600483 0.354 4279582496
0.074649826 0.044474494 0.35300002 4279582496
0.075581647 0.044348504 0.35200003 4279516957
0.076724946 0.044348504 0.35200003 4279582750
0.077647023 0.044222515 0.35100001 4279516957
0.07856261 0.044096526 0.35000002 4278659084
0.079699412 0.044096526 0.35000002 4279250453
0.080836214 0.044096526 0.35000002 4279381785
0.0817388 0.043970533 0.34900001 4279843873
0.082872353 0.043970533 0.34900001 4279647516
0.084005907 0.043970533 0.34900001 4280107297
0.085139453 0.043970533 0.34900001 4279511574
0.086025812 0.043844543 0.34800002 4278458888
0.08715611 0.043844543 0.34800002 4278524170
0.088286422 0.043844543 0.34800002 4278853135
0.089416727 0.043844543 0.34800002 4279049490
0.090547033 0.043844543 0.34800002 4279180562
0.091677338 0.043844543 0.34800002 4278917390
0.092807643 0.043844543 0.34800002 4278917644
0.093937948 0.043844543 0.34800002 4279246096
0.095068246 0.043844543 0.34800002 4279245842
0.096198551 0.043844543 0.34800002 4279181328
0.097328857 0.043844543 0.34800002 4279576086
0.098459162 0.043844543 0.34800002 4279049742
0.099589467 0.043844543 0.34800002 4278983437
0.10043035 0.04371855 0.347 4279711004
0.1015574 0.04371855 0.347 4279909405
0.10268445 0.04371855 0.347 4278853898
0.10381151 0.04371855 0.347 4279049740
0.10493857 0.04371855 0.347 4279049742
0.10606562 0.04371855 0.347 4279049742
0.10719269 0.04371855 0.347 4279381271
0.10831974 0.04371855 0.347 4278921234
0.10913139 0.043592565 0.34600002 4279513625
0.1102552 0.043592565 0.34600002 4279250451
0.11137901 0.043592565 0.34600002 4279578902
0.11250281 0.043592565 0.34600002 4279645209
0.11329823 0.043466575 0.34500003 4279579416
0.11441879 0.043466575 0.34500003 4279644695
0.11553934 0.043466575 0.34500003 4279776281
0.11665991 0.043466575 0.34500003 4280039453
0.11743907 0.043340582 0.34400001 4279776281
0.11855639 0.043340582 0.34400001 4279776281
0.1196737 0.043340582 0.34400001 4280105246
0.12079101 0.043340582 0.34400001 4279776281
0.12226272 0.043466575 0.34500003 4279117838
0.12338327 0.043466575 0.34500003 4278328322
0.12450383 0.043466575 0.34500003 4278196224
0.12562439 0.043466575 0.34500003 4278788873
0.12674496 0.043466575 0.34500003 4278854666
0.12786552 0.043466575 0.34500003 4279249937
0.12898608 0.043466575 0.34500003 4280039707
0.13010664 0.043466575 0.34500003 4279448084
0.1312272 0.043466575 0.34500003 4279645461
0.13234776 0.043466575 0.34500003 4279448852
0.13346832 0.043466575 0.34500003 4279514645
0.13458888 0.043466575 0.34500003 4279712537
0.13570945 0.043466575 0.34500003 4279646744
0.13722661 0.043592565 0.34600002 4279449365
0.13835041 0.043592565 0.34600002 4279515158
0.13947421 0.043592565 0.34600002 4279383572
0.14100438 0.04371855 0.347 4279317779
0.14213143 0.04371855 0.347 4279317779
0.1432585 0.04371855 0.347 4279054607
0.064079344 0.046267621 0.35800001 4284051041
0.065059885 0.046138383 0.35700002 4283919455
0.066219419 0.046138383 0.35700002 4284116836
0.067378961 0.046138383 0.35700002 4284380008
0.068538494 0.046138383 0.35700002 4284446569
0.069698036 0.046138383 0.35700002 4284512362
0.070659086 0.046009142 0.35600001 4284973426
0.071815372 0.046009142 0.35600001 4285171319
0.072561711 0.045750663 0.354 4284448620
0.073503278 0.045621425 0.35300002 4283461723
0.074438356 0.045492187 0.35200003 4281685825
0.075581647 0.045492187 0.35200003 4280107565
0.076506972 0.045362946 0.35100001 4279383840
0.077647023 0.045362946 0.35100001 4279383068
0.078787073 0.045362946 0.35100001 4279712287
0.079699412 0.045233708 0.35000002 4279974946
0.080836214 0.045233708 0.35000002 4279843873
0.081973009 0.045233708 0.35000002 4279778078
0.082872353 0.045104466 0.34900001 4279779102
0.084005907 0.045104466 0.34900001 4279976481
0.085139453 0.045104466 0.34900001 4279909918
0.086273007 0.045104466 0.34900001 4279844125
0.08715611 0.044975229 0.34800002 4279909151
0.088286422 0.044975229 0.34800002 4279843358
0.089416727 0.044975229 0.34800002 4280171555
0.090547033 0.044975229 0.34800002 4279973922
0.091677338 0.044975229 0.34800002 4280302375
0.092807643 0.044975229 0.34800002 4280104483
0.093937948 0.044975229 0.34800002 4279248404
0.095068246 0.044975229 0.34800002 4278919439
0.096198551 0.044975229 0.34800002 4278983949
0.097328857 0.044975229 0.34800002 4278983949
0.098459162 0.044975229 0.34800002 4279246607
0.099589467 0.044975229 0.34800002 4280037407
0.10071978 0.044975229 0.34800002 4279711002
0.10185007 0.044975229 0.34800002 4279579416
0.10298038 0.044975229 0.34800002 4279379729
0.10411069 0.044975229 0.34800002 4279312398
0.10524099 0.044975229 0.34800002 4279246607
0.10606562 0.044845987 0.347 4279312914
0.10719269 0.044845987 0.347 4280039201
0.10831974 0.044845987 0.347 4279183892
0.10944679 0.044845987 0.347 4279513623
0.11057385 0.044845987 0.347 4278724107
0.11170091 0.044845987 0.347 4279775768
0.11250281 0.044716749 0.34600002 4279118353
0.11362663 0.044716749 0.34600002 4279711002
0.11475044 0.044716749 0.34600002 4279776281
0.11553934 0.044587512 0.34500003 4279118865
0.11665991 0.044587512 0.34500003 4279184660
0.11778047 0.044587512 0.34500003 4279447832
0.11890103 0.044587512 0.34500003 4279645211
0.1200216 0.044587512 0.34500003 4279711004
0.12114216 0.044587512 0.34500003 4279645209
0.12226272 0.044587512 0.34500003 4280105760
0.12338327 0.044587512 0.34500003 4279974428
0.12450383 0.044587512 0.34500003 4279842842
0.12598851 0.044716749 0.34600002 4279908635
0.12711233 0.044716749 0.34600002 4279973914
0.12823614 0.044716749 0.34600002 4280105500
0.12935995 0.044716749 0.34600002 4280105246
0.13048376 0.044716749 0.34600002 4279776281
0.13160756 0.044716749 0.34600002 4279710488
0.13273136 0.044716749 0.34600002 4279117070
0.13346832 0.044587512 0.34500003 4279383061
0.13458888 0.044587512 0.34500003 4279580440
0.13570945 0.044587512 0.34500003 4279712026
0.13722661 0.044716749 0.34600002 4279777819
0.13835041 0.044716749 0.34600002 4279712026
0.13947421 0.044716749 0.34600002 4279712024
0.14059803 0.044716749 0.34600002 4279515158
0.14213143 0.044845987 0.347 4279580438
0.1432585 0.044845987 0.347 4279843610
0.063900352 0.047298312 0.35700002 4284248422
0.064877644 0.047165822 0.35600001 4283787871
0.06603393 0.047165822 0.35600001 4284182629
0.067190222 0.047165822 0.35600001 4284445801
0.068346508 0.047165822 0.35600001 4284512362
0.069502793 0.047165822 0.35600001 4284512362
0.070659086 0.047165822 0.35600001 4284709741
0.071613647 0.047033336 0.35500002 4284709741
0.072356731 0.04676836 0.35300002 4284709741
0.073295057 0.046635874 0.35200003 4284775534
0.074438356 0.046635874 0.35200003 4284710256
0.075366922 0.046503384 0.35100001 4284710256
0.076506972 0.046503384 0.35100001 4285171319
0.077647023 0.046503384 0.35100001 4284644975
0.07856261 0.046370897 0.35000002 4284711538
0.079699412 0.046370897 0.35000002 4285435515
0.080836214 0.046370897 0.35000002 4285237366
0.081973009 0.046370897 0.35000002 4283789918
0.082872353 0.046238404 0.34900001 4282080070
0.084005907 0.046238404 0.34900001 4280172073
0.085139453 0.046238404 0.34900001 4279448348
0.086273007 0.046238404 0.34900001 4279448602
0.08715611 0.046105918 0.34800002 4280303909
0.088286422 0.046105918 0.34800002 4280105760
0.089416727 0.046105918 0.34800002 4279974944
0.090547033 0.046105918 0.34800002 4279974944
0.091677338 0.046105918 0.34800002 4279909664
0.092807643 0.046105918 0.34800002 4279778078
0.093937948 0.046105918 0.34800002 4279843871
0.095068246 0.046105918 0.34800002 4279843871
0.096198551 0.046105918 0.34800002 4279778078
0.097328857 0.046105918 0.34800002 4279974944
0.098459162 0.046105918 0.34800002 4280105760
0.099589467 0.046105918 0.34800002 4279842588
0.10071978 0.046105918 0.34800002 4279447832
0.10185007 0.046105918 0.34800002 4279184658
0.10298038 0.046105918 0.34800002 4278920459
0.10411069 0.046105918 0.34800002 4278854668
0.10524099 0.046105918 0.34800002 4279051023
0.1063713 0.046105918 0.34800002 4279183379
0.1075016 0.046105918 0.34800002 4279776283
0.10863191 0.046105918 0.34800002 4279710490
0.10976221 0.046105918 0.34800002 4279973662
0.11057385 0.045973428 0.347 4279842076
0.11170091 0.045973428 0.347 4280105246
0.11282796 0.045973428 0.347 4279513109
0.11362663 0.045840941 0.34600002 4279381523
0.11475044 0.045840941 0.34600002 4279513111
0.11587424 0.045840941 0.34600002 4279645211
0.11699805 0.045840941 0.34600002 4279053074
0.11778047 0.045708455 0.34500003 4279775770
0.11890103 0.045708455 0.34500003 4279183633
0.1200216 0.045708455 0.34500003 4279315732
0.12114216 0.045708455 0.34500003 4279249939
0.12226272 0.045708455 0.34500003 4279644695
0.1237409 0.045840941 0.34600002 4279644182
0.1248647 0.045840941 0.34600002 4279249937
0.12598851 0.045840941 0.34600002 4279513111
0.12711233 0.045840941 0.34600002 4279315732
0.12823614 0.045840941 0.34600002 4279381523
0.12935995 0.045840941 0.34600002 4279711256
0.13048376 0.045840941 0.34600002 4279514647
0.13160756 0.045840941 0.34600002 4279711002
0.13273136 0.045840941 0.34600002 4278919437
0.13385518 0.045840941 0.34600002 4279645209
0.13458888 0.045708455 0.34500003 4279777565
0.13570945 0.045708455 0.34500003 4279843612
0.13683 0.045708455 0.34500003 4279383061
0.13835041 0.045840941 0.34600002 4279843610
0.13947421 0.045840941 0.34600002 4279712024
0.14059803 0.045840941 0.34600002 4279712537
0.14213143 0.045973428 0.347 4279909403
0.1432585 0.045973428 0.347 4280303393
0.14438555 0.045973428 0.347 4280631844
0.064877644 0.048322503 0.35600001 4283985250
0.065848447 0.048186764 0.35500002 4284511594
0.067001484 0.048186764 0.35500002 4284642927
0.068154521 0.048186764 0.35500002 4284578157
0.069307566 0.048186764 0.35500002 4284578155
0.070659086 0.048322503 0.35600001 4284841327
0.071815372 0.048322503 0.35600001 4284972913
0.072151758 0.047779553 0.35200003 4284907120
0.073295057 0.047779553 0.35200003 4284972915
0.074226879 0.047643814 0.35100001 4285038708
0.075366922 0.047643814 0.35100001 4284972915
0.076506972 0.047643814 0.35100001 4284973428
0.077647023 0.047643814 0.35100001 4284907635
0.07856261 0.04750808 0.35000002 4284841840
0.079699412 0.04750808 0.35000002 4284776047
0.080836214 0.04750808 0.35000002 4285038706
0.081973009 0.04750808 0.35000002 4284972913
0.082872353 0.047372341 0.34900001 4285038706
0.084005907 0.047372341 0.34900001 4284907120
0.085139453 0.047372341 0.34900001 4284972913
0.086273007 0.047372341 0.34900001 4284973426
0.08715611 0.047236603 0.34800002 4285368438
0.088286422 0.047236603 0.34800002 4285368436
0.089416727 0.047236603 0.34800002 4285499507
0.090547033 0.047236603 0.34800002 4284117856
0.091677338 0.047236603 0.34800002 4282407749
0.092807643 0.047236603 0.34800002 4280762924
0.093937948 0.047236603 0.34800002 4279776283
0.095068246 0.047236603 0.34800002 4279579418
0.096198551 0.047236603 0.34800002 4279514906
0.097328857 0.047236603 0.34800002 4279843871
0.098459162 0.047236603 0.34800002 4280107043
0.099589467 0.047236603 0.34800002 4279843871
0.10071978 0.047236603 0.34800002 4279909664
0.10185007 0.047236603 0.34800002 4279844125
0.10298038 0.047236603 0.34800002 4279712539
0.10411069 0.047236603 0.34800002 4279843871
0.10524099 0.047236603 0.34800002 4279843358
0.1063713 0.047236603 0.34800002 4279909151
0.1075016 0.047236603 0.34800002 4279974944
0.10863191 0.047236603 0.34800002 4280238116
0.10976221 0.047236603 0.34800002 4280171553
0.11089251 0.047236603 0.34800002 4279118865
0.11170091 0.047100864 0.347 4279184146
0.11282796 0.047100864 0.347 4278592009
0.11395502 0.047100864 0.347 4278657802
0.11475044 0.04696513 0.34600002 4279249939
0.11587424 0.04696513 0.34600002 4278987281
0.11699805 0.04696513 0.34600002 4280105762
0.11812185 0.04696513 0.34600002 4279776283
0.11890103 0.046829391 0.34500003 4280697385
0.1200216 0.046829391 0.34500003 4279776283
0.12149329 0.04696513 0.34600002 4280105248
0.1226171 0.04696513 0.34600002 4279644697
0.1237409 0.04696513 0.34600002 4279513111
0.1248647 0.04696513 0.34600002 4280105246
0.12635264 0.047100864 0.347 4279315217
0.1274797 0.047100864 0.347 4279511828
0.12860675 0.047100864 0.347 4279446035
0.12973382 0.047100864 0.347 4279842842
0.13086088 0.047100864 0.347 4279579670
0.13160756 0.04696513 0.34600002 4278920461
0.13273136 0.04696513 0.34600002 4280170526
0.13385518 0.04696513 0.34600002 4279908381
0.13497899 0.04696513 0.34600002 4279908635
0.13570945 0.046829391 0.34500003 4279842840
0.13683 0.046829391 0.34500003 4279711254
0.13795055 0.046829391 0.34500003 4279842840
0.13947421 0.04696513 0.34600002 4279777817
0.14059803 0.04696513 0.34600002 4279514647
0.14213143 0.047100864 0.347 4280040991
0.1432585 0.047100864 0.347 4280500004
0.065848447 0.0493402 0.35500002 4284577387
0.067001484 0.0493402 0.35500002 4284840559
0.068154521 0.0493402 0.35500002 4284840559
0.069307566 0.0493402 0.35500002 4284709743
0.070659086 0.049479183 0.35600001 4284907122
0.071815372 0.049479183 0.35600001 4284972915
0.072971664 0.049479183 0.35600001 4284841329
0.07412795 0.049479183 0.35600001 4285038708
0.075284243 0.049479183 0.35600001 4285038708
0.076440528 0.049479183 0.35600001 4285236087
0.077596813 0.049479183 0.35600001 4285301880
0.078753106 0.049479183 0.35600001 4285301880
0.079909392 0.049479183 0.35600001 4285236087
0.081065685 0.049479183 0.35600001 4285301880
0.08222197 0.049479183 0.35600001 4285038706
0.083378255 0.049479183 0.35600001 4285432694
0.084534548 0.049479183 0.35600001 4285366901
0.085690841 0.049479183 0.35600001 4285564280
0.086847119 0.049479183 0.35600001 4285432694
0.088003412 0.049479183 0.35600001 4285366901
0.089159697 0.049479183 0.35600001 4285366901
0.095068246 0.048367295 0.34800002 4285236852
0.096198551 0.048367295 0.34800002 4285697403
0.097328857 0.048367295 0.34800002 4285697403
0.098459162 0.048367295 0.34800002 4284907887
0.099589467 0.048367295 0.34800002 4283131476
0.10071978 0.048367295 0.34800002 4281815612
0.10185007 0.048367295 0.34800002 4280105762
0.10298038 0.048367295 0.34800002 4279447832
0.10411069 0.048367295 0.34800002 4279973662
0.10524099 0.048367295 0.34800002 4279645209
0.1063713 0.048367295 0.34800002 4280171553
0.1075016 0.048367295 0.34800002 4279974944
0.10863191 0.048367295 0.34800002 4279843871
0.10976221 0.048367295 0.34800002 4279778848
0.11089251 0.048367295 0.34800002 4279713055
0.11202282 0.048367295 0.34800002 4280040737
0.11282796 0.048228305 0.347 4279975198
0.11395502 0.048228305 0.347 4279909405
0.11508209 0.048228305 0.347 4279843612
0.11587424 0.048089322 0.34600002 4279975198
0.11699805 0.048089322 0.34600002 4279777565
0.11812185 0.048089322 0.34600002 4280105246
0.11924567 0.048089322 0.34600002 4279973662
0.12036948 0.048089322 0.34600002 4278855181
0.12149329 0.048089322 0.34600002 4278723595
0.1226171 0.048089322 0.34600002 4278460423
0.1237409 0.048089322 0.34600002 4279183633
0.12522559 0.048228305 0.347 4279248656
0.12635264 0.048228305 0.347 4279577621
0.1274797 0.048228305 0.347 4279972379
0.12860675 0.048228305 0.347 4279906584
0.12973382 0.048228305 0.347 4279841815
0.13086088 0.048228305 0.347 4279710229
0.13198793 0.048228305 0.347 4279380242
0.13273136 0.048089322 0.34600002 4279842076
0.13385518 0.048089322 0.34600002 4279908635
0.13497899 0.048089322 0.34600002 4279711256
0.13570945 0.047950335 0.34500003 4279777819
0.13683 0.047950335 0.34500003 4279843612
0.13795055 0.047950335 0.34500003 4279909405
0.13907112 0.047950335 0.34500003 4279712026
0.14059803 0.048089322 0.34600002 4279975198
0.14172184 0.048089322 0.34600002 4280500258
0.10185007 0.049497984 0.34800002 4285301878
0.10298038 0.049497984 0.34800002 4285367671
0.10411069 0.049497984 0.34800002 4285432948
0.10524099 0.049497984 0.34800002 4285629812
0.1063713 0.049497984 0.34800002 4285367923
0.1075016 0.049497984 0.34800002 4285631610
0.10863191 0.049497984 0.34800002 4284775786
0.10976221 0.049497984 0.34800002 4284248670
0.11089251 0.049497984 0.34800002 4282736201
0.11202282 0.049497984 0.34800002 4281815612
0.11315312 0.049497984 0.34800002 4280631852
0.11395502 0.049355745 0.347 4280105248
0.11508209 0.049355745 0.347 4280170526
0.11587424 0.049213514 0.34600002 4280104987
0.11699805 0.049213514 0.34600002 4280039194
0.11812185 0.049213514 0.34600002 4280038170
0.11924567 0.049213514 0.34600002 4280432928
0.12036948 0.049213514 0.34600002 4280367905
0.12149329 0.049213514 0.34600002 4280302879
0.1226171 0.049213514 0.34600002 4280302879
0.1237409 0.049213514 0.34600002 4280302625
0.12522559 0.049355745 0.347 4280302112
0.12635264 0.049355745 0.347 4280499491
0.12784709 0.049497984 0.34800002 4280367907
0.12897739 0.049497984 0.34800002 4280038172
0.1301077 0.049497984 0.34800002 4280301344
0.13086088 0.049355745 0.347 4280038942
0.13198793 0.049355745 0.347 4279842076
0.13311498 0.049355745 0.347 4280039969
0.13385518 0.049213514 0.34600002 4279908381
0.13497899 0.049213514 0.34600002 4280039967
0.13570945 0.049071278 0.34500003 4279909405
0.13683 0.049071278 0.34500003 4279777819
0.13795055 0.049071278 0.34500003 4279843612
0.13907112 0.049071278 0.34500003 4280172577
0.14059803 0.049213514 0.34600002 4280959272
0.1226171 0.050337698 0.34600002 4284051543
0.1237409 0.050337698 0.34600002 4283919959
0.12522559 0.050483182 0.347 4282801226
0.12671678 0.05062867 0.34800002 4281551159
0.12784709 0.05062867 0.34800002 4280959020
0.12897739 0.05062867 0.34800002 4280630309
0.1301077 0.05062867 0.34800002 4279841563
0.13086088 0.050483182 0.347 4279775770
0.13198793 0.050483182 0.347 4280499745
0.13311498 0.050483182 0.347 4279907608
0.13385518 0.050337698 0.34600002 4280237086
0.13497899 0.050337698 0.34600002 4280039707
0.13570945 0.050192215 0.34500003 4279711002
0.13683 0.050192215 0.34500003 4280171039
0.13795055 0.050192215 0.34500003 4280498975
0.13907112 0.050192215 0.34500003 4282604351
0.1301077 0.051759358 0.34800002 4285563249
0.131238 0.051759358 0.34800002 4285432433
0.13198793 0.051610623 0.347 4285498739
0.13311498 0.051610623 0.347 4285564532
0.13424204 0.051610623 0.347 4285893497
0.13683 0.051313158 0.34500003 4286155384
0.09010268 0.03722791 0.34958544 4294967295
0.09010268 0.03722791 0.34958544 4294901760
0.090222128 0.036748115 0.34951109 4294901760
0.090341568 0.036268316 0.34943673 4294901760
0.090461016 0.035788521 0.3493624 4294901760
0.090580456 0.035308722 0.34928805 4294901760
0.090699904 0.034828927 0.34921369 4294901760
0.090819344 0.034349129 0.34913933 4294901760
0.090938792 0.033869334 0.34906498 4294901760
0.091058232 0.033389535 0.34899062 4294901760
0.09117768 0.03290974 0.34891629 4294901760
0.09129712 0.032429941 0.34884194 4294901760
0.091416568 0.031950146 0.34876758 4294901760
0.091536008 0.031470347 0.34869322 4294901760
0.091655456 0.030990552 0.34861887 4294901760
0.091774896 0.030510755 0.34854454 4294901760
0.091894343 0.030030958 0.34847018 4294901760
0.092013784 0.029551161 0.34839582 4294901760
0.092133231 0.029071365 0.34832147 4294901760
0.092252679 0.028591568 0.34824711 4294901760
0.092372119 0.028111771 0.34817275 4294901760
0.092491567 0.027631974 0.34809843 4294901760
0.092611007 0.027152177 0.34802407 4294901760
0.092730455 0.026672382 0.34794971 4294901760
0.092849895 0.026192583 0.34787536 4294901760
0.092969343 0.025712788 0.347801 4294901760
0.093088783 0.025232989 0.34772664 4294901760
0.093208231 0.024753194 0.34765232 4294901760
0.093327671 0.024273396 0.34757796 4294901760
0.093447119 0.0237936 0.3475036 4294901760
0.093566559 0.023313804 0.34742925 4294901760
0.093686007 0.022834007 0.34735489 4294901760
0.093805447 0.02235421 0.34728056 4294901760
0.093924895 0.021874413 0.34720621 4294901760
0.094044343 0.021394616 0.34713185 4294901760
0.094163783 0.020914819 0.34705749 4294901760
0.094283231 0.020435022 0.34698313 4294901760
0.094402671 0.019955225 0.34690878 4294901760
0.094522119 0.019475428 0.34683445 4294901760
0.094641559 0.018995631 0.34676009 4294901760
0.094761007 0.018515836 0.34668574 4294901760
0.094880447 0.018036038 0.34661138 4294901760
0.094999894 0.017556243 0.34653702 4294901760
0.095119335 0.017076446 0.3464627 4294901760
0.095238782 0.016596647 0.34638834 4294901760
0.095358223 0.016116852 0.34631398 4294901760
0.09547767 0.015637055 0.34623963 4294901760
0.095597111 0.015157258 0.34616527 4294901760
0.095716558 0.014677461 0.34609091 4294901760
0.095835999 0.014197664 0.34601659 4294901760
0.095955446 0.013717867 0.34594223 4294901760
0.096074894 0.013238071 0.34586787 4294901760
0.096194334 0.012758274 0.34579352 4294901760
0.096313775 0.012278479 0.34571916 4294901760
0.096433222 0.011798682 0.34564483 4294901760
0.09655267 0.011318883 0.34557047 4294901760
0.09667211 0.010839086 0.34549612 4294901760
0.096791558 0.010359289 0.34542176 4294901760
0.096910998 0.0098794941 0.3453474 4294901760
0.097030446 0.0093996972 0.34527305 4294901760
0.097149886 0.0089199003 0.34519872 4294901760
0.097269334 0.0084401015 0.34512436 4294901760
0.097388774 0.0079603046 0.34505001 4294901760
0.097508222 0.0074805096 0.34497565 4294901760
0.097627662 0.0070007127 0.34490129 4294901760
0.09774711 0.0065209158 0.34482697 4294901760
0.09786655 0.0060411207 0.34475261 4294901760
0.097985998 0.005561322 0.34467825 4294901760
0.098105446 0.0050815232 0.3446039 4294901760
0.098224886 0.0046017282 0.34452954 4294901760
0.098344333 0.0041219331 0.34445518 4294901760
0.098463774 0.0036421344 0.34438086 4294901760
0.098583221 0.0031623393 0.3443065 4294901760
0.098702662 0.0026825406 0.34423214 4294901760
0.098822109 0.0022027418 0.34415779 4294901760
0.09894155 0.0017229468 0.34408343 4294901760
0.099060997 0.0012431517 0.3440091 4294901760
0.099180438 0.00076335296 0.34393474 4294901760
0.099299885 0.00028355792 0.34386039 4294901760
0.099419326 -0.00019623712 0.34378603 4294901760
0.099538773 -0.00067603588 0.34371167 4294901760
0.099658214 -0.0011558346 0.34363732 4294901760
0.099777661 -0.0016356297 0.34356299 4294901760
0.099897102 -0.0021154247 0.34348863 4294901760
0.10001655 -0.0025952235 0.34341428 4294901760
0.100136 -0.0030750185 0.34333992 4294901760
0.10025544 -0.0035548173 0.34326556 4294901760
0.10037488 -0.0040346161 0.34319121 4294901760
0.10049433 -0.0045144111 0.34311688 4294901760
0.10061377 -0.0049942061 0.34304252 4294901760
0.10073321 -0.0054740049 0.34296817 4294901760
0.10085266 -0.0059537999 0.34289381 4294901760
0.1009721 -0.0064335987 0.34281945 4294901760
0.10109155 -0.0069133937 0.34274513 4294901760
0.10121099 -0.0073931925 0.34267077 4294901760
0.10133044 -0.0078729875 0.34259641 4294901760
0.10144988 -0.0083527826 0.34252205 4294901760
0.10156932 -0.0088325813 0.3424477 4294901760
0.10168877 -0.0093123801 0.34237334 4294901760
0.10180821 -0.0097921751 0.34229901 4294901760
0.10192765 -0.010271974 0.34222466 4294901760
0.1020471 -0.010751769 0.3421503 4294901760
0.09010268 0.03722791 0.34958544 4278255360
0.090576433 0.037359841 0.34949514 4278255360
0.091050178 0.037491776 0.34940484 4278255360
0.09152393 0.037623707 0.34931454 4278255360
0.091997683 0.037755638 0.34922424 4278255360
0.092471436 0.037887573 0.34913394 4278255360
0.092945181 0.038019504 0.34904364 4278255360
0.093418933 0.038151436 0.34895334 4278255360
0.093892686 0.03828337 0.34886304 4278255360
0.094366431 0.038415302 0.34877273 4278255360
0.094840184 0.038547233 0.34868243 4278255360
0.095313936 0.038679168 0.34859213 4278255360
0.095787689 0.038811099 0.34850183 4278255360
0.096261434 0.038943034 0.34841153 4278255360
0.096735187 0.039074965 0.34832123 4278255360
0.097208939 0.039206896 0.34823093 4278255360
0.097682685 0.039338831 0.34814063 4278255360
0.098156437 0.039470762 0.34805033 4278255360
0.09863019 0.039602693 0.34796003 4278255360
0.099103943 0.039734628 0.34786972 4278255360
0.099577688 0.039866559 0.34777942 4278255360
0.10005144 0.03999849 0.34768912 4278255360
0.10052519 0.040130425 0.34759882 4278255360
0.10099894 0.040262356 0.34750852 4278255360
0.10147269 0.040394288 0.34741822 4278255360
0.10194644 0.040526222 0.34732792 4278255360
0.10242019 0.040658154 0.34723762 4278255360
0.10289394 0.040790088 0.34714732 4278255360
0.10336769 0.04092202 0.34705701 4278255360
0.10384144 0.041053951 0.34696671 4278255360
0.10431519 0.041185886 0.34687641 4278255360
0.10478894 0.041317817 0.34678611 4278255360
0.1052627 0.041449748 0.34669581 4278255360
0.10573645 0.041581683 0.34660551 4278255360
0.10621019 0.041713614 0.34651521 4278255360
0.10668395 0.041845545 0.34642491 4278255360
0.1071577 0.04197748 0.34633461 4278255360
0.10763144 0.042109411 0.34624431 4278255360
0.1081052 0.042241342 0.346154 4278255360
0.10857895 0.042373277 0.3460637 4278255360
0.1090527 0.042505208 0.3459734 4278255360
0.10952645 0.04263714 0.3458831 4278255360
0.1100002 0.042769074 0.3457928 4278255360
0.11047395 0.042901006 0.3457025 4278255360
0.1109477 0.043032937 0.3456122 4278255360
0.11142145 0.043164872 0.3455219 4278255360
0.1118952 0.043296803 0.3454316 4278255360
0.11236895 0.043428734 0.3453413 4278255360
0.1128427 0.043560669 0.34525099 4278255360
0.11331645 0.0436926 0.34516066 4278255360
0.1137902 0.043824531 0.34507036 4278255360
0.11426395 0.043956466 0.34498006 4278255360
0.1147377 0.044088397 0.34488976 4278255360
0.11521146 0.044220328 0.34479946 4278255360
0.11568521 0.044352263 0.34470916 4278255360
0.11615895 0.044484194 0.34461886 4278255360
0.11663271 0.044616129 0.34452856 4278255360
0.11710645 0.04474806 0.34443825 4278255360
0.11758021 0.044879992 0.34434795 4278255360
0.11805396 0.045011923 0.34425765 4278255360
0.11852771 0.045143858 0.34416735 4278255360
0.11900146 0.045275792 0.34407705 4278255360
0.11947521 0.045407724 0.34398675 4278255360
0.11994896 0.045539655 0.34389645 4278255360
0.12042271 0.045671586 0.34380615 4278255360
0.12089646 0.045803521 0.34371585 4278255360
0.12137021 0.045935452 0.34362555 4278255360
0.12184396 0.046067387 0.34353524 4278255360
0.12231772 0.046199318 0.34344494 4278255360
0.12279146 0.046331249 0.34335464 4278255360
0.12326521 0.046463184 0.34326434 4278255360
0.12373896 0.046595115 0.34317404 4278255360
0.12421271 0.046727046 0.34308374 4278255360
0.12468646 0.046858981 0.34299344 4278255360
0.12516022 0.046990912 0.34290314 4278255360
0.12563396 0.047122844 0.34281284 4278255360
0.12610772 0.047254778 0.34272254 4278255360
0.12658146 0.04738671 0.34263223 4278255360
0.12705521 0.047518641 0.34254193 4278255360
0.12752897 0.047650576 0.34245163 4278255360
0.12800272 0.047782507 0.34236133 4278255360
0.12847647 0.047914438 0.34227103 4278255360
0.12895021 0.048046373 0.34218073 4278255360
0.12942398 0.048178304 0.34209043 4278255360
0.12989771 0.048310235 0.34200013 4278255360
0.13037147 0.04844217 0.34190983 4278255360
0.13084522 0.048574101 0.34181952 4278255360
0.13131897 0.048706032 0.34172922 4278255360
0.13179272 0.048837967 0.34163892 4278255360
0.13226646 0.048969898 0.34154862 4278255360
0.13274021 0.04910183 0.34145832 4278255360
0.13321397 0.049233764 0.34136802 4278255360
0.13368772 0.049365696 0.34127772 4278255360
0.13416147 0.049497627 0.34118742 4278255360
0.13463522 0.049629562 0.34109712 4278255360
0.13510898 0.049761493 0.34100682 4278255360
0.13558272 0.049893424 0.34091651 4278255360
0.13605648 0.050025359 0.34082621 4278255360
0.13653022 0.05015729 0.34073591 4278255360
0.13700397 0.050289225 0.34064561 4278255360
0.13747773 0.050421156 0.34055531 4278255360
0.09010268 0.03722791 0.34958544 4278190335
0.090134732 0.037159301 0.35007969 4278190335
0.090166785 0.037090693 0.3505739 4278190335
0.090198845 0.037022084 0.35106814 4278190335
0.090230897 0.036953475 0.35156238 4278190335
0.090262949 0.036884867 0.35205659 4278190335
0.090295002 0.036816258 0.35255083 4278190335
0.090327062 0.036747649 0.35304508 4278190335
0.090359114 0.036679041 0.35353929 4278190335
0.090391167 0.036610432 0.35403353 4278190335
0.090423219 0.036541823 0.35452777 4278190335
0.090455279 0.036473215 0.35502198 4278190335
0.090487331 0.03640461 0.35551623 4278190335
0.090519384 0.036336001 0.35601047 4278190335
0.090551436 0.036267392 0.35650471 4278190335
0.090583488 0.036198784 0.35699892 4278190335
0.090615548 0.036130175 0.35749316 4278190335
0.090647601 0.036061566 0.3579874 4278190335
0.090679653 0.035992958 0.35848162 4278190335
0.090711705 0.035924349 0.35897586 4278190335
0.090743765 0.03585574 0.3594701 4278190335
0.090775818 0.035787132 0.35996431 4278190335
0.09080787 0.035718523 0.36045855 4278190335
0.090839922 0.035649914 0.36095279 4278190335
0.090871982 0.035581306 0.36144701 4278190335
0.090904035 0.035512697 0.36194125 4278190335
0.090936087 0.035444088 0.36243549 4278190335
0.090968139 0.03537548 0.3629297 4278190335
0.091000192 0.035306871 0.36342394 4278190335
0.091032252 0.035238262 0.36391819 4278190335
0.091064304 0.035169654 0.3644124 4278190335
0.091096357 0.035101045 0.36490664 4278190335
0.091128409 0.035032436 0.36540088 4278190335
0.091160469 0.034963828 0.36589509 4278190335
0.091192521 0.034895219 0.36638933 4278190335
0.091224574 0.034826614 0.36688358 4278190335
0.091256626 0.034758005 0.36737782 4278190335
0.091288686 0.034689397 0.36787203 4278190335
0.091320738 0.034620788 0.36836627 4278190335
0.091352791 0.034552179 0.36886048 4278190335
0.091384843 0.034483571 0.36935472 4278190335
0.091416895 0.034414962 0.36984897 4278190335
0.091448955 0.034346353 0.37034321 4278190335
0.091481008 0.034277745 0.37083742 4278190335
0.09151306 0.034209136 0.37133166 4278190335
0.091545112 0.034140527 0.3718259 4278190335
0.091577172 0.034071919 0.37232012 4278190335
0.091609225 0.03400331 0.37281436 4278190335
0.091641277 0.033934701 0.3733086 4278190335
0.091673329 0.033866093 0.37380281 4278190335
0.091705382 0.033797484 0.37429705 4278190335
0.091737442 0.033728875 0.37479129 4278190335
0.091769494 0.033660267 0.37528551 4278190335
0.091801547 0.033591658 0.37577975 4278190335
0.091833599 0.033523049 0.37627399 4278190335
0.091865659 0.033454441 0.3767682 4278190335
0.091897711 0.033385836 0.37726244 4278190335
0.091929764 0.033317227 0.37775669 4278190335
0.091961816 0.033248618 0.3782509 4278190335
0.091993876 0.03318001 0.37874514 4278190335
0.092025928 0.033111401 0.37923938 4278190335
0.092057981 0.033042792 0.37973362 4278190335
0.092090033 0.032974184 0.38022783 4278190335
0.092122093 0.032905575 0.38072208 4278190335
0.092154145 0.032836966 0.38121629 4278190335
0.092186198 0.032768358 0.38171053 4278190335
0.09221825 0.032699749 0.38220477 4278190335
0.092250302 0.03263114 0.38269901 4278190335
0.092282362 0.032562532 0.38319322 4278190335
0.092314415 0.032493923 0.38368747 4278190335
0.092346467 0.032425314 0.38418171 4278190335
0.092378519 0.032356706 0.38467592 4278190335
0.092410579 0.032288097 0.38517016 4278190335
0.092442632 0.032219488 0.3856644 4278190335
0.092474684 0.03215088 0.38615862 4278190335
0.092506737 0.032082271 0.38665286 4278190335
0.092538789 0.032013662 0.3871471 4278190335
0.092570849 0.031945057 0.38764131 4278190335
0.092602901 0.031876449 0.38813555 4278190335
0.092634954 0.03180784 0.38862979 4278190335
0.092667006 0.031739231 0.38912401 4278190335
0.092699066 0.031670623 0.38961825 4278190335
0.092731118 0.031602014 0.39011249 4278190335
0.092763171 0.031533405 0.3906067 4278190335
0.092795223 0.031464797 0.39110094 4278190335
0.092827283 0.031396188 0.39159518 4278190335
0.092859335 0.031327579 0.39208943 4278190335
0.092891388 0.03125897 0.39258364 4278190335
0.09292344 0.031190362 0.39307788 4278190335
0.092955492 0.031121753 0.39357209 4278190335
0.092987552 0.031053144 0.39406633 4278190335
0.093019605 0.030984536 0.39456058 4278190335
0.093051657 0.030915927 0.39505482 4278190335
0.093083709 0.030847318 0.39554903 4278190335
0.093115769 0.03077871 0.39604327 4278190335
0.093147822 0.030710101 0.39653751 4278190335
0.093179874 0.030641494 0.39703172 4278190335
0.093211927 0.030572884 0.39752597 4278190335
