# .PCD v0.7 - Point Cloud Data file format
VERSION 0.7
FIELDS x y z rgb
SIZE 4 4 4 4
TYPE F F F U
COUNT 1 1 1 1
WIDTH 1082
HEIGHT 1
VIEWPOINT 0 0 0 1 0 0 0
POINTS 1082
DATA ascii
0.077889211 0.030189289 0.347 4279055388
0.06246841 0.031497229 0.34900001 4279447578
0.063601956 0.031497229 0.34900001 4279974944
0.064920999 0.031587481 0.35000002 4279647516
0.066057809 0.031587481 0.35000002 4278990099
0.067194603 0.031587481 0.35000002 4278794517
0.068136171 0.031497229 0.34900001 4278991896
0.069269724 0.031497229 0.34900001 4278268943
0.07040327 0.031497229 0.34900001 4282480208
0.071536824 0.031497229 0.34900001 4278663701
0.072670378 0.031497229 0.34900001 4278795287
0.073592462 0.03140698 0.34800002 4279123480
0.074722767 0.03140698 0.34800002 4278991894
0.075853072 0.03140698 0.34800002 4279123482
0.076983377 0.03140698 0.34800002 4278991896
0.077889211 0.031316731 0.347 4278991896
0.079016268 0.031316731 0.347 4279123482
0.079912372 0.03122648 0.34600002 4279255068
0.063601956 0.032631166 0.34900001 4279514906
0.065106489 0.032818165 0.35100001 4279515930
0.066246539 0.032818165 0.35100001 4279253271
0.067386582 0.032818165 0.35100001 4278991383
0.068331406 0.032724667 0.35000002 4279189275
0.069468208 0.032724667 0.35000002 4278795287
0.070605002 0.032724667 0.35000002 4278795285
0.071741804 0.032724667 0.35000002 4279585314
0.072670378 0.032631166 0.34900001 4278730005
0.073803931 0.032631166 0.34900001 4278927384
0.074722767 0.032537669 0.34800002 4278730005
0.075853072 0.032537669 0.34800002 4278663699
0.076983377 0.032537669 0.34800002 4278729492
0.077889211 0.032444168 0.347 4278795285
0.078788556 0.032350671 0.34600002 4278729492
0.079912372 0.032350671 0.34600002 4278729492
0.080801971 0.032257173 0.34500003 4278729492
0.065477468 0.034152094 0.35300002 4279648029
0.066435277 0.034055348 0.35200003 4279319578
0.067578569 0.034055348 0.35200003 4279451164
0.068721868 0.034055348 0.35200003 4279516957
0.069666684 0.033958599 0.35100001 4279057176
0.070806727 0.033958599 0.35100001 4279846692
0.071946777 0.033958599 0.35100001 4278860308
0.072878607 0.033861853 0.35000002 4278531343
0.074015409 0.033861853 0.35000002 4278531343
0.074937485 0.033765104 0.34900001 4278794515
0.075853072 0.033668354 0.34800002 4278728724
0.076983377 0.033668354 0.34800002 4278860308
0.077889211 0.033571605 0.347 4278663699
0.078788556 0.033474859 0.34600002 4278663699
0.079681411 0.033378113 0.34500003 4278663699
0.080567755 0.033281364 0.34400001 4278597906
0.081447616 0.033184614 0.34300002 4278532113
0.082320973 0.033087865 0.34200001 4278597906
0.083187841 0.032991119 0.34100002 4278663699
0.084295407 0.032991119 0.34100002 4278729492
0.087104224 0.032797623 0.33900002 4278794515
0.09014076 0.032700874 0.33800003 4278925588
0.091238588 0.032700874 0.33800003 4278925588
0.092609584 0.032797623 0.33900002 4278859795
0.093710653 0.032797623 0.33900002 4279122197
0.09481173 0.032797623 0.33900002 4279187990
0.095912807 0.032797623 0.33900002 4278990611
0.063900352 0.035699017 0.35700002 4279843612
0.064877644 0.035599019 0.35600001 4279844125
0.06566295 0.035399023 0.354 4279582236
0.066812746 0.035399023 0.354 4279385369
0.067962535 0.035399023 0.354 4279451162
0.068917103 0.035299029 0.35300002 4279451162
0.070063643 0.035299029 0.35300002 4279648541
0.071210191 0.035299029 0.35300002 4279780897
0.072151758 0.035199031 0.35200003 4279517725
0.073086828 0.035099033 0.35100001 4279320859
0.074015409 0.034999039 0.35000002 4279189273
0.075152203 0.034999039 0.35000002 4279189273
0.076071039 0.034899037 0.34900001 4279189273
0.076983377 0.034799043 0.34800002 4278926101
0.077889211 0.034699045 0.347 4278926103
0.078788556 0.034599047 0.34600002 4278991896
0.079681411 0.034499053 0.34500003 4278531343
0.080567755 0.034399055 0.34400001 4278728720
0.081447616 0.034299057 0.34300002 4278728720
0.082320973 0.034199059 0.34200001 4278531341
0.083431788 0.034199059 0.34200001 4278662929
0.084295407 0.034099061 0.34100002 4278728722
0.085402973 0.034099061 0.34100002 4278926101
0.086256839 0.033999063 0.34 4278729492
0.087104224 0.033899069 0.33900002 4278729492
0.0882053 0.033899069 0.33900002 4278729490
0.089306369 0.033899069 0.33900002 4278663697
0.090407446 0.033899069 0.33900002 4278532113
0.091508523 0.033899069 0.33900002 4278663699
0.092609584 0.033899069 0.33900002 4278728722
0.093710653 0.033899069 0.33900002 4278662929
0.09481173 0.033899069 0.33900002 4278794515
0.095912807 0.033899069 0.33900002 4278794515
0.096727706 0.033799071 0.33800003 4279123480
0.097825535 0.033799071 0.33800003 4278794515
0.099429332 0.033599075 0.33600003 4278859025
0.10052066 0.033599075 0.33600003 4279122197
0.10161199 0.033599075 0.33600003 4278990611
0.062916555 0.036962193 0.35800001 4279775770
0.063900352 0.03685895 0.35700002 4279777817
0.065059885 0.03685895 0.35700002 4279713307
0.06603393 0.0367557 0.35600001 4279385369
0.067190222 0.0367557 0.35600001 4279516955
0.068154521 0.036652453 0.35500002 4279516955
0.069307566 0.036652453 0.35500002 4279516955
0.07046061 0.036652453 0.35500002 4279977508
0.071411915 0.036549207 0.354 4279911715
0.072356731 0.03644596 0.35300002 4279648541
0.073295057 0.036342718 0.35200003 4279254553
0.074226879 0.036239468 0.35100001 4279189275
0.075152203 0.036136225 0.35000002 4279123482
0.076071039 0.036032975 0.34900001 4279188762
0.076983377 0.035929732 0.34800002 4279057176
0.077889211 0.035826482 0.347 4279188762
0.078788556 0.035723239 0.34600002 4279057176
0.079912372 0.035723239 0.34600002 4278991383
0.080801971 0.035619993 0.34500003 4279187992
0.081685066 0.035516743 0.34400001 4279187990
0.082561679 0.0354135 0.34300002 4279187990
0.083431788 0.03531025 0.34200001 4278859797
0.084542602 0.03531025 0.34200001 4278859797
0.085402973 0.035207007 0.34100002 4278530832
0.086510539 0.035207007 0.34100002 4278794004
0.087361164 0.035103757 0.34 4278860310
0.0882053 0.035000514 0.33900002 4278531345
0.089306369 0.035000514 0.33900002 4278531345
0.090407446 0.035000514 0.33900002 4278991894
0.091508523 0.035000514 0.33900002 4278728722
0.092609584 0.035000514 0.33900002 4278662929
0.093710653 0.035000514 0.33900002 4278728724
0.09481173 0.035000514 0.33900002 4278926103
0.095912807 0.035000514 0.33900002 4278926101
0.096727706 0.034897268 0.33800003 4278926101
0.098114952 0.035000514 0.33900002 4278728722
0.099429332 0.034690775 0.33600003 4278859795
0.10052066 0.034690775 0.33600003 4278794002
0.10161199 0.034690775 0.33600003 4278925588
0.061926268 0.038231868 0.35900003 4284906602
0.063092306 0.038231868 0.35900003 4279578904
0.064079344 0.03812537 0.35800001 4279778332
0.065242119 0.03812537 0.35800001 4279713309
0.066404909 0.03812537 0.35800001 4279122197
0.067378961 0.038018879 0.35700002 4279320346
0.068538494 0.038018879 0.35700002 4279254553
0.069698036 0.038018879 0.35700002 4278859795
0.070659086 0.03791238 0.35600001 4279912483
0.071815372 0.03791238 0.35600001 4279715106
0.072766684 0.037805885 0.35500002 4279451932
0.0737115 0.03769939 0.354 4279319576
0.074438356 0.0374864 0.35200003 4279320348
0.075366922 0.037379902 0.35100001 4279188762
0.076289006 0.037273411 0.35000002 4279254555
0.077204593 0.037166912 0.34900001 4279188762
0.078113675 0.037060417 0.34800002 4279188762
0.079016268 0.036953922 0.347 4279057176
0.079912372 0.036847427 0.34600002 4279451164
0.080801971 0.036740933 0.34500003 4278529548
0.081685066 0.036634434 0.34400001 4278397195
0.082802385 0.036634434 0.34400001 4278725392
0.083675742 0.036527943 0.34300002 4279121945
0.084789813 0.036527943 0.34300002 4279056406
0.085653417 0.036421444 0.34200001 4278990613
0.086510539 0.036314949 0.34100002 4279187992
0.087618113 0.036314949 0.34100002 4278859797
0.088465489 0.036208451 0.34 4279254555
0.089569807 0.036208451 0.34 4278990613
0.090674132 0.036208451 0.34 4279057176
0.09177845 0.036208451 0.34 4278991383
0.092609584 0.03610196 0.33900002 4278794004
0.093710653 0.03610196 0.33900002 4279057176
0.09481173 0.03610196 0.33900002 4278859797
0.095912807 0.03610196 0.33900002 4278728211
0.097013876 0.03610196 0.33900002 4278728211
0.097825535 0.035995465 0.33800003 4278728209
0.098923348 0.035995465 0.33800003 4278991381
0.099725246 0.035888966 0.33700001 4279057174
0.10081983 0.035888966 0.33700001 4278859795
0.10191441 0.035888966 0.33700001 4279057174
0.061098732 0.039617784 0.36100003 4284117604
0.062098764 0.039508041 0.36000001 4284512616
0.063268043 0.039508041 0.36000001 4279841822
0.064258337 0.039398298 0.35900003 4279779102
0.065424368 0.039398298 0.35900003 4279648029
0.066590399 0.039398298 0.35900003 4279516955
0.067756437 0.039398298 0.35900003 4279451162
0.06892246 0.039398298 0.35900003 4279320346
0.069893263 0.039288551 0.35800001 4279517725
0.071056046 0.039288551 0.35800001 4279846692
0.072017103 0.039178807 0.35700002 4279714852
0.072971664 0.03906906 0.35600001 4279582750
0.073919728 0.038959317 0.35500002 4279319578
0.074649826 0.038739827 0.35300002 4279319578
0.075581647 0.038630083 0.35200003 4279187992
0.076506972 0.038520336 0.35100001 4279319578
0.077204593 0.038300849 0.34900001 4279319578
0.078113675 0.038191106 0.34800002 4279122199
0.079243988 0.038191106 0.34800002 4279187992
0.080143325 0.038081359 0.347 4279648029
0.081036173 0.037971616 0.34600002 4279515160
0.081922531 0.037861872 0.34500003 4278922258
0.083043091 0.037861872 0.34500003 4279514908
0.083919697 0.037752125 0.34400001 4279318812
0.085037008 0.037752125 0.34400001 4279187224
0.085903868 0.037642382 0.34300002 4279055638
0.087017938 0.037642382 0.34300002 4279253017
0.087875053 0.037532635 0.34200001 4279253017
0.088725686 0.037422892 0.34100002 4279911201
0.089833252 0.037422892 0.34100002 4279253271
0.090940826 0.037422892 0.34100002 4279187478
0.092048392 0.037422892 0.34100002 4279187478
0.092882767 0.037313148 0.34 4279450650
0.093987085 0.037313148 0.34 4279122199
0.09509141 0.037313148 0.34 4279121945
0.096195728 0.037313148 0.34 4279056152
0.097300053 0.037313148 0.34 4279122199
0.098114952 0.037203405 0.33900002 4279187992
0.099216014 0.037203405 0.33900002 4279122197
0.10002118 0.037093662 0.33800003 4279122197
0.101119 0.037093662 0.33800003 4279319576
0.10221682 0.037093662 0.33800003 4279122197
0.10362031 0.037203405 0.33900002 4278859797
0.10472139 0.037203405 0.33900002 4278859797
0.10582246 0.037203405 0.33900002 4278794002
0.10692353 0.037203405 0.33900002 4278859025
0.1080246 0.037203405 0.33900002 4278990611
0.1237409 0.037971616 0.34600002 4278924820
0.1248647 0.037971616 0.34600002 4278727439
0.12897739 0.038191106 0.34800002 4279319062
0.1301077 0.038191106 0.34800002 4279582234
0.13086088 0.038081359 0.347 4279516441
0.061098732 0.040790711 0.36100003 4284249190
0.062098764 0.040677715 0.36000001 4284249190
0.063268043 0.040677715 0.36000001 4283131476
0.06443733 0.040677715 0.36000001 4280173090
0.065606602 0.040677715 0.36000001 4279713822
0.066775888 0.040677715 0.36000001 4279976992
0.067945167 0.040677715 0.36000001 4279320346
0.069114447 0.040677715 0.36000001 4279451934
0.070088498 0.040564723 0.35900003 4279780899
0.071254529 0.040564723 0.35900003 4279912485
0.072218828 0.040451728 0.35800001 4279517727
0.073176645 0.040338736 0.35700002 4279385887
0.073919728 0.040112749 0.35500002 4279320348
0.074861296 0.039999753 0.354 4279451164
0.075581647 0.03977377 0.35200003 4279319578
0.076506972 0.039660774 0.35100001 4279516957
0.077425815 0.039547779 0.35000002 4279385371
0.078338139 0.039434783 0.34900001 4279319578
0.079243988 0.039321791 0.34800002 4279187992
0.080374293 0.039321791 0.34800002 4278988562
0.081270382 0.039208796 0.347 4278592009
0.082159981 0.039095804 0.34600002 4278591755
0.083283797 0.039095804 0.34600002 4279383322
0.084163651 0.038982812 0.34500003 4279252506
0.085284211 0.038982812 0.34500003 4278329097
0.086154319 0.038869817 0.34400001 4278721547
0.087271631 0.038869817 0.34400001 4278195716
0.088132001 0.038756825 0.34300002 4278525449
0.089246072 0.038756825 0.34300002 4278525449
0.09009669 0.03864383 0.34200001 4278592523
0.091207512 0.03864383 0.34200001 4279908381
0.092318326 0.03864383 0.34200001 4279054355
0.093429133 0.03864383 0.34200001 4279778078
0.094539955 0.03864383 0.34200001 4279515676
0.09565077 0.03864383 0.34200001 4279515676
0.096478663 0.038530838 0.34100002 4279384090
0.097586237 0.038530838 0.34100002 4279515676
0.098693803 0.038530838 0.34100002 4279581723
0.099508688 0.038417842 0.34 4279384342
0.10061301 0.038417842 0.34 4279319062
0.10171733 0.038417842 0.34 4279187476
0.10282166 0.038417842 0.34 4279253269
0.10392597 0.038417842 0.34 4279253271
0.1050303 0.038417842 0.34 4279450650
0.10613462 0.038417842 0.34 4279319064
0.10723893 0.038417842 0.34 4279319064
0.10834325 0.038417842 0.34 4279319064
0.10976949 0.038530838 0.34100002 4279450648
0.1112022 0.03864383 0.34200001 4279253269
0.11264143 0.038756825 0.34300002 4279056404
0.11408714 0.038869817 0.34400001 4278859025
0.11520445 0.038869817 0.34400001 4278859025
0.11665991 0.038982812 0.34500003 4278859025
0.11778047 0.038982812 0.34500003 4279056404
0.11924567 0.039095804 0.34600002 4279188760
0.12036948 0.039095804 0.34600002 4279254553
0.12149329 0.039095804 0.34600002 4279188760
0.1226171 0.039095804 0.34600002 4279715104
0.1237409 0.039095804 0.34600002 4279056404
0.1248647 0.039095804 0.34600002 4278924818
0.12635264 0.039208796 0.347 4279451162
0.1274797 0.039208796 0.347 4279055890
0.12860675 0.039208796 0.347 4279055890
0.12973382 0.039208796 0.347 4279121683
0.13086088 0.039208796 0.347 4279253269
0.13198793 0.039208796 0.347 4279121681
0.13311498 0.039208796 0.347 4279253267
0.13385518 0.039095804 0.34600002 4279516439
0.13497899 0.039095804 0.34600002 4279648025
0.1361028 0.039095804 0.34600002 4279516439
0.13722661 0.039095804 0.34600002 4279713822
0.13835041 0.039095804 0.34600002 4279976481
0.13947421 0.039095804 0.34600002 4279844895
0.14059803 0.039095804 0.34600002 4280303139
0.14213143 0.039208796 0.347 4280170526
0.061098732 0.041963637 0.36100003 4284314985
0.062271263 0.041963637 0.36100003 4284314983
0.063443795 0.041963637 0.36100003 4284511592
0.06443733 0.041847393 0.36000001 4280632876
0.065606602 0.041847393 0.36000001 4279844641
0.066775888 0.041847393 0.36000001 4279582750
0.067945167 0.041847393 0.36000001 4279517727
0.069114447 0.041847393 0.36000001 4279452447
0.070283726 0.041847393 0.36000001 4279978278
0.071254529 0.041731153 0.35900003 4279715106
0.072218828 0.041614905 0.35800001 4279451934
0.073176645 0.041498665 0.35700002 4279320348
0.073919728 0.041266181 0.35500002 4279320348
0.074861296 0.041149933 0.354 4279254555
0.075581647 0.040917452 0.35200003 4279320348
0.076506972 0.040801208 0.35100001 4279385371
0.077425815 0.040684965 0.35000002 4279385371
0.078338139 0.040568721 0.34900001 4279319578
0.079471692 0.040568721 0.34900001 4279319578
0.080374293 0.04045248 0.34800002 4279579418
0.081504591 0.04045248 0.34800002 4278459656
0.082397439 0.040336236 0.347 4279711774
0.083524495 0.040336236 0.347 4279318299
0.084407598 0.040219992 0.34600002 4278789648
0.085531406 0.040219992 0.34600002 4278786318
0.086404771 0.040103752 0.34500003 4279114769
0.08752533 0.040103752 0.34500003 4279048463
0.08864589 0.040103752 0.34500003 4278786572
0.089506261 0.039987508 0.34400001 4278786572
0.090623572 0.039987508 0.34400001 4278917644
0.091740884 0.039987508 0.34400001 4278982924
0.092858203 0.039987508 0.34400001 4278917644
0.093702324 0.039871268 0.34300002 4278852365
0.094816387 0.039871268 0.34300002 4278852365
0.095930457 0.039871268 0.34300002 4278721547
0.09704452 0.039871268 0.34300002 4278524679
0.09815859 0.039871268 0.34300002 4278459656
0.099272653 0.039871268 0.34300002 4278592009
0.10009404 0.03975502 0.34200001 4278988049
0.10120485 0.03975502 0.34200001 4279384344
0.10231567 0.03975502 0.34200001 4279384344
0.10342649 0.03975502 0.34200001 4279318551
0.10453731 0.03975502 0.34200001 4279384344
0.10564812 0.03975502 0.34200001 4279384344
0.10675894 0.03975502 0.34200001 4279581723
0.10755435 0.03963878 0.34100002 4279515930
0.10866191 0.03963878 0.34100002 4279450650
0.11009139 0.03975502 0.34200001 4279450650
0.11152736 0.039871268 0.34300002 4279516443
0.11264143 0.039871268 0.34300002 4279516441
0.11408714 0.039987508 0.34400001 4279319060
0.11553934 0.040103752 0.34500003 4279253267
0.11665991 0.040103752 0.34500003 4279253267
0.11812185 0.040219992 0.34600002 4279253267
0.11924567 0.040219992 0.34600002 4279253267
0.12036948 0.040219992 0.34600002 4279253269
0.12149329 0.040219992 0.34600002 4279055377
0.1226171 0.040219992 0.34600002 4279121170
0.1237409 0.040219992 0.34600002 4278923791
0.12522559 0.040336236 0.347 4279318549
0.12635264 0.040336236 0.347 4279384342
0.1274797 0.040336236 0.347 4279516441
0.12860675 0.040336236 0.347 4279516441
0.12973382 0.040336236 0.347 4279319062
0.13086088 0.040336236 0.347 4279121683
0.13198793 0.040336236 0.347 4278990611
0.13311498 0.040336236 0.347 4278990611
0.13385518 0.040219992 0.34600002 4279055888
0.13497899 0.040219992 0.34600002 4279121681
0.1361028 0.040219992 0.34600002 4278858511
0.13722661 0.040219992 0.34600002 4279055892
0.13835041 0.040219992 0.34600002 4279187478
0.13947421 0.040219992 0.34600002 4279253269
0.14100438 0.040336236 0.347 4279515926
0.14213143 0.040336236 0.347 4279515926
0.1432585 0.040336236 0.347 4280369186
0.061098732 0.043136563 0.36100003 4284380778
0.062271263 0.043136563 0.36100003 4284511594
0.063443795 0.043136563 0.36100003 4284248422
0.064616323 0.043136563 0.36100003 4284644461
0.065606602 0.043017067 0.36000001 4280302891
0.066961378 0.043136563 0.36100003 4279845668
0.068133906 0.043136563 0.36100003 4279451934
0.069306433 0.043136563 0.36100003 4279780899
0.070283726 0.043017067 0.36000001 4279912485
0.071453013 0.043017067 0.36000001 4279780899
0.07242056 0.042897578 0.35900003 4279649313
0.073176645 0.042658594 0.35700002 4279320348
0.073919728 0.042419609 0.35500002 4279386141
0.074649826 0.042180628 0.35300002 4279385371
0.075581647 0.042061135 0.35200003 4279451164
0.076506972 0.041941643 0.35100001 4279385371
0.077425815 0.04182215 0.35000002 4279451164
0.07856261 0.04182215 0.35000002 4279187738
0.079471692 0.041702658 0.34900001 4279318810
0.080605246 0.041702658 0.34900001 4278920720
0.081504591 0.041583166 0.34800002 4279380758
0.082634896 0.041583166 0.34800002 4279514908
0.083765201 0.041583166 0.34800002 4279318297
0.084651552 0.041463673 0.347 4278589963
0.085778609 0.041463673 0.347 4279312402
0.086655214 0.041344184 0.34600002 4279773467
0.087779023 0.041344184 0.34600002 4280036639
0.088902831 0.041344184 0.34600002 4279115537
0.089766458 0.041224692 0.34500003 4279576088
0.090887018 0.041224692 0.34500003 4279115537
0.092007577 0.041224692 0.34500003 4280036639
0.093128145 0.041224692 0.34500003 4280562981
0.094248697 0.041224692 0.34500003 4279576086
0.095369257 0.041224692 0.34500003 4279115023
0.096489817 0.041224692 0.34500003 4279180816
0.097610384 0.041224692 0.34500003 4278917644
0.098730944 0.041224692 0.34500003 4279115021
0.099562079 0.0411052 0.34400001 4278983435
0.10067938 0.0411052 0.34400001 4280038688
0.10179669 0.0411052 0.34400001 4279448600
0.10291401 0.0411052 0.34400001 4279514393
0.10403132 0.0411052 0.34400001 4278922258
0.10484298 0.040985707 0.34300002 4278658316
0.10595704 0.040985707 0.34300002 4278855181
0.10707111 0.040985707 0.34300002 4278263044
0.10818516 0.040985707 0.34300002 4278592007
0.10929923 0.040985707 0.34300002 4279447830
0.1104133 0.040985707 0.34300002 4279317014
0.11185251 0.0411052 0.34400001 4279383320
0.11296982 0.0411052 0.34400001 4279449367
0.11441879 0.041224692 0.34500003 4279449365
0.11553934 0.041224692 0.34500003 4279647514
0.11699805 0.041344184 0.34600002 4279318549
0.11812185 0.041344184 0.34600002 4279318551
0.11924567 0.041344184 0.34600002 4279384342
0.12036948 0.041344184 0.34600002 4279318549
0.12149329 0.041344184 0.34600002 4279318549
0.1226171 0.041344184 0.34600002 4279581721
0.1237409 0.041344184 0.34600002 4279581721
0.12522559 0.041463673 0.347 4279318549
0.12635264 0.041463673 0.347 4279384342
0.1274797 0.041463673 0.347 4279121170
0.12860675 0.041463673 0.347 4279253269
0.12973382 0.041463673 0.347 4279121683
0.13086088 0.041463673 0.347 4279055890
0.13198793 0.041463673 0.347 4279450648
0.13311498 0.041463673 0.347 4279319062
0.13385518 0.041344184 0.34600002 4279319062
0.13497899 0.041344184 0.34600002 4279582234
0.1361028 0.041344184 0.34600002 4279450648
0.13722661 0.041344184 0.34600002 4279582234
0.13835041 0.041344184 0.34600002 4279319062
0.13987732 0.041463673 0.347 4279121683
0.14100438 0.041463673 0.347 4279121683
0.14213143 0.041463673 0.347 4278990097
0.1432585 0.041463673 0.347 4279318549
0.14438555 0.041463673 0.347 4279712537
0.062271263 0.044309489 0.36100003 4284380008
0.063268043 0.044186745 0.36000001 4284248422
0.06443733 0.044186745 0.36000001 4283919457
0.065606602 0.044186745 0.36000001 4284380006
0.066775888 0.044186745 0.36000001 4281750335
0.067945167 0.044186745 0.36000001 4280172584
0.069114447 0.044186745 0.36000001 4280240428
0.070283726 0.044186745 0.36000001 4279912233
0.071453013 0.044186745 0.36000001 4279714854
0.072218828 0.043941263 0.35800001 4279385889
0.073176645 0.043818522 0.35700002 4279451680
0.0737115 0.0434503 0.354 4279451680
0.074649826 0.043327559 0.35300002 4279320094
0.075581647 0.043204818 0.35200003 4278991383
0.076506972 0.043082077 0.35100001 4279319578
0.077425815 0.042959336 0.35000002 4279451164
0.07856261 0.042959336 0.35000002 4279319578
0.079471692 0.042836595 0.34900001 4279186713
0.080605246 0.042836595 0.34900001 4278854927
0.0817388 0.042836595 0.34900001 4279710236
0.082634896 0.042713854 0.34800002 4279712285
0.083765201 0.042713854 0.34800002 4279646494
0.084895507 0.042713854 0.34800002 4279049744
0.085778609 0.04259111 0.347 4278983951
0.086905658 0.04259111 0.347 4279115023
0.088032715 0.04259111 0.347 4278983437
0.089159779 0.04259111 0.347 4279312914
0.090026647 0.042468373 0.34600002 4279576086
0.091150455 0.042468373 0.34600002 4278983183
0.092274264 0.042468373 0.34600002 4279510041
0.093398072 0.042468373 0.34600002 4279181330
0.094521873 0.042468373 0.34600002 4278852365
0.095645688 0.042468373 0.34600002 4279116305
0.096769497 0.042468373 0.34600002 4279774235
0.097893305 0.042468373 0.34600002 4279313684
0.099017113 0.042468373 0.34600002 4279180816
0.10014093 0.042468373 0.34600002 4279313684
0.10126472 0.042468373 0.34600002 4279776029
0.10209262 0.042345632 0.34500003 4279711774
0.10321318 0.042345632 0.34500003 4279580186
0.10433374 0.042345632 0.34500003 4278987279
0.1054543 0.042345632 0.34500003 4279053074
0.10657487 0.042345632 0.34500003 4279711004
0.10738327 0.042222891 0.34400001 4279842590
0.10850057 0.042222891 0.34400001 4279908383
0.10961788 0.042222891 0.34400001 4279645211
0.11073519 0.042222891 0.34400001 4279908383
0.11217767 0.042345632 0.34500003 4279645211
0.11329823 0.042345632 0.34500003 4279249939
0.11441879 0.042345632 0.34500003 4279249426
0.11587424 0.042468373 0.34600002 4278459908
0.11699805 0.042468373 0.34600002 4278394115
0.11812185 0.042468373 0.34600002 4278920972
0.11924567 0.042468373 0.34600002 4278657800
0.12036948 0.042468373 0.34600002 4280040221
0.12149329 0.042468373 0.34600002 4279119119
0.1226171 0.042468373 0.34600002 4279448854
0.12409852 0.04259111 0.347 4279383574
0.12522559 0.04259111 0.347 4279449367
0.12635264 0.04259111 0.347 4279778330
0.1274797 0.04259111 0.347 4279317779
0.12860675 0.04259111 0.347 4279318549
0.12973382 0.04259111 0.347 4279187476
0.13086088 0.04259111 0.347 4279450648
0.13198793 0.04259111 0.347 4279319062
0.13311498 0.04259111 0.347 4279318549
0.13424204 0.04259111 0.347 4279253269
0.13536909 0.04259111 0.347 4279187476
0.13649616 0.04259111 0.347 4279055890
0.13762322 0.04259111 0.347 4279121683
0.13875026 0.04259111 0.347 4279055890
0.13987732 0.04259111 0.347 4279450648
0.14100438 0.04259111 0.347 4279187476
0.14213143 0.04259111 0.347 4279253269
0.1432585 0.04259111 0.347 4279055890
0.14438555 0.04259111 0.347 4279187476
0.062098764 0.045356423 0.36000001 4284248420
0.063268043 0.045356423 0.36000001 4284380006
0.06443733 0.045356423 0.36000001 4284051043
0.065606602 0.045356423 0.36000001 4283985250
0.066775888 0.045356423 0.36000001 4283919455
0.067945167 0.045356423 0.36000001 4284052578
0.069114447 0.045356423 0.36000001 4283789404
0.070283726 0.045356423 0.36000001 4280566063
0.071254529 0.045230437 0.35900003 4279975207
0.072218828 0.045104444 0.35800001 4280041768
0.072971664 0.044852462 0.35600001 4279713570
0.073295057 0.044348504 0.35200003 4279648291
0.074226879 0.044222515 0.35100001 4279648289
0.075366922 0.044222515 0.35100001 4279516957
0.076289006 0.044096526 0.35000002 4279582750
0.077425815 0.044096526 0.35000002 4279516957
0.07856261 0.044096526 0.35000002 4279648029
0.079699412 0.044096526 0.35000002 4278790931
0.080605246 0.043970533 0.34900001 4279448348
0.0817388 0.043970533 0.34900001 4279908383
0.082872353 0.043970533 0.34900001 4279778848
0.083765201 0.043844543 0.34800002 4279581469
0.084895507 0.043844543 0.34800002 4279512857
0.086025812 0.043844543 0.34800002 4279314195
0.08715611 0.043844543 0.34800002 4278458375
0.088032715 0.04371855 0.347 4278720777
0.089159779 0.04371855 0.347 4279180814
0.090286836 0.04371855 0.347 4278983437
0.091413893 0.04371855 0.347 4279114769
0.09254095 0.04371855 0.347 4279245842
0.093668006 0.04371855 0.347 4278982670
0.094795056 0.04371855 0.347 4279048463
0.095922112 0.04371855 0.347 4278720777
0.097049169 0.04371855 0.347 4278721547
0.098176233 0.04371855 0.347 4279510293
0.09930329 0.04371855 0.347 4279180814
0.10043035 0.04371855 0.347 4279840793
0.1015574 0.04371855 0.347 4279842588
0.10238854 0.043592565 0.34600002 4278328837
0.10351235 0.043592565 0.34600002 4278787851
0.10463616 0.043592565 0.34600002 4279115533
0.10575996 0.043592565 0.34600002 4279115021
0.10688378 0.043592565 0.34600002 4278458886
0.10800759 0.043592565 0.34600002 4279249685
0.10881598 0.043466575 0.34500003 4279053074
0.10993654 0.043466575 0.34500003 4279382039
0.1110571 0.043466575 0.34500003 4278921488
0.11250281 0.043592565 0.34600002 4279645211
0.11362663 0.043592565 0.34600002 4279315730
0.11475044 0.043592565 0.34600002 4279513109
0.11587424 0.043592565 0.34600002 4279709975
0.11699805 0.043592565 0.34600002 4279842328
0.11846325 0.04371855 0.347 4279842328
0.1195903 0.04371855 0.347 4279842842
0.12071736 0.04371855 0.347 4280105500
0.12184442 0.04371855 0.347 4279710742
0.12297148 0.04371855 0.347 4279578643
0.12409852 0.04371855 0.347 4279315471
0.12522559 0.04371855 0.347 4278920459
0.12635264 0.04371855 0.347 4278459910
0.1274797 0.04371855 0.347 4278525703
0.12860675 0.04371855 0.347 4279117838
0.12973382 0.04371855 0.347 4279381523
0.13086088 0.04371855 0.347 4279579670
0.13198793 0.04371855 0.347 4279579668
0.13311498 0.04371855 0.347 4279645459
0.13424204 0.04371855 0.347 4279449365
0.13536909 0.04371855 0.347 4279646744
0.13649616 0.04371855 0.347 4279384342
0.13762322 0.04371855 0.347 4279384342
0.13875026 0.04371855 0.347 4279581721
0.13987732 0.04371855 0.347 4279515928
0.14100438 0.04371855 0.347 4279646744
0.14213143 0.04371855 0.347 4279317779
0.1432585 0.04371855 0.347 4279186193
0.14438555 0.04371855 0.347 4279251986
0.06246841 0.045104466 0.34900001 4284182627
0.063419722 0.044975229 0.34800002 4283985248
0.06436453 0.044845987 0.347 4284116836
0.065491594 0.044845987 0.347 4284380008
0.066618644 0.044845987 0.347 4284381030
0.067940935 0.044975229 0.34800002 4284512616
0.068872757 0.044845987 0.347 4284578409
0.069999814 0.044845987 0.347 4284842094
0.071126871 0.044845987 0.347 4285039733
0.072878607 0.045233708 0.35000002 4284579436
0.074015409 0.045233708 0.35000002 4283000400
0.075152203 0.045233708 0.35000002 4281356345
0.076289006 0.045233708 0.35000002 4280237864
0.077425815 0.045233708 0.35000002 4279383068
0.07856261 0.045233708 0.35000002 4279579934
0.079699412 0.045233708 0.35000002 4279777313
0.080605246 0.045104466 0.34900001 4279909412
0.0817388 0.045104466 0.34900001 4279975459
0.082872353 0.045104466 0.34900001 4279843871
0.084005907 0.045104466 0.34900001 4279712285
0.084895507 0.044975229 0.34800002 4279909664
0.086025812 0.044975229 0.34800002 4279909664
0.08715611 0.044975229 0.34800002 4279647262
0.088286422 0.044975229 0.34800002 4279778850
0.089159779 0.044845987 0.347 4279909153
0.090286836 0.044845987 0.347 4279974946
0.091413893 0.044845987 0.347 4280434213
0.09254095 0.044845987 0.347 4279775516
0.093668006 0.044845987 0.347 4279708953
0.094795056 0.044845987 0.347 4279379475
0.095922112 0.044845987 0.347 4278983949
0.097049169 0.044845987 0.347 4279180814
0.098176233 0.044845987 0.347 4278983437
0.09930329 0.044845987 0.347 4279707160
0.10043035 0.044845987 0.347 4279776029
0.1015574 0.044845987 0.347 4280039967
0.10268445 0.044845987 0.347 4279644443
0.10381151 0.044845987 0.347 4279051025
0.10493857 0.044845987 0.347 4279115535
0.10606562 0.044845987 0.347 4279115019
0.10719269 0.044845987 0.347 4279841563
0.10800759 0.044716749 0.34600002 4279118353
0.10913139 0.044716749 0.34600002 4279513623
0.1102552 0.044716749 0.34600002 4279513623
0.11137901 0.044716749 0.34600002 4279250451
0.11250281 0.044716749 0.34600002 4279053074
0.11395502 0.044845987 0.347 4279842590
0.11508209 0.044845987 0.347 4279711774
0.11620913 0.044845987 0.347 4279249939
0.11733619 0.044845987 0.347 4279907356
0.11846325 0.044845987 0.347 4279578902
0.1195903 0.044845987 0.347 4279118865
0.12071736 0.044845987 0.347 4280040221
0.12184442 0.044845987 0.347 4279710742
0.12297148 0.044845987 0.347 4279973914
0.12409852 0.044845987 0.347 4279973914
0.12522559 0.044845987 0.347 4279842074
0.12635264 0.044845987 0.347 4280105246
0.1274797 0.044845987 0.347 4279973660
0.12860675 0.044845987 0.347 4279973660
0.12973382 0.044845987 0.347 4279842074
0.13086088 0.044845987 0.347 4279710488
0.13198793 0.044845987 0.347 4279446803
0.13311498 0.044845987 0.347 4279511826
0.13424204 0.044845987 0.347 4278789388
0.13536909 0.044845987 0.347 4279711002
0.13649616 0.044845987 0.347 4279645461
0.13762322 0.044845987 0.347 4279711254
0.13875026 0.044845987 0.347 4279515158
0.13987732 0.044845987 0.347 4279778330
0.14100438 0.044845987 0.347 4279580438
0.14213143 0.044845987 0.347 4279580438
0.14367135 0.044975229 0.34800002 4279712024
0.14480166 0.044975229 0.34800002 4279843610
0.063237473 0.045973428 0.347 4283919457
0.06436453 0.045973428 0.347 4284248422
0.065491594 0.045973428 0.347 4284445801
0.066618644 0.045973428 0.347 4284314983
0.067550473 0.045840941 0.34600002 4284709741
0.068674281 0.045840941 0.34600002 4284578155
0.06979809 0.045840941 0.34600002 4284775534
0.071126871 0.045973428 0.347 4284776047
0.072462156 0.046105918 0.34800002 4284644461
0.073803931 0.046238404 0.34900001 4284841840
0.074937485 0.046238404 0.34900001 4284710254
0.076071039 0.046238404 0.34900001 4284710254
0.077204593 0.046238404 0.34900001 4284644715
0.078338139 0.046238404 0.34900001 4284842094
0.079471692 0.046238404 0.34900001 4285171059
0.080605246 0.046238404 0.34900001 4285565817
0.0817388 0.046238404 0.34900001 4284973678
0.082872353 0.046238404 0.34900001 4283986522
0.084005907 0.046238404 0.34900001 4281223479
0.084895507 0.046105918 0.34800002 4280171301
0.086025812 0.046105918 0.34800002 4279645211
0.08715611 0.046105918 0.34800002 4279580188
0.088286422 0.046105918 0.34800002 4279975459
0.089416727 0.046105918 0.34800002 4279843871
0.090547033 0.046105918 0.34800002 4279975457
0.091677338 0.046105918 0.34800002 4279975457
0.092807643 0.046105918 0.34800002 4279909664
0.093937948 0.046105918 0.34800002 4279909664
0.095068246 0.046105918 0.34800002 4279712285
0.096198551 0.046105918 0.34800002 4279909151
0.097328857 0.046105918 0.34800002 4279909151
0.098459162 0.046105918 0.34800002 4279909151
0.099589467 0.046105918 0.34800002 4279843358
0.10071978 0.046105918 0.34800002 4279777567
0.10185007 0.046105918 0.34800002 4279580188
0.10268445 0.045973428 0.347 4279315732
0.10381151 0.045973428 0.347 4278723595
0.10493857 0.045973428 0.347 4278788105
0.10606562 0.045973428 0.347 4278656519
0.10719269 0.045973428 0.347 4279117838
0.10831974 0.045973428 0.347 4280104733
0.10944679 0.045973428 0.347 4280039453
0.11057385 0.045973428 0.347 4280631844
0.11170091 0.045973428 0.347 4279842588
0.11282796 0.045973428 0.347 4280039967
0.11395502 0.045973428 0.347 4279118867
0.11508209 0.045973428 0.347 4279053074
0.11620913 0.045973428 0.347 4279974176
0.11733619 0.045973428 0.347 4280039969
0.11846325 0.045973428 0.347 4278590726
0.1195903 0.045973428 0.347 4279577621
0.12071736 0.045973428 0.347 4278854666
0.12184442 0.045973428 0.347 4279644182
0.12297148 0.045973428 0.347 4278855179
0.12409852 0.045973428 0.347 4279842074
0.12522559 0.045973428 0.347 4279184146
0.12635264 0.045973428 0.347 4279644695
0.1274797 0.045973428 0.347 4279184144
0.12860675 0.045973428 0.347 4279249937
0.12973382 0.045973428 0.347 4279711002
0.13086088 0.045973428 0.347 4279645209
0.13198793 0.045973428 0.347 4279711002
0.13311498 0.045973428 0.347 4278459140
0.13424204 0.045973428 0.347 4279907354
0.13536909 0.045973428 0.347 4279645209
0.13649616 0.045973428 0.347 4279842842
0.13762322 0.045973428 0.347 4279711254
0.13915013 0.046105918 0.34800002 4279579668
0.14028043 0.046105918 0.34800002 4279842840
0.14141074 0.046105918 0.34800002 4279908633
0.14254104 0.046105918 0.34800002 4279842842
0.14367135 0.046105918 0.34800002 4279909403
0.14480166 0.046105918 0.34800002 4280238368
0.063237473 0.047100864 0.347 4283589979
0.064179048 0.04696513 0.34600002 4284511081
0.065302856 0.04696513 0.34600002 4284643180
0.066426665 0.04696513 0.34600002 4284578157
0.067550473 0.04696513 0.34600002 4284709743
0.068674281 0.04696513 0.34600002 4284775534
0.06979809 0.04696513 0.34600002 4284907120
0.070921898 0.04696513 0.34600002 4284907120
0.072253928 0.047100864 0.347 4285038706
0.073592462 0.047236603 0.34800002 4285038706
0.074722767 0.047236603 0.34800002 4285038706
0.076071039 0.047372341 0.34900001 4285170292
0.077204593 0.047372341 0.34900001 4285038706
0.078338139 0.047372341 0.34900001 4284907120
0.079471692 0.047372341 0.34900001 4284972913
0.080605246 0.047372341 0.34900001 4285038706
0.0817388 0.047372341 0.34900001 4285038960
0.082872353 0.047372341 0.34900001 4285301362
0.084005907 0.047372341 0.34900001 4285169776
0.084895507 0.047236603 0.34800002 4285169776
0.086025812 0.047236603 0.34800002 4285170546
0.08715611 0.047236603 0.34800002 4285368184
0.088286422 0.047236603 0.34800002 4285433977
0.089416727 0.047236603 0.34800002 4285763194
0.090547033 0.047236603 0.34800002 4284842092
0.091677338 0.047236603 0.34800002 4283131476
0.092807643 0.047236603 0.34800002 4281552444
0.093937948 0.047236603 0.34800002 4280368680
0.095068246 0.047236603 0.34800002 4279513371
0.096198551 0.047236603 0.34800002 4279514395
0.097328857 0.047236603 0.34800002 4279843358
0.098459162 0.047236603 0.34800002 4280040737
0.099589467 0.047236603 0.34800002 4279975457
0.10071978 0.047236603 0.34800002 4279975457
0.10185007 0.047236603 0.34800002 4279843871
0.10298038 0.047236603 0.34800002 4279975457
0.10411069 0.047236603 0.34800002 4279843871
0.10524099 0.047236603 0.34800002 4279909151
0.1063713 0.047236603 0.34800002 4279974944
0.10719269 0.047100864 0.347 4280171293
0.10831974 0.047100864 0.347 4280434465
0.10944679 0.047100864 0.347 4280302625
0.11057385 0.047100864 0.347 4279973660
0.11170091 0.047100864 0.347 4279249937
0.11282796 0.047100864 0.347 4278723593
0.11395502 0.047100864 0.347 4278657289
0.11508209 0.047100864 0.347 4278657289
0.11654403 0.047236603 0.34800002 4279183633
0.11733619 0.047100864 0.347 4279644182
0.11846325 0.047100864 0.347 4280038940
0.1195903 0.047100864 0.347 4279907354
0.12071736 0.047100864 0.347 4280762663
0.12184442 0.047100864 0.347 4279973660
0.12297148 0.047100864 0.347 4279578902
0.12409852 0.047100864 0.347 4279513109
0.12558647 0.047236603 0.34800002 4279776281
0.12671678 0.047236603 0.34800002 4279513109
0.12784709 0.047236603 0.34800002 4279578391
0.12897739 0.047236603 0.34800002 4279051277
0.1301077 0.047236603 0.34800002 4280500520
0.131238 0.047236603 0.34800002 4279777567
0.1323683 0.047236603 0.34800002 4279709977
0.13349861 0.047236603 0.34800002 4279577367
0.13462891 0.047236603 0.34800002 4279842590
0.13575922 0.047236603 0.34800002 4279711002
0.13688952 0.047236603 0.34800002 4279580440
0.13801983 0.047236603 0.34800002 4279645461
0.13915013 0.047236603 0.34800002 4280040219
0.14028043 0.047236603 0.34800002 4280040219
0.14141074 0.047236603 0.34800002 4279842840
0.14254104 0.047236603 0.34800002 4279974426
0.14367135 0.047236603 0.34800002 4280171807
0.14480166 0.047236603 0.34800002 4280170780
0.06305524 0.048089322 0.34600002 4284182116
0.064179048 0.048089322 0.34600002 4284576874
0.065114126 0.047950335 0.34500003 4284512364
0.066234678 0.047950335 0.34500003 4284578157
0.067355245 0.047950335 0.34500003 4284775536
0.068475805 0.047950335 0.34500003 4284709743
0.069596365 0.047950335 0.34500003 4284972915
0.070921898 0.048089322 0.34600002 4284907122
0.072253928 0.048228305 0.347 4285170294
0.073380984 0.048228305 0.347 4285236085
0.074508041 0.048228305 0.347 4285236085
0.076071039 0.048506279 0.34900001 4285301878
0.077204593 0.048506279 0.34900001 4285367671
0.078338139 0.048506279 0.34900001 4285170292
0.079471692 0.048506279 0.34900001 4285236085
0.080605246 0.048506279 0.34900001 4285170292
0.0817388 0.048506279 0.34900001 4285170292
0.082872353 0.048506279 0.34900001 4285038706
0.084005907 0.048506279 0.34900001 4285236085
0.085139453 0.048506279 0.34900001 4285366901
0.086273007 0.048506279 0.34900001 4285366901
0.087406561 0.048506279 0.34900001 4285366901
0.088540114 0.048506279 0.34900001 4285432694
0.089673668 0.048506279 0.34900001 4285564280
0.090807222 0.048506279 0.34900001 4285432694
0.091940776 0.048506279 0.34900001 4285432694
0.093074329 0.048506279 0.34900001 4285498487
0.094207883 0.048506279 0.34900001 4285432694
0.095068246 0.048367295 0.34800002 4285432694
0.096198551 0.048367295 0.34800002 4285433464
0.097328857 0.048367295 0.34800002 4285762683
0.098459162 0.048367295 0.34800002 4285631608
0.099589467 0.048367295 0.34800002 4284776301
0.10071978 0.048367295 0.34800002 4282868816
0.10185007 0.048367295 0.34800002 4280960303
0.10298038 0.048367295 0.34800002 4280039715
0.10411069 0.048367295 0.34800002 4279382555
0.10524099 0.048367295 0.34800002 4279251736
0.1063713 0.048367295 0.34800002 4279842588
0.1075016 0.048367295 0.34800002 4280171807
0.10863191 0.048367295 0.34800002 4280171807
0.10976221 0.048367295 0.34800002 4279974944
0.11089251 0.048367295 0.34800002 4280040991
0.11202282 0.048367295 0.34800002 4279975198
0.11315312 0.048367295 0.34800002 4279843612
0.11428343 0.048367295 0.34800002 4280106014
0.11541373 0.048367295 0.34800002 4280040221
0.11654403 0.048367295 0.34800002 4279842588
0.11767434 0.048367295 0.34800002 4279842588
0.11880464 0.048367295 0.34800002 4280236832
0.11993495 0.048367295 0.34800002 4279709975
0.12106526 0.048367295 0.34800002 4279709975
0.12219556 0.048367295 0.34800002 4279315217
0.12332587 0.048367295 0.34800002 4279248656
0.12445617 0.048367295 0.34800002 4279248656
0.12558647 0.048367295 0.34800002 4278788873
0.12671678 0.048367295 0.34800002 4279578389
0.12784709 0.048367295 0.34800002 4279775768
0.12897739 0.048367295 0.34800002 4279841561
0.1301077 0.048367295 0.34800002 4279710488
0.131238 0.048367295 0.34800002 4280039453
0.1323683 0.048367295 0.34800002 4278986254
0.13349861 0.048367295 0.34800002 4279907356
0.13462891 0.048367295 0.34800002 4279843358
0.13575922 0.048367295 0.34800002 4279777565
0.13688952 0.048367295 0.34800002 4279843612
0.13801983 0.048367295 0.34800002 4280040219
0.13915013 0.048367295 0.34800002 4279842838
0.14028043 0.048367295 0.34800002 4279908633
0.14141074 0.048367295 0.34800002 4280106012
0.14254104 0.048367295 0.34800002 4280171291
0.14367135 0.048367295 0.34800002 4280827175
0.065114126 0.049071278 0.34500003 4284643178
0.066234678 0.049071278 0.34500003 4284840557
0.067355245 0.049071278 0.34500003 4284840557
0.098459162 0.049497984 0.34800002 4285301108
0.099589467 0.049497984 0.34800002 4285366901
0.10071978 0.049497984 0.34800002 4285564280
0.10185007 0.049497984 0.34800002 4285432694
0.10298038 0.049497984 0.34800002 4285498487
0.10411069 0.049497984 0.34800002 4285170292
0.10524099 0.049497984 0.34800002 4285696636
0.1063713 0.049497984 0.34800002 4285827706
0.1075016 0.049497984 0.34800002 4285630325
0.10863191 0.049497984 0.34800002 4285761909
0.10976221 0.049497984 0.34800002 4284775784
0.11089251 0.049497984 0.34800002 4284117854
0.11202282 0.049497984 0.34800002 4283195469
0.11315312 0.049497984 0.34800002 4281616950
0.11428343 0.049497984 0.34800002 4280499752
0.11541373 0.049497984 0.34800002 4280499752
0.11654403 0.049497984 0.34800002 4279907354
0.11767434 0.049497984 0.34800002 4279907354
0.11880464 0.049497984 0.34800002 4280038940
0.11993495 0.049497984 0.34800002 4280171039
0.12106526 0.049497984 0.34800002 4280236832
0.12219556 0.049497984 0.34800002 4280500004
0.12332587 0.049497984 0.34800002 4280301342
0.12445617 0.049497984 0.34800002 4280827686
0.12558647 0.049497984 0.34800002 4280367135
0.12671678 0.049497984 0.34800002 4280236319
0.12784709 0.049497984 0.34800002 4280565284
0.12897739 0.049497984 0.34800002 4279907354
0.1301077 0.049497984 0.34800002 4280038942
0.131238 0.049497984 0.34800002 4280170528
0.13274866 0.049640216 0.34900001 4280170526
0.13388221 0.049640216 0.34900001 4280104733
0.13501577 0.049640216 0.34900001 4279974174
0.13614932 0.049640216 0.34900001 4279909151
0.13728288 0.049640216 0.34900001 4279909405
0.13841644 0.049640216 0.34900001 4279909403
0.13954997 0.049640216 0.34900001 4279843608
0.14068353 0.049640216 0.34900001 4280303389
0.14181708 0.049640216 0.34900001 4280498973
0.14254104 0.049497984 0.34800002 4281814068
0.14367135 0.049497984 0.34800002 4286286458
0.12219556 0.05062867 0.34800002 4285958777
0.12332587 0.05062867 0.34800002 4285103466
0.12445617 0.05062867 0.34800002 4284708962
0.12558647 0.05062867 0.34800002 4283656787
0.12671678 0.05062867 0.34800002 4282143548
0.12784709 0.05062867 0.34800002 4281683767
0.12934801 0.05077415 0.34900001 4281684019
0.13048157 0.05077415 0.34900001 4280433182
0.13161512 0.05077415 0.34900001 4280498975
0.13274866 0.05077415 0.34900001 4279972377
0.13388221 0.05077415 0.34900001 4280235549
0.13501577 0.05077415 0.34900001 4280696100
0.13614932 0.05077415 0.34900001 4280038170
0.13728288 0.05077415 0.34900001 4280367905
0.13841644 0.05077415 0.34900001 4279710742
0.13954997 0.05077415 0.34900001 4280367387
0.14068353 0.05077415 0.34900001 4281616941
0.14181708 0.05077415 0.34900001 4286154870
0.12558647 0.051759358 0.34800002 4285497456
0.1270809 0.051908091 0.34900001 4285366640
0.12821445 0.051908091 0.34900001 4285235052
0.12934801 0.051908091 0.34900001 4285629040
0.13048157 0.051908091 0.34900001 4285694319
0.13161512 0.051908091 0.34900001 4285694319
0.13274866 0.051908091 0.34900001 4285958007
0.13388221 0.051908091 0.34900001 4285892984
0.13501577 0.051908091 0.34900001 4285892984
0.13614932 0.051908091 0.34900001 4285892984
0.13728288 0.051908091 0.34900001 4286155638
0.13841644 0.051908091 0.34900001 4285893236
0.13954997 0.051908091 0.34900001 4285564017
0.14068353 0.051908091 0.34900001 4285695603
0.14181708 0.051908091 0.34900001 4286220663
0.13501577 0.053042024 0.34900001 4286023802
0.13614932 0.053042024 0.34900001 4285958009
0.13728288 0.053042024 0.34900001 4285826421
0.13841644 0.053042024 0.34900001 4286023800
0.096598931 0.040950555 0.34816518 4294967295
0.096598931 0.040950555 0.34816518 4294901760
0.09666428 0.040463012 0.34807557 4294901760
0.096729629 0.039975464 0.34798598 4294901760
0.096794978 0.039487921 0.34789637 4294901760
0.096860327 0.039000377 0.34780675 4294901760
0.096925676 0.03851283 0.34771714 4294901760
0.096991025 0.038025286 0.34762755 4294901760
0.097056374 0.037537739 0.34753793 4294901760
0.097121716 0.037050195 0.34744832 4294901760
0.097187065 0.036562651 0.34735873 4294901760
0.097252414 0.036075104 0.34726912 4294901760
0.097317763 0.03558756 0.3471795 4294901760
0.097383112 0.035100017 0.34708989 4294901760
0.097448461 0.034612469 0.3470003 4294901760
0.09751381 0.034124926 0.34691069 4294901760
0.097579159 0.033637378 0.34682107 4294901760
0.097644508 0.033149835 0.34673145 4294901760
0.097709857 0.032662291 0.34664187 4294901760
0.097775206 0.032174744 0.34655225 4294901760
0.097840555 0.0316872 0.34646264 4294901760
0.097905904 0.031199655 0.34637305 4294901760
0.097971253 0.030712109 0.34628344 4294901760
0.098036595 0.030224565 0.34619382 4294901760
0.098101944 0.02973702 0.3461042 4294901760
0.098167293 0.029249474 0.34601462 4294901760
0.098232642 0.028761931 0.345925 4294901760
0.098297991 0.028274385 0.34583539 4294901760
0.09836334 0.02778684 0.3457458 4294901760
0.098428689 0.027299294 0.34565619 4294901760
0.098494038 0.026811751 0.34556657 4294901760
0.098559387 0.026324205 0.34547696 4294901760
0.098624736 0.02583666 0.34538737 4294901760
0.098690085 0.025349114 0.34529775 4294901760
0.098755434 0.024861569 0.34520814 4294901760
0.098820783 0.024374025 0.34511855 4294901760
0.098886132 0.023886479 0.34502894 4294901760
0.098951474 0.023398934 0.34493932 4294901760
0.099016823 0.022911388 0.34484971 4294901760
0.099082172 0.022423845 0.34476012 4294901760
0.099147521 0.021936301 0.3446705 4294901760
0.09921287 0.021448754 0.34458089 4294901760
0.099278219 0.02096121 0.34449127 4294901760
0.099343568 0.020473665 0.34440169 4294901760
0.099408917 0.019986119 0.34431207 4294901760
0.099474266 0.019498575 0.34422246 4294901760
0.099539615 0.01901103 0.34413287 4294901760
0.099604964 0.018523484 0.34404325 4294901760
0.099670313 0.018035939 0.34395364 4294901760
0.099735662 0.017548395 0.34386402 4294901760
0.099801011 0.017060848 0.34377444 4294901760
0.09986636 0.016573304 0.34368482 4294901760
0.099931702 0.016085761 0.34359521 4294901760
0.099997051 0.015598215 0.34350562 4294901760
0.1000624 0.015110672 0.34341601 4294901760
0.10012775 0.014623122 0.34332639 4294901760
0.1001931 0.014135579 0.34323677 4294901760
0.10025845 0.013648033 0.34314719 4294901760
0.1003238 0.013160489 0.34305757 4294901760
0.10038915 0.012672946 0.34296796 4294901760
0.10045449 0.0121854 0.34287837 4294901760
0.10051984 0.011697853 0.34278876 4294901760
0.10058519 0.011210307 0.34269914 4294901760
0.10065054 0.010722764 0.34260952 4294901760
0.10071589 0.01023522 0.34251994 4294901760
0.10078123 0.0097476747 0.34243032 4294901760
0.10084658 0.0092601292 0.34234071 4294901760
0.10091193 0.0087725818 0.34225109 4294901760
0.10097728 0.0082850382 0.34216151 4294901760
0.10104263 0.0077974945 0.34207189 4294901760
0.10110798 0.0073099509 0.34198228 4294901760
0.10117333 0.0068224035 0.34189269 4294901760
0.10123868 0.0063348599 0.34180307 4294901760
0.10130402 0.0058473125 0.34171346 4294901760
0.10136937 0.0053597689 0.34162384 4294901760
0.10143472 0.0048722215 0.34153426 4294901760
0.10150007 0.0043846779 0.34144464 4294901760
0.10156542 0.0038971342 0.34135503 4294901760
0.10163077 0.0034095906 0.34126544 4294901760
0.10169612 0.0029220469 0.34117582 4294901760
0.10176146 0.0024344958 0.34108621 4294901760
0.10182681 0.0019469522 0.34099659 4294901760
0.10189216 0.0014594086 0.34090701 4294901760
0.10195751 0.00097186491 0.34081739 4294901760
0.10202286 0.00048432127 0.34072778 4294901760
0.10208821 -3.2261014e-06 0.34063819 4294901760
0.10215355 -0.00049077347 0.34054857 4294901760
0.1022189 -0.00097831711 0.34045896 4294901760
0.10228425 -0.0014658608 0.34036934 4294901760
0.1023496 -0.0019534044 0.34027976 4294901760
0.10241495 -0.0024409518 0.34019014 4294901760
0.1024803 -0.0029284954 0.34010053 4294901760
0.10254565 -0.0034160428 0.34001091 4294901760
0.102611 -0.0039035864 0.33992133 4294901760
0.10267635 -0.0043911338 0.33983171 4294901760
0.10274169 -0.0048786774 0.33974209 4294901760
0.10280704 -0.0053662211 0.33965251 4294901760
