# .PCD v0.7 - Point Cloud Data file format
VERSION 0.7
FIELDS x y z rgb
SIZE 4 4 4 4
TYPE F F F U
COUNT 1 1 1 1
WIDTH 753
HEIGHT 1
VIEWPOINT 0 0 0 1 0 0 0
POINTS 753
DATA ascii
-0.14319094 0.019083286 0.54500002 4282075708
-0.13965061 0.019083286 0.54500002 4280306469
-0.13788044 0.019083286 0.54500002 4280242213
-0.13611029 0.019083286 0.54500002 4280046117
-0.13458663 0.019118302 0.546 4280309289
-0.13305648 0.019153317 0.54700005 4280046117
-0.1327198 0.019363409 0.55300003 4279980324
-0.13163392 0.019468455 0.55600005 4280242213
-0.13029504 0.019538485 0.55800003 4280768044
-0.1275783 0.019678546 0.56200004 4280701229
-0.12597668 0.01971356 0.56300002 4279975709
-0.12458907 0.01978359 0.565 4279184396
-0.12297123 0.019818606 0.56600004 4279314701
-0.12156089 0.019888636 0.56800002 4279050762
-0.11663911 0.019993681 0.57100004 4285694571
-0.14240274 0.020739255 0.54200006 4281747003
-0.14038283 0.020700989 0.54100001 4281880896
-0.13862565 0.020700989 0.54100001 4280110375
-0.13686848 0.020700989 0.54100001 4279914277
-0.13511132 0.020700989 0.54100001 4279389471
-0.13360065 0.020739255 0.54200006 4279323678
-0.1327198 0.021160161 0.55300003 4279389471
-0.13139716 0.02123669 0.55500001 4279389471
-0.13006154 0.021313218 0.55700004 4279389469
-0.12871291 0.021389747 0.55900002 4279587363
-0.1273513 0.021466278 0.56100005 4279389984
-0.12597668 0.021542804 0.56300002 4279324191
-0.12458907 0.021619331 0.565 4279323678
-0.12297123 0.021657597 0.56600004 4279718436
-0.12134687 0.021695862 0.56700003 4279717922
-0.11992678 0.02177239 0.56900001 4279980324
-0.11828619 0.021810656 0.57000005 4280111397
-0.11663911 0.021848919 0.57100004 4280240680
-0.14161453 0.022375727 0.53900003 4281484085
-0.13934487 0.0222927 0.537 4281486136
-0.13760069 0.0222927 0.537 4279519010
-0.13560353 0.022251187 0.53600001 4279519521
-0.1338626 0.022251187 0.53600001 4279388703
-0.13212167 0.022251187 0.53600001 4279322910
-0.13029504 0.023164481 0.55800003 4278994713
-0.12871291 0.023205994 0.55900002 4279126299
-0.1273513 0.023289023 0.56100005 4278994713
-0.12597668 0.023372049 0.56300002 4278929433
-0.12436856 0.023413561 0.56400001 4279126812
-0.12297123 0.023496589 0.56600004 4279192605
-0.12134687 0.023538101 0.56700003 4279061017
-0.11992678 0.023621129 0.56900001 4279323930
-0.11828619 0.023662644 0.57000005 4279323930
-0.11663911 0.023704156 0.57100004 4279324189
-0.13856642 0.02390318 0.53400004 4281421368
-0.13657574 0.023858419 0.53300005 4279584033
-0.13459156 0.023813654 0.53200001 4279519010
-0.13261388 0.023768893 0.53100002 4279453215
-0.13088919 0.023768893 0.53100002 4279453728
-0.1291645 0.023768893 0.53100002 4279125533
-0.13029504 0.024977481 0.55800003 4279320859
-0.12871291 0.025022242 0.55900002 4279059992
-0.1273513 0.025111768 0.56100005 4278994713
-0.12575293 0.025156531 0.56200004 4279192092
-0.12436856 0.025246054 0.56400001 4278994713
-0.12275396 0.025290817 0.565 4278994713
-0.12113286 0.02533558 0.56600004 4279126299
-0.11992678 0.025469868 0.56900001 4278928918
-0.11828619 0.025514631 0.57000005 4279257883
-0.11663911 0.025559394 0.57100004 4279126299
-0.088074081 0.022112679 0.49400002 4279718697
-0.086469568 0.022112679 0.49400002 4279718697
-0.084693268 0.022067918 0.49300003 4280177199
-0.082923457 0.022023154 0.49200001 4280374067
-0.081160143 0.021978391 0.49100003 4281029690
-0.079403333 0.021933628 0.49000001 4283397211
-0.077811807 0.021933628 0.49000001 4285500788
-0.076064736 0.021888867 0.48900002 4286421890
-0.074476466 0.021888867 0.48900002 4285697913
-0.13778795 0.025494168 0.53100002 4281684026
-0.13580702 0.025446156 0.53000003 4279584033
-0.13357958 0.025350131 0.528 4279649824
-0.13161491 0.02530212 0.52700001 4279453215
-0.12965672 0.02525411 0.52600002 4279519008
-0.12794827 0.02525411 0.52600002 4279190556
-0.12551981 0.025110073 0.523 4279453728
-0.1224006 0.024822004 0.51700002 4279056406
-0.12048788 0.024773993 0.51600003 4279451934
-0.11858166 0.024725983 0.51500005 4279321629
-0.1273513 0.026934518 0.56100005 4279453215
-0.12575293 0.026982527 0.56200004 4279255836
-0.12436856 0.02707855 0.56400001 4279255836
-0.12275396 0.02712656 0.565 4279058968
-0.12113286 0.027174575 0.56600004 4278994199
-0.11992678 0.027318608 0.56900001 4278797080
-0.11828619 0.027366621 0.57000005 4278928666
-0.092022248 0.023909785 0.49800003 4279126558
-0.090041667 0.02381376 0.49600002 4278929181
-0.088252373 0.02376575 0.49500003 4278732572
-0.086469568 0.023717737 0.49400002 4279061537
-0.084693268 0.023669727 0.49300003 4279127330
-0.082923457 0.023621714 0.49200001 4279522088
-0.081160143 0.023573702 0.49100003 4279258148
-0.079403333 0.023525691 0.49000001 4280047410
-0.077811807 0.023525691 0.49000001 4280178483
-0.076220281 0.023525691 0.49000001 4279914797
-0.07462877 0.023525691 0.49000001 4279781678
-0.073037244 0.023525691 0.49000001 4281556808
-0.071445726 0.023525691 0.49000001 4283528799
-0.0698542 0.023525691 0.49000001 4285501817
-0.1494444 0.02778331 0.54200006 4281940259
-0.14230126 0.027424483 0.53500003 4282206261
-0.13752846 0.027168179 0.53000003 4282079038
-0.13529454 0.027065657 0.528 4279519010
-0.13307361 0.026963137 0.52600002 4279584803
-0.13086569 0.026860617 0.52400005 4279519008
-0.12891723 0.026809353 0.523 4279519008
-0.12697527 0.026758093 0.52200001 4279387935
-0.12479982 0.026655573 0.52000004 4278268943
-0.12216385 0.02645053 0.51600003 4278197760
-0.12025438 0.02639927 0.51500005 4279912485
-0.11835139 0.026348006 0.514 4278592269
-0.11600091 0.026194226 0.51100004 4278656267
-0.11411743 0.026142966 0.51000005 4278787853
-0.11201991 0.026040444 0.50800002 4278590472
-0.11015267 0.025989184 0.50700003 4278525703
-0.10829192 0.025937922 0.50600004 4278263558
-0.10643765 0.02588666 0.505 4278198534
-0.10479741 0.02588666 0.505 4278727187
-0.1029529 0.0258354 0.50400001 4278926103
-0.10111488 0.02578414 0.50300002 4279715619
-0.099283367 0.02573288 0.50200003 4279453217
-0.097458348 0.02568162 0.50100005 4279190556
-0.09563981 0.025630357 0.5 4279190556
-0.093827777 0.025579097 0.49900001 4279256347
-0.092022248 0.025527837 0.49800003 4279124761
-0.090223201 0.025476575 0.49700001 4279059738
-0.088252373 0.025374055 0.49500003 4279125533
-0.086469568 0.025322793 0.49400002 4278928668
-0.084693268 0.025271533 0.49300003 4279126047
-0.082923457 0.025220271 0.49200001 4278928668
-0.081160143 0.025169011 0.49100003 4279257633
-0.079403333 0.025117749 0.49000001 4278929181
-0.077811807 0.025117749 0.49000001 4279126560
-0.076220281 0.025117749 0.49000001 4279126560
-0.07462877 0.025117749 0.49000001 4279718445
-0.073037244 0.025117749 0.49000001 4279981617
-0.071445726 0.025117749 0.49000001 4280507963
-0.069996759 0.025169011 0.49100003 4281953612
-0.068402 0.025169011 0.49100003 4279911983
-0.15176277 0.029653341 0.54400003 4282271287
-0.1494444 0.029544322 0.54200006 4282205496
-0.14203528 0.029108243 0.53400004 4280364573
-0.13726899 0.028835695 0.52900004 4281092655
-0.13478206 0.028672164 0.52600002 4279584031
-0.13282062 0.028617654 0.52500004 4279453213
-0.13061593 0.028508633 0.523 4279584801
-0.12842424 0.028399615 0.52100003 4279256351
-0.12648879 0.028345106 0.52000004 4279059740
-0.12431981 0.028236084 0.51800001 4280307756
-0.12216385 0.028127067 0.51600003 4279779615
-0.12002087 0.028018044 0.514 4280371752
-0.11812114 0.027963536 0.51300001 4278656269
-0.11600091 0.027854517 0.51100004 4278852881
-0.11411743 0.027800009 0.51000005 4278655756
-0.11201991 0.027690986 0.50800002 4278786572
-0.11015267 0.027636478 0.50700003 4279049744
-0.10829192 0.027581969 0.50600004 4278786572
-0.10643765 0.027527457 0.505 4278852365
-0.10479741 0.027527457 0.505 4278919439
-0.1029529 0.027472947 0.50400001 4279845668
-0.10111488 0.027418438 0.50300002 4279319324
-0.099283367 0.027363928 0.50200003 4279253019
-0.097458348 0.02730942 0.50100005 4278266124
-0.09563981 0.027254907 0.5 4278197504
-0.093827777 0.027200399 0.49900001 4278196992
-0.092022248 0.027145889 0.49800003 4278198275
-0.090041667 0.02703687 0.49600002 4278529810
-0.088252373 0.02698236 0.49500003 4279451934
-0.086469568 0.026927849 0.49400002 4279781412
-0.084693268 0.026873341 0.49300003 4279321631
-0.082923457 0.026818831 0.49200001 4279190558
-0.081160143 0.02676432 0.49100003 4279256349
-0.079565383 0.02676432 0.49100003 4279257119
-0.077811807 0.02670981 0.49000001 4279257119
-0.076220281 0.02670981 0.49000001 4279323426
-0.07462877 0.02670981 0.49000001 4279060767
-0.073037244 0.02670981 0.49000001 4279192355
-0.071591534 0.02676432 0.49100003 4279258148
-0.069996759 0.02676432 0.49100003 4278863136
-0.068402 0.02676432 0.49100003 4284716664
-0.066807225 0.02676432 0.49100003 4279650605
-0.065212458 0.02676432 0.49100003 4280634422
-0.1445774 0.031016538 0.537 4280430368
-0.14203528 0.030843263 0.53400004 4280363803
-0.13700949 0.030496707 0.528 4280896300
-0.13478206 0.030381192 0.52600002 4279649822
-0.13256763 0.030265674 0.52400005 4279321627
-0.13036619 0.030150155 0.52200001 4279453728
-0.12817775 0.030034639 0.52000004 4279453728
-0.12624554 0.02997688 0.51900005 4279190556
-0.12407982 0.029861361 0.51700002 4279781410
-0.1219271 0.029745845 0.51500005 4280240164
-0.12002087 0.029688083 0.514 4279911199
-0.11789089 0.029572567 0.51200002 4279709727
-0.11600091 0.029514808 0.51100004 4280038692
-0.11389366 0.029399289 0.509 4279578141
-0.11201991 0.02934153 0.50800002 4278393097
-0.11015267 0.029283771 0.50700003 4279708955
-0.10829192 0.029226014 0.50600004 4279511065
-0.10643765 0.029168252 0.505 4280498219
-0.10479741 0.029168252 0.505 4279117590
-0.1029529 0.029110495 0.50400001 4279320094
-0.10111488 0.029052736 0.50300002 4278333199
-0.099283367 0.028994977 0.50200003 4278661394
-0.097458348 0.028937221 0.50100005 4279451680
-0.09563981 0.028879458 0.5 4279320094
-0.093827777 0.028821699 0.49900001 4279517473
-0.092022248 0.028763942 0.49800003 4279451680
-0.090041667 0.028648423 0.49600002 4279385887
-0.088252373 0.028590666 0.49500003 4280109610
-0.086469568 0.028532906 0.49400002 4279450910
-0.084693268 0.028475147 0.49300003 4279647775
-0.082923457 0.028417388 0.49200001 4278529294
-0.081160143 0.028359629 0.49100003 4278198016
-0.079565383 0.028359629 0.49100003 4278196992
-0.077970609 0.028359629 0.49100003 4278199044
-0.076375842 0.028359629 0.49100003 4278464015
-0.074781075 0.028359629 0.49100003 4279257121
-0.073186301 0.028359629 0.49100003 4279126049
-0.071591534 0.028359629 0.49100003 4278994463
-0.069996759 0.028359629 0.49100003 4278994463
-0.068402 0.028359629 0.49100003 4278928670
-0.066807225 0.028359629 0.49100003 4279126049
-0.065212458 0.028359629 0.49100003 4278991131
-0.14686655 0.032883324 0.53900003 4280561182
-0.1445774 0.032761306 0.537 4282535226
-0.14203528 0.032578282 0.53400004 4282009652
-0.13726899 0.032273244 0.52900004 4280764714
-0.13478206 0.032090217 0.52600002 4279519258
-0.13256763 0.031968202 0.52400005 4279519773
-0.13011645 0.031785179 0.52100003 4279387933
-0.12817775 0.03172417 0.52000004 4279387933
-0.12600228 0.031602152 0.51800001 4279190556
-0.12407982 0.031541146 0.51700002 4278201096
-0.1219271 0.031419132 0.51500005 4278397449
-0.12002087 0.031358119 0.514 4279648027
-0.11789089 0.031236107 0.51200002 4278854416
-0.11600091 0.031175099 0.51100004 4278919439
-0.11389366 0.031053081 0.509 4279906334
-0.11201991 0.030992074 0.50800002 4278327304
-0.11015267 0.030931067 0.50700003 4278589963
-0.10829192 0.03087006 0.50600004 4280104483
-0.10664843 0.03087006 0.50600004 4278459660
-0.10479741 0.030809049 0.505 4279578654
-0.1029529 0.030748041 0.50400001 4279648543
-0.10111488 0.030687034 0.50300002 4278592521
-0.099283367 0.030626027 0.50200003 4278723341
-0.097458348 0.03056502 0.50100005 4278199564
-0.09563981 0.030504009 0.5 4279516703
-0.093827777 0.030443002 0.49900001 4279582496
-0.092022248 0.030381994 0.49800003 4278924566
-0.090041667 0.030259978 0.49600002 4279911461
-0.088252373 0.030198971 0.49500003 4279452445
-0.086469568 0.030137962 0.49400002 4279584031
-0.084693268 0.030076955 0.49300003 4279584031
-0.082923457 0.030015945 0.49200001 4279452445
-0.081325442 0.030015945 0.49200001 4279386652
-0.079565383 0.029954938 0.49100003 4279452445
-0.077970609 0.029954938 0.49100003 4279649824
-0.076375842 0.029954938 0.49100003 4280109862
-0.074781075 0.029954938 0.49100003 4279913766
-0.073186301 0.029954938 0.49100003 4279059740
-0.071591534 0.029954938 0.49100003 4279257119
-0.069996759 0.029954938 0.49100003 4279125533
-0.068402 0.029954938 0.49100003 4279059740
-0.066807225 0.029954938 0.49100003 4278862361
-0.065212458 0.029954938 0.49100003 4279058205
-0.14713901 0.034698848 0.54000002 4282929471
-0.14003812 0.034249049 0.53300005 4281681200
-0.13752846 0.034056276 0.53000003 4280369954
-0.1350383 0.033863503 0.52700001 4279650074
-0.13282062 0.033734992 0.52500004 4279388187
-0.13036619 0.03354222 0.52200001 4279322910
-0.12817775 0.033413704 0.52000004 4279125531
-0.12600228 0.033285189 0.51800001 4279125533
-0.12383982 0.033156678 0.51600003 4279848234
-0.1219271 0.033092421 0.51500005 4279976994
-0.12002087 0.033028159 0.514 4279976994
-0.11789089 0.032899648 0.51200002 4278656267
-0.11600091 0.03283539 0.51100004 4279181330
-0.11411743 0.032771137 0.51000005 4278983437
-0.11201991 0.032642618 0.50800002 4278983437
-0.11015267 0.032578364 0.50700003 4278983951
-0.10829192 0.032514106 0.50600004 4278524170
-0.10664843 0.032514106 0.50600004 4278656269
-0.10479741 0.032449845 0.505 4279775520
-0.1029529 0.032385591 0.50400001 4279055125
-0.10111488 0.032321334 0.50300002 4278723341
-0.099283367 0.032257076 0.50200003 4278525449
-0.097458348 0.032192823 0.50100005 4278198280
-0.09563981 0.032128561 0.5 4279779361
-0.093827777 0.032064304 0.49900001 4278858259
-0.092022248 0.03200005 0.49800003 4279516703
-0.090041667 0.031871535 0.49600002 4278200586
-0.088252373 0.031807277 0.49500003 4279713568
-0.086469568 0.03174302 0.49400002 4279384344
-0.084693268 0.031678762 0.49300003 4279384344
-0.082923457 0.031614505 0.49200001 4278200583
-0.081325442 0.031614505 0.49200001 4279451934
-0.079565383 0.031550247 0.49100003 4278399246
-0.077970609 0.031550247 0.49100003 4279320861
-0.076375842 0.031550247 0.49100003 4279123482
-0.074781075 0.031550247 0.49100003 4279912485
-0.073186301 0.031550247 0.49100003 4279255836
-0.071591534 0.031550247 0.49100003 4279256349
-0.069996759 0.031550247 0.49100003 4278928154
-0.068402 0.031550247 0.49100003 4279059740
-0.066807225 0.031550247 0.49100003 4278796568
-0.065212458 0.031550247 0.49100003 4278860826
-0.063617691 0.031550247 0.49100003 4282672720
-0.14713901 0.036453363 0.54000002 4282929469
-0.13804744 0.035913311 0.53200001 4280631840
-0.13555078 0.035710797 0.52900004 4279256086
-0.1333266 0.035575781 0.52700001 4279256601
-0.13036619 0.035238251 0.52200001 4279190808
-0.12817775 0.035103239 0.52000004 4279124761
-0.12600228 0.034968223 0.51800001 4279190554
-0.12407982 0.034900717 0.51700002 4278200838
-0.1219271 0.034765709 0.51500005 4279187992
-0.12002087 0.034698199 0.514 4279517727
-0.11812114 0.034630693 0.51300001 4280239912
-0.11600091 0.034495682 0.51100004 4280305192
-0.11411743 0.034428179 0.51000005 4279580188
-0.11224042 0.03436067 0.509 4279381525
-0.11036994 0.034293164 0.50800002 4278459658
-0.10850593 0.034225658 0.50700003 4278262279
-0.10664843 0.034158152 0.50600004 4278328072
-0.10479741 0.034090642 0.505 4280501038
-0.1029529 0.034023136 0.50400001 4279450398
-0.10131591 0.034023136 0.50400001 4280238118
-0.099481143 0.033955634 0.50300002 4280699182
-0.097652875 0.033888128 0.50200003 4280173608
-0.09563981 0.033753112 0.5 4280503598
-0.093827777 0.033685606 0.49900001 4279385887
-0.092022248 0.0336181 0.49800003 4278267406
-0.090041667 0.033483088 0.49600002 4279385887
-0.088252373 0.033415582 0.49500003 4278200587
-0.086469568 0.033348076 0.49400002 4278199817
-0.084693268 0.03328057 0.49300003 4279120918
-0.083092004 0.03328057 0.49300003 4279120918
-0.081325442 0.033213064 0.49200001 4279253019
-0.079727426 0.033213064 0.49200001 4279055640
-0.077970609 0.033145558 0.49100003 4279451934
-0.076375842 0.033145558 0.49100003 4279057176
-0.074781075 0.033145558 0.49100003 4279911715
-0.073186301 0.033145558 0.49100003 4279321629
-0.071591534 0.033145558 0.49100003 4279190556
-0.069996759 0.033145558 0.49100003 4279256349
-0.068402 0.033145558 0.49100003 4279257119
-0.066807225 0.033145558 0.49100003 4279059740
-0.065212458 0.033145558 0.49100003 4279321631
-0.14713901 0.038207877 0.54000002 4283257918
-0.13882591 0.037854102 0.53500003 4281288489
-0.1363195 0.037641834 0.53200001 4279255318
-0.13408558 0.037500326 0.53000003 4279125015
-0.13061593 0.037005037 0.523 4279256347
-0.12842424 0.036863528 0.52100003 4279256347
-0.12624554 0.036722019 0.51900005 4279256347
-0.12407982 0.036580503 0.51700002 4279124761
-0.12216385 0.036509749 0.51600003 4279321629
-0.12025438 0.036438994 0.51500005 4279255836
-0.11835139 0.036368236 0.514 4279321629
-0.11622792 0.036226727 0.51200002 4279519008
-0.11434118 0.036155973 0.51100004 4279452445
-0.11224042 0.03601446 0.509 4279320859
-0.11036994 0.035943706 0.50800002 4279320861
-0.10850593 0.035872951 0.50700003 4279320607
-0.10664843 0.035802197 0.50600004 4279386402
-0.10479741 0.035731439 0.505 4279320607
-0.10315717 0.035731439 0.505 4279385887
-0.10131591 0.035660684 0.50400001 4279713568
-0.099481143 0.03558993 0.50300002 4279318297
-0.097652875 0.035519175 0.50200003 4278594574
-0.09563981 0.035377663 0.5 4278197762
-0.093827777 0.035306908 0.49900001 4278196992
-0.092022248 0.035236154 0.49800003 4278198792
-0.090041667 0.035094641 0.49600002 4278463763
-0.088252373 0.035023887 0.49500003 4279385119
-0.086469568 0.034953132 0.49400002 4279779875
-0.084693268 0.034882378 0.49300003 4279516703
-0.083092004 0.034882378 0.49300003 4279649059
-0.081325442 0.03481162 0.49200001 4279385887
-0.079727426 0.03481162 0.49200001 4279845668
-0.077970609 0.034740865 0.49100003 4279582750
-0.076375842 0.034740865 0.49100003 4278661648
-0.074781075 0.034740865 0.49100003 4279649313
-0.073186301 0.034740865 0.49100003 4279453217
-0.071591534 0.034740865 0.49100003 4279321629
-0.069996759 0.034740865 0.49100003 4279124763
-0.068402 0.034740865 0.49100003 4279124763
-0.066807225 0.034740865 0.49100003 4279058968
-0.065212458 0.034740865 0.49100003 4279123480
-0.13760069 0.039740376 0.537 4280103702
-0.13086569 0.038778324 0.52400005 4279778328
-0.12867074 0.03863031 0.52200001 4279582232
-0.12648879 0.038482305 0.52000004 4279320344
-0.12431981 0.038334295 0.51800001 4279320344
-0.12216385 0.038186286 0.51600003 4279386650
-0.12048788 0.038186286 0.51600003 4279189271
-0.11858166 0.038112283 0.51500005 4279124248
-0.11645492 0.037964273 0.51300001 4279190043
-0.11434118 0.037816264 0.51100004 4279124250
-0.11246094 0.037742261 0.51000005 4279124761
-0.11036994 0.037594251 0.50800002 4279124763
-0.10850593 0.037520245 0.50700003 4279190558
-0.10664843 0.037446242 0.50600004 4279124765
-0.10500494 0.037446242 0.50600004 4279124763
-0.10315717 0.037372235 0.505 4279190556
-0.10131591 0.037298232 0.50400001 4279124763
-0.099481143 0.037224229 0.50300002 4279190043
-0.097652875 0.037150223 0.50200003 4279452445
-0.09563981 0.037002213 0.5 4279386652
-0.093827777 0.03692821 0.49900001 4279255838
-0.092022248 0.036854208 0.49800003 4279321377
-0.090223201 0.036780201 0.49700001 4279386400
-0.088430658 0.036706198 0.49600002 4280109610
-0.086644612 0.036632195 0.49500003 4280108840
-0.084865063 0.036558188 0.49400002 4279713568
-0.083092004 0.036484186 0.49300003 4278200329
-0.081490733 0.036484186 0.49300003 4278198016
-0.079727426 0.036410179 0.49200001 4278198274
-0.077970609 0.036336176 0.49100003 4278528013
-0.076375842 0.036336176 0.49100003 4278198020
-0.074781075 0.036336176 0.49100003 4279715365
-0.073186301 0.036336176 0.49100003 4279453217
-0.071591534 0.036336176 0.49100003 4279519008
-0.069996759 0.036336176 0.49100003 4279190043
-0.068402 0.036336176 0.49100003 4279255836
-0.066807225 0.036336176 0.49100003 4279190043
-0.065212458 0.036336176 0.49100003 4279121685
-0.12648879 0.040171839 0.52000004 4279839246
-0.12431981 0.040017329 0.51800001 4279510795
-0.1224006 0.039940074 0.51700002 4279249676
-0.12095489 0.040017329 0.51800001 4279579154
-0.11881191 0.039862823 0.51600003 4279515158
-0.11668193 0.039708313 0.514 4279647514
-0.11456494 0.03955381 0.51200002 4279649311
-0.11246094 0.039399303 0.51000005 4279189273
-0.11058719 0.039322045 0.509 4279123480
-0.10871994 0.039244793 0.50800002 4279189273
-0.10685919 0.039167542 0.50700003 4279124248
-0.10500494 0.039090287 0.50600004 4279124248
-0.10315717 0.039013032 0.505 4279124250
-0.10131591 0.038935781 0.50400001 4279190043
-0.099481143 0.038858525 0.50300002 4279321631
-0.097652875 0.038781274 0.50200003 4279321631
-0.095831096 0.038704023 0.50100005 4279519010
-0.093827777 0.038549513 0.49900001 4279124765
-0.092022248 0.038472258 0.49800003 4279257121
-0.090223201 0.038395002 0.49700001 4279322912
-0.088430658 0.038317751 0.49600002 4279256349
-0.086644612 0.0382405 0.49500003 4279519008
-0.084865063 0.038163245 0.49400002 4279519010
-0.083260544 0.038163245 0.49400002 4279584033
-0.081490733 0.038085993 0.49300003 4279780899
-0.079727426 0.038008738 0.49200001 4279517727
-0.078129411 0.038008738 0.49200001 4279517727
-0.076375842 0.037931483 0.49100003 4279715106
-0.074781075 0.037931483 0.49100003 4279584033
-0.073186301 0.037931483 0.49100003 4279453217
-0.071591534 0.037931483 0.49100003 4279453730
-0.069996759 0.037931483 0.49100003 4278795798
-0.068402 0.037931483 0.49100003 4279321629
-0.066807225 0.037931483 0.49100003 4279124250
-0.065212458 0.037931483 0.49100003 4278462220
-0.1214219 0.04186137 0.52000004 4279377160
-0.11904217 0.04161986 0.51700002 4279312137
-0.11690895 0.041458856 0.51500005 4279312137
-0.1147887 0.041297849 0.51300001 4279181064
-0.11268145 0.041136846 0.51100004 4279049992
-0.11058719 0.040975839 0.509 4279051529
-0.10871994 0.040895335 0.50800002 4279249678
-0.10685919 0.040814836 0.50700003 4279513875
-0.10500494 0.040734332 0.50600004 4278988299
-0.10315717 0.040653829 0.505 4279515158
-0.10131591 0.040573325 0.50400001 4280173606
-0.099481143 0.040492825 0.50300002 4279977256
-0.097652875 0.040412322 0.50200003 4279977256
-0.095831096 0.040331822 0.50100005 4279714854
-0.093827777 0.040170815 0.49900001 4279846438
-0.092022248 0.040090311 0.49800003 4279780645
-0.090404741 0.040090311 0.49800003 4279780645
-0.088608943 0.040009808 0.49700001 4279452963
-0.086819649 0.039929304 0.49600002 4279584549
-0.085208647 0.039929304 0.49600002 4279518756
-0.083429091 0.039848804 0.49500003 4279518756
-0.081656031 0.039768301 0.49400002 4279650342
-0.079889476 0.039687797 0.49300003 4279584549
-0.078129411 0.039607294 0.49200001 4279584549
-0.076531388 0.039607294 0.49200001 4279518756
-0.074781075 0.039526794 0.49100003 4279650342
-0.073186301 0.039526794 0.49100003 4279518756
-0.071591534 0.039526794 0.49100003 4279518756
-0.069996759 0.039526794 0.49100003 4279255584
-0.068402 0.039526794 0.49100003 4279649572
-0.066807225 0.039526794 0.49100003 4279385887
-0.065212458 0.039526794 0.49100003 4281223991
-0.095831096 0.041959621 0.50100005 4285368434
-0.094015807 0.041875865 0.5 4284382053
-0.092207029 0.041792113 0.49900001 4283264344
-0.090586275 0.041792113 0.49900001 4282672207
-0.088787235 0.041708365 0.49800003 4281751105
-0.087169729 0.041708365 0.49800003 4281027895
-0.085380435 0.041624609 0.49700001 4280173356
-0.08359763 0.041540861 0.49600002 4279844389
-0.081986621 0.041540861 0.49600002 4279843619
-0.079889476 0.041289605 0.49300003 4279908899
-0.078129411 0.041205853 0.49200001 4279843619
-0.076531388 0.041205853 0.49200001 4279515424
-0.074781075 0.041122101 0.49100003 4279779623
-0.073186301 0.041122101 0.49100003 4279450660
-0.071591534 0.041122101 0.49100003 4279319074
-0.069996759 0.041122101 0.49100003 4279516455
-0.068402 0.041122101 0.49100003 4279515428
-0.066807225 0.041122101 0.49100003 4282145865
-0.092207029 0.043413416 0.49900001 4286091646
-0.090767808 0.043500416 0.5 4286091646
-0.089143805 0.043500416 0.5 4286091646
-0.087519802 0.043500416 0.5 4285828474
-0.085724019 0.043413416 0.49900001 4285828474
-0.083934724 0.043326415 0.49800003 4285894267
-0.082317211 0.043326415 0.49800003 4285763194
-0.080051519 0.042978413 0.49400002 4285697915
-0.078288212 0.042891413 0.49300003 4285632122
-0.076531388 0.042804409 0.49200001 4286092159
-0.074781075 0.042717412 0.49100003 4285631608
-0.073186301 0.042717412 0.49100003 4286026366
-0.071591534 0.042717412 0.49100003 4286157952
-0.069996759 0.042717412 0.49100003 4285631608
-0.068402 0.042717412 0.49100003 4285367923
-0.090949349 0.045215223 0.50100005 4286288255
-0.089322098 0.045215223 0.50100005 4286288255
-0.08786989 0.045305472 0.50200003 4286222462
-0.086067609 0.045215223 0.50100005 4286025085
-0.084440358 0.045215223 0.50100005 4286222464
-0.0826478 0.04512497 0.5 4285960062
-0.081185862 0.045215223 0.50100005 4285894269
-0.079558611 0.045215223 0.50100005 4285894269
-0.071591534 0.044312723 0.49100003 4285631097
-0.069996759 0.044312723 0.49100003 4285302132
-0.088044927 0.047030021 0.50300002 4286288257
-0.086411186 0.047030021 0.50300002 4285432948
-0.084608898 0.046936523 0.50200003 4286288257
-0.082813106 0.046843026 0.50100005 4286025085
-0.10164563 0.03186778 0.5101288 4294967295
-0.10164563 0.03186778 0.5101288 4294901760
-0.10164563 0.03186778 0.51062882 4294901760
-0.10164563 0.03186778 0.51112878 4294901760
-0.10164563 0.03186778 0.51162881 4294901760
-0.10164563 0.03186778 0.51212877 4294901760
-0.10164563 0.03186778 0.51262879 4294901760
-0.10164563 0.03186778 0.51312882 4294901760
-0.10164563 0.03186778 0.51362878 4294901760
-0.10164563 0.03186778 0.5141288 4294901760
-0.10164563 0.03186778 0.51462877 4294901760
-0.10164563 0.03186778 0.51512879 4294901760
-0.10164563 0.03186778 0.51562881 4294901760
-0.10164563 0.03186778 0.51612878 4294901760
-0.10164563 0.03186778 0.5166288 4294901760
-0.10164563 0.03186778 0.51712883 4294901760
-0.10164563 0.03186778 0.51762879 4294901760
-0.10164563 0.03186778 0.51812881 4294901760
-0.10164563 0.03186778 0.51862878 4294901760
-0.10164563 0.03186778 0.5191288 4294901760
-0.10164563 0.03186778 0.51962882 4294901760
-0.10164563 0.03186778 0.52012879 4294901760
-0.10164563 0.03186778 0.52062881 4294901760
-0.10164563 0.03186778 0.52112877 4294901760
-0.10164563 0.03186778 0.5216288 4294901760
-0.10164563 0.03186778 0.52212882 4294901760
-0.10164563 0.03186778 0.52262878 4294901760
-0.10164563 0.03186778 0.52312881 4294901760
-0.10164563 0.03186778 0.52362877 4294901760
-0.10164563 0.03186778 0.52412879 4294901760
-0.10164563 0.03186778 0.52462882 4294901760
-0.10164563 0.03186778 0.52512878 4294901760
-0.10164563 0.03186778 0.52562881 4294901760
-0.10164563 0.03186778 0.52612877 4294901760
-0.10164563 0.03186778 0.52662879 4294901760
-0.10164563 0.03186778 0.52712882 4294901760
-0.10164563 0.03186778 0.52762878 4294901760
-0.10164563 0.03186778 0.5281288 4294901760
-0.10164563 0.03186778 0.52862883 4294901760
-0.10164563 0.03186778 0.52912879 4294901760
-0.10164563 0.03186778 0.52962881 4294901760
-0.10164563 0.03186778 0.53012878 4294901760
-0.10164563 0.03186778 0.5306288 4294901760
-0.10164563 0.03186778 0.53112882 4294901760
-0.10164563 0.03186778 0.53162879 4294901760
-0.10164563 0.03186778 0.53212881 4294901760
-0.10164563 0.03186778 0.53262877 4294901760
-0.10164563 0.03186778 0.5331288 4294901760
-0.10164563 0.03186778 0.53362882 4294901760
-0.10164563 0.03186778 0.53412879 4294901760
-0.10164563 0.03186778 0.53462881 4294901760
-0.10164563 0.03186778 0.53512883 4294901760
-0.10164563 0.03186778 0.5356288 4294901760
-0.10164563 0.03186778 0.53612882 4294901760
-0.10164563 0.03186778 0.53662878 4294901760
-0.10164563 0.03186778 0.53712881 4294901760
-0.10164563 0.03186778 0.53762883 4294901760
-0.10164563 0.03186778 0.53812879 4294901760
-0.10164563 0.03186778 0.53862882 4294901760
-0.10164563 0.03186778 0.53912878 4294901760
-0.10164563 0.03186778 0.5396288 4294901760
-0.10164563 0.03186778 0.54012883 4294901760
-0.10164563 0.03186778 0.54062879 4294901760
-0.10164563 0.03186778 0.54112881 4294901760
-0.10164563 0.03186778 0.54162878 4294901760
-0.10164563 0.03186778 0.5421288 4294901760
-0.10164563 0.03186778 0.54262882 4294901760
-0.10164563 0.03186778 0.54312879 4294901760
-0.10164563 0.03186778 0.54362881 4294901760
-0.10164563 0.03186778 0.54412878 4294901760
-0.10164563 0.03186778 0.5446288 4294901760
-0.10164563 0.03186778 0.54512882 4294901760
-0.10164563 0.03186778 0.54562879 4294901760
-0.10164563 0.03186778 0.54612881 4294901760
-0.10164563 0.03186778 0.54662883 4294901760
-0.10164563 0.03186778 0.5471288 4294901760
-0.10164563 0.03186778 0.54762882 4294901760
-0.10164563 0.03186778 0.54812878 4294901760
-0.10164563 0.03186778 0.54862881 4294901760
-0.10164563 0.03186778 0.54912883 4294901760
-0.10164563 0.03186778 0.54962879 4294901760
-0.10164563 0.03186778 0.55012882 4294901760
-0.10164563 0.03186778 0.55062878 4294901760
-0.10164563 0.03186778 0.5511288 4294901760
-0.10164563 0.03186778 0.55162883 4294901760
-0.10164563 0.03186778 0.55212879 4294901760
-0.10164563 0.03186778 0.55262882 4294901760
-0.10164563 0.03186778 0.55312884 4294901760
-0.10164563 0.03186778 0.5536288 4294901760
-0.10164563 0.03186778 0.55412883 4294901760
-0.10164563 0.03186778 0.55462879 4294901760
-0.10164563 0.03186778 0.55512881 4294901760
-0.10164563 0.03186778 0.55562884 4294901760
-0.10164563 0.03186778 0.5561288 4294901760
-0.10164563 0.03186778 0.55662882 4294901760
-0.10164563 0.03186778 0.55712879 4294901760
-0.10164563 0.03186778 0.55762881 4294901760
-0.10164563 0.03186778 0.55812883 4294901760
-0.10164563 0.03186778 0.5586288 4294901760
-0.10164563 0.03186778 0.55912882 4294901760
-0.10164563 0.03186778 0.55962878 4294901760
-0.10164563 0.03186778 0.56012881 4294901760
-0.10164563 0.03186778 0.5101288 4278255360
-0.10139579 0.031835038 0.51056063 4278255360
-0.10114595 0.031802297 0.51099253 4278255360
-0.10089611 0.031769555 0.51142442 4278255360
-0.10064627 0.031736813 0.51185626 4278255360
-0.10039643 0.031704072 0.51228809 4278255360
-0.10014659 0.03167133 0.51271999 4278255360
-0.099896751 0.031638585 0.51315188 4278255360
-0.099646911 0.031605843 0.51358372 4278255360
-0.099397071 0.031573102 0.51401561 4278255360
-0.09914723 0.03154036 0.51444745 4278255360
-0.09889739 0.031507619 0.51487935 4278255360
-0.09864755 0.031474877 0.51531118 4278255360
-0.098397709 0.031442136 0.51574302 4278255360
-0.098147869 0.031409394 0.51617491 4278255360
-0.097898029 0.031376652 0.51660681 4278255360
-0.097648188 0.031343911 0.51703864 4278255360
-0.097398348 0.031311169 0.51747048 4278255360
-0.097148508 0.031278428 0.51790237 4278255360
-0.096898668 0.031245684 0.51833427 4278255360
-0.096648827 0.031212943 0.51876611 4278255360
-0.096398987 0.031180201 0.51919794 4278255360
-0.096149147 0.03114746 0.51962984 4278255360
-0.095899306 0.031114718 0.52006173 4278255360
-0.095649466 0.031081975 0.52049357 4278255360
-0.095399633 0.031049233 0.5209254 4278255360
-0.095149793 0.031016491 0.5213573 4278255360
-0.094899952 0.03098375 0.52178919 4278255360
-0.094650112 0.030951008 0.52222103 4278255360
-0.094400272 0.030918267 0.52265286 4278255360
-0.094150431 0.030885525 0.52308476 4278255360
-0.093900591 0.030852782 0.52351665 4278255360
-0.093650751 0.03082004 0.52394849 4278255360
-0.09340091 0.030787298 0.52438039 4278255360
-0.09315107 0.030754557 0.52481222 4278255360
-0.09290123 0.030721815 0.52524412 4278255360
-0.09265139 0.030689074 0.52567595 4278255360
-0.092401549 0.03065633 0.52610779 4278255360
-0.092151709 0.030623589 0.52653968 4278255360
-0.091901869 0.030590847 0.52697158 4278255360
-0.091652028 0.030558106 0.52740341 4278255360
-0.091402188 0.030525364 0.52783525 4278255360
-0.091152348 0.030492622 0.52826715 4278255360
-0.090902507 0.030459881 0.52869904 4278255360
-0.090652667 0.030427137 0.52913088 4278255360
-0.090402827 0.030394396 0.52956271 4278255360
-0.090152986 0.030361654 0.52999461 4278255360
-0.089903146 0.030328913 0.5304265 4278255360
-0.089653306 0.030296171 0.53085834 4278255360
-0.089403465 0.03026343 0.53129017 4278255360
-0.089153625 0.030230686 0.53172207 4278255360
-0.088903785 0.030197944 0.53215396 4278255360
-0.088653944 0.030165203 0.5325858 4278255360
-0.088404104 0.030132461 0.53301764 4278255360
-0.088154264 0.03009972 0.53344953 4278255360
-0.087904423 0.030066978 0.53388143 4278255360
-0.087654583 0.030034237 0.53431326 4278255360
-0.087404743 0.030001493 0.5347451 4278255360
-0.087154903 0.029968752 0.53517699 4278255360
-0.086905062 0.02993601 0.53560883 4278255360
-0.086655222 0.029903268 0.53604072 4278255360
-0.086405382 0.029870527 0.53647256 4278255360
-0.086155541 0.029837785 0.53690445 4278255360
-0.085905701 0.029805042 0.53733635 4278255360
-0.085655861 0.0297723 0.53776819 4278255360
-0.08540602 0.029739559 0.53820002 4278255360
-0.08515618 0.029706817 0.53863192 4278255360
-0.08490634 0.029674076 0.53906381 4278255360
-0.084656499 0.029641334 0.53949565 4278255360
-0.084406659 0.029608592 0.53992748 4278255360
-0.084156826 0.029575851 0.54035938 4278255360
-0.083906978 0.029543107 0.54079127 4278255360
-0.083657138 0.029510366 0.54122311 4278255360
-0.083407298 0.029477624 0.54165494 4278255360
-0.083157465 0.029444883 0.54208684 4278255360
-0.082907617 0.029412141 0.54251873 4278255360
-0.082657784 0.029379399 0.54295057 4278255360
-0.082407936 0.029346656 0.54338241 4278255360
-0.082158104 0.029313914 0.5438143 4278255360
-0.081908256 0.029281173 0.5442462 4278255360
-0.081658423 0.029248431 0.54467803 4278255360
-0.081408575 0.02921569 0.54510987 4278255360
-0.081158742 0.029182948 0.54554176 4278255360
-0.080908902 0.029150207 0.54597366 4278255360
-0.080659062 0.029117465 0.54640549 4278255360
-0.080409214 0.029084722 0.54683733 4278255360
-0.080159381 0.02905198 0.54726923 4278255360
-0.079909541 0.029019238 0.54770112 4278255360
-0.0796597 0.028986497 0.54813296 4278255360
-0.07940986 0.028953755 0.54856479 4278255360
-0.07916002 0.028921012 0.54899669 4278255360
-0.078910179 0.02888827 0.54942858 4278255360
-0.078660339 0.028855529 0.54986042 4278255360
-0.078410499 0.028822787 0.55029225 4278255360
-0.078160658 0.028790046 0.55072415 4278255360
-0.077910818 0.028757304 0.55115604 4278255360
-0.077660978 0.028724562 0.55158788 4278255360
-0.077411138 0.028691819 0.55201972 4278255360
-0.077161297 0.028659077 0.55245161 4278255360
-0.076911457 0.028626336 0.55288351 4278255360
-0.076661617 0.028593594 0.55331534 4278255360
