# .PCD v0.7 - Point Cloud Data file format
VERSION 0.7
FIELDS x y z rgb
SIZE 4 4 4 4
TYPE F F F U
COUNT 1 1 1 1
WIDTH 1018
HEIGHT 1
VIEWPOINT 0 0 0 1 0 0 0
POINTS 1018
DATA ascii
0.017963205 0.0048104236 0.39200002 4286724137
0.019236421 0.0048104236 0.39200002 4287972405
0.020509636 0.0048104236 0.39200002 4289949023
-0.012558319 0.0055098101 0.35500002 4281809943
-0.011405277 0.0055098101 0.35500002 4281545492
-0.010252237 0.0055098101 0.35500002 4282265111
-0.0090991966 0.0055098101 0.35500002 4284365351
-0.007946156 0.0055098101 0.35500002 4285477150
-0.0067931153 0.0055098101 0.35500002 4285869850
-0.0056400741 0.0055098101 0.35500002 4286069541
-0.0045249527 0.0055563715 0.35800001 4286072369
-0.0033621681 0.0055563715 0.35800001 4285545771
-0.0022055269 0.0055718925 0.35900003 4285217578
-0.0010481807 0.005618454 0.36200002 4284362784
0.00012830083 0.0056494954 0.36400002 4284886560
0.0013141739 0.0056650154 0.36500001 4286133797
0.0025202399 0.0057115778 0.36800003 4284622872
0.0037356974 0.0057426183 0.37 4284768856
0.0050175255 0.0058357422 0.37600002 4284051295
0.0062885508 0.0058823037 0.37900001 4282138935
0.0075790659 0.0059288661 0.38200003 4282532923
0.0088890679 0.0059754276 0.38500002 4286354048
0.010192221 0.006006469 0.38700002 4287278232
0.011508367 0.00603751 0.38900003 4287141252
0.012804672 0.0060530305 0.39000002 4282524442
0.014107473 0.0060685514 0.39100003 4283769364
0.015377442 0.0060685514 0.39100003 4284755746
0.016647412 0.0060685514 0.39100003 4285280543
0.017963205 0.0060840719 0.39200002 4285869857
0.019236421 0.0060840719 0.39200002 4286986028
0.020509636 0.0060840719 0.39200002 4286987057
-0.013711359 0.0066632414 0.35500002 4281809943
-0.012558319 0.0066632414 0.35500002 4281282833
-0.011405277 0.0066632414 0.35500002 4281282066
-0.010252237 0.0066632414 0.35500002 4284696111
-0.0090991966 0.0066632414 0.35500002 4285020710
-0.007946156 0.0066632414 0.35500002 4285738269
-0.0067931153 0.0066632414 0.35500002 4286132254
-0.0056559616 0.0066820108 0.35600001 4286069028
-0.0045249527 0.0067195501 0.35800001 4285477920
-0.0033621681 0.0067195501 0.35800001 4285544742
-0.0022116704 0.0067570894 0.36000001 4284493085
-0.0010481807 0.0067946292 0.36200002 4284624669
0.00012830083 0.0068321684 0.36400002 4285215263
0.0013177744 0.0068697082 0.36600003 4286003748
0.0025202399 0.0069072475 0.36800003 4284692259
0.0037457941 0.0069635562 0.37100002 4285103979
0.0050175255 0.0070574046 0.37600002 4282078275
0.0062885508 0.0071137138 0.37900001 4281417776
0.0075790659 0.0071700229 0.38200003 4283522891
0.0088890679 0.0072263321 0.38500002 4284577635
0.010218557 0.0072826408 0.38800001 4287278230
0.011537951 0.0073201805 0.39000002 4283123252
0.012837506 0.0073389504 0.39100003 4283443227
0.014143554 0.0073577198 0.39200002 4283900437
0.01541677 0.0073577198 0.39200002 4284755744
0.016689988 0.0073577198 0.39200002 4285674277
0.018009027 0.0073764892 0.39300001 4285673764
0.019285493 0.0073764892 0.39300001 4285936168
0.020561956 0.0073764892 0.39300001 4285017380
-0.013711359 0.0078166723 0.35500002 4281282829
-0.012558319 0.0078166723 0.35500002 4280625167
-0.011405277 0.0078166723 0.35500002 4280097540
-0.010252237 0.0078166723 0.35500002 4284364579
-0.0090991966 0.0078166723 0.35500002 4285413926
-0.007946156 0.0078166723 0.35500002 4285671451
-0.0068122507 0.0078386907 0.35600001 4286921770
-0.0056559616 0.0078386907 0.35600001 4285147672
-0.0045123133 0.0078607099 0.35700002 4285279519
-0.0033621681 0.0078827282 0.35800001 4285018916
-0.0022116704 0.0079267658 0.36000001 4284558367
-0.0010481807 0.0079708034 0.36200002 4284623386
0.00012830083 0.0080148419 0.36400002 4285017884
0.0013177744 0.0080588795 0.36600003 4285938984
0.0025270884 0.0081249354 0.36900002 4284169515
0.0037457941 0.008168973 0.37100002 4282667845
0.0050041811 0.0082570482 0.37500003 4280891445
0.0062719584 0.0083231041 0.37800002 4284577385
0.0075790659 0.0084111802 0.38200003 4280497188
0.0089121563 0.0084992545 0.38600001 4283526232
0.010244895 0.0085653113 0.38900003 4288199332
0.011537951 0.0085873296 0.39000002 4282328855
0.012870338 0.0086313672 0.39200002 4283836186
0.014143554 0.0086313672 0.39200002 4284491288
0.015456098 0.0086533865 0.39300001 4285213215
0.016732562 0.0086533865 0.39300001 4285475615
0.018009027 0.0086533865 0.39300001 4285937449
0.019285493 0.0086533865 0.39300001 4284101675
0.020561956 0.0086533865 0.39300001 4288518794
-0.013711359 0.0089701032 0.35500002 4280887821
-0.012558319 0.0089701032 0.35500002 4280295434
-0.011405277 0.0089701032 0.35500002 4280097544
-0.010252237 0.0089701032 0.35500002 4284956205
-0.0090991966 0.0089701032 0.35500002 4285478181
-0.0079685394 0.0089953709 0.35600001 4286263073
-0.0068122507 0.0089953709 0.35600001 4286789417
-0.0056559616 0.0089953709 0.35600001 4284423181
-0.0045249527 0.0090459064 0.35800001 4285675564
-0.0033621681 0.0090459064 0.35800001 4286270268
-0.0022116704 0.0090964427 0.36000001 4283966489
-0.0010481807 0.0091469781 0.36200002 4284952353
0.00012830083 0.0091975145 0.36400002 4284819992
0.0013177744 0.0092480499 0.36600003 4284887841
0.0025270884 0.009323854 0.36900002 4283709479
0.0037457941 0.0093743894 0.37100002 4282798914
0.0049908361 0.0094501935 0.37400001 4291952617
0.0062553659 0.0095259966 0.377 4283588416
0.0075790659 0.0096523371 0.38200003 4282335269
0.0089352448 0.0097786766 0.38700002 4281547300
0.010244895 0.009829212 0.38900003 4286811510
0.011567537 0.0098797483 0.39100003 4282390537
0.01290317 0.0099302828 0.39300001 4284163609
0.014179633 0.0099302828 0.39300001 4285147420
0.015495427 0.0099555515 0.39400002 4285804834
0.016775141 0.0099555515 0.39400002 4285674016
0.018009027 0.0099302828 0.39300001 4285479980
0.019285493 0.0099302828 0.39300001 4288260500
-0.013711359 0.010123535 0.35500002 4280558604
-0.012558319 0.010123535 0.35500002 4280492298
-0.011405277 0.010123535 0.35500002 4280949769
-0.010252237 0.010123535 0.35500002 4285151013
-0.0090991966 0.010123535 0.35500002 4285739811
-0.0079685394 0.010152051 0.35600001 4286723108
-0.0068122507 0.010152051 0.35600001 4286854692
-0.0056718495 0.010180569 0.35700002 4285081879
-0.0045249527 0.010209085 0.35800001 4285807662
-0.0033715598 0.010237603 0.35900003 4284758572
-0.0022116704 0.01026612 0.36000001 4284230946
-0.0010452853 0.010294638 0.36100003 4284886562
0.00012830083 0.010380188 0.36400002 4285476639
0.0013177744 0.010437222 0.36600003 4283506958
0.0025202399 0.010494256 0.36800003 4282526234
0.0037457941 0.010579807 0.37100002 4282004517
0.0049774921 0.010636841 0.37300003 4287533691
0.0062221815 0.010693875 0.37500003 4287204442
0.0074203415 0.010665358 0.37400001 4288058718
0.0089583332 0.011064596 0.38800001 4284703554
0.010297568 0.011150148 0.39100003 4281741588
0.011626705 0.011207181 0.39300001 4283771159
0.012936003 0.011235698 0.39400002 4284885531
0.014215714 0.011235698 0.39400002 4285475099
0.015495427 0.011235698 0.39400002 4285804062
0.016775141 0.011235698 0.39400002 4285872428
0.018054854 0.011235698 0.39400002 4290094226
-0.0148644 0.011276967 0.35500002 4281283351
-0.013711359 0.011276967 0.35500002 4280952849
-0.012558319 0.011276967 0.35500002 4280885775
-0.011405277 0.011276967 0.35500002 4283249698
-0.010252237 0.011276967 0.35500002 4285544228
-0.0091248276 0.011308732 0.35600001 4286264613
-0.0079685394 0.011308732 0.35600001 4286986278
-0.0068122507 0.011308732 0.35600001 4286722338
-0.0056718495 0.011340499 0.35700002 4285409304
-0.0045249527 0.011372264 0.35800001 4285808432
-0.0033715598 0.011404031 0.35900003 4284495400
-0.0022116704 0.011435797 0.36000001 4283771679
-0.0010452853 0.011467564 0.36100003 4284426009
0.00012830083 0.011562862 0.36400002 4285478435
0.0013177744 0.011626394 0.36600003 4282851342
0.0025202399 0.011689926 0.36800003 4282001174
0.0037356974 0.011753458 0.37 4281674779
0.0049641472 0.011816991 0.37200001 4284702534
0.0062055886 0.011880523 0.37400001 4281544459
0.0074203415 0.011880523 0.37400001 4281872908
0.008612006 0.011848757 0.37300003 4282400027
0.010323904 0.012452313 0.39200002 4281608718
0.01165629 0.012515845 0.39400002 4284097814
0.012968834 0.01254761 0.39500001 4285081881
0.014251795 0.01254761 0.39500001 4286000668
0.015534755 0.01254761 0.39500001 4285934875
0.016817717 0.01254761 0.39500001 4285085222
-0.0148644 0.012430398 0.35500002 4281349144
-0.013711359 0.012430398 0.35500002 4281019155
-0.012558319 0.012430398 0.35500002 4281081868
-0.011405277 0.012430398 0.35500002 4284694062
-0.010281117 0.012465413 0.35600001 4286003494
-0.0091248276 0.012465413 0.35600001 4286197793
-0.0079685394 0.012465413 0.35600001 4288432704
-0.0068313861 0.012500429 0.35700002 4287775026
-0.0056718495 0.012500429 0.35700002 4287576107
-0.0045249527 0.012535443 0.35800001 4287510827
-0.0033715598 0.012570458 0.35900003 4285082910
-0.0022116704 0.012605473 0.36000001 4284622359
-0.0010452853 0.012640489 0.36100003 4285015318
0.00012830083 0.012745535 0.36400002 4285674018
0.0013177744 0.012815565 0.36600003 4282589199
0.0025202399 0.012885596 0.36800003 4282133273
0.0037356974 0.012955626 0.37 4282200351
0.0049641472 0.013025655 0.37200001 4284043837
0.0061889961 0.013060671 0.37300003 4281346826
0.0074005011 0.013060671 0.37300003 4282728479
0.008612006 0.013060671 0.37300003 4281873687
0.010323904 0.013725961 0.39200002 4281475849
0.01165629 0.01379599 0.39400002 4284622874
0.013001667 0.013866021 0.39600003 4285672219
0.014287875 0.013866021 0.39600003 4286261785
0.015574085 0.013866021 0.39600003 4286393371
0.016860293 0.013866021 0.39600003 4284823845
-0.0148644 0.013583829 0.35500002 4282139687
-0.013711359 0.013583829 0.35500002 4281283351
-0.012593693 0.013622093 0.35600001 4281671179
-0.011437405 0.013622093 0.35600001 4285217580
-0.010281117 0.013622093 0.35600001 4286395942
-0.0091248276 0.013622093 0.35600001 4286986026
-0.0079685394 0.013622093 0.35600001 4288957760
-0.0068313861 0.013660357 0.35700002 4287510312
-0.0056718495 0.013660357 0.35700002 4287574565
-0.0045249527 0.013698622 0.35800001 4287903530
-0.0033715598 0.013736886 0.35900003 4287641898
-0.0022116704 0.01377515 0.36000001 4287773486
-0.0010452853 0.013813416 0.36100003 4289289801
0.00012830083 0.013928208 0.36400002 4286856750
0.0013177744 0.014004736 0.36600003 4281471234
0.0025202399 0.014081265 0.36800003 4282067482
0.0037356974 0.014157793 0.37 4281608984
0.0049508028 0.014196058 0.37100002 4284242499
0.0061724037 0.014234321 0.37200001 4284900931
0.0078766728 0.015190929 0.39700001 4284770112
0.0091892183 0.015229194 0.39800003 4281675029
0.010481923 0.015229194 0.39800003 4282523408
0.011774627 0.015229194 0.39800003 4285608484
0.013001667 0.015152666 0.39600003 4286066977
0.014287875 0.015152666 0.39600003 4286590750
0.015574085 0.015152666 0.39600003 4286788129
0.016860293 0.015152666 0.39600003 4286538578
-0.014906271 0.014778772 0.35600001 4281548066
-0.013749982 0.014778772 0.35600001 4281482273
-0.012593693 0.014778772 0.35600001 4282986526
-0.011437405 0.014778772 0.35600001 4285085992
-0.010281117 0.014778772 0.35600001 4286526499
-0.0091248276 0.014778772 0.35600001 4286920485
-0.0079909237 0.014820287 0.35700002 4287378724
-0.0068313861 0.014820287 0.35700002 4287312161
-0.0056718495 0.014820287 0.35700002 4287707173
-0.0045249527 0.0148618 0.35800001 4291195233
-0.0033715598 0.014903313 0.35900003 4288435525
-0.0022116704 0.014944826 0.36000001 4288167470
-0.0010452853 0.014986341 0.36100003 4288299310
0.00012865329 0.015152394 0.36500001 4287644208
0.0013213749 0.01523542 0.36700001 4281997064
0.0025270884 0.015318448 0.36900002 4282462240
0.0037356974 0.01535996 0.37 4280360714
0.0049508028 0.015401474 0.37100002 4286283624
0.0061724037 0.015442987 0.37200001 4281941288
0.0078766728 0.016480822 0.39700001 4284967764
0.0091892183 0.016522337 0.39800003 4283580721
0.010481923 0.016522337 0.39800003 4283704862
0.011774627 0.016522337 0.39800003 4285805604
0.0130345 0.016480822 0.39700001 4286263327
0.014323955 0.016480822 0.39700001 4286787872
0.015613412 0.016480822 0.39700001 4286327321
-0.01606256 0.015935453 0.35600001 4281615405
-0.014906271 0.015935453 0.35600001 4281350952
-0.013749982 0.015935453 0.35600001 4281285159
-0.012593693 0.015935453 0.35600001 4283840811
-0.011437405 0.015935453 0.35600001 4284756775
-0.010281117 0.015935453 0.35600001 4286263586
-0.0091504594 0.015980216 0.35700002 4286328350
-0.0079909237 0.015980216 0.35700002 4286983966
-0.0068313861 0.015980216 0.35700002 4287180575
-0.0056718495 0.015980216 0.35700002 4287640356
-0.0045249527 0.016024979 0.35800001 4286983200
-0.0033715598 0.016069742 0.35900003 4291201141
-0.0022116704 0.016114503 0.36000001 4288240960
-0.0010452853 0.016159266 0.36100003 4288232495
0.00012865329 0.016338315 0.36500001 4287906353
0.0013213749 0.016427841 0.36700001 4281536261
0.0025270884 0.016517365 0.36900002 4280818446
0.0037356974 0.016562128 0.37 4281281566
0.0049508028 0.016606892 0.37100002 4281413665
0.0065374384 0.01763643 0.39400002 4283056430
0.0078568328 0.017725954 0.39600003 4288120438
0.0091661299 0.017770715 0.39700001 4282916368
0.010455586 0.017770715 0.39700001 4285083427
0.011745043 0.017770715 0.39700001 4286592292
0.013001667 0.017725954 0.39600003 4286919458
0.014287875 0.017725954 0.39600003 4287181347
0.015613412 0.017770715 0.39700001 4286788901
-0.01606256 0.017092135 0.35600001 4287211924
-0.014906271 0.017092135 0.35600001 4287343508
-0.013749982 0.017092135 0.35600001 4287342992
-0.012593693 0.017092135 0.35600001 4283119141
-0.011469533 0.017140146 0.35700002 4284429091
-0.010309996 0.017140146 0.35700002 4285869600
-0.0091504594 0.017140146 0.35700002 4286065696
-0.0079909237 0.017140146 0.35700002 4286327580
-0.0068313861 0.017140146 0.35700002 4286656286
-0.0056877369 0.017188158 0.35800001 4287114782
-0.0045249527 0.017188158 0.35800001 4287180575
-0.0033715598 0.017236169 0.35900003 4287180325
-0.0022116704 0.017284181 0.36000001 4291591020
-0.0010452853 0.017332194 0.36100003 4288167470
0.00012900577 0.017572252 0.36600003 4288037169
0.0013249754 0.017668275 0.36800003 4282651662
0.0025270884 0.017716285 0.36900002 4280882191
0.0037457941 0.01781231 0.37100002 4281940009
0.0052043479 0.018724529 0.39000002 4284176456
0.0065042535 0.018820552 0.39200002 4285610285
0.0078369919 0.018964587 0.39500001 4286529077
0.0091199521 0.018964587 0.39500001 4286790707
0.01042925 0.0190126 0.39600003 4286264358
0.011715459 0.0190126 0.39600003 4287511852
0.013001667 0.0190126 0.39600003 4287181860
0.014287875 0.0190126 0.39600003 4287313446
0.015613412 0.01906061 0.39700001 4286922286
-0.014948144 0.018300075 0.35700002 4287015058
-0.013788607 0.018300075 0.35700002 4287935647
-0.012629069 0.018300075 0.35700002 4282790178
-0.011469533 0.018300075 0.35700002 4283903776
-0.010309996 0.018300075 0.35700002 4285607201
-0.0091504594 0.018300075 0.35700002 4285408795
-0.0079909237 0.018300075 0.35700002 4285670936
-0.0068505215 0.018351335 0.35800001 4286196764
-0.0056877369 0.018351335 0.35800001 4286524957
-0.0045249527 0.018351335 0.35800001 4286984479
-0.0033715598 0.018402597 0.35900003 4287246368
-0.0022116704 0.018453857 0.36000001 4288232493
-0.0010452853 0.018505119 0.36100003 4287970091
0.00012900577 0.018761422 0.36600003 4289156420
0.0013249754 0.018863944 0.36800003 4284820263
0.0025339369 0.018966464 0.37 4281077003
0.0037457941 0.019017726 0.37100002 4281741865
0.0051910039 0.019940419 0.38900003 4282920229
0.0064710681 0.019991679 0.39000002 4286660913
0.007817151 0.020196723 0.39400002 4287053102
0.0090968646 0.020196723 0.39400002 4290013535
0.010402913 0.020247983 0.39500001 4287052591
0.011685873 0.020247983 0.39500001 4287380009
0.012968834 0.020247983 0.39500001 4287511595
0.014251795 0.020247983 0.39500001 4287446061
-0.014948144 0.019460006 0.35700002 4287146646
-0.013788607 0.019460006 0.35700002 4288132258
-0.012629069 0.019460006 0.35700002 4282987821
-0.011469533 0.019460006 0.35700002 4283707428
-0.010309996 0.019460006 0.35700002 4284754972
-0.0091760904 0.019514514 0.35800001 4284687382
-0.0080133062 0.019514514 0.35800001 4284948755
-0.0068505215 0.019514514 0.35800001 4285606680
-0.0057036243 0.019569024 0.35900003 4285803289
-0.0045375922 0.019569024 0.35900003 4286131739
-0.003380951 0.019623535 0.36000001 4286656284
-0.0022178141 0.019678045 0.36100003 4287050272
-0.0010481807 0.019732554 0.36200002 4287641896
0.00012900577 0.019950593 0.36600003 4287576616
0.0013213749 0.020005103 0.36700001 4283835675
0.0025270884 0.020114122 0.36900002 4281604371
0.0038871446 0.020986279 0.38500002 4281932051
0.005177659 0.021149809 0.38800001 4285545523
0.0064544762 0.021204319 0.38900003 4287053356
0.0077576302 0.021313339 0.39100003 4287314218
0.0090506868 0.021367848 0.39200002 4291989376
0.010350239 0.021422358 0.39300001 4286789165
0.01165629 0.021476869 0.39400002 4287971894
0.012936003 0.021476869 0.39400002 4287314218
0.014215714 0.021476869 0.39400002 4288502865
-0.014948144 0.020619934 0.35700002 4287146644
-0.013788607 0.020619934 0.35700002 4287870369
-0.012629069 0.020619934 0.35700002 4282331174
-0.01150166 0.020677693 0.35800001 4283707944
-0.010338875 0.020677693 0.35800001 4284098329
-0.0091760904 0.020677693 0.35800001 4284425497
-0.0080133062 0.020677693 0.35800001 4284555798
-0.0068696574 0.020735452 0.35900003 4284621076
-0.0057036243 0.020735452 0.35900003 4285016088
-0.0045502316 0.020793211 0.36000001 4285345053
-0.0033903427 0.020850971 0.36100003 4285935902
-0.0022239573 0.020908728 0.36200002 4286593573
-0.0010510762 0.020966487 0.36300001 4286788899
0.00012865329 0.021082005 0.36500001 4285999385
0.0013213749 0.021197524 0.36700001 4289569685
0.0026229671 0.022121666 0.38300002 4283124031
0.0038871446 0.022237184 0.38500002 4284561454
0.0051643145 0.022352701 0.38700002 4285477672
0.0064378832 0.02241046 0.38800001 4287972405
0.0077377893 0.022525977 0.39000002 4287840817
0.0090275994 0.022583738 0.39100003 4290802272
0.010323904 0.022641497 0.39200002 4288829767
0.01159712 0.022641497 0.39200002 4291009159
0.01290317 0.022699254 0.39300001 4290678910
0.014179633 0.022699254 0.39300001 4287519565
-0.014948144 0.021779863 0.35700002 4286883472
-0.01382723 0.02184087 0.35800001 4287804574
-0.012664445 0.02184087 0.35800001 4282660398
-0.01150166 0.02184087 0.35800001 4284036909
-0.010338875 0.02184087 0.35800001 4284165667
-0.0092017232 0.021901879 0.35900003 4284098847
-0.0080356905 0.021901879 0.35900003 4284360986
-0.0068696574 0.021901879 0.35900003 4284624158
-0.0057195118 0.021962887 0.36000001 4284689179
-0.0045628715 0.022023896 0.36100003 4284820765
-0.0033903427 0.022023896 0.36100003 4285478435
-0.0022239573 0.022084903 0.36200002 4285806885
-0.0010539718 0.022206919 0.36400002 4286859057
0.00012900577 0.022328936 0.36600003 4285279771
0.0013213749 0.022389943 0.36700001 4289572765
0.0026229671 0.023366071 0.38300002 4288591780
0.0038871446 0.023488088 0.38500002 4284170296
0.0051643145 0.023610104 0.38700002 4285872943
0.0064378832 0.023671111 0.38800001 4287907898
0.0077179489 0.02373212 0.38900003 4288564285
0.00900451 0.023793127 0.39000002 4288366134
0.010297568 0.023854136 0.39100003 4288102710
0.01159712 0.023915144 0.39200002 4293836976
0.012870338 0.023915144 0.39200002 4288636245
0.014143554 0.023915144 0.39200002 4287249200
0.01541677 0.023915144 0.39200002 4287385667
-0.014948144 0.022939794 0.35700002 4287146646
-0.01382723 0.023004051 0.35800001 4287278232
-0.012664445 0.023004051 0.35800001 4285164384
-0.011533787 0.023068309 0.35900003 4283512366
-0.010367756 0.023068309 0.35900003 4284430122
-0.0092017232 0.023068309 0.35900003 4284232228
-0.0080580739 0.023132564 0.36000001 4284757027
-0.0068887929 0.023132564 0.36000001 4284559648
-0.0057353997 0.023196824 0.36100003 4284427292
-0.0045628715 0.023196824 0.36100003 4284888613
-0.0033997342 0.02326108 0.36200002 4285020712
-0.0022301008 0.023325335 0.36300001 4285546543
-0.0010539718 0.023389595 0.36400002 4284821019
0.00012900577 0.023518108 0.36600003 4285675560
0.0013213749 0.023582365 0.36700001 4289704605
0.0025270884 0.023710879 0.36900002 4287999641
0.0038972411 0.024803249 0.38600001 4288459424
0.0051643145 0.024867509 0.38700002 4282792238
0.0064378832 0.024931764 0.38800001 4288303939
0.0077179489 0.024996022 0.38900003 4287773995
0.00900451 0.025060279 0.39000002 4288430126
0.010271231 0.025060279 0.39000002 4288561712
0.011567537 0.025124537 0.39100003 4288693048
0.012870338 0.025188792 0.39200002 4288628541
0.014143554 0.025188792 0.39200002 4288234550
0.01541677 0.025188792 0.39200002 4287380784
-0.01382723 0.024167228 0.35800001 4287409564
-0.012699821 0.024234736 0.35900003 4288527016
-0.011565915 0.024302242 0.36000001 4284376663
-0.010396635 0.024302242 0.36000001 4284759603
-0.0092273541 0.024302242 0.36000001 4284824878
-0.0080804573 0.024369748 0.36100003 4285285168
-0.0069079287 0.024369748 0.36100003 4285152812
-0.0057512871 0.024437254 0.36200002 4284300333
-0.004575511 0.024437254 0.36200002 4284501825
-0.0034091256 0.02450476 0.36300001 4286015841
-0.0022362445 0.024572266 0.36400002 4283708716
-0.0010568673 0.024639772 0.36500001 4284494116
0.00012900577 0.02470728 0.36600003 4285742900
0.0013213749 0.024774784 0.36700001 4287858034
0.0025270884 0.024909798 0.36900002 4287932819
0.0039073378 0.02612491 0.38700002 4287736982
0.0051643145 0.02612491 0.38700002 4289179804
0.0064378832 0.026192416 0.38800001 4286985510
0.0077179489 0.026259923 0.38900003 4288101161
0.00900451 0.026327427 0.39000002 4288626474
0.010271231 0.026327427 0.39000002 4288692267
0.011567537 0.026394935 0.39100003 4288429867
0.012837506 0.026394935 0.39100003 4288429615
0.014143554 0.026462441 0.39200002 4287838505
0.01541677 0.026462441 0.39200002 4288168755
-0.01382723 0.025330408 0.35800001 4287607197
-0.012699821 0.025401164 0.35900003 4287672990
-0.011565915 0.025471918 0.36000001 4288001442
-0.010425515 0.025542675 0.36100003 4284696894
-0.0092529859 0.025542675 0.36100003 4284628784
-0.0081028407 0.025613429 0.36200002 4284693544
-0.0069270642 0.025613429 0.36200002 4283508757
-0.0057671745 0.025684183 0.36300001 4289442976
-0.00458815 0.025684183 0.36300001 4287935647
-0.0034185173 0.02575494 0.36400002 4288592295
-0.002242388 0.025825694 0.36500001 4283651402
-0.0010597629 0.025896451 0.36600003 4283574561
0.00012935825 0.025967205 0.36700001 4284428839
0.0013249754 0.026037961 0.36800003 4284299817
0.0025270884 0.026108716 0.36900002 4289769113
0.0039073378 0.027382312 0.38700002 4289372556
0.005177659 0.027453067 0.38800001 4286335287
0.0064378832 0.027453067 0.38800001 4287773997
0.0077179489 0.027523823 0.38900003 4288693816
0.0089814216 0.027523823 0.38900003 4288495660
0.010271231 0.027594578 0.39000002 4288560683
0.011537951 0.027594578 0.39000002 4288626994
0.012837506 0.027665334 0.39100003 4287640103
0.014107473 0.027665334 0.39100003 4287509292
0.01541677 0.027736088 0.39200002 4287577138
-0.012735196 0.026641594 0.36000001 4287870369
-0.01163017 0.026789604 0.36200002 4288133541
-0.010454394 0.026789604 0.36200002 4284899157
-0.0092786169 0.026789604 0.36200002 4284235058
-0.0081252242 0.026863607 0.36300001 4284627751
-0.0069461991 0.026863607 0.36300001 4284561445
-0.005783062 0.026937613 0.36400002 4289243282
-0.0046007899 0.026937613 0.36400002 4288197785
-0.0034279088 0.027011616 0.36500001 4287869854
-0.0022485317 0.027085623 0.36600003 4287275152
-0.0010597629 0.027085623 0.36600003 4285750095
0.00012935825 0.027159626 0.36700001 4284166183
0.0013249754 0.02723363 0.36800003 4285874740
0.002664058 0.028787725 0.38900003 4286267186
0.0039174343 0.028713718 0.38800001 4287184690
0.005177659 0.028713718 0.38800001 4288302140
0.0064544762 0.028787725 0.38900003 4290799962
0.0077179489 0.028787725 0.38900003 4288430642
0.0089814216 0.028787725 0.38900003 4288429869
0.010271231 0.028861728 0.39000002 4289219385
0.011537951 0.028861728 0.39000002 4287641898
0.012837506 0.028935732 0.39100003 4286919206
0.014107473 0.028935732 0.39100003 4286788395
0.01541677 0.029009737 0.39200002 4285738537
-0.011662297 0.028043032 0.36300001 4288067748
-0.010483273 0.028043032 0.36300001 4289379243
-0.0093298806 0.028120287 0.36400002 4283514163
-0.0081476076 0.028120287 0.36400002 4284693544
-0.006965335 0.028120287 0.36400002 4285021226
-0.0057989494 0.028197538 0.36500001 4284500024
-0.0046134293 0.028197538 0.36500001 4288589979
-0.0034373004 0.028274793 0.36600003 4288198821
-0.0022485317 0.028274793 0.36600003 4287803293
-0.0010626584 0.028352046 0.36700001 4285955697
0.00012971072 0.028429301 0.36800003 4283381041
0.0013249754 0.028429301 0.36800003 4285412392
0.0026572095 0.029974369 0.38800001 4286791475
0.0039174343 0.029974369 0.38800001 4288696896
0.005177659 0.029974369 0.38800001 4289289285
0.0064544762 0.030051624 0.38900003 4287904298
0.0077179489 0.030051624 0.38900003 4288495665
0.0089814216 0.030051624 0.38900003 4288233517
0.010271231 0.030128878 0.39000002 4286656286
0.011537951 0.030128878 0.39000002 4286002983
0.012837506 0.030206133 0.39100003 4285871658
0.014107473 0.030206133 0.39100003 4285480759
-0.011694426 0.029302958 0.36400002 4288133287
-0.010512154 0.029302958 0.36400002 4288329383
-0.0093555115 0.02938346 0.36500001 4283124799
-0.008169991 0.02938346 0.36500001 4284102179
-0.0069844704 0.02938346 0.36500001 4284823847
-0.0058148373 0.029463964 0.36600003 4285020460
-0.0046260692 0.029463964 0.36600003 4290491041
-0.0034466919 0.029544465 0.36700001 4287935647
-0.0022546751 0.029544465 0.36700001 4287672475
-0.001065554 0.029624971 0.36800003 4287934877
0.00012971072 0.029624971 0.36800003 4287010695
0.0013249754 0.029624971 0.36800003 4284885796
0.0026572095 0.031235021 0.38800001 4285474588
0.0039174343 0.031235021 0.38800001 4287314214
0.005177659 0.031235021 0.38800001 4288233263
0.0064378832 0.031235021 0.38800001 4287772712
0.0077179489 0.031315524 0.38900003 4287970863
0.0089814216 0.031315524 0.38900003 4286593580
0.010244895 0.031315524 0.38900003 4285675562
0.011537951 0.031396028 0.39000002 4285284148
0.012804672 0.031396028 0.39000002 4284826427
-0.011726553 0.030569382 0.36500001 4287805092
-0.010541032 0.030569382 0.36500001 4287739299
-0.0093555115 0.030569382 0.36500001 4285893499
-0.0081923753 0.030653136 0.36600003 4284759603
-0.0070036063 0.030653136 0.36600003 4284297251
-0.0058148373 0.030653136 0.36600003 4285545260
-0.0046387082 0.030736886 0.36700001 4287124807
-0.0034466919 0.030736886 0.36700001 4288524702
-0.0022608186 0.03082064 0.36800003 4288328606
-0.001065554 0.03082064 0.36800003 4289445026
0.0001300632 0.03090439 0.36900002 4287136108
0.0013285758 0.03090439 0.36900002 4285805350
0.0025339369 0.03098814 0.37 4288435782
0.0039073378 0.032411922 0.38700002 4288695869
0.005177659 0.032495674 0.38800001 4288299058
0.0064378832 0.032495674 0.38800001 4286724916
0.0077179489 0.032579426 0.38900003 4287393120
0.0089814216 0.032579426 0.38900003 4286808689
0.010244895 0.032579426 0.38900003 4286942074
0.011537951 0.032663178 0.39000002 4287668877
-0.011726553 0.031755306 0.36500001 4287936678
-0.010569912 0.031842306 0.36600003 4287936678
-0.0093811434 0.031842306 0.36600003 4288856497
-0.0082147587 0.031929307 0.36700001 4283971634
-0.0070227417 0.031929307 0.36700001 4284429868
-0.0058307247 0.031929307 0.36700001 4285808432
-0.0046387082 0.031929307 0.36700001 4285740842
-0.0034560836 0.032016307 0.36800003 4284424730
-0.0022608186 0.032016307 0.36800003 4284097562
-0.0010684495 0.032103308 0.36900002 4284886046
0.0001300632 0.032103308 0.36900002 4285936166
0.0013321763 0.032190308 0.37 4286853922
0.0025407854 0.032277312 0.37100002 4293764238
0.0037558903 0.032364309 0.37200001 4287247392
0.005177659 0.033756323 0.38800001 4290538073
0.0064378832 0.033756323 0.38800001 4286401854
0.007698108 0.033756323 0.38800001 4288060037
0.0089814216 0.033843327 0.38900003 4287144845
-0.010569912 0.033031482 0.36600003 4287935908
-0.0094067743 0.033121731 0.36700001 4288396459
-0.0082147587 0.033121731 0.36700001 4283250739
-0.0070227417 0.033121731 0.36700001 4284233776
-0.0058466126 0.03321198 0.36800003 4285217839
-0.0046513481 0.03321198 0.36800003 4285544490
-0.0034560836 0.03321198 0.36800003 4284686101
-0.0022669621 0.033302229 0.36900002 4285213215
-0.0010684495 0.033302229 0.36900002 4285738017
0.00013041566 0.033392478 0.37 4286264358
0.0013321763 0.033392478 0.37 4287051049
0.0025407854 0.03348273 0.37100002 4287313448
0.0037558903 0.033572979 0.37200001 4288233517
0.0049774921 0.033663232 0.37300003 4287181345
0.0062055886 0.033753481 0.37400001 4285089074
-0.010598792 0.034314148 0.36700001 4288067494
-0.0094067743 0.034314148 0.36700001 4287935908
-0.0082371421 0.034407649 0.36800003 4284241481
-0.0070418776 0.034407649 0.36800003 4284169265
-0.0058466126 0.034407649 0.36800003 4285086767
-0.0046513481 0.034407649 0.36800003 4285678644
-0.0034654748 0.034501147 0.36900002 4285082912
-0.0022669621 0.034501147 0.36900002 4285082140
-0.0010684495 0.034501147 0.36900002 4285344283
0.00013041566 0.034594648 0.37 4286198822
0.0013321763 0.034594648 0.37 4286395172
0.0025407854 0.034688145 0.37100002 4286657313
0.0037558903 0.034781646 0.37200001 4286985251
0.0049774921 0.034875143 0.37300003 4287511852
0.0062055886 0.034968644 0.37400001 4287790448
-0.0094324071 0.035603318 0.36800003 4288067494
-0.0082371421 0.035603318 0.36800003 4286875511
-0.0070610126 0.035700068 0.36900002 4283446055
-0.0058624996 0.035700068 0.36900002 4284626216
-0.0046639876 0.035700068 0.36900002 4284362530
-0.0034654748 0.035700068 0.36900002 4284360734
-0.0022669621 0.035700068 0.36900002 4284228632
-0.0010713449 0.035796814 0.37 4284359702
0.00013041566 0.035796814 0.37 4285740070
0.0013357768 0.035893563 0.37100002 4286068774
0.0025407854 0.035893563 0.37100002 4286529325
0.0037558903 0.035990309 0.37200001 4286068776
0.0049774921 0.036087058 0.37300003 4286463795
-0.0094324071 0.036798988 0.36800003 4288067494
-0.0082595255 0.036898986 0.36900002 4289510831
-0.0070610126 0.036898986 0.36900002 4283448631
-0.0058624996 0.036898986 0.36900002 4284693040
-0.0046639876 0.036898986 0.36900002 4284232743
-0.0034748663 0.03699898 0.37 4284692781
-0.0022731056 0.03699898 0.37 4284495400
-0.0010713449 0.03699898 0.37 4284823595
0.00013041566 0.03699898 0.37 4285284400
0.0013357768 0.037098981 0.37100002 4285612336
0.0025407854 0.037098981 0.37100002 4285809717
0.0037558903 0.037198976 0.37200001 4285153593
0.0049774921 0.037298974 0.37300003 4287398516
-0.009458038 0.038097903 0.36900002 4288330920
-0.0082595255 0.038097903 0.36900002 4288593579
-0.0070610126 0.038097903 0.36900002 4284707942
-0.005878387 0.03820115 0.37 4284498493
-0.004676627 0.03820115 0.37 4284366646
-0.0034748663 0.03820115 0.37 4284957497
-0.0022731056 0.03820115 0.37 4285088570
-0.0010713449 0.03820115 0.37 4285154876
0.00013076815 0.038304396 0.37100002 4284825911
0.0013357768 0.038304396 0.37100002 4284235056
0.0025407854 0.038304396 0.37100002 4285554000
0.0037558903 0.038407642 0.37200001 4287866002
-0.0082595255 0.039296821 0.36900002 4288067748
-0.007080148 0.039403316 0.37 4288067748
-0.005878387 0.039403316 0.37 4288919977
-0.004676627 0.039403316 0.37 4288063383
-0.0034748663 0.039403316 0.37 4287667596
-0.0022731056 0.039403316 0.37 4287995791
-0.0010713449 0.039403316 0.37 4287996045
0.00013076815 0.039509814 0.37100002 4288522905
0.0013357768 0.039509814 0.37100002 4287669906
0.0025407854 0.039509814 0.37100002 4287276433
0.0037558903 0.039616309 0.37200001 4286948754
-0.007080148 0.040605485 0.37 4287804322
-0.005878387 0.040605485 0.37 4287804322
-0.004676627 0.040605485 0.37 4287935908
-0.0034748663 0.040605485 0.37 4287344025
-0.0022731056 0.040605485 0.37 4287343512
-0.0010713449 0.040605485 0.37 4287474328
0.00013076815 0.040715229 0.37100002 4287342742
0.0013357768 0.040715229 0.37100002 4287211154
0.0025407854 0.040715229 0.37100002 4287408533
0.0037558903 0.040824972 0.37200001 4286948752
0.0036957115 0.01373091 0.37421107 4294967295
0.0036957115 0.01373091 0.37421107 4294901760
0.0036957115 0.013251283 0.37406981 4294901760
0.0036957115 0.012771656 0.37392852 4294901760
0.0036957115 0.012292029 0.37378725 4294901760
0.0036957115 0.011812402 0.37364599 4294901760
0.0036957115 0.011332775 0.3735047 4294901760
0.0036957115 0.010853148 0.37336344 4294901760
0.0036957115 0.010373522 0.37322217 4294901760
0.0036957115 0.0098938942 0.37308088 4294901760
0.0036957115 0.0094142668 0.37293962 4294901760
0.0036957115 0.0089346403 0.37279835 4294901760
0.0036957115 0.0084550139 0.37265706 4294901760
0.0036957115 0.0079753865 0.3725158 4294901760
0.0036957115 0.00749576 0.37237453 4294901760
0.0036957115 0.0070161326 0.37223324 4294901760
0.0036957115 0.0065365057 0.37209198 4294901760
0.0036957115 0.0060568792 0.37195072 4294901760
0.0036957115 0.0055772522 0.37180942 4294901760
0.0036957115 0.0050976248 0.37166816 4294901760
0.0036957115 0.0046179984 0.3715269 4294901760
0.0036957115 0.004138371 0.3713856 4294901760
0.0036957115 0.0036587445 0.37124434 4294901760
0.0036957115 0.003179118 0.37110308 4294901760
0.0036957115 0.0026994906 0.37096179 4294901760
0.0036957115 0.0022198642 0.37082052 4294901760
0.0036957115 0.0017402368 0.37067926 4294901760
0.0036957115 0.0012606103 0.37053797 4294901760
0.0036957115 0.00078098197 0.3703967 4294901760
0.0036957115 0.0003013555 0.37025544 4294901760
0.0036957115 -0.00017827004 0.37011415 4294901760
0.0036957115 -0.00065789837 0.36997288 4294901760
0.0036957115 -0.0011375248 0.36983162 4294901760
0.0036957115 -0.0016171513 0.36969033 4294901760
0.0036957115 -0.0020967796 0.36954907 4294901760
0.0036957115 -0.0025764052 0.3694078 4294901760
0.0036957115 -0.0030560326 0.36926651 4294901760
0.0036957115 -0.00353566 0.36912525 4294901760
0.0036957115 -0.0040152874 0.36898398 4294901760
0.0036957115 -0.0044949129 0.36884269 4294901760
0.0036957115 -0.0049745385 0.36870143 4294901760
0.0036957115 -0.0054541677 0.36856017 4294901760
0.0036957115 -0.0059337933 0.36841887 4294901760
0.0036957115 -0.0064134207 0.36827761 4294901760
0.0036957115 -0.0068930481 0.36813635 4294901760
0.0036957115 -0.0073726736 0.36799505 4294901760
0.0036957115 -0.007852301 0.36785379 4294901760
0.0036957115 -0.0083319284 0.36771253 4294901760
0.0036957115 -0.0088115558 0.36757123 4294901760
0.0036957115 -0.0092911813 0.36742997 4294901760
0.0036957115 -0.0097708106 0.36728871 4294901760
0.0036957115 -0.010250436 0.36714745 4294901760
0.0036957115 -0.010730062 0.36700615 4294901760
0.0036957115 -0.011209689 0.36686489 4294901760
0.0036957115 -0.011689315 0.36672363 4294901760
0.0036957115 -0.012168946 0.36658233 4294901760
0.0036957115 -0.012648571 0.36644107 4294901760
0.0036957115 -0.013128199 0.36629981 4294901760
0.0036957115 -0.013607824 0.36615852 4294901760
0.0036957115 -0.01408745 0.36601725 4294901760
0.0036957115 -0.014567077 0.36587599 4294901760
0.0036957115 -0.015046706 0.3657347 4294901760
0.0036957115 -0.015526334 0.36559343 4294901760
0.0036957115 -0.016005959 0.36545217 4294901760
0.0036957115 -0.016485585 0.36531088 4294901760
0.0036957115 -0.016965212 0.36516961 4294901760
0.0036957115 -0.017444838 0.36502835 4294901760
0.0036957115 -0.017924469 0.36488706 4294901760
0.0036957115 -0.018404096 0.3647458 4294901760
0.0036957115 -0.01888372 0.36460453 4294901760
0.0036957115 -0.019363347 0.36446324 4294901760
0.0036957115 -0.019842975 0.36432198 4294901760
0.0036957115 -0.020322599 0.36418071 4294901760
0.0036957115 -0.02080223 0.36403942 4294901760
0.0036957115 -0.021281857 0.36389816 4294901760
0.0036957115 -0.021761484 0.3637569 4294901760
0.0036957115 -0.022241108 0.3636156 4294901760
0.0036957115 -0.022720736 0.36347434 4294901760
0.0036957115 -0.023200363 0.36333308 4294901760
0.0036957115 -0.023679987 0.36319178 4294901760
0.0036957115 -0.024159618 0.36305052 4294901760
0.0036957115 -0.024639245 0.36290926 4294901760
0.0036957115 -0.025118873 0.36276796 4294901760
0.0036957115 -0.025598496 0.3626267 4294901760
0.0036957115 -0.026078124 0.36248544 4294901760
0.0036957115 -0.026557751 0.36234415 4294901760
0.0036957115 -0.027037378 0.36220288 4294901760
0.0036957115 -0.027517006 0.36206162 4294901760
0.0036957115 -0.027996633 0.36192033 4294901760
0.0036957115 -0.028476257 0.36177906 4294901760
0.0036957115 -0.028955884 0.3616378 4294901760
0.0036957115 -0.029435512 0.36149651 4294901760
0.0036957115 -0.029915143 0.36135525 4294901760
0.0036957115 -0.030394766 0.36121398 4294901760
0.0036957115 -0.030874394 0.36107269 4294901760
0.0036957115 -0.031354021 0.36093143 4294901760
0.0036957115 -0.031833645 0.36079016 4294901760
0.0036957115 -0.032313272 0.36064887 4294901760
0.0036957115 -0.032792903 0.36050761 4294901760
0.0036957115 -0.033272531 0.36036634 4294901760
0.0036957115 -0.033752155 0.36022505 4294901760
0.0036957115 -0.034231782 0.36008379 4294901760
0.0036957115 0.01373091 0.37421107 4278255360
0.0039946847 0.013617675 0.37459552 4278255360
0.0042936583 0.013504439 0.37497994 4278255360
0.0045926315 0.013391204 0.37536439 4278255360
0.0048916051 0.013277968 0.37574881 4278255360
0.0051905783 0.013164734 0.37613326 4278255360
0.0054895515 0.013051499 0.37651771 4278255360
0.0057885251 0.012938263 0.37690213 4278255360
0.0060874983 0.012825028 0.37728658 4278255360
0.0063864719 0.012711792 0.377671 4278255360
0.0066854451 0.012598557 0.37805545 4278255360
0.0069844183 0.012485322 0.3784399 4278255360
0.0072833914 0.012372087 0.37882432 4278255360
0.0075823651 0.012258852 0.37920877 4278255360
0.0078813387 0.012145616 0.37959322 4278255360
0.0081803119 0.012032381 0.37997764 4278255360
0.0084792851 0.011919145 0.38036209 4278255360
0.0087782592 0.011805911 0.38074651 4278255360
0.0090772323 0.011692675 0.38113096 4278255360
0.0093762055 0.01157944 0.38151541 4278255360
0.0096751787 0.011466205 0.38189983 4278255360
0.0099741518 0.011352969 0.38228428 4278255360
0.010273125 0.011239734 0.3826687 4278255360
0.010572098 0.011126499 0.38305315 4278255360
0.010871071 0.011013264 0.3834376 4278255360
0.011170045 0.010900028 0.38382202 4278255360
0.011469019 0.010786793 0.38420647 4278255360
0.011767993 0.010673558 0.38459089 4278255360
0.012066966 0.010560323 0.38497534 4278255360
0.012365939 0.010447088 0.38535979 4278255360
0.012664912 0.010333852 0.38574421 4278255360
0.012963885 0.010220617 0.38612866 4278255360
0.013262859 0.010107382 0.38651311 4278255360
0.013561833 0.0099941464 0.38689753 4278255360
0.013860806 0.0098809116 0.38728198 4278255360
0.014159779 0.0097676758 0.3876664 4278255360
0.014458753 0.00965444 0.38805085 4278255360
0.014757726 0.0095412061 0.3884353 4278255360
0.015056699 0.0094279703 0.38881972 4278255360
0.015355672 0.0093147354 0.38920417 4278255360
0.015654646 0.0092014996 0.38958859 4278255360
0.015953619 0.0090882648 0.38997304 4278255360
0.016252592 0.008975029 0.39035749 4278255360
0.016551565 0.0088617941 0.39074191 4278255360
0.016850539 0.0087485593 0.39112636 4278255360
0.017149512 0.0086353235 0.39151078 4278255360
0.017448485 0.0085220877 0.39189523 4278255360
0.017747458 0.0084088538 0.39227968 4278255360
0.018046431 0.008295618 0.3926641 4278255360
0.018345406 0.0081823822 0.39304855 4278255360
0.018644379 0.0080691474 0.39343297 4278255360
0.018943353 0.0079559125 0.39381742 4278255360
0.019242326 0.0078426767 0.39420187 4278255360
0.019541299 0.0077294419 0.39458629 4278255360
0.019840274 0.0076162061 0.39497074 4278255360
0.020139247 0.0075029712 0.39535519 4278255360
0.02043822 0.0073897359 0.39573961 4278255360
0.020737194 0.0072765006 0.39612406 4278255360
0.021036167 0.0071632657 0.39650849 4278255360
0.021335138 0.0070500304 0.39689294 4278255360
0.021634113 0.0069367946 0.39727738 4278255360
0.021933086 0.0068235593 0.39766181 4278255360
0.022232059 0.0067103244 0.39804626 4278255360
0.022531033 0.0065970891 0.39843068 4278255360
0.022830006 0.0064838543 0.39881513 4278255360
0.023128979 0.0063706189 0.39919958 4278255360
0.023427954 0.0062573832 0.399584 4278255360
0.023726927 0.0061441478 0.39996845 4278255360
0.0240259 0.006030913 0.4003529 4278255360
0.024324873 0.0059176777 0.40073732 4278255360
0.024623847 0.0058044428 0.40112177 4278255360
0.02492282 0.005691207 0.40150619 4278255360
0.025221795 0.0055779712 0.40189064 4278255360
0.025520768 0.0054647364 0.40227509 4278255360
0.025819741 0.0053515015 0.40265951 4278255360
0.026118714 0.0052382667 0.40304396 4278255360
0.026417686 0.0051250309 0.40342838 4278255360
0.026716659 0.005011796 0.40381283 4278255360
0.027015632 0.0048985612 0.40419728 4278255360
0.027314607 0.0047853254 0.4045817 4278255360
0.02761358 0.0046720896 0.40496615 4278255360
0.027912553 0.0045588547 0.40535057 4278255360
0.028211527 0.0044456199 0.40573502 4278255360
0.0285105 0.0043323841 0.40611947 4278255360
0.028809473 0.0042191492 0.40650389 4278255360
0.029108448 0.0041059135 0.40688834 4278255360
0.029407421 0.0039926786 0.40727276 4278255360
0.029706394 0.0038794428 0.40765721 4278255360
0.030005367 0.003766208 0.40804166 4278255360
0.030304341 0.0036529731 0.40842608 4278255360
0.030603314 0.0035397373 0.40881053 4278255360
0.030902289 0.0034265015 0.40919495 4278255360
0.03120126 0.0033132667 0.4095794 4278255360
0.031500235 0.0032000318 0.40996385 4278255360
0.031799205 0.003086797 0.41034827 4278255360
0.032098182 0.0029735612 0.41073272 4278255360
0.032397151 0.0028603263 0.41111714 4278255360
0.032696128 0.0027470905 0.41150159 4278255360
0.032995101 0.0026338557 0.41188604 4278255360
0.033294074 0.0025206199 0.41227046 4278255360
0.033593047 0.002407385 0.41265491 4278255360
0.0036957115 0.01373091 0.37421107 4278190335
0.0032949436 0.013646436 0.37449786 4278190335
0.0028941757 0.013561962 0.37478465 4278190335
0.0024934076 0.013477488 0.37507144 4278190335
0.0020926397 0.013393016 0.37535822 4278190335
0.0016918716 0.013308542 0.37564504 4278190335
0.0012911039 0.013224068 0.37593183 4278190335
0.00089033577 0.013139594 0.37621862 4278190335
0.00048956787 0.013055121 0.3765054 4278190335
8.8799745e-05 0.012970647 0.37679219 4278190335
-0.00031196838 0.012886174 0.37707898 4278190335
-0.00071273604 0.0128017 0.37736577 4278190335
-0.0011135037 0.012717227 0.37765256 4278190335
-0.0015142718 0.012632753 0.37793937 4278190335
-0.00191504 0.012548279 0.37822616 4278190335
-0.0023158081 0.012463805 0.37851295 4278190335
-0.0027165757 0.012379332 0.37879974 4278190335
-0.0031173439 0.012294859 0.37908652 4278190335
-0.003518112 0.012210385 0.37937331 4278190335
-0.0039188797 0.012125911 0.3796601 4278190335
-0.0043196483 0.012041437 0.37994689 4278190335
-0.004720415 0.011956964 0.38023371 4278190335
-0.0051211836 0.01187249 0.38052049 4278190335
-0.0055219522 0.011788016 0.38080728 4278190335
-0.0059227189 0.011703543 0.38109407 4278190335
-0.0063234875 0.01161907 0.38138086 4278190335
-0.0067242552 0.011534596 0.38166764 4278190335
-0.0071250238 0.011450122 0.38195443 4278190335
-0.0075257914 0.011365648 0.38224122 4278190335
-0.0079265591 0.011281176 0.38252801 4278190335
-0.0083273277 0.011196701 0.38281482 4278190335
-0.0087280953 0.011112228 0.38310161 4278190335
-0.009128863 0.011027754 0.3833884 4278190335
-0.0095296316 0.010943281 0.38367519 4278190335
-0.0099303992 0.010858807 0.38396198 4278190335
-0.010331167 0.010774333 0.38424876 4278190335
-0.010731936 0.010689859 0.38453555 4278190335
-0.011132703 0.010605386 0.38482234 4278190335
-0.011533471 0.010520913 0.38510916 4278190335
-0.011934238 0.010436439 0.38539594 4278190335
-0.012335008 0.010351965 0.38568273 4278190335
-0.012735775 0.010267491 0.38596952 4278190335
-0.013136541 0.010183018 0.38625631 4278190335
-0.013537312 0.010098545 0.3865431 4278190335
-0.013938079 0.01001407 0.38682988 4278190335
-0.014338845 0.0099295974 0.38711667 4278190335
-0.014739616 0.0098451236 0.38740349 4278190335
-0.015140383 0.0097606499 0.38769028 4278190335
-0.015541149 0.0096761771 0.38797706 4278190335
-0.01594192 0.0095917024 0.38826385 4278190335
-0.016342686 0.0095072296 0.38855064 4278190335
-0.016743453 0.0094227549 0.38883743 4278190335
-0.017144222 0.009338282 0.38912421 4278190335
-0.017544989 0.0092538083 0.389411 4278190335
-0.017945759 0.0091693345 0.38969779 4278190335
-0.018346528 0.0090848608 0.38998461 4278190335
-0.018747294 0.009000387 0.3902714 4278190335
-0.019148061 0.0089159142 0.39055818 4278190335
-0.01954883 0.0088314405 0.39084497 4278190335
-0.019949596 0.0087469667 0.39113176 4278190335
-0.020350367 0.008662493 0.39141855 4278190335
-0.020751135 0.0085780192 0.39170533 4278190335
-0.021151902 0.0084935464 0.39199212 4278190335
-0.021552669 0.0084090717 0.39227894 4278190335
-0.021953437 0.0083245989 0.39256573 4278190335
-0.022354204 0.0082401251 0.39285251 4278190335
-0.022754975 0.0081556514 0.3931393 4278190335
-0.023155743 0.0080711776 0.39342609 4278190335
-0.02355651 0.0079867039 0.39371288 4278190335
-0.023957277 0.0079022311 0.39399967 4278190335
-0.024358045 0.0078177564 0.39428645 4278190335
-0.024758812 0.0077332836 0.39457327 4278190335
-0.025159582 0.0076488093 0.39486006 4278190335
-0.025560351 0.0075643361 0.39514685 4278190335
-0.025961118 0.0074798623 0.39543363 4278190335
-0.026361886 0.0073953886 0.39572042 4278190335
-0.026762653 0.0073109153 0.39600721 4278190335
-0.02716342 0.0072264415 0.396294 4278190335
-0.027564187 0.0071419682 0.39658079 4278190335
-0.027964957 0.007057494 0.39686757 4278190335
-0.028365728 0.0069730207 0.39715439 4278190335
-0.028766494 0.006888547 0.39744118 4278190335
-0.029167261 0.0068040737 0.39772797 4278190335
-0.029568028 0.0067195999 0.39801475 4278190335
-0.029968794 0.0066351267 0.39830154 4278190335
-0.030369565 0.0065506524 0.39858833 4278190335
-0.030770335 0.0064661792 0.39887512 4278190335
-0.031171102 0.0063817054 0.39916191 4278190335
-0.031571869 0.0062972317 0.39944872 4278190335
-0.031972636 0.0062127584 0.39973551 4278190335
-0.032373402 0.0061282846 0.4000223 4278190335
-0.032774173 0.0060438109 0.40030909 4278190335
-0.033174943 0.0059593371 0.40059587 4278190335
-0.03357571 0.0058748638 0.40088266 4278190335
-0.033976477 0.0057903901 0.40116945 4278190335
-0.034377243 0.0057059163 0.40145624 4278190335
-0.03477801 0.0056214435 0.40174305 4278190335
-0.035178781 0.0055369688 0.40202984 4278190335
-0.035579551 0.005452496 0.40231663 4278190335
-0.035980318 0.0053680222 0.40260342 4278190335
-0.036381084 0.0052835485 0.40289021 4278190335
0.0036957115 0.01373091 0.37421107 4294967295
0.0044972473 0.013899857 0.3736375 4294967295
0.0052987831 0.014068804 0.37306392 4294967295
0.0061003193 0.014237751 0.37249032 4294967295
0.0069018551 0.014406699 0.37191674 4294967295
0.0077033914 0.014575645 0.37134317 4294967295
0.0085049272 0.014744593 0.37076959 4294967295
0.0093064625 0.01491354 0.37019598 4294967295
0.010107999 0.015082488 0.36962241 4294967295
0.010909535 0.015251434 0.36904883 4294967295
0.011711071 0.015420382 0.36847526 4294967295
0.012512607 0.015589329 0.36790165 4294967295
0.013314142 0.015758276 0.36732808 4294967295
0.014115678 0.015927223 0.3667545 4294967295
0.014917214 0.016096171 0.36618093 4294967295
0.015718751 0.016265118 0.36560732 4294967295
0.016520286 0.016434066 0.36503375 4294967295
0.017321821 0.016603012 0.36446017 4294967295
0.018123358 0.016771959 0.36388659 4294967295
0.018924894 0.016940907 0.36331299 4294967295
0.019726431 0.017109854 0.36273941 4294967295
0.020527964 0.017278802 0.36216584 4294967295
0.021329502 0.017447749 0.36159226 4294967295
0.022131039 0.017616697 0.36101866 4294967295
0.022932572 0.017785642 0.36044508 4294967295
0.023734109 0.01795459 0.35987151 4294967295
0.024535645 0.018123537 0.35929793 4294967295
0.025337182 0.018292485 0.35872436 4294967295
0.026138717 0.018461432 0.35815075 4294967295
0.026940253 0.018630378 0.35757717 4294967295
0.02774179 0.018799327 0.3570036 4294967295
0.028543325 0.018968273 0.35643002 4294967295
0.02934486 0.01913722 0.35585642 4294967295
0.030146398 0.019306168 0.35528284 4294967295
0.030947933 0.019475115 0.35470927 4294967295
0.031749468 0.019644063 0.35413569 4294967295
0.032551005 0.01981301 0.35356209 4294967295
0.033352539 0.019981958 0.35298851 4294967295
