# .PCD v0.7 - Point Cloud Data file format
VERSION 0.7
FIELDS x y z rgb
SIZE 4 4 4 4
TYPE F F F U
COUNT 1 1 1 1
WIDTH 1051
HEIGHT 1
VIEWPOINT 0 0 0 1 0 0 0
POINTS 1051
DATA ascii
0.037516706 0.045726553 0.32900003 4280816650
0.038468018 0.045587562 0.32800001 4282326291
0.039533362 0.045587562 0.32800001 4284554515
0.040598705 0.045587562 0.32800001 4286660659
0.041537024 0.045448579 0.32700002 4285606174
0.042599123 0.045448579 0.32700002 4285671199
0.043661222 0.045448579 0.32700002 4285736729
0.044723313 0.045448579 0.32700002 4285605143
0.045785412 0.045448579 0.32700002 4285538580
0.046847511 0.045448579 0.32700002 4285603603
0.047909606 0.045448579 0.32700002 4285341203
0.048971701 0.045448579 0.32700002 4285013267
0.010384156 0.04992469 0.35100001 4286880910
0.011524205 0.04992469 0.35100001 4287998873
0.012700334 0.050066926 0.35200003 4284165667
0.013804302 0.04992469 0.35100001 4284686619
0.01494435 0.04992469 0.35100001 4284555800
0.016084399 0.04992469 0.35100001 4284161042
0.017224448 0.04992469 0.35100001 4283309844
0.018312177 0.049782455 0.35000002 4288978062
0.019448977 0.049782455 0.35000002 4287143564
0.02052696 0.049640216 0.34900001 4287209357
0.021598449 0.049497984 0.34800002 4287209359
0.022598127 0.049213514 0.34600002 4281681980
0.023653379 0.049071278 0.34500003 4280626214
0.024702128 0.048929039 0.34400001 4282008119
0.025744384 0.048786808 0.34300002 4279507213
0.026780145 0.048644569 0.34200001 4282995012
0.027809409 0.048502333 0.34100002 4283324742
0.028832177 0.048360098 0.34 4284443221
0.029936496 0.048360098 0.34 4280955681
0.03094952 0.048217863 0.33900002 4282798398
0.031956051 0.048075628 0.33800003 4280363292
0.033053875 0.048075628 0.33800003 4279309582
0.034050658 0.047933392 0.33700001 4279243791
0.035040949 0.047791157 0.33600003 4279243791
0.036024738 0.047648918 0.33500001 4281545769
0.036780465 0.047222216 0.33200002 4280687892
0.037516706 0.04679551 0.32900003 4280816650
0.038468018 0.046653271 0.32800001 4282718739
0.039533362 0.046653271 0.32800001 4285803037
0.040474929 0.046511035 0.32700002 4286197280
0.041537024 0.046511035 0.32700002 4285474072
0.042599123 0.046511035 0.32700002 4287250999
0.043661222 0.046511035 0.32700002 4286195485
0.044723313 0.046511035 0.32700002 4285669141
0.045785412 0.046511035 0.32700002 4285471762
0.046847511 0.046511035 0.32700002 4285471762
0.047909606 0.046511035 0.32700002 4285144340
0.048971701 0.046511035 0.32700002 4284882453
0.010384156 0.051065121 0.35100001 4287144082
0.011524205 0.051065121 0.35100001 4287078543
0.012664253 0.051065121 0.35100001 4285352253
0.013804302 0.051065121 0.35100001 4284951074
0.01494435 0.051065121 0.35100001 4284555800
0.016084399 0.051065121 0.35100001 4284490007
0.017224448 0.051065121 0.35100001 4284359450
0.018312177 0.050919637 0.35000002 4287195741
0.019393407 0.05077415 0.34900001 4287340428
0.02052696 0.05077415 0.34900001 4287340430
0.021598449 0.05062867 0.34800002 4287209357
0.022663439 0.050483182 0.347 4287932828
0.023653379 0.050192215 0.34500003 4279574039
0.024702128 0.050046727 0.34400001 4279837979
0.025744384 0.049901247 0.34300002 4280363553
0.026780145 0.04975576 0.34200001 4279310865
0.027809409 0.049610276 0.34100002 4281940784
0.028916979 0.049610276 0.34100002 4284441940
0.029936496 0.049464788 0.34 4283653453
0.03094952 0.049319305 0.33900002 4279969045
0.032050595 0.049319305 0.33900002 4279309582
0.033053875 0.049173824 0.33800003 4279243019
0.034050658 0.049028337 0.33700001 4279243021
0.035145234 0.049028337 0.33700001 4279835158
0.036132276 0.048882853 0.33600003 4281281312
0.036891248 0.048446395 0.333 4280753685
0.037516706 0.047864459 0.32900003 4281211408
0.038468018 0.047718972 0.32800001 4283836448
0.039412834 0.047573492 0.32700002 4286262303
0.040474929 0.047573492 0.32700002 4286524702
0.041409999 0.047428004 0.32600001 4287909438
0.04246885 0.047428004 0.32600001 4286197793
0.043527696 0.047428004 0.32600001 4286063127
0.044586543 0.047428004 0.32600001 4285799442
0.045645393 0.047428004 0.32600001 4285537812
0.046704244 0.047428004 0.32600001 4285209617
0.047763094 0.047428004 0.32600001 4284684302
0.048821937 0.047428004 0.32600001 4284619283
0.0092441076 0.052205559 0.35100001 4287144082
0.010384156 0.052205559 0.35100001 4287144082
0.011524205 0.052205559 0.35100001 4287078289
0.012664253 0.052205559 0.35100001 4286144599
0.013804302 0.052205559 0.35100001 4284688929
0.01494435 0.052205559 0.35100001 4285015066
0.016084399 0.052205559 0.35100001 4284883480
0.017175376 0.052056827 0.35000002 4284883480
0.018312177 0.052056827 0.35000002 4283767829
0.019393407 0.051908091 0.34900001 4287536527
0.02052696 0.051908091 0.34900001 4287340943
0.021598449 0.051759358 0.34800002 4287340943
0.022663439 0.051610623 0.347 4287406736
0.023653379 0.051313158 0.34500003 4283787356
0.024702128 0.051164422 0.34400001 4281088559
0.025744384 0.05101569 0.34300002 4279246096
0.026858451 0.05101569 0.34300002 4281943609
0.02789096 0.050866954 0.34200001 4279112203
0.028916979 0.050718222 0.34100002 4279506193
0.029936496 0.050569486 0.34 4279309584
0.031040816 0.050569486 0.34 4282666049
0.032050595 0.050420754 0.33900002 4283258697
0.033053875 0.050272021 0.33800003 4279375629
0.034151699 0.050272021 0.33800003 4279440141
0.035145234 0.050123286 0.33700001 4281083937
0.036132276 0.049974553 0.33600003 4281082650
0.037002034 0.049677085 0.33400002 4281083935
0.037402671 0.048784681 0.32800001 4281277716
0.038350739 0.048635948 0.32700002 4284165667
0.039412834 0.048635948 0.32700002 4286327580
0.040351149 0.048487213 0.32600001 4285998356
0.041409999 0.048487213 0.32600001 4291067752
0.04246885 0.048487213 0.32600001 4285472271
0.043527696 0.048487213 0.32600001 4285734162
0.044586543 0.048487213 0.32600001 4285536783
0.045645393 0.048487213 0.32600001 4284749836
0.046704244 0.048487213 0.32600001 4284618250
0.047763094 0.048487213 0.32600001 4284224782
0.048821937 0.048487213 0.32600001 4284094995
0.049880788 0.048487213 0.32600001 4283767827
0.011524205 0.053345989 0.35100001 4287208592
0.012664253 0.053345989 0.35100001 4288512634
0.013804302 0.053345989 0.35100001 4285215275
0.01494435 0.053345989 0.35100001 4285277470
0.016038576 0.053194009 0.35000002 4285145625
0.017175376 0.053194009 0.35000002 4285144855
0.018312177 0.053194009 0.35000002 4285145627
0.019393407 0.053042024 0.34900001 4288387469
0.020468144 0.052890044 0.34800002 4287274637
0.021598449 0.052890044 0.34800002 4287340943
0.022663439 0.052738059 0.347 4287209357
0.023721937 0.052586075 0.34600002 4288130977
0.024773939 0.052434094 0.34500003 4281748286
0.025819439 0.05228211 0.34400001 4280166944
0.026858451 0.052130129 0.34300002 4282470464
0.02789096 0.051978145 0.34200001 4278718982
0.028916979 0.051826164 0.34100002 4284113754
0.030024547 0.051826164 0.34100002 4283456594
0.031040816 0.051674176 0.34 4283193422
0.032050595 0.051522195 0.33900002 4280890919
0.033151668 0.051522195 0.33900002 4279112457
0.034151699 0.051370215 0.33800003 4280556821
0.035249524 0.051370215 0.33800003 4281476894
0.03623981 0.05121823 0.33700001 4282991930
0.03733439 0.05121823 0.33700001 4287799699
0.03728864 0.049698401 0.32700002 4288847507
0.038350739 0.049698401 0.32700002 4283770909
0.039292302 0.049546417 0.32600001 4286327326
0.040351149 0.049546417 0.32600001 4286327578
0.041409999 0.049546417 0.32600001 4285866772
0.04246885 0.049546417 0.32600001 4285669650
0.043527696 0.049546417 0.32600001 4285539352
0.044586543 0.049546417 0.32600001 4285210387
0.045645393 0.049546417 0.32600001 4284421900
0.046704244 0.049546417 0.32600001 4283962378
0.047763094 0.049546417 0.32600001 4283569421
0.048821937 0.049546417 0.32600001 4283308046
0.010384156 0.054486427 0.35100001 4287209105
0.011524205 0.054486427 0.35100001 4286612087
0.012664253 0.054486427 0.35100001 4285936940
0.013804302 0.054486427 0.35100001 4286131750
0.014901774 0.054331198 0.35000002 4285999651
0.016038576 0.054331198 0.35000002 4285604891
0.017175376 0.054331198 0.35000002 4285473818
0.018259855 0.054175962 0.34900001 4285539613
0.019393407 0.054175962 0.34900001 4283441178
0.020468144 0.054020733 0.34800002 4288651665
0.021598449 0.054020733 0.34800002 4287340943
0.022663439 0.0538655 0.347 4287340945
0.023721937 0.053710267 0.34600002 4287210129
0.024773939 0.053555038 0.34500003 4287539607
0.025819439 0.053399805 0.34400001 4284247137
0.026858451 0.053244572 0.34300002 4279640602
0.02789096 0.053089339 0.34200001 4280559651
0.029001778 0.053089339 0.34200001 4280691237
0.030024547 0.05293411 0.34100002 4282073142
0.031040816 0.052778874 0.34 4278783492
0.032145139 0.052778874 0.34 4280756253
0.033151668 0.052623644 0.33900002 4280162833
0.034151699 0.052468415 0.33800003 4281276689
0.035249524 0.052468415 0.33800003 4282591779
0.03623981 0.052313179 0.33700001 4285559399
0.037445176 0.052468415 0.33800003 4287339662
0.03728864 0.050760861 0.32700002 4287000930
0.038350739 0.050760861 0.32700002 4284819740
0.039292302 0.050605629 0.32600001 4285736731
0.040351149 0.050605629 0.32600001 4285538580
0.041409999 0.050605629 0.32600001 4285472017
0.042338576 0.050450396 0.32500002 4285472787
0.043394178 0.050450396 0.32500002 4284619279
0.044449776 0.050450396 0.32500002 4284422157
0.045505378 0.050450396 0.32500002 4283962378
0.04656098 0.050450396 0.32500002 4283437317
0.047616582 0.050450396 0.32500002 4282913290
0.048821937 0.050605629 0.32600001 4282782733
0.049727783 0.050450396 0.32500002 4282455565
0.0092441076 0.055626858 0.35100001 4287274898
0.010384156 0.055626858 0.35100001 4288126096
0.011524205 0.055626858 0.35100001 4284496944
0.012664253 0.055626858 0.35100001 4286459430
0.013764974 0.05546838 0.35000002 4288238925
0.014901774 0.05546838 0.35000002 4287447608
0.016038576 0.05546838 0.35000002 4285670684
0.017175376 0.05546838 0.35000002 4285670684
0.018259855 0.055309895 0.34900001 4285604891
0.019393407 0.055309895 0.34900001 4285803814
0.020468144 0.055151418 0.34800002 4287257688
0.021536384 0.054992933 0.347 4287274637
0.022663439 0.054992933 0.347 4287340945
0.023721937 0.054834455 0.34600002 4287340945
0.024773939 0.054675978 0.34500003 4287275922
0.025819439 0.054517493 0.34400001 4287275922
0.026858451 0.054359011 0.34300002 4287998362
0.027972514 0.054359011 0.34300002 4284444004
0.029001778 0.05420053 0.34200001 4279769363
0.030024547 0.054042049 0.34100002 4280488718
0.031040816 0.053883567 0.34 4281079572
0.032145139 0.053883567 0.34 4282391832
0.033151668 0.053725086 0.33900002 4283312159
0.034151699 0.053566609 0.33800003 4283311389
0.035249524 0.053566609 0.33800003 4283049502
0.03623981 0.053408124 0.33700001 4287599754
0.037445176 0.053566609 0.33800003 4287865492
0.038542997 0.053566609 0.33800003 4284494116
0.038350739 0.051823314 0.32700002 4285079832
0.039292302 0.051664833 0.32600001 4285474072
0.040351149 0.051664833 0.32600001 4285079314
0.041409999 0.051664833 0.32600001 4284816142
0.04246885 0.051664833 0.32600001 4284619533
0.043394178 0.051506352 0.32500002 4284028173
0.044449776 0.051506352 0.32500002 4283831564
0.045505378 0.051506352 0.32500002 4283503628
0.04656098 0.051506352 0.32500002 4282978311
0.047616582 0.051506352 0.32500002 4282585867
0.048672181 0.051506352 0.32500002 4282389774
0.049727783 0.051506352 0.32500002 4282391057
0.0092177708 0.05660557 0.35000002 4287406484
0.010354572 0.05660557 0.35000002 4286872686
0.011491373 0.05660557 0.35000002 4285348912
0.012628173 0.05660557 0.35000002 4289026894
0.013764974 0.05660557 0.35000002 4286922291
0.014901774 0.05660557 0.35000002 4285932316
0.015992749 0.056443837 0.34900001 4286063902
0.017126303 0.056443837 0.34900001 4285998879
0.018259855 0.056443837 0.34900001 4285735707
0.01933784 0.056282107 0.34800002 4285999651
0.020468144 0.056282107 0.34800002 4285474592
0.021536384 0.056120373 0.347 4288517513
0.022663439 0.056120373 0.347 4287339658
0.023721937 0.055958647 0.34600002 4287340945
0.024773939 0.055796918 0.34500003 4287538324
0.025819439 0.055635184 0.34400001 4287275922
0.026858451 0.055473458 0.34300002 4287275922
0.027972514 0.055473458 0.34300002 4287603604
0.029001778 0.055311725 0.34200001 4282137134
0.030024547 0.055149995 0.34100002 4284556064
0.031040816 0.054988265 0.34 4284951076
0.032145139 0.054988265 0.34 4284753179
0.033151668 0.054826535 0.33900002 4285147424
0.034151699 0.054664806 0.33800003 4284754976
0.035145234 0.054503076 0.33700001 4283441942
0.03623981 0.054503076 0.33700001 4288388496
0.03733439 0.054503076 0.33700001 4286875254
0.037402671 0.053047501 0.32800001 4284555285
0.038350739 0.052885775 0.32700002 4284949273
0.039412834 0.052885775 0.32700002 4285015836
0.040351149 0.052724041 0.32600001 4284687384
0.041409999 0.052724041 0.32600001 4284359189
0.04246885 0.052724041 0.32600001 4284096019
0.043527696 0.052724041 0.32600001 4283701520
0.044586543 0.052724041 0.32600001 4283569934
0.045645393 0.052724041 0.32600001 4283110669
0.046704244 0.052724041 0.32600001 4282716940
0.047763094 0.052724041 0.32600001 4282324494
0.048821937 0.052724041 0.32600001 4282391057
0.049727783 0.052562311 0.32500002 4282260498
0.0092177708 0.057742752 0.35000002 4287472531
0.010354572 0.057742752 0.35000002 4286279006
0.011491373 0.057742752 0.35000002 4284952101
0.012628173 0.057742752 0.35000002 4285670686
0.013764974 0.057742752 0.35000002 4285406744
0.014859198 0.05757777 0.34900001 4285998881
0.015992749 0.05757777 0.34900001 4285998879
0.017126303 0.05757777 0.34900001 4286262823
0.018207535 0.057412792 0.34800002 4285999651
0.01933784 0.057412792 0.34800002 4285867293
0.020409327 0.05724781 0.347 4286262305
0.021536384 0.05724781 0.347 4285474849
0.022598127 0.057082832 0.34600002 4289957763
0.023653379 0.056917857 0.34500003 4287274635
0.024773939 0.056917857 0.34500003 4287340943
0.025819439 0.056752875 0.34400001 4287472531
0.026858451 0.056587897 0.34300002 4287472531
0.02789096 0.056422915 0.34200001 4287406738
0.029001778 0.056422915 0.34200001 4282859826
0.030024547 0.056257937 0.34100002 4285145884
0.031040816 0.056092955 0.34 4285408799
0.032050595 0.055927977 0.33900002 4285343004
0.033053875 0.055763002 0.33800003 4285474588
0.034151699 0.055763002 0.33800003 4285082142
0.035145234 0.055598021 0.33700001 4283243536
0.036132276 0.055433042 0.33600003 4288649097
0.036669683 0.054608148 0.33100003 4283772962
0.037516706 0.054278187 0.32900003 4284556316
0.038468018 0.054113206 0.32800001 4284294943
0.039533362 0.054113206 0.32800001 4283440917
0.040474929 0.053948227 0.32700002 4284164640
0.041537024 0.053948227 0.32700002 4283703319
0.04246885 0.053783245 0.32600001 4283638296
0.043527696 0.053783245 0.32600001 4283243538
0.044586543 0.053783245 0.32600001 4283177745
0.045645393 0.053783245 0.32600001 4282915086
0.046704244 0.053783245 0.32600001 4282718221
0.047763094 0.053783245 0.32600001 4282521871
0.048821937 0.053783245 0.32600001 4282654227
0.049880788 0.053783245 0.32600001 4282654740
0.0092177708 0.058879938 0.35000002 4287209359
0.010354572 0.058879938 0.35000002 4284829509
0.011491373 0.058879938 0.35000002 4285610033
0.012592091 0.058711708 0.34900001 4285935396
0.013725644 0.058711708 0.34900001 4285014039
0.014859198 0.058711708 0.34900001 4285079062
0.015946927 0.058543481 0.34800002 4285605408
0.017077232 0.058543481 0.34800002 4287052600
0.018207535 0.058543481 0.34800002 4286002479
0.01928227 0.058375251 0.347 4286131489
0.020409327 0.058375251 0.347 4286393121
0.02147432 0.058207024 0.34600002 4286723626
0.022598127 0.058207024 0.34600002 4285211418
0.023653379 0.058038797 0.34500003 4287065953
0.024702128 0.057870567 0.34400001 4287995532
0.025744384 0.05770234 0.34300002 4287472016
0.026858451 0.05770234 0.34300002 4287340430
0.02789096 0.05753411 0.34200001 4287471244
0.028916979 0.057365883 0.34100002 4283977534
0.029936496 0.057197653 0.34 4285343004
0.03094952 0.057029426 0.33900002 4285539613
0.032050595 0.057029426 0.33900002 4285539098
0.033053875 0.056861199 0.33800003 4286130465
0.034050658 0.056692969 0.33700001 4286200110
0.035040949 0.056524742 0.33600003 4283438864
0.036024738 0.056356512 0.33500001 4284755494
0.036780465 0.055851828 0.33200002 4284820255
0.037630737 0.055515371 0.33000001 4283835934
0.038585298 0.055347145 0.32900003 4284564286
0.039533362 0.055178914 0.32800001 4288321678
0.040598705 0.055178914 0.32800001 4282987821
0.041537024 0.055010688 0.32700002 4283705634
0.042599123 0.055010688 0.32700002 4283508255
0.043661222 0.055010688 0.32700002 4283244313
0.044723313 0.055010688 0.32700002 4282981141
0.045645393 0.054842453 0.32600001 4282850325
0.046704244 0.054842453 0.32600001 4282850838
0.047763094 0.054842453 0.32600001 4282917401
0.048821937 0.054842453 0.32600001 4282983707
0.049880788 0.054842453 0.32600001 4282852635
0.0092177708 0.060017124 0.35000002 4287340945
0.010354572 0.060017124 0.35000002 4286081886
0.01145854 0.059845641 0.34900001 4285217328
0.012592091 0.059845641 0.34900001 4286200110
0.013725644 0.059845641 0.34900001 4284555287
0.014816621 0.059674166 0.34800002 4284358167
0.015946927 0.059674166 0.34800002 4284621339
0.017077232 0.059674166 0.34800002 4285146654
0.018155213 0.059502687 0.347 4288304718
0.01928227 0.059502687 0.347 4287451460
0.020350512 0.059331212 0.34600002 4285802783
0.02147432 0.059331212 0.34600002 4286393121
0.022532815 0.059159737 0.34500003 4287709749
0.023584817 0.058988255 0.34400001 4285802272
0.024702128 0.058988255 0.34400001 4286726202
0.025744384 0.058816779 0.34300002 4288650380
0.026780145 0.058645301 0.34200001 4287931022
0.027809409 0.058473825 0.34100002 4287602057
0.028832177 0.058302343 0.34 4284962374
0.029936496 0.058302343 0.34 4285604893
0.03094952 0.058130868 0.33900002 4286065444
0.031956051 0.057959393 0.33800003 4285867295
0.032956082 0.057787914 0.33700001 4286458914
0.033949621 0.057616439 0.33600003 4286593323
0.034936655 0.057444956 0.33500001 4286067752
0.0359172 0.057273481 0.33400002 4285082914
0.036780465 0.056930527 0.33200002 4284229148
0.037744772 0.056759052 0.33100003 4282461736
0.038702577 0.056587569 0.33000001 4287995795
0.03965389 0.056416094 0.32900003 4287472018
0.040722482 0.056416094 0.32900003 4287997590
0.041664049 0.056244615 0.32800001 4285160786
0.042729393 0.056244615 0.32800001 4282787614
0.04379474 0.056244615 0.32800001 4282917912
0.044723313 0.05607314 0.32700002 4283049498
0.045785412 0.05607314 0.32700002 4282983192
0.046847511 0.05607314 0.32700002 4283180571
0.047909606 0.05607314 0.32700002 4283246879
0.048821937 0.055901662 0.32600001 4283511335
0.0092177708 0.06115431 0.35000002 4287472531
0.010324988 0.060979582 0.34900001 4288522907
0.01145854 0.060979582 0.34900001 4283647032
0.012592091 0.060979582 0.34900001 4284625191
0.013686316 0.060804859 0.34800002 4284296226
0.014816621 0.060804859 0.34800002 4284163870
0.015946927 0.060804859 0.34800002 4283834392
0.017028159 0.060630128 0.347 4283965206
0.018155213 0.060630128 0.347 4284754462
0.019226702 0.060455404 0.34600002 4285279006
0.020350512 0.060455404 0.34600002 4291595388
0.021412257 0.060280677 0.34500003 4286393889
0.022467503 0.06010595 0.34400001 4286787877
0.023516256 0.059931226 0.34300002 4286786850
0.024630321 0.059931226 0.34300002 4286786598
0.025669327 0.059756495 0.34200001 4286921266
0.026701842 0.059581771 0.34100002 4286134832
0.027727855 0.05940704 0.34 4287981661
0.028832177 0.05940704 0.34 4285675564
0.029848449 0.059232317 0.33900002 4286065444
0.030858226 0.059057593 0.33800003 4286327076
0.031861506 0.058882862 0.33700001 4286524453
0.03285829 0.058708139 0.33600003 4286458912
0.033949621 0.058708139 0.33600003 4286197280
0.034936655 0.058533408 0.33500001 4285934623
0.0359172 0.058358684 0.33400002 4284492320
0.036780465 0.05800923 0.33200002 4283444260
0.037744772 0.057834506 0.33100003 4287799445
0.038819861 0.057834506 0.33100003 4287405971
0.039774418 0.057659779 0.33000001 4287405971
0.040846258 0.057659779 0.33000001 4287274639
0.041791074 0.057485051 0.32900003 4288651668
0.04285967 0.057485051 0.32900003 4281670929
0.04379474 0.057310324 0.32800001 4282653711
0.04486008 0.057310324 0.32800001 4283312409
0.045785412 0.057135601 0.32700002 4284235310
0.046847511 0.057135601 0.32700002 4283511846
0.047909606 0.057135601 0.32700002 4282593063
0.048971701 0.057135601 0.32700002 4287531649
0.0092177708 0.062291499 0.35000002 4287537557
0.010324988 0.06211352 0.34900001 4287471764
0.01145854 0.06211352 0.34900001 4286483072
0.012556012 0.061935548 0.34800002 4283906354
0.013686316 0.061935548 0.34800002 4284102702
0.014816621 0.061935548 0.34800002 4284100392
0.015901102 0.061757568 0.347 4283574048
0.017028159 0.061757568 0.347 4283310106
0.018102894 0.061579596 0.34600002 4283441692
0.019226702 0.061579596 0.34600002 4284428071
0.020291695 0.061401621 0.34500003 4285213730
0.02135019 0.061223641 0.34400001 4286788647
0.022402192 0.061045669 0.34300002 4286590498
0.023516256 0.061045669 0.34300002 4286720544
0.024558511 0.06086769 0.34200001 4286654751
0.025594272 0.060689718 0.34100002 4286588960
0.026623536 0.060511738 0.34 4286654753
0.027727855 0.060511738 0.34 4286195485
0.028747378 0.060333766 0.33900002 4287447608
0.029760402 0.06015579 0.33800003 4287251253
0.030766927 0.059977815 0.33700001 4286527530
0.031861506 0.059977815 0.33700001 4287711034
0.03285829 0.059799839 0.33600003 4286657833
0.033848576 0.059621859 0.33500001 4285671967
0.03483237 0.059443887 0.33400002 4285016349
0.0359172 0.059443887 0.33400002 4282725678
0.036891248 0.059265908 0.333 4288258967
0.037858803 0.059087936 0.33200002 4287405971
0.038819861 0.05890996 0.33100003 4287471764
0.03989495 0.05890996 0.33100003 4287340178
0.040846258 0.058731984 0.33000001 4287406223
0.041918095 0.058731984 0.33000001 4285487439
0.042989939 0.058731984 0.33000001 4283046932
0.043928262 0.058554009 0.32900003 4283048215
0.04499685 0.058554009 0.32900003 4283443745
0.045925427 0.058376029 0.32800001 4282459680
0.046990775 0.058376029 0.32800001 4285490271
0.047909606 0.058198057 0.32700002 4287668373
0.048971701 0.058198057 0.32700002 4287208592
0.010324988 0.063247457 0.34900001 4287538070
0.01145854 0.063247457 0.34900001 4287472277
0.012556012 0.063066229 0.34800002 4287929489
0.013686316 0.063066229 0.34800002 4283649090
0.014774044 0.062885001 0.347 4283313704
0.015901102 0.062885001 0.347 4284102450
0.016979085 0.062703781 0.34600002 4283509799
0.018102894 0.062703781 0.34600002 4283115041
0.019171134 0.06252256 0.34500003 4283115557
0.020232879 0.062341332 0.34400001 4283377700
0.02135019 0.062341332 0.34400001 4285083425
0.022402192 0.062160108 0.34300002 4285869603
0.023447696 0.06197888 0.34200001 4286656036
0.024486704 0.06179766 0.34100002 4286984231
0.025519213 0.061616432 0.34 4286852130
0.026623536 0.061616432 0.34 4286852130
0.027646303 0.061435208 0.33900002 4286259993
0.028662577 0.061253987 0.33800003 4286654753
0.029672351 0.061072759 0.33700001 4286853413
0.030766927 0.061072759 0.33700001 4286327326
0.031766962 0.060891535 0.33600003 4286131487
0.032760497 0.060710307 0.33500001 4285606428
0.033848576 0.060710307 0.33500001 4283770909
0.03483237 0.060529083 0.33400002 4285357650
0.0359172 0.060529083 0.33400002 4287537811
0.036891248 0.060347855 0.333 4287340691
0.037972834 0.060347855 0.333 4287471764
0.03893714 0.060166635 0.33200002 4287340178
0.040015474 0.060166635 0.33200002 4287340432
0.040970035 0.05998541 0.33100003 4286085486
0.042045124 0.05998541 0.33100003 4283637013
0.043120213 0.05998541 0.33100003 4284294943
0.04406178 0.059804182 0.33000001 4283706147
0.04499685 0.059622962 0.32900003 4283050532
0.045925427 0.059441734 0.32800001 4287139201
0.046990775 0.059441734 0.32800001 4287602580
0.048056118 0.059441734 0.32800001 4287340180
0.049121458 0.059441734 0.32800001 4287471764
0.01145854 0.064381391 0.34900001 4287538070
0.012556012 0.064196922 0.34800002 4287472277
0.013686316 0.064196922 0.34800002 4287406484
0.014774044 0.064012446 0.347 4287799445
0.015901102 0.064012446 0.347 4285757550
0.016979085 0.063827977 0.34600002 4285162329
0.018050574 0.0636435 0.34500003 4284239684
0.019171134 0.0636435 0.34500003 4283116840
0.020232879 0.063459024 0.34400001 4282983971
0.021288127 0.063274555 0.34300002 4282983194
0.022336878 0.063090079 0.34200001 4285942594
0.023379136 0.062905602 0.34100002 4284952873
0.024414893 0.062721126 0.34 4285542441
0.025519213 0.062721126 0.34 4286392867
0.026545232 0.062536657 0.33900002 4286589473
0.027564751 0.062352184 0.33800003 4287115815
0.028662577 0.062352184 0.33800003 4287050022
0.029672351 0.062167708 0.33700001 4286524707
0.030675631 0.061983235 0.33600003 4285800730
0.031766962 0.061983235 0.33600003 4284948248
0.032760497 0.061798759 0.33500001 4283503882
0.033848576 0.061798759 0.33500001 4287466621
0.03483237 0.061614286 0.33400002 4287339662
0.0359172 0.061614286 0.33400002 4287340432
0.036891248 0.06142981 0.333 4287274639
0.037972834 0.06142981 0.333 4287208846
0.03905442 0.06142981 0.333 4287603604
0.040136002 0.06142981 0.333 4286345830
0.041093811 0.061245337 0.33200002 4282983707
0.042172145 0.061245337 0.33200002 4284098593
0.043250486 0.061245337 0.33200002 4283967520
0.044328824 0.061245337 0.33200002 4282921514
0.045133617 0.060876392 0.33000001 4288191121
0.046205461 0.060876392 0.33000001 4287405455
0.047277302 0.060876392 0.33000001 4287406225
0.048349146 0.060876392 0.33000001 4287537557
0.049420983 0.060876392 0.33000001 4287471764
0.013686316 0.065327607 0.34800002 4287735449
0.014774044 0.065139882 0.347 4287472277
0.015901102 0.065139882 0.347 4287274898
0.016979085 0.064952157 0.34600002 4287406225
0.018050574 0.06476444 0.34500003 4287800983
0.019171134 0.06476444 0.34500003 4287666830
0.020232879 0.064576715 0.34400001 4283385920
0.021288127 0.06438899 0.34300002 4283773487
0.022336878 0.064201266 0.34200001 4283246629
0.023379136 0.064013548 0.34100002 4284432185
0.024414893 0.063825816 0.34 4285355335
0.025444157 0.063638099 0.33900002 4286398774
0.026466928 0.063450381 0.33800003 4286328616
0.027564751 0.063450381 0.33800003 4287050022
0.028577777 0.063262649 0.33700001 4285998358
0.029584303 0.063074932 0.33600003 4291068790
0.030675631 0.063074932 0.33600003 4285868065
0.031672414 0.062887207 0.33500001 4285145627
0.032760497 0.062887207 0.33500001 4283700491
0.033848576 0.062887207 0.33500001 4288449921
0.03483237 0.062699482 0.33400002 4287536010
0.0359172 0.062699482 0.33400002 4287208844
0.037002034 0.062699482 0.33400002 4287274639
0.038086869 0.062699482 0.33400002 4288193942
0.039171703 0.062699482 0.33400002 4283715907
0.040256534 0.062699482 0.33400002 4283245083
0.041217584 0.062511757 0.333 4283902241
0.04229917 0.062511757 0.333 4283771425
0.043380756 0.062511757 0.333 4282787873
0.044462342 0.062511757 0.333 4287996824
0.045954231 0.063074932 0.33600003 4287405455
0.047045562 0.063074932 0.33600003 4287537041
0.04813689 0.063074932 0.33600003 4287602834
0.049228221 0.063074932 0.33600003 4287406225
0.050319545 0.063074932 0.33600003 4287406225
0.018050574 0.06588538 0.34500003 4287406484
0.019115565 0.065694407 0.34400001 4287406484
0.020174062 0.065503433 0.34300002 4287472277
0.021288127 0.065503433 0.34300002 4288522139
0.022336878 0.06531246 0.34200001 4284637272
0.023379136 0.065121494 0.34100002 4283181868
0.024414893 0.064930514 0.34 4282063639
0.025444157 0.064739548 0.33900002 4286796360
0.026466928 0.064548574 0.33800003 4285936168
0.027483199 0.064357601 0.33700001 4286721057
0.028577777 0.064357601 0.33700001 4289682764
0.029584303 0.064166635 0.33600003 4286064154
0.030675631 0.064166635 0.33600003 4286129690
0.031672414 0.063975655 0.33500001 4285605145
0.032760497 0.063975655 0.33500001 4284553745
0.033848576 0.063975655 0.33500001 4283109647
0.03483237 0.063784689 0.33400002 4282915866
0.0359172 0.063784689 0.33400002 4284041792
0.037002034 0.063784689 0.33400002 4284699722
0.038086869 0.063784689 0.33400002 4282192910
0.039171703 0.063784689 0.33400002 4283375383
0.040256534 0.063784689 0.33400002 4283835934
0.041341364 0.063784689 0.33400002 4283639839
0.042426195 0.063784689 0.33400002 4282329891
0.043511029 0.063784689 0.33400002 4288126614
0.044595864 0.063784689 0.33400002 4287340691
0.045954231 0.064166635 0.33600003 4287472531
0.047045562 0.064166635 0.33600003 4287406225
0.04813689 0.064166635 0.33600003 4287472018
0.049228221 0.064166635 0.33600003 4287406225
0.050319545 0.064166635 0.33600003 4287340432
0.020174062 0.066617876 0.34300002 4287340691
0.021288127 0.066617876 0.34300002 4287406484
0.022271566 0.066229433 0.34100002 4287538324
0.023379136 0.066229433 0.34100002 4288391069
0.024343086 0.065840989 0.33900002 4283847241
0.025369102 0.065646768 0.33800003 4286533963
0.026466928 0.065646768 0.33800003 4285410855
0.027483199 0.065452546 0.33700001 4286393121
0.028492976 0.065258324 0.33600003 4286326301
0.029584303 0.065258324 0.33600003 4286260508
0.030584333 0.065064102 0.33500001 4285932313
0.031672414 0.065064102 0.33500001 4285276439
0.032760497 0.065064102 0.33500001 4284619279
0.033848576 0.065064102 0.33500001 4283701520
0.034936655 0.065064102 0.33500001 4283111182
0.036024738 0.065064102 0.33500001 4282587153
0.037112817 0.065064102 0.33500001 4282521873
0.0382009 0.065064102 0.33500001 4283046932
0.039288979 0.065064102 0.33500001 4283901727
0.040377058 0.065064102 0.33500001 4283640352
0.041465141 0.065064102 0.33500001 4283707432
0.04255322 0.065064102 0.33500001 4287206279
0.043641303 0.065064102 0.33500001 4287471764
0.044729382 0.065064102 0.33500001 4287406484
0.045954231 0.065258324 0.33600003 4287340691
0.047045562 0.065258324 0.33600003 4287340691
0.04813689 0.065258324 0.33600003 4287340178
0.049228221 0.065258324 0.33600003 4287340178
0.050319545 0.065258324 0.33600003 4287405971
0.022271566 0.067337379 0.34100002 4287340691
0.023310574 0.067139909 0.34 4287340691
0.024343086 0.066942438 0.33900002 4287603604
0.025369102 0.066744968 0.33800003 4287594360
0.026388623 0.066547498 0.33700001 4284624167
0.027483199 0.066547498 0.33700001 4285736481
0.028492976 0.066350028 0.33600003 4285538330
0.029584303 0.066350028 0.33600003 4285406744
0.030584333 0.066152558 0.33500001 4284881170
0.031672414 0.066152558 0.33500001 4284487695
0.032760497 0.066152558 0.33500001 4284225550
0.033848576 0.066152558 0.33500001 4283109897
0.034936655 0.066152558 0.33500001 4282913803
0.036024738 0.066152558 0.33500001 4282389774
0.037112817 0.066152558 0.33500001 4282521873
0.0382009 0.066152558 0.33500001 4283245083
0.039288979 0.066152558 0.33500001 4283574046
0.040377058 0.066152558 0.33500001 4282721051
0.041465141 0.066152558 0.33500001 4286871920
0.04255322 0.066152558 0.33500001 4287340178
0.043771576 0.066350028 0.33600003 4287274898
0.044729382 0.066152558 0.33500001 4287340691
0.045954231 0.066350028 0.33600003 4287340691
0.047045562 0.066350028 0.33600003 4287406484
0.04813689 0.066350028 0.33600003 4287340691
0.049228221 0.066350028 0.33600003 4287340691
0.050319545 0.066350028 0.33600003 4287340691
0.024271278 0.067843162 0.33800003 4287537557
0.025294045 0.067642443 0.33700001 4288653725
0.026388623 0.067642443 0.33700001 4283250993
0.027401647 0.067441724 0.33600003 4285542441
0.028492976 0.067441724 0.33600003 4285081377
0.029584303 0.067441724 0.33600003 4284883998
0.030584333 0.067240998 0.33500001 4284358167
0.031672414 0.067240998 0.33500001 4283701520
0.032760497 0.067240998 0.33500001 4283701520
0.033848576 0.067240998 0.33500001 4283045389
0.034936655 0.067240998 0.33500001 4282849039
0.036024738 0.067240998 0.33500001 4282785043
0.037112817 0.067240998 0.33500001 4282654227
0.0382009 0.067240998 0.33500001 4283048989
0.039288979 0.067240998 0.33500001 4283509286
0.040377058 0.067240998 0.33500001 4283913034
0.041588917 0.067441724 0.33600003 4288128412
0.042680245 0.067441724 0.33600003 4287471766
0.043771576 0.067441724 0.33600003 4287406484
0.044862907 0.067441724 0.33600003 4287406484
0.045954231 0.067441724 0.33600003 4287406484
0.047045562 0.067441724 0.33600003 4287340691
0.04813689 0.067441724 0.33600003 4287406484
0.049228221 0.067441724 0.33600003 4287406484
0.050319545 0.067441724 0.33600003 4287538070
0.025294045 0.068737388 0.33700001 4287471764
0.026310319 0.068533428 0.33600003 4286415996
0.027401647 0.068533428 0.33600003 4284822831
0.028492976 0.068533428 0.33600003 4284756523
0.029496254 0.068329453 0.33500001 4284295202
0.030584333 0.068329453 0.33500001 4283966237
0.031672414 0.068329453 0.33500001 4283571479
0.032760497 0.068329453 0.33500001 4283243284
0.033848576 0.068329453 0.33500001 4282849553
0.034936655 0.068329453 0.33500001 4282916116
0.036024738 0.068329453 0.33500001 4282786326
0.037112817 0.068329453 0.33500001 4282654742
0.0382009 0.068329453 0.33500001 4283115557
0.039288979 0.068329453 0.33500001 4283379758
0.04049759 0.068533428 0.33600003 4287471766
0.041588917 0.068533428 0.33600003 4287340693
0.042680245 0.068533428 0.33600003 4287471766
0.043771576 0.068533428 0.33600003 4287603352
0.044862907 0.068533428 0.33600003 4287405971
0.045954231 0.068533428 0.33600003 4287471764
0.047045562 0.068533428 0.33600003 4287603352
0.04813689 0.068533428 0.33600003 4287405973
0.049228221 0.068533428 0.33600003 4287471764
0.050319545 0.068533428 0.33600003 4287537557
0.025294045 0.069832332 0.33700001 4287472531
0.026310319 0.069625117 0.33600003 4287735703
0.027401647 0.069625117 0.33600003 4285359708
0.028408175 0.069417901 0.33500001 4284037681
0.029496254 0.069417901 0.33500001 4284099624
0.030584333 0.069417901 0.33500001 4283770657
0.031672414 0.069417901 0.33500001 4283375899
0.032760497 0.069417901 0.33500001 4283113499
0.033848576 0.069417901 0.33500001 4282982426
0.034936655 0.069417901 0.33500001 4282917403
0.036024738 0.069417901 0.33500001 4282786844
0.037112817 0.069417901 0.33500001 4282984739
0.0382009 0.069417901 0.33500001 4283314735
0.039406262 0.069625117 0.33600003 4286939260
0.04049759 0.069625117 0.33600003 4287340693
0.041588917 0.069625117 0.33600003 4287340693
0.042680245 0.069625117 0.33600003 4287537557
0.043771576 0.069625117 0.33600003 4287537557
0.044862907 0.069625117 0.33600003 4287471764
0.045954231 0.069625117 0.33600003 4287603350
0.047045562 0.069625117 0.33600003 4287471764
0.04813689 0.069625117 0.33600003 4287537557
0.049228221 0.069625117 0.33600003 4287537557
0.050319545 0.069625117 0.33600003 4287537557
0.026310319 0.070716821 0.33600003 4287537557
0.027320093 0.070506349 0.33500001 4287735190
0.028408175 0.070506349 0.33500001 4287337611
0.029496254 0.070506349 0.33500001 4283579192
0.030584333 0.070506349 0.33500001 4283840563
0.031672414 0.070506349 0.33500001 4283905843
0.032760497 0.070506349 0.33500001 4283182120
0.033848576 0.070506349 0.33500001 4282917924
0.034936655 0.070506349 0.33500001 4283377961
0.036024738 0.070506349 0.33500001 4283774257
0.037112817 0.070506349 0.33500001 4282986283
0.0382009 0.070506349 0.33500001 4286217847
0.039406262 0.070716821 0.33600003 4287668375
0.04049759 0.070716821 0.33600003 4287538842
0.041588917 0.070716821 0.33600003 4287538070
0.042680245 0.070716821 0.33600003 4287472016
0.043771576 0.070716821 0.33600003 4287472016
0.044862907 0.070716821 0.33600003 4287537811
0.045954231 0.070716821 0.33600003 4287471764
0.047045562 0.070716821 0.33600003 4287603350
0.04813689 0.070716821 0.33600003 4287537557
0.049228221 0.070716821 0.33600003 4287471764
0.050319545 0.070716821 0.33600003 4287537811
0.027320093 0.071594805 0.33500001 4287734936
0.028408175 0.071594805 0.33500001 4287734936
0.029496254 0.071594805 0.33500001 4287800729
0.030584333 0.071594805 0.33500001 4288128410
0.031672414 0.071594805 0.33500001 4286677882
0.032760497 0.071594805 0.33500001 4285427558
0.033848576 0.071594805 0.33500001 4284636759
0.034936655 0.071594805 0.33500001 4284307794
0.036024738 0.071594805 0.33500001 4285822573
0.037112817 0.071594805 0.33500001 4288062104
0.0382009 0.071594805 0.33500001 4287471764
0.039406262 0.071808524 0.33600003 4287603352
0.04049759 0.071808524 0.33600003 4287405973
0.041588917 0.071808524 0.33600003 4287603350
0.042680245 0.071808524 0.33600003 4287405971
0.043771576 0.071808524 0.33600003 4287537557
0.044862907 0.071808524 0.33600003 4287603350
0.045954231 0.071808524 0.33600003 4287537557
0.047045562 0.071808524 0.33600003 4287734936
0.04813689 0.071808524 0.33600003 4287603350
0.049228221 0.071808524 0.33600003 4287603350
0.027320093 0.072683245 0.33500001 4287800729
0.028408175 0.072683245 0.33500001 4287800729
0.029496254 0.072683245 0.33500001 4287538070
0.030584333 0.072683245 0.33500001 4287538070
0.031672414 0.072683245 0.33500001 4287538070
0.032760497 0.072683245 0.33500001 4287340691
0.033848576 0.072683245 0.33500001 4287538070
0.034936655 0.072683245 0.33500001 4287472277
0.036024738 0.072683245 0.33500001 4287471764
0.037112817 0.072683245 0.33500001 4287537557
0.0382009 0.072683245 0.33500001 4287603350
0.039288979 0.072683245 0.33500001 4287537557
0.04049759 0.072900221 0.33600003 4287538070
0.041588917 0.072900221 0.33600003 4287472277
0.042680245 0.072900221 0.33600003 4287669656
0.043771576 0.072900221 0.33600003 4287472531
0.044862907 0.072900221 0.33600003 4287472531
0.045954231 0.072900221 0.33600003 4287340945
0.047045562 0.072900221 0.33600003 4287471764
0.04813689 0.072900221 0.33600003 4287537557
0.049228221 0.072900221 0.33600003 4287471764
0.028408175 0.0737717 0.33500001 4287800729
0.029408207 0.073551491 0.33400002 4287734936
0.030493038 0.073551491 0.33400002 4287537557
0.031672414 0.0737717 0.33500001 4287603350
0.032760497 0.0737717 0.33500001 4287669656
0.033848576 0.0737717 0.33500001 4287406484
0.034936655 0.0737717 0.33500001 4287603350
0.036024738 0.0737717 0.33500001 4287603350
0.037112817 0.0737717 0.33500001 4287603350
0.0382009 0.0737717 0.33500001 4287537557
0.039288979 0.0737717 0.33500001 4287538070
0.040377058 0.0737717 0.33500001 4287538070
0.041588917 0.073991917 0.33600003 4287538070
0.042680245 0.073991917 0.33600003 4287538070
0.043771576 0.073991917 0.33600003 4287472531
0.044862907 0.073991917 0.33600003 4287538324
0.045954231 0.073991917 0.33600003 4287669910
0.047045562 0.073991917 0.33600003 4287472531
0.04813689 0.073991917 0.33600003 4287472531
0.049228221 0.073991917 0.33600003 4287603604
0.029408207 0.074636683 0.33400002 4287669656
0.030493038 0.074636683 0.33400002 4287735449
0.031577874 0.074636683 0.33400002 4287735449
0.032662705 0.074636683 0.33400002 4287538070
0.033848576 0.074860148 0.33500001 4287603350
0.034936655 0.074860148 0.33500001 4287668373
0.036024738 0.074860148 0.33500001 4287931545
0.037112817 0.074860148 0.33500001 4287668373
0.0382009 0.074860148 0.33500001 4287668373
0.039288979 0.074860148 0.33500001 4287603350
0.040377058 0.074860148 0.33500001 4287603350
0.041588917 0.075083613 0.33600003 4287669656
0.042680245 0.075083613 0.33600003 4287537811
0.043771576 0.075083613 0.33600003 4287274639
0.044862907 0.075083613 0.33600003 4287537811
0.045954231 0.075083613 0.33600003 4287603604
0.047045562 0.075083613 0.33600003 4287537811
0.04813689 0.075083613 0.33600003 4287537811
0.049228221 0.075083613 0.33600003 4287735190
0.030493038 0.07572189 0.33400002 4287932315
0.032662705 0.07572189 0.33400002 4287735449
0.033747539 0.07572189 0.33400002 4287603350
0.03483237 0.07572189 0.33400002 4287865752
0.036024738 0.075948596 0.33500001 4287734166
0.037112817 0.075948596 0.33500001 4287668373
0.0382009 0.075948596 0.33500001 4287603350
0.039288979 0.075948596 0.33500001 4287734936
0.040377058 0.075948596 0.33500001 4287734936
0.041588917 0.076175317 0.33600003 4287537557
0.042680245 0.076175317 0.33600003 4287800729
0.043771576 0.076175317 0.33600003 4287734936
0.044862907 0.076175317 0.33600003 4287537557
0.045954231 0.076175317 0.33600003 4287734936
0.047045562 0.076175317 0.33600003 4287734936
0.04813689 0.076175317 0.33600003 4287603350
0.049228221 0.076175317 0.33600003 4287537557
0.030462116 0.040390208 0.33918077 4294967295
0.030462116 0.040390208 0.33918077 4294901760
0.030462116 0.039890915 0.33920735 4294901760
0.030462116 0.039391622 0.33923391 4294901760
0.030462116 0.038892329 0.33926049 4294901760
0.030462116 0.038393036 0.33928707 4294901760
0.030462116 0.037893742 0.33931363 4294901760
0.030462116 0.037394449 0.33934021 4294901760
0.030462116 0.036895156 0.33936679 4294901760
0.030462116 0.036395863 0.33939335 4294901760
0.030462116 0.035896569 0.33941993 4294901760
0.030462116 0.035397276 0.33944651 4294901760
0.030462116 0.034897983 0.33947307 4294901760
0.030462116 0.03439869 0.33949965 4294901760
0.030462116 0.033899397 0.33952624 4294901760
0.030462116 0.033400103 0.33955279 4294901760
0.030462116 0.03290081 0.33957937 4294901760
0.030462116 0.032401517 0.33960596 4294901760
0.030462116 0.031902224 0.33963251 4294901760
0.030462116 0.031402927 0.33965909 4294901760
0.030462116 0.030903636 0.33968568 4294901760
0.030462116 0.03040434 0.33971223 4294901760
0.030462116 0.029905049 0.33973882 4294901760
0.030462116 0.029405754 0.3397654 4294901760
0.030462116 0.028906461 0.33979195 4294901760
0.030462116 0.028407168 0.33981854 4294901760
0.030462116 0.027907874 0.33984512 4294901760
0.030462116 0.027408581 0.33987167 4294901760
0.030462116 0.026909288 0.33989826 4294901760
0.030462116 0.026409995 0.33992484 4294901760
0.030462116 0.025910702 0.3399514 4294901760
0.030462116 0.025411408 0.33997798 4294901760
0.030462116 0.024912115 0.34000456 4294901760
0.030462116 0.024412822 0.34003112 4294901760
0.030462116 0.023913529 0.3400577 4294901760
0.030462116 0.023414236 0.34008428 4294901760
0.030462116 0.022914942 0.34011084 4294901760
0.030462116 0.022415647 0.34013742 4294901760
0.030462116 0.021916356 0.34016401 4294901760
0.030462116 0.021417063 0.34019056 4294901760
0.030462116 0.02091777 0.34021714 4294901760
0.030462116 0.020418474 0.34024373 4294901760
0.030462116 0.019919183 0.34027028 4294901760
0.030462116 0.01941989 0.34029686 4294901760
0.030462116 0.018920595 0.34032345 4294901760
0.030462116 0.018421302 0.34035 4294901760
0.030462116 0.01792201 0.34037659 4294901760
0.030462116 0.017422715 0.34040317 4294901760
0.030462116 0.016923422 0.34042972 4294901760
0.030462116 0.016424129 0.34045631 4294901760
0.030462116 0.015924836 0.34048289 4294901760
0.030462116 0.015425542 0.34050947 4294901760
0.030462116 0.014926249 0.34053603 4294901760
0.030462116 0.014426956 0.34056261 4294901760
0.030462116 0.013927665 0.3405892 4294901760
0.030462116 0.013428368 0.34061575 4294901760
0.030462116 0.012929074 0.34064233 4294901760
0.030462116 0.012429783 0.34066892 4294901760
0.030462116 0.01193049 0.34069547 4294901760
0.030462116 0.011431197 0.34072205 4294901760
0.030462116 0.010931903 0.34074864 4294901760
0.030462116 0.010432608 0.34077519 4294901760
0.030462116 0.0099333152 0.34080178 4294901760
0.030462116 0.009434022 0.34082836 4294901760
0.030462116 0.0089347288 0.34085491 4294901760
0.030462116 0.0084354356 0.3408815 4294901760
0.030462116 0.0079361424 0.34090808 4294901760
0.030462116 0.0074368492 0.34093463 4294901760
0.030462116 0.006937556 0.34096122 4294901760
0.030462116 0.0064382628 0.3409878 4294901760
0.030462116 0.0059389696 0.34101436 4294901760
0.030462116 0.0054396763 0.34104094 4294901760
0.030462116 0.0049403831 0.34106752 4294901760
0.030462116 0.0044410862 0.34109408 4294901760
0.030462116 0.0039417967 0.34112066 4294901760
0.030462116 0.0034425035 0.34114724 4294901760
0.030462116 0.0029432103 0.3411738 4294901760
0.030462116 0.0024439171 0.34120038 4294901760
0.030462116 0.0019446239 0.34122697 4294901760
0.030462116 0.0014453307 0.34125352 4294901760
0.030462116 0.00094603375 0.3412801 4294901760
0.030462116 0.00044674054 0.34130669 4294901760
0.030462116 -5.2548945e-05 0.34133324 4294901760
0.030462116 -0.00055184215 0.34135982 4294901760
0.030462116 -0.0010511354 0.34138641 4294901760
0.030462116 -0.0015504286 0.34141296 4294901760
0.030462116 -0.0020497255 0.34143955 4294901760
0.030462116 -0.0025490187 0.34146613 4294901760
0.030462116 -0.0030483119 0.34149268 4294901760
0.030462116 -0.0035476051 0.34151927 4294901760
0.030462116 -0.0040468946 0.34154585 4294901760
0.030462116 -0.0045461878 0.3415724 4294901760
0.030462116 -0.0050454848 0.34159899 4294901760
0.030462116 -0.005544778 0.34162557 4294901760
0.030462116 -0.0060440712 0.34165213 4294901760
0.030462116 -0.0065433644 0.34167871 4294901760
0.030462116 -0.0070426576 0.34170529 4294901760
0.030462116 -0.0075419508 0.34173185 4294901760
0.030462116 -0.008041244 0.34175843 4294901760
0.030462116 -0.0085405372 0.34178501 4294901760
0.030462116 -0.0090398304 0.34181157 4294901760
0.030462116 -0.0095391236 0.34183815 4294901760
0.030462116 0.040390208 0.33918077 4278255360
0.030824242 0.040371884 0.33883649 4278255360
0.031186368 0.040353563 0.33849221 4278255360
0.031548496 0.040335238 0.33814794 4278255360
0.031910621 0.040316913 0.33780363 4278255360
0.032272749 0.040298589 0.33745936 4278255360
0.032634873 0.040280268 0.33711508 4278255360
0.032997001 0.040261943 0.3367708 4278255360
0.033359125 0.040243618 0.33642653 4278255360
0.033721253 0.040225297 0.33608225 4278255360
0.034083378 0.040206973 0.33573797 4278255360
0.034445506 0.040188648 0.3353937 4278255360
0.03480763 0.040170323 0.33504939 4278255360
0.035169758 0.040152002 0.33470511 4278255360
0.035531882 0.040133677 0.33436084 4278255360
0.03589401 0.040115353 0.33401656 4278255360
0.036256135 0.040097032 0.33367229 4278255360
0.036618263 0.040078707 0.33332801 4278255360
0.036980387 0.040060382 0.33298373 4278255360
0.037342515 0.040042061 0.33263946 4278255360
0.037704639 0.040023737 0.33229515 4278255360
0.038066767 0.040005412 0.33195087 4278255360
0.038428895 0.039987087 0.3316066 4278255360
0.038791019 0.039968766 0.33126232 4278255360
0.039153144 0.039950442 0.33091804 4278255360
0.039515272 0.039932117 0.33057377 4278255360
0.0398774 0.039913796 0.33022949 4278255360
0.040239524 0.039895471 0.32988518 4278255360
0.040601648 0.039877146 0.32954091 4278255360
0.040963776 0.039858822 0.32919663 4278255360
0.041325904 0.039840501 0.32885236 4278255360
0.041688029 0.039822176 0.32850808 4278255360
0.042050153 0.039803851 0.3281638 4278255360
0.042412281 0.03978553 0.32781953 4278255360
0.042774409 0.039767206 0.32747525 4278255360
0.043136533 0.039748881 0.32713094 4278255360
0.043498661 0.039730556 0.32678667 4278255360
0.043860786 0.039712235 0.32644239 4278255360
0.044222914 0.039693911 0.32609811 4278255360
0.044585038 0.039675586 0.32575384 4278255360
0.044947166 0.039657265 0.32540956 4278255360
0.04530929 0.03963894 0.32506528 4278255360
0.045671418 0.039620616 0.32472101 4278255360
0.046033546 0.039602291 0.3243767 4278255360
0.046395671 0.03958397 0.32403243 4278255360
0.046757795 0.039565645 0.32368815 4278255360
0.047119923 0.03954732 0.32334387 4278255360
0.047482051 0.039528999 0.3229996 4278255360
0.047844175 0.039510675 0.32265532 4278255360
0.0482063 0.03949235 0.32231104 4278255360
0.048568428 0.039474025 0.32196677 4278255360
0.048930556 0.039455704 0.32162246 4278255360
0.04929268 0.03943738 0.32127818 4278255360
0.049654804 0.039419055 0.32093391 4278255360
0.050016932 0.039400734 0.32058963 4278255360
0.05037906 0.039382409 0.32024536 4278255360
0.050741185 0.039364085 0.31990108 4278255360
0.051103309 0.039345764 0.3195568 4278255360
0.051465437 0.039327439 0.3192125 4278255360
0.051827565 0.039309114 0.31886822 4278255360
0.052189693 0.03929079 0.31852394 4278255360
0.052551817 0.039272469 0.31817967 4278255360
0.052913941 0.039254144 0.31783539 4278255360
0.053276069 0.039235819 0.31749111 4278255360
0.053638194 0.039217498 0.31714684 4278255360
0.054000318 0.039199173 0.31680256 4278255360
0.054362446 0.039180849 0.31645826 4278255360
0.054724574 0.039162524 0.31611398 4278255360
0.055086702 0.039144203 0.3157697 4278255360
0.055448826 0.039125878 0.31542543 4278255360
0.055810951 0.039107554 0.31508115 4278255360
0.056173079 0.039089233 0.31473687 4278255360
0.056535207 0.039070908 0.3143926 4278255360
0.056897331 0.039052583 0.31404829 4278255360
0.057259455 0.039034259 0.31370401 4278255360
0.057621583 0.039015938 0.31335974 4278255360
0.057983711 0.038997613 0.31301546 4278255360
