# .PCD v0.7 - Point Cloud Data file format
VERSION 0.7
FIELDS x y z rgb
SIZE 4 4 4 4
TYPE F F F U
COUNT 1 1 1 1
WIDTH 948
HEIGHT 1
VIEWPOINT 0 0 0 1 0 0 0
POINTS 948
DATA ascii
-0.028590884 0.020424597 0.49200001 4279904539
-0.026773416 0.020258544 0.48800004 4279968797
-0.025136774 0.020217029 0.48700002 4280363040
-0.023554998 0.020217029 0.48700002 4279513625
-0.021928102 0.020175517 0.48600003 4279779875
-0.020349573 0.020175517 0.48600003 4279519523
-0.028532773 0.021978391 0.49100003 4279575574
-0.026773416 0.021844106 0.48800004 4279640600
-0.025136774 0.021799341 0.48700002 4279706906
-0.02350663 0.02175458 0.48600003 4279447832
-0.021928102 0.02175458 0.48600003 4279188762
-0.020307701 0.021709817 0.48500001 4278796570
-0.018693797 0.021665055 0.48400003 4278928156
-0.017086387 0.021620292 0.48300001 4278862877
-0.015517603 0.021620292 0.48300001 4279191842
-0.013919939 0.021575529 0.48200002 4279126049
-0.012328771 0.021530768 0.48100004 4279323428
-0.010744099 0.021486005 0.48000002 4278994209
-0.0091659222 0.021441242 0.47900003 4279125281
-0.0075942408 0.021396479 0.47800002 4279322660
-0.028474661 0.023525691 0.49000001 4279641367
-0.026773416 0.023429668 0.48800004 4279640600
-0.025136774 0.023381656 0.48700002 4279641113
-0.02350663 0.023333644 0.48600003 4279250199
-0.021882981 0.023285633 0.48500001 4279451164
-0.020307701 0.023285633 0.48500001 4278664212
-0.018693797 0.023237621 0.48400003 4278796568
-0.017086387 0.02318961 0.48300001 4278533910
-0.015485475 0.023141598 0.48200002 4278402324
-0.01389106 0.023093587 0.48100004 4278533910
-0.012303138 0.023045575 0.48000002 4278468117
-0.010721715 0.022997564 0.47900003 4278468117
-0.0091467863 0.022949552 0.47800002 4278533910
-0.0075942408 0.022949552 0.47800002 4278533910
-0.0060164174 0.022853527 0.47600001 4278731289
-0.0044703684 0.022853527 0.47600001 4278731289
-0.0029243196 0.022853527 0.47600001 4278797082
-0.02841655 0.025066489 0.48900002 4279575574
-0.026773416 0.025015229 0.48800004 4279443734
-0.025136774 0.024963968 0.48700002 4279510041
-0.02350663 0.024912708 0.48600003 4278987797
-0.021882981 0.024861448 0.48500001 4279121945
-0.020265831 0.024810188 0.48400003 4278597908
-0.018655173 0.024758926 0.48300001 4278664212
-0.017086387 0.024758926 0.48300001 4278730005
-0.015485475 0.024707666 0.48200002 4278532626
-0.01389106 0.024656406 0.48100004 4278598419
-0.012303138 0.024605144 0.48000002 4278466833
-0.010721715 0.024553884 0.47900003 4278532626
-0.0091467863 0.024502622 0.47800002 4278532626
-0.0075783534 0.024451362 0.47700003 4278730005
-0.0060164174 0.0244001 0.47600001 4278335247
-0.0044703684 0.0244001 0.47600001 4278532626
-0.0029181761 0.02434884 0.47500002 4278466831
-0.0013753753 0.02434884 0.47500002 4278336015
0.00016742553 0.02434884 0.47500002 4278664980
0.0017066259 0.02429758 0.47400004 4278599187
0.0032461786 0.02429758 0.47400004 4278796566
0.0047857314 0.02429758 0.47400004 4278796566
-0.028358439 0.026600791 0.48800004 4279115023
-0.026718551 0.026546281 0.48700002 4279377941
-0.025085159 0.026491772 0.48600003 4279575834
-0.023458261 0.02643726 0.48500001 4279184406
-0.021882981 0.02643726 0.48500001 4279187478
-0.020265831 0.026382752 0.48400003 4278663699
-0.018655173 0.026328241 0.48300001 4278729492
-0.017051013 0.026273731 0.48200002 4278466833
-0.015453348 0.026219223 0.48100004 4278466833
-0.01386218 0.026164712 0.48000002 4278532626
-0.012277507 0.026110204 0.47900003 4278730005
-0.010699331 0.026055692 0.47800002 4278335247
-0.0091276504 0.026001183 0.47700003 4278466833
-0.0075783534 0.026001183 0.47700003 4278466833
-0.0060164174 0.025946673 0.47600001 4278993177
-0.0044703684 0.025946673 0.47600001 4278726673
-0.0029181761 0.025892163 0.47500002 4278199301
-0.0013753753 0.025892163 0.47500002 4278400527
0.00016742553 0.025892163 0.47500002 4278532113
0.0017066259 0.025837654 0.47400004 4278597906
0.0032461786 0.025837654 0.47400004 4278335247
0.0047857314 0.025837654 0.47400004 4278532626
-0.028358439 0.028186353 0.48800004 4279575320
-0.026718551 0.028128594 0.48700002 4279640600
-0.025085159 0.028070835 0.48600003 4279576088
-0.023458261 0.028013075 0.48500001 4279316762
-0.021837862 0.027955318 0.48400003 4279121431
-0.020223958 0.027897557 0.48300001 4278729492
-0.01861655 0.027839798 0.48200002 4278795796
-0.017015638 0.027782042 0.48100004 4278730003
-0.01542122 0.027724281 0.48000002 4278598417
-0.0138333 0.027666522 0.47900003 4278335247
-0.012277507 0.027666522 0.47900003 4278730007
-0.010699331 0.027608763 0.47800002 4278532628
-0.0091276504 0.027551005 0.47700003 4278532628
-0.0075624655 0.027493244 0.47600001 4278597908
-0.0060164174 0.027493244 0.47600001 4278532113
-0.0044703684 0.027493244 0.47600001 4278265609
-0.0029181761 0.027435487 0.47500002 4279121433
-0.0013753753 0.027435487 0.47500002 4278596625
0.00016742553 0.027435487 0.47500002 4278859797
0.0017066259 0.027377728 0.47400004 4278924820
0.0032461786 0.027377728 0.47400004 4278794004
0.0047857314 0.027377728 0.47400004 4278925590
0.00631194 0.027319968 0.47300002 4278859797
0.0078482442 0.027319968 0.47300002 4278662931
0.0093845492 0.027319968 0.47300002 4278662931
0.010920854 0.027319968 0.47300002 4278728722
0.012457159 0.027319968 0.47300002 4278728722
0.013993464 0.027319968 0.47300002 4278664212
0.015529769 0.027319968 0.47300002 4278598419
0.017066073 0.027319968 0.47300002 4278335247
0.018602379 0.027319968 0.47300002 4278335249
0.020138683 0.027319968 0.47300002 4278466835
0.024747597 0.027319968 0.47300002 4278401810
0.026283903 0.027319968 0.47300002 4278401810
0.027761392 0.027262211 0.47200003 4278664982
0.02929445 0.027262211 0.47200003 4278401810
0.03076219 0.02720445 0.47100002 4278862361
0.032292001 0.02720445 0.47100002 4278928154
0.03382181 0.02720445 0.47100002 4278862361
0.035351615 0.02720445 0.47100002 4278993947
0.036881428 0.02720445 0.47100002 4279125533
0.038411234 0.02720445 0.47100002 4278928156
0.040025849 0.027262211 0.47200003 4279257121
0.041558903 0.027262211 0.47200003 4279125283
-0.036506619 0.029954938 0.49100003 4280232991
-0.034911849 0.029954938 0.49100003 4280364323
-0.028358439 0.029771915 0.48800004 4279377941
-0.026663689 0.029649898 0.48600003 4279838233
-0.025033543 0.029588889 0.48500001 4279641879
-0.023409896 0.029527882 0.48400003 4279053844
-0.021792741 0.029466873 0.48300001 4279055892
-0.020182086 0.029405866 0.48200002 4278860308
-0.01861655 0.029405866 0.48200002 4278861078
-0.017015638 0.029344859 0.48100004 4278532624
-0.01542122 0.02928385 0.48000002 4278664210
-0.0138333 0.029222842 0.47900003 4278335247
-0.012251875 0.029161833 0.47800002 4278335249
-0.010676947 0.029100826 0.47700003 4278466835
-0.0091276504 0.029100826 0.47700003 4278532628
-0.0075624655 0.029039817 0.47600001 4278400529
-0.0060164174 0.029039817 0.47600001 4278333966
-0.0044703684 0.029039817 0.47600001 4278196486
-0.0029181761 0.02897881 0.47500002 4279185943
-0.0013753753 0.02897881 0.47500002 4278858513
0.00016742553 0.02897881 0.47500002 4278196226
0.0017102263 0.02897881 0.47500002 4278327304
0.0032461786 0.028917802 0.47400004 4278195464
0.0047857314 0.028917802 0.47400004 4278196488
0.006325285 0.028917802 0.47400004 4278262279
0.0078482442 0.028856793 0.47300002 4278195714
0.0093845492 0.028856793 0.47300002 4278197256
0.010920854 0.028856793 0.47300002 4278263304
0.012483496 0.028917802 0.47400004 4278593293
0.014023049 0.028917802 0.47400004 4278661394
0.015562602 0.028917802 0.47400004 4278991642
0.017102154 0.028917802 0.47400004 4278925849
0.018602379 0.028856793 0.47300002 4278596371
0.020181261 0.028917802 0.47400004 4278596371
0.021720814 0.028917802 0.47400004 4278465298
0.023260366 0.028917802 0.47400004 4278531091
0.024799919 0.028917802 0.47400004 4278400529
0.026283903 0.028856793 0.47300002 4278334734
0.027820207 0.028856793 0.47300002 4278532113
0.02929445 0.028795786 0.47200003 4278663699
0.030827504 0.028795786 0.47200003 4278466833
0.032360565 0.028795786 0.47200003 4278664212
0.033893619 0.028795786 0.47200003 4278466833
0.035426673 0.028795786 0.47200003 4278598419
0.036959734 0.028795786 0.47200003 4278730005
0.038492788 0.028795786 0.47200003 4278664982
0.040110648 0.028856793 0.47300002 4278993947
0.04164695 0.028856793 0.47300002 4278797082
0.043365847 0.02897881 0.47500002 4278862875
0.04490865 0.02897881 0.47500002 4278797082
0.046549242 0.029039817 0.47600001 4278862877
0.048095293 0.029039817 0.47600001 4278994209
0.049641341 0.029039817 0.47600001 4279125281
-0.039615307 0.03148599 0.49000001 4279575320
-0.038101386 0.031550247 0.49100003 4279641113
-0.036506619 0.031550247 0.49100003 4279903772
-0.034911849 0.031550247 0.49100003 4280298530
-0.028300326 0.031293221 0.48700002 4279706393
-0.026663689 0.031228963 0.48600003 4279772953
-0.025033543 0.031164706 0.48500001 4279773465
-0.023409896 0.031100448 0.48400003 4279120918
-0.021792741 0.031036191 0.48300001 4279187992
-0.020182086 0.030971935 0.48200002 4278532115
-0.018577926 0.030907677 0.48100004 4278861078
-0.016980261 0.03084342 0.48000002 4278598417
-0.01542122 0.03084342 0.48000002 4278335245
-0.0138333 0.030779164 0.47900003 4278400527
-0.012251875 0.030714905 0.47800002 4278532113
-0.010676947 0.030650649 0.47700003 4278532115
-0.0091276504 0.030650649 0.47700003 4278532115
-0.0075624655 0.030586392 0.47600001 4278663701
-0.0060164174 0.030586392 0.47600001 4279123482
-0.0044703684 0.030586392 0.47600001 4278195457
-0.0029181761 0.030522134 0.47500002 4279054103
-0.0013753753 0.030522134 0.47500002 4278988564
0.00016742553 0.030522134 0.47500002 4278458377
0.0017102263 0.030522134 0.47500002 4278654218
0.0032530271 0.030522134 0.47500002 4278523148
0.0047857314 0.030457878 0.47400004 4278523148
0.006325285 0.030457878 0.47400004 4278588939
0.0078648375 0.030457878 0.47400004 4278588939
0.0094043901 0.030457878 0.47400004 4278720011
0.010943944 0.030457878 0.47400004 4278720011
0.012483496 0.030457878 0.47400004 4278654218
0.014023049 0.030457878 0.47400004 4278196742
0.015562602 0.030457878 0.47400004 4278857494
0.017102154 0.030457878 0.47400004 4278594322
0.018641707 0.030457878 0.47400004 4278395660
0.020181261 0.030457878 0.47400004 4278197252
0.021766638 0.030522134 0.47500002 4278195968
0.023309439 0.030522134 0.47500002 4278195200
0.024799919 0.030457878 0.47400004 4278196736
0.026339471 0.030457878 0.47400004 4278197763
0.027879026 0.030457878 0.47400004 4278199818
0.029356513 0.030393621 0.47300002 4278529294
0.030892815 0.030393621 0.47300002 4278727187
0.032429121 0.030393621 0.47300002 4278728211
0.033965427 0.030393621 0.47300002 4278794517
0.03550173 0.030393621 0.47300002 4278465552
0.037038036 0.030393621 0.47300002 4278663701
0.038574342 0.030393621 0.47300002 4278532113
0.04019545 0.030457878 0.47400004 4278334734
0.041735001 0.030457878 0.47400004 4278335247
0.043457143 0.030586392 0.47600001 4278532626
0.045003194 0.030586392 0.47600001 4278796568
0.046647035 0.030650649 0.47700003 4278468117
0.048196334 0.030650649 0.47700003 4278533910
0.04974563 0.030650649 0.47700003 4278665498
0.051402461 0.030714905 0.47800002 4278862877
0.052955009 0.030714905 0.47800002 4278862877
0.054621585 0.030779164 0.47900003 4278663195
0.056177381 0.030779164 0.47900003 4283858279
-0.039696153 0.033145558 0.49100003 4279640600
-0.038178984 0.033213064 0.49200001 4279771416
-0.036580972 0.033213064 0.49200001 4279903002
-0.034982953 0.033213064 0.49200001 4280101151
-0.028300326 0.032875534 0.48700002 4279706906
-0.026663689 0.032808028 0.48600003 4279838746
-0.024981929 0.032673012 0.48400003 4279576856
-0.023361526 0.032605506 0.48300001 4279252504
-0.021747623 0.032538 0.48200002 4278859543
-0.020140216 0.032470495 0.48100004 4278861080
-0.018577926 0.032470495 0.48100004 4278729494
-0.016980261 0.032402989 0.48000002 4278795798
-0.015389093 0.032335483 0.47900003 4278532626
-0.0138333 0.032335483 0.47900003 4278532113
-0.012251875 0.032267977 0.47800002 4278597906
-0.010676947 0.032200471 0.47700003 4278729492
-0.0091276504 0.032200471 0.47700003 4278532113
-0.0075624655 0.032132965 0.47600001 4278795285
-0.0060164174 0.032132965 0.47600001 4278794515
-0.0044703684 0.032132965 0.47600001 4278196228
-0.0029243196 0.032132965 0.47600001 4278857748
-0.0013753753 0.032065459 0.47500002 4278198281
0.00016742553 0.032065459 0.47500002 4278655756
0.0017102263 0.032065459 0.47500002 4278655502
0.0032530271 0.032065459 0.47500002 4278721295
0.0047958279 0.032065459 0.47500002 4279905569
0.0063386289 0.032065459 0.47500002 4278852881
0.007881429 0.032065459 0.47500002 4279840541
0.009424231 0.032065459 0.47500002 4278656269
0.010967032 0.032065459 0.47500002 4279049744
0.012509832 0.032065459 0.47500002 4278852365
0.014052633 0.032065459 0.47500002 4278195201
0.015595434 0.032065459 0.47500002 4278923541
0.017138233 0.032065459 0.47500002 4278727189
0.018681034 0.032065459 0.47500002 4278990361
0.020223835 0.032065459 0.47500002 4279055638
0.021766638 0.032065459 0.47500002 4279055638
0.023309439 0.032065459 0.47500002 4278989845
0.024852239 0.032065459 0.47500002 4279055638
0.02639504 0.032065459 0.47500002 4279055638
0.027937841 0.032065459 0.47500002 4279187224
0.029418578 0.031997953 0.47400004 4279187226
0.030958129 0.031997953 0.47400004 4279055127
0.032497685 0.031997953 0.47400004 4278857748
0.034037236 0.031997953 0.47400004 4278197508
0.035576787 0.031997953 0.47400004 4278194944
0.037116341 0.031997953 0.47400004 4278195712
0.038737446 0.032065459 0.47500002 4278195456
0.040280249 0.032065459 0.47500002 4278196224
0.041911095 0.032132965 0.47600001 4278265611
0.043548442 0.032200471 0.47700003 4278529296
0.045097739 0.032200471 0.47700003 4278464785
0.046744827 0.032267977 0.47800002 4278532115
0.048297372 0.032267977 0.47800002 4278466835
0.049849916 0.032267977 0.47800002 4278598421
0.051509999 0.032335483 0.47900003 4278335249
0.053065795 0.032335483 0.47900003 4278862363
0.054621585 0.032335483 0.47900003 4279124765
0.056177381 0.032335483 0.47900003 4278202641
0.057853699 0.032402989 0.48000002 4284580467
-0.038256586 0.034882378 0.49300003 4280561952
-0.036655322 0.034882378 0.49300003 4280167196
-0.035054058 0.034882378 0.49300003 4279772438
-0.033384938 0.03481162 0.49200001 4279838233
-0.030004824 0.034599356 0.48900002 4280364323
-0.028300326 0.034457844 0.48700002 4279772186
-0.026663689 0.034387089 0.48600003 4279904539
-0.024981929 0.03424558 0.48400003 4279840028
-0.023361526 0.034174822 0.48300001 4279187224
-0.021747623 0.034104068 0.48200002 4278925336
-0.020140216 0.034033313 0.48100004 4278795287
-0.018539302 0.033962559 0.48000002 4278795287
-0.016980261 0.033962559 0.48000002 4278795287
-0.015389093 0.033891805 0.47900003 4278532626
-0.0138333 0.033891805 0.47900003 4278532626
-0.012251875 0.033821046 0.47800002 4278664212
-0.010676947 0.033750292 0.47700003 4278597906
-0.0091276504 0.033750292 0.47700003 4278532113
-0.0075624655 0.033679534 0.47600001 4278795285
-0.0060164174 0.033679534 0.47600001 4278333199
-0.0044703684 0.033679534 0.47600001 4278196482
-0.0029243196 0.033679534 0.47600001 4278792466
-0.0013782708 0.033679534 0.47600001 4278197767
0.00016742553 0.033608783 0.47500002 4278787855
0.0017102263 0.033608783 0.47500002 4278195204
0.0032530271 0.033608783 0.47500002 4278920211
0.0047958279 0.033608783 0.47500002 4279708957
0.0063386289 0.033608783 0.47500002 4278195205
0.007881429 0.033608783 0.47500002 4278194948
0.009424231 0.033608783 0.47500002 4278458377
0.010967032 0.033608783 0.47500002 4279249174
0.012536168 0.033679534 0.47600001 4278393095
0.014082218 0.033679534 0.47600001 4278460171
0.015628267 0.033679534 0.47600001 4278857748
0.017174315 0.033679534 0.47600001 4278197252
0.018720362 0.033679534 0.47600001 4278196997
0.020266412 0.033679534 0.47600001 4278196226
0.021812461 0.033679534 0.47600001 4278593552
0.023358511 0.033679534 0.47600001 4278726162
0.024904558 0.033679534 0.47600001 4278199561
0.026450608 0.033679534 0.47600001 4278660880
0.027937841 0.033608783 0.47500002 4278198273
0.029480642 0.033608783 0.47500002 4278858773
0.031023441 0.033608783 0.47500002 4278727957
0.032566246 0.033608783 0.47500002 4278596371
0.034109045 0.033608783 0.47500002 4278596371
0.035651844 0.033608783 0.47500002 4278858773
0.037272949 0.033679534 0.47600001 4278858773
0.038818996 0.033679534 0.47600001 4279055640
0.040365048 0.033679534 0.47600001 4279121433
0.041999146 0.033750292 0.47700003 4278989847
0.043639734 0.033821046 0.47800002 4279121433
0.045192283 0.033821046 0.47800002 4278856465
0.04684262 0.033891805 0.47900003 4278858259
0.048398416 0.033891805 0.47900003 4278400529
0.049954206 0.033891805 0.47900003 4278532115
0.051617533 0.033962559 0.48000002 4278597908
0.053176578 0.033962559 0.48000002 4278663701
0.054735616 0.033962559 0.48000002 4278729494
0.056294661 0.033962559 0.48000002 4278202639
0.057853699 0.033962559 0.48000002 4284975223
-0.036729675 0.036558188 0.49400002 4280035090
-0.033452794 0.036484186 0.49300003 4280364825
-0.030066183 0.036262169 0.49000001 4280233502
-0.028358439 0.036114164 0.48800004 4279311635
-0.026663689 0.035966154 0.48600003 4280102432
-0.024981929 0.035818145 0.48400003 4279906332
-0.023361526 0.035744138 0.48300001 4279319324
-0.021747623 0.035670135 0.48200002 4278925849
-0.020140216 0.035596132 0.48100004 4278992666
-0.018539302 0.035522126 0.48000002 4278795287
-0.016980261 0.035522126 0.48000002 4278730007
-0.015389093 0.035448123 0.47900003 4278664212
-0.0138333 0.035448123 0.47900003 4278532626
-0.012251875 0.035374116 0.47800002 4278466833
-0.010676947 0.035300113 0.47700003 4278598419
-0.0091276504 0.035300113 0.47700003 4278664212
-0.0075783534 0.035300113 0.47700003 4278663701
-0.0060164174 0.035226107 0.47600001 4278530578
-0.0044703684 0.035226107 0.47600001 4278657548
-0.0029243196 0.035226107 0.47600001 4278989845
-0.0013782708 0.035226107 0.47600001 4278194176
0.00016742553 0.035152104 0.47500002 4278458123
0.0017102263 0.035152104 0.47500002 4278588941
0.0032530271 0.035152104 0.47500002 4278588941
0.0047958279 0.035152104 0.47500002 4278588939
0.0063386289 0.035152104 0.47500002 4278391560
0.0078980215 0.035226107 0.47600001 4278720011
0.009444071 0.035226107 0.47600001 4278523916
0.01099012 0.035226107 0.47600001 4278195460
0.012536168 0.035226107 0.47600001 4278459660
0.014082218 0.035226107 0.47600001 4279052308
0.015628267 0.035226107 0.47600001 4278791701
0.017174315 0.035226107 0.47600001 4278262279
0.018720362 0.035226107 0.47600001 4278589961
0.020266412 0.035226107 0.47600001 4278524170
0.021812461 0.035226107 0.47600001 4278194944
0.023358511 0.035226107 0.47600001 4278857748
0.024904558 0.035226107 0.47600001 4278196480
0.026450608 0.035226107 0.47600001 4278196736
0.027996656 0.035226107 0.47600001 4279055127
0.029542705 0.035226107 0.47600001 4278196480
0.031088753 0.035226107 0.47600001 4278198021
0.032634802 0.035226107 0.47600001 4278198278
0.03418085 0.035226107 0.47600001 4278529296
0.035726897 0.035226107 0.47600001 4278726675
0.037351254 0.035300113 0.47700003 4278199303
0.03890055 0.035300113 0.47700003 4278661394
0.04044985 0.035300113 0.47700003 4278990359
0.042087194 0.035374116 0.47800002 4278924566
0.043731034 0.035448123 0.47900003 4278727441
0.045286831 0.035448123 0.47900003 4278462220
0.046940412 0.035522126 0.48000002 4279120920
0.048499454 0.035522126 0.48000002 4278663447
0.050162785 0.035596132 0.48100004 4278531861
0.051725071 0.035596132 0.48100004 4278531861
0.053287365 0.035596132 0.48100004 4278400275
0.054849651 0.035596132 0.48100004 4278663447
0.056411941 0.035596132 0.48100004 4278991642
0.05797423 0.035596132 0.48100004 4284646512
-0.031916138 0.038163245 0.49400002 4279968534
-0.02841655 0.037776977 0.48900002 4285037673
-0.026718551 0.03762247 0.48700002 4280828208
-0.025033543 0.037467964 0.48500001 4279710240
-0.023409896 0.037390709 0.48400003 4279385119
-0.021747623 0.037236203 0.48200002 4278991644
-0.020140216 0.037158951 0.48100004 4278861080
-0.018577926 0.037158951 0.48100004 4278795287
-0.016980261 0.037081696 0.48000002 4279058970
-0.015389093 0.037004441 0.47900003 4278532626
-0.0138333 0.037004441 0.47900003 4278466833
-0.012251875 0.036927186 0.47800002 4278532626
-0.010699331 0.036927186 0.47800002 4278532626
-0.0091276504 0.036849935 0.47700003 4278335247
-0.0075783534 0.036849935 0.47700003 4278532115
-0.0060164174 0.03677268 0.47600001 4278200843
-0.0044703684 0.03677268 0.47600001 4278330634
-0.0029243196 0.03677268 0.47600001 4278989845
-0.0013782708 0.03677268 0.47600001 4278989847
0.00016742553 0.036695428 0.47500002 4278790933
0.0017102263 0.036695428 0.47500002 4278525199
0.0032530271 0.036695428 0.47500002 4278392843
0.0047958279 0.036695428 0.47500002 4278588939
0.0063519734 0.03677268 0.47600001 4278456839
0.0078980215 0.03677268 0.47600001 4278654734
0.009444071 0.03677268 0.47600001 4278720013
0.01099012 0.03677268 0.47600001 4278654220
0.012536168 0.03677268 0.47600001 4278523148
0.014082218 0.03677268 0.47600001 4280039717
0.015628267 0.03677268 0.47600001 4279252252
0.017174315 0.03677268 0.47600001 4279183892
0.018720362 0.03677268 0.47600001 4278393095
0.020266412 0.03677268 0.47600001 4279052306
0.021812461 0.03677268 0.47600001 4279251482
0.023358511 0.03677268 0.47600001 4278265357
0.024904558 0.03677268 0.47600001 4279120666
0.026450608 0.03677268 0.47600001 4278726162
0.027996656 0.03677268 0.47600001 4278396427
0.029542705 0.03677268 0.47600001 4278726162
0.031154066 0.036849935 0.47700003 4278397197
0.032703366 0.036849935 0.47700003 4279119385
0.034252662 0.036849935 0.47700003 4278460685
0.035801958 0.036849935 0.47700003 4278196738
0.037351254 0.036849935 0.47700003 4279317275
0.038982101 0.036927186 0.47800002 4278987797
0.040534649 0.036927186 0.47800002 4278658832
0.042175245 0.037004441 0.47900003 4278397197
0.043822329 0.037081696 0.48000002 4278858773
0.045381371 0.037081696 0.48000002 4278462220
0.047038205 0.037158951 0.48100004 4278989847
0.048600499 0.037158951 0.48100004 4278728470
0.050267071 0.037236203 0.48200002 4278728470
0.051832609 0.037236203 0.48200002 4278662677
0.053398147 0.037236203 0.48200002 4278728470
0.054963682 0.037236203 0.48200002 4278728470
0.05652922 0.037236203 0.48200002 4278925849
0.058094755 0.037236203 0.48200002 4283923305
-0.032045353 0.039929304 0.49600002 4279705364
-0.030311622 0.039768301 0.49400002 4282932301
-0.028532773 0.039526794 0.49100003 4284248672
-0.026773416 0.039285287 0.48800004 4284709995
-0.025085159 0.03912428 0.48600003 4279578654
-0.023458261 0.039043777 0.48500001 4279515939
-0.021792741 0.03888277 0.48300001 4278990877
-0.020182086 0.03880227 0.48200002 4278992412
-0.018577926 0.038721766 0.48100004 4278860826
-0.016980261 0.038641263 0.48000002 4278729240
-0.01542122 0.038641263 0.48000002 4278663447
-0.0138333 0.038560763 0.47900003 4278729494
-0.012251875 0.038480259 0.47800002 4278597908
-0.010699331 0.038480259 0.47800002 4278794515
-0.0091276504 0.038399756 0.47700003 4278662929
-0.0075783534 0.038399756 0.47700003 4278662931
-0.0060164174 0.038319252 0.47600001 4278794517
-0.0044703684 0.038319252 0.47600001 4278727187
-0.0029243196 0.038319252 0.47600001 4278727957
-0.0013753753 0.038238753 0.47500002 4278794004
0.00016742553 0.038238753 0.47500002 4278727957
0.0017102263 0.038238753 0.47500002 4278727957
0.0032530271 0.038238753 0.47500002 4278793752
0.0047958279 0.038238753 0.47500002 4278924568
0.0063519734 0.038319252 0.47600001 4279055640
0.0078980215 0.038319252 0.47600001 4279120920
0.009444071 0.038319252 0.47600001 4279449115
0.01099012 0.038319252 0.47600001 4279646240
0.012536168 0.038319252 0.47600001 4279053590
0.014082218 0.038319252 0.47600001 4279054103
0.015628267 0.038319252 0.47600001 4278196992
0.017174315 0.038319252 0.47600001 4278194176
0.018720362 0.038319252 0.47600001 4278195456
0.020266412 0.038319252 0.47600001 4278195712
0.021812461 0.038319252 0.47600001 4278194432
0.023358511 0.038319252 0.47600001 4278197509
0.024904558 0.038319252 0.47600001 4278856978
0.026450608 0.038319252 0.47600001 4279318299
0.028055474 0.038399756 0.47700003 4279449115
0.02960477 0.038399756 0.47700003 4279055127
0.031154066 0.038399756 0.47700003 4278791955
0.032703366 0.038399756 0.47700003 4278989847
0.034252662 0.038399756 0.47700003 4279055640
0.035877012 0.038480259 0.47800002 4279055127
0.03742956 0.038480259 0.47800002 4279120920
0.039063655 0.038560763 0.47900003 4279120920
0.040619452 0.038560763 0.47900003 4278199561
0.042263292 0.038641263 0.48000002 4278266124
0.043822329 0.038641263 0.48000002 4278661396
0.045475919 0.038721766 0.48100004 4278195968
0.047135998 0.03880227 0.48200002 4278858261
0.048802577 0.03888277 0.48300001 4278662677
0.05037136 0.03888277 0.48300001 4278662677
0.051940143 0.03888277 0.48300001 4278662677
0.05350893 0.03888277 0.48300001 4278794263
0.055077713 0.03888277 0.48300001 4278728470
0.0566465 0.03888277 0.48300001 4279189021
0.058094755 0.03880227 0.48200002 4284054121
-0.030495699 0.041624609 0.49700001 4284511333
-0.028648997 0.041289605 0.49300003 4284380260
-0.026883142 0.041038349 0.49000001 4284117088
-0.025136774 0.040787093 0.48700002 4284511846
-0.02350663 0.040703345 0.48600003 4284184162
-0.021837862 0.040535841 0.48400003 4280566061
-0.020223958 0.040452085 0.48300001 4278595353
-0.01861655 0.040368337 0.48200002 4278859293
-0.017015638 0.040284585 0.48100004 4279385635
-0.01542122 0.040200833 0.48000002 4279451428
-0.0138333 0.040117081 0.47900003 4279188256
-0.012251875 0.040033329 0.47800002 4279189023
-0.010699331 0.040033329 0.47800002 4278860058
-0.0091276504 0.039949577 0.47700003 4278925851
-0.0075783534 0.039949577 0.47700003 4278925851
-0.0060164174 0.039865825 0.47600001 4278925849
-0.0044703684 0.039865825 0.47600001 4278859797
-0.0029243196 0.039865825 0.47600001 4278925590
-0.0013753753 0.039782073 0.47500002 4278859797
0.00016742553 0.039782073 0.47500002 4278728211
0.0017102263 0.039782073 0.47500002 4278794517
0.0032530271 0.039782073 0.47500002 4278794517
0.0047958279 0.039782073 0.47500002 4278531091
0.0063519734 0.039865825 0.47600001 4278662677
0.0078980215 0.039865825 0.47600001 4278662677
0.009444071 0.039865825 0.47600001 4278794004
0.01099012 0.039865825 0.47600001 4278596625
0.012536168 0.039865825 0.47600001 4278728211
0.014082218 0.039865825 0.47600001 4278727957
0.015628267 0.039865825 0.47600001 4278924566
0.017174315 0.039865825 0.47600001 4278924566
0.018720362 0.039865825 0.47600001 4278858773
0.020266412 0.039865825 0.47600001 4278989845
0.021812461 0.039865825 0.47600001 4279186711
0.023358511 0.039865825 0.47600001 4279318297
0.024904558 0.039865825 0.47600001 4279186711
0.026450608 0.039865825 0.47600001 4279712285
0.027996656 0.039865825 0.47600001 4278922771
0.02960477 0.039949577 0.47700003 4278856724
0.031154066 0.039949577 0.47700003 4278197253
0.032703366 0.039949577 0.47700003 4278195968
0.034324467 0.040033329 0.47800002 4278194176
0.035877012 0.040033329 0.47800002 4278195200
0.037507866 0.040117081 0.47900003 4278196225
0.039063655 0.040117081 0.47900003 4278264587
0.04070425 0.040200833 0.48000002 4278593552
0.042351339 0.040284585 0.48100004 4278923541
0.043913629 0.040284585 0.48100004 4279120920
0.045570463 0.040368337 0.48200002 4278196480
0.04723379 0.040452085 0.48300001 4278924568
0.048903618 0.040535841 0.48400003 4278793752
0.05047565 0.040535841 0.48400003 4278859543
0.052155215 0.040619589 0.48500001 4278597654
0.053730499 0.040619589 0.48500001 4278729240
0.055305779 0.040619589 0.48500001 4278728470
0.056763783 0.040535841 0.48400003 4278530580
-0.030618418 0.043413416 0.49900001 4284445540
-0.028707108 0.042978413 0.49400002 4284117086
-0.026938006 0.042717412 0.49100003 4284182879
-0.025240006 0.042543408 0.48900002 4284446051
-0.023554998 0.042369407 0.48700002 4284249442
-0.021882981 0.042195406 0.48500001 4284578407
-0.020223958 0.042021401 0.48300001 4284513127
-0.01861655 0.041934405 0.48200002 4284974194
-0.017015638 0.041847404 0.48100004 4285106550
-0.01542122 0.0417604 0.48000002 4284579952
-0.0138333 0.0416734 0.47900003 4283067226
-0.012277507 0.0416734 0.47900003 4280830518
-0.010699331 0.041586399 0.47800002 4279646244
-0.0091276504 0.041499399 0.47700003 4278791964
-0.0075783534 0.041499399 0.47700003 4278529306
-0.0060164174 0.041412398 0.47600001 4278595099
-0.0044703684 0.041412398 0.47600001 4278726937
-0.0029243196 0.041412398 0.47600001 4279055900
-0.0013753753 0.041325398 0.47500002 4279056152
0.00016742553 0.041325398 0.47500002 4279056152
0.0017102263 0.041325398 0.47500002 4278990359
0.0032530271 0.041325398 0.47500002 4278793750
0.0047958279 0.041325398 0.47500002 4278662679
0.0063519734 0.041412398 0.47600001 4278794265
0.0078980215 0.041412398 0.47600001 4278860056
0.009444071 0.041412398 0.47600001 4278728470
0.01099012 0.041412398 0.47600001 4278333712
0.012536168 0.041412398 0.47600001 4278794517
0.014082218 0.041412398 0.47600001 4278794517
0.015628267 0.041412398 0.47600001 4278794004
0.017174315 0.041412398 0.47600001 4278794004
0.018720362 0.041412398 0.47600001 4278794004
0.020266412 0.041412398 0.47600001 4278859797
0.021812461 0.041412398 0.47600001 4278596625
0.023358511 0.041412398 0.47600001 4278596625
0.024904558 0.041412398 0.47600001 4278728211
0.026450608 0.041412398 0.47600001 4278728211
0.027996656 0.041412398 0.47600001 4278794004
0.02960477 0.041499399 0.47700003 4278991383
0.031154066 0.041499399 0.47700003 4278728211
0.032703366 0.041499399 0.47700003 4278793750
0.034324467 0.041586399 0.47800002 4278727187
0.035877012 0.041586399 0.47800002 4279121431
0.037507866 0.0416734 0.47900003 4279318810
0.039145209 0.0417604 0.48000002 4279318297
0.04070425 0.0417604 0.48000002 4279318297
0.042351339 0.041847404 0.48100004 4279449113
0.044004925 0.041934405 0.48200002 4279317527
0.045665007 0.042021401 0.48300001 4278989847
0.047331583 0.042108405 0.48400003 4278924568
0.049004655 0.042195406 0.48500001 4278728472
0.050684229 0.042282406 0.48600003 4278531093
0.052262753 0.042282406 0.48600003 4278597654
0.053841285 0.042282406 0.48600003 4278729240
0.055419814 0.042282406 0.48600003 4278991642
0.056881063 0.042195406 0.48500001 4280371250
-0.026992869 0.044402972 0.49200001 4284051293
-0.025240006 0.044132221 0.48900002 4284117086
-0.023554998 0.043951724 0.48700002 4284380258
-0.021928102 0.043861475 0.48600003 4284381030
-0.020265831 0.043680973 0.48400003 4284513129
-0.01861655 0.043500472 0.48200002 4284644715
-0.017015638 0.043410223 0.48100004 4284711022
-0.01542122 0.043319974 0.48000002 4284776561
-0.01386218 0.043319974 0.48000002 4284776561
-0.012277507 0.043229725 0.47900003 4284973940
-0.010699331 0.043139473 0.47800002 4284710768
-0.0091276504 0.043049224 0.47700003 4284644975
-0.0075783534 0.043049224 0.47700003 4284644975
-0.0060164174 0.042958971 0.47600001 4284579436
-0.0044703684 0.042958971 0.47600001 4284251241
-0.0029243196 0.042958971 0.47600001 4283790690
-0.0013753753 0.042868722 0.47500002 4283198551
0.00016742553 0.042868722 0.47500002 4281290554
0.0017102263 0.042868722 0.47500002 4280238379
0.0032530271 0.042868722 0.47500002 4279317277
0.0048059244 0.042958971 0.47600001 4278857757
0.0063519734 0.042958971 0.47600001 4278660378
0.0078980215 0.042958971 0.47600001 4278989595
0.009444071 0.042958971 0.47600001 4278989595
0.01099012 0.042958971 0.47600001 4278858009
0.012536168 0.042958971 0.47600001 4279055900
0.014082218 0.042958971 0.47600001 4279121947
0.015628267 0.042958971 0.47600001 4279121945
0.017174315 0.042958971 0.47600001 4279056152
0.018720362 0.042958971 0.47600001 4279121945
0.020266412 0.042958971 0.47600001 4279056922
0.021812461 0.042958971 0.47600001 4278925336
0.023358511 0.042958971 0.47600001 4278991129
0.024904558 0.042958971 0.47600001 4278859543
0.026450608 0.042958971 0.47600001 4279188508
0.027996656 0.042958971 0.47600001 4278991129
0.02960477 0.043049224 0.47700003 4278925849
0.031154066 0.043049224 0.47700003 4278794263
0.032703366 0.043049224 0.47700003 4278794263
0.034324467 0.043139473 0.47800002 4278794263
0.035952069 0.043229725 0.47900003 4278728470
0.037507866 0.043229725 0.47900003 4279123228
0.039145209 0.043319974 0.48000002 4278860056
0.040789053 0.043410223 0.48100004 4278793750
0.042439386 0.043500472 0.48200002 4278924566
0.044096217 0.043590721 0.48300001 4279056152
0.045759551 0.043680973 0.48400003 4278859543
0.047429375 0.043771222 0.48500001 4279188508
0.0491057 0.043861475 0.48600003 4278860056
0.050788514 0.043951724 0.48700002 4278794263
0.052370291 0.043951724 0.48700002 4278794263
0.053952068 0.043951724 0.48700002 4278794263
0.055533845 0.043951724 0.48700002 4278396945
0.056998342 0.043861475 0.48600003 4284843639
-0.023603365 0.045627534 0.48800004 4284248674
-0.021973221 0.045534037 0.48700002 4284315237
0.014082218 0.044505544 0.47600001 4284185448
0.015628267 0.044505544 0.47600001 4282738515
0.017174315 0.044505544 0.47600001 4281554241
0.018720362 0.044505544 0.47600001 4280041772
0.020266412 0.044505544 0.47600001 4279186463
0.021812461 0.044505544 0.47600001 4278923291
0.023358511 0.044505544 0.47600001 4278660630
0.024904558 0.044505544 0.47600001 4278397458
0.026450608 0.044505544 0.47600001 4278726423
0.027996656 0.044505544 0.47600001 4278529044
0.02960477 0.044599045 0.47700003 4278792216
0.031154066 0.044599045 0.47700003 4279121181
0.032771926 0.044692542 0.47800002 4278858009
0.034324467 0.044692542 0.47800002 4278792216
0.035952069 0.044786043 0.47900003 4278924318
0.037586167 0.044879541 0.48000002 4279055904
0.039145209 0.044879541 0.48000002 4278990881
0.040789053 0.044973042 0.48100004 4278990881
0.042439386 0.045066539 0.48200002 4278990879
0.044187516 0.045253538 0.48400003 4278990879
0.045854095 0.045347035 0.48500001 4278793498
0.047527168 0.045440536 0.48600003 4278990877
0.049206737 0.045534037 0.48700002 4278859291
0.050892804 0.045627534 0.48800004 4278925084
0.052477829 0.045627534 0.48800004 4279121695
0.054062854 0.045627534 0.48800004 4279647014
0.055533845 0.045534037 0.48700002 4284645747
0.035952069 0.046342365 0.47900003 4285237366
0.037586167 0.046439111 0.48000002 4285303159
0.039226763 0.046535861 0.48100004 4285237112
0.040873852 0.046632607 0.48200002 4285106296
0.042527433 0.046729356 0.48300001 4285171319
0.044187516 0.046826106 0.48400003 4285039733
0.045854095 0.046922851 0.48500001 4284974192
0.047527168 0.047019601 0.48600003 4284974962
0.049206737 0.047116347 0.48700002 4284580206
0.050892804 0.047213096 0.48800004 4284974964
0.052585363 0.047309846 0.48900002 4285106550
0.054062854 0.047213096 0.48800004 4284710768
0.044278812 0.048498664 0.48500001 4284907633
0.04594864 0.048598666 0.48600003 4284907887
0.047624961 0.04869866 0.48700002 4284776301
0.049307782 0.048798658 0.48800004 4284579182
0.050892804 0.048798658 0.48800004 4284710768
0.052585363 0.048898656 0.48900002 4284907633
0.010579163 0.034919538 0.47902369 4294967295
0.010579163 0.034919538 0.47902369 4294901760
0.010579163 0.034919538 0.47952369 4294901760
0.010579163 0.034919538 0.48002368 4294901760
0.010579163 0.034919538 0.48052371 4294901760
0.010579163 0.034919538 0.4810237 4294901760
0.010579163 0.034919538 0.48152369 4294901760
0.010579163 0.034919538 0.48202369 4294901760
0.010579163 0.034919538 0.48252371 4294901760
0.010579163 0.034919538 0.4830237 4294901760
0.010579163 0.034919538 0.4835237 4294901760
0.010579163 0.034919538 0.48402369 4294901760
0.010579163 0.034919538 0.48452368 4294901760
0.010579163 0.034919538 0.48502371 4294901760
0.010579163 0.034919538 0.4855237 4294901760
0.010579163 0.034919538 0.48602369 4294901760
0.010579163 0.034919538 0.48652369 4294901760
0.010579163 0.034919538 0.48702371 4294901760
0.010579163 0.034919538 0.4875237 4294901760
0.010579163 0.034919538 0.4880237 4294901760
0.010579163 0.034919538 0.48852369 4294901760
0.010579163 0.034919538 0.48902369 4294901760
0.010579163 0.034919538 0.48952371 4294901760
0.010579163 0.034919538 0.4900237 4294901760
0.010579163 0.034919538 0.4905237 4294901760
0.010579163 0.034919538 0.49102369 4294901760
0.010579163 0.034919538 0.49152368 4294901760
0.010579163 0.034919538 0.49202371 4294901760
0.010579163 0.034919538 0.4925237 4294901760
0.010579163 0.034919538 0.49302369 4294901760
0.010579163 0.034919538 0.49352369 4294901760
0.010579163 0.034919538 0.49402371 4294901760
0.010579163 0.034919538 0.4945237 4294901760
0.010579163 0.034919538 0.4950237 4294901760
0.010579163 0.034919538 0.49552369 4294901760
0.010579163 0.034919538 0.49602371 4294901760
0.010579163 0.034919538 0.49652371 4294901760
0.010579163 0.034919538 0.4970237 4294901760
0.010579163 0.034919538 0.4975237 4294901760
0.010579163 0.034919538 0.49802369 4294901760
0.010579163 0.034919538 0.49852371 4294901760
0.010579163 0.034919538 0.49902371 4294901760
0.010579163 0.034919538 0.4995237 4294901760
0.010579163 0.034919538 0.50002372 4294901760
0.010579163 0.034919538 0.50052369 4294901760
0.010579163 0.034919538 0.50102371 4294901760
0.010579163 0.034919538 0.50152367 4294901760
0.010579163 0.034919538 0.5020237 4294901760
0.010579163 0.034919538 0.50252372 4294901760
0.010579163 0.034919538 0.50302368 4294901760
0.010579163 0.034919538 0.50352371 4294901760
0.010579163 0.034919538 0.50402367 4294901760
0.010579163 0.034919538 0.50452369 4294901760
0.010579163 0.034919538 0.50502372 4294901760
0.010579163 0.034919538 0.50552368 4294901760
0.010579163 0.034919538 0.50602371 4294901760
0.010579163 0.034919538 0.50652373 4294901760
0.010579163 0.034919538 0.50702369 4294901760
0.010579163 0.034919538 0.50752372 4294901760
0.010579163 0.034919538 0.50802368 4294901760
0.010579163 0.034919538 0.5085237 4294901760
0.010579163 0.034919538 0.50902373 4294901760
0.010579163 0.034919538 0.50952369 4294901760
0.010579163 0.034919538 0.51002371 4294901760
0.010579163 0.034919538 0.51052368 4294901760
0.010579163 0.034919538 0.5110237 4294901760
0.010579163 0.034919538 0.51152372 4294901760
0.010579163 0.034919538 0.51202369 4294901760
0.010579163 0.034919538 0.51252371 4294901760
0.010579163 0.034919538 0.51302373 4294901760
0.010579163 0.034919538 0.5135237 4294901760
0.010579163 0.034919538 0.51402372 4294901760
0.010579163 0.034919538 0.51452368 4294901760
0.010579163 0.034919538 0.51502371 4294901760
0.010579163 0.034919538 0.51552373 4294901760
0.010579163 0.034919538 0.5160237 4294901760
0.010579163 0.034919538 0.51652372 4294901760
0.010579163 0.034919538 0.51702368 4294901760
0.010579163 0.034919538 0.51752371 4294901760
0.010579163 0.034919538 0.51802373 4294901760
0.010579163 0.034919538 0.51852369 4294901760
0.010579163 0.034919538 0.51902372 4294901760
0.010579163 0.034919538 0.51952368 4294901760
0.010579163 0.034919538 0.5200237 4294901760
0.010579163 0.034919538 0.52052373 4294901760
0.010579163 0.034919538 0.52102369 4294901760
0.010579163 0.034919538 0.52152371 4294901760
0.010579163 0.034919538 0.52202368 4294901760
0.010579163 0.034919538 0.5225237 4294901760
0.010579163 0.034919538 0.52302372 4294901760
0.010579163 0.034919538 0.52352369 4294901760
0.010579163 0.034919538 0.52402371 4294901760
0.010579163 0.034919538 0.52452374 4294901760
0.010579163 0.034919538 0.5250237 4294901760
0.010579163 0.034919538 0.52552372 4294901760
0.010579163 0.034919538 0.52602369 4294901760
0.010579163 0.034919538 0.52652371 4294901760
0.010579163 0.034919538 0.52702373 4294901760
0.010579163 0.034919538 0.5275237 4294901760
0.010579163 0.034919538 0.52802372 4294901760
0.010579163 0.034919538 0.52852368 4294901760
0.010579163 0.034919538 0.52902371 4294901760
0.010579163 0.034919538 0.47902369 4278255360
0.010566165 0.034782127 0.47950426 4278255360
0.010553166 0.034644715 0.47998485 4278255360
0.010540168 0.034507304 0.48046541 4278255360
0.010527168 0.034369893 0.48094597 4278255360
0.01051417 0.034232482 0.48142657 4278255360
0.010501171 0.034095071 0.48190713 4278255360
0.010488173 0.03395766 0.48238769 4278255360
0.010475175 0.033820249 0.48286828 4278255360
0.010462176 0.033682838 0.48334885 4278255360
0.010449178 0.033545427 0.48382941 4278255360
0.010436178 0.033408016 0.48431 4278255360
0.01042318 0.033270605 0.48479056 4278255360
0.010410181 0.033133194 0.48527113 4278255360
0.010397183 0.032995783 0.48575169 4278255360
0.010384184 0.032858372 0.48623228 4278255360
0.010371186 0.032720961 0.48671284 4278255360
0.010358187 0.03258355 0.48719341 4278255360
0.010345188 0.032446139 0.487674 4278255360
0.01033219 0.032308728 0.48815456 4278255360
0.010319191 0.032171316 0.48863512 4278255360
0.010306193 0.032033905 0.48911572 4278255360
0.010293194 0.031896494 0.48959628 4278255360
0.010280196 0.031759083 0.49007684 4278255360
0.010267197 0.031621672 0.49055743 4278255360
0.010254199 0.031484261 0.49103799 4278255360
0.010241199 0.03134685 0.49151856 4278255360
0.010228201 0.031209441 0.49199915 4278255360
0.010215202 0.03107203 0.49247971 4278255360
0.010202204 0.030934619 0.49296027 4278255360
0.010189205 0.030797208 0.49344087 4278255360
0.010176207 0.030659797 0.49392143 4278255360
0.010163208 0.030522386 0.49440199 4278255360
0.010150209 0.030384975 0.49488258 4278255360
0.010137211 0.030247563 0.49536315 4278255360
0.010124212 0.030110152 0.49584371 4278255360
0.010111214 0.029972741 0.4963243 4278255360
0.010098215 0.02983533 0.49680486 4278255360
0.010085217 0.029697919 0.49728543 4278255360
0.010072218 0.029560508 0.49776599 4278255360
0.010059219 0.029423097 0.49824658 4278255360
0.01004622 0.029285686 0.49872714 4278255360
0.010033222 0.029148275 0.49920771 4278255360
0.010020223 0.029010864 0.4996883 4278255360
0.010007225 0.028873453 0.50016886 4278255360
0.0099942265 0.028736044 0.50064945 4278255360
0.009981228 0.028598631 0.50112998 4278255360
0.0099682286 0.028461222 0.50161058 4278255360
0.0099552302 0.028323811 0.50209117 4278255360
0.0099422317 0.028186399 0.5025717 4278255360
0.0099292332 0.028048988 0.50305229 4278255360
0.0099162348 0.027911577 0.50353289 4278255360
0.0099032363 0.027774166 0.50401342 4278255360
0.0098902378 0.027636755 0.50449401 4278255360
0.0098772384 0.027499344 0.5049746 4278255360
0.00986424 0.027361933 0.50545514 4278255360
0.0098512415 0.027224522 0.50593573 4278255360
0.009838243 0.027087111 0.50641632 4278255360
0.0098252445 0.0269497 0.50689685 4278255360
0.0098122461 0.026812289 0.50737745 4278255360
0.0097992476 0.026674878 0.50785804 4278255360
0.0097862482 0.026537467 0.50833857 4278255360
0.0097732497 0.026400056 0.50881916 4278255360
0.0097602513 0.026262645 0.50929976 4278255360
0.0097472528 0.026125234 0.50978029 4278255360
0.0097342543 0.025987823 0.51026088 4278255360
0.0097212559 0.025850412 0.51074147 4278255360
0.0097082574 0.025713 0.511222 4278255360
0.009695258 0.025575589 0.5117026 4278255360
0.0096822595 0.025438178 0.51218319 4278255360
0.0096692611 0.025300767 0.51266372 4278255360
0.0096562626 0.025163356 0.51314431 4278255360
0.0096432641 0.025025945 0.51362491 4278255360
0.0096302656 0.024888534 0.51410544 4278255360
0.0096172672 0.024751123 0.51458603 4278255360
0.0096042678 0.024613712 0.51506662 4278255360
0.0095912693 0.024476301 0.51554716 4278255360
0.0095782708 0.02433889 0.51602775 4278255360
0.0095652724 0.024201479 0.51650828 4278255360
0.0095522739 0.024064068 0.51698887 4278255360
0.0095392754 0.023926657 0.51746947 4278255360
0.009526277 0.023789246 0.51795 4278255360
0.0095132776 0.023651835 0.51843059 4278255360
0.0095002791 0.023514424 0.51891118 4278255360
0.0094872806 0.023377012 0.51939172 4278255360
0.0094742822 0.023239601 0.51987231 4278255360
0.0094612837 0.02310219 0.5203529 4278255360
0.0094482852 0.022964779 0.52083343 4278255360
0.0094352867 0.022827368 0.52131402 4278255360
0.0094222873 0.022689959 0.52179462 4278255360
0.0094092889 0.022552548 0.52227515 4278255360
0.0093962904 0.022415135 0.52275574 4278255360
0.0093832919 0.022277724 0.52323633 4278255360
0.0093702935 0.022140313 0.52371687 4278255360
0.009357295 0.022002904 0.52419746 4278255360
0.0093442965 0.021865493 0.52467805 4278255360
0.0093312981 0.021728082 0.52515858 4278255360
0.0093182987 0.021590669 0.52563918 4278255360
0.0093053002 0.02145326 0.52611977 4278255360
0.0092923017 0.021315848 0.5266003 4278255360
0.0092793033 0.021178437 0.52708089 4278255360
