# .PCD v0.7 - Point Cloud Data file format
VERSION 0.7
FIELDS x y z rgb
SIZE 4 4 4 4
TYPE F F F U
COUNT 1 1 1 1
WIDTH 1029
HEIGHT 1
VIEWPOINT 0 0 0 1 0 0 0
POINTS 1029
DATA ascii
0.033436533 -0.0069578765 0.41000003 4278923037
0.035395507 -0.0042098351 0.40200001 4278862363
0.036518607 -0.0041888906 0.40000001 4279850283
0.037723266 -0.0041784183 0.39900002 4280047664
0.03901922 -0.0041784183 0.39900002 4279849520
0.036427312 -0.0028820266 0.39900002 4278862875
0.037628721 -0.0028748037 0.39800003 4278600984
0.038921427 -0.0028748037 0.39800003 4278996255
0.040214133 -0.0028748037 0.39800003 4279456810
0.041402545 -0.0028675804 0.39700001 4279127591
0.04279954 -0.0028748037 0.39800003 4279257896
0.096968703 -0.0031203898 0.43200001 4279587111
0.098371841 -0.0031203898 0.43200001 4279718697
0.035043314 -0.0015816611 0.39800003 4278529808
0.036336016 -0.0015816611 0.39800003 4278664214
0.037628721 -0.0015816611 0.39800003 4278533910
0.038921427 -0.0015816611 0.39800003 4278337814
0.040214133 -0.0015816611 0.39800003 4278470681
0.041506838 -0.0015816611 0.39800003 4278997025
0.04279954 -0.0015816611 0.39800003 4283010398
0.044092245 -0.0015816611 0.39800003 4279917107
0.045384951 -0.0015816611 0.39800003 4279260201
0.094162427 -0.0017167777 0.43200001 4278667544
0.095565572 -0.0017167777 0.43200001 4278864923
0.096968703 -0.0017167777 0.43200001 4278404372
0.098371841 -0.0017167777 0.43200001 4278864923
0.099774979 -0.0017167777 0.43200001 4278996509
0.10117811 -0.0017167777 0.43200001 4278733337
0.10258125 -0.0017167777 0.43200001 4278930716
0.035043314 -0.00028851826 0.39800003 4278923541
0.036336016 -0.00028851826 0.39800003 4278859543
0.037628721 -0.00028851826 0.39800003 4278795798
0.038921427 -0.00028851826 0.39800003 4278533396
0.040214133 -0.00028851826 0.39800003 4278469398
0.041506838 -0.00028851826 0.39800003 4278733083
0.04279954 -0.00028851826 0.39800003 4278470681
0.044092245 -0.00028851826 0.39800003 4278471195
0.045498982 -0.00028924318 0.39900002 4278668574
0.046912216 -0.00028996807 0.40000001 4278734367
0.048331946 -0.00029069302 0.40100002 4278865953
0.049634393 -0.00029069302 0.40100002 4278405402
0.051063862 -0.00029141793 0.40200001 4278668574
0.052369561 -0.00029141793 0.40200001 4278471195
0.095344357 -0.00031244062 0.43100002 4278601238
0.096744239 -0.00031244062 0.43100002 4278535191
0.098144129 -0.00031244062 0.43100002 4278535191
0.099544019 -0.00031244062 0.43100002 4278600468
0.10094391 -0.00031244062 0.43100002 4278732824
0.10258125 -0.00031316554 0.43200001 4278667031
0.10398439 -0.00031316554 0.43200001 4278469398
0.10563148 -0.00031389046 0.43300003 4279127328
0.10703786 -0.00031389046 0.43300003 4279389219
0.035043314 0.0010046245 0.39800003 4278857748
0.036336016 0.0010046245 0.39800003 4278990359
0.037628721 0.0010046245 0.39800003 4278795285
0.038921427 0.0010046245 0.39800003 4278730005
0.040214133 0.0010046245 0.39800003 4278731289
0.041506838 0.0010046245 0.39800003 4278533908
0.04279954 0.0010046245 0.39800003 4278469652
0.044203028 0.0010071486 0.39900002 4278535445
0.045498982 0.0010071486 0.39900002 4278469652
0.046912216 0.0010096728 0.40000001 4278600984
0.048331946 0.001012197 0.40100002 4278404118
0.049634393 0.001012197 0.40100002 4278469911
0.051063862 0.0010147212 0.40200001 4278272532
0.052369561 0.0010147212 0.40200001 4278404118
0.05367526 0.0010147212 0.40200001 4278469911
0.054980952 0.0010147212 0.40200001 4278535704
0.05642667 0.0010172453 0.40300003 4278469398
0.057735614 0.0010172453 0.40300003 4278535445
0.059044562 0.0010172453 0.40300003 4278667031
0.060503263 0.0010197696 0.40400001 4278272273
0.07599432 0.0010525839 0.41700003 4278468880
0.077534221 0.0010551082 0.41800001 4278403087
0.082388148 0.0010652049 0.42200002 4278600466
0.083957285 0.001067729 0.42300001 4278468880
0.085331187 0.001067729 0.42300001 4278468880
0.092329852 0.0010853983 0.43000001 4278468628
0.093726493 0.0010853983 0.43000001 4278402835
0.095123135 0.0010853983 0.43000001 4278600214
0.096744239 0.0010879225 0.43100002 4278533908
0.098144129 0.0010879225 0.43100002 4278468115
0.099544019 0.0010879225 0.43100002 4278731287
0.10094391 0.0010879225 0.43100002 4278600214
0.1023438 0.0010879225 0.43100002 4278666007
0.10398439 0.0010904466 0.43200001 4278600214
0.10538752 0.0010904466 0.43200001 4278994461
0.10679066 0.0010904466 0.43200001 4279126047
0.035043314 0.0022977672 0.39800003 4278923539
0.036336016 0.0022977672 0.39800003 4278925336
0.037628721 0.0022977672 0.39800003 4278598419
0.038921427 0.0022977672 0.39800003 4278730003
0.040214133 0.0022977672 0.39800003 4278862359
0.041506838 0.0022977672 0.39800003 4278731287
0.04279954 0.0022977672 0.39800003 4278600214
0.044203028 0.0023035405 0.39900002 4278468628
0.045498982 0.0023035405 0.39900002 4278468882
0.046912216 0.0023093137 0.40000001 4278600214
0.048331946 0.002315087 0.40100002 4278600984
0.049634393 0.002315087 0.40100002 4278535191
0.051063862 0.0023208603 0.40200001 4278469398
0.052369561 0.0023208603 0.40200001 4278600214
0.05367526 0.0023208603 0.40200001 4278731802
0.055117723 0.0023266335 0.40300003 4278203147
0.05642667 0.0023266335 0.40300003 4278199552
0.057735614 0.0023266335 0.40300003 4278599189
0.059191074 0.0023324068 0.40400001 4278533908
0.060503263 0.0023324068 0.40400001 4278533908
0.061968468 0.0023381801 0.40500003 4278468115
0.063440166 0.0023439534 0.40600002 4278336529
0.067054056 0.0023785932 0.41200003 4278468115
0.068392232 0.0023785932 0.41200003 4278862875
0.069899656 0.0023843665 0.41300002 4278665496
0.071413584 0.0023901397 0.41400003 4278796566
0.072758257 0.0023901397 0.41400003 4278533394
0.074281923 0.002395913 0.41500002 4278664980
0.07599432 0.0024074595 0.41700003 4278204429
0.077534221 0.0024132328 0.41800001 4278533396
0.079080626 0.0024190061 0.41900003 4278730005
0.080633521 0.0024247793 0.42000002 4278400527
0.08219292 0.0024305528 0.42100003 4278333964
0.083758809 0.0024363259 0.42200002 4278333964
0.085331187 0.0024420992 0.42300001 4278199809
0.087115049 0.0024536457 0.42500001 4278198272
0.088703677 0.0024594192 0.42600003 4278197504
0.090298794 0.0024651925 0.42700002 4278196224
0.092115134 0.002476739 0.42900002 4278195456
0.093508527 0.002476739 0.42900002 4278194432
0.095123135 0.0024825123 0.43000001 4278196736
0.096519768 0.0024825123 0.43000001 4278198530
0.097916417 0.0024825123 0.43000001 4278266122
0.099313058 0.0024825123 0.43000001 4278199301
0.10070969 0.0024825123 0.43000001 4278728470
0.1023438 0.0024882855 0.43100002 4278665496
0.10374369 0.0024882855 0.43100002 4278862361
0.10538752 0.0024940588 0.43200001 4279059742
0.10679066 0.0024940588 0.43200001 4279519523
0.035131361 0.0035999322 0.39900002 4279516189
0.036427312 0.0035999322 0.39900002 4278991129
0.037628721 0.0035909098 0.39800003 4278664212
0.038921427 0.0035909098 0.39800003 4278730003
0.040214133 0.0035909098 0.39800003 4278993945
0.041611124 0.0035999322 0.39900002 4278664980
0.042907074 0.0035999322 0.39900002 4278666007
0.044203028 0.0035999322 0.39900002 4278600468
0.045613013 0.0036089544 0.40000001 4278403089
0.046912216 0.0036089544 0.40000001 4278600468
0.048331946 0.003617977 0.40100002 4278666007
0.049758166 0.0036269992 0.40200001 4278468628
0.051063862 0.0036269992 0.40200001 4278402835
0.052369561 0.0036269992 0.40200001 4278600468
0.053808782 0.0036360216 0.40300003 4278534162
0.055117723 0.0036360216 0.40300003 4278201095
0.05642667 0.0036360216 0.40300003 4278597654
0.057878878 0.0036450441 0.40400001 4278664214
0.059191074 0.0036450441 0.40400001 4278201096
0.060653023 0.0036540665 0.40500003 4278196992
0.062121473 0.0036630889 0.40600002 4278196224
0.06359642 0.0036721111 0.40700001 4278196736
0.065237358 0.0036901559 0.40900001 4278197250
0.066891305 0.0037082008 0.41100001 4278197255
0.068392232 0.0037172232 0.41200003 4278196226
0.069899656 0.0037262456 0.41300002 4278195971
0.071413584 0.003735268 0.41400003 4278194945
0.072758257 0.003735268 0.41400003 4278924568
0.074281923 0.0037442902 0.41500002 4278661394
0.075812072 0.0037533126 0.41600001 4278990359
0.077348739 0.0037623351 0.41700003 4278726673
0.078891888 0.0037713575 0.41800001 4279319064
0.080441535 0.0037803799 0.41900003 4278858513
0.08219292 0.0037984247 0.42100003 4279516443
0.083758809 0.0038074469 0.42200002 4279516957
0.085331187 0.0038164693 0.42300001 4279845922
0.086910069 0.0038254918 0.42400002 4279056406
0.088703677 0.0038435366 0.42600003 4279187992
0.090298794 0.0038525588 0.42700002 4279188762
0.091900416 0.0038615814 0.42800003 4278991896
0.093508527 0.0038706036 0.42900002 4278991896
0.094901919 0.0038706036 0.42900002 4278861080
0.096295312 0.0038706036 0.42900002 4279058459
0.097688705 0.0038706036 0.42900002 4278992664
0.099313058 0.003879626 0.43000001 4278199815
0.10070969 0.003879626 0.43000001 4278859545
0.10210633 0.003879626 0.43000001 4278862361
0.10374369 0.0038886485 0.43100002 4278928152
0.10514357 0.0038886485 0.43100002 4278796570
0.10654346 0.0038886485 0.43100002 4279388453
0.033835407 0.0048963241 0.39900002 4278987027
0.035131361 0.0048963241 0.39900002 4279121945
0.036427312 0.0048963241 0.39900002 4278925849
0.037723266 0.0048963241 0.39900002 4278795285
0.03901922 0.0048963241 0.39900002 4278993175
0.040315174 0.0048963241 0.39900002 4278862613
0.041611124 0.0048963241 0.39900002 4278731541
0.042907074 0.0048963241 0.39900002 4278403089
0.044313814 0.0049085952 0.40000001 4278600468
0.045613013 0.0049085952 0.40000001 4278665746
0.047029499 0.0049208668 0.40100002 4278731539
0.048331946 0.0049208668 0.40100002 4278797334
0.049758166 0.0049331384 0.40200001 4278534162
0.051063862 0.0049331384 0.40200001 4278665494
0.052499834 0.0049454099 0.40300003 4278533908
0.053808782 0.0049454099 0.40300003 4278928154
0.055117723 0.0049454099 0.40300003 4278198272
0.056566685 0.0049576815 0.40400001 4279189275
0.057878878 0.0049576815 0.40400001 4278200581
0.05933759 0.0049699531 0.40500003 4278589189
0.060653023 0.0049699531 0.40500003 4278785543
0.062274482 0.0049944958 0.40700001 4278654472
0.063752681 0.0050067673 0.40800002 4278654472
0.065237358 0.0050190389 0.40900001 4278654472
0.066891305 0.0050435816 0.41100001 4278654472
0.068392232 0.0050558536 0.41200003 4278654218
0.069899656 0.0050681247 0.41300002 4278720011
0.071241081 0.0050681247 0.41300002 4278195974
0.072758257 0.0050803963 0.41400003 4279516191
0.074281923 0.0050926679 0.41500002 4278662931
0.075812072 0.005104939 0.41600001 4278794517
0.077348739 0.005117211 0.41700003 4278728722
0.078891888 0.0051294821 0.41800001 4278794515
0.080441535 0.0051417537 0.41900003 4278333453
0.081997685 0.0051540253 0.42000002 4278926103
0.083560333 0.0051662968 0.42100003 4278199810
0.085129462 0.0051785684 0.42200002 4278333453
0.086910069 0.0052031111 0.42400002 4278729494
0.088495448 0.0052153827 0.42500001 4278992666
0.090087324 0.0052276542 0.42600003 4278991896
0.09168569 0.0052399258 0.42700002 4278531345
0.09329056 0.0052521974 0.42800003 4278465552
0.094680704 0.0052521974 0.42800003 4278333966
0.096295312 0.0052644685 0.42900002 4278202636
0.097688705 0.0052644685 0.42900002 4279124250
0.099082097 0.0052644685 0.42900002 4278196480
0.10047549 0.0052644685 0.42900002 4279189021
0.10210633 0.0052767401 0.43000001 4278862361
0.10350298 0.0052767401 0.43000001 4278993945
0.10514357 0.0052890116 0.43100002 4279059742
0.10654346 0.0052890116 0.43100002 4279124511
0.032621007 0.0062082363 0.40000001 4280104735
0.03392021 0.0062082363 0.40000001 4279448600
0.035131361 0.0061927158 0.39900002 4279319324
0.036427312 0.0061927158 0.39900002 4279254301
0.037723266 0.0061927158 0.39900002 4278268943
0.03901922 0.0061927158 0.39900002 4278795796
0.040315174 0.0061927158 0.39900002 4278863127
0.041611124 0.0061927158 0.39900002 4278665748
0.043014612 0.0062082363 0.40000001 4278600468
0.044313814 0.0062082363 0.40000001 4278600468
0.045613013 0.0062082363 0.40000001 4278468882
0.047029499 0.0062237573 0.40100002 4278797845
0.04845247 0.0062392773 0.40200001 4278666259
0.049758166 0.0062392773 0.40200001 4278600468
0.05119089 0.0062547983 0.40300003 4278731800
0.052499834 0.0062547983 0.40300003 4278468628
0.053808782 0.0062547983 0.40300003 4279649826
0.055254489 0.0062703188 0.40400001 4278789902
0.056566685 0.0062703188 0.40400001 4279188762
0.058022145 0.0062858397 0.40500003 4278198016
0.05933759 0.0062858397 0.40500003 4278918926
0.060802784 0.0063013597 0.40600002 4278851851
0.062274482 0.0063168802 0.40700001 4279049744
0.063752681 0.0063324012 0.40800002 4279707674
0.065237358 0.0063479217 0.40900001 4280366885
0.066891305 0.0063789627 0.41100001 4279380760
0.068392232 0.0063944836 0.41200003 4278920209
0.069899656 0.0064100041 0.41300002 4279774748
0.071241081 0.0064100041 0.41300002 4278263306
0.072758257 0.0064255251 0.41400003 4279188508
0.074281923 0.0064410456 0.41500002 4278199045
0.075812072 0.0064565656 0.41600001 4278197511
0.077348739 0.0064720865 0.41700003 4279186713
0.078891888 0.006487607 0.41800001 4278793750
0.080441535 0.006503128 0.41900003 4278859797
0.081997685 0.006518648 0.42000002 4278200585
0.083560333 0.006534169 0.42100003 4279714852
0.085129462 0.0065496895 0.42200002 4278201353
0.086705089 0.0065652099 0.42300001 4278529548
0.088495448 0.0065962509 0.42500001 4278265863
0.090087324 0.0066117719 0.42600003 4278857746
0.09168569 0.0066272924 0.42700002 4279648291
0.09329056 0.0066428133 0.42800003 4278266638
0.094680704 0.0066428133 0.42800003 4278660882
0.096070848 0.0066428133 0.42800003 4278199817
0.097688705 0.0066583334 0.42900002 4278991896
0.099082097 0.0066583334 0.42900002 4278199301
0.10047549 0.0066583334 0.42900002 4278795033
0.10186888 0.0066583334 0.42900002 4279059740
0.10350298 0.0066738538 0.43000001 4278797082
0.10489962 0.0066738538 0.43000001 4279387937
0.10654346 0.0066893748 0.43100002 4278662931
0.032621007 0.007507877 0.40000001 4279118351
0.03392021 0.007507877 0.40000001 4279712285
0.035219409 0.007507877 0.40000001 4279188508
0.036518607 0.007507877 0.40000001 4278925590
0.03781781 0.007507877 0.40000001 4279058457
0.039117008 0.007507877 0.40000001 4278664980
0.040416211 0.007507877 0.40000001 4278994199
0.04171541 0.007507877 0.40000001 4278665234
0.043014612 0.007507877 0.40000001 4278403089
0.044313814 0.007507877 0.40000001 4278600468
0.045727048 0.0075266473 0.40100002 4278666261
0.047146775 0.0075454167 0.40200001 4278732054
0.04845247 0.0075454167 0.40200001 4278600468
0.049881946 0.0075641866 0.40300003 4278666261
0.05119089 0.0075641866 0.40300003 4278665748
0.052499834 0.0075641866 0.40300003 4278665748
0.0539423 0.007582956 0.40400001 4278794004
0.055254489 0.007582956 0.40400001 4279318810
0.056566685 0.007582956 0.40400001 4279582750
0.058022145 0.0076017259 0.40500003 4278198021
0.059484098 0.0076204957 0.40600002 4279709725
0.060802784 0.0076204957 0.40600002 4278788623
0.062274482 0.0076392652 0.40700001 4279577371
0.063752681 0.007658035 0.40800002 4278195461
0.065237358 0.0076768044 0.40900001 4278854418
0.066891305 0.0077143437 0.41100001 4278196488
0.068392232 0.0077331141 0.41200003 4279183894
0.069730408 0.0077331141 0.41200003 4278262792
0.071241081 0.0077518835 0.41300002 4279054873
0.072758257 0.0077706533 0.41400003 4278596371
0.074281923 0.0077894228 0.41500002 4278393095
0.075812072 0.0078081922 0.41600001 4278590476
0.077163242 0.0078081922 0.41600001 4279316762
0.078703158 0.0078269625 0.41700003 4279647775
0.080249548 0.0078457315 0.41800001 4278333199
0.08180245 0.0078645013 0.41900003 4278267406
0.083361842 0.0078832712 0.42000002 4278464015
0.08492773 0.0079020411 0.42100003 4279122199
0.086705089 0.0079395799 0.42300001 4278198528
0.088287227 0.0079583498 0.42400002 4278595341
0.089875855 0.0079771196 0.42500001 4279253019
0.091470972 0.0079958895 0.42600003 4278529296
0.093072586 0.0080146594 0.42700002 4279121947
0.094680704 0.0080334293 0.42800003 4279121947
0.096070848 0.0080334293 0.42800003 4279583779
0.097460993 0.0080334293 0.42800003 4279649572
0.099082097 0.0080521982 0.42900002 4278531091
0.10047549 0.0080521982 0.42900002 4279058718
0.10186888 0.0080521982 0.42900002 4278796568
0.10350298 0.0080709681 0.43000001 4279059738
0.10489962 0.0080709681 0.43000001 4279913768
0.10654346 0.008089738 0.43100002 4283792996
0.031400111 0.0088295368 0.40100002 4283327307
0.032702558 0.0088295368 0.40100002 4279579416
0.034005009 0.0088295368 0.40100002 4279317527
0.035307456 0.0088295368 0.40100002 4279188762
0.036518607 0.0088075176 0.40000001 4278926101
0.03781781 0.0088075176 0.40000001 4278730005
0.039117008 0.0088075176 0.40000001 4278664982
0.040416211 0.0088075176 0.40000001 4278665494
0.04171541 0.0088075176 0.40000001 4278797080
0.04312215 0.0088295368 0.40100002 4278534162
0.044424601 0.0088295368 0.40100002 4278731541
0.045727048 0.0088295368 0.40100002 4278666261
0.047146775 0.0088515552 0.40200001 4278666261
0.04845247 0.0088515552 0.40200001 4278666261
0.049881946 0.0088735744 0.40300003 4278665748
0.05119089 0.0088735744 0.40300003 4278534162
0.052630108 0.0088955928 0.40400001 4278665748
0.0539423 0.0088955928 0.40400001 4278198787
0.055254489 0.0088955928 0.40400001 4279582750
0.056706704 0.008917612 0.40500003 4279911715
0.058022145 0.008917612 0.40500003 4278393863
0.059484098 0.0089396304 0.40600002 4278590476
0.060802784 0.0089396304 0.40600002 4278591759
0.062274482 0.0089616496 0.40700001 4278920211
0.063752681 0.0089836689 0.40800002 4278196488
0.065237358 0.0090056872 0.40900001 4278458377
0.066891305 0.0090497248 0.41100001 4278524170
0.068392232 0.009071744 0.41200003 4278459658
0.069730408 0.009071744 0.41200003 4278328074
0.071241081 0.0090937624 0.41300002 4279055900
0.072758257 0.0091157816 0.41400003 4278727957
0.074281923 0.0091378 0.41500002 4278194432
0.075629838 0.0091378 0.41500002 4278393867
0.077163242 0.0091598183 0.41600001 4279121947
0.078703158 0.0091818376 0.41700003 4279582498
0.080249548 0.0092038559 0.41800001 4279254301
0.08180245 0.0092258751 0.41900003 4279649059
0.083361842 0.0092478935 0.42000002 4279648543
0.08492773 0.0092699127 0.42100003 4279451164
0.086500116 0.0092919311 0.42200002 4279386141
0.088287227 0.0093359696 0.42400002 4279254555
0.089875855 0.0093579879 0.42500001 4279056152
0.091470972 0.0093800072 0.42600003 4278990359
0.093072586 0.0094020255 0.42700002 4278199301
0.094680704 0.0094240448 0.42800003 4278198530
0.096070848 0.0094240448 0.42800003 4278196992
0.097460993 0.0094240448 0.42800003 4278199301
0.099082097 0.0094460631 0.42900002 4279320861
0.10047549 0.0094460631 0.42900002 4279058970
0.10186888 0.0094460631 0.42900002 4279190556
0.10326228 0.0094460631 0.42900002 4279125535
0.10489962 0.0094680814 0.43000001 4280173871
0.032784112 0.010157694 0.40200001 4279514393
0.034005009 0.010132426 0.40100002 4279450396
0.035307456 0.010132426 0.40100002 4279123482
0.036609907 0.010132426 0.40100002 4278728722
0.037912354 0.010132426 0.40100002 4278795798
0.039214805 0.010132426 0.40100002 4278928154
0.040517252 0.010132426 0.40100002 4278731287
0.041819703 0.010132426 0.40100002 4278666007
0.04312215 0.010132426 0.40100002 4278666007
0.044535384 0.010157694 0.40200001 4278600468
0.045841079 0.010157694 0.40200001 4278666261
0.047146775 0.010157694 0.40200001 4278666261
0.048573002 0.010182963 0.40300003 4278732054
0.049881946 0.010182963 0.40300003 4278600468
0.051317912 0.01020823 0.40400001 4278665494
0.052630108 0.01020823 0.40400001 4278599187
0.0539423 0.01020823 0.40400001 4278198537
0.055391259 0.010233498 0.40500003 4278857748
0.056706704 0.010233498 0.40500003 4278858261
0.058165409 0.010258766 0.40600002 4278458888
0.059484098 0.010258766 0.40600002 4278654732
0.06095254 0.010284034 0.40700001 4278588939
0.062274482 0.010284034 0.40700001 4278523148
0.063752681 0.010309302 0.40800002 4278654732
0.065237358 0.010334569 0.40900001 4278720011
0.066728555 0.010359838 0.41000003 4278785804
0.068226233 0.010385105 0.41100001 4278720011
0.069730408 0.010410374 0.41200003 4278193923
0.071241081 0.010435641 0.41300002 4278594576
0.072758257 0.010460909 0.41400003 4278265611
0.074281923 0.010486177 0.41500002 4278197252
0.075629838 0.010486177 0.41500002 4278196481
0.077163242 0.010511445 0.41600001 4278194688
0.078703158 0.010536713 0.41700003 4278195712
0.080057569 0.010536713 0.41700003 4278194432
0.081607215 0.01056198 0.41800001 4278198793
0.083163366 0.010587249 0.41900003 4278199561
0.084725998 0.010612517 0.42000002 4278726160
0.086500116 0.010663052 0.42200002 4279055125
0.088078998 0.01068832 0.42300001 4279515676
0.089875855 0.010738856 0.42500001 4279779361
0.091470972 0.010764124 0.42600003 4279253017
0.093072586 0.010789392 0.42700002 4279647775
0.094680704 0.01081466 0.42800003 4280042533
0.096070848 0.01081466 0.42800003 4279450910
0.097460993 0.01081466 0.42800003 4279319324
0.099082097 0.010839928 0.42900002 4279320859
0.10047549 0.010839928 0.42900002 4279190043
0.10186888 0.010839928 0.42900002 4279321631
0.10326228 0.010839928 0.42900002 4279516705
0.028938832 0.011492351 0.40300003 4280365088
0.032784112 0.011463834 0.40200001 4279318299
0.034089811 0.011463834 0.40200001 4279253019
0.035395507 0.011463834 0.40200001 4278991896
0.036701199 0.011463834 0.40200001 4278795287
0.037912354 0.011435317 0.40100002 4278861078
0.039214805 0.011435317 0.40100002 4279058970
0.040517252 0.011435317 0.40100002 4278665494
0.041923989 0.011463834 0.40200001 4278534162
0.043229684 0.011463834 0.40200001 4278468882
0.044535384 0.011463834 0.40200001 4278666261
0.045955114 0.011492351 0.40300003 4278468628
0.047264058 0.011492351 0.40300003 4278666007
0.048573002 0.011492351 0.40300003 4278666007
0.050005723 0.011520868 0.40400001 4278600214
0.051317912 0.011520868 0.40400001 4278665494
0.052630108 0.011520868 0.40400001 4279059740
0.054075826 0.011549385 0.40500003 4278792466
0.055391259 0.011549385 0.40500003 4279385371
0.056706704 0.011549385 0.40500003 4279121947
0.058165409 0.011577902 0.40600002 4278196484
0.059484098 0.011577902 0.40600002 4278195463
0.06095254 0.011606419 0.40700001 4278657039
0.062274482 0.011606419 0.40700001 4278657039
0.063752681 0.011634936 0.40800002 4279381275
0.065237358 0.011663453 0.40900001 4279579166
0.066728555 0.01169197 0.41000003 4279974694
0.068226233 0.011720487 0.41100001 4279778080
0.069730408 0.011749004 0.41200003 4279976229
0.071241081 0.011777521 0.41300002 4279648289
0.072758257 0.011806038 0.41400003 4279385887
0.074102931 0.011806038 0.41400003 4278925336
0.075629838 0.011834555 0.41500002 4279123228
0.077163242 0.011863071 0.41600001 4279254814
0.078514419 0.011863071 0.41600001 4279320607
0.080057569 0.01189159 0.41700003 4279123998
0.081411988 0.01189159 0.41700003 4279058205
0.082964882 0.011920106 0.41800001 4279058459
0.084524274 0.011948623 0.41900003 4278992666
0.086500116 0.012034174 0.42200002 4279190043
0.088078998 0.01206269 0.42300001 4279058457
0.089875855 0.012119724 0.42500001 4279255838
0.091470972 0.012148242 0.42600003 4279190045
0.093072586 0.012176759 0.42700002 4279255838
0.094680704 0.012205277 0.42800003 4279519010
0.096070848 0.012205277 0.42800003 4279715619
0.097460993 0.012205277 0.42800003 4279649313
0.099082097 0.012233793 0.42900002 4279648029
0.10047549 0.012233793 0.42900002 4280173606
0.10186888 0.012233793 0.42900002 4283264596
0.032865666 0.012801739 0.40300003 4279516191
0.034089811 0.012769973 0.40200001 4279187740
0.035395507 0.012769973 0.40200001 4279057176
0.036701199 0.012769973 0.40200001 4279123480
0.038006898 0.012769973 0.40200001 4279124250
0.039312594 0.012769973 0.40200001 4279124761
0.040618293 0.012769973 0.40200001 4278796566
0.041923989 0.012769973 0.40200001 4278731287
0.043229684 0.012769973 0.40200001 4278600214
0.04464617 0.012801739 0.40300003 4278731800
0.045955114 0.012801739 0.40300003 4278797593
0.047264058 0.012801739 0.40300003 4278666007
0.04869353 0.012833506 0.40400001 4278731802
0.050005723 0.012833506 0.40400001 4278600216
0.051317912 0.012833506 0.40400001 4278731289
0.052760381 0.012865272 0.40500003 4278201866
0.054075826 0.012865272 0.40500003 4278595601
0.055391259 0.012865272 0.40500003 4279189275
0.056846719 0.012897038 0.40600002 4279124765
0.058165409 0.012897038 0.40600002 4279124765
0.059484098 0.012897038 0.40600002 4279320861
0.06095254 0.012928803 0.40700001 4279190045
0.062274482 0.012928803 0.40700001 4278861080
0.063752681 0.01296057 0.40800002 4279255838
0.065237358 0.012992335 0.40900001 4279124250
0.066728555 0.013024103 0.41000003 4279190043
0.068226233 0.013055868 0.41100001 4278993177
0.069730408 0.013087635 0.41200003 4278993177
0.071241081 0.0131194 0.41300002 4278927384
0.072582506 0.0131194 0.41300002 4278927384
0.074102931 0.013151167 0.41400003 4278993177
0.075629838 0.013182933 0.41500002 4278664212
0.07697776 0.013182933 0.41500002 4279124763
0.078325681 0.013182933 0.41500002 4278993177
0.079865582 0.013214699 0.41600001 4279322914
0.081216753 0.013214699 0.41600001 4279059742
0.082766406 0.013246465 0.41700003 4279453730
0.084322542 0.013278231 0.41800001 4279716902
0.086295143 0.01337353 0.42100003 4279519010
0.088078998 0.013437062 0.42300001 4279649826
0.089664385 0.013468828 0.42400002 4279385887
0.091470972 0.01353236 0.42600003 4279450912
0.093072586 0.013564126 0.42700002 4280633641
0.094680704 0.013595892 0.42800003 4282738504
0.096070848 0.013595892 0.42800003 4285105776
0.097460993 0.013595892 0.42800003 4285895292
0.099082097 0.013627659 0.42900002 4286355329
0.032865666 0.014111128 0.40300003 4278988310
0.03417461 0.014111128 0.40300003 4279515676
0.035483554 0.014111128 0.40300003 4279188762
0.036792498 0.014111128 0.40300003 4279123480
0.038006898 0.014076112 0.40200001 4279124763
0.039312594 0.014076112 0.40200001 4279058968
0.040719334 0.014111128 0.40300003 4278731287
0.042028278 0.014111128 0.40300003 4278665494
0.043337222 0.014111128 0.40300003 4278731287
0.04464617 0.014111128 0.40300003 4278666007
0.045955114 0.014111128 0.40300003 4278797593
0.047381338 0.014146143 0.40400001 4278797595
0.04869353 0.014146143 0.40400001 4278863388
0.050005723 0.014146143 0.40400001 4278863388
0.05144494 0.014181159 0.40500003 4279059740
0.052760381 0.014181159 0.40500003 4279848486
0.054075826 0.014181159 0.40500003 4279519008
0.055528026 0.014216173 0.40600002 4279255836
0.056846719 0.014216173 0.40600002 4279256349
0.058165409 0.014216173 0.40600002 4279256349
0.05963061 0.014251187 0.40700001 4279256349
0.06095254 0.014251187 0.40700001 4279257119
0.062427491 0.014286203 0.40800002 4279257119
0.063752681 0.014286203 0.40800002 4279257119
0.065237358 0.014321218 0.40900001 4279059740
0.066728555 0.014356234 0.41000003 4279125533
0.068226233 0.014391249 0.41100001 4279059740
0.069730408 0.014426265 0.41200003 4279322912
0.071068585 0.014426265 0.41200003 4279257119
0.072582506 0.01446128 0.41300002 4279520291
0.073923938 0.01446128 0.41300002 4279388705
0.075447597 0.014496296 0.41400003 4279519521
0.07679227 0.014496296 0.41400003 4279650594
0.078325681 0.01453131 0.41500002 4279321631
0.079673596 0.01453131 0.41500002 4278925338
0.081021518 0.01453131 0.41500002 4279450912
0.082369447 0.01453131 0.41500002 4281028147
0.083919086 0.014566325 0.41600001 4282738252
0.086295143 0.014741402 0.42100003 4285435511
0.088078998 0.014811431 0.42300001 4286356615
0.035483554 0.015420516 0.40300003 4279054873
0.036792498 0.015420516 0.40300003 4279188508
0.038101446 0.015420516 0.40300003 4279190556
0.03941039 0.015420516 0.40300003 4279387933
0.040719334 0.015420516 0.40300003 4279059738
0.042028278 0.015420516 0.40300003 4278862873
0.043337222 0.015420516 0.40300003 4279126045
0.044756953 0.015458779 0.40400001 4279191838
0.046069145 0.015458779 0.40400001 4279191838
0.047381338 0.015458779 0.40400001 4279126047
0.04869353 0.015458779 0.40400001 4278994461
0.050129499 0.015497045 0.40500003 4278994461
0.05144494 0.015497045 0.40500003 4279388705
0.052760381 0.015497045 0.40500003 4279453728
0.054209344 0.015535308 0.40600002 4279519521
0.055528026 0.015535308 0.40600002 4279519008
0.056846719 0.015535308 0.40600002 4279453215
0.058165409 0.015535308 0.40600002 4279519008
0.05963061 0.015573572 0.40700001 4279584803
0.06095254 0.015573572 0.40700001 4279255838
0.062427491 0.015611837 0.40800002 4279123482
0.063752681 0.015611837 0.40800002 4279649826
0.065237358 0.015650101 0.40900001 4279386141
0.066728555 0.015688365 0.41000003 4279188508
0.068226233 0.01572663 0.41100001 4279582496
0.069561154 0.01572663 0.41100001 4279648291
0.071068585 0.015764894 0.41200003 4280240174
0.072582506 0.015803158 0.41300002 4281423934
0.073923938 0.015803158 0.41300002 4282936660
0.075265355 0.015803158 0.41300002 4285106030
0.040719334 0.016729904 0.40300003 4279254555
0.042132568 0.016771417 0.40400001 4279452447
0.043444756 0.016771417 0.40400001 4279518756
0.044756953 0.016771417 0.40400001 4279912744
0.046069145 0.016771417 0.40400001 4279320607
0.047381338 0.016771417 0.40400001 4279385887
0.048814058 0.01681293 0.40500003 4279713822
0.050129499 0.01681293 0.40500003 4279647775
0.05144494 0.01681293 0.40500003 4279911463
0.052890651 0.016854443 0.40600002 4280503346
0.054209344 0.016854443 0.40600002 4281358141
0.055528026 0.016854443 0.40600002 4282805587
0.056846719 0.016854443 0.40600002 4283529310
0.065665863 0.0075404644 0.4115673 4294967295
0.065665863 0.0075404644 0.4115673 4294901760
0.065633766 0.007043784 0.41161504 4294901760
0.065601669 0.0065471036 0.41166276 4294901760
0.065569572 0.0060504233 0.4117105 4294901760
0.065537483 0.0055537429 0.41175824 4294901760
0.065505385 0.0050570625 0.41180596 4294901760
0.065473288 0.0045603821 0.4118537 4294901760
0.065441191 0.0040637017 0.41190144 4294901760
0.065409094 0.0035670218 0.41194916 4294901760
0.065376997 0.003070341 0.4119969 4294901760
0.0653449 0.0025736606 0.41204464 4294901760
0.06531281 0.0020769807 0.41209236 4294901760
0.065280713 0.0015803003 0.4121401 4294901760
0.065248616 0.0010836199 0.41218784 4294901760
0.065216519 0.00058693904 0.41223559 4294901760
0.065184422 9.0258662e-05 0.4122833 4294901760
0.065152325 -0.00040642079 0.41233104 4294901760
0.065120228 -0.00090310164 0.41237879 4294901760
0.065088138 -0.0013997825 0.4124265 4294901760
0.065056041 -0.0018964624 0.41247424 4294901760
0.065023944 -0.0023931433 0.41252199 4294901760
0.064991847 -0.0028898232 0.4125697 4294901760
0.06495975 -0.0033865031 0.41261744 4294901760
0.064927652 -0.0038831839 0.41266519 4294901760
0.064895555 -0.0043798639 0.4127129 4294901760
0.064863466 -0.0048765447 0.41276065 4294901760
0.064831369 -0.0053732246 0.41280839 4294901760
0.064799272 -0.0058699064 0.4128561 4294901760
0.064767174 -0.0063665863 0.41290385 4294901760
0.064735077 -0.0068632653 0.41295159 4294901760
0.06470298 -0.0073599471 0.4129993 4294901760
0.064670891 -0.007856627 0.41304705 4294901760
0.064638793 -0.008353306 0.41309479 4294901760
0.064606696 -0.0088499878 0.4131425 4294901760
0.064574599 -0.0093466677 0.41319025 4294901760
0.064542502 -0.0098433476 0.41323799 4294901760
0.064510405 -0.010340029 0.4132857 4294901760
0.064478308 -0.010836709 0.41333345 4294901760
0.064446218 -0.011333389 0.41338119 4294901760
0.064414121 -0.011830069 0.41342893 4294901760
0.064382024 -0.012326751 0.41347665 4294901760
0.064349927 -0.012823431 0.41352439 4294901760
0.06431783 -0.013320111 0.41357213 4294901760
0.064285733 -0.013816793 0.41361985 4294901760
0.064253636 -0.014313471 0.41366759 4294901760
0.064221546 -0.01481015 0.41371533 4294901760
0.064189449 -0.015306832 0.41376305 4294901760
0.064157352 -0.015803512 0.41381079 4294901760
0.064125255 -0.016300192 0.41385853 4294901760
0.064093158 -0.016796874 0.41390625 4294901760
0.064061061 -0.017293554 0.41395399 4294901760
0.064028963 -0.017790234 0.41400173 4294901760
0.063996874 -0.018286914 0.41404945 4294901760
0.063964777 -0.018783594 0.41409719 4294901760
0.06393268 -0.019280277 0.41414493 4294901760
0.063900582 -0.019776957 0.41419265 4294901760
0.063868485 -0.020273637 0.41424039 4294901760
0.063836388 -0.020770315 0.41428813 4294901760
0.063804291 -0.021266995 0.41433585 4294901760
0.063772202 -0.021763675 0.41438359 4294901760
0.063740104 -0.022260359 0.41443133 4294901760
0.063708007 -0.022757038 0.41447905 4294901760
0.06367591 -0.023253718 0.41452679 4294901760
0.063643813 -0.023750398 0.41457453 4294901760
0.063611716 -0.024247076 0.41462228 4294901760
0.063579619 -0.024743758 0.41466999 4294901760
0.063547529 -0.02524044 0.41471773 4294901760
0.063515432 -0.025737122 0.41476548 4294901760
0.063483335 -0.0262338 0.41481319 4294901760
0.063451238 -0.026730482 0.41486093 4294901760
0.063419141 -0.02722716 0.41490868 4294901760
0.063387044 -0.027723841 0.41495639 4294901760
0.063354947 -0.028220523 0.41500413 4294901760
0.063322857 -0.028717205 0.41505188 4294901760
0.06329076 -0.029213883 0.41509959 4294901760
0.063258663 -0.029710561 0.41514733 4294901760
0.063226566 -0.030207243 0.41519508 4294901760
0.063194469 -0.030703921 0.41524279 4294901760
0.063162372 -0.031200603 0.41529053 4294901760
0.063130274 -0.031697284 0.41533828 4294901760
0.063098185 -0.032193966 0.41538599 4294901760
0.063066088 -0.032690644 0.41543373 4294901760
0.063033991 -0.033187326 0.41548148 4294901760
0.063001893 -0.033684004 0.41552919 4294901760
0.062969796 -0.034180686 0.41557693 4294901760
0.062937699 -0.034677368 0.41562468 4294901760
0.062905602 -0.035174049 0.41567239 4294901760
0.062873513 -0.035670727 0.41572013 4294901760
0.062841415 -0.036167406 0.41576788 4294901760
0.062809318 -0.036664087 0.41581562 4294901760
0.062777221 -0.037160765 0.41586334 4294901760
0.062745124 -0.037657451 0.41591108 4294901760
0.062713027 -0.038154129 0.41595882 4294901760
0.06268093 -0.038650811 0.41600654 4294901760
0.06264884 -0.039147489 0.41605428 4294901760
0.062616743 -0.039644171 0.41610202 4294901760
0.062584646 -0.040140849 0.41614974 4294901760
0.062552549 -0.040637534 0.41619748 4294901760
0.062520452 -0.041134212 0.41624522 4294901760
0.062488358 -0.041630894 0.41629294 4294901760
0.062456261 -0.042127572 0.41634068 4294901760
0.065665863 0.0075404644 0.4115673 4278255360
0.06611307 0.0075330455 0.41179082 4278255360
0.066560268 0.0075256266 0.41201431 4278255360
0.067007475 0.0075182077 0.41223782 4278255360
0.067454681 0.0075107887 0.41246131 4278255360
0.06790188 0.0075033698 0.41268483 4278255360
0.068349086 0.0074959509 0.41290832 4278255360
0.068796292 0.007488532 0.41313183 4278255360
0.069243491 0.0074811131 0.41335532 4278255360
0.069690697 0.0074736942 0.41357884 4278255360
0.070137903 0.0074662752 0.41380233 4278255360
0.070585109 0.0074588563 0.41402584 4278255360
0.071032308 0.0074514374 0.41424933 4278255360
0.071479514 0.0074440185 0.41447285 4278255360
0.07192672 0.0074365996 0.41469634 4278255360
0.072373919 0.0074291807 0.41491985 4278255360
0.072821125 0.0074217618 0.41514334 4278255360
0.073268332 0.0074143428 0.41536686 4278255360
0.073715538 0.0074069235 0.41559035 4278255360
0.074162737 0.0073995045 0.41581386 4278255360
0.074609943 0.0073920856 0.41603735 4278255360
0.075057149 0.0073846667 0.41626087 4278255360
0.075504348 0.0073772478 0.41648436 4278255360
0.075951554 0.0073698289 0.41670787 4278255360
0.07639876 0.00736241 0.41693136 4278255360
0.076845959 0.007354991 0.41715488 4278255360
0.077293165 0.0073475721 0.4173784 4278255360
0.077740371 0.0073401532 0.41760188 4278255360
0.07818757 0.0073327343 0.4178254 4278255360
0.078634776 0.0073253154 0.41804889 4278255360
0.079081982 0.0073178965 0.41827241 4278255360
0.079529181 0.0073104776 0.41849589 4278255360
0.079976387 0.0073030586 0.41871941 4278255360
0.080423594 0.0072956397 0.4189429 4278255360
0.080870792 0.0072882208 0.41916642 4278255360
0.081317998 0.0072808019 0.4193899 4278255360
0.081765205 0.007273383 0.41961342 4278255360
0.082212403 0.0072659641 0.41983691 4278255360
0.08265961 0.0072585451 0.42006043 4278255360
0.083106816 0.0072511262 0.42028391 4278255360
0.083554022 0.0072437073 0.42050743 4278255360
0.084001221 0.0072362884 0.42073092 4278255360
0.084448427 0.0072288695 0.42095444 4278255360
0.084895633 0.0072214506 0.42117792 4278255360
0.085342832 0.0072140316 0.42140144 4278255360
0.085790038 0.0072066127 0.42162493 4278255360
0.086237244 0.0071991938 0.42184845 4278255360
0.086684451 0.0071917749 0.42207193 4278255360
0.087131649 0.007184356 0.42229545 4278255360
0.087578855 0.0071769366 0.42251897 4278255360
0.088026062 0.0071695177 0.42274246 4278255360
0.08847326 0.0071620988 0.42296594 4278255360
0.088920467 0.0071546799 0.42318946 4278255360
0.089367673 0.0071472609 0.42341298 4278255360
0.089814872 0.007139842 0.42363647 4278255360
0.090262078 0.0071324231 0.42385998 4278255360
0.090709284 0.0071250042 0.42408347 4278255360
0.091156483 0.0071175853 0.42430699 4278255360
0.091603689 0.0071101664 0.42453048 4278255360
0.092050895 0.0071027474 0.42475399 4278255360
0.092498094 0.0070953285 0.42497748 4278255360
0.0929453 0.0070879096 0.425201 4278255360
0.093392506 0.0070804907 0.42542449 4278255360
0.093839705 0.0070730718 0.425648 4278255360
0.094286911 0.0070656529 0.42587149 4278255360
0.094734117 0.007058234 0.42609501 4278255360
0.095181324 0.007050815 0.4263185 4278255360
0.095628522 0.0070433961 0.42654201 4278255360
0.096075729 0.0070359772 0.4267655 4278255360
0.096522927 0.0070285583 0.42698902 4278255360
0.096970133 0.0070211394 0.42721251 4278255360
0.09741734 0.0070137205 0.42743602 4278255360
0.097864546 0.0070063015 0.42765951 4278255360
0.098311752 0.0069988826 0.42788303 4278255360
0.098758951 0.0069914637 0.42810655 4278255360
0.099206157 0.0069840448 0.42833003 4278255360
0.099653363 0.0069766259 0.42855352 4278255360
0.10010056 0.006969207 0.42877704 4278255360
0.10054776 0.0069617881 0.42900056 4278255360
0.10099497 0.0069543691 0.42922404 4278255360
0.10144217 0.0069469502 0.42944756 4278255360
0.10188938 0.0069395313 0.42967105 4278255360
0.10233659 0.0069321124 0.42989457 4278255360
0.10278378 0.0069246935 0.43011805 4278255360
0.10323099 0.0069172746 0.43034157 4278255360
0.1036782 0.0069098552 0.43056506 4278255360
0.1041254 0.0069024363 0.43078858 4278255360
0.1045726 0.0068950173 0.43101206 4278255360
0.10501981 0.0068875984 0.43123558 4278255360
0.10546701 0.0068801795 0.43145907 4278255360
0.10591421 0.0068727606 0.43168259 4278255360
0.10636142 0.0068653417 0.43190607 4278255360
0.10680862 0.0068579228 0.43212959 4278255360
0.10725582 0.0068505039 0.43235308 4278255360
0.10770303 0.0068430849 0.4325766 4278255360
0.10815023 0.006835666 0.43280008 4278255360
0.10859744 0.0068282471 0.4330236 4278255360
0.10904464 0.0068208282 0.43324709 4278255360
0.10949184 0.0068134093 0.43347061 4278255360
0.10993905 0.0068059904 0.43369412 4278255360
0.11038625 0.0067985714 0.43391761 4278255360
0.065665863 0.0075404644 0.4115673 4278190335
0.065406926 0.0075979317 0.41199115 4278190335
0.065147981 0.0076553989 0.412415 4278190335
0.064889044 0.0077128657 0.41283885 4278190335
0.064630099 0.007770333 0.4132627 4278190335
0.064371161 0.0078277998 0.41368654 4278190335
0.064112224 0.007885267 0.41411039 4278190335
0.063853279 0.0079427343 0.41453424 4278190335
0.063594341 0.0080002015 0.41495809 4278190335
0.063335396 0.0080576688 0.41538194 4278190335
0.063076459 0.0081151361 0.41580579 4278190335
0.062817521 0.0081726033 0.41622964 4278190335
0.062558576 0.0082300706 0.41665348 4278190335
0.062299639 0.0082875378 0.41707733 4278190335
0.062040698 0.0083450051 0.41750118 4278190335
0.061781757 0.0084024724 0.41792503 4278190335
0.061522815 0.0084599387 0.41834888 4278190335
0.061263874 0.0085174059 0.41877273 4278190335
0.061004933 0.0085748732 0.41919658 4278190335
0.060745995 0.0086323405 0.41962042 4278190335
0.060487054 0.0086898077 0.42004427 4278190335
0.060228113 0.008747275 0.42046812 4278190335
0.059969172 0.0088047422 0.42089197 4278190335
0.059710231 0.0088622095 0.42131582 4278190335
0.059451293 0.0089196768 0.42173967 4278190335
0.059192352 0.0089771431 0.42216352 4278190335
0.058933411 0.0090346104 0.42258736 4278190335
0.05867447 0.0090920776 0.42301121 4278190335
0.058415528 0.0091495449 0.42343506 4278190335
0.058156591 0.0092070121 0.42385891 4278190335
0.05789765 0.0092644794 0.42428276 4278190335
0.057638709 0.0093219467 0.42470661 4278190335
0.057379767 0.0093794139 0.42513046 4278190335
0.057120826 0.0094368812 0.42555431 4278190335
0.056861885 0.0094943475 0.42597815 4278190335
0.056602947 0.0095518157 0.426402 4278190335
0.056344006 0.009609282 0.42682585 4278190335
0.056085065 0.0096667493 0.4272497 4278190335
0.055826124 0.0097242165 0.42767355 4278190335
0.055567183 0.0097816838 0.4280974 4278190335
0.055308245 0.0098391511 0.42852125 4278190335
0.055049304 0.0098966183 0.42894509 4278190335
0.054790363 0.0099540856 0.42936894 4278190335
0.054531422 0.010011553 0.42979279 4278190335
0.05427248 0.01006902 0.43021664 4278190335
0.054013543 0.010126486 0.43064049 4278190335
0.053754602 0.010183955 0.43106434 4278190335
0.05349566 0.010241421 0.43148816 4278190335
0.053236719 0.010298888 0.431912 4278190335
0.052977778 0.010356355 0.43233585 4278190335
0.052718841 0.010413823 0.4327597 4278190335
0.052459899 0.01047129 0.43318355 4278190335
0.052200958 0.010528757 0.4336074 4278190335
0.051942017 0.010586224 0.43403125 4278190335
0.051683076 0.010643692 0.4344551 4278190335
0.051424135 0.010701159 0.43487895 4278190335
0.051165193 0.010758625 0.43530279 4278190335
0.050906256 0.010816093 0.43572664 4278190335
0.050647315 0.01087356 0.43615049 4278190335
0.050388373 0.010931027 0.43657434 4278190335
0.050129432 0.010988494 0.43699819 4278190335
0.049870491 0.011045962 0.43742204 4278190335
0.049611554 0.011103429 0.43784589 4278190335
0.049352612 0.011160896 0.43826973 4278190335
0.049093671 0.011218363 0.43869358 4278190335
0.048834734 0.01127583 0.43911743 4278190335
0.048575789 0.011333298 0.43954128 4278190335
0.048316851 0.011390764 0.43996513 4278190335
0.04805791 0.011448232 0.44038898 4278190335
0.047798969 0.011505699 0.44081283 4278190335
0.047540031 0.011563166 0.44123667 4278190335
0.047281086 0.011620633 0.44166052 4278190335
0.047022149 0.011678101 0.44208437 4278190335
0.046763204 0.011735568 0.44250822 4278190335
0.046504267 0.011793034 0.44293207 4278190335
0.046245325 0.011850502 0.44335592 4278190335
0.045986384 0.011907969 0.44377977 4278190335
0.045727447 0.011965436 0.44420362 4278190335
0.045468505 0.012022903 0.44462746 4278190335
0.045209564 0.01208037 0.44505131 4278190335
0.044950623 0.012137838 0.44547516 4278190335
0.044691682 0.012195305 0.44589901 4278190335
0.044432744 0.012252772 0.44632286 4278190335
0.044173803 0.012310239 0.44674671 4278190335
0.043914862 0.012367707 0.44717056 4278190335
0.043655921 0.012425173 0.4475944 4278190335
0.04339698 0.012482641 0.44801825 4278190335
0.043138042 0.012540108 0.4484421 4278190335
0.042879101 0.012597575 0.44886595 4278190335
0.04262016 0.012655042 0.4492898 4278190335
0.042361222 0.012712509 0.44971365 4278190335
0.042102277 0.012769977 0.4501375 4278190335
0.04184334 0.012827444 0.45056134 4278190335
0.041584395 0.012884911 0.45098519 4278190335
0.041325457 0.012942377 0.45140904 4278190335
0.041066516 0.012999846 0.45183289 4278190335
0.040807575 0.013057312 0.45225674 4278190335
0.040548634 0.01311478 0.45268059 4278190335
0.040289693 0.013172247 0.45310444 4278190335
0.040030755 0.013229714 0.45352829 4278190335
0.039771814 0.013287181 0.45395213 4278190335
0.065665863 0.0075404644 0.4115673 4294967295
0.067219503 0.0071956613 0.40902421 4294967295
0.06877315 0.0068508582 0.40648112 4294967295
0.07032679 0.0065060556 0.40393803 4294967295
0.071880437 0.006161252 0.40139493 4294967295
0.073434077 0.0058164494 0.39885184 4294967295
0.074987724 0.0054716463 0.39630875 4294967295
0.076541364 0.0051268432 0.39376569 4294967295
0.078095004 0.0047820401 0.3912226 4294967295
0.079648651 0.004437237 0.3886795 4294967295
0.081202291 0.004092434 0.38613641 4294967295
0.082755938 0.0037476311 0.38359332 4294967295
0.084309578 0.0034028282 0.38105023 4294967295
0.085863218 0.0030580251 0.37850714 4294967295
0.087416865 0.0027132221 0.37596405 4294967295
0.088970512 0.0023684185 0.37342095 4294967295
0.090524152 0.0020236159 0.37087786 4294967295
0.092077792 0.0016788128 0.36833477 4294967295
0.093631439 0.0013340097 0.36579168 4294967295
0.095185079 0.0009892066 0.36324859 4294967295
0.096738726 0.00064440351 0.36070549 4294967295
0.098292366 0.00029960088 0.3581624 4294967295
0.099846005 -4.5202207e-05 0.35561931 4294967295
0.10139965 -0.0003900053 0.35307625 4294967295
0.1029533 -0.00073480792 0.35053316 4294967295
0.10450694 -0.0010796115 0.34799007 4294967295
0.10606058 -0.0014244141 0.34544697 4294967295
0.10761423 -0.0017692177 0.34290388 4294967295
0.10916787 -0.0021140203 0.34036079 4294967295
0.11072151 -0.0024588229 0.3378177 4294967295
0.11227515 -0.0028036274 0.33527461 4294967295
0.11382879 -0.00314843 0.33273152 4294967295
0.11538244 -0.0034932327 0.33018842 4294967295
0.11693609 -0.0038380362 0.32764533 4294967295
0.11848973 -0.0041828388 0.32510224 4294967295
0.12004337 -0.0045276415 0.32255918 4294967295
0.12159701 -0.004872445 0.32001609 4294967295
0.12315066 -0.0052172476 0.31747299 4294967295
0.1247043 -0.0055620512 0.3149299 4294967295
0.12625794 -0.0059068538 0.31238681 4294967295
0.12781158 -0.0062516574 0.30984372 4294967295
0.12936524 -0.00659646 0.30730063 4294967295
0.13091886 -0.0069412626 0.30475754 4294967295
0.13247252 -0.0072860662 0.30221444 4294967295
0.13402615 -0.0076308688 0.29967135 4294967295
0.13557979 -0.0079756714 0.29712826 4294967295
0.13713345 -0.008320475 0.29458517 4294967295
0.13868709 -0.0086652786 0.29204208 4294967295
0.14024073 -0.0090100802 0.28949898 4294967295
0.14179438 -0.0093548838 0.28695589 4294967295
0.14334801 -0.0096996874 0.2844128 4294967295
0.14490166 -0.010044491 0.28186971 4294967295
0.14645529 -0.010389293 0.27932665 4294967295
0.14800894 -0.010734096 0.27678356 4294967295
0.1495626 -0.0110789 0.27424043 4294967295
0.15111622 -0.011423703 0.27169734 4294967295
0.15266988 -0.011768505 0.26915428 4294967295
0.15422352 -0.012113309 0.26661119 4294967295
0.15577716 -0.01245811 0.2640681 4294967295
0.1573308 -0.012802914 0.26152503 4294967295
0.15888445 -0.013147719 0.25898191 4294967295
0.16043809 -0.013492521 0.25643882 4294967295
0.16199173 -0.013837324 0.25389576 4294967295
0.16354537 -0.014182126 0.25135267 4294967295
0.16509902 -0.01452693 0.24880956 4294967295
0.16665265 -0.014871731 0.24626648 4294967295
0.1682063 -0.015216537 0.24372338 4294967295
0.16975996 -0.01556134 0.24118029 4294967295
0.17131358 -0.015906142 0.23863719 4294967295
0.17286724 -0.016250946 0.23609412 4294967295
0.17442088 -0.016595747 0.23355103 4294967295
0.17597452 -0.016940551 0.23100793 4294967295
0.17752817 -0.017285354 0.22846484 4294967295
0.17908181 -0.017630158 0.22592175 4294967295
0.18063545 -0.01797496 0.22337866 4294967295
0.18218909 -0.018319763 0.22083557 4294967295
0.18374273 -0.018664567 0.21829249 4294967295
0.18529637 -0.019009368 0.2157494 4294967295
0.18685001 -0.019354172 0.21320631 4294967295
0.18840367 -0.019698976 0.21066321 4294967295
0.18995731 -0.020043779 0.20812012 4294967295
0.19151095 -0.020388581 0.20557703 4294967295
0.1930646 -0.020733384 0.20303395 4294967295
0.19461823 -0.021078186 0.20049086 4294967295
0.19617188 -0.02142299 0.19794777 4294967295
0.19772553 -0.021767795 0.19540466 4294967295
0.19927916 -0.022112597 0.19286159 4294967295
0.20083281 -0.0224574 0.1903185 4294967295
0.20238644 -0.022802202 0.1877754 4294967295
0.20394009 -0.023147006 0.18523233 4294967295
0.20549375 -0.023491807 0.18268923 4294967295
0.20704737 -0.023836613 0.18014613 4294967295
0.20860103 -0.024181414 0.17760305 4294967295
0.21015468 -0.02452622 0.17505996 4294967295
0.21170831 -0.024871022 0.17251687 4294967295
0.21326196 -0.025215823 0.16997379 4294967295
0.21481559 -0.025560625 0.1674307 4294967295
0.21636924 -0.02590543 0.16488759 4294967295
0.2179229 -0.026250232 0.1623445 4294967295
0.21947652 -0.026595037 0.15980142 4294967295
0.22103018 -0.026939839 0.15725833 4294967295
