# .PCD v0.7 - Point Cloud Data file format
VERSION 0.7
FIELDS x y z rgb
SIZE 4 4 4 4
TYPE F F F U
COUNT 1 1 1 1
WIDTH 1057
HEIGHT 1
VIEWPOINT 0 0 0 1 0 0 0
POINTS 1057
DATA ascii
0.058401424 0.0070929201 0.57800001 4284233774
0.030450532 0.0090329843 0.58200002 4285088302
0.032340869 0.0090329843 0.58200002 4285480748
0.034290023 0.0090485038 0.583 4285941299
0.036245674 0.0090640252 0.58400005 4284031251
0.038207818 0.0090795457 0.58500004 4284031251
0.040176462 0.0090950662 0.58600003 4282916368
0.042079788 0.0090950662 0.58600003 4284102954
0.04390806 0.0090795457 0.58500004 4284894523
0.045729842 0.0090640252 0.58400005 4284434485
0.047545116 0.0090485038 0.583 4284563757
0.049269103 0.0090174638 0.58100003 4284229915
0.051068146 0.0090019433 0.58000004 4285080089
0.052860688 0.0089864228 0.57900006 4284750867
0.054646734 0.0089709014 0.57800001 4287186235
0.056524079 0.0089709014 0.57800001 4285277468
0.058401424 0.0089709014 0.57800001 4283836188
0.06017448 0.0089553809 0.57700002 4283446827
0.028511124 0.010905192 0.58100003 4285149732
0.030398212 0.010905192 0.58100003 4285147935
0.032340869 0.010923961 0.58200002 4285213728
0.034290023 0.010942731 0.583 4285279008
0.036245674 0.010961502 0.58400005 4284228630
0.038207818 0.010980271 0.58500004 4285614133
0.040107902 0.010980271 0.58500004 4284305718
0.042007979 0.010980271 0.58500004 4284174645
0.04390806 0.010980271 0.58500004 4284042546
0.045729842 0.010961502 0.58400005 4284239923
0.047545116 0.010942731 0.583 4285025587
0.049269103 0.010905192 0.58100003 4283572753
0.051068146 0.010886422 0.58000004 4284555285
0.052860688 0.010867653 0.57900006 4284685331
0.054646734 0.010848883 0.57800001 4284948505
0.056524079 0.010848883 0.57800001 4284488724
0.058300387 0.010830113 0.57700002 4283177491
0.06017448 0.010830113 0.57700002 4282587666
0.02469437 0.012770901 0.58000004 4284968030
0.02657821 0.012770901 0.58000004 4284169780
0.028511124 0.01279292 0.58100003 4285081629
0.030398212 0.01279292 0.58100003 4285344031
0.032340869 0.012814938 0.58200002 4287648839
0.034290023 0.012836957 0.583 4285212445
0.036245674 0.012858977 0.58400005 4283899149
0.038207818 0.012880995 0.58500004 4286206268
0.040107902 0.012880995 0.58500004 4285750845
0.042007979 0.012880995 0.58500004 4287197528
0.04390806 0.012880995 0.58500004 4288247397
0.045729842 0.012858977 0.58400005 4283902743
0.047545116 0.012836957 0.583 4284359954
0.049269103 0.01279292 0.58100003 4284952091
0.051068146 0.012770901 0.58000004 4284226833
0.052860688 0.012748883 0.57900006 4284096019
0.054646734 0.012726863 0.57800001 4283964692
0.056524079 0.012726863 0.57800001 4283373069
0.058300387 0.012704845 0.57700002 4281667336
0.06017448 0.012704845 0.57700002 4285027142
0.0227712 0.014630113 0.57900006 4285302391
0.024651794 0.014630113 0.57900006 4283584834
0.02657821 0.014655381 0.58000004 4283642921
0.028462052 0.014655381 0.58000004 4284752666
0.030398212 0.014680648 0.58100003 4285212445
0.032340869 0.014705916 0.58200002 4284949273
0.034231205 0.014705916 0.58200002 4284554517
0.036183607 0.014731183 0.583 4283635468
0.038142506 0.014756452 0.58400005 4285478183
0.040107902 0.01478172 0.58500004 4283703056
0.042007979 0.01478172 0.58500004 4282980366
0.04390806 0.01478172 0.58500004 4282454283
0.045729842 0.014756452 0.58400005 4282323209
0.047545116 0.014731183 0.583 4282389256
0.049353905 0.014705916 0.58200002 4282717707
0.051068146 0.014655381 0.58000004 4282849293
0.052860688 0.014630113 0.57900006 4282651914
0.054646734 0.014604844 0.57800001 4283375124
0.056524079 0.014604844 0.57800001 4283703319
0.058300387 0.014579576 0.57700002 4282656028
0.06017448 0.014579576 0.57700002 4287465336
0.0227712 0.016511343 0.57900006 4285499257
0.024651794 0.016511343 0.57900006 4282529318
0.02657821 0.016539861 0.58000004 4283970600
0.028462052 0.016539861 0.58000004 4283966743
0.030398212 0.016568378 0.58100003 4284294425
0.032285299 0.016568378 0.58100003 4284096532
0.034231205 0.016596893 0.58200002 4283570702
0.036183607 0.01662541 0.583 4283308561
0.038142506 0.016653929 0.58400005 4283375124
0.040107902 0.016682446 0.58500004 4281602818
0.042007979 0.016682446 0.58500004 4286344016
0.04390806 0.016682446 0.58500004 4286148685
0.045729842 0.016653929 0.58400005 4284174641
0.047545116 0.01662541 0.583 4283117081
0.049353905 0.016596893 0.58200002 4282062090
0.051156193 0.016568378 0.58100003 4282258701
0.052951984 0.016539861 0.58000004 4282258701
0.054741282 0.016511343 0.57900006 4282389774
0.056524079 0.016482826 0.57800001 4283046418
0.058300387 0.016454309 0.57700002 4283572764
0.06017448 0.016454309 0.57700002 4283577130
0.022731869 0.018360807 0.57800001 4285762683
0.024651794 0.018392574 0.57900006 4283313956
0.026532387 0.018392574 0.57900006 4283047702
0.028462052 0.01842434 0.58000004 4283047702
0.030398212 0.018456105 0.58100003 4283375637
0.032285299 0.018456105 0.58100003 4283440917
0.034231205 0.018487873 0.58200002 4283046672
0.036183607 0.018519638 0.583 4281931271
0.038142506 0.018551406 0.58400005 4284302384
0.040039342 0.018551406 0.58400005 4283583790
0.042007979 0.018583171 0.58500004 4284505657
0.04390806 0.018583171 0.58500004 4286217806
0.045729842 0.018551406 0.58400005 4284505909
0.047545116 0.018519638 0.583 4281734656
0.049353905 0.018487873 0.58200002 4282587405
0.051156193 0.018456105 0.58100003 4282717967
0.052951984 0.01842434 0.58000004 4282520590
0.054741282 0.018392574 0.57900006 4281996299
0.056621876 0.018392574 0.57900006 4281996812
0.058300387 0.018329041 0.57700002 4282586383
0.059965909 0.01826551 0.57500005 4283835936
0.06140336 0.018138446 0.57100004 4286543982
0.063368753 0.018170211 0.57200003 4286154872
0.020818444 0.020203773 0.57700002 4285236598
0.022731869 0.020238787 0.57800001 4286485636
0.024609216 0.020238787 0.57800001 4283245848
0.026532387 0.020273805 0.57900006 4283903776
0.028462052 0.020308819 0.58000004 4284171565
0.030398212 0.020343835 0.58100003 4283115797
0.032285299 0.020343835 0.58100003 4283047184
0.034231205 0.020378849 0.58200002 4281798402
0.036183607 0.020413864 0.583 4284898618
0.038142506 0.02044888 0.58400005 4282202387
0.040039342 0.02044888 0.58400005 4284309046
0.042007979 0.020483894 0.58500004 4283980335
0.043833006 0.02044888 0.58400005 4283651881
0.045729842 0.02044888 0.58400005 4282993186
0.047545116 0.020413864 0.583 4283115797
0.049438704 0.020413864 0.583 4282785297
0.05124424 0.020378849 0.58200002 4283046159
0.05304328 0.020343835 0.58100003 4283046159
0.054835826 0.020308819 0.58000004 4282524692
0.056621876 0.020273805 0.57900006 4283383079
0.058401424 0.020238787 0.57800001 4282064400
0.060070194 0.020168759 0.57600003 4282259471
0.061725967 0.020098727 0.574 4283639841
0.063479535 0.020063711 0.57300001 4287661690
0.065340638 0.020063711 0.57300001 4286678902
0.067319028 0.020098727 0.574 4284960579
0.020818444 0.022078505 0.57700002 4285302645
0.022731869 0.022116769 0.57800001 4285628528
0.024609216 0.022116769 0.57800001 4283574813
0.026532387 0.022155035 0.57900006 4283709477
0.028462052 0.022193298 0.58000004 4283975466
0.030398212 0.022231562 0.58100003 4283443477
0.032340869 0.022269826 0.58200002 4282324744
0.034231205 0.022269826 0.58200002 4285488455
0.036183607 0.022308089 0.583 4281940759
0.038142506 0.022346355 0.58400005 4282598689
0.040039342 0.022346355 0.58400005 4281875736
0.041936174 0.022346355 0.58400005 4282138912
0.043833006 0.022346355 0.58400005 4278980097
0.045729842 0.022346355 0.58400005 4279243012
0.047545116 0.022308089 0.583 4281610277
0.049438704 0.022308089 0.583 4280029448
0.05124424 0.022269826 0.58200002 4279829504
0.053134575 0.022269826 0.58200002 4281866771
0.05493037 0.022231562 0.58100003 4283844143
0.056817457 0.022231562 0.58100003 4282859815
0.05860351 0.022193298 0.58000004 4282662436
0.06027877 0.022116769 0.57800001 4281211144
0.061941043 0.02204024 0.57600003 4282849041
0.063811891 0.02204024 0.57600003 4283902243
0.065568708 0.022001976 0.57500005 4288248431
0.067553595 0.02204024 0.57600003 4284887591
0.069786027 0.022155035 0.57900006 4285147937
0.071790397 0.022193298 0.58000004 4285676078
0.073801257 0.022231562 0.58100003 4283450168
0.020818444 0.023953237 0.57700002 4285696888
0.022731869 0.023994749 0.57800001 4282400560
0.024609216 0.023994749 0.57800001 4282720020
0.026532387 0.024036264 0.57900006 4283251495
0.028462052 0.024077777 0.58000004 4284301866
0.030398212 0.02411929 0.58100003 4283243790
0.032340869 0.024160802 0.58200002 4281736457
0.034231205 0.024160802 0.58200002 4281149197
0.036183607 0.024202315 0.583 4282072865
0.038142506 0.024243832 0.58400005 4281151763
0.040039342 0.024243832 0.58400005 4281809700
0.041936174 0.024243832 0.58400005 4279045892
0.043833006 0.024243832 0.58400005 4279112205
0.045729842 0.024243832 0.58400005 4279112205
0.047545116 0.024202315 0.583 4281875763
0.049438704 0.024202315 0.583 4278915078
0.051332287 0.024202315 0.583 4283059785
0.053225871 0.024202315 0.583 4279505936
0.055024914 0.024160802 0.58200002 4280689427
0.05691525 0.024160802 0.58200002 4282269476
0.058704548 0.02411929 0.58100003 4282203168
0.060487349 0.024077777 0.58000004 4282465570
0.062263653 0.024036264 0.57900006 4282193160
0.064033456 0.023994749 0.57800001 4284032284
0.065910801 0.023994749 0.57800001 4286200625
0.067788154 0.023994749 0.57800001 4286134315
0.069906555 0.024077777 0.58000004 4285870627
0.071790397 0.024077777 0.58000004 4285474845
0.073801257 0.02411929 0.58100003 4284561456
0.075688347 0.02411929 0.58100003 4286084455
0.019010015 0.025917495 0.57900006 4285565563
0.020854523 0.02587273 0.57800001 4286943875
0.022731869 0.02587273 0.57800001 4282919459
0.024651794 0.025917495 0.57900006 4282327313
0.026624035 0.026007017 0.58100003 4282989604
0.028511124 0.026007017 0.58100003 4283574811
0.030398212 0.026007017 0.58100003 4282849291
0.032340869 0.02605178 0.58200002 4284239671
0.034231205 0.02605178 0.58200002 4281018894
0.036183607 0.026096541 0.583 4281414937
0.038077191 0.026096541 0.583 4281085720
0.040039342 0.026141306 0.58400005 4279045894
0.041936174 0.026141306 0.58400005 4279374605
0.043833006 0.026141306 0.58400005 4278521098
0.045729842 0.026141306 0.58400005 4283982940
0.047545116 0.026096541 0.583 4284115037
0.049438704 0.026096541 0.583 4283524184
0.051332287 0.026096541 0.583 4279046931
0.053225871 0.026096541 0.583 4280625961
0.055119459 0.026096541 0.583 4281480751
0.057013039 0.026096541 0.583 4282006572
0.058805589 0.02605178 0.58200002 4282137888
0.060591638 0.026007017 0.58100003 4281940509
0.062371191 0.025962256 0.58000004 4281603590
0.064255029 0.025962256 0.58000004 4283375637
0.06602484 0.025917495 0.57900006 4285015064
0.067905433 0.025917495 0.57900006 4285210646
0.069906555 0.025962256 0.58000004 4285540635
0.071914166 0.026007017 0.58100003 4285146650
0.073801257 0.026007017 0.58100003 4284229409
0.075688347 0.026007017 0.58100003 4284435013
0.019010015 0.027798725 0.57900006 4285499257
0.020890607 0.027798725 0.57900006 4284697923
0.0227712 0.027798725 0.57900006 4283901214
0.02469437 0.027846737 0.58000004 4282130963
0.026624035 0.027894748 0.58100003 4283844913
0.028511124 0.027894748 0.58100003 4283507737
0.030398212 0.027894748 0.58100003 4281994498
0.032340869 0.02794276 0.58200002 4283320106
0.034231205 0.02794276 0.58200002 4280820745
0.036183607 0.02799077 0.583 4281742880
0.038077191 0.02799077 0.583 4279309057
0.039970778 0.02799077 0.583 4282008117
0.041864362 0.02799077 0.583 4278323457
0.043757945 0.02799077 0.583 4282997070
0.045651533 0.02799077 0.583 4283127881
0.047545116 0.02799077 0.583 4281415460
0.049438704 0.02799077 0.583 4281680946
0.051420338 0.028038785 0.58400005 4284642147
0.053317171 0.028038785 0.58400005 4278588166
0.055214006 0.028038785 0.58400005 4280823591
0.057110839 0.028038785 0.58400005 4278651906
0.058906626 0.02799077 0.583 4282007072
0.060695924 0.02794276 0.58200002 4281809693
0.062478725 0.027894748 0.58100003 4282790944
0.064365819 0.027894748 0.58100003 4282653711
0.066138871 0.027846737 0.58000004 4284161042
0.068022713 0.027846737 0.58000004 4284554517
0.070027083 0.027894748 0.58100003 4285079834
0.071914166 0.027894748 0.58100003 4284686873
0.073801257 0.027894748 0.58100003 4282915350
0.075688347 0.027894748 0.58100003 4283514424
0.017159006 0.029731216 0.58000004 4285696636
0.019010015 0.029679956 0.57900006 4286748295
0.020890607 0.029679956 0.57900006 4284361767
0.0227712 0.029679956 0.57900006 4286070582
0.02469437 0.029731216 0.58000004 4282654479
0.02657821 0.029731216 0.58000004 4284630833
0.028462052 0.029731216 0.58000004 4283638807
0.030398212 0.029782476 0.58100003 4281863680
0.032285299 0.029782476 0.58100003 4283580710
0.034231205 0.029833736 0.58200002 4282526740
0.036121543 0.029833736 0.58200002 4282460441
0.038011879 0.029833736 0.58200002 4279305984
0.039970778 0.029884996 0.583 4279112973
0.041864362 0.029884996 0.583 4279771416
0.043757945 0.029884996 0.583 4281483054
0.045651533 0.029884996 0.583 4283717438
0.047545116 0.029884996 0.583 4284439610
0.049438704 0.029884996 0.583 4280821780
0.051420338 0.02993626 0.58400005 4281548849
0.053317171 0.02993626 0.58400005 4282206779
0.055214006 0.02993626 0.58400005 4279507985
0.057110839 0.02993626 0.58400005 4279046664
0.059007674 0.02993626 0.58400005 4281875236
0.06080021 0.029884996 0.583 4281678109
0.062586263 0.029833736 0.58200002 4282792227
0.064476602 0.029833736 0.58200002 4282457615
0.066252902 0.029782476 0.58100003 4283702036
0.068139993 0.029782476 0.58100003 4283569936
0.070027083 0.029782476 0.58100003 4284097564
0.071914166 0.029782476 0.58100003 4283572503
0.073801257 0.029782476 0.58100003 4282590496
0.075688347 0.029782476 0.58100003 4286019952
0.017159006 0.031615693 0.58000004 4285630073
0.019010015 0.031561185 0.57900006 4283847754
0.020890607 0.031561185 0.57900006 4285742389
0.0227712 0.031561185 0.57900006 4285607975
0.024651794 0.031561185 0.57900006 4285672996
0.026532387 0.031561185 0.57900006 4285279521
0.028462052 0.031615693 0.58000004 4283570448
0.030345893 0.031615693 0.58000004 4282913801
0.032229733 0.031615693 0.58000004 4283703569
0.03417239 0.031670205 0.58100003 4284097814
0.03605948 0.031670205 0.58100003 4283902495
0.038011879 0.031724714 0.58200002 4279762944
0.039902218 0.031724714 0.58200002 4279376658
0.041792553 0.031724714 0.58200002 4281810999
0.043682888 0.031724714 0.58200002 4280363542
0.045651533 0.031779222 0.583 4280954136
0.047545116 0.031779222 0.583 4281545492
0.049438704 0.031779222 0.583 4281347609
0.051332287 0.031779222 0.583 4282206009
0.053317171 0.031833734 0.58400005 4282996297
0.055214006 0.031833734 0.58400005 4281679667
0.057110839 0.031833734 0.58400005 4279836948
0.059007674 0.031833734 0.58400005 4281546271
0.06080021 0.031779222 0.583 4281612316
0.062693797 0.031779222 0.583 4282069015
0.064476602 0.031724714 0.58200002 4282522895
0.066366933 0.031724714 0.58200002 4284031771
0.068257272 0.031724714 0.58200002 4283374100
0.070147611 0.031724714 0.58200002 4282915348
0.071914166 0.031670205 0.58100003 4283049248
0.073801257 0.031670205 0.58100003 4283518276
0.015275164 0.033500172 0.58000004 4285697151
0.017159006 0.033500172 0.58000004 4287141002
0.019010015 0.033442415 0.57900006 4284106302
0.020890607 0.033442415 0.57900006 4285147170
0.022731869 0.033384655 0.57800001 4285145884
0.024609216 0.033384655 0.57800001 4288108620
0.026486561 0.033384655 0.57800001 4285080089
0.028363906 0.033384655 0.57800001 4284094995
0.030293573 0.033442415 0.57900006 4283438348
0.032174166 0.033442415 0.57900006 4284359191
0.034113575 0.033500172 0.58000004 4284358419
0.035997417 0.033500172 0.58000004 4283768597
0.037946567 0.033557933 0.58100003 4280353024
0.039833657 0.033557933 0.58100003 4281482288
0.041792553 0.03361569 0.58200002 4279574037
0.043682888 0.03361569 0.58200002 4281086495
0.045573227 0.03361569 0.58200002 4280954136
0.047463562 0.03361569 0.58200002 4281808158
0.049438704 0.033673447 0.583 4280953362
0.051332287 0.033673447 0.583 4281482538
0.053317171 0.033731211 0.58400005 4280298782
0.055214006 0.033731211 0.58400005 4279310865
0.057110839 0.033731211 0.58400005 4278521090
0.059007674 0.033731211 0.58400005 4281677857
0.06080021 0.033673447 0.583 4281283351
0.062693797 0.033673447 0.583 4281542673
0.064587384 0.033673447 0.583 4282982676
0.066366933 0.03361569 0.58200002 4283834651
0.068257272 0.03361569 0.58200002 4288052083
0.070147611 0.03361569 0.58200002 4285159242
0.072037943 0.03361569 0.58200002 4281867289
0.073801257 0.033557933 0.58100003 4286154107
0.015275164 0.035384651 0.58000004 4285894528
0.017129421 0.035323646 0.57900006 4285955445
0.019010015 0.035323646 0.57900006 4283776053
0.020854523 0.035262633 0.57800001 4285147170
0.022731869 0.035262633 0.57800001 4285605408
0.024566639 0.035201628 0.57700002 4288172610
0.026440736 0.035201628 0.57700002 4285343256
0.028314834 0.035201628 0.57700002 4284160529
0.030188929 0.035201628 0.57700002 4283832077
0.032118596 0.035262633 0.57800001 4284161812
0.03405476 0.035323646 0.57900006 4284226320
0.035997417 0.035384651 0.58000004 4283964692
0.037881255 0.035384651 0.58000004 4281469955
0.039833657 0.03544566 0.58100003 4278848515
0.041720748 0.03544566 0.58100003 4278783238
0.043682888 0.035506666 0.58200002 4281677612
0.045573227 0.035506666 0.58200002 4281085725
0.047463562 0.035506666 0.58200002 4280822550
0.049353905 0.035506666 0.58200002 4281283101
0.051332287 0.035567675 0.583 4281284646
0.053225871 0.035567675 0.583 4282930504
0.055119459 0.035567675 0.583 4281942839
0.057110839 0.035628684 0.58400005 4279440650
0.059007674 0.035628684 0.58400005 4280953364
0.06080021 0.035567675 0.583 4281084950
0.062693797 0.035567675 0.583 4282132500
0.064587384 0.035567675 0.583 4283638809
0.066480964 0.035567675 0.583 4283114012
0.068374552 0.035567675 0.583 4286940277
0.070268139 0.035567675 0.583 4282333232
0.072161719 0.035567675 0.583 4282792504
0.015275164 0.037269134 0.58000004 4285697149
0.017129421 0.037204877 0.57900006 4286812291
0.01897718 0.037140619 0.57800001 4282988334
0.020818444 0.037076361 0.57700002 4284556831
0.022692541 0.037076361 0.57700002 4284752412
0.024524063 0.037012104 0.57600003 4284751894
0.026349088 0.03694785 0.57500005 4284488722
0.02821669 0.03694785 0.57500005 4283897870
0.030136609 0.037012104 0.57600003 4283898640
0.03200746 0.037012104 0.57600003 4283898640
0.033995941 0.037140619 0.57800001 4283898640
0.035935353 0.037204877 0.57900006 4283046670
0.037881255 0.037269134 0.58000004 4281866510
0.039765101 0.037269134 0.58000004 4279176453
0.041720748 0.037333392 0.58100003 4278979847
0.043607835 0.037333392 0.58100003 4279045642
0.045573227 0.037397645 0.58200002 4278716675
0.047463562 0.037397645 0.58200002 4280361752
0.049353905 0.037397645 0.58200002 4279177478
0.05124424 0.037397645 0.58200002 4278849285
0.053225871 0.037461903 0.583 4282007867
0.055119459 0.037461903 0.583 4279702284
0.057013039 0.037461903 0.583 4281343509
0.058906626 0.037461903 0.583 4281214740
0.06080021 0.037461903 0.583 4281215253
0.062693797 0.037461903 0.583 4282720020
0.064587384 0.037461903 0.583 4284163870
0.066480964 0.037461903 0.583 4282986022
0.068374552 0.037461903 0.583 4286547834
0.070268139 0.037461903 0.583 4281608482
0.072161719 0.037461903 0.583 4287203969
0.017129421 0.039086107 0.57900006 4286222464
0.01897718 0.039018597 0.57800001 4283389000
0.020818444 0.038951091 0.57700002 4283508257
0.022613885 0.038816083 0.57500005 4283966237
0.024438908 0.038748574 0.574 4284097562
0.026257439 0.038681068 0.57300001 4283571218
0.028118543 0.038681068 0.57300001 4283899153
0.030031966 0.038748574 0.574 4284096532
0.031951889 0.038816083 0.57500005 4283571472
0.033878308 0.038883585 0.57600003 4283378967
0.035873286 0.039018597 0.57800001 4281871377
0.037815943 0.039086107 0.57900006 4281542419
0.039765101 0.039153613 0.58000004 4281084700
0.041720748 0.039221119 0.58100003 4278782720
0.043607835 0.039221119 0.58100003 4278979847
0.045494925 0.039221119 0.58100003 4278519298
0.047463562 0.039288625 0.58200002 4281678384
0.049353905 0.039288625 0.58200002 4281677614
0.05124424 0.039288625 0.58200002 4282007095
0.053134575 0.039288625 0.58200002 4278650627
0.055119459 0.039356127 0.583 4282456598
0.057013039 0.039356127 0.583 4285283121
0.058906626 0.039356127 0.583 4283640604
0.06080021 0.039356127 0.583 4283380512
0.062693797 0.039356127 0.583 4283966489
0.064587384 0.039356127 0.583 4284754722
0.066595003 0.039423637 0.58400005 4286412396
0.068491839 0.039423637 0.58400005 4286877312
0.070388667 0.039423637 0.58400005 4281412132
0.017099835 0.04089658 0.57800001 4285565817
0.01897718 0.04089658 0.57800001 4286222464
0.020782365 0.040755071 0.57600003 4284173637
0.022574555 0.040613558 0.574 4283445290
0.024353758 0.040472049 0.57200003 4283048217
0.026165791 0.040401295 0.57100004 4282718739
0.028020401 0.040401295 0.57100004 4283046932
0.029875007 0.040401295 0.57100004 4284163355
0.031785183 0.040472049 0.57200003 4284030737
0.033819493 0.040684316 0.57500005 4283179790
0.035811223 0.040825825 0.57700002 4281741074
0.037750628 0.04089658 0.57800001 4281149712
0.039696541 0.040967338 0.57900006 4280887569
0.041648939 0.041038092 0.58000004 4280690962
0.043607835 0.041108847 0.58100003 4280427543
0.045494925 0.041108847 0.58100003 4278848515
0.047463562 0.041179601 0.58200002 4279045894
0.049353905 0.041179601 0.58200002 4279045894
0.05124424 0.041179601 0.58200002 4280422925
0.053134575 0.041179601 0.58200002 4282917149
0.055024914 0.041179601 0.58200002 4284752666
0.05691525 0.041179601 0.58200002 4284949273
0.058906626 0.041250356 0.583 4286924598
0.06080021 0.041250356 0.583 4284622613
0.062693797 0.041250356 0.583 4284884250
0.064587384 0.041250356 0.583 4283833620
0.066595003 0.041321114 0.58400005 4286350968
0.068491839 0.041321114 0.58400005 4283914574
0.070388667 0.041321114 0.58400005 4284110928
0.020746283 0.042552549 0.57500005 4286090365
0.022495899 0.042330533 0.57200003 4281809198
0.024268605 0.042182527 0.57000005 4282786844
0.026028316 0.042034514 0.56800002 4282326293
0.027873181 0.042034514 0.56800002 4281606420
0.029718045 0.042034514 0.56800002 4283051297
0.03167405 0.042182527 0.57000005 4284425495
0.033760674 0.042478543 0.574 4284161810
0.035749156 0.042626552 0.57600003 4282460945
0.037750628 0.042774558 0.57800001 4281280783
0.039696541 0.042848568 0.57900006 4280953103
0.041648939 0.042922571 0.58000004 4280822030
0.043607835 0.042996574 0.58100003 4280755983
0.045494925 0.042996574 0.58100003 4280755985
0.047382012 0.042996574 0.58100003 4280887573
0.049353905 0.043070577 0.58200002 4280821780
0.05124424 0.043070577 0.58200002 4281671697
0.053134575 0.043070577 0.58200002 4282785297
0.055024914 0.043070577 0.58200002 4284816919
0.05691525 0.043070577 0.58200002 4285539613
0.058805589 0.043070577 0.58200002 4285539350
0.06080021 0.04314458 0.583 4285539350
0.062693797 0.04314458 0.583 4285277468
0.064587384 0.04314458 0.583 4288112993
0.066595003 0.04321859 0.58400005 4287270015
0.068491839 0.04321859 0.58400005 4282067232
0.070388667 0.04321859 0.58400005 4286744445
0.022456571 0.044111766 0.57100004 4286091648
0.024140874 0.043802753 0.56700003 4283582272
0.025890842 0.043648243 0.565 4282195738
0.027676892 0.043570992 0.56400001 4281343507
0.029561082 0.043648243 0.565 4281475863
0.031507343 0.043802753 0.56700003 4283836440
0.033701856 0.044266272 0.57300001 4284425495
0.035687093 0.044420782 0.57500005 4284227603
0.037685316 0.044575289 0.57700002 4283180305
0.039696541 0.044729795 0.57900006 4281411855
0.041648939 0.04480705 0.58000004 4281083917
0.043532778 0.04480705 0.58000004 4281149712
0.045494925 0.044884302 0.58100003 4280952849
0.047382012 0.044884302 0.58100003 4280821263
0.049269103 0.044884302 0.58100003 4280952079
0.05124424 0.044961553 0.58200002 4281279247
0.053134575 0.044961553 0.58200002 4282721301
0.055024914 0.044961553 0.58200002 4285145882
0.05691525 0.044961553 0.58200002 4285539098
0.058805589 0.044961553 0.58200002 4285735961
0.060695924 0.044961553 0.58200002 4285209617
0.062693797 0.045038808 0.583 4286068524
0.064587384 0.045038808 0.583 4284884252
0.066480964 0.045038808 0.583 4283771429
0.068491839 0.045116063 0.58400005 4283048989
0.033643041 0.046047505 0.57200003 4283574300
0.035687093 0.046289016 0.57500005 4284817687
0.037685316 0.046450019 0.57700002 4284948503
0.039627977 0.046530519 0.57800001 4284162323
0.041648939 0.046691529 0.58000004 4283113999
0.043532778 0.046691529 0.58000004 4282000142
0.045494925 0.046772029 0.58100003 4281607183
0.047382012 0.046772029 0.58100003 4281212941
0.049269103 0.046772029 0.58100003 4281212941
0.051156193 0.046772029 0.58100003 4281866508
0.05304328 0.046772029 0.58100003 4283571733
0.055024914 0.046852533 0.58200002 4285342232
0.05691525 0.046852533 0.58200002 4285670168
0.058805589 0.046852533 0.58200002 4285932568
0.060695924 0.046852533 0.58200002 4285078029
0.062693797 0.046933033 0.583 4286989624
0.064587384 0.046933033 0.583 4285474845
0.066480964 0.046933033 0.583 4284097564
0.068374552 0.046933033 0.583 4283641899
0.033760674 0.048073493 0.574 4280618759
0.035749156 0.048241001 0.57600003 4283964946
0.037685316 0.048324749 0.57700002 4285277468
0.039696541 0.048492257 0.57900006 4285210900
0.041577131 0.048492257 0.57900006 4285474072
0.043532778 0.048576009 0.58000004 4285210900
0.045416623 0.048576009 0.58000004 4285210646
0.047382012 0.048659757 0.58100003 4284949273
0.049269103 0.048659757 0.58100003 4285213215
0.051156193 0.048659757 0.58100003 4284555800
0.05304328 0.048659757 0.58100003 4285147424
0.055024914 0.048743509 0.58200002 4285803810
0.05691525 0.048743509 0.58200002 4285079830
0.058805589 0.048743509 0.58200002 4285210133
0.060695924 0.048743509 0.58200002 4285275926
0.062693797 0.048827261 0.583 4285474588
0.064587384 0.048827261 0.583 4285277466
0.066480964 0.048827261 0.583 4283703065
0.068374552 0.048827261 0.583 4284236091
0.033819493 0.050025482 0.57500005 4282719252
0.035749156 0.050112482 0.57600003 4284752664
0.037750628 0.050286483 0.57800001 4285144340
0.039696541 0.050373487 0.57900006 4285802776
0.041648939 0.050460488 0.58000004 4285539604
0.043532778 0.050460488 0.58000004 4285670166
0.045416623 0.050460488 0.58000004 4285933338
0.047382012 0.050547484 0.58100003 4286593321
0.049269103 0.050547484 0.58100003 4286462764
0.051156193 0.050547484 0.58100003 4288571740
0.053134575 0.050634485 0.58200002 4283834390
0.055024914 0.050634485 0.58200002 4284959292
0.05691525 0.050634485 0.58200002 4283906091
0.058805589 0.050634485 0.58200002 4284490007
0.06080021 0.050721485 0.583 4284621080
0.062693797 0.050721485 0.583 4284751896
0.064587384 0.050721485 0.583 4284358167
0.066480964 0.050721485 0.583 4283179038
0.068374552 0.050721485 0.583 4284898134
0.033878308 0.051983967 0.57600003 4284756777
0.035811223 0.052074216 0.57700002 4285014294
0.037815943 0.052254722 0.57900006 4285078547
0.039696541 0.052254722 0.57900006 4285736731
0.041648939 0.05234497 0.58000004 4285210387
0.043532778 0.05234497 0.58000004 4284618763
0.045416623 0.05234497 0.58000004 4283699976
0.047382012 0.052435219 0.58100003 4281863428
0.049269103 0.052435219 0.58100003 4281536261
0.05124424 0.052525468 0.58200002 4281340429
0.053134575 0.052525468 0.58200002 4281343259
0.055024914 0.052525468 0.58200002 4285559392
0.057013039 0.052615717 0.583 4283646262
0.058906626 0.052615717 0.583 4283375899
0.06080021 0.052615717 0.583 4283572249
0.062693797 0.052615717 0.583 4283638042
0.064698175 0.05270597 0.58400005 4283572764
0.066480964 0.052615717 0.583 4282726965
0.028363906 0.054042447 0.57800001 4281153839
0.030241249 0.054042447 0.57800001 4280033305
0.032174166 0.054135952 0.57900006 4283778102
0.033995941 0.054042447 0.57800001 4283445794
0.035873286 0.054042447 0.57800001 4284490005
0.037815943 0.054135952 0.57900006 4284816915
0.039765101 0.054229449 0.58000004 4284882708
0.041648939 0.054229449 0.58000004 4284619536
0.043532778 0.054229449 0.58000004 4283700491
0.045494925 0.054322947 0.58100003 4282980366
0.047382012 0.054322947 0.58100003 4280685066
0.049353905 0.054416444 0.58200002 4280554509
0.05124424 0.054416444 0.58200002 4280620304
0.053134575 0.054416444 0.58200002 4280686097
0.055119459 0.054509941 0.583 4281341712
0.057013039 0.054509941 0.583 4281670164
0.059007674 0.054603446 0.58400005 4282458908
0.060904503 0.054603446 0.58400005 4282129943
0.062801339 0.054603446 0.58400005 4283053100
0.064698175 0.054603446 0.58400005 4284043337
0.066595003 0.054603446 0.58400005 4286155904
0.028363906 0.05592043 0.57800001 4281285940
0.030293573 0.056017179 0.57900006 4279639832
0.032174166 0.056017179 0.57900006 4279440393
0.033995941 0.05592043 0.57800001 4283648569
0.035935353 0.056017179 0.57900006 4283112465
0.037815943 0.056017179 0.57900006 4283768597
0.039765101 0.056113929 0.58000004 4283833620
0.041648939 0.056113929 0.58000004 4283570448
0.043532778 0.056113929 0.58000004 4282717967
0.045494925 0.056210674 0.58100003 4282193678
0.047382012 0.056210674 0.58100003 4281800719
0.049353905 0.05630742 0.58200002 4281934101
0.05124424 0.05630742 0.58200002 4281277716
0.053225871 0.05640417 0.583 4281870369
0.055119459 0.05640417 0.583 4283781961
0.057110839 0.056500919 0.58400005 4284704860
0.059007674 0.056500919 0.58400005 4284970596
0.060904503 0.056500919 0.58400005 4285036389
0.062908873 0.056597669 0.58500004 4285036905
0.064698175 0.056500919 0.58400005 4285037675
0.030293573 0.05789841 0.57900006 4279903774
0.032174166 0.05789841 0.57900006 4279837209
0.03405476 0.05789841 0.57900006 4279900946
0.035935353 0.05789841 0.57900006 4283976764
0.037881255 0.057998408 0.58000004 4282655256
0.039765101 0.057998408 0.58000004 4282785297
0.041648939 0.057998408 0.58000004 4282983446
0.043532778 0.057998408 0.58000004 4284106038
0.045494925 0.058098402 0.58100003 4281212691
0.047382012 0.058098402 0.58100003 4280686860
0.049353905 0.0581984 0.58200002 4280227854
0.05124424 0.0581984 0.58200002 4279966739
0.053225871 0.058298394 0.583 4280229914
0.055119459 0.058298394 0.583 4280955177
0.057110839 0.058398396 0.58400005 4283786326
0.059007674 0.058398396 0.58400005 4284117086
0.061008792 0.058498394 0.58500004 4284248672
0.062908873 0.058498394 0.58500004 4284577637
0.030293573 0.05977964 0.57900006 4279970594
0.032174166 0.05977964 0.57900006 4279772188
0.03405476 0.05977964 0.57900006 4279639832
0.035935353 0.05977964 0.57900006 4280033559
0.037815943 0.05977964 0.57900006 4280360725
0.039765101 0.059882887 0.58000004 4280819218
0.041648939 0.059882887 0.58000004 4280556046
0.043532778 0.059882887 0.58000004 4280293647
0.045416623 0.059882887 0.58000004 4280031760
0.047382012 0.059986129 0.58100003 4279769617
0.049353905 0.060089376 0.58200002 4279769617
0.05124424 0.060089376 0.58200002 4279507731
0.053225871 0.060192619 0.583 4279639317
0.055119459 0.060192619 0.583 4279903004
0.032174166 0.061660871 0.57900006 4279640602
0.03405476 0.061660871 0.57900006 4279903004
0.035935353 0.061660871 0.57900006 4279639317
0.037815943 0.061660871 0.57900006 4279836696
0.039765101 0.061767366 0.58000004 4279836950
0.041648939 0.061767366 0.58000004 4279573778
0.043532778 0.061767366 0.58000004 4279507731
0.045416623 0.061767366 0.58000004 4279507731
0.047300462 0.061767366 0.58000004 4279770133
0.03405476 0.063542098 0.57900006 4279903772
0.035935353 0.063542098 0.57900006 4279903002
0.037815943 0.063542098 0.57900006 4279771416
0.039696541 0.063542098 0.57900006 4279639830
0.041648939 0.063651845 0.58000004 4279442451
0.043532778 0.063651845 0.58000004 4279442451
0.045416623 0.063651845 0.58000004 4279508244
0.042733997 0.038344808 0.58149779 4294967295
0.042733997 0.038344808 0.58149779 4294901760
0.042733997 0.037845433 0.58152282 4294901760
0.042733997 0.037346061 0.5815478 4294901760
0.042733997 0.036846686 0.58157283 4294901760
0.042733997 0.036347311 0.58159786 4294901760
0.042733997 0.03584794 0.58162284 4294901760
0.042733997 0.035348564 0.58164787 4294901760
0.042733997 0.034849189 0.58167285 4294901760
0.042733997 0.034349814 0.58169788 4294901760
0.042733997 0.033850443 0.58172292 4294901760
0.042733997 0.033351067 0.58174789 4294901760
0.042733997 0.032851692 0.58177292 4294901760
0.042733997 0.032352321 0.58179796 4294901760
0.042733997 0.031852946 0.58182293 4294901760
0.042733997 0.031353571 0.58184797 4294901760
0.042733997 0.030854197 0.581873 4294901760
0.042733997 0.030354824 0.58189797 4294901760
0.042733997 0.029855449 0.58192301 4294901760
0.042733997 0.029356075 0.58194804 4294901760
0.042733997 0.028856702 0.58197302 4294901760
0.042733997 0.028357327 0.58199805 4294901760
0.042733997 0.027857954 0.58202302 4294901760
0.042733997 0.02735858 0.58204806 4294901760
0.042733997 0.026859205 0.58207309 4294901760
0.042733997 0.026359832 0.58209807 4294901760
0.042733997 0.025860459 0.5821231 4294901760
0.042733997 0.025361083 0.58214813 4294901760
0.042733997 0.024861708 0.58217311 4294901760
0.042733997 0.024362337 0.58219814 4294901760
0.042733997 0.023862962 0.58222318 4294901760
0.042733997 0.023363587 0.58224815 4294901760
0.042733997 0.022864213 0.58227319 4294901760
0.042733997 0.02236484 0.58229816 4294901760
0.042733997 0.021865465 0.58232319 4294901760
0.042733997 0.021366091 0.58234823 4294901760
0.042733997 0.020866718 0.5823732 4294901760
0.042733997 0.020367343 0.58239824 4294901760
0.042733997 0.01986797 0.58242327 4294901760
0.042733997 0.019368596 0.58244824 4294901760
0.042733997 0.018869223 0.58247328 4294901760
0.042733997 0.018369848 0.58249831 4294901760
0.042733997 0.017870475 0.58252329 4294901760
0.042733997 0.017371099 0.58254832 4294901760
0.042733997 0.016871724 0.58257335 4294901760
0.042733997 0.016372351 0.58259833 4294901760
0.042733997 0.015872978 0.58262336 4294901760
0.042733997 0.015373603 0.58264834 4294901760
0.042733997 0.014874229 0.58267337 4294901760
0.042733997 0.014374856 0.5826984 4294901760
0.042733997 0.013875481 0.58272338 4294901760
0.042733997 0.013376107 0.58274841 4294901760
0.042733997 0.012876734 0.58277345 4294901760
0.042733997 0.012377361 0.58279842 4294901760
0.042733997 0.011877988 0.58282346 4294901760
0.042733997 0.011378611 0.58284849 4294901760
0.042733997 0.010879237 0.58287346 4294901760
0.042733997 0.010379864 0.5828985 4294901760
0.042733997 0.0098804906 0.58292347 4294901760
0.042733997 0.0093811154 0.58294851 4294901760
0.042733997 0.0088817421 0.58297354 4294901760
0.042733997 0.008382367 0.58299851 4294901760
0.042733997 0.0078829918 0.58302355 4294901760
0.042733997 0.0073836185 0.58304858 4294901760
0.042733997 0.0068842471 0.58307356 4294901760
0.042733997 0.0063848719 0.58309859 4294901760
0.042733997 0.0058854967 0.58312362 4294901760
0.042733997 0.0053861216 0.5831486 4294901760
0.042733997 0.0048867501 0.58317363 4294901760
0.042733997 0.004387375 0.58319867 4294901760
0.042733997 0.0038879998 0.58322364 4294901760
0.042733997 0.0033886284 0.58324867 4294901760
0.042733997 0.0028892532 0.58327365 4294901760
0.042733997 0.002389878 0.58329868 4294901760
0.042733997 0.0018905029 0.58332372 4294901760
0.042733997 0.0013911314 0.58334869 4294901760
0.042733997 0.00089175627 0.58337373 4294901760
0.042733997 0.00039238483 0.58339876 4294901760
0.042733997 -0.00010699034 0.58342373 4294901760
0.042733997 -0.00060636178 0.58344877 4294901760
0.042733997 -0.0011057407 0.5834738 4294901760
0.042733997 -0.0016051121 0.58349878 4294901760
0.042733997 -0.0021044873 0.58352381 4294901760
0.042733997 -0.0026038587 0.58354878 4294901760
0.042733997 -0.0031032339 0.58357382 4294901760
0.042733997 -0.003602609 0.58359885 4294901760
0.042733997 -0.0041019842 0.58362383 4294901760
0.042733997 -0.0046013594 0.58364886 4294901760
0.042733997 -0.0051007308 0.58367389 4294901760
0.042733997 -0.005600106 0.58369887 4294901760
0.042733997 -0.0060994774 0.5837239 4294901760
0.042733997 -0.0065988526 0.58374894 4294901760
0.042733997 -0.0070982277 0.58377391 4294901760
0.042733997 -0.0075976029 0.58379894 4294901760
0.042733997 -0.0080969743 0.58382398 4294901760
0.042733997 -0.0085963495 0.58384895 4294901760
0.042733997 -0.0090957209 0.58387399 4294901760
0.042733997 -0.0095950961 0.58389896 4294901760
0.042733997 -0.010094471 0.583924 4294901760
0.042733997 -0.010593846 0.58394903 4294901760
0.042733997 -0.011093218 0.583974 4294901760
0.042733997 -0.011592593 0.58399904 4294901760
0.042733997 0.038344808 0.58149779 4278255360
0.04323123 0.038347434 0.58155024 4278255360
0.043728463 0.038350064 0.58160269 4278255360
0.044225696 0.038352691 0.5816552 4278255360
0.04472293 0.038355321 0.58170766 4278255360
0.045220163 0.038357947 0.58176011 4278255360
0.045717396 0.038360573 0.58181256 4278255360
0.046214629 0.038363203 0.58186501 4278255360
0.046711862 0.03836583 0.58191752 4278255360
0.047209095 0.03836846 0.58196998 4278255360
0.047706328 0.038371086 0.58202243 4278255360
0.048203558 0.038373712 0.58207488 4278255360
0.048700795 0.038376343 0.58212733 4278255360
0.049198024 0.038378969 0.58217978 4278255360
0.049695261 0.038381595 0.5822323 4278255360
0.05019249 0.038384225 0.58228475 4278255360
0.050689723 0.038386852 0.5823372 4278255360
0.051186956 0.038389482 0.58238965 4278255360
0.051684193 0.038392108 0.5824421 4278255360
0.052181423 0.038394734 0.58249462 4278255360
0.052678656 0.038397364 0.58254707 4278255360
0.053175889 0.038399991 0.58259952 4278255360
0.053673122 0.038402621 0.58265197 4278255360
0.054170355 0.038405247 0.58270442 4278255360
0.054667588 0.038407873 0.58275694 4278255360
0.055164821 0.038410503 0.58280939 4278255360
0.055662055 0.03841313 0.58286184 4278255360
0.056159288 0.03841576 0.58291429 4278255360
0.056656521 0.038418386 0.58296674 4278255360
0.057153754 0.038421012 0.58301926 4278255360
0.057650987 0.038423643 0.58307171 4278255360
0.05814822 0.038426269 0.58312416 4278255360
0.05864545 0.038428895 0.58317661 4278255360
0.059142686 0.038431525 0.58322906 4278255360
0.059639916 0.038434152 0.58328152 4278255360
0.060137153 0.038436782 0.58333403 4278255360
0.060634386 0.038439408 0.58338648 4278255360
0.061131619 0.038442034 0.58343893 4278255360
0.061628848 0.038444664 0.58349138 4278255360
0.062126081 0.038447291 0.58354384 4278255360
0.062623315 0.038449921 0.58359635 4278255360
0.063120551 0.038452547 0.5836488 4278255360
0.063617781 0.038455173 0.58370125 4278255360
0.064115018 0.038457803 0.58375371 4278255360
0.064612247 0.03846043 0.58380616 4278255360
0.065109476 0.03846306 0.58385867 4278255360
0.065606713 0.038465686 0.58391112 4278255360
0.06610395 0.038468312 0.58396357 4278255360
0.06660118 0.038470943 0.58401603 4278255360
0.067098409 0.038473569 0.58406848 4278255360
0.067595646 0.038476199 0.58412099 4278255360
0.068092883 0.038478825 0.58417344 4278255360
0.068590112 0.038481452 0.58422589 4278255360
0.069087341 0.038484082 0.58427835 4278255360
0.069584578 0.038486708 0.5843308 4278255360
0.070081815 0.038489334 0.58438325 4278255360
0.070579045 0.038491964 0.58443576 4278255360
0.071076274 0.038494591 0.58448821 4278255360
0.071573511 0.038497221 0.58454067 4278255360
0.07207074 0.038499847 0.58459312 4278255360
0.072567977 0.038502473 0.58464557 4278255360
0.073065206 0.038505103 0.58469808 4278255360
0.073562443 0.03850773 0.58475053 4278255360
0.074059673 0.03851036 0.58480299 4278255360
0.074556902 0.038512986 0.58485544 4278255360
0.075054139 0.038515612 0.58490789 4278255360
0.075551376 0.038518243 0.5849604 4278255360
0.076048613 0.038520869 0.58501285 4278255360
0.076545835 0.038523499 0.58506531 4278255360
0.077043071 0.038526125 0.58511776 4278255360
0.077540308 0.038528752 0.58517021 4278255360
0.078037538 0.038531382 0.58522266 4278255360
0.078534774 0.038534008 0.58527517 4278255360
0.079032004 0.038536634 0.58532763 4278255360
0.079529241 0.038539264 0.58538008 4278255360
0.08002647 0.038541891 0.58543253 4278255360
0.0805237 0.038544521 0.58548498 4278255360
0.081020936 0.038547147 0.58553749 4278255360
0.081518166 0.038549773 0.58558995 4278255360
0.082015403 0.038552403 0.5856424 4278255360
0.082512632 0.03855503 0.58569485 4278255360
0.083009869 0.03855766 0.5857473 4278255360
0.083507106 0.038560286 0.58579981 4278255360
0.084004328 0.038562912 0.58585227 4278255360
0.084501565 0.038565543 0.58590472 4278255360
0.084998801 0.038568169 0.58595717 4278255360
0.085496038 0.038570799 0.58600962 4278255360
0.085993268 0.038573425 0.58606213 4278255360
0.086490497 0.038576052 0.58611459 4278255360
0.086987734 0.038578682 0.58616704 4278255360
0.087484963 0.038581308 0.58621949 4278255360
0.0879822 0.038583934 0.58627194 4278255360
0.088479429 0.038586564 0.58632439 4278255360
0.088976666 0.038589191 0.58637691 4278255360
0.089473896 0.038591821 0.58642936 4278255360
0.089971125 0.038594447 0.58648181 4278255360
0.090468362 0.038597073 0.58653426 4278255360
0.090965599 0.038599703 0.58658671 4278255360
0.091462828 0.03860233 0.58663923 4278255360
0.091960058 0.03860496 0.58669168 4278255360
0.092457294 0.038607586 0.58674413 4278255360
0.042733997 0.038344808 0.58149779 4278190335
0.042681467 0.038369682 0.58199441 4278190335
0.042628936 0.038394555 0.58249098 4278190335
0.04257641 0.038419429 0.58298761 4278190335
0.04252388 0.038444303 0.58348423 4278190335
0.042471349 0.038469177 0.58398086 4278190335
0.042418819 0.038494051 0.58447742 4278190335
0.042366292 0.038518924 0.58497405 4278190335
0.042313762 0.038543798 0.58547068 4278190335
0.042261232 0.038568672 0.5859673 4278190335
0.042208701 0.038593546 0.58646387 4278190335
0.042156175 0.038618423 0.58696049 4278190335
0.042103644 0.038643297 0.58745712 4278190335
0.042051114 0.038668171 0.58795375 4278190335
0.041998584 0.038693044 0.58845031 4278190335
0.041946054 0.038717918 0.58894694 4278190335
0.041893527 0.038742792 0.58944356 4278190335
0.041840997 0.038767666 0.58994019 4278190335
0.041788466 0.038792539 0.59043676 4278190335
0.041735936 0.038817413 0.59093338 4278190335
0.041683409 0.038842287 0.59143001 4278190335
0.041630879 0.038867161 0.59192663 4278190335
0.041578349 0.038892034 0.5924232 4278190335
0.041525818 0.038916908 0.59291983 4278190335
0.041473292 0.038941782 0.59341645 4278190335
0.041420761 0.038966656 0.59391308 4278190335
0.041368231 0.038991529 0.59440964 4278190335
0.041315701 0.039016403 0.59490627 4278190335
0.041263171 0.039041277 0.5954029 4278190335
0.041210644 0.039066151 0.59589946 4278190335
0.041158114 0.039091028 0.59639609 4278190335
0.041105583 0.039115902 0.59689271 4278190335
0.041053053 0.039140776 0.59738934 4278190335
0.041000526 0.03916565 0.59788591 4278190335
0.040947996 0.039190523 0.59838253 4278190335
0.040895466 0.039215397 0.59887916 4278190335
0.040842935 0.039240271 0.59937578 4278190335
0.040790409 0.039265145 0.59987235 4278190335
0.040737879 0.039290018 0.60036898 4278190335
0.040685348 0.039314892 0.6008656 4278190335
0.040632818 0.039339766 0.60136223 4278190335
0.040580288 0.03936464 0.60185879 4278190335
0.040527761 0.039389513 0.60235542 4278190335
0.040475231 0.039414387 0.60285205 4278190335
0.0404227 0.039439261 0.60334867 4278190335
0.04037017 0.039464135 0.60384524 4278190335
0.040317643 0.039489008 0.60434186 4278190335
0.040265113 0.039513882 0.60483849 4278190335
0.040212583 0.039538756 0.60533512 4278190335
0.040160052 0.03956363 0.60583168 4278190335
0.040107526 0.039588504 0.60632831 4278190335
0.040054996 0.039613381 0.60682493 4278190335
0.040002465 0.039638255 0.6073215 4278190335
0.039949935 0.039663129 0.60781813 4278190335
0.039897405 0.039688002 0.60831475 4278190335
0.039844878 0.039712876 0.60881138 4278190335
0.039792348 0.03973775 0.60930794 4278190335
0.039739817 0.039762624 0.60980457 4278190335
0.039687287 0.039787497 0.6103012 4278190335
0.03963476 0.039812371 0.61079782 4278190335
0.03958223 0.039837245 0.61129439 4278190335
0.0395297 0.039862119 0.61179101 4278190335
0.03947717 0.039886992 0.61228764 4278190335
0.039424643 0.039911866 0.61278427 4278190335
0.039372113 0.03993674 0.61328083 4278190335
0.039319582 0.039961614 0.61377746 4278190335
0.039267052 0.039986487 0.61427408 4278190335
0.039214522 0.040011361 0.61477071 4278190335
0.039161995 0.040036235 0.61526728 4278190335
0.039109465 0.040061109 0.6157639 4278190335
0.039056934 0.040085986 0.61626053 4278190335
0.039004404 0.04011086 0.61675715 4278190335
0.038951874 0.040135734 0.61725372 4278190335
0.038899347 0.040160608 0.61775035 4278190335
0.038846817 0.040185481 0.61824697 4278190335
0.038794287 0.040210355 0.61874354 4278190335
0.03874176 0.040235229 0.61924016 4278190335
0.03868923 0.040260103 0.61973679 4278190335
0.038636699 0.040284976 0.62023342 4278190335
0.038584169 0.04030985 0.62073004 4278190335
0.038531639 0.040334724 0.62122661 4278190335
0.038479112 0.040359598 0.62172323 4278190335
0.038426582 0.040384471 0.62221986 4278190335
0.038374051 0.040409345 0.62271643 4278190335
0.038321521 0.040434219 0.62321305 4278190335
0.038268991 0.040459093 0.62370968 4278190335
0.038216464 0.040483966 0.6242063 4278190335
0.038163934 0.04050884 0.62470287 4278190335
0.038111404 0.040533714 0.6251995 4278190335
0.038058877 0.040558588 0.62569612 4278190335
0.038006347 0.040583462 0.62619275 4278190335
0.037953816 0.040608339 0.62668931 4278190335
0.037901286 0.040633213 0.62718594 4278190335
0.037848756 0.040658087 0.62768257 4278190335
0.037796229 0.04068296 0.62817919 4278190335
0.037743699 0.040707834 0.62867576 4278190335
0.037691168 0.040732708 0.62917238 4278190335
0.037638638 0.040757582 0.62966901 4278190335
0.037586108 0.040782455 0.63016564 4278190335
0.037533581 0.040807329 0.6306622 4278190335
0.037481051 0.040832203 0.63115883 4278190335
0.042733997 0.038344808 0.58149779 4294967295
0.042839058 0.03829506 0.5805046 4294967295
0.042944115 0.038245313 0.57951134 4294967295
0.043049175 0.038195565 0.57851815 4294967295
0.043154232 0.038145818 0.5775249 4294967295
0.043259293 0.03809607 0.57653171 4294967295
0.04336435 0.038046319 0.57553846 4294967295
0.04346941 0.037996572 0.57454526 4294967295
0.043574467 0.037946824 0.57355201 4294967295
0.043679528 0.037897076 0.57255882 4294967295
0.043784585 0.037847329 0.57156557 4294967295
0.043889645 0.037797581 0.57057238 4294967295
0.043994702 0.037747834 0.56957912 4294967295
0.044099763 0.037698086 0.56858593 4294967295
0.04420482 0.037648339 0.56759268 4294967295
0.044309881 0.037598591 0.56659949 4294967295
0.044414937 0.037548844 0.56560624 4294967295
0.044519998 0.037499093 0.56461304 4294967295
0.044625059 0.037449345 0.56361979 4294967295
0.044730116 0.037399597 0.5626266 4294967295
0.044835176 0.03734985 0.56163335 4294967295
0.044940233 0.037300102 0.56064016 4294967295
0.045045294 0.037250355 0.5596469 4294967295
0.045150351 0.037200607 0.55865371 4294967295
0.045255411 0.03715086 0.55766046 4294967295
0.045360468 0.037101112 0.55666727 4294967295
0.045465529 0.037051365 0.55567408 4294967295
0.045570586 0.037001617 0.55468082 4294967295
0.045675647 0.036951866 0.55368763 4294967295
0.045780703 0.036902118 0.55269438 4294967295
0.045885764 0.036852371 0.55170119 4294967295
0.045990821 0.036802623 0.55070794 4294967295
0.046095882 0.036752876 0.54971474 4294967295
0.046200939 0.036703128 0.54872149 4294967295
0.046305999 0.036653381 0.5477283 4294967295
0.04641106 0.036603633 0.54673505 4294967295
0.046516117 0.036553886 0.54574186 4294967295
0.046621177 0.036504138 0.5447486 4294967295
0.046726234 0.036454391 0.54375541 4294967295
0.046831295 0.036404639 0.54276216 4294967295
0.046936352 0.036354892 0.54176897 4294967295
0.047041412 0.036305144 0.54077572 4294967295
0.047146469 0.036255397 0.53978252 4294967295
0.04725153 0.036205649 0.53878927 4294967295
0.047356587 0.036155902 0.53779608 4294967295
0.047461648 0.036106154 0.53680283 4294967295
0.047566704 0.036056407 0.53580964 4294967295
0.047671765 0.036006659 0.53481638 4294967295
0.047776822 0.035956912 0.53382319 4294967295
0.047881883 0.035907164 0.53282994 4294967295
0.04798694 0.035857417 0.53183675 4294967295
0.048092 0.035807665 0.53084356 4294967295
0.048197061 0.035757918 0.5298503 4294967295
0.048302118 0.03570817 0.52885711 4294967295
