# .PCD v0.7 - Point Cloud Data file format
VERSION 0.7
FIELDS x y z rgb
SIZE 4 4 4 4
TYPE F F F U
COUNT 1 1 1 1
WIDTH 1055
HEIGHT 1
VIEWPOINT 0 0 0 1 0 0 0
POINTS 1055
DATA ascii
0.040176462 0.0071910922 0.58600003 4287392602
0.043833006 0.0071665496 0.58400005 4287589215
0.045651533 0.0071542775 0.583 4284098845
0.047463562 0.0071420064 0.58200002 4284556316
0.049269103 0.0071297348 0.58100003 4285279523
0.051068146 0.0071174637 0.58000004 4285606174
0.052860688 0.0071051922 0.57900006 4286922034
0.054646734 0.0070929201 0.57800001 4285277986
0.056524079 0.0070929201 0.57800001 4285212193
0.058401424 0.0070929201 0.57800001 4283905321
0.032340869 0.0090329843 0.58200002 4285413672
0.034290023 0.0090485038 0.583 4286203188
0.036245674 0.0090640252 0.58400005 4284754460
0.038207818 0.0090795457 0.58500004 4283965458
0.040107902 0.0090795457 0.58500004 4282982928
0.042007979 0.0090795457 0.58500004 4284894005
0.043833006 0.0090640252 0.58400005 4284632886
0.045651533 0.0090485038 0.583 4284237874
0.047463562 0.0090329843 0.58200002 4285155126
0.049269103 0.0090174638 0.58100003 4284295195
0.051068146 0.0090019433 0.58000004 4285145107
0.052860688 0.0089864228 0.57900006 4284750349
0.054646734 0.0089709014 0.57800001 4286395949
0.056524079 0.0089709014 0.57800001 4284883482
0.058401424 0.0089709014 0.57800001 4283704089
0.024651794 0.010867653 0.57900006 4286286197
0.026532387 0.010867653 0.57900006 4284501312
0.028462052 0.010886422 0.58000004 4285017121
0.030345893 0.010886422 0.58000004 4285871658
0.032340869 0.010923961 0.58200002 4284884502
0.034231205 0.010923961 0.58200002 4285409306
0.036183607 0.010942731 0.583 4283701770
0.038142506 0.010961502 0.58400005 4285680439
0.040107902 0.010980271 0.58500004 4284503093
0.042007979 0.010980271 0.58500004 4284239921
0.043833006 0.010961502 0.58400005 4284240434
0.045651533 0.010942731 0.583 4284305714
0.047463562 0.010923961 0.58200002 4285025074
0.049269103 0.010905192 0.58100003 4284229400
0.051068146 0.010886422 0.58000004 4284882710
0.052860688 0.010867653 0.57900006 4284816915
0.054646734 0.010848883 0.57800001 4284816915
0.056524079 0.010848883 0.57800001 4284357906
0.058401424 0.010848883 0.57800001 4283111698
0.06017448 0.010830113 0.57700002 4283310108
0.022731869 0.012726863 0.57800001 4285171319
0.024651794 0.012748883 0.57900006 4284966233
0.026532387 0.012748883 0.57900006 4284168497
0.028462052 0.012770901 0.58000004 4285212445
0.030345893 0.012770901 0.58000004 4285080087
0.032285299 0.01279292 0.58100003 4287055671
0.034231205 0.012814938 0.58200002 4285277466
0.036183607 0.012836957 0.583 4284096017
0.038142506 0.012858977 0.58400005 4286929475
0.040039342 0.012858977 0.58400005 4284960046
0.041936174 0.012858977 0.58400005 4287789147
0.043833006 0.012858977 0.58400005 4286668104
0.045651533 0.012836957 0.583 4283375374
0.047463562 0.012814938 0.58200002 4283899663
0.049269103 0.01279292 0.58100003 4284162321
0.051068146 0.012770901 0.58000004 4283964944
0.052860688 0.012748883 0.57900006 4283964946
0.054741282 0.012748883 0.57900006 4283965206
0.056524079 0.012726863 0.57800001 4283308561
0.058401424 0.012726863 0.57800001 4282062353
0.06017448 0.012704845 0.57700002 4285751127
0.022731869 0.014604844 0.57800001 4285434231
0.024609216 0.014604844 0.57800001 4283649344
0.026532387 0.014630113 0.57900006 4283509538
0.028412981 0.014630113 0.57900006 4284752664
0.030345893 0.014655381 0.58000004 4285278238
0.032285299 0.014680648 0.58100003 4284948503
0.034231205 0.014705916 0.58200002 4284291343
0.036183607 0.014731183 0.583 4283700487
0.038077191 0.014731183 0.583 4285148957
0.040039342 0.014756452 0.58400005 4283571470
0.041936174 0.014756452 0.58400005 4282914573
0.043833006 0.014756452 0.58400005 4282127367
0.045651533 0.014731183 0.583 4281732609
0.047463562 0.014705916 0.58200002 4281995266
0.049269103 0.014680648 0.58100003 4282586635
0.051068146 0.014655381 0.58000004 4282455049
0.052951984 0.014655381 0.58000004 4282586635
0.054741282 0.014630113 0.57900006 4283573016
0.056524079 0.014604844 0.57800001 4283704089
0.058401424 0.014604844 0.57800001 4282722332
0.06017448 0.014579576 0.57700002 4287466106
0.022731869 0.016482826 0.57800001 4285302645
0.024609216 0.016482826 0.57800001 4282461988
0.026486561 0.016482826 0.57800001 4283772962
0.028412981 0.016511343 0.57900006 4283769364
0.030345893 0.016539861 0.58000004 4284359702
0.032285299 0.016568378 0.58100003 4284162323
0.034231205 0.016596893 0.58200002 4283833360
0.036121543 0.016596893 0.58200002 4283308813
0.038077191 0.01662541 0.583 4282716676
0.040039342 0.016653929 0.58400005 4282657043
0.041936174 0.016653929 0.58400005 4286147920
0.043833006 0.016653929 0.58400005 4284899648
0.045651533 0.01662541 0.583 4284504630
0.047463562 0.016596893 0.58200002 4283117594
0.049353905 0.016596893 0.58200002 4282193676
0.051156193 0.016568378 0.58100003 4282390287
0.052951984 0.016539861 0.58000004 4282192908
0.054741282 0.016511343 0.57900006 4282192908
0.056621876 0.016511343 0.57900006 4282849553
0.058401424 0.016482826 0.57800001 4283835934
0.060383063 0.016511343 0.57900006 4283642921
0.022692541 0.018329041 0.57700002 4285828476
0.024566639 0.018329041 0.57700002 4283247393
0.026486561 0.018360807 0.57800001 4282981393
0.028412981 0.018392574 0.57900006 4282850575
0.030345893 0.01842434 0.58000004 4283309842
0.032285299 0.018456105 0.58100003 4283308559
0.03417239 0.018456105 0.58100003 4283046157
0.036121543 0.018487873 0.58200002 4281536513
0.038077191 0.018519638 0.583 4284698677
0.039970778 0.018519638 0.583 4282728479
0.041936174 0.018551406 0.58400005 4285756492
0.043757945 0.018519638 0.583 4286546773
0.045651533 0.018519638 0.583 4285361216
0.047545116 0.018519638 0.583 4281997830
0.049353905 0.018487873 0.58200002 4282522125
0.051156193 0.018456105 0.58100003 4282717967
0.05304328 0.018456105 0.58100003 4282389772
0.054835826 0.01842434 0.58000004 4282062605
0.056719668 0.01842434 0.58000004 4282129680
0.058502469 0.018392574 0.57900006 4282389774
0.060383063 0.018392574 0.57900006 4283967522
0.062263653 0.018392574 0.57900006 4286281062
0.022653213 0.020168759 0.57600003 4286551429
0.024566639 0.020203773 0.57700002 4283901981
0.026440736 0.020203773 0.57700002 4283837470
0.028412981 0.020273805 0.57900006 4283645991
0.030345893 0.020308819 0.58000004 4282983698
0.032285299 0.020343835 0.58100003 4283441682
0.034231205 0.020378849 0.58200002 4281864193
0.036121543 0.020378849 0.58200002 4284965441
0.038077191 0.020413864 0.583 4282401049
0.039970778 0.020413864 0.583 4284705341
0.041864362 0.020413864 0.583 4283521065
0.043757945 0.020413864 0.583 4282467609
0.045651533 0.020413864 0.583 4282860578
0.047545116 0.020413864 0.583 4282327572
0.049353905 0.020378849 0.58200002 4282588434
0.05124424 0.020378849 0.58200002 4283112211
0.05304328 0.020343835 0.58100003 4282914832
0.05493037 0.020343835 0.58100003 4283710249
0.056719668 0.020308819 0.58000004 4283187750
0.05860351 0.020308819 0.58000004 4281670412
0.060487349 0.020308819 0.58000004 4282719250
0.062263653 0.020273805 0.57900006 4283375899
0.070027083 0.020343835 0.58100003 4285085488
0.071914166 0.020343835 0.58100003 4285617226
0.022653213 0.02204024 0.57600003 4285100899
0.024524063 0.02204024 0.57600003 4283640093
0.026440736 0.022078505 0.57700002 4283578145
0.028412981 0.022155035 0.57900006 4284238126
0.030345893 0.022193298 0.58000004 4283377171
0.032285299 0.022231562 0.58100003 4282258951
0.034231205 0.022269826 0.58200002 4285291328
0.036121543 0.022269826 0.58200002 4282269465
0.038077191 0.022308089 0.583 4282664736
0.039970778 0.022308089 0.583 4282204701
0.041864362 0.022308089 0.583 4281349653
0.043757945 0.022308089 0.583 4279045633
0.045651533 0.022308089 0.583 4279111428
0.047545116 0.022308089 0.583 4280822048
0.049438704 0.022308089 0.583 4279438340
0.051332287 0.022308089 0.583 4280158468
0.053134575 0.022269826 0.58200002 4281735185
0.055024914 0.022269826 0.58200002 4283713327
0.05691525 0.022269826 0.58200002 4282597408
0.058704548 0.022231562 0.58100003 4282662690
0.060591638 0.022231562 0.58100003 4281014019
0.062371191 0.022193298 0.58000004 4282981143
0.064365819 0.022231562 0.58100003 4284230696
0.066252902 0.022231562 0.58100003 4287654495
0.068139993 0.022231562 0.58100003 4285412138
0.070027083 0.022231562 0.58100003 4285607975
0.071914166 0.022231562 0.58100003 4285806383
0.073801257 0.022231562 0.58100003 4284041792
0.024524063 0.023911724 0.57600003 4283049239
0.026440736 0.023953237 0.57700002 4283711784
0.028412981 0.024036264 0.57900006 4283971102
0.030345893 0.024077777 0.58000004 4283177995
0.032285299 0.02411929 0.58100003 4282920985
0.034231205 0.024160802 0.58200002 4281610000
0.036121543 0.024160802 0.58200002 4282138140
0.038077191 0.024202315 0.583 4281480212
0.039970778 0.024202315 0.583 4280888343
0.041864362 0.024202315 0.583 4279243271
0.043757945 0.024202315 0.583 4279112205
0.045651533 0.024202315 0.583 4278914826
0.047545116 0.024202315 0.583 4281217328
0.049438704 0.024202315 0.583 4278454273
0.051332287 0.024202315 0.583 4282730302
0.053225871 0.024202315 0.583 4279965969
0.055119459 0.024202315 0.583 4279965958
0.057013039 0.024202315 0.583 4282335008
0.058805589 0.024160802 0.58200002 4282335008
0.060695924 0.024160802 0.58200002 4282991914
0.062586263 0.024160802 0.58200002 4282062090
0.064476602 0.024160802 0.58200002 4283834653
0.066252902 0.02411929 0.58100003 4286857272
0.068139993 0.02411929 0.58100003 4287383616
0.070027083 0.02411929 0.58100003 4286330156
0.071914166 0.02411929 0.58100003 4285409054
0.073801257 0.02411929 0.58100003 4284233263
0.028462052 0.025962256 0.58000004 4283639573
0.030345893 0.025962256 0.58000004 4282651912
0.032285299 0.026007017 0.58100003 4284108852
0.034231205 0.02605178 0.58200002 4281413906
0.036183607 0.026096541 0.583 4282072865
0.038077191 0.026096541 0.583 4280625167
0.039970778 0.026096541 0.583 4279045894
0.041864362 0.026096541 0.583 4279177998
0.043757945 0.026096541 0.583 4279442200
0.045651533 0.026096541 0.583 4284312418
0.047545116 0.026096541 0.583 4283984217
0.049438704 0.026096541 0.583 4284510047
0.051420338 0.026141306 0.58400005 4279507985
0.053317171 0.026141306 0.58400005 4280625442
0.055214006 0.026141306 0.58400005 4281085216
0.057110839 0.026141306 0.58400005 4281874468
0.058906626 0.026096541 0.583 4282203168
0.06080021 0.026096541 0.583 4282071582
0.062586263 0.02605178 0.58200002 4281734406
0.064476602 0.02605178 0.58200002 4283440917
0.066366933 0.02605178 0.58200002 4284882708
0.068139993 0.026007017 0.58100003 4285144853
0.070027083 0.026007017 0.58100003 4285145623
0.071914166 0.026007017 0.58100003 4284949271
0.073801257 0.026007017 0.58100003 4283967007
0.075688347 0.026007017 0.58100003 4284370757
0.019075679 0.027894748 0.58100003 4285499509
0.020962765 0.027894748 0.58100003 4283973169
0.022849856 0.027894748 0.58100003 4283376151
0.026624035 0.027894748 0.58100003 4284042546
0.028462052 0.027846737 0.58000004 4282980877
0.030398212 0.027894748 0.58100003 4281665536
0.032285299 0.027894748 0.58100003 4282991655
0.034231205 0.02794276 0.58200002 4280163585
0.036121543 0.02794276 0.58200002 4281347861
0.038077191 0.02799077 0.583 4278651392
0.039970778 0.02799077 0.583 4282271287
0.041864362 0.02799077 0.583 4278652422
0.043757945 0.02799077 0.583 4282996810
0.045651533 0.02799077 0.583 4281483058
0.047545116 0.02799077 0.583 4281151009
0.049523506 0.028038785 0.58400005 4281547818
0.051420338 0.028038785 0.58400005 4284444766
0.053317171 0.028038785 0.58400005 4278390785
0.055308551 0.028086795 0.58500004 4281152040
0.057208627 0.028086795 0.58500004 4278848512
0.059007674 0.028038785 0.58400005 4282071582
0.060904503 0.028038785 0.58400005 4281939996
0.062693797 0.02799077 0.583 4282921246
0.064587384 0.02799077 0.583 4282718991
0.066366933 0.02794276 0.58200002 4284160529
0.068257272 0.02794276 0.58200002 4284882710
0.070027083 0.027894748 0.58100003 4284948503
0.071914166 0.027894748 0.58100003 4284556570
0.073801257 0.027894748 0.58100003 4282719770
0.075688347 0.027894748 0.58100003 4283187514
0.01538051 0.02993626 0.58400005 4285631356
0.017247757 0.029884996 0.583 4285499257
0.019075679 0.029782476 0.58100003 4286418044
0.020962765 0.029782476 0.58100003 4284427812
0.022810528 0.029731216 0.58000004 4285610031
0.02469437 0.029731216 0.58000004 4283443479
0.026624035 0.029782476 0.58100003 4284761134
0.028462052 0.029731216 0.58000004 4283703317
0.030398212 0.029782476 0.58100003 4282126852
0.032285299 0.029782476 0.58100003 4284171050
0.034231205 0.029833736 0.58200002 4282985495
0.036121543 0.029833736 0.58200002 4282985756
0.038011879 0.029833736 0.58200002 4279240960
0.039902218 0.029833736 0.58200002 4279442192
0.041792553 0.029833736 0.58200002 4280955944
0.043757945 0.029884996 0.583 4281219364
0.045651533 0.029884996 0.583 4283849283
0.047545116 0.029884996 0.583 4282992936
0.049438704 0.029884996 0.583 4280821780
0.051420338 0.02993626 0.58400005 4281219886
0.053317171 0.02993626 0.58400005 4282206781
0.055308551 0.02998752 0.58500004 4279179020
0.057208627 0.02998752 0.58500004 4279046662
0.059108712 0.02998752 0.58500004 4282005791
0.060904503 0.02993626 0.58400005 4281611031
0.062801339 0.02993626 0.58400005 4283251493
0.064587384 0.029884996 0.583 4282588688
0.066366933 0.029833736 0.58200002 4283767827
0.068257272 0.029833736 0.58200002 4283833360
0.070147611 0.029833736 0.58200002 4283833874
0.071914166 0.029782476 0.58100003 4283505938
0.073801257 0.029782476 0.58100003 4283250741
0.075688347 0.029782476 0.58100003 4286350970
0.013506765 0.031888243 0.58500004 4285565563
0.01538051 0.031833734 0.58400005 4285697149
0.017218174 0.031724714 0.58200002 4286287742
0.019075679 0.031670205 0.58100003 4283977794
0.020926686 0.031615693 0.58000004 4285741357
0.022810528 0.031615693 0.58000004 4285607205
0.02469437 0.031615693 0.58000004 4285803810
0.02657821 0.031615693 0.58000004 4286331948
0.028462052 0.031615693 0.58000004 4283767829
0.030345893 0.031615693 0.58000004 4283176462
0.032285299 0.031670205 0.58100003 4283965460
0.03417239 0.031670205 0.58100003 4284359704
0.03605948 0.031670205 0.58100003 4284099872
0.038011879 0.031724714 0.58200002 4279961088
0.039902218 0.031724714 0.58200002 4280494626
0.041792553 0.031724714 0.58200002 4281876533
0.043682888 0.031724714 0.58200002 4279770635
0.045573227 0.031724714 0.58200002 4280888343
0.047545116 0.031779222 0.583 4281479445
0.049438704 0.031779222 0.583 4281281814
0.051420338 0.031833734 0.58400005 4281547564
0.053317171 0.031833734 0.58400005 4282798146
0.055308551 0.031888243 0.58500004 4281614644
0.057208627 0.031888243 0.58500004 4278915846
0.059108712 0.031888243 0.58500004 4281479706
0.060904503 0.031833734 0.58400005 4281743132
0.062801339 0.031833734 0.58400005 4281936916
0.064587384 0.031779222 0.583 4282851088
0.066480964 0.031779222 0.583 4284228380
0.068257272 0.031724714 0.58200002 4283307278
0.070147611 0.031724714 0.58200002 4283112211
0.072037943 0.031724714 0.58200002 4283575333
0.073801257 0.031670205 0.58100003 4284177237
0.013506765 0.033788968 0.58500004 4285762942
0.015354172 0.033673447 0.583 4285631356
0.017218174 0.03361569 0.58200002 4287402373
0.019075679 0.033557933 0.58100003 4284827710
0.020926686 0.033500172 0.58000004 4285409826
0.0227712 0.033442415 0.57900006 4285079832
0.024651794 0.033442415 0.57900006 4287647554
0.026532387 0.033442415 0.57900006 4285015064
0.028412981 0.033442415 0.57900006 4284358937
0.030293573 0.033442415 0.57900006 4283635727
0.032229733 0.033500172 0.58000004 4284359191
0.034113575 0.033500172 0.58000004 4284423701
0.035997417 0.033500172 0.58000004 4283965206
0.037946567 0.033557933 0.58100003 4280748544
0.039833657 0.033557933 0.58100003 4280955431
0.041720748 0.033557933 0.58100003 4280230684
0.043607835 0.033557933 0.58100003 4281218081
0.045573227 0.03361569 0.58200002 4280822807
0.047463562 0.03361569 0.58200002 4281743132
0.049438704 0.033673447 0.583 4280953616
0.051332287 0.033673447 0.583 4281612587
0.053317171 0.033731211 0.58400005 4279705364
0.055214006 0.033731211 0.58400005 4279705110
0.057110839 0.033731211 0.58400005 4278586113
0.059007674 0.033731211 0.58400005 4281413913
0.060904503 0.033731211 0.58400005 4281281814
0.062801339 0.033731211 0.58400005 4282067221
0.064698175 0.033731211 0.58400005 4283179542
0.066480964 0.033673447 0.583 4283177491
0.068374552 0.033673447 0.583 4288316792
0.070268139 0.033673447 0.583 4284106302
0.072161719 0.033673447 0.583 4281538324
0.013483677 0.035628684 0.58400005 4285565563
0.015354172 0.035567675 0.583 4285697403
0.01718859 0.03544566 0.58100003 4285954155
0.019042848 0.035384651 0.58000004 4283840813
0.020890607 0.035323646 0.57900006 4285212445
0.022731869 0.035262633 0.57800001 4285540383
0.024609216 0.035262633 0.57800001 4286921516
0.026486561 0.035262633 0.57800001 4284750865
0.028363906 0.035262633 0.57800001 4284093964
0.030241249 0.035262633 0.57800001 4283569675
0.032118596 0.035262633 0.57800001 4284226835
0.03405476 0.035323646 0.57900006 4284160527
0.035935353 0.035323646 0.57900006 4283767054
0.037881255 0.035384651 0.58000004 4281338369
0.039765101 0.035384651 0.58000004 4278585089
0.041648939 0.035384651 0.58000004 4278914054
0.043607835 0.03544566 0.58100003 4281085473
0.045494925 0.03544566 0.58100003 4280888600
0.047463562 0.035506666 0.58200002 4280625169
0.049353905 0.035506666 0.58200002 4281414687
0.051332287 0.035567675 0.583 4280559901
0.053225871 0.035567675 0.583 4283192652
0.055214006 0.035628684 0.58400005 4281612337
0.057110839 0.035628684 0.58400005 4279900944
0.059007674 0.035628684 0.58400005 4281348122
0.060904503 0.035628684 0.58400005 4281413915
0.062801339 0.035628684 0.58400005 4282196756
0.064698175 0.035628684 0.58400005 4283901214
0.066595003 0.035628684 0.58400005 4282786328
0.068374552 0.035567675 0.583 4286612339
0.070268139 0.035567675 0.583 4281805861
0.072161719 0.035567675 0.583 4283977032
0.015327836 0.037397645 0.58200002 4285828989
0.017159006 0.037269134 0.58000004 4286482554
0.019010015 0.037204877 0.57900006 4283448370
0.020854523 0.037140619 0.57800001 4284425243
0.022692541 0.037076361 0.57700002 4284753179
0.024524063 0.037012104 0.57600003 4284751894
0.026394913 0.037012104 0.57600003 4284554515
0.028314834 0.037076361 0.57700002 4283963150
0.030188929 0.037076361 0.57700002 4284029456
0.032063026 0.037076361 0.57700002 4283833360
0.033995941 0.037140619 0.57800001 4283768081
0.035873286 0.037140619 0.57800001 4282850577
0.037815943 0.037204877 0.57900006 4281933586
0.039696541 0.037204877 0.57900006 4279439112
0.041648939 0.037269134 0.58000004 4279045383
0.043532778 0.037269134 0.58000004 4279045383
0.045416623 0.037269134 0.58000004 4278848258
0.047382012 0.037333392 0.58100003 4279374600
0.049269103 0.037333392 0.58100003 4278650880
0.05124424 0.037397645 0.58200002 4278849285
0.053134575 0.037397645 0.58200002 4282007095
0.055119459 0.037461903 0.583 4279503620
0.057013039 0.037461903 0.583 4282262812
0.058906626 0.037461903 0.583 4281870873
0.06080021 0.037461903 0.583 4281411605
0.062801339 0.037526164 0.58400005 4283245081
0.064698175 0.037526164 0.58400005 4284754210
0.066595003 0.037526164 0.58400005 4283841844
0.068491839 0.037526164 0.58400005 4286679418
0.070388667 0.037526164 0.58400005 4281411101
0.072285503 0.037526164 0.58400005 4287598727
0.017159006 0.039153613 0.58000004 4285958779
0.019010015 0.039086107 0.57900006 4283716936
0.020818444 0.038951091 0.57700002 4283311389
0.022653213 0.038883585 0.57600003 4283835675
0.024481487 0.038816083 0.57500005 4283900183
0.026303262 0.038748574 0.574 4283571218
0.02821669 0.038816083 0.57500005 4284162325
0.030136609 0.038883585 0.57600003 4284359191
0.03200746 0.038883585 0.57600003 4283571472
0.033878308 0.038883585 0.57600003 4283182104
0.035811223 0.038951091 0.57700002 4282002711
0.037750628 0.039018597 0.57800001 4281675029
0.039627977 0.039018597 0.57800001 4280821013
0.041577131 0.039086107 0.57900006 4279242244
0.043457724 0.039086107 0.57900006 4279045383
0.045416623 0.039153613 0.58000004 4278255872
0.047300462 0.039153613 0.58000004 4282270519
0.049269103 0.039221119 0.58100003 4281809200
0.051156193 0.039221119 0.58100003 4280427545
0.053134575 0.039288625 0.58200002 4279372547
0.055024914 0.039288625 0.58200002 4283506456
0.05691525 0.039288625 0.58200002 4285280806
0.058906626 0.039356127 0.583 4283771161
0.06080021 0.039356127 0.583 4284432687
0.062693797 0.039356127 0.583 4284097562
0.064587384 0.039356127 0.583 4284491036
0.066595003 0.039423637 0.58400005 4287071609
0.068491839 0.039423637 0.58400005 4286811517
0.070388667 0.039423637 0.58400005 4281412128
0.017129421 0.040967338 0.57900006 4285762683
0.01897718 0.04089658 0.57800001 4286419328
0.020818444 0.040825825 0.57700002 4284108098
0.022613885 0.040684316 0.57500005 4282920481
0.024396332 0.040542804 0.57300001 4283113495
0.026211614 0.040472049 0.57200003 4283046932
0.028167615 0.040613558 0.574 4282916370
0.03008429 0.040684316 0.57500005 4284163609
0.031951889 0.040684316 0.57500005 4283964431
0.033819493 0.040684316 0.57500005 4283507987
0.035749156 0.040755071 0.57600003 4281477902
0.037685316 0.040825825 0.57700002 4281149710
0.039559416 0.040825825 0.57700002 4280821776
0.041505318 0.04089658 0.57800001 4280690962
0.043382663 0.04089658 0.57800001 4280624665
0.045338318 0.040967338 0.57900006 4279308805
0.047218911 0.040967338 0.57900006 4278585344
0.049184304 0.041038092 0.58000004 4279309066
0.051068146 0.041038092 0.58000004 4280620556
0.05304328 0.041108847 0.58100003 4283508768
0.05493037 0.041108847 0.58100003 4284686101
0.05691525 0.041179601 0.58200002 4285210648
0.058805589 0.041179601 0.58200002 4286856752
0.060695924 0.041179601 0.58200002 4284884502
0.062693797 0.041250356 0.583 4284753175
0.064587384 0.041250356 0.583 4283704089
0.066595003 0.041321114 0.58400005 4286154357
0.068491839 0.041321114 0.58400005 4282664757
0.070388667 0.041321114 0.58400005 4285033057
0.020782365 0.042626552 0.57600003 4285695607
0.022535227 0.042404536 0.57300001 4282336314
0.024311181 0.04225653 0.57100004 4282852123
0.026119966 0.042182527 0.57000005 4282392086
0.028118543 0.042404536 0.57300001 4281343759
0.030031966 0.042478543 0.574 4283051036
0.031896319 0.042478543 0.574 4284425495
0.033760674 0.042478543 0.574 4284161810
0.035687093 0.042552549 0.57500005 4282526738
0.037620004 0.042626552 0.57600003 4281281037
0.039559416 0.042700555 0.57700002 4280887310
0.041433513 0.042700555 0.57700002 4281019155
0.043382663 0.042774558 0.57800001 4280690962
0.045260008 0.042774558 0.57800001 4280756755
0.047218911 0.042848568 0.57900006 4280756755
0.049099505 0.042848568 0.57900006 4281019157
0.051068146 0.042922571 0.58000004 4281606670
0.052951984 0.042922571 0.58000004 4283048721
0.05493037 0.042996574 0.58100003 4284882453
0.056817457 0.042996574 0.58100003 4285276439
0.058704548 0.042996574 0.58100003 4285867547
0.060695924 0.043070577 0.58200002 4285735961
0.062586263 0.043070577 0.58200002 4284882708
0.064587384 0.04314458 0.583 4288310372
0.066480964 0.04314458 0.583 4287006068
0.068491839 0.04321859 0.58400005 4281868824
0.070388667 0.04321859 0.58400005 4287271557
0.022456571 0.044111766 0.57100004 4285828222
0.02418345 0.043880004 0.56800002 4282925367
0.025982492 0.043802753 0.56700003 4281868054
0.028118543 0.044266272 0.57300001 4281409039
0.030031966 0.044343524 0.574 4281475345
0.031840753 0.044266272 0.57300001 4283902233
0.033701856 0.044266272 0.57300001 4284425495
0.035625026 0.044343524 0.574 4284490005
0.037554692 0.044420782 0.57500005 4283507473
0.039490856 0.044498034 0.57600003 4281214478
0.041433513 0.044575289 0.57700002 4281017872
0.043307606 0.044575289 0.57700002 4280952079
0.045260008 0.04465254 0.57800001 4281083665
0.047137354 0.04465254 0.57800001 4280821263
0.049099505 0.044729795 0.57900006 4280887056
0.050980095 0.044729795 0.57900006 4281148685
0.052951984 0.04480705 0.58000004 4282523920
0.054835826 0.04480705 0.58000004 4285343513
0.056817457 0.044884302 0.58100003 4285801752
0.058704548 0.044884302 0.58100003 4285800982
0.060695924 0.044961553 0.58200002 4285340433
0.062586263 0.044961553 0.58200002 4286067756
0.064476602 0.044961553 0.58200002 4285081631
0.066480964 0.045038808 0.583 4283837220
0.068374552 0.045038808 0.583 4282984223
0.033643041 0.046047505 0.57200003 4283443225
0.035625026 0.046208508 0.574 4284883478
0.037554692 0.046289016 0.57500005 4285079830
0.039490856 0.046369519 0.57600003 4284687384
0.041433513 0.046450019 0.57700002 4283376403
0.043307606 0.046450019 0.57700002 4282131215
0.045181707 0.046450019 0.57700002 4281869326
0.047137354 0.046530519 0.57800001 4281409289
0.049099505 0.046611026 0.57900006 4281672461
0.050980095 0.046611026 0.57900006 4282326027
0.052951984 0.046691529 0.58000004 4283835673
0.054835826 0.046691529 0.58000004 4285605658
0.056719668 0.046691529 0.58000004 4285670166
0.058704548 0.046772029 0.58100003 4285800982
0.060591638 0.046772029 0.58100003 4285077261
0.062586263 0.046852533 0.58200002 4286529075
0.064476602 0.046852533 0.58200002 4285344031
0.066366933 0.046852533 0.58200002 4284031771
0.068374552 0.046933033 0.583 4283906608
0.033643041 0.047905993 0.57200003 4280750343
0.035625026 0.048073493 0.574 4283899153
0.037554692 0.048157249 0.57500005 4285079832
0.039490856 0.048241001 0.57600003 4285539611
0.041433513 0.048324749 0.57700002 4285539098
0.043307606 0.048324749 0.57700002 4285473818
0.045260008 0.048408501 0.57800001 4285145623
0.047137354 0.048408501 0.57800001 4284884250
0.049099505 0.048492257 0.57900006 4285015836
0.050980095 0.048492257 0.57900006 4284424982
0.052951984 0.048576009 0.58000004 4285279521
0.054835826 0.048576009 0.58000004 4286002729
0.056817457 0.048659757 0.58100003 4285212443
0.058704548 0.048659757 0.58100003 4285144853
0.060695924 0.048743509 0.58200002 4285604891
0.062586263 0.048743509 0.58200002 4285144853
0.064476602 0.048743509 0.58200002 4284948501
0.066366933 0.048743509 0.58200002 4284032284
0.068374552 0.048827261 0.583 4285091913
0.033701856 0.049851477 0.57300001 4282916116
0.035687093 0.050025482 0.57500005 4285081629
0.037620004 0.050112482 0.57600003 4285474588
0.039559416 0.050199483 0.57700002 4285801754
0.041433513 0.050199483 0.57700002 4285735961
0.043382663 0.050286483 0.57800001 4285669914
0.045260008 0.050286483 0.57800001 4285802270
0.047218911 0.050373487 0.57900006 4286330154
0.049099505 0.050373487 0.57900006 4285936936
0.051068146 0.050460488 0.58000004 4286202420
0.052951984 0.050460488 0.58000004 4283242766
0.05493037 0.050547484 0.58100003 4285620822
0.056817457 0.050547484 0.58100003 4283579694
0.058805589 0.050634485 0.58200002 4284161558
0.060695924 0.050634485 0.58200002 4284358421
0.062586263 0.050634485 0.58200002 4284621080
0.064476602 0.050634485 0.58200002 4284227605
0.066366933 0.050634485 0.58200002 4283048989
0.068257272 0.050634485 0.58200002 4285162331
0.033819493 0.051893719 0.57500005 4284559909
0.035749156 0.051983967 0.57600003 4284883478
0.037685316 0.052074216 0.57700002 4285079060
0.039627977 0.052164465 0.57800001 4285670168
0.041505318 0.052164465 0.57800001 4285341203
0.043457724 0.052254722 0.57900006 4284685074
0.045338318 0.052254722 0.57900006 4283699978
0.047218911 0.052254722 0.57900006 4281798150
0.049184304 0.05234497 0.58000004 4281340168
0.051156193 0.052435219 0.58100003 4280816652
0.05304328 0.052435219 0.58100003 4280424208
0.055024914 0.052525468 0.58200002 4285558624
0.05691525 0.052525468 0.58200002 4282592547
0.058805589 0.052525468 0.58200002 4283245081
0.06080021 0.052615717 0.583 4283572762
0.062693797 0.052615717 0.583 4283835421
0.064587384 0.052615717 0.583 4283639069
0.066366933 0.052525468 0.58200002 4282991164
0.032229733 0.054229449 0.58000004 4283055149
0.033937123 0.05394895 0.57700002 4283577126
0.035873286 0.054042447 0.57800001 4284096530
0.037750628 0.054042447 0.57800001 4284292626
0.039696541 0.054135952 0.57900006 4284882710
0.041577131 0.054135952 0.57900006 4284422929
0.043457724 0.054135952 0.57900006 4283635214
0.045416623 0.054229449 0.58000004 4282980366
0.047300462 0.054229449 0.58000004 4280619273
0.049269103 0.054322947 0.58100003 4280488970
0.051156193 0.054322947 0.58100003 4280620815
0.053134575 0.054416444 0.58200002 4280949267
0.055024914 0.054416444 0.58200002 4281803293
0.057013039 0.054509941 0.583 4281868056
0.058906626 0.054509941 0.583 4281800978
0.06080021 0.054509941 0.583 4282459678
0.062693797 0.054509941 0.583 4282988850
0.064587384 0.054509941 0.583 4284571479
0.030345893 0.056113929 0.58000004 4279968797
0.032229733 0.056113929 0.58000004 4279637002
0.03405476 0.056017179 0.57900006 4284043841
0.035935353 0.056017179 0.57900006 4282850577
0.037815943 0.056017179 0.57900006 4283506710
0.039696541 0.056017179 0.57900006 4283637526
0.041577131 0.056017179 0.57900006 4283440917
0.043532778 0.056113929 0.58000004 4283245594
0.045416623 0.056113929 0.58000004 4281931019
0.047382012 0.056210674 0.58100003 4281867025
0.049269103 0.056210674 0.58100003 4281868824
0.05124424 0.05630742 0.58200002 4281212693
0.053225871 0.05640417 0.583 4281936675
0.055119459 0.05640417 0.583 4283980108
0.057013039 0.05640417 0.583 4284771675
0.059007674 0.056500919 0.58400005 4284838497
0.060904503 0.056500919 0.58400005 4284839010
0.062801339 0.056500919 0.58400005 4284642917
0.064698175 0.056500919 0.58400005 4285103983
0.030345893 0.057998408 0.58000004 4279838492
0.032229733 0.057998408 0.58000004 4279836696
0.03405476 0.05789841 0.57900006 4279571979
0.035935353 0.05789841 0.57900006 4283910456
0.037815943 0.05789841 0.57900006 4282590746
0.039765101 0.057998408 0.58000004 4282654231
0.041648939 0.057998408 0.58000004 4283970602
0.043532778 0.057998408 0.58000004 4283382831
0.045416623 0.057998408 0.58000004 4281211921
0.047382012 0.058098402 0.58100003 4280490253
0.049269103 0.058098402 0.58100003 4280097038
0.05124424 0.0581984 0.58200002 4279966739
0.053225871 0.058298394 0.583 4279966996
0.055119459 0.058298394 0.583 4279639832
0.057013039 0.058298394 0.583 4283852119
0.059007674 0.058398396 0.58400005 4284445538
0.060904503 0.058398396 0.58400005 4284774503
0.062801339 0.058398396 0.58400005 4284643432
0.030345893 0.059882887 0.58000004 4279904285
0.032229733 0.059882887 0.58000004 4279772186
0.03405476 0.05977964 0.57900006 4279837209
0.035997417 0.059882887 0.58000004 4280099350
0.037881255 0.059882887 0.58000004 4280229909
0.039765101 0.059882887 0.58000004 4280687894
0.041648939 0.059882887 0.58000004 4280556306
0.043532778 0.059882887 0.58000004 4280162831
0.045416623 0.059882887 0.58000004 4279966735
0.047382012 0.059986129 0.58100003 4279901203
0.049269103 0.059986129 0.58100003 4279704594
0.05124424 0.060089376 0.58200002 4279704594
0.053225871 0.060192619 0.583 4279639317
0.055119459 0.060192619 0.583 4279509016
0.032229733 0.061767366 0.58000004 4279641115
0.034113575 0.061767366 0.58000004 4279772188
0.035997417 0.061767366 0.58000004 4279771416
0.037881255 0.061767366 0.58000004 4279771416
0.039765101 0.061767366 0.58000004 4279639317
0.041648939 0.061767366 0.58000004 4279573524
0.043532778 0.061767366 0.58000004 4279573778
0.045416623 0.061767366 0.58000004 4279507985
0.047382012 0.061873857 0.58100003 4279508244
0.049269103 0.061873857 0.58100003 4279508244
0.041577131 0.063542098 0.57900006 4279509014
0.043457724 0.063542098 0.57900006 4279245842
0.045416623 0.063651845 0.58000004 4279245842
0.044683911 0.034559451 0.58055264 4294967295
0.044683911 0.034559451 0.58055264 4294901760
0.044683911 0.034059573 0.58056378 4294901760
0.044683911 0.033559699 0.58057487 4294901760
0.044683911 0.033059821 0.58058602 4294901760
0.044683911 0.032559946 0.5805971 4294901760
0.044683911 0.032060068 0.58060825 4294901760
0.044683911 0.031560194 0.58061934 4294901760
0.044683911 0.031060316 0.58063048 4294901760
0.044683911 0.030560439 0.58064157 4294901760
0.044683911 0.030060563 0.58065271 4294901760
0.044683911 0.029560687 0.5806638 4294901760
0.044683911 0.029060811 0.58067495 4294901760
0.044683911 0.028560935 0.58068603 4294901760
0.044683911 0.028061058 0.58069718 4294901760
0.044683911 0.02756118 0.58070827 4294901760
0.044683911 0.027061304 0.58071941 4294901760
0.044683911 0.026561428 0.5807305 4294901760
0.044683911 0.026061554 0.58074164 4294901760
0.044683911 0.025561675 0.58075279 4294901760
0.044683911 0.025061799 0.58076388 4294901760
0.044683911 0.024561923 0.58077502 4294901760
0.044683911 0.024062047 0.58078611 4294901760
0.044683911 0.023562171 0.58079726 4294901760
0.044683911 0.023062292 0.58080834 4294901760
0.044683911 0.022562418 0.58081949 4294901760
0.044683911 0.02206254 0.58083057 4294901760
0.044683911 0.021562666 0.58084172 4294901760
0.044683911 0.021062788 0.58085281 4294901760
0.044683911 0.020562911 0.58086395 4294901760
0.044683911 0.020063035 0.58087504 4294901760
0.044683911 0.019563157 0.58088619 4294901760
0.044683911 0.019063283 0.58089727 4294901760
0.044683911 0.018563407 0.58090842 4294901760
0.044683911 0.018063528 0.5809195 4294901760
0.044683911 0.017563654 0.58093065 4294901760
0.044683911 0.017063778 0.5809418 4294901760
0.044683911 0.0165639 0.58095288 4294901760
0.044683911 0.016064024 0.58096403 4294901760
0.044683911 0.015564147 0.58097512 4294901760
0.044683911 0.015064271 0.58098626 4294901760
0.044683911 0.014564395 0.58099735 4294901760
0.044683911 0.014064519 0.58100849 4294901760
0.044683911 0.013564643 0.58101958 4294901760
0.044683911 0.013064766 0.58103073 4294901760
0.044683911 0.01256489 0.58104181 4294901760
0.044683911 0.012065014 0.58105296 4294901760
0.044683911 0.011565136 0.58106405 4294901760
0.044683911 0.01106526 0.58107519 4294901760
0.044683911 0.010565383 0.58108628 4294901760
0.044683911 0.010065507 0.58109742 4294901760
0.044683911 0.0095656309 0.58110857 4294901760
0.044683911 0.0090657547 0.58111966 4294901760
0.044683911 0.0085658785 0.5811308 4294901760
0.044683911 0.0080660023 0.58114189 4294901760
0.044683911 0.0075661242 0.58115304 4294901760
0.044683911 0.007066248 0.58116412 4294901760
0.044683911 0.0065663718 0.58117527 4294901760
0.044683911 0.0060664956 0.58118635 4294901760
0.044683911 0.0055666212 0.5811975 4294901760
0.044683911 0.005066745 0.58120859 4294901760
0.044683911 0.004566865 0.58121973 4294901760
0.044683911 0.0040669907 0.58123082 4294901760
0.044683911 0.0035671145 0.58124197 4294901760
0.044683911 0.0030672364 0.58125305 4294901760
0.044683911 0.002567362 0.5812642 4294901760
0.044683911 0.0020674877 0.58127528 4294901760
0.044683911 0.0015676059 0.58128643 4294901760
0.044683911 0.0010677315 0.58129758 4294901760
0.044683911 0.00056785718 0.58130866 4294901760
0.044683911 6.7979097e-05 0.58131981 4294901760
0.044683911 -0.00043189526 0.5813309 4294901760
0.044683911 -0.00093177333 0.58134204 4294901760
0.044683911 -0.0014316514 0.58135313 4294901760
0.044683911 -0.0019315258 0.58136427 4294901760
0.044683911 -0.0024314038 0.58137536 4294901760
0.044683911 -0.0029312782 0.58138651 4294901760
0.044683911 -0.0034311563 0.58139759 4294901760
0.044683911 -0.0039310306 0.58140874 4294901760
0.044683911 -0.0044309087 0.58141983 4294901760
0.044683911 -0.0049307868 0.58143097 4294901760
0.044683911 -0.0054306611 0.58144206 4294901760
0.044683911 -0.0059305392 0.5814532 4294901760
0.044683911 -0.0064304136 0.58146429 4294901760
0.044683911 -0.0069302879 0.58147544 4294901760
0.044683911 -0.007430166 0.58148658 4294901760
0.044683911 -0.0079300441 0.58149767 4294901760
0.044683911 -0.0084299184 0.58150882 4294901760
0.044683911 -0.0089297965 0.5815199 4294901760
0.044683911 -0.0094296709 0.58153105 4294901760
0.044683911 -0.0099295489 0.58154213 4294901760
0.044683911 -0.010429423 0.58155328 4294901760
0.044683911 -0.010929301 0.58156437 4294901760
0.044683911 -0.011429179 0.58157551 4294901760
0.044683911 -0.011929054 0.5815866 4294901760
0.044683911 -0.012428932 0.58159775 4294901760
0.044683911 -0.012928806 0.58160883 4294901760
0.044683911 -0.013428684 0.58161998 4294901760
0.044683911 -0.013928562 0.58163106 4294901760
0.044683911 -0.014428437 0.58164221 4294901760
0.044683911 -0.014928315 0.5816533 4294901760
0.044683911 -0.015428189 0.58166444 4294901760
0.044683911 0.034559451 0.58055264 4278255360
0.045182902 0.034560155 0.58058435 4278255360
0.045681898 0.034560863 0.58061606 4278255360
0.046180889 0.034561567 0.58064777 4278255360
0.046679884 0.034562271 0.58067948 4278255360
0.047178876 0.034562975 0.58071119 4278255360
0.047677871 0.034563683 0.5807429 4278255360
0.048176862 0.034564387 0.58077461 4278255360
0.048675857 0.034565091 0.58080626 4278255360
0.049174849 0.034565799 0.58083797 4278255360
0.049673844 0.034566503 0.58086967 4278255360
0.050172836 0.034567207 0.58090138 4278255360
0.050671831 0.034567915 0.58093309 4278255360
0.051170822 0.034568619 0.5809648 4278255360
0.051669817 0.034569323 0.58099651 4278255360
0.052168809 0.034570031 0.58102822 4278255360
0.052667804 0.034570735 0.58105993 4278255360
0.053166796 0.034571439 0.58109164 4278255360
0.053665791 0.034572143 0.58112335 4278255360
0.054164782 0.034572851 0.58115506 4278255360
0.054663777 0.034573555 0.58118677 4278255360
0.055162769 0.034574259 0.58121848 4278255360
0.05566176 0.034574967 0.58125013 4278255360
0.056160755 0.034575671 0.58128184 4278255360
0.056659751 0.034576375 0.58131355 4278255360
0.057158742 0.034577079 0.58134526 4278255360
0.057657734 0.034577787 0.58137697 4278255360
0.058156729 0.034578491 0.58140868 4278255360
0.058655724 0.034579195 0.58144039 4278255360
0.059154715 0.034579903 0.5814721 4278255360
0.059653707 0.034580607 0.58150381 4278255360
0.060152702 0.034581311 0.58153552 4278255360
0.060651697 0.034582019 0.58156723 4278255360
0.061150689 0.034582723 0.58159894 4278255360
0.06164968 0.034583427 0.58163065 4278255360
0.062148675 0.034584135 0.58166236 4278255360
0.062647671 0.034584839 0.58169401 4278255360
0.063146666 0.034585543 0.58172572 4278255360
0.063645653 0.034586247 0.58175743 4278255360
0.064144649 0.034586955 0.58178914 4278255360
0.064643644 0.034587659 0.58182085 4278255360
0.065142632 0.034588363 0.58185256 4278255360
0.065641627 0.034589071 0.58188426 4278255360
0.066140622 0.034589775 0.58191597 4278255360
0.066639617 0.034590479 0.58194768 4278255360
0.067138605 0.034591183 0.58197939 4278255360
0.0676376 0.034591891 0.5820111 4278255360
0.068136595 0.034592595 0.58204281 4278255360
0.068635583 0.034593299 0.58207452 4278255360
0.069134578 0.034594007 0.58210623 4278255360
0.069633573 0.034594711 0.58213794 4278255360
0.070132568 0.034595415 0.58216959 4278255360
0.070631556 0.034596123 0.5822013 4278255360
0.071130551 0.034596827 0.58223301 4278255360
0.071629547 0.034597531 0.58226472 4278255360
0.072128542 0.034598239 0.58229643 4278255360
0.07262753 0.034598943 0.58232814 4278255360
0.073126525 0.034599647 0.58235985 4278255360
0.07362552 0.034600351 0.58239156 4278255360
0.074124515 0.034601059 0.58242327 4278255360
0.07462351 0.034601763 0.58245498 4278255360
0.075122498 0.034602467 0.58248669 4278255360
0.075621493 0.034603175 0.5825184 4278255360
0.076120481 0.034603879 0.58255011 4278255360
0.076619476 0.034604583 0.58258182 4278255360
0.077118471 0.034605287 0.58261347 4278255360
0.077617466 0.034605995 0.58264518 4278255360
0.078116462 0.034606699 0.58267689 4278255360
0.078615457 0.034607403 0.5827086 4278255360
0.079114445 0.034608111 0.58274031 4278255360
0.079613432 0.034608815 0.58277202 4278255360
0.080112427 0.034609519 0.58280373 4278255360
0.080611423 0.034610227 0.58283544 4278255360
0.081110418 0.034610931 0.58286715 4278255360
0.081609413 0.034611635 0.58289886 4278255360
0.082108408 0.034612343 0.58293056 4278255360
0.082607396 0.034613047 0.58296227 4278255360
0.083106391 0.034613751 0.58299398 4278255360
0.083605379 0.034614455 0.58302569 4278255360
0.084104374 0.034615163 0.58305734 4278255360
0.084603369 0.034615867 0.58308905 4278255360
0.085102364 0.034616571 0.58312076 4278255360
0.08560136 0.034617279 0.58315247 4278255360
0.086100355 0.034617983 0.58318418 4278255360
0.086599343 0.034618687 0.58321589 4278255360
0.087098338 0.034619391 0.5832476 4278255360
0.087597325 0.034620099 0.58327931 4278255360
0.088096321 0.034620803 0.58331102 4278255360
0.088595316 0.034621507 0.58334273 4278255360
0.089094311 0.034622215 0.58337444 4278255360
0.089593306 0.034622919 0.58340615 4278255360
0.090092301 0.034623623 0.58343786 4278255360
0.090591289 0.034624331 0.58346957 4278255360
0.091090284 0.034625035 0.58350122 4278255360
0.091589272 0.034625739 0.58353293 4278255360
0.092088267 0.034626447 0.58356464 4278255360
0.092587262 0.034627151 0.58359635 4278255360
0.093086258 0.034627855 0.58362806 4278255360
0.093585253 0.034628559 0.58365977 4278255360
0.094084248 0.034629267 0.58369148 4278255360
0.094583236 0.034629971 0.58372319 4278255360
0.044683911 0.034559451 0.58055264 4278190335
0.044652198 0.034570549 0.58105153 4278190335
0.044620484 0.034581643 0.58155036 4278190335
0.044588771 0.03459274 0.58204925 4278190335
0.044557057 0.034603834 0.58254814 4278190335
0.044525344 0.034614932 0.58304697 4278190335
0.044493631 0.034626026 0.58354586 4278190335
0.044461917 0.034637123 0.58404475 4278190335
0.044430204 0.034648217 0.58454359 4278190335
0.04439849 0.034659315 0.58504248 4278190335
0.044366777 0.034670409 0.58554137 4278190335
0.044335064 0.034681506 0.5860402 4278190335
0.04430335 0.0346926 0.58653909 4278190335
0.044271637 0.034703698 0.58703792 4278190335
0.044239923 0.034714796 0.58753681 4278190335
0.04420821 0.03472589 0.5880357 4278190335
0.044176497 0.034736987 0.58853453 4278190335
0.044144783 0.034748081 0.58903342 4278190335
0.04411307 0.034759179 0.58953232 4278190335
0.044081356 0.034770273 0.59003115 4278190335
0.044049643 0.03478137 0.59053004 4278190335
0.04401793 0.034792464 0.59102893 4278190335
0.043986216 0.034803562 0.59152776 4278190335
0.043954503 0.034814656 0.59202665 4278190335
0.043922789 0.034825753 0.59252554 4278190335
0.043891076 0.034836851 0.59302437 4278190335
0.043859363 0.034847945 0.59352326 4278190335
0.043827649 0.034859043 0.59402215 4278190335
0.043795936 0.034870137 0.59452099 4278190335
0.043764222 0.034881234 0.59501988 4278190335
0.043732509 0.034892328 0.59551877 4278190335
0.043700796 0.034903426 0.5960176 4278190335
0.043669082 0.03491452 0.59651649 4278190335
0.043637369 0.034925617 0.59701532 4278190335
0.043605655 0.034936711 0.59751421 4278190335
0.043573942 0.034947809 0.5980131 4278190335
0.043542229 0.034958903 0.59851193 4278190335
0.043510515 0.03497 0.59901083 4278190335
0.043478802 0.034981098 0.59950972 4278190335
0.043447088 0.034992192 0.60000855 4278190335
0.043415375 0.03500329 0.60050744 4278190335
0.043383662 0.035014383 0.60100633 4278190335
0.043351948 0.035025481 0.60150516 4278190335
0.043320235 0.035036575 0.60200405 4278190335
0.043288521 0.035047673 0.60250294 4278190335
0.043256808 0.035058767 0.60300177 4278190335
0.043225095 0.035069864 0.60350066 4278190335
0.043193381 0.035080958 0.60399956 4278190335
0.043161668 0.035092056 0.60449839 4278190335
0.043129954 0.03510315 0.60499728 4278190335
0.043098241 0.035114247 0.60549617 4278190335
0.043066531 0.035125345 0.605995 4278190335
0.043034818 0.035136439 0.60649389 4278190335
0.043003105 0.035147537 0.60699272 4278190335
0.042971391 0.03515863 0.60749161 4278190335
0.042939678 0.035169728 0.6079905 4278190335
0.042907964 0.035180822 0.60848933 4278190335
0.042876251 0.03519192 0.60898823 4278190335
0.042844538 0.035203014 0.60948712 4278190335
0.042812824 0.035214111 0.60998595 4278190335
0.042781111 0.035225205 0.61048484 4278190335
0.042749397 0.035236303 0.61098373 4278190335
0.042717684 0.035247397 0.61148256 4278190335
0.042685971 0.035258494 0.61198145 4278190335
0.042654257 0.035269592 0.61248034 4278190335
0.042622544 0.035280686 0.61297917 4278190335
0.04259083 0.035291784 0.61347806 4278190335
0.042559117 0.035302877 0.61397696 4278190335
0.042527404 0.035313975 0.61447579 4278190335
0.04249569 0.035325069 0.61497468 4278190335
0.042463977 0.035336167 0.61547351 4278190335
0.042432263 0.035347261 0.6159724 4278190335
0.04240055 0.035358358 0.61647129 4278190335
0.042368837 0.035369452 0.61697012 4278190335
0.042337123 0.03538055 0.61746901 4278190335
0.04230541 0.035391644 0.6179679 4278190335
0.042273697 0.035402741 0.61846673 4278190335
0.042241983 0.035413839 0.61896563 4278190335
0.04221027 0.035424933 0.61946452 4278190335
0.042178556 0.03543603 0.61996335 4278190335
0.042146843 0.035447124 0.62046224 4278190335
0.04211513 0.035458222 0.62096113 4278190335
0.042083416 0.035469316 0.62145996 4278190335
0.042051703 0.035480414 0.62195885 4278190335
0.042019989 0.035491508 0.62245774 4278190335
0.041988276 0.035502605 0.62295657 4278190335
0.041956563 0.035513699 0.62345546 4278190335
0.041924849 0.035524797 0.62395436 4278190335
0.041893136 0.035535894 0.62445319 4278190335
0.041861422 0.035546988 0.62495208 4278190335
0.041829709 0.035558086 0.62545097 4278190335
0.041797996 0.03556918 0.6259498 4278190335
0.041766282 0.035580277 0.62644869 4278190335
0.041734569 0.035591371 0.62694752 4278190335
0.041702855 0.035602469 0.62744641 4278190335
0.041671142 0.035613563 0.6279453 4278190335
0.041639429 0.035624661 0.62844414 4278190335
0.041607715 0.035635754 0.62894303 4278190335
0.041576002 0.035646852 0.62944192 4278190335
0.041544288 0.035657946 0.62994075 4278190335
0.041512575 0.035669044 0.63043964 4278190335
0.044683911 0.034559451 0.58055264 4294967295
0.044747338 0.034537259 0.57955492 4294967295
0.044810764 0.034515068 0.57855713 4294967295
0.044874191 0.034492876 0.57755941 4294967295
0.044937618 0.034470685 0.57656169 4294967295
0.045001045 0.034448493 0.57556397 4294967295
0.045064472 0.034426302 0.57456619 4294967295
0.045127898 0.03440411 0.57356846 4294967295
0.045191325 0.034381915 0.57257074 4294967295
0.045254752 0.034359723 0.57157296 4294967295
0.045318179 0.034337532 0.57057524 4294967295
0.045381606 0.03431534 0.56957752 4294967295
0.045445032 0.034293149 0.56857973 4294967295
0.045508459 0.034270957 0.56758201 4294967295
0.045571886 0.034248766 0.56658429 4294967295
0.045635313 0.034226574 0.56558657 4294967295
0.04569874 0.034204382 0.56458879 4294967295
0.045762166 0.034182191 0.56359106 4294967295
0.045825593 0.034159999 0.56259334 4294967295
0.04588902 0.034137808 0.56159556 4294967295
0.045952447 0.034115616 0.56059784 4294967295
0.046015874 0.034093425 0.55960011 4294967295
0.0460793 0.034071229 0.55860233 4294967295
0.046142727 0.034049038 0.55760461 4294967295
0.046206154 0.034026846 0.55660689 4294967295
0.046269581 0.034004655 0.55560917 4294967295
0.046333004 0.033982463 0.55461138 4294967295
0.046396431 0.033960272 0.55361366 4294967295
0.046459857 0.03393808 0.55261594 4294967295
0.046523284 0.033915889 0.55161816 4294967295
0.046586711 0.033893697 0.55062044 4294967295
0.046650138 0.033871505 0.54962271 4294967295
0.046713565 0.033849314 0.54862499 4294967295
0.046776991 0.033827122 0.54762721 4294967295
0.046840418 0.033804931 0.54662949 4294967295
0.046903845 0.033782739 0.54563177 4294967295
0.046967272 0.033760544 0.54463398 4294967295
0.047030699 0.033738352 0.54363626 4294967295
0.047094125 0.033716161 0.54263854 4294967295
0.047157552 0.033693969 0.54164076 4294967295
0.047220979 0.033671778 0.54064304 4294967295
0.047284406 0.033649586 0.53964531 4294967295
0.047347832 0.033627395 0.53864759 4294967295
0.047411259 0.033605203 0.53764981 4294967295
0.047474686 0.033583011 0.53665209 4294967295
0.047538113 0.03356082 0.53565437 4294967295
0.04760154 0.033538628 0.53465658 4294967295
0.047664966 0.033516437 0.53365886 4294967295
0.047728393 0.033494245 0.53266114 4294967295
0.04779182 0.033472054 0.53166342 4294967295
0.047855247 0.033449858 0.53066564 4294967295
0.047918674 0.033427667 0.52966791 4294967295
0.0479821 0.033405475 0.52867019 4294967295
0.048045527 0.033383284 0.52767241 4294967295
0.048108954 0.033361092 0.52667469 4294967295
0.048172381 0.033338901 0.52567697 4294967295
0.048235808 0.033316709 0.52467918 4294967295
0.048299234 0.033294518 0.52368146 4294967295
