# .PCD v0.7 - Point Cloud Data file format
VERSION 0.7
FIELDS x y z rgb
SIZE 4 4 4 4
TYPE F F F U
COUNT 1 1 1 1
WIDTH 900
HEIGHT 1
VIEWPOINT 0 0 0 1 0 0 0
POINTS 900
DATA ascii
-0.052774802 0.010877284 0.49400002 4282999638
-0.060797367 0.01248234 0.49400002 4281549878
-0.059312679 0.012507609 0.49500003 4281353017
-0.057704918 0.012507609 0.49500003 4281287222
-0.055983827 0.01248234 0.49400002 4280695339
-0.054379314 0.01248234 0.49400002 4281418808
-0.052774802 0.01248234 0.49400002 4281419575
-0.051066704 0.012457073 0.49300003 4283130191
-0.049565777 0.01248234 0.49400002 4279976742
-0.047961261 0.01248234 0.49400002 4279914799
-0.046450593 0.012507609 0.49500003 4279063082
-0.044933423 0.012532877 0.49600002 4278735654
-0.043497097 0.012583412 0.49800003 4279459638
-0.041963689 0.01260868 0.49900001 4282748521
-0.040423781 0.012633948 0.5 4281234003
-0.038877383 0.012659216 0.50100005 4280182598
-0.037324488 0.012684484 0.50200003 4279590711
-0.060797367 0.014087398 0.49400002 4281024052
-0.059192851 0.014087398 0.49400002 4281286454
-0.057588339 0.014087398 0.49400002 4281353017
-0.055983827 0.014087398 0.49400002 4280826925
-0.054379314 0.014087398 0.49400002 4281221683
-0.052667972 0.014058881 0.49300003 4280958509
-0.051066704 0.014058881 0.49300003 4281945656
-0.04946544 0.014058881 0.49300003 4280370215
-0.047961261 0.014087398 0.49400002 4279650342
-0.046450593 0.014115916 0.49500003 4279127332
-0.044933423 0.014144432 0.49600002 4278931236
-0.043497097 0.014201466 0.49800003 4279196205
-0.041963689 0.014229983 0.49900001 4278868523
-0.040423781 0.014258499 0.5 4279460660
-0.038877383 0.014287017 0.50100005 4279921211
-0.037324488 0.014315534 0.50200003 4279592760
-0.035765093 0.014344051 0.50300002 4279198515
-0.034131348 0.014344051 0.50300002 4279132722
-0.032497603 0.014344051 0.50300002 4278540072
-0.030802498 0.014315534 0.50200003 4279592760
-0.029172001 0.014315534 0.50200003 4279460660
-0.027541505 0.014315534 0.50200003 4279592246
-0.025911009 0.014315534 0.50200003 4279658039
-0.060674299 0.015660688 0.49300003 4281221429
-0.059192851 0.015692456 0.49400002 4281023534
-0.057588339 0.015692456 0.49400002 4281484085
-0.055870499 0.015660688 0.49300003 4280826671
-0.054269236 0.015660688 0.49300003 4280892464
-0.052667972 0.015660688 0.49300003 4280695335
-0.051066704 0.015660688 0.49300003 4281616689
-0.04946544 0.015660688 0.49300003 4279976481
-0.047961261 0.015692456 0.49400002 4279716902
-0.046450593 0.015724221 0.49500003 4279257894
-0.044933423 0.015755987 0.49600002 4279653676
-0.043497097 0.01581952 0.49800003 4279260199
-0.041963689 0.015851285 0.49900001 4279194920
-0.040423781 0.015883051 0.5 4279065130
-0.038877383 0.015914818 0.50100005 4279000107
-0.037324488 0.015946584 0.50200003 4279526963
-0.035765093 0.015978349 0.50300002 4278803242
-0.034131348 0.015978349 0.50300002 4279000107
-0.032497603 0.015978349 0.50300002 4278868523
-0.030863857 0.015978349 0.50300002 4279065130
-0.029230112 0.015978349 0.50300002 4279262509
-0.027596369 0.015978349 0.50300002 4278868521
-0.025962623 0.015978349 0.50300002 4278803242
-0.024377245 0.016010115 0.50400001 4278737449
-0.022785371 0.01604188 0.505 4278803755
-0.021187006 0.016073648 0.50600004 4278540583
-0.019582139 0.016105415 0.50700003 4278803755
-0.017970776 0.016137181 0.50800002 4279198000
-0.016320791 0.016137181 0.50800002 4279000621
-0.014699686 0.016168946 0.509 4279658551
-0.013072086 0.016200714 0.51000005 4279461172
-0.011415605 0.016200714 0.51000005 4279723062
-0.0097782593 0.016232479 0.51100004 4279788088
-0.0081185298 0.016232479 0.51100004 4280640317
-0.0064714407 0.016264245 0.51200002 4281429065
-0.060674299 0.017262496 0.49300003 4280760878
-0.055870499 0.017262496 0.49300003 4281023280
-0.051066704 0.017262496 0.49300003 4281024552
-0.04946544 0.017262496 0.49300003 4280042274
-0.047961261 0.01729751 0.49400002 4279716389
-0.046450593 0.017332526 0.49500003 4279060769
-0.044933423 0.017367542 0.49600002 4279127332
-0.043497097 0.017437572 0.49800003 4279260201
-0.041963689 0.017472588 0.49900001 4279326506
-0.040423781 0.017507602 0.5 4279064617
-0.038877383 0.017542619 0.50100005 4279393582
-0.037324488 0.017577633 0.50200003 4279459888
-0.035765093 0.017612647 0.50300002 4278933544
-0.034131348 0.017612647 0.50300002 4278867751
-0.032497603 0.017612647 0.50300002 4278933544
-0.030863857 0.017612647 0.50300002 4278206485
-0.029230112 0.017612647 0.50300002 4279261226
-0.027651232 0.017647663 0.50400001 4278999335
-0.026014239 0.017647663 0.50400001 4279130921
-0.024425613 0.017682677 0.505 4278933796
-0.022830492 0.017717695 0.50600004 4278933796
-0.021228876 0.017752709 0.50700003 4278736933
-0.019620761 0.017787723 0.50800002 4278802728
-0.018006152 0.017822739 0.509 4279000107
-0.016385047 0.017857755 0.51000005 4278868521
-0.014757446 0.01789277 0.51100004 4278342691
-0.013097716 0.01789277 0.51100004 4278737449
-0.011460371 0.017927784 0.51200002 4279132207
-0.0098165292 0.0179628 0.51300001 4279461172
-0.0081661912 0.017997814 0.514 4278342691
-0.0065093595 0.018032832 0.51500005 4279263793
-0.0048648128 0.018137876 0.51800001 4279592244
-0.0031884916 0.018172892 0.51900005 4279328302
-0.059192851 0.018902566 0.49400002 4280825903
-0.055870499 0.018864304 0.49300003 4281154606
-0.054269236 0.018864304 0.49300003 4280957227
-0.052667972 0.018864304 0.49300003 4281286702
-0.051066704 0.018864304 0.49300003 4280761382
-0.04946544 0.018864304 0.49300003 4279713822
-0.047961261 0.018902566 0.49400002 4279584803
-0.046450593 0.018940832 0.49500003 4279323941
-0.044933423 0.018979095 0.49600002 4279127332
-0.043497097 0.019055625 0.49800003 4279194406
-0.041963689 0.019093888 0.49900001 4279129640
-0.040423781 0.019132152 0.5 4279195433
-0.038877383 0.019170418 0.50100005 4279327789
-0.037324488 0.019208683 0.50200003 4279327789
-0.035765093 0.019246945 0.50300002 4278867751
-0.034131348 0.019246945 0.50300002 4278933544
-0.032562211 0.019285209 0.50400001 4278998824
-0.030925216 0.019285209 0.50400001 4278203658
-0.029288223 0.019285209 0.50400001 4279129125
-0.027706094 0.019323474 0.505 4279326504
-0.026065852 0.019323474 0.505 4279785771
-0.024473982 0.01936174 0.50600004 4279852588
-0.022875611 0.019400004 0.50700003 4279523623
-0.021312619 0.019476531 0.509 4279260711
-0.019698011 0.019514797 0.51000005 4279129125
-0.018076904 0.019553062 0.51100004 4278998052
-0.016449302 0.019591324 0.51200002 4279524396
-0.014815205 0.019629588 0.51300001 4278933029
-0.01317461 0.019667853 0.514 4278867236
-0.011527522 0.019706119 0.51500005 4278867749
-0.0098739369 0.019744383 0.51600003 4278867751
-0.0082138544 0.019782646 0.51700002 4278933544
-0.0065599177 0.019859176 0.51900005 4279130923
-0.0049023791 0.019973967 0.52200001 4278868521
-0.0032130654 0.020012232 0.523 4278802728
-0.0015317338 0.020241819 0.52900004 4278671656
0.00018681164 0.020280082 0.53000003 4278803242
-0.065079637 0.02034157 0.49000001 4283852881
-0.060797367 0.020507623 0.49400002 4281220399
-0.059192851 0.020507623 0.49400002 4281285938
-0.057588339 0.020507623 0.49400002 4281022766
-0.055870499 0.02046611 0.49300003 4281154352
-0.054269236 0.02046611 0.49300003 4281023020
-0.052667972 0.02046611 0.49300003 4281221681
-0.051066704 0.02046611 0.49300003 4280893227
-0.04946544 0.02046611 0.49300003 4279714852
-0.047961261 0.020507623 0.49400002 4279387683
-0.046450593 0.020549137 0.49500003 4279258146
-0.044933423 0.02059065 0.49600002 4279522088
-0.043497097 0.020673677 0.49800003 4279391783
-0.041963689 0.02071519 0.49900001 4278866466
-0.040423781 0.020756703 0.5 4279130923
-0.038877383 0.020798218 0.50100005 4279986232
-0.037324488 0.02083973 0.50200003 4278998826
-0.035765093 0.020881243 0.50300002 4278998824
-0.034199201 0.020922758 0.50400001 4279130410
-0.032562211 0.020922758 0.50400001 4278998824
-0.030925216 0.020922758 0.50400001 4278200064
-0.029346334 0.02096427 0.505 4280442420
-0.02776096 0.021005785 0.50600004 4278397456
-0.026169086 0.021047298 0.50700003 4278527246
-0.024570715 0.021088811 0.50800002 4278921236
-0.022965848 0.021130323 0.509 4278921238
-0.021396363 0.021213353 0.51100004 4278527248
-0.019775257 0.021254865 0.51200002 4278198025
-0.018147655 0.021296378 0.51300001 4278202380
-0.016513556 0.021337891 0.514 4278199555
-0.014872964 0.021379406 0.51500005 4278200581
-0.013225874 0.021420918 0.51600003 4278796570
-0.011594673 0.021503944 0.51800001 4279061539
-0.0099313436 0.02154546 0.51900005 4279522090
-0.0082774051 0.021628486 0.52100003 4279916846
-0.006610475 0.021711512 0.523 4280114738
-0.004930554 0.021794539 0.52500004 4279721264
-0.003243783 0.021919077 0.528 4279984949
-0.0015375247 0.022043619 0.53100002 4279063845
0.00018786907 0.022126647 0.53300005 4279064615
0.0019370564 0.022334214 0.53800005 4278934314
0.0036981781 0.02241724 0.54000002 4278868521
-0.0665351 0.021888867 0.48900002 4283852633
-0.06092044 0.022157442 0.49500003 4281483571
-0.059312679 0.022157442 0.49500003 4281417524
-0.057704918 0.022157442 0.49500003 4281285938
-0.055983827 0.022112679 0.49400002 4281022766
-0.054379314 0.022112679 0.49400002 4281417524
-0.052774802 0.022112679 0.49400002 4281549876
-0.051170286 0.022112679 0.49400002 4280236582
-0.049565777 0.022112679 0.49400002 4279649574
-0.047961261 0.022112679 0.49400002 4279520293
-0.046450593 0.022157442 0.49500003 4279258398
-0.044933423 0.022202205 0.49600002 4279390754
-0.043497097 0.022291729 0.49800003 4279326242
-0.041963689 0.022336492 0.49900001 4279260963
-0.040423781 0.022381254 0.5 4279065130
-0.038877383 0.022426018 0.50100005 4278934316
-0.037324488 0.02247078 0.50200003 4278934316
-0.035765093 0.022515543 0.50300002 4278868523
-0.034199201 0.022560304 0.50400001 4279393582
-0.032562211 0.022560304 0.50400001 4279919156
-0.030986575 0.022605065 0.505 4280507188
-0.029404448 0.02264983 0.50600004 4279783211
-0.027815823 0.022694593 0.50700003 4279644961
-0.026220702 0.022739355 0.50800002 4279052310
-0.024619082 0.022784116 0.509 4278985750
-0.02305609 0.022873642 0.51100004 4278656785
-0.021438234 0.022918405 0.51200002 4278722578
-0.019852502 0.023007929 0.514 4278328333
-0.018218406 0.023052692 0.51500005 4279717932
-0.016577812 0.023097456 0.51600003 4279850031
-0.014959602 0.02318698 0.51800001 4279718445
-0.01330277 0.023231743 0.51900005 4279915311
-0.01163944 0.023276506 0.52000004 4280112690
-0.0099887494 0.023366028 0.52200001 4280178996
-0.0083250673 0.023455556 0.52400005 4279718445
-0.0066483943 0.023545079 0.52600002 4279981617
-0.0049681198 0.023679368 0.52900004 4279191588
-0.0032622137 0.023768893 0.53100002 4278665244
-0.0015462114 0.02390318 0.53400004 4278533146
0.00018892648 0.023992704 0.53600001 4278199812
0.0019442573 0.024171755 0.54000002 4278866986
0.0037050266 0.024216516 0.54100001 4278998572
0.0054823887 0.024306044 0.54300004 4279258412
-0.064006396 0.023717737 0.49400002 4283788123
-0.061043512 0.02381376 0.49600002 4281418038
-0.059432499 0.02381376 0.49600002 4281352245
-0.056097154 0.02376575 0.49500003 4281352245
-0.054379314 0.023717737 0.49400002 4281352245
-0.052774802 0.023717737 0.49400002 4281222194
-0.051170286 0.023717737 0.49400002 4280172071
-0.049565777 0.023717737 0.49400002 4279649574
-0.04805835 0.02376575 0.49500003 4279388453
-0.046544429 0.02381376 0.49600002 4279193121
-0.045024011 0.023861771 0.49700001 4279391013
-0.043497097 0.023909785 0.49800003 4279326244
-0.041963689 0.023957795 0.49900001 4279064099
-0.040423781 0.024005806 0.5 4278867751
-0.038954984 0.024101831 0.50200003 4279328302
-0.037324488 0.024101831 0.50200003 4278736935
-0.035765093 0.024149843 0.50300002 4278999337
-0.034199201 0.024197852 0.50400001 4278999337
-0.032626819 0.024245864 0.505 4279721777
-0.031047937 0.024293877 0.50600004 4280705081
-0.029462559 0.024341889 0.50700003 4278203152
-0.027870687 0.0243899 0.50800002 4280568114
-0.026272316 0.02443791 0.509 4278790933
-0.024715818 0.024533935 0.51100004 4278197769
-0.023101209 0.024581946 0.51200002 4278527763
-0.021521976 0.024677968 0.514 4280369965
-0.01992975 0.024773993 0.51600003 4278198024
-0.018289156 0.024822004 0.51700002 4280178223
-0.016642066 0.024870016 0.51800001 4278201613
-0.015017362 0.024966041 0.52000004 4280243764
-0.013354031 0.025014052 0.52100003 4278533660
-0.01170659 0.025110073 0.523 4278731550
-0.010046156 0.025206098 0.52500004 4278270999
-0.0083727296 0.02530212 0.52700001 4279260199
-0.0066863131 0.025398144 0.52900004 4279194920
-0.0049962942 0.025542177 0.53200001 4279325992
-0.0032806445 0.025638202 0.53400004 4278865441
-0.0015548979 0.025782235 0.537 4279390502
0.00018998391 0.02587826 0.53900003 4278202379
0.0019478577 0.025974283 0.54100001 4278997802
0.0037118753 0.026022296 0.54200006 4279064365
0.0054823887 0.026070308 0.54300004 4279192103
-0.062780835 0.025476575 0.49700001 4281221429
-0.059552323 0.025476575 0.49700001 4281024050
-0.052881636 0.025374055 0.49500003 4281223479
-0.051273871 0.025374055 0.49500003 4280239147
-0.049666114 0.025374055 0.49500003 4279781160
-0.04805835 0.025374055 0.49500003 4279453476
-0.046544429 0.025425315 0.49600002 4279258146
-0.045024011 0.025476575 0.49700001 4279522086
-0.043497097 0.025527837 0.49800003 4279391783
-0.042047784 0.025630357 0.5 4279063332
-0.040504631 0.02568162 0.50100005 4279459375
-0.038954984 0.02573288 0.50200003 4279130923
-0.037398838 0.02578414 0.50300002 4279130923
-0.035836194 0.0258354 0.50400001 4278933544
-0.034199201 0.0258354 0.50400001 4278933031
-0.032626819 0.02588666 0.505 4278667294
-0.031047937 0.025937922 0.50600004 4280244530
-0.029462559 0.025989184 0.50700003 4278199557
-0.027925549 0.026091704 0.509 4278592789
-0.026323933 0.026142966 0.51000005 4279053594
-0.024764186 0.026245486 0.51200002 4278592273
-0.023191446 0.026348006 0.514 4278395664
-0.021563848 0.02639927 0.51500005 4281357630
-0.019968374 0.02650179 0.51700002 4278726937
-0.018324532 0.02655305 0.51800001 4278202130
-0.016706323 0.026655573 0.52000004 4278660630
-0.015046241 0.026706833 0.52100003 4278532376
-0.013405294 0.026809353 0.523 4279323176
-0.011728975 0.026860617 0.52400005 4279388967
-0.010065292 0.026963137 0.52600002 4278928416
-0.0084045054 0.027116919 0.52900004 4279058718
-0.0067115915 0.027219439 0.53100002 4278533144
-0.0050150775 0.027373223 0.53400004 4279256867
-0.0032929312 0.027475743 0.53600001 4278533658
-0.0015606891 0.027629526 0.53900003 4279982900
0.00019033639 0.027680786 0.54000002 4278271771
0.0019514584 0.02778331 0.54200006 4279260715
0.0037187238 0.02783457 0.54300004 4279261228
0.0054924851 0.02788583 0.54400003 4279521068
-0.059672147 0.027145889 0.49800003 4283853403
-0.057938065 0.027091378 0.49700001 4284050780
-0.056323808 0.027091378 0.49700001 4283787608
-0.054599475 0.02703687 0.49600002 4283985502
-0.052988466 0.02703687 0.49600002 4283001172
-0.051273871 0.02698236 0.49500003 4280437039
-0.049766447 0.02703687 0.49600002 4279650857
-0.048155438 0.02703687 0.49600002 4279520293
-0.046638269 0.027091378 0.49700001 4279390500
-0.045114607 0.027145889 0.49800003 4279391013
-0.04358444 0.027200399 0.49900001 4279260711
-0.042047784 0.027254907 0.5 4279260711
-0.040504631 0.02730942 0.50100005 4279655982
-0.038954984 0.027363928 0.50200003 4279327787
-0.037398838 0.027418438 0.50300002 4279064617
-0.035836194 0.027472947 0.50400001 4278998824
-0.034267057 0.027527457 0.505 4279261226
-0.032691427 0.027581969 0.50600004 4278205973
-0.031109296 0.027636478 0.50700003 4279849006
-0.02952067 0.027690986 0.50800002 4278200589
-0.027925549 0.027745496 0.509 4279117849
-0.026375549 0.027854517 0.51100004 4278920472
-0.024812553 0.027963536 0.51300001 4279248152
-0.023191446 0.028018044 0.514 4279248152
-0.021605721 0.028127067 0.51600003 4278788884
-0.020006998 0.028236084 0.51800001 4280831799
-0.018359909 0.028290598 0.51900005 4280570676
-0.016706323 0.028345106 0.52000004 4278661142
-0.01507512 0.028454125 0.52200001 4280177969
-0.013430927 0.028563146 0.52400005 4279784238
-0.011751357 0.028617654 0.52500004 4279192101
-0.010103562 0.028781181 0.528 4279783725
-0.0084203929 0.028890204 0.53000003 4279915311
-0.0067368713 0.029053735 0.53300005 4279915311
-0.0050338604 0.029217262 0.53600001 4278203408
-0.0033052186 0.029326282 0.53800005 4278204695
-0.0015635845 0.029435301 0.54000002 4280442940
0.00019104134 0.029544322 0.54200006 4279258666
0.0019550589 0.029598832 0.54300004 4279261226
0.003725572 0.029653341 0.54400003 4279261226
0.0054924851 0.029653341 0.54400003 4279190306
-0.052988466 0.028648423 0.49600002 4280304942
-0.051377457 0.028648423 0.49600002 4280306739
-0.049766447 0.028648423 0.49600002 4279585580
-0.048252523 0.028706182 0.49700001 4279389480
-0.046732109 0.028763942 0.49800003 4279390502
-0.045114607 0.028763942 0.49800003 4279654185
-0.043671783 0.028879458 0.5 4279523883
-0.042131882 0.028937221 0.50100005 4279721262
-0.040585477 0.028994977 0.50200003 4279524396
-0.039032582 0.029052736 0.50300002 4279327017
-0.037473191 0.029110495 0.50400001 4279129638
-0.035907295 0.029168252 0.505 4279130410
-0.034267057 0.029168252 0.505 4279590193
-0.032691427 0.029226014 0.50600004 4278536226
-0.031109296 0.029283771 0.50700003 4279652652
-0.029578781 0.029399289 0.509 4280047410
-0.027980415 0.029457049 0.51000005 4280441141
-0.026427163 0.029572567 0.51200002 4280243762
-0.024812553 0.029630324 0.51300001 4280571446
-0.023236569 0.029745845 0.51500005 4280044332
-0.021605721 0.029803602 0.51600003 4279386148
-0.020006998 0.02991912 0.51800001 4279650344
-0.018359909 0.02997688 0.51900005 4278400277
-0.01673845 0.030092398 0.52100003 4278201870
-0.01507512 0.030150155 0.52200001 4278199043
-0.013430927 0.030265674 0.52400005 4278199043
-0.011773741 0.030381192 0.52600002 4278199814
-0.010103562 0.030496707 0.528 4278201099
-0.0084362803 0.030669985 0.53100002 4278202897
-0.0067495103 0.030843263 0.53400004 4278203924
-0.0050338604 0.030958779 0.53600001 4278533146
-0.0033113621 0.031132057 0.53900003 4279454248
-0.00156648 0.031247575 0.54100001 4279717680
0.00019104134 0.031305335 0.54200006 4279916596
0.0019586592 0.031420853 0.54400003 4279063849
0.003725572 0.031420853 0.54400003 4279130410
0.0055025811 0.03147861 0.54500002 4283859563
-0.053095296 0.030320985 0.49700001 4279778861
-0.051481038 0.030320985 0.49700001 4280503098
-0.049866781 0.030320985 0.49700001 4279978805
-0.048349611 0.030381994 0.49800003 4279716398
-0.046732109 0.030381994 0.49800003 4279719215
-0.045205195 0.030443002 0.49900001 4279391017
-0.04375913 0.03056502 0.50100005 4279720752
-0.042215977 0.030626027 0.50200003 4279589680
-0.040666327 0.030687034 0.50300002 4279458607
-0.03911018 0.030748041 0.50400001 4279327021
-0.03754754 0.030809049 0.505 4279327021
-0.035907295 0.030809049 0.505 4278932779
-0.034334917 0.03087006 0.50600004 4279064365
-0.032756034 0.030931067 0.50700003 4279458353
-0.031170655 0.030992074 0.50800002 4279589426
-0.029578781 0.031053081 0.509 4279326254
-0.028035278 0.031175099 0.51100004 4279194920
-0.026427163 0.031236107 0.51200002 4279129640
-0.02486092 0.031358119 0.514 4279194920
-0.023236569 0.031419132 0.51500005 4279260713
-0.021647591 0.031541146 0.51700002 4279326508
-0.020006998 0.031602152 0.51800001 4279260461
-0.018359909 0.031663164 0.51900005 4279326254
-0.01673845 0.031785179 0.52100003 4279392047
-0.01507512 0.031846184 0.52200001 4279194922
-0.013430927 0.031968202 0.52400005 4279325994
-0.011773741 0.032090217 0.52600002 4279851055
-0.010122699 0.032273244 0.52900004 4279588396
-0.0084362803 0.032395259 0.53100002 4279588396
-0.0067495103 0.032578282 0.53400004 4280048434
-0.0050432519 0.032761306 0.537 4279718445
-0.0033113621 0.032883324 0.53900003 4280244276
-0.00156648 0.033005338 0.54100001 4280377145
0.00019139382 0.033127356 0.54300004 4279653422
0.0019586592 0.033188362 0.54400003 4279588396
0.0037324205 0.033249371 0.54500002 4279194154
-0.0484467 0.032064304 0.49900001 4282936923
-0.046825945 0.032064304 0.49900001 4280569143
-0.045295786 0.032128561 0.5 4280241457
-0.04375913 0.032192823 0.50100005 4280177201
-0.042215977 0.032257076 0.50200003 4280310071
-0.040747173 0.032385591 0.50400001 4280113723
-0.03911018 0.032385591 0.50400001 4279587892
-0.03754754 0.032449845 0.505 4279785271
-0.035978403 0.032514106 0.50600004 4280245820
-0.034402769 0.032578364 0.50700003 4279785269
-0.032756034 0.032578364 0.50700003 4279654707
-0.031170655 0.032642618 0.50800002 4279325742
-0.029636895 0.032771137 0.51000005 4279654707
-0.028035278 0.03283539 0.51100004 4279392049
-0.026478779 0.032963905 0.51300001 4279523635
-0.02486092 0.033028159 0.514 4279523633
-0.023281688 0.033156678 0.51600003 4279720498
-0.021647591 0.033220932 0.51700002 4279654705
-0.020006998 0.033285189 0.51800001 4279523119
-0.018359909 0.033349451 0.51900005 4279326254
-0.01673845 0.033477962 0.52100003 4279589426
-0.01507512 0.03354222 0.52200001 4279326508
-0.013430927 0.033670735 0.52400005 4279260715
-0.011773741 0.03379925 0.52600002 4279655219
-0.010122699 0.033992022 0.52900004 4278931750
-0.0084362803 0.034120534 0.53100002 4279260715
-0.0067495103 0.034313306 0.53400004 4279326254
-0.0050432519 0.034506075 0.537 4279720500
-0.0033113621 0.03463459 0.53900003 4279653937
-0.0015693757 0.034827363 0.54200006 4279588144
0.00019139382 0.03489162 0.54300004 4279851316
0.0019586592 0.034955878 0.54400003 4279520814
0.0037324205 0.035020132 0.54500002 4283464551
-0.037621893 0.034158152 0.50600004 4285370751
-0.035978403 0.034158152 0.50600004 4284384369
-0.034402769 0.034225658 0.50700003 4282937437
-0.028035278 0.034495682 0.51100004 4280636219
-0.026478779 0.034630693 0.51300001 4280767805
-0.02486092 0.034698199 0.514 4280306739
-0.023281688 0.034833215 0.51600003 4280767801
-0.021647591 0.034900717 0.51700002 4279979568
-0.020006998 0.034968223 0.51800001 4279979570
-0.018359909 0.035035733 0.51900005 4279914547
-0.01673845 0.035170745 0.52100003 4280112442
-0.01507512 0.035238251 0.52200001 4280112442
-0.013430927 0.035373263 0.52400005 4279848754
-0.011773741 0.035508275 0.52600002 4279979570
-0.010103562 0.035643287 0.528 4279716398
-0.0084362803 0.035845805 0.53100002 4280308537
-0.0067495103 0.036048327 0.53400004 4280440123
-0.0050338604 0.036183339 0.53600001 4281228872
-0.0033113621 0.036385857 0.53900003 4281821009
-0.0015693757 0.036588378 0.54200006 4283596137
0.00019139382 0.036655884 0.54300004 4285437825
0.0019586592 0.036723386 0.54400003 4287475359
-0.026478779 0.036297482 0.51300001 4287673506
-0.02486092 0.036368236 0.514 4287936678
-0.023281688 0.036509749 0.51600003 4287673760
-0.021647591 0.036580503 0.51700002 4287673758
-0.020006998 0.036651257 0.51800001 4287607965
-0.018359909 0.036722019 0.51900005 4287739553
-0.016706323 0.036792774 0.52000004 4287673760
-0.01507512 0.036934283 0.52200001 4288068777
-0.013430927 0.037075795 0.52400005 4287279261
-0.011773741 0.037217304 0.52600002 4287213468
-0.010103562 0.037358813 0.528 4287476381
-0.0084362803 0.03757108 0.53100002 4287409564
-0.0067495103 0.037783347 0.53400004 4287409564
-0.0050338604 0.037924856 0.53600001 4287278232
-0.0033052186 0.038066369 0.53800005 4287212439
-0.02844917 0.024521198 0.51072365 4294967295
-0.02844917 0.024521198 0.51072365 4294901760
-0.02837131 0.024027582 0.51074046 4294901760
-0.028293449 0.023533968 0.51075721 4294901760
-0.028215589 0.023040352 0.51077402 4294901760
-0.028137729 0.022546738 0.51079082 4294901760
-0.028059868 0.022053123 0.51080757 4294901760
-0.027982008 0.021559507 0.51082438 4294901760
-0.027904149 0.021065891 0.51084119 4294901760
-0.027826289 0.020572277 0.51085794 4294901760
-0.027748428 0.020078661 0.51087475 4294901760
-0.027670568 0.019585047 0.51089156 4294901760
-0.027592707 0.019091431 0.51090831 4294901760
-0.027514847 0.018597815 0.51092511 4294901760
-0.027436987 0.018104201 0.51094186 4294901760
-0.027359126 0.017610585 0.51095867 4294901760
-0.027281266 0.017116969 0.51097548 4294901760
-0.027203405 0.016623355 0.51099223 4294901760
-0.027125545 0.01612974 0.51100904 4294901760
-0.027047684 0.015636124 0.51102585 4294901760
-0.026969824 0.01514251 0.51104259 4294901760
-0.026891964 0.014648894 0.5110594 4294901760
-0.026814103 0.014155279 0.51107621 4294901760
-0.026736245 0.013661664 0.51109296 4294901760
-0.026658384 0.013168048 0.51110977 4294901760
-0.026580524 0.012674434 0.51112658 4294901760
-0.026502663 0.012180818 0.51114333 4294901760
-0.026424803 0.011687203 0.51116014 4294901760
-0.026346942 0.011193587 0.51117694 4294901760
-0.026269082 0.010699973 0.51119369 4294901760
-0.026191222 0.010206358 0.5112105 4294901760
-0.026113361 0.0097127417 0.51122725 4294901760
-0.026035501 0.0092191268 0.51124406 4294901760
-0.02595764 0.0087255128 0.51126087 4294901760
-0.02587978 0.0082318969 0.51127762 4294901760
-0.025801919 0.007738281 0.51129442 4294901760
-0.025724061 0.007244667 0.51131123 4294901760
-0.025646199 0.0067510512 0.51132798 4294901760
-0.02556834 0.0062574353 0.51134479 4294901760
-0.02549048 0.0057638213 0.5113616 4294901760
-0.025412619 0.0052702054 0.51137835 4294901760
-0.025334759 0.0047765896 0.51139516 4294901760
-0.025256898 0.0042829756 0.51141196 4294901760
-0.025179038 0.0037893597 0.51142871 4294901760
-0.025101177 0.0032957438 0.51144552 4294901760
-0.025023317 0.0028021298 0.51146233 4294901760
-0.024945457 0.0023085158 0.51147908 4294901760
-0.024867596 0.0018148981 0.51149589 4294901760
-0.024789736 0.0013212841 0.5115127 4294901760
-0.024711875 0.0008276701 0.51152945 4294901760
-0.024634015 0.00033405237 0.51154625 4294901760
-0.024556156 -0.00015956163 0.51156306 4294901760
-0.024478294 -0.00065317564 0.51157981 4294901760
-0.024400435 -0.0011467915 0.51159662 4294901760
-0.024322575 -0.0016404055 0.51161337 4294901760
-0.024244715 -0.0021340232 0.51163018 4294901760
-0.024166854 -0.0026276391 0.51164699 4294901760
-0.024088994 -0.0031212531 0.51166373 4294901760
-0.024011133 -0.0036148671 0.51168054 4294901760
-0.023933273 -0.004108483 0.51169735 4294901760
-0.023855412 -0.004602097 0.5117141 4294901760
-0.023777552 -0.0050957147 0.51173091 4294901760
-0.023699692 -0.0055893287 0.51174772 4294901760
-0.023621831 -0.0060829446 0.51176447 4294901760
-0.023543973 -0.0065765586 0.51178128 4294901760
-0.02346611 -0.0070701726 0.51179808 4294901760
-0.023388252 -0.0075637884 0.51181483 4294901760
-0.023310389 -0.0080574043 0.51183164 4294901760
-0.023232531 -0.0085510202 0.51184845 4294901760
-0.02315467 -0.009044636 0.5118652 4294901760
-0.02307681 -0.0095382519 0.51188201 4294901760
-0.02299895 -0.010031864 0.51189876 4294901760
-0.022921089 -0.01052548 0.51191556 4294901760
-0.022843229 -0.011019096 0.51193237 4294901760
-0.022765368 -0.011512712 0.51194912 4294901760
-0.022687508 -0.012006328 0.51196593 4294901760
-0.022609647 -0.01249994 0.51198274 4294901760
-0.022531787 -0.012993556 0.51199949 4294901760
-0.022453927 -0.013487171 0.5120163 4294901760
-0.022376068 -0.013980787 0.5120331 4294901760
-0.022298206 -0.014474403 0.51204985 4294901760
-0.022220347 -0.014968019 0.51206666 4294901760
-0.022142487 -0.015461631 0.51208347 4294901760
-0.022064626 -0.015955247 0.51210022 4294901760
-0.021986766 -0.016448863 0.51211703 4294901760
-0.021908905 -0.016942479 0.51213384 4294901760
-0.021831045 -0.017436095 0.51215059 4294901760
-0.021753184 -0.01792971 0.51216739 4294901760
-0.021675324 -0.018423323 0.5121842 4294901760
-0.021597464 -0.018916938 0.51220095 4294901760
-0.021519603 -0.019410554 0.51221776 4294901760
-0.021441743 -0.019904166 0.51223457 4294901760
-0.021363882 -0.020397786 0.51225132 4294901760
-0.021286022 -0.020891402 0.51226813 4294901760
-0.021208163 -0.021385014 0.51228487 4294901760
-0.021130301 -0.02187863 0.51230168 4294901760
-0.021052442 -0.022372246 0.51231849 4294901760
-0.020974582 -0.022865858 0.51233524 4294901760
-0.020896722 -0.023359478 0.51235205 4294901760
-0.020818861 -0.023853093 0.51236886 4294901760
-0.020741001 -0.024346706 0.51238561 4294901760
-0.02066314 -0.024840321 0.51240242 4294901760
-0.02844917 0.024521198 0.51072365 4278255360
-0.028063813 0.024592543 0.51103413 4278255360
-0.027678456 0.024663886 0.51134467 4278255360
-0.027293097 0.024735231 0.51165515 4278255360
-0.02690774 0.024806574 0.51196563 4278255360
-0.026522383 0.024877919 0.51227617 4278255360
-0.026137026 0.024949264 0.51258665 4278255360
-0.025751667 0.025020607 0.51289713 4278255360
-0.02536631 0.025091952 0.51320761 4278255360
-0.024980953 0.025163297 0.51351815 4278255360
-0.024595596 0.02523464 0.51382864 4278255360
-0.024210237 0.025305985 0.51413912 4278255360
-0.02382488 0.025377328 0.51444966 4278255360
-0.023439523 0.025448672 0.51476014 4278255360
-0.023054166 0.025520017 0.51507062 4278255360
-0.022668807 0.02559136 0.51538116 4278255360
-0.02228345 0.025662705 0.51569164 4278255360
-0.021898093 0.02573405 0.51600212 4278255360
-0.021512736 0.025805393 0.51631266 4278255360
-0.021127377 0.025876738 0.51662314 4278255360
-0.02074202 0.025948081 0.51693362 4278255360
-0.020356663 0.026019426 0.51724416 4278255360
-0.019971304 0.026090771 0.51755464 4278255360
-0.019585948 0.026162114 0.51786512 4278255360
-0.01920059 0.026233459 0.5181756 4278255360
-0.018815232 0.026304804 0.51848614 4278255360
-0.018429875 0.026376147 0.51879662 4278255360
-0.018044516 0.026447492 0.5191071 4278255360
-0.017659161 0.026518835 0.51941764 4278255360
-0.017273802 0.02659018 0.51972812 4278255360
-0.016888443 0.026661525 0.5200386 4278255360
-0.016503088 0.026732868 0.52034914 4278255360
-0.016117729 0.026804212 0.52065963 4278255360
-0.015732372 0.026875556 0.52097011 4278255360
-0.015347015 0.0269469 0.52128065 4278255360
-0.014961657 0.027018245 0.52159113 4278255360
-0.014576299 0.027089588 0.52190161 4278255360
-0.014190942 0.027160933 0.52221209 4278255360
-0.013805585 0.027232278 0.52252263 4278255360
-0.013420228 0.027303621 0.52283311 4278255360
-0.01303487 0.027374966 0.52314359 4278255360
-0.012649512 0.027446309 0.52345413 4278255360
-0.012264155 0.027517654 0.52376461 4278255360
-0.011878798 0.027588999 0.52407509 4278255360
-0.011493439 0.027660342 0.52438563 4278255360
-0.011108082 0.027731687 0.52469611 4278255360
-0.010722725 0.02780303 0.52500659 4278255360
-0.010337368 0.027874375 0.52531713 4278255360
-0.0099520106 0.02794572 0.52562761 4278255360
-0.0095666517 0.028017063 0.52593809 4278255360
-0.0091812946 0.028088408 0.52624857 4278255360
-0.0087959375 0.028159752 0.52655911 4278255360
-0.0084105805 0.028231096 0.5268696 4278255360
-0.0080252234 0.02830244 0.52718008 4278255360
-0.0076398645 0.028373785 0.52749062 4278255360
-0.0072545074 0.028445128 0.5278011 4278255360
-0.0068691503 0.028516473 0.52811158 4278255360
-0.0064837914 0.028587816 0.52842212 4278255360
-0.0060984343 0.028659161 0.5287326 4278255360
-0.0057130773 0.028730504 0.52904308 4278255360
-0.0053277183 0.028801849 0.52935362 4278255360
-0.0049423613 0.028873194 0.5296641 4278255360
-0.0045570042 0.028944537 0.52997458 4278255360
-0.0041716471 0.029015882 0.53028512 4278255360
-0.0037862901 0.029087227 0.5305956 4278255360
-0.003400933 0.02915857 0.53090608 4278255360
-0.0030155741 0.029229915 0.53121656 4278255360
-0.002630217 0.02930126 0.5315271 4278255360
-0.0022448599 0.029372603 0.53183758 4278255360
-0.001859501 0.029443948 0.53214806 4278255360
-0.0014741439 0.029515291 0.5324586 4278255360
-0.0010887869 0.029586636 0.53276908 4278255360
-0.00070342794 0.02965798 0.53307956 4278255360
-0.00031807087 0.029729323 0.5333901 4278255360
6.7286193e-05 0.029800668 0.53370059 4278255360
0.00045264326 0.029872011 0.53401107 4278255360
0.00083800033 0.029943356 0.53432161 4278255360
0.0012233574 0.030014701 0.53463209 4278255360
0.0016087145 0.030086044 0.53494257 4278255360
0.0019940734 0.030157389 0.53525305 4278255360
0.0023794305 0.030228734 0.53556359 4278255360
0.0027647875 0.030300077 0.53587407 4278255360
0.0031501465 0.030371422 0.53618455 4278255360
0.0035355017 0.030442767 0.53649509 4278255360
0.0039208606 0.03051411 0.53680557 4278255360
0.0043062195 0.030585455 0.53711605 4278255360
0.0046915747 0.030656798 0.53742659 4278255360
0.0050769337 0.030728143 0.53773707 4278255360
0.0054622926 0.030799486 0.53804755 4278255360
0.0058476478 0.030870831 0.53835809 4278255360
0.0062330067 0.030942176 0.53866857 4278255360
0.0066183656 0.031013519 0.53897905 4278255360
0.0070037208 0.031084863 0.53928959 4278255360
0.0073890798 0.031156208 0.53960007 4278255360
0.007774435 0.031227551 0.53991055 4278255360
0.0081597939 0.031298894 0.54022104 4278255360
0.0085451491 0.031370241 0.54053158 4278255360
0.008930508 0.031441584 0.54084206 4278255360
0.009315867 0.031512927 0.54115254 4278255360
0.0097012222 0.031584274 0.54146308 4278255360
0.010086581 0.031655617 0.54177356 4278255360
-0.02844917 0.024521198 0.51072365 4278190335
-0.028763173 0.024484845 0.51111108 4278190335
-0.029077176 0.02444849 0.51149845 4278190335
-0.029391179 0.024412137 0.51188588 4278190335
-0.029705182 0.024375783 0.51227325 4278190335
-0.030019185 0.024339428 0.51266068 4278190335
-0.030333187 0.024303075 0.51304805 4278190335
-0.03064719 0.024266722 0.51343548 4278190335
-0.030961193 0.024230367 0.51382285 4278190335
-0.031275194 0.024194013 0.51421028 4278190335
-0.031589199 0.02415766 0.51459765 4278190335
-0.0319032 0.024121305 0.51498508 4278190335
-0.032217205 0.024084952 0.51537246 4278190335
-0.032531206 0.024048598 0.51575989 4278190335
-0.03284521 0.024012243 0.51614726 4278190335
-0.033159211 0.02397589 0.51653469 4278190335
-0.033473216 0.023939537 0.51692206 4278190335
-0.033787217 0.023903182 0.51730949 4278190335
-0.034101222 0.023866829 0.51769692 4278190335
-0.034415223 0.023830475 0.51808429 4278190335
-0.034729227 0.02379412 0.51847172 4278190335
-0.035043228 0.023757767 0.51885909 4278190335
-0.035357229 0.023721414 0.51924652 4278190335
-0.035671234 0.023685059 0.51963389 4278190335
-0.035985239 0.023648705 0.52002132 4278190335
-0.03629924 0.023612352 0.52040869 4278190335
-0.036613241 0.023575997 0.52079612 4278190335
-0.036927246 0.023539644 0.52118349 4278190335
-0.03724125 0.02350329 0.52157092 4278190335
-0.037555251 0.023466935 0.52195829 4278190335
-0.037869252 0.023430582 0.52234572 4278190335
-0.038183257 0.023394229 0.52273309 4278190335
-0.038497258 0.023357874 0.52312052 4278190335
-0.038811263 0.023321521 0.52350795 4278190335
-0.039125264 0.023285167 0.52389532 4278190335
-0.039439268 0.023248812 0.52428275 4278190335
-0.039753273 0.023212459 0.52467012 4278190335
-0.040067274 0.023176106 0.52505755 4278190335
-0.040381275 0.023139752 0.52544492 4278190335
-0.04069528 0.023103397 0.52583236 4278190335
-0.041009281 0.023067044 0.52621973 4278190335
-0.041323286 0.023030691 0.52660716 4278190335
-0.041637287 0.022994336 0.52699453 4278190335
-0.041951291 0.022957982 0.52738196 4278190335
-0.042265292 0.022921629 0.52776933 4278190335
-0.042579293 0.022885274 0.52815676 4278190335
-0.042893298 0.022848921 0.52854413 4278190335
-0.043207303 0.022812568 0.52893156 4278190335
-0.043521304 0.022776213 0.52931893 4278190335
-0.043835305 0.022739859 0.52970636 4278190335
-0.044149309 0.022703506 0.53009379 4278190335
-0.044463314 0.022667151 0.53048116 4278190335
-0.044777315 0.022630798 0.53086859 4278190335
-0.045091316 0.022594444 0.53125596 4278190335
-0.045405321 0.022558089 0.53164339 4278190335
-0.045719326 0.022521736 0.53203076 4278190335
-0.046033327 0.022485383 0.53241819 4278190335
-0.046347328 0.022449028 0.53280556 4278190335
-0.046661332 0.022412675 0.53319299 4278190335
-0.046975333 0.022376321 0.53358036 4278190335
-0.047289338 0.022339966 0.53396779 4278190335
-0.047603339 0.022303613 0.53435516 4278190335
-0.047917344 0.02226726 0.53474259 4278190335
-0.048231345 0.022230905 0.53512996 4278190335
-0.048545346 0.022194551 0.53551739 4278190335
-0.04885935 0.022158198 0.53590477 4278190335
-0.049173355 0.022121843 0.5362922 4278190335
-0.04948736 0.02208549 0.53667963 4278190335
-0.049801357 0.022049136 0.537067 4278190335
-0.050115362 0.022012781 0.53745443 4278190335
-0.050429367 0.021976428 0.5378418 4278190335
-0.050743368 0.021940075 0.53822923 4278190335
-0.051057372 0.02190372 0.5386166 4278190335
-0.051371373 0.021867367 0.53900403 4278190335
-0.051685378 0.021831013 0.5393914 4278190335
-0.051999379 0.021794658 0.53977883 4278190335
-0.05231338 0.021758305 0.5401662 4278190335
-0.052627385 0.021721952 0.54055363 4278190335
-0.052941386 0.021685597 0.540941 4278190335
-0.05325539 0.021649243 0.54132843 4278190335
-0.053569391 0.02161289 0.5417158 4278190335
-0.053883396 0.021576535 0.54210323 4278190335
-0.054197401 0.021540182 0.5424906 4278190335
-0.054511398 0.021503828 0.54287803 4278190335
-0.054825403 0.021467473 0.54326546 4278190335
-0.055139408 0.02143112 0.54365283 4278190335
-0.055453412 0.021394767 0.54404026 4278190335
-0.055767413 0.021358412 0.54442763 4278190335
-0.056081414 0.021322059 0.54481506 4278190335
-0.056395419 0.021285705 0.54520243 4278190335
-0.05670942 0.02124935 0.54558986 4278190335
-0.057023425 0.021212997 0.54597723 4278190335
-0.057337426 0.021176644 0.54636467 4278190335
-0.05765143 0.021140289 0.54675204 4278190335
-0.057965431 0.021103935 0.54713947 4278190335
-0.058279432 0.021067582 0.54752684 4278190335
-0.058593437 0.021031227 0.54791427 4278190335
-0.058907442 0.020994874 0.54830164 4278190335
-0.059221443 0.02095852 0.54868907 4278190335
-0.059535444 0.020922165 0.54907644 4278190335
-0.059849449 0.020885812 0.54946387 4278190335
-0.02844917 0.024521198 0.51072365 4294967295
-0.026565153 0.024739321 0.50839925 4294967295
-0.024681136 0.024957445 0.50607485 4294967295
-0.022797119 0.025175568 0.50375038 4294967295
-0.020913102 0.025393691 0.50142598 4294967295
-0.019029085 0.025611814 0.49910158 4294967295
-0.017145067 0.025829937 0.49677718 4294967295
-0.015261051 0.026048061 0.49445274 4294967295
-0.013377035 0.026266184 0.49212834 4294967295
-0.011493016 0.026484307 0.48980391 4294967295
-0.0096090008 0.02670243 0.48747951 4294967295
-0.0077249836 0.026920553 0.48515508 4294967295
-0.0058409665 0.027138676 0.48283067 4294967295
-0.0039569512 0.0273568 0.48050627 4294967295
-0.0020729322 0.027574923 0.47818184 4294967295
-0.00018891506 0.027793046 0.47585744 4294967295
0.0016951002 0.028011169 0.473533 4294967295
0.0035791174 0.028229292 0.4712086 4294967295
0.0054631382 0.028447416 0.46888417 4294967295
0.0073471516 0.028665539 0.46655977 4294967295
0.0092311688 0.028883662 0.46423537 4294967295
0.011115186 0.029101785 0.46191093 4294967295
0.012999203 0.029319908 0.45958653 4294967295
0.01488322 0.029538032 0.4572621 4294967295
0.016767237 0.029756155 0.4549377 4294967295
0.018651254 0.029974278 0.45261329 4294967295
0.020535268 0.030192399 0.45028886 4294967295
0.022419289 0.030410524 0.44796443 4294967295
0.024303306 0.030628648 0.44564003 4294967295
0.026187319 0.030846769 0.44331563 4294967295
0.02807134 0.031064894 0.44099119 4294967295
0.029955357 0.031283017 0.43866679 4294967295
0.031839371 0.03150114 0.43634236 4294967295
0.033723392 0.031719264 0.43401796 4294967295
0.035607405 0.031937387 0.43169355 4294967295
0.037491426 0.03215551 0.42936912 4294967295
0.039375447 0.032373633 0.42704472 4294967295
0.04125946 0.032591756 0.42472029 4294967295
0.043143474 0.032809876 0.42239588 4294967295
0.045027487 0.033027999 0.42007148 4294967295
0.046911508 0.033246126 0.41774705 4294967295
0.048795529 0.033464245 0.41542265 4294967295
0.050679542 0.033682369 0.41309822 4294967295
0.052563563 0.033900492 0.41077381 4294967295
0.054447576 0.034118615 0.40844941 4294967295
0.05633159 0.034336738 0.40612498 4294967295
0.058215611 0.034554861 0.40380055 4294967295
0.060099632 0.034772985 0.40147614 4294967295
0.061983645 0.034991108 0.39915174 4294967295
0.063867666 0.035209231 0.39682731 4294967295
0.065751679 0.035427354 0.39450291 4294967295
0.067635693 0.035645477 0.39217851 4294967295
0.069519706 0.035863601 0.38985407 4294967295
0.071403727 0.036081724 0.38752967 4294967295
0.073287748 0.036299847 0.38520524 4294967295
0.075171769 0.03651797 0.38288084 4294967295
0.077055782 0.036736093 0.3805564 4294967295
0.078939795 0.036954217 0.378232 4294967295
0.080823809 0.03717234 0.3759076 4294967295
0.08270783 0.037390463 0.3735832 4294967295
0.084591851 0.037608586 0.37125874 4294967295
0.086475872 0.037826709 0.36893433 4294967295
0.088359885 0.038044833 0.36660993 4294967295
0.090243898 0.038262956 0.36428553 4294967295
0.092127912 0.038481079 0.3619611 4294967295
0.094011933 0.038699202 0.35963669 4294967295
0.095895953 0.038917325 0.35731226 4294967295
0.097779967 0.039135449 0.35498786 4294967295
0.09966398 0.039353572 0.35266346 4294967295
0.10154801 0.039571695 0.35033903 4294967295
0.10343202 0.039789818 0.34801459 4294967295
0.10531604 0.040007941 0.34569019 4294967295
0.10720006 0.040226065 0.34336579 4294967295
0.10908408 0.040444188 0.34104136 4294967295
0.11096809 0.040662311 0.33871695 4294967295
0.1128521 0.040880434 0.33639252 4294967295
0.11473612 0.041098557 0.33406812 4294967295
0.11662013 0.041316681 0.33174372 4294967295
0.11850414 0.041534804 0.32941931 4294967295
0.12038817 0.041752927 0.32709485 4294967295
0.12227219 0.04197105 0.32477045 4294967295
0.1241562 0.042189173 0.32244605 4294967295
0.12604022 0.042407297 0.32012165 4294967295
0.12792423 0.04262542 0.31779724 4294967295
0.12980825 0.042843543 0.31547281 4294967295
0.13169229 0.043061666 0.31314838 4294967295
0.1335763 0.043279789 0.31082398 4294967295
0.13546032 0.043497913 0.30849957 4294967295
0.13734433 0.043716036 0.30617514 4294967295
0.13922834 0.043934159 0.30385071 4294967295
0.14111236 0.044152282 0.30152631 4294967295
0.14299637 0.044370405 0.29920191 4294967295
0.14488038 0.044588529 0.29687747 4294967295
0.1467644 0.044806652 0.29455307 4294967295
0.14864844 0.045024775 0.29222864 4294967295
0.15053245 0.045242898 0.28990424 4294967295
0.15241647 0.045461021 0.28757983 4294967295
0.15430048 0.045679145 0.2852554 4294967295
0.15618449 0.045897268 0.28293097 4294967295
0.15806851 0.046115391 0.28060657 4294967295
0.15995252 0.046333514 0.27828217 4294967295
