# .PCD v0.7 - Point Cloud Data file format
VERSION 0.7
FIELDS x y z rgb
SIZE 4 4 4 4
TYPE F F F U
COUNT 1 1 1 1
WIDTH 672
HEIGHT 1
VIEWPOINT 0 0 0 1 0 0 0
POINTS 672
DATA ascii
0.50497419 -0.071971253 0.75800002 4278914826
0.50743616 -0.071971253 0.75800002 4278981389
0.51278454 -0.071686409 0.75500005 4278915596
0.50251216 -0.069508433 0.75800002 4279176975
0.50497419 -0.069508433 0.75800002 4278849033
0.50676674 -0.069416739 0.75700003 4278783240
0.50855273 -0.069325037 0.75600004 4278914826
0.51033235 -0.069233336 0.75500005 4279177998
0.51278454 -0.069233336 0.75500005 4278914826
0.51523679 -0.069233336 0.75500005 4278915596
0.51768905 -0.069233336 0.75500005 4278718217
0.50251216 -0.067045614 0.75800002 4278915594
0.50430799 -0.066957168 0.75700003 4278981387
0.50676674 -0.066957168 0.75700003 4279046410
0.50855273 -0.066868715 0.75600004 4278717445
0.51033235 -0.066780269 0.75500005 4278914826
0.51278454 -0.066780269 0.75500005 4279112205
0.51455438 -0.066691808 0.75400001 4279112203
0.51700336 -0.066691808 0.75400001 4278982154
0.50005019 -0.064582795 0.75800002 4279046412
0.50184923 -0.064497598 0.75700003 4278914826
0.50430799 -0.064497598 0.75700003 4278849033
0.50609726 -0.064412393 0.75600004 4279112205
0.50788009 -0.064327195 0.75500005 4278914826
0.51033235 -0.064327195 0.75500005 4278848780
0.51210535 -0.06424199 0.75400001 4278914573
0.51455438 -0.06424199 0.75400001 4278915596
0.51700336 -0.06424199 0.75400001 4278718728
0.51945233 -0.06424199 0.75400001 4278718728
0.50184923 -0.062038027 0.75700003 4279308563
0.50364178 -0.061956074 0.75600004 4278979596
0.50609726 -0.061956074 0.75600004 4278782987
0.50788009 -0.061874121 0.75500005 4278782987
0.50965637 -0.061792165 0.75400001 4278914573
0.51210535 -0.061792165 0.75400001 4278914826
0.51455438 -0.061792165 0.75400001 4278718217
0.51700336 -0.061792165 0.75400001 4278456077
0.50184923 -0.059578452 0.75700003 4278717964
0.50364178 -0.059499748 0.75600004 4278782987
0.50609726 -0.059499748 0.75600004 4278717964
0.50788009 -0.059421048 0.75500005 4278981387
0.50965637 -0.05934234 0.75400001 4278718215
0.51142615 -0.059263635 0.75300002 4278784008
0.51387191 -0.059263635 0.75300002 4279047180
0.51631767 -0.059263635 0.75300002 4278915594
0.51142615 -0.056817062 0.75300002 4278979847
0.51387191 -0.056817062 0.75300002 4279506191
-0.068779595 0.0091571491 0.59000003 4288131227
-0.074023284 0.010999041 0.58600003 4284247389
-0.070576094 0.011055349 0.58900005 4284049496
-0.068779595 0.011074119 0.59000003 4282800461
-0.066976599 0.011092889 0.59100002 4282735183
-0.065167114 0.011111658 0.59200001 4282406735
-0.063351132 0.011130429 0.59300005 4283789417
-0.072119951 0.012903014 0.58600003 4284048993
-0.070336446 0.012925033 0.58700001 4287405983
-0.068663023 0.012969071 0.58900005 4283394657
-0.066863276 0.012991089 0.59000003 4283196251
-0.065057032 0.013013108 0.59100002 4283656802
-0.063244298 0.013035126 0.59200001 4282142280
-0.061425064 0.013057146 0.59300005 4282537553
-0.077431485 0.014731183 0.583 4284512113
-0.075537905 0.014731183 0.583 4287933860
-0.073770642 0.014756452 0.58400005 4283655519
-0.071996883 0.01478172 0.58500004 4293000185
-0.070216626 0.014806988 0.58600003 4283591272
-0.068429872 0.014832254 0.58700001 4282933594
-0.066636615 0.014857522 0.588 4282800974
-0.064946957 0.01490806 0.59000003 4282866767
-0.063137464 0.014933326 0.59100002 4282734670
-0.061425064 0.014983864 0.59300005 4283392347
-0.059599336 0.015009131 0.59400004 4282866256
-0.057767108 0.015034398 0.59500003 4281945152
-0.055928387 0.015059666 0.59600002 4283656537
-0.054083169 0.015084933 0.597 4281287735
-0.05214411 0.015084933 0.597 4280892979
-0.050205056 0.015084933 0.597 4283590744
-0.048346847 0.015110203 0.59800005 4279977772
-0.046482142 0.01513547 0.59900004 4279849520
-0.044536591 0.01513547 0.59900004 4279129136
-0.042733241 0.015186005 0.60100001 4279523898
-0.040849052 0.015211275 0.60200006 4282481503
-0.038958363 0.015236542 0.60300004 4281099337
-0.036999814 0.015236542 0.60300004 4280705092
-0.035041269 0.015236542 0.60300004 4281757265
-0.073644318 0.01662541 0.583 4284446831
-0.071873814 0.016653929 0.58400005 4288329134
-0.068313293 0.016710961 0.58600003 4283127881
-0.066523291 0.016739478 0.58700001 4280495641
-0.064836875 0.016796513 0.58900005 4287009400
-0.063030638 0.01682503 0.59000003 4282800713
-0.061321478 0.016882064 0.59200001 4283853149
-0.059599336 0.016939098 0.59400004 4281484601
-0.057767108 0.016967615 0.59500003 4281024050
-0.055928387 0.016996132 0.59600002 4281156403
-0.053992577 0.016996132 0.59600002 4281287989
-0.05214411 0.017024647 0.597 4280892977
-0.050205056 0.017024647 0.597 4282077503
-0.048346847 0.017053166 0.59800005 4280107815
-0.046482142 0.017081684 0.59900004 4279387683
-0.04461094 0.017110201 0.60000002 4278996775
-0.042733241 0.017138716 0.60100001 4278998572
-0.040849052 0.017167235 0.60200006 4278932779
-0.038958363 0.017195752 0.60300004 4279919928
-0.036999814 0.017195752 0.60300004 4280051514
-0.03509938 0.017224267 0.60400003 4279525429
-0.03313759 0.017224267 0.60400003 4279722810
-0.031175794 0.017224267 0.60400003 4279920189
-0.029262368 0.017252784 0.60500002 4280115770
-0.027297327 0.017252784 0.60500002 4279984184
-0.025374157 0.017281301 0.60600001 4279985467
-0.023444494 0.01730982 0.60700005 4279327539
-0.021508332 0.017338336 0.60800004 4279918654
-0.07918901 0.018487873 0.58200002 4280497960
-0.077298671 0.018487873 0.58200002 4283525469
-0.07540834 0.018487873 0.58200002 4284906350
-0.073644318 0.018519638 0.583 4283986018
-0.071750738 0.018519638 0.583 4283460189
-0.061217893 0.018773766 0.59100002 4283984985
-0.059499003 0.018837299 0.59300005 4280235301
-0.05767002 0.018869067 0.59400004 4280761391
-0.055834547 0.018900832 0.59500003 4280497190
-0.053992577 0.018932598 0.59600002 4281023534
-0.05214411 0.018964363 0.597 4280761130
-0.050205056 0.018964363 0.597 4281353778
-0.048346847 0.018996131 0.59800005 4280108580
-0.046482142 0.019027896 0.59900004 4279650596
-0.04461094 0.019059662 0.60000002 4279258146
-0.042733241 0.019091427 0.60100001 4279390502
-0.040849052 0.019123195 0.60200006 4279194920
-0.038958363 0.01915496 0.60300004 4279196203
-0.037061173 0.019186726 0.60400003 4279130921
-0.03509938 0.019186726 0.60400003 4279262509
-0.03313759 0.019186726 0.60400003 4278999339
-0.03122741 0.019218491 0.60500002 4279065132
-0.029262368 0.019218491 0.60500002 4279393582
-0.027297327 0.019218491 0.60500002 4278998822
-0.025374157 0.019250257 0.60600001 4278868519
-0.023483116 0.019313792 0.60800004 4279131691
-0.021543706 0.019345557 0.60900003 4278671656
-0.019662056 0.019440856 0.61200005 4279066416
-0.017732039 0.019504387 0.61400002 4279066162
-0.015763396 0.019536152 0.61500001 4279263029
-0.013788261 0.01956792 0.61600006 4279919674
-0.011787491 0.01956792 0.61600006 4280117053
-0.0098026078 0.019599685 0.61700004 4281035842
-0.0077985916 0.019599685 0.61700004 4280376116
-0.005803966 0.019631451 0.61800003 4282678367
-0.073518001 0.020378849 0.58200002 4284052065
-0.071750738 0.020413864 0.583 4282669388
-0.061217893 0.020693986 0.59100002 4284511331
-0.059499003 0.020764017 0.59300005 4280366887
-0.05767002 0.020799031 0.59400004 4280497706
-0.055834547 0.020834047 0.59500003 4280562983
-0.053992577 0.020869061 0.59600002 4280892718
-0.05214411 0.020904077 0.597 4280037409
-0.050205056 0.020904077 0.597 4281025583
-0.048346847 0.020939093 0.59800005 4279779363
-0.046482142 0.020974107 0.59900004 4279649574
-0.04461094 0.021009123 0.60000002 4279126049
-0.042804345 0.021079155 0.60200006 4279258914
-0.040916905 0.021114169 0.60300004 4279325990
-0.039022967 0.021149185 0.60400003 4279194918
-0.037061173 0.021149185 0.60400003 4279196201
-0.03509938 0.021149185 0.60400003 4279196203
-0.033192452 0.021184199 0.60500002 4278998824
-0.03122741 0.021184199 0.60500002 4278998824
-0.029262368 0.021184199 0.60500002 4278208025
-0.027342446 0.021219213 0.60600001 4279721262
-0.025416031 0.02125423 0.60700005 4278867749
-0.023483116 0.021289244 0.60800004 4278868519
-0.021579081 0.021359274 0.61000001 4278736933
-0.019662056 0.021429306 0.61200005 4278736933
-0.017732039 0.021499336 0.61400002 4278802726
-0.015763396 0.02153435 0.61500001 4278342177
-0.013788261 0.021569367 0.61600006 4279065130
-0.011806626 0.021604382 0.61700004 4279130923
-0.0098184953 0.021639397 0.61800003 4279262509
-0.0078112311 0.021639397 0.61800003 4279065130
-0.0058133574 0.021674411 0.61900002 4279262509
-0.003821275 0.021779457 0.62200004 4279263281
-0.0018039133 0.021814473 0.62300003 4279263029
0.00022029673 0.021884501 0.625 4279853883
-0.073644318 0.022308089 0.583 4284841581
-0.071750738 0.022308089 0.583 4282866254
-0.069976978 0.022346355 0.58400005 4283522119
-0.062923804 0.022537677 0.58900005 4284248411
-0.061217893 0.022614205 0.59100002 4283590742
-0.059499003 0.022690734 0.59300005 4280498219
-0.05767002 0.022728998 0.59400004 4280695339
-0.055834547 0.022767263 0.59500003 4280036639
-0.053992577 0.022805527 0.59600002 4280891948
-0.05214411 0.022843789 0.597 4280761132
-0.050205056 0.022843789 0.597 4280630057
-0.048346847 0.022882055 0.59800005 4279779877
-0.046482142 0.02292032 0.59900004 4279584551
-0.044685289 0.022996847 0.60100001 4279127078
-0.042804345 0.023035113 0.60200006 4279456297
-0.040916905 0.023073377 0.60300004 4279260199
-0.039022967 0.023111641 0.60400003 4279194920
-0.037061173 0.023111641 0.60400003 4279458605
-0.035157491 0.023149906 0.60500002 4279261226
-0.033192452 0.023149906 0.60500002 4279063847
-0.03122741 0.023149906 0.60500002 4279195433
-0.029310735 0.023188168 0.60600001 4278929951
-0.027342446 0.023188168 0.60600001 4279587883
-0.025457902 0.023264699 0.60800004 4278203409
-0.02352174 0.023302963 0.60900003 4278402074
-0.021614457 0.02337949 0.611 4279389734
-0.019694183 0.02345602 0.61300004 4279851055
-0.017760918 0.023532547 0.61500001 4279325990
-0.015789028 0.023570813 0.61600006 4279589676
-0.013810643 0.023609078 0.61700004 4279194918
-0.011825761 0.023647342 0.61800003 4279260197
-0.0098343827 0.023685604 0.61900002 4279129640
-0.0078365095 0.023723869 0.62 4279064617
-0.0058321408 0.023762135 0.62100005 4278801958
-0.0038274184 0.023838663 0.62300003 4278802728
-0.0018097042 0.02391519 0.625 4278473763
0.0002210017 0.023991721 0.62700003 4279131693
0.0022683002 0.024106514 0.63000005 4279329074
-0.073644318 0.024202315 0.583 4284249444
-0.071873814 0.024243832 0.58400005 4284643178
-0.06640996 0.024326857 0.58600003 4281219114
-0.064726792 0.024409883 0.588 4284511846
-0.063030638 0.02449291 0.59000003 4282407751
-0.061321478 0.024575936 0.59200001 4284052063
-0.059499003 0.024617452 0.59300005 4280959024
-0.057767108 0.024700478 0.59500003 4281155890
-0.055928387 0.02474199 0.59600002 4280497190
-0.053992577 0.02474199 0.59600002 4281089327
-0.05214411 0.024783503 0.597 4281155890
-0.050289154 0.024825018 0.59800005 4280499756
-0.048346847 0.024825018 0.59800005 4279650344
-0.04655974 0.024908045 0.60000002 4279322662
-0.044685289 0.024949558 0.60100001 4279324972
-0.042804345 0.024991073 0.60200006 4279194408
-0.040916905 0.025032585 0.60300004 4279260715
-0.039022967 0.025074098 0.60400003 4279458607
-0.037061173 0.025074098 0.60400003 4279196205
-0.035157491 0.025115611 0.60500002 4279196203
-0.033192452 0.025115611 0.60500002 4279196203
-0.03122741 0.025115611 0.60500002 4279787570
-0.029310735 0.025157124 0.60600001 4278270488
-0.027387567 0.02519864 0.60700005 4278203413
-0.025457902 0.025240153 0.60800004 4278724888
-0.023560364 0.025323179 0.61000001 4278789400
-0.021614457 0.025364691 0.611 4279117849
-0.019694183 0.025447719 0.61300004 4278854677
-0.017760918 0.025530744 0.61500001 4278198532
-0.01581466 0.025613774 0.61700004 4279783465
-0.013833026 0.025655286 0.61800003 4278533658
-0.011844897 0.025696799 0.61900002 4278200581
-0.0098502701 0.025738312 0.62 4278199809
-0.0078491503 0.025779827 0.62100005 4278201351
-0.0058415323 0.025821339 0.62200004 4278201865
-0.0038335619 0.025904365 0.62400001 4278731804
-0.0018154954 0.026028907 0.62700003 4280114225
0.00022205913 0.026153447 0.63000005 4280114738
0.0022791016 0.026277987 0.63300002 4279656756
0.0043624807 0.02644404 0.63700002 4278868523
-0.070216626 0.026230831 0.58600003 4282274632
-0.068429872 0.026275592 0.58700001 4282669388
-0.066636615 0.026320355 0.588 4282340423
-0.064836875 0.026365118 0.58900005 4282800974
-0.063137464 0.026454642 0.59100002 4283328088
-0.061425064 0.026544169 0.59300005 4282209861
-0.059599336 0.026588932 0.59400004 4281287476
-0.057864193 0.026678454 0.59600002 4281024050
-0.055928387 0.026678454 0.59600002 4281286706
-0.054083169 0.026723217 0.597 4281352499
-0.05214411 0.026723217 0.597 4281419062
-0.050289154 0.026767982 0.59800005 4280435247
-0.048427694 0.026812743 0.59900004 4279322662
-0.04655974 0.026857505 0.60000002 4279191590
-0.044685289 0.026902268 0.60100001 4279127845
-0.042804345 0.026947033 0.60200006 4279457578
-0.040916905 0.026991794 0.60300004 4279260713
-0.039022967 0.027036555 0.60400003 4279195433
-0.037061173 0.027036555 0.60400003 4279590191
-0.035157491 0.027081318 0.60500002 4279129638
-0.033192452 0.027081318 0.60500002 4279261224
-0.03122741 0.027081318 0.60500002 4279787057
-0.029310735 0.027126079 0.60600001 4280901692
-0.027387567 0.027170844 0.60700005 4278199302
-0.025457902 0.027215606 0.60800004 4279055388
-0.023560364 0.02730513 0.61000001 4280107563
-0.021649834 0.027394656 0.61200005 4280830003
-0.01972631 0.02748418 0.61400002 4280763440
-0.017760918 0.027528942 0.61500001 4278199817
-0.01581466 0.02761847 0.61700004 4279848488
-0.013833026 0.027663231 0.61800003 4278862363
-0.011844897 0.027707992 0.61900002 4278336792
-0.0098502701 0.027752755 0.62 4279850801
-0.0078617893 0.027842281 0.62200004 4279258918
-0.0058509237 0.027887043 0.62300003 4279456297
-0.0038458491 0.028021332 0.62600005 4279653676
-0.0018183909 0.028110856 0.62800002 4280047662
0.0002224116 0.028245144 0.63100004 4280179248
0.0022863026 0.028424194 0.63500005 4278203406
0.0043693287 0.02855848 0.63800001 4279063849
-0.068546444 0.028230827 0.588 4284708190
-0.063351132 0.028470889 0.59300005 4282668875
-0.059699669 0.02856691 0.59500003 4283392082
-0.057864193 0.028614921 0.59600002 4282207808
-0.056022223 0.028662933 0.597 4282602566
-0.054083169 0.028662933 0.597 4281418292
-0.052231457 0.028710946 0.59800005 4281682747
-0.050373249 0.028758958 0.59900004 4280172071
-0.048427694 0.028758958 0.59900004 4279914029
-0.04655974 0.028806968 0.60000002 4279257383
-0.044685289 0.028854979 0.60100001 4279456556
-0.042804345 0.028902993 0.60200006 4279260201
-0.040916905 0.028951004 0.60300004 4279129127
-0.039022967 0.028999016 0.60400003 4279327019
-0.037061173 0.028999016 0.60400003 4279393582
-0.03509938 0.028999016 0.60400003 4278933031
-0.03313759 0.028999016 0.60400003 4278867238
-0.03122741 0.029047025 0.60500002 4279654957
-0.029310735 0.029095037 0.60600001 4281097790
-0.027387567 0.02914305 0.60700005 4278200073
-0.025457902 0.029191062 0.60800004 4279120668
-0.023560364 0.029287085 0.61000001 4278396175
-0.021649834 0.029383108 0.61200005 4278197254
-0.01972631 0.029479131 0.61400002 4281488446
-0.017760918 0.029527143 0.61500001 4280767542
-0.01581466 0.029623168 0.61700004 4278199044
-0.013833026 0.029671177 0.61800003 4278463763
-0.011844897 0.029719189 0.61900002 4280177969
-0.0098661585 0.029815214 0.62100005 4278204177
-0.0078617893 0.029863225 0.62200004 4278205462
-0.0058603152 0.029959247 0.62400001 4278205205
-0.0038458491 0.030055271 0.62600005 4278205206
-0.0018212864 0.030199304 0.62900001 4278863390
0.00022311654 0.03039135 0.63300002 4278798365
0.0022899031 0.030535387 0.63600004 4278204174
0.0043761777 0.030679423 0.63900006 4279325222
0.0064819399 0.030823456 0.64200002 4279260715
-0.065277196 0.030397605 0.59300005 4285302645
-0.063457966 0.030448865 0.59400004 4284578155
-0.061632231 0.030500125 0.59500003 4282011207
-0.059800006 0.030551385 0.59600002 4282339912
-0.057961278 0.030602647 0.597 4283984735
-0.056116067 0.030653909 0.59800005 4284511079
-0.054173764 0.030653909 0.59800005 4284050782
-0.0523188 0.030705169 0.59900004 4284511844
-0.050373249 0.030705169 0.59900004 4280369963
-0.04850854 0.030756429 0.60000002 4279848236
-0.046637338 0.030807689 0.60100001 4279717934
-0.044759646 0.030858953 0.60200006 4279324970
-0.042804345 0.030858953 0.60200006 4279260715
-0.040916905 0.030910213 0.60300004 4279327019
-0.038958363 0.030910213 0.60300004 4279327789
-0.037061173 0.030961473 0.60400003 4279393582
-0.03509938 0.030961473 0.60400003 4279064617
-0.03313759 0.030961473 0.60400003 4279195433
-0.03122741 0.031012733 0.60500002 4279719469
-0.029262368 0.031012733 0.60500002 4280507188
-0.027342446 0.031063993 0.60600001 4278200587
-0.025457902 0.031166516 0.60800004 4278987031
-0.023560364 0.031269036 0.61000001 4279117849
-0.021649834 0.03137156 0.61200005 4279117336
-0.019694183 0.03142282 0.61300004 4279052056
-0.017760918 0.03152534 0.61500001 4281227839
-0.01581466 0.031627864 0.61700004 4278793498
-0.013833026 0.031679124 0.61800003 4280505653
-0.011844897 0.031730384 0.61900002 4279125797
-0.0098661585 0.031832907 0.62100005 4278336792
-0.0078617893 0.031884167 0.62200004 4279981617
-0.0058603152 0.031986687 0.62400001 4279652139
-0.0038519925 0.032140467 0.62700003 4279125795
-0.0018241821 0.032294251 0.63000005 4278731037
0.00022311654 0.032448031 0.63300002 4279652652
0.0022935036 0.032653075 0.63700002 4278731550
0.0043830262 0.032806858 0.64000005 4279456808
-0.056116067 0.032596871 0.59800005 4283328350
-0.054264355 0.03265138 0.59900004 4281880391
-0.0523188 0.03265138 0.59900004 4280172334
-0.050457343 0.032705892 0.60000002 4280634422
-0.04850854 0.032705892 0.60000002 4280044848
-0.046637338 0.0327604 0.60100001 4279979822
-0.044759646 0.032814912 0.60200006 4279850031
-0.042804345 0.032814912 0.60200006 4279654189
-0.040916905 0.032869421 0.60300004 4279721264
-0.038958363 0.032869421 0.60300004 4279458605
-0.036999814 0.032869421 0.60300004 4279130410
-0.03509938 0.032923929 0.60400003 4279130410
-0.03313759 0.032923929 0.60400003 4279326508
-0.031175794 0.032923929 0.60400003 4278206234
-0.029262368 0.032978438 0.60500002 4279522603
-0.027342446 0.033032946 0.60600001 4279456810
-0.025457902 0.033141971 0.60800004 4279784238
-0.02352174 0.033196479 0.60900003 4280177969
-0.021614457 0.033305496 0.611 4280966204
-0.019694183 0.033414517 0.61300004 4280505653
-0.017760918 0.033523537 0.61500001 4280176947
-0.015789028 0.033578049 0.61600006 4279255845
-0.013833026 0.033687066 0.61800003 4278202643
-0.011844897 0.033741575 0.61900002 4278200587
-0.0098502701 0.033796087 0.62 4278199816
-0.0078617893 0.033905108 0.62200004 4278200070
-0.0058603152 0.034014124 0.62400001 4278201612
-0.0038519925 0.034177657 0.62700003 4278202895
-0.0018241821 0.034341186 0.63000005 4279322660
0.000223469 0.034559224 0.634 4279783211
0.0022935036 0.034722753 0.63700002 4279719215
0.0043830262 0.034886286 0.64000005 4279391017
-0.050457343 0.034655351 0.60000002 4283659104
-0.048589386 0.034713108 0.60100001 4280502836
-0.046637338 0.034713108 0.60100001 4279846190
-0.044759646 0.034770872 0.60200006 4279651889
-0.042804345 0.034770872 0.60200006 4280573502
-0.040916905 0.034828629 0.60300004 4279785523
-0.038958363 0.034828629 0.60300004 4279786291
-0.036999814 0.034828629 0.60300004 4279392047
-0.035041269 0.034828629 0.60300004 4279392047
-0.03313759 0.034886386 0.60400003 4279589426
-0.031175794 0.034886386 0.60400003 4279523635
-0.029262368 0.034944147 0.60500002 4279392049
-0.027342446 0.035001904 0.60600001 4279392047
-0.025416031 0.035059664 0.60700005 4279260461
-0.02352174 0.035175182 0.60900003 4279260715
-0.021614457 0.035290699 0.611 4279391787
-0.019694183 0.035406217 0.61300004 4279588396
-0.017760918 0.035521735 0.61500001 4279326254
-0.015789028 0.035579495 0.61600006 4279326254
-0.013810643 0.035637252 0.61700004 4279063082
-0.011844897 0.03575277 0.61900002 4279720498
-0.0098502701 0.035810526 0.62 4279587629
-0.0078617893 0.035926048 0.62200004 4279653422
-0.0058603152 0.036041565 0.62400001 4279981871
-0.0038519925 0.036214843 0.62700003 4279981871
-0.0018241821 0.036388122 0.63000005 4280113457
0.00022311654 0.036561396 0.63300002 4280705594
0.0022935036 0.036792431 0.63700002 4279719469
0.0043830262 0.036965709 0.64000005 4279457326
-0.044759646 0.036726829 0.60200006 4287344795
-0.042804345 0.036726829 0.60200006 4286424206
-0.040849052 0.036726829 0.60200006 4284977274
-0.038958363 0.036787838 0.60300004 4283332449
-0.036999814 0.036787838 0.60300004 4282017359
-0.035041269 0.036787838 0.60300004 4281096257
-0.03313759 0.036848843 0.60400003 4280571455
-0.031175794 0.036848843 0.60400003 4279454260
-0.029262368 0.036909852 0.60500002 4279586098
-0.027342446 0.036970858 0.60600001 4279718197
-0.025416031 0.03703187 0.60700005 4279916346
-0.02352174 0.037153885 0.60900003 4279916346
-0.021614457 0.037275899 0.611 4279718965
-0.019694183 0.037397917 0.61300004 4279390513
-0.017732039 0.037458923 0.61400002 4279785269
-0.015789028 0.037580941 0.61600006 4279457328
-0.013810643 0.03764195 0.61700004 4279589428
-0.011825761 0.037702955 0.61800003 4279392049
-0.0098502701 0.03782497 0.62 4279062316
-0.0078491503 0.037885983 0.62100005 4279785269
-0.0058603152 0.038069002 0.62400001 4280047928
-0.0038519925 0.03825203 0.62700003 4279653170
-0.0018241821 0.038435053 0.63000005 4279850549
0.00022311654 0.038618077 0.63300002 4279718963
0.0022935036 0.038862109 0.63700002 4279521586
0.0043761777 0.038984127 0.63900006 4279915063
-0.029262368 0.038875561 0.60500002 4287344795
-0.027342446 0.038939815 0.60600001 4287279261
-0.025416031 0.039004076 0.60700005 4287410847
-0.02352174 0.039132588 0.60900003 4287279261
-0.021614457 0.039261103 0.611 4287410847
-0.015763396 0.039518133 0.61500001 4285569411
-0.013810643 0.039646648 0.61700004 4285241216
0.01983151 0.016930103 0.62108523 4294967295
0.01983151 0.016930103 0.62108523 4294901760
0.01983151 0.016930103 0.62158525 4294901760
0.01983151 0.016930103 0.62208521 4294901760
0.01983151 0.016930103 0.62258524 4294901760
0.01983151 0.016930103 0.6230852 4294901760
0.01983151 0.016930103 0.62358522 4294901760
0.01983151 0.016930103 0.62408525 4294901760
0.01983151 0.016930103 0.62458521 4294901760
0.01983151 0.016930103 0.62508523 4294901760
0.01983151 0.016930103 0.6255852 4294901760
0.01983151 0.016930103 0.62608522 4294901760
0.01983151 0.016930103 0.62658525 4294901760
0.01983151 0.016930103 0.62708521 4294901760
0.01983151 0.016930103 0.62758523 4294901760
0.01983151 0.016930103 0.62808526 4294901760
0.01983151 0.016930103 0.62858522 4294901760
0.01983151 0.016930103 0.62908524 4294901760
0.01983151 0.016930103 0.62958521 4294901760
0.01983151 0.016930103 0.63008523 4294901760
0.01983151 0.016930103 0.63058525 4294901760
0.01983151 0.016930103 0.63108522 4294901760
0.01983151 0.016930103 0.63158524 4294901760
0.01983151 0.016930103 0.6320852 4294901760
0.01983151 0.016930103 0.63258523 4294901760
0.01983151 0.016930103 0.63308525 4294901760
0.01983151 0.016930103 0.63358521 4294901760
0.01983151 0.016930103 0.63408524 4294901760
0.01983151 0.016930103 0.6345852 4294901760
0.01983151 0.016930103 0.63508523 4294901760
0.01983151 0.016930103 0.63558525 4294901760
0.01983151 0.016930103 0.63608521 4294901760
0.01983151 0.016930103 0.63658524 4294901760
0.01983151 0.016930103 0.6370852 4294901760
0.01983151 0.016930103 0.63758522 4294901760
0.01983151 0.016930103 0.63808525 4294901760
0.01983151 0.016930103 0.63858521 4294901760
0.01983151 0.016930103 0.63908523 4294901760
0.01983151 0.016930103 0.63958526 4294901760
0.01983151 0.016930103 0.64008522 4294901760
0.01983151 0.016930103 0.64058524 4294901760
0.01983151 0.016930103 0.64108521 4294901760
0.01983151 0.016930103 0.64158523 4294901760
0.01983151 0.016930103 0.64208525 4294901760
0.01983151 0.016930103 0.64258522 4294901760
0.01983151 0.016930103 0.64308524 4294901760
0.01983151 0.016930103 0.64358521 4294901760
0.01983151 0.016930103 0.64408523 4294901760
0.01983151 0.016930103 0.64458525 4294901760
0.01983151 0.016930103 0.64508522 4294901760
0.01983151 0.016930103 0.64558524 4294901760
0.01983151 0.016930103 0.64608526 4294901760
0.01983151 0.016930103 0.64658523 4294901760
0.01983151 0.016930103 0.64708525 4294901760
0.01983151 0.016930103 0.64758521 4294901760
0.01983151 0.016930103 0.64808524 4294901760
0.01983151 0.016930103 0.64858526 4294901760
0.01983151 0.016930103 0.64908522 4294901760
0.01983151 0.016930103 0.64958525 4294901760
0.01983151 0.016930103 0.65008521 4294901760
0.01983151 0.016930103 0.65058523 4294901760
0.01983151 0.016930103 0.65108526 4294901760
0.01983151 0.016930103 0.65158522 4294901760
0.01983151 0.016930103 0.65208524 4294901760
0.01983151 0.016930103 0.65258521 4294901760
0.01983151 0.016930103 0.65308523 4294901760
0.01983151 0.016930103 0.65358526 4294901760
0.01983151 0.016930103 0.65408522 4294901760
0.01983151 0.016930103 0.65458524 4294901760
0.01983151 0.016930103 0.65508521 4294901760
0.01983151 0.016930103 0.65558523 4294901760
0.01983151 0.016930103 0.65608525 4294901760
0.01983151 0.016930103 0.65658522 4294901760
0.01983151 0.016930103 0.65708524 4294901760
0.01983151 0.016930103 0.65758526 4294901760
0.01983151 0.016930103 0.65808523 4294901760
0.01983151 0.016930103 0.65858525 4294901760
0.01983151 0.016930103 0.65908521 4294901760
0.01983151 0.016930103 0.65958524 4294901760
0.01983151 0.016930103 0.66008526 4294901760
0.01983151 0.016930103 0.66058522 4294901760
0.01983151 0.016930103 0.66108525 4294901760
0.01983151 0.016930103 0.66158521 4294901760
0.01983151 0.016930103 0.66208524 4294901760
0.01983151 0.016930103 0.66258526 4294901760
0.01983151 0.016930103 0.66308522 4294901760
0.01983151 0.016930103 0.66358525 4294901760
0.01983151 0.016930103 0.66408527 4294901760
0.01983151 0.016930103 0.66458523 4294901760
0.01983151 0.016930103 0.66508526 4294901760
0.01983151 0.016930103 0.66558522 4294901760
0.01983151 0.016930103 0.66608524 4294901760
0.01983151 0.016930103 0.66658527 4294901760
0.01983151 0.016930103 0.66708523 4294901760
0.01983151 0.016930103 0.66758525 4294901760
0.01983151 0.016930103 0.66808522 4294901760
0.01983151 0.016930103 0.66858524 4294901760
0.01983151 0.016930103 0.66908526 4294901760
0.01983151 0.016930103 0.66958523 4294901760
0.01983151 0.016930103 0.67008525 4294901760
0.01983151 0.016930103 0.67058522 4294901760
0.01983151 0.016930103 0.67108524 4294901760
0.01983151 0.016930103 0.62108523 4278255360
0.019599684 0.016924283 0.62152821 4278255360
0.019367859 0.016918464 0.62197119 4278255360
0.019136032 0.016912643 0.62241411 4278255360
0.018904207 0.016906824 0.62285709 4278255360
0.018672381 0.016901003 0.62330008 4278255360
0.018440556 0.016895184 0.62374306 4278255360
0.018208729 0.016889364 0.62418604 4278255360
0.017976904 0.016883543 0.62462896 4278255360
0.017745078 0.016877724 0.62507194 4278255360
0.017513253 0.016871903 0.62551492 4278255360
0.017281426 0.016866084 0.62595791 4278255360
0.017049599 0.016860263 0.62640089 4278255360
0.016817775 0.016854443 0.62684387 4278255360
0.016585948 0.016848624 0.62728679 4278255360
0.016354123 0.016842803 0.62772977 4278255360
0.016122296 0.016836984 0.62817276 4278255360
0.015890472 0.016831163 0.62861574 4278255360
0.015658645 0.016825344 0.62905872 4278255360
0.015426819 0.016819524 0.62950164 4278255360
0.015194993 0.016813703 0.62994462 4278255360
0.014963168 0.016807884 0.6303876 4278255360
0.014731342 0.016802063 0.63083059 4278255360
0.014499515 0.016796244 0.63127357 4278255360
0.01426769 0.016790424 0.63171649 4278255360
0.014035864 0.016784605 0.63215947 4278255360
0.013804039 0.016778784 0.63260245 4278255360
0.013572212 0.016772963 0.63304543 4278255360
0.013340387 0.016767144 0.63348842 4278255360
0.013108561 0.016761323 0.63393134 4278255360
0.012876734 0.016755505 0.63437432 4278255360
0.012644909 0.016749684 0.6348173 4278255360
0.012413084 0.016743863 0.63526028 4278255360
0.012181258 0.016738044 0.63570327 4278255360
0.011949432 0.016732223 0.63614625 4278255360
0.011717606 0.016726404 0.63658917 4278255360
0.01148578 0.016720584 0.63703215 4278255360
0.011253954 0.016714765 0.63747513 4278255360
0.011022128 0.016708944 0.63791811 4278255360
0.010790302 0.016703123 0.6383611 4278255360
0.010558477 0.016697304 0.63880402 4278255360
0.010326651 0.016691484 0.639247 4278255360
0.010094825 0.016685665 0.63968998 4278255360
0.0098629994 0.016679844 0.64013296 4278255360
0.0096311737 0.016674023 0.64057595 4278255360
0.0093993479 0.016668204 0.64101887 4278255360
0.0091675213 0.016662383 0.64146185 4278255360
0.0089356955 0.016656565 0.64190483 4278255360
0.0087038698 0.016650744 0.64234781 4278255360
0.008472044 0.016644925 0.64279079 4278255360
0.0082402183 0.016639104 0.64323378 4278255360
0.0080083925 0.016633283 0.6436767 4278255360
0.0077765668 0.016627464 0.64411968 4278255360
0.007544741 0.016621644 0.64456266 4278255360
0.0073129144 0.016615825 0.64500564 4278255360
0.0070810886 0.016610004 0.64544863 4278255360
0.0068492629 0.016604185 0.64589155 4278255360
0.0066174371 0.016598364 0.64633453 4278255360
0.0063856123 0.016592544 0.64677751 4278255360
0.0061537866 0.016586725 0.64722049 4278255360
0.0059219589 0.016580904 0.64766347 4278255360
0.0056901341 0.016575085 0.6481064 4278255360
0.0054583084 0.016569264 0.64854938 4278255360
0.0052264826 0.016563443 0.64899236 4278255360
0.0049946569 0.016557625 0.64943534 4278255360
0.0047628311 0.016551804 0.64987832 4278255360
0.0045310045 0.016545985 0.65032125 4278255360
0.0042991787 0.016540164 0.65076423 4278255360
0.0040673539 0.016534345 0.65120721 4278255360
0.0038355272 0.016528524 0.65165019 4278255360
0.0036037024 0.016522704 0.65209317 4278255360
0.0033718757 0.016516885 0.65253615 4278255360
0.0031400491 0.016511064 0.65297908 4278255360
0.0029082242 0.016505245 0.65342206 4278255360
0.0026763976 0.016499424 0.65386504 4278255360
0.0024445727 0.016493604 0.65430802 4278255360
0.0022127461 0.016487785 0.654751 4278255360
0.0019809213 0.016481964 0.65519392 4278255360
0.0017490946 0.016476145 0.65563691 4278255360
0.0015172679 0.016470324 0.65607989 4278255360
0.0012854431 0.016464505 0.65652287 4278255360
0.0010536164 0.016458685 0.65696585 4278255360
0.00082179159 0.016452864 0.65740877 4278255360
0.00058996677 0.016447045 0.65785176 4278255360
0.0003581401 0.016441224 0.65829474 4278255360
0.00012631342 0.016435405 0.65873772 4278255360
-0.0001055114 0.016429584 0.6591807 4278255360
-0.00033733808 0.016423766 0.65962362 4278255360
-0.00056916289 0.016417945 0.6600666 4278255360
-0.00080098957 0.016412124 0.66050959 4278255360
-0.0010328144 0.016406305 0.66095257 4278255360
-0.0012646411 0.016400484 0.66139555 4278255360
-0.0014964677 0.016394665 0.66183853 4278255360
-0.0017282926 0.016388845 0.66228145 4278255360
-0.0019601192 0.016383024 0.66272444 4278255360
-0.002191944 0.016377205 0.66316742 4278255360
-0.0024237707 0.016371384 0.6636104 4278255360
-0.0026555974 0.016365565 0.66405338 4278255360
-0.0028874222 0.016359745 0.6644963 4278255360
-0.0031192489 0.016353926 0.66493928 4278255360
-0.0033510737 0.016348105 0.66538227 4278255360
