# .PCD v0.7 - Point Cloud Data file format
VERSION 0.7
FIELDS x y z rgb
SIZE 4 4 4 4
TYPE F F F U
COUNT 1 1 1 1
WIDTH 630
HEIGHT 1
VIEWPOINT 0 0 0 1 0 0 0
POINTS 630
DATA ascii
-0.1298667 0.023276506 0.52000004 4279585312
-0.12793125 0.023231743 0.51900005 4279256347
-0.12624554 0.023231743 0.51900005 4279059738
-0.12455983 0.023231743 0.51900005 4279058972
-0.12263735 0.02318698 0.51800001 4278531345
-0.13571204 0.025110073 0.523 4282342208
-0.1337571 0.025062062 0.52200001 4279715615
-0.13180865 0.025014052 0.52100003 4279453726
-0.1298667 0.024966041 0.52000004 4279453726
-0.12793125 0.024918029 0.51900005 4279322910
-0.12600228 0.024870016 0.51800001 4279125533
-0.12431981 0.024870016 0.51800001 4279388707
-0.1224006 0.024822004 0.51700002 4278925849
-0.12025438 0.024725983 0.51500005 4279386400
-0.11835139 0.024677968 0.514 4279124252
-0.090041667 0.02381376 0.49600002 4278863386
-0.088430658 0.02381376 0.49600002 4279060765
-0.086819649 0.02381376 0.49600002 4279060765
-0.085036851 0.02376575 0.49500003 4279127330
-0.083429091 0.02376575 0.49500003 4279258916
-0.08182133 0.02376575 0.49500003 4279522088
-0.13793623 0.026911877 0.52500004 4280891946
-0.13597155 0.026860617 0.52400005 4281026348
-0.1337571 0.026758093 0.52200001 4279649822
-0.13180865 0.026706833 0.52100003 4279519519
-0.1298667 0.026655573 0.52000004 4279585312
-0.12793125 0.026604313 0.51900005 4279453726
-0.12600228 0.02655305 0.51800001 4279125531
-0.12407982 0.02650179 0.51700002 4278861078
-0.12216385 0.02645053 0.51600003 4278197504
-0.12002087 0.026348006 0.514 4279451680
-0.11812114 0.026296746 0.51300001 4278788621
-0.11600091 0.026194226 0.51100004 4279049742
-0.11411743 0.026142966 0.51000005 4278853135
-0.11201991 0.026040444 0.50800002 4278393095
-0.11015267 0.025989184 0.50700003 4278262792
-0.10829192 0.025937922 0.50600004 4278197513
-0.10643765 0.02588666 0.505 4278330634
-0.10458989 0.0258354 0.50400001 4279253017
-0.10274863 0.02578414 0.50300002 4278861080
-0.10091387 0.02573288 0.50200003 4279189273
-0.099085592 0.02568162 0.50100005 4279453215
-0.097263813 0.025630357 0.5 4279650592
-0.095448531 0.025579097 0.49900001 4279190295
-0.093639746 0.025527837 0.49800003 4279190295
-0.091837466 0.025476575 0.49700001 4279454750
-0.090041667 0.025425315 0.49600002 4279125785
-0.088430658 0.025425315 0.49600002 4278928920
-0.086644612 0.025374055 0.49500003 4279192092
-0.085036851 0.025374055 0.49500003 4278929179
-0.083260544 0.025322793 0.49400002 4278929179
-0.081656031 0.025322793 0.49400002 4279060765
-0.079889476 0.025271533 0.49300003 4279060765
-0.078129411 0.025220271 0.49200001 4278929179
-0.076531388 0.025220271 0.49200001 4279127330
-0.07493338 0.025220271 0.49200001 4279456297
-0.073335357 0.025220271 0.49200001 4279587883
-0.071737342 0.025220271 0.49200001 4280507448
-0.13846169 0.028726673 0.52700001 4281023016
-0.13623103 0.028617654 0.52500004 4281684792
-0.13401334 0.028508633 0.523 4279190043
-0.13180865 0.028399615 0.52100003 4279453726
-0.1298667 0.028345106 0.52000004 4279387933
-0.12793125 0.028290598 0.51900005 4279387933
-0.12575904 0.028181575 0.51700002 4279124761
-0.12383982 0.028127067 0.51600003 4279913766
-0.1219271 0.028072556 0.51500005 4280042535
-0.12002087 0.028018044 0.514 4280503086
-0.11812114 0.027963536 0.51300001 4279051025
-0.11600091 0.027854517 0.51100004 4279049744
-0.11411743 0.027800009 0.51000005 4278654986
-0.11201991 0.027690986 0.50800002 4278983951
-0.11015267 0.027636478 0.50700003 4278786318
-0.10829192 0.027581969 0.50600004 4278983951
-0.10643765 0.027527457 0.505 4278852365
-0.10458989 0.027472947 0.50400001 4278985234
-0.10274863 0.027418438 0.50300002 4279647516
-0.10091387 0.027363928 0.50200003 4280437032
-0.099085592 0.02730942 0.50100005 4279319324
-0.097263813 0.027254907 0.5 4278661396
-0.095448531 0.027200399 0.49900001 4278197250
-0.093639746 0.027145889 0.49800003 4278197504
-0.091837466 0.027091378 0.49700001 4278199046
-0.090041667 0.02703687 0.49600002 4278201356
-0.088430658 0.02703687 0.49600002 4279254555
-0.086644612 0.02698236 0.49500003 4279649824
-0.084865063 0.026927849 0.49400002 4279453215
-0.083260544 0.026927849 0.49400002 4279256349
-0.081490733 0.026873341 0.49300003 4279257117
-0.079889476 0.026873341 0.49300003 4279125531
-0.078129411 0.026818831 0.49200001 4278994459
-0.076531388 0.026818831 0.49200001 4279191840
-0.07493338 0.026818831 0.49200001 4278929183
-0.073335357 0.026818831 0.49200001 4279192353
-0.071737342 0.026818831 0.49200001 4279258146
-0.070139319 0.026818831 0.49200001 4278468632
-0.068402 0.02676432 0.49100003 4284387699
-0.066807225 0.02676432 0.49100003 4279979309
-0.13872443 0.030496707 0.528 4283195723
-0.13649051 0.030381192 0.52600002 4280500518
-0.1342696 0.030265674 0.52400005 4279584029
-0.13206165 0.030150155 0.52200001 4279453726
-0.1298667 0.030034639 0.52000004 4279585312
-0.12793125 0.02997688 0.51900005 4279387933
-0.12575904 0.029861361 0.51700002 4279453726
-0.12383982 0.029803602 0.51600003 4279716387
-0.1219271 0.029745845 0.51500005 4280108326
-0.12002087 0.029688083 0.514 4280108326
-0.11789089 0.029572567 0.51200002 4278854418
-0.11600091 0.029514808 0.51100004 4279710240
-0.11389366 0.029399289 0.509 4279315482
-0.11201991 0.02934153 0.50800002 4278524683
-0.11015267 0.029283771 0.50700003 4279840541
-0.10829192 0.029226014 0.50600004 4279313686
-0.10643765 0.029168252 0.505 4280300840
-0.10458989 0.029110495 0.50400001 4279709725
-0.10274863 0.029052736 0.50300002 4279385371
-0.10091387 0.028994977 0.50200003 4278398476
-0.099085592 0.028937221 0.50100005 4278990359
-0.097263813 0.028879458 0.5 4279386402
-0.095448531 0.028821699 0.49900001 4279452965
-0.093639746 0.028763942 0.49800003 4279452965
-0.091837466 0.028706182 0.49700001 4280044330
-0.090041667 0.028648423 0.49600002 4279583779
-0.088252373 0.028590666 0.49500003 4280241196
-0.086644612 0.028590666 0.49500003 4279517473
-0.084865063 0.028532906 0.49400002 4279121945
-0.083092004 0.028475147 0.49300003 4278200586
-0.081490733 0.028475147 0.49300003 4278199817
-0.079727426 0.028417388 0.49200001 4278198789
-0.078129411 0.028417388 0.49200001 4278199817
-0.076531388 0.028417388 0.49200001 4278464017
-0.07493338 0.028417388 0.49200001 4279125535
-0.073335357 0.028417388 0.49200001 4279322914
-0.071737342 0.028417388 0.49200001 4278993949
-0.069996759 0.028359629 0.49100003 4279257121
-0.068402 0.028359629 0.49100003 4279322914
-0.066807225 0.028359629 0.49100003 4279125535
-0.065212458 0.028359629 0.49100003 4279450912
-0.13924991 0.032334249 0.53000003 4280695335
-0.13675 0.032151226 0.52700001 4280829737
-0.13452582 0.032029212 0.52500004 4279584029
-0.13231464 0.031907193 0.523 4279387933
-0.13011645 0.031785179 0.52100003 4279519519
-0.12793125 0.031663164 0.51900005 4279453726
-0.12600228 0.031602152 0.51800001 4279124761
-0.12407982 0.031541146 0.51700002 4278201350
-0.1219271 0.031419132 0.51500005 4279055638
-0.12002087 0.031358119 0.514 4279516703
-0.11789089 0.031236107 0.51200002 4278788625
-0.11600091 0.031175099 0.51100004 4278525453
-0.11411743 0.031114092 0.51000005 4279249176
-0.11201991 0.030992074 0.50800002 4278853135
-0.11015267 0.030931067 0.50700003 4278523916
-0.10829192 0.03087006 0.50600004 4280696622
-0.10643765 0.030809049 0.505 4279117336
-0.10458989 0.030748041 0.50400001 4279709727
-0.10274863 0.030687034 0.50300002 4279582498
-0.10091387 0.030626027 0.50200003 4278527248
-0.099085592 0.03056502 0.50100005 4278196230
-0.097263813 0.030504009 0.5 4278199309
-0.095448531 0.030443002 0.49900001 4279452195
-0.093639746 0.030381994 0.49800003 4279189023
-0.091837466 0.030320985 0.49700001 4279320094
-0.090041667 0.030259978 0.49600002 4279451680
-0.088252373 0.030198971 0.49500003 4279255068
-0.086469568 0.030137962 0.49400002 4279255068
-0.084865063 0.030137962 0.49400002 4279255836
-0.083092004 0.030076955 0.49300003 4279190043
-0.081490733 0.030076955 0.49300003 4279320859
-0.079727426 0.030015945 0.49200001 4279452445
-0.078129411 0.030015945 0.49200001 4279452445
-0.076531388 0.030015945 0.49200001 4279517727
-0.07493338 0.030015945 0.49200001 4279715365
-0.073186301 0.029954938 0.49100003 4279256351
-0.071591534 0.029954938 0.49100003 4279256351
-0.069996759 0.029954938 0.49100003 4279256351
-0.068402 0.029954938 0.49100003 4279124765
-0.066807225 0.029954938 0.49100003 4278993179
-0.065212458 0.029954938 0.49100003 4279123230
-0.13726899 0.033992022 0.52900004 4280040991
-0.1350383 0.033863503 0.52700001 4279649822
-0.13282062 0.033734992 0.52500004 4279650592
-0.13061593 0.033606477 0.523 4279453726
-0.12842424 0.033477962 0.52100003 4279387933
-0.12624554 0.033349451 0.51900005 4279256347
-0.12431981 0.033285189 0.51800001 4279715617
-0.12216385 0.033156678 0.51600003 4280042535
-0.12025438 0.033092421 0.51500005 4279910949
-0.11812114 0.032963905 0.51300001 4278918926
-0.11600091 0.03283539 0.51100004 4279115023
-0.11411743 0.032771137 0.51000005 4279114769
-0.11201991 0.032642618 0.50800002 4278983183
-0.11015267 0.032578364 0.50700003 4278983183
-0.10829192 0.032514106 0.50600004 4279049490
-0.10643765 0.032449845 0.505 4278656015
-0.10458989 0.032385591 0.50400001 4279710240
-0.10274863 0.032321334 0.50300002 4279581730
-0.10111488 0.032321334 0.50300002 4278657550
-0.099283367 0.032257076 0.50200003 4278459660
-0.097458348 0.032192823 0.50100005 4278264587
-0.095448531 0.032064304 0.49900001 4279713570
-0.093639746 0.03200005 0.49800003 4278858261
-0.091837466 0.031935789 0.49700001 4279649059
-0.090041667 0.031871535 0.49600002 4278398992
-0.088252373 0.031807277 0.49500003 4278924568
-0.086469568 0.03174302 0.49400002 4278924568
-0.084865063 0.03174302 0.49400002 4279516705
-0.083092004 0.031678762 0.49300003 4278200586
-0.081490733 0.031678762 0.49300003 4279582496
-0.079727426 0.031614505 0.49200001 4278398222
-0.078129411 0.031614505 0.49200001 4279517725
-0.076531388 0.031614505 0.49200001 4279715104
-0.07493338 0.031614505 0.49200001 4279452447
-0.073186301 0.031550247 0.49100003 4279453217
-0.071591534 0.031550247 0.49100003 4279387935
-0.069996759 0.031550247 0.49100003 4279124763
-0.068402 0.031550247 0.49100003 4279190556
-0.066807225 0.031550247 0.49100003 4279058970
-0.065212458 0.031550247 0.49100003 4279123228
-0.13778795 0.035845805 0.53100002 4280303393
-0.13555078 0.035710797 0.52900004 4279321627
-0.1333266 0.035575781 0.52700001 4279453213
-0.13111542 0.035440769 0.52500004 4279453213
-0.12891723 0.035305757 0.523 4279256349
-0.12673202 0.035170745 0.52100003 4279190556
-0.12455983 0.035035733 0.51900005 4278202378
-0.12263735 0.034968223 0.51800001 4278990359
-0.12048788 0.034833215 0.51600003 4279780129
-0.11835139 0.034698199 0.514 4279977508
-0.11622792 0.034563188 0.51200002 4280699950
-0.11411743 0.034428179 0.51000005 4280368680
-0.11224042 0.03436067 0.509 4279512857
-0.11036994 0.034293164 0.50800002 4278919439
-0.10850593 0.034225658 0.50700003 4278656267
-0.10643765 0.034090642 0.505 4278590476
-0.10479741 0.034090642 0.505 4280500268
-0.1029529 0.034023136 0.50400001 4279186459
-0.10111488 0.033955634 0.50300002 4280237864
-0.099283367 0.033888128 0.50200003 4280303657
-0.097458348 0.033820622 0.50100005 4279646494
-0.09563981 0.033753112 0.5 4279516189
-0.093639746 0.0336181 0.49800003 4279385887
-0.091837466 0.033550594 0.49700001 4278200843
-0.090041667 0.033483088 0.49600002 4279452193
-0.088252373 0.033415582 0.49500003 4278398224
-0.086469568 0.033348076 0.49400002 4278266124
-0.084865063 0.033348076 0.49400002 4278989847
-0.083092004 0.03328057 0.49300003 4279581984
-0.081490733 0.03328057 0.49300003 4280042535
-0.079727426 0.033213064 0.49200001 4279055640
-0.078129411 0.033213064 0.49200001 4279648543
-0.076531388 0.033213064 0.49200001 4278924820
-0.07493338 0.033213064 0.49200001 4279452447
-0.073335357 0.033213064 0.49200001 4279190556
-0.071591534 0.033145558 0.49100003 4279256347
-0.069996759 0.033145558 0.49100003 4278928152
-0.068402 0.033145558 0.49100003 4279257119
-0.066807225 0.033145558 0.49100003 4279190043
-0.065212458 0.033145558 0.49100003 4279386654
-0.13856642 0.037783347 0.53400004 4281485355
-0.1363195 0.037641834 0.53200001 4279320346
-0.13408558 0.037500326 0.53000003 4279386652
-0.13186465 0.037358813 0.528 4279255836
-0.12965672 0.037217304 0.52600002 4279124250
-0.12746178 0.037075795 0.52400005 4279519006
-0.12527981 0.036934283 0.52200001 4279519006
-0.12311087 0.036792774 0.52000004 4279255834
-0.12095489 0.036651257 0.51800001 4279255834
-0.11881191 0.036509749 0.51600003 4279321629
-0.11645492 0.036297482 0.51300001 4279190043
-0.11434118 0.036155973 0.51100004 4279320859
-0.11246094 0.036085218 0.51000005 4279386652
-0.11058719 0.03601446 0.509 4279517725
-0.10850593 0.035872951 0.50700003 4279648541
-0.10664843 0.035802197 0.50600004 4279516957
-0.10479741 0.035731439 0.505 4279582750
-0.1029529 0.035660684 0.50400001 4279648289
-0.10111488 0.03558993 0.50300002 4279779875
-0.099283367 0.035519175 0.50200003 4279646494
-0.097458348 0.035448421 0.50100005 4278725392
-0.09563981 0.035377663 0.5 4278197763
-0.093827777 0.035306908 0.49900001 4278195456
-0.091837466 0.035165396 0.49700001 4278198022
-0.090041667 0.035094641 0.49600002 4278199820
-0.088252373 0.035023887 0.49500003 4280042533
-0.086469568 0.034953132 0.49400002 4279582496
-0.084693268 0.034882378 0.49300003 4279912485
-0.083092004 0.034882378 0.49300003 4279912485
-0.081490733 0.034882378 0.49300003 4279517727
-0.079727426 0.03481162 0.49200001 4279517473
-0.078129411 0.03481162 0.49200001 4279517727
-0.076531388 0.03481162 0.49200001 4278267660
-0.07493338 0.03481162 0.49200001 4279386652
-0.073335357 0.03481162 0.49200001 4279190043
-0.071737342 0.03481162 0.49200001 4279387935
-0.069996759 0.034740865 0.49100003 4279058970
-0.068402 0.034740865 0.49100003 4278993179
-0.066807225 0.034740865 0.49100003 4279058972
-0.065212458 0.034740865 0.49100003 4279189275
-0.13509755 0.039518367 0.53400004 4280236569
-0.13286363 0.039370354 0.53200001 4279778069
-0.1306427 0.039222348 0.53000003 4279581973
-0.12843475 0.039074335 0.528 4279517207
-0.12623982 0.038926329 0.52600002 4279386137
-0.12405787 0.038778324 0.52400005 4279255064
-0.12188891 0.03863031 0.52200001 4279124248
-0.11927242 0.038334295 0.51800001 4278993177
-0.11690895 0.038112283 0.51500005 4278795798
-0.1147887 0.037964273 0.51300001 4279058455
-0.11268145 0.037816264 0.51100004 4279124248
-0.11080447 0.037742261 0.51000005 4279190554
-0.10871994 0.037594251 0.50800002 4279255834
-0.10685919 0.037520245 0.50700003 4279255834
-0.10479741 0.037372235 0.505 4279190041
-0.1029529 0.037298232 0.50400001 4279058968
-0.10111488 0.037224229 0.50300002 4279058968
-0.099283367 0.037150223 0.50200003 4279190043
-0.097458348 0.03707622 0.50100005 4279124250
-0.09563981 0.037002213 0.5 4279320861
-0.093827777 0.03692821 0.49900001 4279452193
-0.091837466 0.036780201 0.49700001 4279583779
-0.090041667 0.036706198 0.49600002 4279583779
-0.088252373 0.036632195 0.49500003 4280175403
-0.086469568 0.036558188 0.49400002 4280240426
-0.084693268 0.036484186 0.49300003 4279121431
-0.083092004 0.036484186 0.49300003 4278397708
-0.081490733 0.036484186 0.49300003 4278197248
-0.079727426 0.036410179 0.49200001 4278197504
-0.078129411 0.036410179 0.49200001 4278199303
-0.076531388 0.036410179 0.49200001 4278198533
-0.07493338 0.036410179 0.49200001 4279255838
-0.073335357 0.036410179 0.49200001 4279453730
-0.071737342 0.036410179 0.49200001 4279387937
-0.070139319 0.036410179 0.49200001 4279256351
-0.068541311 0.036410179 0.49200001 4279256351
-0.066943288 0.036410179 0.49200001 4278993179
-0.065212458 0.036336176 0.49100003 4279056152
-0.11996319 0.040249091 0.52100003 4280305444
-0.11736295 0.039940074 0.51700002 4280042272
-0.11523622 0.039785571 0.51500005 4279516955
-0.11290196 0.03955381 0.51200002 4279385369
-0.11102173 0.039476555 0.51100004 4279255066
-0.10914798 0.039399303 0.51000005 4279189273
-0.10685919 0.039167542 0.50700003 4279190556
-0.10500494 0.039090287 0.50600004 4278993177
-0.10315717 0.039013032 0.505 4278269454
-0.10131591 0.038935781 0.50400001 4279190556
-0.099481143 0.038858525 0.50300002 4279124763
-0.097458348 0.038704023 0.50100005 4279387935
-0.09563981 0.038626764 0.5 4279387935
-0.093827777 0.038549513 0.49900001 4279387937
-0.091837466 0.038395002 0.49700001 4279387937
-0.090041667 0.038317751 0.49600002 4279190304
-0.088252373 0.0382405 0.49500003 4279387683
-0.086469568 0.038163245 0.49400002 4279387937
-0.084693268 0.038085993 0.49300003 4279453217
-0.083092004 0.038085993 0.49300003 4279321631
-0.081490733 0.038085993 0.49300003 4279649826
-0.079727426 0.038008738 0.49200001 4279649826
-0.078129411 0.038008738 0.49200001 4279715619
-0.076531388 0.038008738 0.49200001 4279714852
-0.07493338 0.038008738 0.49200001 4279649059
-0.073335357 0.038008738 0.49200001 4279386654
-0.071737342 0.038008738 0.49200001 4279387937
-0.070139319 0.038008738 0.49200001 4279256351
-0.068541311 0.038008738 0.49200001 4279190558
-0.066943288 0.038008738 0.49200001 4279058459
-0.065345272 0.038008738 0.49200001 4278396427
-0.11545998 0.04153936 0.51600003 4279181066
-0.11334298 0.041378353 0.514 4279181578
-0.11145625 0.041297849 0.51300001 4278919689
-0.109362 0.041136846 0.51100004 4279446803
-0.10706995 0.040895335 0.50800002 4279448600
-0.10500494 0.040734332 0.50600004 4279383320
-0.10315717 0.040653829 0.505 4279252758
-0.10131591 0.040573325 0.50400001 4279845922
-0.099481143 0.040492825 0.50300002 4279977254
-0.097458348 0.040331822 0.50100005 4279780645
-0.09563981 0.040251315 0.5 4279977508
-0.093827777 0.040170815 0.49900001 4279780129
-0.091837466 0.040009808 0.49700001 4279714854
-0.090041667 0.039929304 0.49600002 4279715367
-0.088252373 0.039848804 0.49500003 4280044332
-0.086469568 0.039768301 0.49400002 4279583781
-0.084693268 0.039687797 0.49300003 4279649826
-0.083092004 0.039687797 0.49300003 4279189275
-0.081490733 0.039687797 0.49300003 4279649826
-0.079889476 0.039687797 0.49300003 4279649826
-0.078129411 0.039607294 0.49200001 4279584033
-0.076531388 0.039607294 0.49200001 4279649826
-0.07493338 0.039607294 0.49200001 4279189275
-0.073335357 0.039607294 0.49200001 4279715619
-0.071737342 0.039607294 0.49200001 4279519010
-0.070139319 0.039607294 0.49200001 4279190556
-0.068541311 0.039607294 0.49200001 4279124765
-0.066943288 0.039607294 0.49200001 4279320607
-0.065345272 0.039607294 0.49200001 4281421370
-0.09563981 0.041875865 0.5 4285761909
-0.093827777 0.041792113 0.49900001 4284841577
-0.091837466 0.041624609 0.49700001 4283658332
-0.090041667 0.041540861 0.49600002 4282409035
-0.088252373 0.041457109 0.49500003 4282080583
-0.086469568 0.041373357 0.49400002 4281159481
-0.084693268 0.041289605 0.49300003 4280501036
-0.083092004 0.041289605 0.49300003 4280172584
-0.081490733 0.041289605 0.49300003 4279974692
-0.079889476 0.041289605 0.49300003 4279974692
-0.078288212 0.041289605 0.49300003 4279777826
-0.076686941 0.041289605 0.49300003 4279581219
-0.07493338 0.041205853 0.49200001 4279647525
-0.073335357 0.041205853 0.49200001 4279581732
-0.071737342 0.041205853 0.49200001 4279582248
-0.070139319 0.041205853 0.49200001 4279319846
-0.068541311 0.041205853 0.49200001 4279318562
-0.066943288 0.041205853 0.49200001 4282409037
-0.084693268 0.042891413 0.49300003 4285828474
-0.083092004 0.042891413 0.49300003 4285828987
-0.081490733 0.042891413 0.49300003 4285894782
-0.079889476 0.042891413 0.49300003 4285828989
-0.078288212 0.042891413 0.49300003 4286157954
-0.076686941 0.042891413 0.49300003 4286092161
-0.075085685 0.042891413 0.49300003 4285894782
-0.073484413 0.042891413 0.49300003 4286092159
-0.071737342 0.042804409 0.49200001 4286157439
-0.070139319 0.042804409 0.49200001 4285828474
-0.068541311 0.042804409 0.49200001 4284973165
-0.09794753 0.033014033 0.50310773 4294967295
-0.09794753 0.033014033 0.50310773 4294901760
-0.09794753 0.033014033 0.50360775 4294901760
-0.09794753 0.033014033 0.50410771 4294901760
-0.09794753 0.033014033 0.50460774 4294901760
-0.09794753 0.033014033 0.5051077 4294901760
-0.09794753 0.033014033 0.50560772 4294901760
-0.09794753 0.033014033 0.50610775 4294901760
-0.09794753 0.033014033 0.50660771 4294901760
-0.09794753 0.033014033 0.50710773 4294901760
-0.09794753 0.033014033 0.5076077 4294901760
-0.09794753 0.033014033 0.50810772 4294901760
-0.09794753 0.033014033 0.50860775 4294901760
-0.09794753 0.033014033 0.50910771 4294901760
-0.09794753 0.033014033 0.50960773 4294901760
-0.09794753 0.033014033 0.51010776 4294901760
-0.09794753 0.033014033 0.51060772 4294901760
-0.09794753 0.033014033 0.51110774 4294901760
-0.09794753 0.033014033 0.51160771 4294901760
-0.09794753 0.033014033 0.51210773 4294901760
-0.09794753 0.033014033 0.51260775 4294901760
-0.09794753 0.033014033 0.51310772 4294901760
-0.09794753 0.033014033 0.51360774 4294901760
-0.09794753 0.033014033 0.5141077 4294901760
-0.09794753 0.033014033 0.51460773 4294901760
-0.09794753 0.033014033 0.51510775 4294901760
-0.09794753 0.033014033 0.51560771 4294901760
-0.09794753 0.033014033 0.51610774 4294901760
-0.09794753 0.033014033 0.5166077 4294901760
-0.09794753 0.033014033 0.51710773 4294901760
-0.09794753 0.033014033 0.51760775 4294901760
-0.09794753 0.033014033 0.51810771 4294901760
-0.09794753 0.033014033 0.51860774 4294901760
-0.09794753 0.033014033 0.5191077 4294901760
-0.09794753 0.033014033 0.51960772 4294901760
-0.09794753 0.033014033 0.52010775 4294901760
-0.09794753 0.033014033 0.52060771 4294901760
-0.09794753 0.033014033 0.52110773 4294901760
-0.09794753 0.033014033 0.52160776 4294901760
-0.09794753 0.033014033 0.52210772 4294901760
-0.09794753 0.033014033 0.52260774 4294901760
-0.09794753 0.033014033 0.52310771 4294901760
-0.09794753 0.033014033 0.52360773 4294901760
-0.09794753 0.033014033 0.52410775 4294901760
-0.09794753 0.033014033 0.52460772 4294901760
-0.09794753 0.033014033 0.52510774 4294901760
-0.09794753 0.033014033 0.52560771 4294901760
-0.09794753 0.033014033 0.52610773 4294901760
-0.09794753 0.033014033 0.52660775 4294901760
-0.09794753 0.033014033 0.52710772 4294901760
-0.09794753 0.033014033 0.52760774 4294901760
-0.09794753 0.033014033 0.52810776 4294901760
-0.09794753 0.033014033 0.52860773 4294901760
-0.09794753 0.033014033 0.52910775 4294901760
-0.09794753 0.033014033 0.52960771 4294901760
-0.09794753 0.033014033 0.53010774 4294901760
-0.09794753 0.033014033 0.53060776 4294901760
-0.09794753 0.033014033 0.53110772 4294901760
-0.09794753 0.033014033 0.53160775 4294901760
-0.09794753 0.033014033 0.53210771 4294901760
-0.09794753 0.033014033 0.53260773 4294901760
-0.09794753 0.033014033 0.53310776 4294901760
-0.09794753 0.033014033 0.53360772 4294901760
-0.09794753 0.033014033 0.53410774 4294901760
-0.09794753 0.033014033 0.53460771 4294901760
-0.09794753 0.033014033 0.53510773 4294901760
-0.09794753 0.033014033 0.53560776 4294901760
-0.09794753 0.033014033 0.53610772 4294901760
-0.09794753 0.033014033 0.53660774 4294901760
-0.09794753 0.033014033 0.53710771 4294901760
-0.09794753 0.033014033 0.53760773 4294901760
-0.09794753 0.033014033 0.53810775 4294901760
-0.09794753 0.033014033 0.53860772 4294901760
-0.09794753 0.033014033 0.53910774 4294901760
-0.09794753 0.033014033 0.53960776 4294901760
-0.09794753 0.033014033 0.54010773 4294901760
-0.09794753 0.033014033 0.54060775 4294901760
-0.09794753 0.033014033 0.54110771 4294901760
-0.09794753 0.033014033 0.54160774 4294901760
-0.09794753 0.033014033 0.54210776 4294901760
-0.09794753 0.033014033 0.54260772 4294901760
-0.09794753 0.033014033 0.54310775 4294901760
-0.09794753 0.033014033 0.54360771 4294901760
-0.09794753 0.033014033 0.54410774 4294901760
-0.09794753 0.033014033 0.54460776 4294901760
-0.09794753 0.033014033 0.54510772 4294901760
-0.09794753 0.033014033 0.54560775 4294901760
-0.09794753 0.033014033 0.54610777 4294901760
-0.09794753 0.033014033 0.54660773 4294901760
-0.09794753 0.033014033 0.54710776 4294901760
-0.09794753 0.033014033 0.54760772 4294901760
-0.09794753 0.033014033 0.54810774 4294901760
-0.09794753 0.033014033 0.54860777 4294901760
-0.09794753 0.033014033 0.54910773 4294901760
-0.09794753 0.033014033 0.54960775 4294901760
-0.09794753 0.033014033 0.55010772 4294901760
-0.09794753 0.033014033 0.55060774 4294901760
-0.09794753 0.033014033 0.55110776 4294901760
-0.09794753 0.033014033 0.55160773 4294901760
-0.09794753 0.033014033 0.55210775 4294901760
-0.09794753 0.033014033 0.55260772 4294901760
-0.09794753 0.033014033 0.55310774 4294901760
-0.09794753 0.033014033 0.50310773 4278255360
-0.097689003 0.033000641 0.50353551 4278255360
-0.097430468 0.032987252 0.50396323 4278255360
-0.09717194 0.032973859 0.50439101 4278255360
-0.096913412 0.032960467 0.5048188 4278255360
-0.096654877 0.032947075 0.50524658 4278255360
-0.096396349 0.032933686 0.5056743 4278255360
-0.096137822 0.032920294 0.50610209 4278255360
-0.095879294 0.032906901 0.50652987 4278255360
-0.095620759 0.032893512 0.50695759 4278255360
-0.095362231 0.03288012 0.50738537 4278255360
-0.095103703 0.032866728 0.50781316 4278255360
-0.094845168 0.032853335 0.50824094 4278255360
-0.094586641 0.032839946 0.50866866 4278255360
-0.094328113 0.032826554 0.50909644 4278255360
-0.094069578 0.032813162 0.50952423 4278255360
-0.09381105 0.032799769 0.50995195 4278255360
-0.093552522 0.03278638 0.51037973 4278255360
-0.093293995 0.032772988 0.51080751 4278255360
-0.09303546 0.032759596 0.51123524 4278255360
-0.092776932 0.032746207 0.51166302 4278255360
-0.092518404 0.032732815 0.5120908 4278255360
-0.092259869 0.032719422 0.51251858 4278255360
-0.092001341 0.03270603 0.51294631 4278255360
-0.091742814 0.032692641 0.51337409 4278255360
-0.091484278 0.032679249 0.51380187 4278255360
-0.091225751 0.032665856 0.5142296 4278255360
-0.090967223 0.032652467 0.51465738 4278255360
-0.090708695 0.032639075 0.51508516 4278255360
-0.09045016 0.032625683 0.51551294 4278255360
-0.090191633 0.03261229 0.51594067 4278255360
-0.089933105 0.032598902 0.51636845 4278255360
-0.08967457 0.032585509 0.51679623 4278255360
-0.089416042 0.032572117 0.51722395 4278255360
-0.089157514 0.032558728 0.51765174 4278255360
-0.088898987 0.032545336 0.51807952 4278255360
-0.088640451 0.032531943 0.5185073 4278255360
-0.088381924 0.032518551 0.51893502 4278255360
-0.088123396 0.032505162 0.51936281 4278255360
-0.087864861 0.03249177 0.51979059 4278255360
-0.087606333 0.032478377 0.52021831 4278255360
-0.087347806 0.032464985 0.5206461 4278255360
-0.08708927 0.032451596 0.52107388 4278255360
-0.086830743 0.032438204 0.52150166 4278255360
-0.086572215 0.032424811 0.52192938 4278255360
-0.08631368 0.032411423 0.52235717 4278255360
-0.086055152 0.03239803 0.52278495 4278255360
-0.085796624 0.032384638 0.52321267 4278255360
-0.085538097 0.032371245 0.52364045 4278255360
-0.085279562 0.032357857 0.52406824 4278255360
-0.085021034 0.032344464 0.52449596 4278255360
-0.084762506 0.032331072 0.52492374 4278255360
-0.084503978 0.032317683 0.52535152 4278255360
-0.084245443 0.032304291 0.52577931 4278255360
-0.083986916 0.032290898 0.52620703 4278255360
-0.083728388 0.032277506 0.52663481 4278255360
-0.083469853 0.032264117 0.52706259 4278255360
-0.083211325 0.032250725 0.52749032 4278255360
-0.082952797 0.032237332 0.5279181 4278255360
-0.082694262 0.032223944 0.52834588 4278255360
-0.082435735 0.032210551 0.52877367 4278255360
-0.082177207 0.032197159 0.52920139 4278255360
-0.081918672 0.032183766 0.52962917 4278255360
-0.081660144 0.032170378 0.53005695 4278255360
-0.081401616 0.032156985 0.53048468 4278255360
-0.081143081 0.032143593 0.53091246 4278255360
-0.080884553 0.0321302 0.53134024 4278255360
-0.080626026 0.032116812 0.53176802 4278255360
-0.080367491 0.032103419 0.53219575 4278255360
-0.080108963 0.032090027 0.53262353 4278255360
-0.079850435 0.032076638 0.53305131 4278255360
-0.079591908 0.032063246 0.53347903 4278255360
-0.079333372 0.032049853 0.53390682 4278255360
-0.079074845 0.032036461 0.5343346 4278255360
-0.078816317 0.032023072 0.53476238 4278255360
-0.078557789 0.03200968 0.53519011 4278255360
-0.078299254 0.031996287 0.53561789 4278255360
-0.078040726 0.031982899 0.53604567 4278255360
-0.077782199 0.031969506 0.53647339 4278255360
-0.077523664 0.031956114 0.53690118 4278255360
-0.077265136 0.031942721 0.53732896 4278255360
-0.077006608 0.031929333 0.53775668 4278255360
-0.076748073 0.03191594 0.53818446 4278255360
-0.076489545 0.031902548 0.53861225 4278255360
-0.076231018 0.031889159 0.53904003 4278255360
-0.075972483 0.031875767 0.53946775 4278255360
-0.075713955 0.031862374 0.53989553 4278255360
-0.075455427 0.031848982 0.54032332 4278255360
-0.075196892 0.031835593 0.5407511 4278255360
-0.074938364 0.031822201 0.54117882 4278255360
-0.074679837 0.031808808 0.54160661 4278255360
-0.074421301 0.031795416 0.54203439 4278255360
-0.074162774 0.031782027 0.54246211 4278255360
-0.073904246 0.031768635 0.54288989 4278255360
-0.073645718 0.031755242 0.54331768 4278255360
-0.073387191 0.031741854 0.5437454 4278255360
-0.073128656 0.031728461 0.54417318 4278255360
-0.072870128 0.031715069 0.54460096 4278255360
-0.0726116 0.031701677 0.54502875 4278255360
-0.072353065 0.031688288 0.54545647 4278255360
-0.072094537 0.031674895 0.54588425 4278255360
