# .PCD v0.7 - Point Cloud Data file format
VERSION 0.7
FIELDS x y z rgb
SIZE 4 4 4 4
TYPE F F F U
COUNT 1 1 1 1
WIDTH 955
HEIGHT 1
VIEWPOINT 0 0 0 1 0 0 0
POINTS 955
DATA ascii
-0.012288562 0.038844675 0.54900002 4280570415
-0.010524544 0.038915429 0.55000001 4280241450
-0.0087699182 0.039056942 0.55200005 4280305192
-0.012199028 0.040332414 0.54500002 4279192355
-0.010448002 0.040406417 0.546 4279126558
-0.001621495 0.04144248 0.56 4279980590
0.00019773837 0.041516487 0.56100005 4280045361
-0.015623831 0.041794159 0.54100001 4280239914
-0.013866662 0.041794159 0.54100001 4279190304
-0.012131878 0.041871417 0.54200006 4279191840
-0.010390596 0.041948669 0.54300004 4278928666
-0.0086428178 0.04202592 0.54400003 4279126045
-0.0051935166 0.042721204 0.55300003 4278995744
-0.0016185995 0.043184724 0.55900002 4278930466
0.00019738587 0.043261975 0.56 4278930212
-0.015566073 0.043390919 0.53900003 4279911463
-0.013815399 0.043390919 0.53900003 4279123998
-0.012064727 0.043390919 0.53900003 4278862875
-0.010314054 0.043390919 0.53900003 4278928668
-0.0085792681 0.043471422 0.54000002 4278862875
-0.015508313 0.044974681 0.537 4279779877
-0.013764136 0.044974681 0.537 4279124765
-0.011997576 0.044890929 0.53600001 4278797084
-0.010237511 0.044807177 0.53500003 4278797084
-0.00849983 0.044807177 0.53500003 4278928668
-0.015479434 0.046632446 0.53600001 4279911463
-0.013712874 0.046545446 0.53500003 4279124765
-0.011930427 0.046371449 0.53300005 4278993949
-0.010180105 0.046284445 0.53200001 4278862877
-0.0084362803 0.046197444 0.53100002 4278797082
-0.0066989521 0.046110444 0.53000003 4278665496
-0.0049399454 0.045762438 0.52600002 4278797082
-0.0032192091 0.045588441 0.52400005 4278664984
-0.0015027786 0.045153435 0.51900005 4278398992
0.00018222946 0.044979431 0.51700002 4279058205
0.0018578459 0.04489243 0.51600003 4278862363
0.0035269663 0.044805434 0.51500005 4278928156
0.0051996871 0.044805434 0.51500005 4278927382
0.0068590636 0.044718426 0.514 4278927382
-0.015450555 0.048283722 0.53500003 4279517221
-0.013661611 0.048103224 0.53300005 4279190304
-0.011885659 0.047922719 0.53100002 4278928670
-0.010141834 0.04783247 0.53000003 4278928670
-0.0083886171 0.047651969 0.528 4278928670
-0.0066610333 0.04756172 0.52700001 4278862877
-0.0049117706 0.047200721 0.523 4278665498
-0.003206922 0.047110472 0.52200001 4278401558
-0.0014998829 0.046749469 0.51800001 4278196480
0.00018222946 0.04665922 0.51700002 4279451680
0.0018578459 0.046568971 0.51600003 4278196736
0.0035269663 0.046478722 0.51500005 4278262792
0.0051895902 0.04638847 0.514 4278196228
0.0068457192 0.046298221 0.51300001 4278197256
0.0084621664 0.046027474 0.51000005 4278197510
0.010098807 0.045937221 0.509 4278264587
0.011728952 0.045846973 0.50800002 4278858775
0.0133526 0.045756724 0.50700003 4278924566
0.014969753 0.045666475 0.50600004 4278926101
0.016580408 0.045576219 0.505 4278992664
0.018184567 0.04548597 0.50400001 4278927384
0.01982156 0.04548597 0.50400001 4278664982
-0.015421676 0.049928494 0.53400004 4279452195
-0.013635978 0.049741492 0.53200001 4278927904
-0.011863275 0.049554497 0.53000003 4278928416
-0.010103562 0.049367495 0.528 4278862623
-0.0083568422 0.049180496 0.52600002 4278862623
-0.0066231154 0.048993502 0.52400005 4278862877
-0.0049023791 0.0488065 0.52200001 4278862877
-0.003194635 0.048619505 0.52000004 4279388707
-0.0014969874 0.048339006 0.51700002 4278199046
0.000181877 0.048245508 0.51600003 4279188508
0.0018542454 0.048152011 0.51500005 4278196230
0.0035201176 0.048058506 0.514 4278655502
0.0051794942 0.047965009 0.51300001 4278720525
0.0068323747 0.047871511 0.51200002 4278720525
0.0084621664 0.047684517 0.51000005 4278720525
0.010098807 0.047591012 0.509 4278720525
0.011728952 0.047497515 0.50800002 4278786318
0.0133526 0.047404017 0.50700003 4278523916
0.014969753 0.04731052 0.50600004 4278195200
0.016580408 0.047217015 0.505 4278529294
0.018184567 0.047123518 0.50400001 4278198275
0.01982156 0.047123518 0.50400001 4278198532
0.021373402 0.046936523 0.50200003 4278200329
0.022958076 0.046843026 0.50100005 4278530578
0.02453625 0.046749521 0.5 4278991896
0.02610793 0.046656024 0.49900001 4279256349
0.027673116 0.046562526 0.49800003 4278533396
0.029231803 0.046469025 0.49700001 4278599189
0.033388969 0.045534037 0.48700002 4278665496
0.034898937 0.045440536 0.48600003 4278337044
0.03617724 0.045066539 0.48200002 4279126562
0.037742779 0.045066539 0.48200002 4278863390
0.039308313 0.045066539 0.48200002 4278600736
0.040873852 0.045066539 0.48200002 4279192103
0.042527433 0.045160037 0.48300001 4279520041
0.049812984 0.046095032 0.49300003 4279584812
0.051414248 0.046095032 0.49300003 4279124261
-0.015392796 0.051566765 0.53300005 4279255586
-0.013610347 0.051373266 0.53100002 4278862625
-0.011840892 0.05117977 0.52900004 4278796830
-0.010084427 0.050986271 0.52700001 4278731037
-0.0083250673 0.05069603 0.52400005 4278862623
-0.006597836 0.050502531 0.52200001 4278862877
-0.0048835962 0.05030904 0.52000004 4278862875
-0.0031884916 0.05021229 0.51900005 4279125533
-0.0014969874 0.050018791 0.51700002 4278266636
0.000181877 0.049922045 0.51600003 4278991642
0.0018506448 0.049728546 0.514 4278657037
0.0035132691 0.049631801 0.51300001 4279577371
0.0051693977 0.049535051 0.51200002 4278656269
0.0068190307 0.049438305 0.51100004 4279708957
0.0084621664 0.049341559 0.51000005 4279182100
0.010098807 0.049244806 0.509 4280103200
0.011728952 0.049148057 0.50800002 4279511065
0.0133526 0.049051311 0.50700003 4279050514
0.014969753 0.048954565 0.50600004 4278195203
0.016580408 0.048857812 0.505 4279187224
0.018184567 0.048761066 0.50400001 4278991129
0.01982156 0.048761066 0.50400001 4278859543
0.021373402 0.048567571 0.50200003 4278991131
0.022958076 0.048470825 0.50100005 4279450912
0.02453625 0.048374072 0.5 4279318812
0.02610793 0.048277326 0.49900001 4278792468
0.027673116 0.048180576 0.49800003 4278198789
0.029172987 0.047987081 0.49600002 4278195456
0.030411609 0.047406591 0.49000001 4278197248
0.031937815 0.047309846 0.48900002 4278200331
0.033526093 0.047309846 0.48900002 4278793752
0.035042554 0.047213096 0.48800004 4279189021
0.036477465 0.047019601 0.48600003 4279190558
0.037977692 0.046922851 0.48500001 4278993179
0.039552972 0.046922851 0.48500001 4278796570
0.041213054 0.047019601 0.48600003 4278796570
0.042791583 0.047019601 0.48600003 4278665498
0.044461407 0.047116347 0.48700002 4278928670
0.046421364 0.047503341 0.49100003 4278994211
0.048113924 0.047600087 0.49200001 4279191590
0.049812984 0.047696836 0.49300003 4279126056
0.051518533 0.047793586 0.49400002 4280046899
0.053230584 0.047890335 0.49500003 4279125281
0.054838348 0.047890335 0.49500003 4278860574
-0.015392796 0.053298537 0.53300005 4278466581
-0.013584715 0.052998543 0.53000003 4278994209
-0.011818508 0.052798543 0.528 4278796830
-0.010065292 0.052598555 0.52600002 4278731291
-0.0083091799 0.052298561 0.523 4278928670
-0.0065851966 0.052098569 0.52100003 4278731291
-0.0048835962 0.051998571 0.52000004 4278665496
-0.0031823479 0.051798575 0.51800001 4278202121
-0.0014940919 0.051598582 0.51600003 4278331663
0.00018152452 0.051498584 0.51500005 4278991390
0.0018506448 0.051398583 0.514 4278525453
0.0035132691 0.051298589 0.51300001 4278657039
0.0051693977 0.051198591 0.51200002 4279906334
0.0068190307 0.051098596 0.51100004 4280235299
0.0084621664 0.050998598 0.51000005 4278393097
0.010098807 0.050898597 0.509 4278393095
0.011728952 0.050798602 0.50800002 4279118099
0.0133526 0.050698604 0.50700003 4278854927
0.014969753 0.05059861 0.50600004 4278194176
0.016580408 0.050498608 0.505 4279318810
0.018184567 0.050398611 0.50400001 4278331663
0.01982156 0.050398611 0.50400001 4278198281
0.021415979 0.050298616 0.50300002 4278660882
0.0230039 0.050198622 0.50200003 4278266638
0.024585325 0.050098624 0.50100005 4278200842
0.02610793 0.049898628 0.49900001 4279188762
0.027673116 0.04979863 0.49800003 4278991383
0.029231803 0.049698632 0.49700001 4279517727
0.030597804 0.049298644 0.49300003 4279386141
0.032133754 0.049198646 0.49200001 4279254301
0.033663213 0.049098648 0.49100003 4279846438
0.035186172 0.04899865 0.49000001 4278925338
0.036702633 0.048898656 0.48900002 4278397710
0.038212605 0.048798658 0.48800004 4278197248
0.03987918 0.048898656 0.48900002 4278196736
0.041467454 0.048898656 0.48900002 4278196480
0.043055728 0.048898656 0.48900002 4278200842
0.044735294 0.04899865 0.49000001 4279124765
0.046515908 0.049198646 0.49200001 4278862361
0.048211716 0.049298644 0.49300003 4278993947
0.049914021 0.049398642 0.49400002 4278731289
0.051622823 0.04949864 0.49500003 4278731289
0.053338118 0.049598634 0.49600002 4278862875
0.054949131 0.049598634 0.49600002 4279059742
0.056560136 0.049598634 0.49600002 4278990111
-0.015392796 0.055030309 0.53300005 4279125535
-0.013610347 0.054823812 0.53100002 4278928670
-0.011818508 0.054514069 0.528 4278796830
-0.010065292 0.05430758 0.52600002 4278731291
-0.0083091799 0.053997841 0.523 4278797084
-0.0065851966 0.053791348 0.52100003 4278731291
-0.0048742048 0.053584859 0.51900005 4278731291
-0.0031823479 0.053481609 0.51800001 4279256351
-0.0014940919 0.05327512 0.51600003 4279319072
0.00018152452 0.053171873 0.51500005 4279320355
0.0018506448 0.053068623 0.514 4278656785
0.0035132691 0.052965377 0.51300001 4278721297
0.0051693977 0.05286213 0.51200002 4278786318
0.0068190307 0.052758887 0.51100004 4278654732
0.008445573 0.052552391 0.509 4278720525
0.010078967 0.052449144 0.50800002 4278458123
0.011728952 0.052449144 0.50800002 4278262279
0.0133526 0.052345902 0.50700003 4278920209
0.014969753 0.052242655 0.50600004 4278195201
0.016580408 0.052139405 0.505 4279252506
0.018184567 0.052036159 0.50400001 4278195457
0.01982156 0.052036159 0.50400001 4278721547
0.021415979 0.051932916 0.50300002 4278328585
0.0230039 0.05182967 0.50200003 4279120920
0.024585325 0.051726423 0.50100005 4279582244
0.026160249 0.051623173 0.5 4278726935
0.027728682 0.051519927 0.49900001 4278858775
0.02929062 0.051416684 0.49800003 4278198532
0.030721933 0.051106945 0.49500003 4278729240
0.032264378 0.051003698 0.49400002 4279255584
0.033800334 0.050900452 0.49300003 4278729240
0.035329789 0.050797205 0.49200001 4278860826
0.036852747 0.050693959 0.49100003 4279386400
0.038447518 0.050693959 0.49100003 4279123482
0.040042285 0.050693959 0.49100003 4279386141
0.041637056 0.050693959 0.49100003 4279517727
0.043319874 0.050797205 0.49200001 4279845668
0.044917889 0.050797205 0.49200001 4278464015
0.046704996 0.051003698 0.49400002 4278862363
0.048407301 0.051106945 0.49500003 4278993949
0.050015066 0.051106945 0.49500003 4278796568
0.051727112 0.051210191 0.49600002 4278993177
0.053338118 0.051210191 0.49600002 4278927384
0.054949131 0.051210191 0.49600002 4278795798
0.056560136 0.051210191 0.49600002 4278793498
-0.015421676 0.056868572 0.53400004 4278861080
-0.013635978 0.056655578 0.53200001 4278928154
-0.011840892 0.056336097 0.52900004 4278731289
-0.010065292 0.056016609 0.52600002 4278731291
-0.0083091799 0.055697121 0.523 4278665496
-0.0065851966 0.055484131 0.52100003 4278468117
-0.0048742048 0.055271141 0.51900005 4278468117
-0.0031823479 0.055164643 0.51800001 4278200837
-0.0014940919 0.054951653 0.51600003 4278596373
0.00018152452 0.054845162 0.51500005 4279122976
0.0018506448 0.054738659 0.514 4279451428
0.0035132691 0.054632165 0.51300001 4279779109
0.0051593012 0.054419179 0.51100004 4279250199
0.0068056863 0.054312684 0.51000005 4278789136
0.008445573 0.054206181 0.509 4278393865
0.010078967 0.05409969 0.50800002 4278524681
0.011705863 0.053993195 0.50700003 4278392584
0.0133526 0.053993195 0.50700003 4278721549
0.014969753 0.0538867 0.50600004 4278460171
0.016580408 0.053780202 0.505 4279187226
0.018184567 0.053673707 0.50400001 4278987027
0.01982156 0.053673707 0.50400001 4278393093
0.021415979 0.053567212 0.50300002 4279250199
0.0230039 0.053460717 0.50200003 4278265611
0.024585325 0.053354222 0.50100005 4278199303
0.026160249 0.053247724 0.5 4278990361
0.027728682 0.053141229 0.49900001 4279121947
0.02929062 0.053034734 0.49800003 4278198532
0.030783996 0.052821744 0.49600002 4278199049
0.032329693 0.052715249 0.49500003 4278265870
0.033937454 0.052715249 0.49500003 4278200074
0.035473406 0.052608754 0.49400002 4278199303
0.037002861 0.05250226 0.49300003 4278397710
0.038604129 0.05250226 0.49300003 4278990359
0.040205393 0.05250226 0.49300003 4278199301
0.041806657 0.05250226 0.49300003 4279320861
0.043495968 0.052608754 0.49400002 4279517727
0.04510048 0.052608754 0.49400002 4278266636
0.046799541 0.052715249 0.49500003 4279058972
0.048505094 0.052821744 0.49600002 4279124763
0.050116103 0.052821744 0.49600002 4278993177
0.051831398 0.052928239 0.49700001 4278993177
0.053445652 0.052928239 0.49700001 4278795798
0.055059914 0.052928239 0.49700001 4278532626
0.056674168 0.052928239 0.49700001 4278793752
-0.013661611 0.058493849 0.53300005 4279056404
-0.011885659 0.058274359 0.53100002 4278795798
-0.010084427 0.057835378 0.52700001 4278927384
-0.0083250673 0.057506148 0.52400005 4278664212
-0.006597836 0.057286657 0.52200001 4278664212
-0.0048835962 0.057067171 0.52000004 4278730005
-0.0031823479 0.056847677 0.51800001 4278795798
-0.0014940919 0.05662819 0.51600003 4278993179
0.00018152452 0.056518447 0.51500005 4278992925
0.0018506448 0.0564087 0.514 4278927132
0.0035132691 0.056298956 0.51300001 4278992925
0.0051593012 0.05607947 0.51100004 4278992412
0.0068056863 0.055969726 0.51000005 4278992666
0.008445573 0.055859976 0.509 4279255068
0.010078967 0.055750232 0.50800002 4278991896
0.011705863 0.055640489 0.50700003 4279647777
0.013326264 0.055530746 0.50600004 4279581984
0.014969753 0.055530746 0.50600004 4279055640
0.016580408 0.055420995 0.505 4278397456
0.018184567 0.055311255 0.50400001 4278197762
0.019782232 0.055201512 0.50300002 4278197763
0.021415979 0.055201512 0.50300002 4278330380
0.0230039 0.055091769 0.50200003 4278922517
0.024585325 0.054982025 0.50100005 4279121433
0.026160249 0.054872274 0.5 4279648289
0.027728682 0.054762531 0.49900001 4279649059
0.02929062 0.054652788 0.49800003 4278925336
0.030846059 0.054543041 0.49700001 4279320094
0.032395005 0.054433297 0.49600002 4279188508
0.033937454 0.054323554 0.49500003 4279187740
0.035545215 0.054323554 0.49500003 4278198789
0.037077915 0.054213811 0.49400002 4278331917
0.038682431 0.054213811 0.49400002 4278529296
0.040286943 0.054213811 0.49400002 4278660369
0.041976258 0.054323554 0.49500003 4279911461
0.043584019 0.054323554 0.49500003 4279385887
0.04519178 0.054323554 0.49500003 4279319326
0.046894085 0.054433297 0.49600002 4279190045
0.048602883 0.054543041 0.49700001 4278927384
0.050217144 0.054543041 0.49700001 4278927384
0.051831398 0.054543041 0.49700001 4278993177
0.053445652 0.054543041 0.49700001 4278532626
0.055059914 0.054543041 0.49700001 4278730005
0.056674168 0.054543041 0.49700001 4279320094
-0.013738505 0.060564596 0.53600001 4279050244
-0.010122699 0.059773646 0.52900004 4278921740
-0.0083409548 0.059321672 0.52500004 4279055379
-0.006597836 0.058982685 0.52200001 4279319064
-0.0048835962 0.058756702 0.52000004 4278794515
-0.0031823479 0.058530711 0.51800001 4278926101
-0.0014969874 0.058417719 0.51700002 4278795800
0.00018152452 0.058191735 0.51500005 4278927132
0.0018506448 0.058078736 0.514 4279059490
0.0035132691 0.057965744 0.51300001 4278467353
0.0051593012 0.057739761 0.51100004 4279059488
0.0068056863 0.057626769 0.51000005 4278927902
0.008445573 0.05751377 0.509 4278862109
0.010078967 0.057400778 0.50800002 4278862109
0.011705863 0.057287782 0.50700003 4278993179
0.013326264 0.057174791 0.50600004 4278993179
0.014940167 0.057061791 0.505 4278795287
0.016547576 0.0569488 0.50400001 4278861080
0.018184567 0.0569488 0.50400001 4279058459
0.019782232 0.056835808 0.50300002 4279386654
0.021373402 0.056722816 0.50200003 4279517473
0.0230039 0.056722816 0.50200003 4279188510
0.024585325 0.056609824 0.50100005 4279779623
0.026160249 0.056496825 0.5 4278792214
0.027728682 0.056383833 0.49900001 4278199046
0.02929062 0.056270842 0.49800003 4278196992
0.030846059 0.056157846 0.49700001 4278196480
0.032460317 0.056157846 0.49700001 4278266124
0.034006014 0.056044854 0.49600002 4278924568
0.035545215 0.055931862 0.49500003 4279779877
0.037152976 0.055931862 0.49500003 4279516705
0.038760737 0.055931862 0.49500003 4279187740
0.040368497 0.055931862 0.49500003 4279516703
0.041976258 0.055931862 0.49500003 4279188762
0.043672066 0.056044854 0.49600002 4279845668
0.045283075 0.056044854 0.49600002 4279516451
0.046988629 0.056157846 0.49700001 4279190045
0.048700679 0.056270842 0.49800003 4279255836
0.050318185 0.056270842 0.49800003 4279124761
0.051935688 0.056270842 0.49800003 4278927382
0.053553194 0.056270842 0.49800003 4278795796
0.0551707 0.056270842 0.49800003 4278730005
0.056674168 0.056157846 0.49700001 4279188510
-0.006610475 0.060794961 0.523 4279115273
-0.0048929877 0.060562477 0.52100003 4278919178
-0.0031884916 0.060329996 0.51900005 4278919691
-0.0014969874 0.060097504 0.51700002 4279052560
0.00018152452 0.059865024 0.51500005 4280829485
0.0018506448 0.059748773 0.514 4279056420
0.0035132691 0.059632532 0.51300001 4279188519
0.0051593012 0.059400052 0.51100004 4279255334
0.0068056863 0.059283808 0.51000005 4279452711
0.008445573 0.05916756 0.509 4279715883
0.010078967 0.05905132 0.50800002 4279189539
0.011705863 0.05893508 0.50700003 4279124513
0.013326264 0.058818836 0.50600004 4278992927
0.014940167 0.058702588 0.505 4279058718
0.016547576 0.058586348 0.50400001 4278992925
0.018148487 0.058470108 0.50300002 4278993179
0.019782232 0.058470108 0.50300002 4278993179
0.021373402 0.058353864 0.50200003 4279124765
0.022958076 0.058237623 0.50100005 4278993179
0.02453625 0.058121376 0.5 4278927132
0.026160249 0.058121376 0.5 4278663447
0.027728682 0.058005136 0.49900001 4278860826
0.02929062 0.057888892 0.49800003 4278925849
0.030846059 0.057772648 0.49700001 4279188508
0.032460317 0.057772648 0.49700001 4279254301
0.034006014 0.057656407 0.49600002 4279649061
0.035617024 0.057656407 0.49600002 4279055900
0.037228029 0.057656407 0.49600002 4278265870
0.038839042 0.057656407 0.49600002 4278198278
0.040450048 0.057656407 0.49600002 4278196224
0.042061061 0.057656407 0.49600002 4278198789
0.043760113 0.057772648 0.49700001 4278331404
0.045374371 0.057772648 0.49700001 4279516705
0.047083173 0.057888892 0.49800003 4279190558
0.048700679 0.057888892 0.49800003 4279058972
0.050419223 0.058005136 0.49900001 4279058970
0.051935688 0.057888892 0.49800003 4278993177
0.053553194 0.057888892 0.49800003 4278795798
0.0551707 0.057888892 0.49800003 4278664214
0.056788202 0.057888892 0.49800003 4278331665
0.0051593012 0.061060343 0.51100004 4285830273
0.0068056863 0.060940851 0.51000005 4285501308
0.008445573 0.060821354 0.509 4284054375
0.010078967 0.060701862 0.50800002 4281160251
0.011705863 0.060582373 0.50700003 4279384869
0.013299926 0.060343385 0.505 4278990111
0.014910583 0.060223896 0.50400001 4279451430
0.016514745 0.060104404 0.50300002 4279188258
0.018148487 0.060104404 0.50300002 4279517475
0.019742904 0.059984915 0.50200003 4279189021
0.021373402 0.059984915 0.50200003 4279124511
0.022958076 0.059865423 0.50100005 4278992925
0.02453625 0.059745926 0.5 4278927132
0.02610793 0.059626438 0.49900001 4279058718
0.027728682 0.059626438 0.49900001 4278927132
0.02929062 0.059506945 0.49800003 4278795546
0.030846059 0.059387453 0.49700001 4278993179
0.032460317 0.059387453 0.49700001 4278927386
0.034006014 0.05926796 0.49600002 4278795800
0.035617024 0.05926796 0.49600002 4278927386
0.037228029 0.05926796 0.49600002 4278861080
0.038839042 0.05926796 0.49600002 4278991896
0.040450048 0.05926796 0.49600002 4278991896
0.042145859 0.059387453 0.49700001 4279254814
0.043760113 0.059387453 0.49700001 4279188508
0.045465667 0.059506945 0.49800003 4279189275
0.047177717 0.059626438 0.49900001 4279124765
0.048798468 0.059626438 0.49900001 4278928156
0.050419223 0.059626438 0.49900001 4278862363
0.052039977 0.059626438 0.49900001 4278928156
0.053660728 0.059626438 0.49900001 4278993179
0.0551707 0.059506945 0.49800003 4278729240
0.056788202 0.059506945 0.49800003 4280238381
0.013299926 0.061984181 0.505 4285500538
0.014910583 0.061861441 0.50400001 4285434745
0.016514745 0.061738703 0.50300002 4285237366
0.018148487 0.061738703 0.50300002 4283528031
0.019742904 0.061615963 0.50200003 4282014792
0.021330826 0.061493225 0.50100005 4280172586
0.022958076 0.061493225 0.50100005 4279318558
0.02453625 0.061370477 0.5 4278859293
0.02610793 0.061247736 0.49900001 4278859806
0.027673116 0.061124999 0.49800003 4279188771
0.02929062 0.061124999 0.49800003 4279188769
0.030846059 0.061002254 0.49700001 4279451682
0.032460317 0.061002254 0.49700001 4279583779
0.034006014 0.060879517 0.49600002 4279386400
0.035617024 0.060879517 0.49600002 4279320609
0.037228029 0.060879517 0.49600002 4279386402
0.038839042 0.060879517 0.49600002 4279320609
0.040531598 0.061002254 0.49700001 4279320609
0.042145859 0.061002254 0.49700001 4279649574
0.043848164 0.061124999 0.49800003 4279058205
0.045556962 0.061247736 0.49900001 4279058205
0.047177717 0.061247736 0.49900001 4278992925
0.048798468 0.061247736 0.49900001 4278927902
0.050419223 0.061247736 0.49900001 4278927902
0.052039977 0.061247736 0.49900001 4278796316
0.053660728 0.061247736 0.49900001 4278795546
0.0551707 0.061124999 0.49800003 4278530580
0.056788202 0.061124999 0.49800003 4283460955
0.014880999 0.063373007 0.50300002 4284973680
0.016514745 0.063373007 0.50300002 4284973680
0.018112408 0.063247018 0.50200003 4284644715
0.019742904 0.063247018 0.50200003 4284710508
0.021330826 0.063121028 0.50100005 4284644713
0.022958076 0.063121028 0.50100005 4284447334
0.02453625 0.062995031 0.5 4284447334
0.02610793 0.062869042 0.49900001 4284644713
0.027673116 0.062743053 0.49800003 4285171057
0.02929062 0.062743053 0.49800003 4285105778
0.030846059 0.062617064 0.49700001 4284778098
0.032460317 0.062617064 0.49700001 4284317547
0.034006014 0.062491074 0.49600002 4283133271
0.035617024 0.062491074 0.49600002 4281817411
0.037228029 0.062491074 0.49600002 4280633137
0.038839042 0.062491074 0.49600002 4279975207
0.040531598 0.062617064 0.49700001 4279318562
0.042145859 0.062617064 0.49700001 4279318562
0.043848164 0.062743053 0.49800003 4278859041
0.045556962 0.062869042 0.49900001 4279385900
0.047177717 0.062869042 0.49900001 4279188771
0.048896261 0.062995031 0.5 4279320355
0.050520264 0.062995031 0.5 4279386148
0.052144263 0.062995031 0.5 4278925597
0.053660728 0.062869042 0.49900001 4279186722
0.074139439 0.088317022 0.27800003 4287272590
0.075042389 0.088317022 0.27800003 4287272588
0.075945325 0.088317022 0.27800003 4287207308
0.076571837 0.087999329 0.27700001 4287470480
0.077471532 0.087999329 0.27700001 4287536273
0.074139439 0.089220263 0.27800003 4287536273
0.075042389 0.089220263 0.27800003 4287273101
0.075672135 0.088899322 0.27700001 4287273101
0.076571837 0.088899322 0.27700001 4287338894
0.077471532 0.088899322 0.27700001 4287470480
0.07297305 0.08979933 0.27700001 4287142029
0.073872752 0.08979933 0.27700001 4287142031
0.074772447 0.08979933 0.27700001 4287339410
0.075672135 0.08979933 0.27700001 4287339410
0.076571837 0.08979933 0.27700001 4287142029
0.077471532 0.08979933 0.27700001 4287010443
0.07297305 0.09069933 0.27700001 4287338894
0.073872752 0.09069933 0.27700001 4287273101
0.074772447 0.09069933 0.27700001 4287273101
0.075672135 0.09069933 0.27700001 4287207308
0.076571837 0.09069933 0.27700001 4287207822
0.077471532 0.09069933 0.27700001 4287339408
0.078371227 0.09069933 0.27700001 4287142029
0.079270929 0.09069933 0.27700001 4287141517
0.080170624 0.09069933 0.27700001 4287470482
0.07297305 0.09159933 0.27700001 4287470480
0.073872752 0.09159933 0.27700001 4287338894
0.074772447 0.09159933 0.27700001 4287273101
0.075672135 0.09159933 0.27700001 4287470480
0.076571837 0.09159933 0.27700001 4287273101
0.077471532 0.09159933 0.27700001 4287206795
0.078371227 0.09159933 0.27700001 4287338383
0.079270929 0.09159933 0.27700001 4287338896
0.080170624 0.09159933 0.27700001 4287207310
0.07297305 0.092499331 0.27700001 4287338896
0.073872752 0.092499331 0.27700001 4287207310
0.074772447 0.092499331 0.27700001 4287207310
0.075672135 0.092499331 0.27700001 4287470480
0.076571837 0.092499331 0.27700001 4287206795
0.077471532 0.092499331 0.27700001 4287206795
0.078371227 0.092499331 0.27700001 4287141002
0.079270929 0.092499331 0.27700001 4287141002
0.080170624 0.092499331 0.27700001 4287272588
0.07297305 0.093399331 0.27700001 4287207310
0.073872752 0.093399331 0.27700001 4287272590
0.074772447 0.093399331 0.27700001 4287272590
0.075672135 0.093399331 0.27700001 4287206797
0.076571837 0.093399331 0.27700001 4287207310
0.077471532 0.093399331 0.27700001 4287272590
0.078371227 0.093399331 0.27700001 4287338383
0.079270929 0.093399331 0.27700001 4287338381
0.080170624 0.093399331 0.27700001 4287272588
0.073872752 0.094299331 0.27700001 4287338383
0.074772447 0.094299331 0.27700001 4287273103
0.075672135 0.094299331 0.27700001 4287207310
0.076571837 0.094299331 0.27700001 4287207310
0.077471532 0.094299331 0.27700001 4287141517
0.078371227 0.094299331 0.27700001 4287207310
0.079270929 0.094299331 0.27700001 4287141517
0.080170624 0.094299331 0.27700001 4287141517
0.026257511 0.057542317 0.48196539 4294967295
0.026257511 0.057542317 0.48196539 4294901760
0.026129618 0.058023851 0.48200741 4294901760
0.026001725 0.05850539 0.48204944 4294901760
0.025873832 0.058986925 0.48209146 4294901760
0.025745939 0.059468463 0.48213348 4294901760
0.025618047 0.059949998 0.4821755 4294901760
0.025490154 0.060431536 0.48221752 4294901760
0.025362259 0.060913071 0.48225954 4294901760
0.025234366 0.06139461 0.48230156 4294901760
0.025106473 0.061876144 0.48234361 4294901760
0.02497858 0.062357683 0.48238564 4294901760
0.024850687 0.062839217 0.48242766 4294901760
0.024722794 0.063320756 0.48246968 4294901760
0.024594901 0.063802287 0.4825117 4294901760
0.024467008 0.064283825 0.48255372 4294901760
0.024339115 0.064765364 0.48259574 4294901760
0.024211222 0.065246902 0.48263776 4294901760
0.024083329 0.065728433 0.48267978 4294901760
0.023955435 0.066209972 0.48272181 4294901760
0.023827542 0.06669151 0.48276383 4294901760
0.023699649 0.067173049 0.48280585 4294901760
0.023571756 0.06765458 0.48284787 4294901760
0.023443863 0.068136118 0.48288989 4294901760
0.02331597 0.068617657 0.48293191 4294901760
0.023188077 0.069099188 0.48297393 4294901760
0.023060184 0.069580726 0.48301595 4294901760
0.022932291 0.070062265 0.48305801 4294901760
0.022804398 0.070543803 0.48310003 4294901760
0.022676505 0.071025342 0.48314205 4294901760
0.022548612 0.071506873 0.48318407 4294901760
0.022420719 0.071988411 0.48322609 4294901760
0.022292826 0.07246995 0.48326811 4294901760
0.022164933 0.072951481 0.48331013 4294901760
0.022037039 0.073433019 0.48335215 4294901760
0.021909146 0.073914558 0.48339418 4294901760
0.021781253 0.074396089 0.4834362 4294901760
0.02165336 0.074877627 0.48347822 4294901760
0.021525467 0.075359166 0.48352024 4294901760
0.021397574 0.075840704 0.48356226 4294901760
0.021269681 0.076322243 0.48360428 4294901760
0.021141788 0.076803774 0.4836463 4294901760
0.021013895 0.077285312 0.48368832 4294901760
0.020886002 0.077766851 0.48373038 4294901760
0.020758107 0.078248382 0.4837724 4294901760
0.020630214 0.07872992 0.48381442 4294901760
0.020502321 0.079211459 0.48385644 4294901760
0.020374428 0.079692997 0.48389846 4294901760
0.020246536 0.080174528 0.48394048 4294901760
0.020118643 0.080656067 0.4839825 4294901760
0.01999075 0.081137605 0.48402452 4294901760
0.019862857 0.081619143 0.48406655 4294901760
0.019734964 0.082100675 0.48410857 4294901760
0.019607071 0.082582213 0.48415059 4294901760
0.019479178 0.083063751 0.48419261 4294901760
0.019351285 0.083545282 0.48423463 4294901760
0.019223392 0.084026821 0.48427665 4294901760
0.019095499 0.084508359 0.48431867 4294901760
0.018967606 0.08498989 0.48436069 4294901760
0.018839713 0.085471429 0.48440272 4294901760
0.01871182 0.085952967 0.48444477 4294901760
0.018583925 0.086434506 0.48448679 4294901760
0.018456032 0.086916044 0.48452881 4294901760
0.01832814 0.087397575 0.48457083 4294901760
0.018200247 0.087879114 0.48461285 4294901760
0.018072354 0.088360652 0.48465487 4294901760
0.017944461 0.088842183 0.48469689 4294901760
0.017816566 0.089323729 0.48473892 4294901760
0.017688673 0.08980526 0.48478094 4294901760
0.01756078 0.090286791 0.48482296 4294901760
0.017432887 0.090768337 0.48486498 4294901760
0.017304994 0.091249868 0.484907 4294901760
0.017177101 0.091731399 0.48494902 4294901760
0.017049208 0.092212945 0.48499104 4294901760
0.016921315 0.092694476 0.48503307 4294901760
0.016793422 0.093176015 0.48507509 4294901760
0.016665529 0.093657553 0.48511714 4294901760
0.016537637 0.094139084 0.48515916 4294901760
0.016409744 0.094620623 0.48520118 4294901760
0.016281851 0.095102161 0.4852432 4294901760
0.016153958 0.0955837 0.48528522 4294901760
0.016026065 0.096065238 0.48532724 4294901760
0.015898172 0.096546769 0.48536927 4294901760
0.015770279 0.097028308 0.48541129 4294901760
0.015642386 0.097509846 0.48545331 4294901760
0.015514492 0.097991377 0.48549533 4294901760
0.015386598 0.098472916 0.48553735 4294901760
0.015258705 0.098954454 0.48557937 4294901760
0.015130812 0.099435985 0.48562139 4294901760
0.015002919 0.099917524 0.48566341 4294901760
0.014875026 0.10039906 0.48570544 4294901760
0.014747133 0.10088059 0.48574746 4294901760
0.01461924 0.10136214 0.48578948 4294901760
0.014491347 0.10184367 0.48583153 4294901760
0.014363454 0.10232521 0.48587355 4294901760
0.014235561 0.10280675 0.48591557 4294901760
0.014107668 0.10328828 0.48595759 4294901760
0.013979775 0.10376982 0.48599961 4294901760
0.013851881 0.10425135 0.48604164 4294901760
0.013723988 0.10473289 0.48608366 4294901760
0.013596095 0.10521443 0.48612568 4294901760
0.013468202 0.10569596 0.4861677 4294901760
0.026257511 0.057542317 0.48196539 4278255360
0.026118485 0.057464037 0.48243925 4278255360
0.025979459 0.057385761 0.48291311 4278255360
0.025840433 0.057307482 0.48338696 4278255360
0.025701405 0.057229206 0.48386085 4278255360
0.02556238 0.057150926 0.48433471 4278255360
0.025423354 0.057072651 0.48480856 4278255360
0.025284328 0.056994371 0.48528242 4278255360
0.025145302 0.056916095 0.48575628 4278255360
0.025006276 0.056837816 0.48623013 4278255360
0.024867248 0.056759536 0.48670399 4278255360
0.024728222 0.05668126 0.48717785 4278255360
0.024589196 0.056602981 0.48765174 4278255360
0.02445017 0.056524705 0.48812559 4278255360
0.024311144 0.056446426 0.48859945 4278255360
0.024172116 0.05636815 0.48907331 4278255360
0.024033092 0.05628987 0.48954716 4278255360
0.023894064 0.056211594 0.49002102 4278255360
0.023755038 0.056133315 0.49049488 4278255360
0.023616012 0.056055039 0.49096873 4278255360
0.023476986 0.05597676 0.49144262 4278255360
0.02333796 0.05589848 0.49191648 4278255360
0.023198932 0.055820204 0.49239033 4278255360
0.023059906 0.055741925 0.49286419 4278255360
0.02292088 0.055663649 0.49333805 4278255360
0.022781854 0.055585369 0.49381191 4278255360
0.022642829 0.055507094 0.49428576 4278255360
0.022503803 0.055428814 0.49475965 4278255360
0.022364777 0.055350538 0.49523351 4278255360
0.022225749 0.055272259 0.49570736 4278255360
0.022086723 0.055193983 0.49618122 4278255360
0.021947697 0.055115703 0.49665508 4278255360
0.021808671 0.055037424 0.49712893 4278255360
0.021669645 0.054959148 0.49760279 4278255360
0.021530617 0.054880869 0.49807665 4278255360
0.021391593 0.054802593 0.49855053 4278255360
0.021252565 0.054724313 0.49902439 4278255360
0.021113539 0.054646038 0.49949825 4278255360
0.020974513 0.054567758 0.49997211 4278255360
0.020835487 0.054489482 0.50044596 4278255360
0.020696461 0.054411203 0.50091982 4278255360
0.020557433 0.054332923 0.50139368 4278255360
0.020418409 0.054254647 0.50186753 4278255360
0.020279381 0.054176368 0.50234139 4278255360
0.020140355 0.054098092 0.50281525 4278255360
0.020001329 0.054019812 0.5032891 4278255360
0.019862302 0.053941537 0.50376296 4278255360
0.019723278 0.053863257 0.50423688 4278255360
0.01958425 0.053784981 0.50471073 4278255360
0.019445224 0.053706702 0.50518459 4278255360
0.019306198 0.053628422 0.50565845 4278255360
0.019167172 0.053550147 0.5061323 4278255360
0.019028146 0.053471871 0.50660616 4278255360
0.01888912 0.053393591 0.50708002 4278255360
0.018750092 0.053315312 0.50755388 4278255360
0.018611066 0.053237036 0.50802773 4278255360
0.01847204 0.053158756 0.50850159 4278255360
0.018333014 0.053080481 0.50897545 4278255360
0.018193988 0.053002201 0.5094493 4278255360
0.018054962 0.052923925 0.50992316 4278255360
0.017915934 0.052845646 0.51039702 4278255360
0.017776908 0.052767366 0.51087087 4278255360
0.017637882 0.05268909 0.51134479 4278255360
0.017498856 0.052610811 0.51181865 4278255360
0.01735983 0.052532535 0.5122925 4278255360
0.017220804 0.052454256 0.51276636 4278255360
0.017081777 0.05237598 0.51324022 4278255360
0.016942751 0.0522977 0.51371408 4278255360
0.016803725 0.052219424 0.51418793 4278255360
0.016664699 0.052141145 0.51466179 4278255360
0.016525673 0.052062869 0.51513565 4278255360
0.016386647 0.05198459 0.5156095 4278255360
0.016247619 0.05190631 0.51608336 4278255360
0.016108593 0.051828034 0.51655722 4278255360
0.015969567 0.051749755 0.51703107 4278255360
0.015830541 0.051671479 0.51750493 4278255360
0.015691515 0.051593199 0.51797879 4278255360
0.015552489 0.051514924 0.51845264 4278255360
0.015413462 0.051436644 0.51892656 4278255360
0.015274435 0.051358365 0.51940042 4278255360
0.015135409 0.051280089 0.51987427 4278255360
0.014996383 0.051201813 0.52034813 4278255360
0.014857357 0.051123533 0.52082199 4278255360
0.014718331 0.051045254 0.52129585 4278255360
0.014579305 0.050966978 0.5217697 4278255360
0.014440278 0.050888699 0.52224356 4278255360
0.014301252 0.050810423 0.52271742 4278255360
0.014162226 0.050732143 0.52319127 4278255360
0.0140232 0.050653867 0.52366513 4278255360
0.013884174 0.050575588 0.52413899 4278255360
0.013745148 0.050497308 0.52461284 4278255360
0.01360612 0.050419033 0.5250867 4278255360
0.013467094 0.050340753 0.52556062 4278255360
0.013328068 0.050262477 0.52603447 4278255360
0.013189042 0.050184198 0.52650833 4278255360
0.013050016 0.050105922 0.52698219 4278255360
0.01291099 0.050027642 0.52745605 4278255360
0.012771963 0.049949367 0.5279299 4278255360
0.012632936 0.049871087 0.52840376 4278255360
0.01249391 0.049792811 0.52887762 4278255360
0.012354884 0.049714532 0.52935147 4278255360
0.026257511 0.057542317 0.48196539 4278190335
0.026506724 0.057570759 0.48239791 4278190335
0.026755938 0.057599202 0.48283046 4278190335
0.027005151 0.057627644 0.48326299 4278190335
0.027254364 0.057656087 0.48369551 4278190335
0.027503578 0.05768453 0.48412806 4278190335
0.027752791 0.057712972 0.48456058 4278190335
0.028002003 0.057741418 0.48499313 4278190335
0.028251218 0.057769861 0.48542565 4278190335
0.02850043 0.057798304 0.48585817 4278190335
0.028749643 0.057826746 0.48629072 4278190335
0.028998857 0.057855189 0.48672324 4278190335
0.02924807 0.057883631 0.48715577 4278190335
0.029497283 0.057912074 0.48758832 4278190335
0.029746497 0.057940517 0.48802084 4278190335
0.02999571 0.057968959 0.48845339 4278190335
0.030244924 0.057997402 0.48888591 4278190335
0.030494137 0.058025844 0.48931843 4278190335
0.030743349 0.058054287 0.48975098 4278190335
0.030992564 0.058082733 0.4901835 4278190335
0.031241776 0.058111176 0.49061602 4278190335
0.031490989 0.058139618 0.49104857 4278190335
0.031740203 0.058168061 0.4914811 4278190335
0.031989418 0.058196504 0.49191365 4278190335
0.032238629 0.058224946 0.49234617 4278190335
0.032487843 0.058253389 0.49277869 4278190335
0.032737054 0.058281831 0.49321124 4278190335
0.032986268 0.058310274 0.49364376 4278190335
0.033235483 0.058338717 0.49407628 4278190335
0.033484694 0.058367159 0.49450883 4278190335
0.033733908 0.058395602 0.49494135 4278190335
0.033983123 0.058424044 0.49537387 4278190335
0.034232333 0.058452491 0.49580643 4278190335
0.034481548 0.058480933 0.49623895 4278190335
0.034730762 0.058509376 0.4966715 4278190335
0.034979977 0.058537818 0.49710402 4278190335
0.035229187 0.058566261 0.49753654 4278190335
0.035478402 0.058594704 0.49796909 4278190335
0.035727613 0.058623146 0.49840161 4278190335
0.035976827 0.058651589 0.49883413 4278190335
0.036226042 0.058680031 0.49926668 4278190335
0.036475256 0.058708474 0.49969921 4278190335
0.036724467 0.058736917 0.50013173 4278190335
0.036973681 0.058765359 0.50056428 4278190335
0.037222892 0.058793806 0.50099683 4278190335
0.037472107 0.058822248 0.50142932 4278190335
0.037721321 0.058850691 0.50186187 4278190335
0.037970535 0.058879133 0.50229442 4278190335
0.038219746 0.058907576 0.50272691 4278190335
0.038468961 0.058936018 0.50315946 4278190335
0.038718171 0.058964461 0.50359201 4278190335
0.038967386 0.058992904 0.50402451 4278190335
0.0392166 0.059021346 0.50445706 4278190335
0.039465811 0.059049789 0.50488961 4278190335
0.039715026 0.059078231 0.5053221 4278190335
0.03996424 0.059106674 0.50575465 4278190335
0.040213451 0.059135117 0.5061872 4278190335
0.040462665 0.059163563 0.50661975 4278190335
0.04071188 0.059192006 0.50705224 4278190335
0.04096109 0.059220448 0.50748479 4278190335
0.041210305 0.059248891 0.50791734 4278190335
0.041459519 0.059277333 0.50834984 4278190335
0.04170873 0.059305776 0.50878239 4278190335
0.041957945 0.059334219 0.50921494 4278190335
0.042207159 0.059362661 0.50964743 4278190335
0.042456374 0.059391104 0.51007998 4278190335
0.042705588 0.059419546 0.51051253 4278190335
0.042954799 0.059447989 0.51094502 4278190335
0.04320401 0.059476431 0.51137757 4278190335
0.043453224 0.059504874 0.51181012 4278190335
0.043702438 0.05953332 0.51224262 4278190335
0.043951653 0.059561763 0.51267517 4278190335
0.044200867 0.059590206 0.51310772 4278190335
0.044450078 0.059618648 0.51354027 4278190335
0.044699289 0.059647091 0.51397276 4278190335
0.044948503 0.059675533 0.51440531 4278190335
0.045197718 0.059703976 0.51483786 4278190335
0.045446932 0.059732419 0.51527035 4278190335
0.045696143 0.059760861 0.5157029 4278190335
0.045945358 0.059789304 0.51613545 4278190335
0.046194568 0.059817746 0.51656795 4278190335
0.046443783 0.059846193 0.5170005 4278190335
0.046692997 0.059874635 0.51743305 4278190335
0.046942212 0.059903078 0.51786554 4278190335
0.047191422 0.05993152 0.51829809 4278190335
0.047440637 0.059959963 0.51873064 4278190335
0.047689848 0.059988406 0.51916313 4278190335
0.047939062 0.060016848 0.51959568 4278190335
0.048188277 0.060045291 0.52002823 4278190335
0.048437491 0.060073733 0.52046072 4278190335
0.048686702 0.060102176 0.52089328 4278190335
0.048935916 0.060130619 0.52132583 4278190335
0.049185131 0.060159061 0.52175838 4278190335
0.049434341 0.060187504 0.52219087 4278190335
0.049683556 0.06021595 0.52262342 4278190335
0.04993277 0.060244393 0.52305597 4278190335
0.050181981 0.060272835 0.52348846 4278190335
0.050431196 0.060301278 0.52392101 4278190335
0.05068041 0.06032972 0.52435356 4278190335
0.050929621 0.060358163 0.52478606 4278190335
0.051178835 0.060386606 0.52521861 4278190335
0.026257511 0.057542317 0.48196539 4294967295
0.024762232 0.057371661 0.47937021 4294967295
0.023266952 0.057201002 0.47677502 4294967295
0.021771673 0.057030346 0.47417983 4294967295
0.020276394 0.056859687 0.47158462 4294967295
0.018781114 0.056689031 0.46898943 4294967295
0.017285835 0.056518372 0.46639425 4294967295
0.015790556 0.056347717 0.46379906 4294967295
0.014295276 0.056177057 0.46120387 4294967295
0.012799996 0.056006402 0.45860869 4294967295
0.011304718 0.055835743 0.45601347 4294967295
0.0098094381 0.055665087 0.45341828 4294967295
0.0083141588 0.055494428 0.4508231 4294967295
0.0068188794 0.055323772 0.44822791 4294967295
0.0053236 0.055153113 0.44563273 4294967295
0.0038283207 0.054982457 0.44303751 4294967295
0.0023330413 0.054811798 0.44044232 4294967295
0.00083776191 0.054641142 0.43784714 4294967295
-0.00065751933 0.054470483 0.43525195 4294967295
-0.0021527968 0.054299828 0.43265676 4294967295
-0.0036480762 0.054129168 0.43006158 4294967295
-0.0051433556 0.053958513 0.42746639 4294967295
-0.0066386349 0.053787854 0.42487121 4294967295
-0.0081339143 0.053617198 0.42227599 4294967295
-0.0096291937 0.053446539 0.4196808 4294967295
-0.011124473 0.053275883 0.41708562 4294967295
-0.012619752 0.053105224 0.41449043 4294967295
-0.014115032 0.052934568 0.41189522 4294967295
-0.015610311 0.052763909 0.40930003 4294967295
-0.017105591 0.052593254 0.40670484 4294967295
-0.01860087 0.052422594 0.40410966 4294967295
-0.020096149 0.052251939 0.40151447 4294967295
-0.021591429 0.052081279 0.39891928 4294967295
-0.023086712 0.051910624 0.3963241 4294967295
-0.024581987 0.051739965 0.39372891 4294967295
-0.026077267 0.051569309 0.39113373 4294967295
-0.02757255 0.05139865 0.38853851 4294967295
-0.029067826 0.051227994 0.38594332 4294967295
-0.030563105 0.051057335 0.38334814 4294967295
-0.032058381 0.050886679 0.38075295 4294967295
-0.033553664 0.05071602 0.37815773 4294967295
-0.035048943 0.050545365 0.37556255 4294967295
-0.036544222 0.050374709 0.37296736 4294967295
-0.038039502 0.05020405 0.37037218 4294967295
-0.039534781 0.050033391 0.36777699 4294967295
-0.04103006 0.049862735 0.3651818 4294967295
-0.04252534 0.049692079 0.36258662 4294967295
-0.044020619 0.04952142 0.35999143 4294967295
-0.045515899 0.049350761 0.35739625 4294967295
-0.047011178 0.049180105 0.35480103 4294967295
-0.048506457 0.04900945 0.35220584 4294967295
-0.050001737 0.048838791 0.34961066 4294967295
-0.051497016 0.048668131 0.34701547 4294967295
-0.052992288 0.048497476 0.34442028 4294967295
-0.054487575 0.04832682 0.34182507 4294967295
-0.055982854 0.048156161 0.33922988 4294967295
-0.057478134 0.047985502 0.3366347 4294967295
-0.058973413 0.047814846 0.33403951 4294967295
-0.060468692 0.04764419 0.33144432 4294967295
-0.061963964 0.047473531 0.32884914 4294967295
-0.063459247 0.047302872 0.32625392 4294967295
-0.064954534 0.047132216 0.32365873 4294967295
-0.066449806 0.046961561 0.32106355 4294967295
-0.067945093 0.046790902 0.31846836 4294967295
-0.069440365 0.046620246 0.31587318 4294967295
-0.070935652 0.046449587 0.31327799 4294967295
-0.072430938 0.046278931 0.31068277 4294967295
-0.07392621 0.046108272 0.30808759 4294967295
-0.075421482 0.045937616 0.3054924 4294967295
-0.076916769 0.045766957 0.30289721 4294967295
-0.078412041 0.045596302 0.30030203 4294967295
-0.079907328 0.045425642 0.29770684 4294967295
-0.081402615 0.045254983 0.29511163 4294967295
-0.082897887 0.045084327 0.29251644 4294967295
-0.084393159 0.044913672 0.28992125 4294967295
-0.085888445 0.044743013 0.28732607 4294967295
-0.087383717 0.044572357 0.28473088 4294967295
-0.088879004 0.044401698 0.2821357 4294967295
-0.090374276 0.044231042 0.27954051 4294967295
-0.091869563 0.044060383 0.27694529 4294967295
-0.093364835 0.043889727 0.27435011 4294967295
-0.094860122 0.043719068 0.27175492 4294967295
-0.096355394 0.043548413 0.26915973 4294967295
-0.09785068 0.043377757 0.26656455 4294967295
-0.099345952 0.043207098 0.26396936 4294967295
-0.10084124 0.043036439 0.26137415 4294967295
-0.10233651 0.042865783 0.25877896 4294967295
-0.1038318 0.042695124 0.25618377 4294967295
-0.10532707 0.042524468 0.25358859 4294967295
-0.10682234 0.042353809 0.2509934 4294967295
-0.10831763 0.042183153 0.24839821 4294967295
-0.10981292 0.042012494 0.245803 4294967295
-0.11130819 0.041841839 0.24320781 4294967295
-0.11280347 0.041671179 0.24061263 4294967295
-0.11429875 0.041500524 0.23801744 4294967295
-0.11579402 0.041329868 0.23542225 4294967295
-0.1172893 0.041159209 0.23282707 4294967295
-0.11878459 0.04098855 0.23023185 4294967295
-0.12027986 0.040817894 0.22763667 4294967295
-0.12177515 0.040647238 0.22504148 4294967295
-0.12327042 0.040476579 0.22244629 4294967295
