# .PCD v0.7 - Point Cloud Data file format
VERSION 0.7
FIELDS x y z rgb
SIZE 4 4 4 4
TYPE F F F U
COUNT 1 1 1 1
WIDTH 1053
HEIGHT 1
VIEWPOINT 0 0 0 1 0 0 0
POINTS 1053
DATA ascii
0.0429844 0.016107202 0.38800001 4278993179
0.04413059 0.016065689 0.38700002 4278337816
0.045270287 0.016024174 0.38600001 4278666781
0.046403486 0.015982661 0.38500002 4279192355
0.047653969 0.015982661 0.38500002 4279717932
0.048904449 0.015982661 0.38500002 4279584551
0.050024655 0.015941149 0.384 4280504883
0.074873984 0.016190229 0.39000002 4282805841
0.076140702 0.016190229 0.39000002 4282739794
0.034603067 0.017591666 0.39300001 4279508244
0.03587953 0.017591666 0.39300001 4279442451
0.037061453 0.017546903 0.39200002 4279442451
0.038334671 0.017546903 0.39200002 4279180049
0.039506849 0.017502142 0.39100003 4279114769
0.040672526 0.017457379 0.39000002 4279049490
0.041831709 0.017412616 0.38900003 4278660367
0.0429844 0.017367853 0.38800001 4278399246
0.04413059 0.017323092 0.38700002 4278467605
0.045270287 0.017278329 0.38600001 4278468119
0.046403486 0.017233565 0.38500002 4278666781
0.047653969 0.017233565 0.38500002 4279456297
0.04877742 0.017188802 0.384 4282218066
0.050024655 0.017188802 0.384 4279454246
0.071073823 0.017457379 0.39000002 4279256349
0.072340541 0.017457379 0.39000002 4278796568
0.073607266 0.017457379 0.39000002 4279125533
0.074873984 0.017457379 0.39000002 4279257119
0.076140702 0.017457379 0.39000002 4278928154
0.077208951 0.017412616 0.38900003 4279257121
0.078472421 0.017412616 0.38900003 4279059742
0.07973589 0.017412616 0.38900003 4279256351
0.080999367 0.017412616 0.38900003 4278993177
0.082262844 0.017412616 0.38900003 4279256349
0.083526313 0.017412616 0.38900003 4279190556
0.084789783 0.017412616 0.38900003 4279387935
0.08605326 0.017412616 0.38900003 4279387937
0.087541193 0.017457379 0.39000002 4279453217
0.033411406 0.018916577 0.39400002 4279838492
0.034603067 0.018868564 0.39300001 4279376658
0.03587953 0.018868564 0.39300001 4279442451
0.037155997 0.018868564 0.39300001 4279442451
0.038334671 0.018820552 0.39200002 4279113486
0.039506849 0.018772542 0.39100003 4279378195
0.040672526 0.018724529 0.39000002 4279312916
0.041831709 0.018676519 0.38900003 4278790672
0.0429844 0.018628506 0.38800001 4278726160
0.04413059 0.018580494 0.38700002 4278531343
0.045270287 0.018532483 0.38600001 4278597906
0.046403486 0.018484471 0.38500002 4278402324
0.047653969 0.018484471 0.38500002 4278600216
0.04877742 0.01843646 0.384 4278272023
0.050024655 0.01843646 0.384 4278798367
0.051271889 0.01843646 0.384 4278732572
0.069628112 0.018676519 0.38900003 4278731800
0.071073823 0.018724529 0.39000002 4278731800
0.072155058 0.018676519 0.38900003 4278797593
0.073418535 0.018676519 0.38900003 4278797593
0.074681997 0.018676519 0.38900003 4278797593
0.075945474 0.018676519 0.38900003 4278863386
0.077208951 0.018676519 0.38900003 4278797593
0.078472421 0.018676519 0.38900003 4278929179
0.07973589 0.018676519 0.38900003 4278797593
0.080999367 0.018676519 0.38900003 4278863386
0.082262844 0.018676519 0.38900003 4278731800
0.083526313 0.018676519 0.38900003 4278600214
0.084789783 0.018676519 0.38900003 4278928666
0.08605326 0.018676519 0.38900003 4278928666
0.087541193 0.018724529 0.39000002 4278862873
0.08903563 0.018772542 0.39100003 4278862873
0.090305597 0.018772542 0.39100003 4278862873
0.091575563 0.018772542 0.39100003 4278928666
0.093082987 0.018820552 0.39200002 4278928666
0.094356209 0.018820552 0.39200002 4278928668
0.095629416 0.018820552 0.39200002 4278928668
0.096902639 0.018820552 0.39200002 4278862875
0.098175853 0.018820552 0.39200002 4279125533
0.033411406 0.020196723 0.39400002 4279904285
0.034691118 0.020196723 0.39400002 4279508244
0.03587953 0.020145461 0.39300001 4279574037
0.037155997 0.020145461 0.39300001 4279574037
0.038334671 0.020094201 0.39200002 4279442451
0.039506849 0.020042941 0.39100003 4279246096
0.040672526 0.019991679 0.39000002 4279576856
0.041724171 0.019889157 0.38800001 4278921486
0.042873617 0.019837897 0.38700002 4278856976
0.044016559 0.019786635 0.38600001 4278859025
0.045270287 0.019786635 0.38600001 4278794002
0.046403486 0.019735375 0.38500002 4278532626
0.047653969 0.019735375 0.38500002 4278533396
0.04877742 0.019684114 0.384 4278336531
0.050024655 0.019684114 0.384 4278336531
0.051271889 0.019684114 0.384 4278271251
0.052519117 0.019684114 0.384 4278337044
0.06692867 0.019889157 0.38800001 4278666007
0.068188891 0.019889157 0.38800001 4278666007
0.069628112 0.019940419 0.38900003 4278666007
0.070891581 0.019940419 0.38900003 4278468628
0.072155058 0.019940419 0.38900003 4278863386
0.073418535 0.019940419 0.38900003 4278600214
0.074681997 0.019940419 0.38900003 4278863386
0.075945474 0.019940419 0.38900003 4278731800
0.077208951 0.019940419 0.38900003 4278929179
0.078472421 0.019940419 0.38900003 4278731800
0.07973589 0.019940419 0.38900003 4278731800
0.080999367 0.019940419 0.38900003 4278600214
0.082262844 0.019940419 0.38900003 4278863386
0.083526313 0.019940419 0.38900003 4278731800
0.084789783 0.019940419 0.38900003 4278797593
0.086274475 0.019991679 0.39000002 4278666007
0.087541193 0.019991679 0.39000002 4278731800
0.08903563 0.020042941 0.39100003 4278666007
0.090305597 0.020042941 0.39100003 4278797593
0.091575563 0.020042941 0.39100003 4278731800
0.093082987 0.020094201 0.39200002 4278666007
0.094356209 0.020094201 0.39200002 4279060765
0.095629416 0.020094201 0.39200002 4278929181
0.096902639 0.020094201 0.39200002 4278863388
0.098175853 0.020094201 0.39200002 4279060767
0.099449068 0.020094201 0.39200002 4278928668
0.034691118 0.021476869 0.39400002 4279443221
0.03587953 0.021422358 0.39300001 4279640600
0.037155997 0.021422358 0.39300001 4279903002
0.038334671 0.021367848 0.39200002 4279639830
0.039506849 0.021313339 0.39100003 4279312402
0.04056824 0.021204319 0.38900003 4279312914
0.041724171 0.021149809 0.38800001 4278856465
0.042873617 0.0210953 0.38700002 4278791953
0.044016559 0.02104079 0.38600001 4278924566
0.045153007 0.020986279 0.38500002 4278530832
0.046403486 0.020986279 0.38500002 4278662929
0.047530189 0.020931769 0.384 4278664212
0.04877742 0.020931769 0.384 4278336017
0.050024655 0.020931769 0.384 4278336017
0.051271889 0.020931769 0.384 4278401810
0.052519117 0.020931769 0.384 4278204431
0.053766351 0.020931769 0.384 4278270738
0.055156853 0.020986279 0.38500002 4278204945
0.056407336 0.020986279 0.38500002 4278204945
0.057657812 0.020986279 0.38500002 4278204174
0.058755282 0.020931769 0.384 4278270738
0.060002517 0.020931769 0.384 4278204945
0.061409254 0.020986279 0.38500002 4278204431
0.062659733 0.020986279 0.38500002 4278335247
0.063910216 0.020986279 0.38500002 4278204174
0.065329939 0.02104079 0.38600001 4278204174
0.066756174 0.0210953 0.38700002 4278270738
0.068188891 0.021149809 0.38800001 4278204945
0.069449119 0.021149809 0.38800001 4278204431
0.070891581 0.021204319 0.38900003 4278204945
0.072155058 0.021204319 0.38900003 4278204172
0.073418535 0.021204319 0.38900003 4278270736
0.074681997 0.021204319 0.38900003 4278270736
0.075945474 0.021204319 0.38900003 4278204943
0.077208951 0.021204319 0.38900003 4278204172
0.078472421 0.021204319 0.38900003 4278270736
0.07973589 0.021204319 0.38900003 4278204431
0.080999367 0.021204319 0.38900003 4278204433
0.082262844 0.021204319 0.38900003 4278270740
0.083526313 0.021204319 0.38900003 4278204433
0.084789783 0.021204319 0.38900003 4278204433
0.086274475 0.021258829 0.39000002 4278270740
0.087541193 0.021258829 0.39000002 4278204947
0.08903563 0.021313339 0.39100003 4278270740
0.090305597 0.021313339 0.39100003 4278336529
0.091809772 0.021367848 0.39200002 4278270736
0.093082987 0.021367848 0.39200002 4278336783
0.094356209 0.021367848 0.39200002 4278402322
0.095629416 0.021367848 0.39200002 4278402322
0.096902639 0.021367848 0.39200002 4278402322
0.098175853 0.021367848 0.39200002 4278467601
0.099702761 0.021422358 0.39300001 4278796566
0.033411406 0.022757014 0.39400002 4279575574
0.034691118 0.022757014 0.39400002 4279574291
0.035970829 0.022757014 0.39400002 4279968795
0.037155997 0.022699254 0.39300001 4279969049
0.038334671 0.022641497 0.39200002 4279903256
0.039506849 0.022583738 0.39100003 4279772438
0.04056824 0.02246822 0.38900003 4279312912
0.041724171 0.02241046 0.38800001 4278922258
0.042873617 0.022352701 0.38700002 4278857748
0.044016559 0.022294942 0.38600001 4278530578
0.045153007 0.022237184 0.38500002 4278530832
0.046403486 0.022237184 0.38500002 4278532113
0.047530189 0.022179425 0.384 4278532113
0.04877742 0.022179425 0.384 4278466833
0.050024655 0.022179425 0.384 4278335247
0.051271889 0.022179425 0.384 4278466833
0.052519117 0.022179425 0.384 4278204431
0.05390637 0.022237184 0.38500002 4278336017
0.055156853 0.022237184 0.38500002 4278466833
0.056407336 0.022237184 0.38500002 4278335247
0.057508048 0.022179425 0.384 4278466833
0.058755282 0.022179425 0.384 4278335247
0.060002517 0.022179425 0.384 4278532626
0.061409254 0.022237184 0.38500002 4278199301
0.062659733 0.022237184 0.38500002 4278199818
0.063910216 0.022237184 0.38500002 4278333964
0.065329939 0.022294942 0.38600001 4278400527
0.066756174 0.022352701 0.38700002 4278335247
0.068013154 0.022352701 0.38700002 4278269454
0.069449119 0.02241046 0.38800001 4278335247
0.07070934 0.02241046 0.38800001 4278269454
0.072155058 0.02246822 0.38900003 4278532626
0.073418535 0.02246822 0.38900003 4278335247
0.074681997 0.02246822 0.38900003 4278269454
0.075945474 0.02246822 0.38900003 4278269454
0.077208951 0.02246822 0.38900003 4278269454
0.078472421 0.02246822 0.38900003 4278598419
0.07973589 0.02246822 0.38900003 4278532626
0.080999367 0.02246822 0.38900003 4278466835
0.082262844 0.02246822 0.38900003 4278532115
0.083526313 0.02246822 0.38900003 4278335249
0.085007749 0.022525977 0.39000002 4278335249
0.086274475 0.022525977 0.39000002 4278466835
0.087765656 0.022583738 0.39100003 4278466835
0.08903563 0.022583738 0.39100003 4278335249
0.090305597 0.022583738 0.39100003 4278466833
0.091809772 0.022641497 0.39200002 4278532626
0.093082987 0.022641497 0.39200002 4278335247
0.094356209 0.022641497 0.39200002 4278466833
0.095629416 0.022641497 0.39200002 4278269454
0.097149834 0.022699254 0.39300001 4278532113
0.098426297 0.022699254 0.39300001 4278794513
0.099702761 0.022699254 0.39300001 4278532111
0.10149312 0.022814773 0.39500001 4278466833
0.10277608 0.022814773 0.39500001 4278598417
0.10432249 0.022872532 0.39600003 4278269452
0.1056087 0.022872532 0.39600003 4278598417
0.10689491 0.022872532 0.39600003 4278466831
0.10845429 0.022930291 0.39700001 4278532624
0.10974374 0.022930291 0.39700001 4278204172
0.11519101 0.022988051 0.39800003 4278795798
0.1164837 0.022988051 0.39800003 4278795798
0.033496205 0.024098167 0.39500001 4279640854
0.034691118 0.02403716 0.39400002 4279968536
0.035970829 0.02403716 0.39400002 4280034840
0.037155997 0.023976151 0.39300001 4279969047
0.038334671 0.023915144 0.39200002 4279837461
0.039405808 0.023793127 0.39000002 4279640852
0.04056824 0.02373212 0.38900003 4279575570
0.041724171 0.023671111 0.38800001 4278922258
0.042873617 0.023610104 0.38700002 4279055640
0.044016559 0.023549095 0.38600001 4278530578
0.045153007 0.023488088 0.38500002 4278596371
0.046403486 0.023488088 0.38500002 4278794517
0.047653969 0.023488088 0.38500002 4278597908
0.04877742 0.023427079 0.384 4278466835
0.050024655 0.023427079 0.384 4278532628
0.051271889 0.023427079 0.384 4278335249
0.052655887 0.023488088 0.38500002 4278466835
0.05390637 0.023488088 0.38500002 4278532626
0.055156853 0.023488088 0.38500002 4278532626
0.056407336 0.023488088 0.38500002 4278335247
0.057508048 0.023427079 0.384 4278269454
0.058755282 0.023427079 0.384 4278466833
0.060002517 0.023427079 0.384 4278203150
0.061409254 0.023488088 0.38500002 4278198789
0.062659733 0.023488088 0.38500002 4278397710
0.063910216 0.023488088 0.38500002 4278596625
0.065329939 0.023549095 0.38600001 4278465039
0.066583671 0.023549095 0.38600001 4278268173
0.068013154 0.023610104 0.38700002 4278399246
0.069449119 0.023671111 0.38800001 4278201610
0.07070934 0.023671111 0.38800001 4278465039
0.071969569 0.023671111 0.38800001 4278530062
0.07322979 0.023671111 0.38800001 4278201097
0.074681997 0.02373212 0.38900003 4278990613
0.075945474 0.02373212 0.38900003 4278398476
0.077208951 0.02373212 0.38900003 4278595855
0.078472421 0.02373212 0.38900003 4278924820
0.07973589 0.02373212 0.38900003 4278399759
0.080999367 0.02373212 0.38900003 4278794517
0.082262844 0.02373212 0.38900003 4278859797
0.083526313 0.02373212 0.38900003 4278333453
0.085007749 0.023793127 0.39000002 4278925590
0.08649569 0.023854136 0.39100003 4278859797
0.087765656 0.023854136 0.39100003 4278794004
0.08903563 0.023854136 0.39100003 4278728211
0.090305597 0.023854136 0.39100003 4278794004
0.091809772 0.023915144 0.39200002 4278925590
0.093082987 0.023915144 0.39200002 4278794004
0.094356209 0.023915144 0.39200002 4278465039
0.095873371 0.023976151 0.39300001 4278991383
0.097149834 0.023976151 0.39300001 4278925590
0.098426297 0.023976151 0.39300001 4278728209
0.09995646 0.02403716 0.39400002 4278794002
0.10149312 0.024098167 0.39500001 4278728209
0.10277608 0.024098167 0.39500001 4278925588
0.10432249 0.024159176 0.39600003 4278728209
0.1056087 0.024159176 0.39600003 4278728209
0.10716484 0.024220183 0.39700001 4278530830
0.10845429 0.024220183 0.39700001 4278465037
0.10974374 0.024220183 0.39700001 4278859795
0.11103321 0.024220183 0.39700001 4278531343
0.1126056 0.024281193 0.39800003 4278269452
0.11389831 0.024281193 0.39800003 4278466831
0.11519101 0.024281193 0.39800003 4278663697
0.1164837 0.024281193 0.39800003 4278597904
0.033496205 0.025381563 0.39500001 4279574289
0.034691118 0.025317308 0.39400002 4280100633
0.03587953 0.02525305 0.39300001 4280100631
0.037061453 0.025188792 0.39200002 4279574287
0.038236879 0.025124537 0.39100003 4279508494
0.039405808 0.025060279 0.39000002 4279377678
0.04056824 0.024996022 0.38900003 4279444238
0.041724171 0.024931764 0.38800001 4279054357
0.042873617 0.024867509 0.38700002 4278990361
0.044016559 0.024803249 0.38600001 4278596371
0.045153007 0.024738993 0.38500002 4278859543
0.046403486 0.024738993 0.38500002 4278729494
0.047653969 0.024738993 0.38500002 4278400529
0.048904449 0.024738993 0.38500002 4278401812
0.050154928 0.024738993 0.38500002 4278204433
0.051405411 0.024738993 0.38500002 4278204433
0.052655887 0.024738993 0.38500002 4278204433
0.05390637 0.024738993 0.38500002 4278204433
0.055156853 0.024738993 0.38500002 4278336019
0.056407336 0.024738993 0.38500002 4278336019
0.057508048 0.024674736 0.384 4278401812
0.058755282 0.024674736 0.384 4278532626
0.060002517 0.024674736 0.384 4278268941
0.061409254 0.024738993 0.38500002 4278197761
0.062659733 0.024738993 0.38500002 4278791953
0.063910216 0.024738993 0.38500002 4278464785
0.065329939 0.024803249 0.38600001 4278196992
0.066583671 0.024803249 0.38600001 4278195202
0.068013154 0.024867509 0.38700002 4278194948
0.069270127 0.024867509 0.38700002 4278391814
0.07070934 0.024931764 0.38800001 4278326021
0.071969569 0.024931764 0.38800001 4278391814
0.07322979 0.024931764 0.38800001 4278326021
0.074490011 0.024931764 0.38800001 4278194948
0.075945474 0.024996022 0.38900003 4278260226
0.077208951 0.024996022 0.38900003 4278391812
0.078472421 0.024996022 0.38900003 4278260996
0.07973589 0.024996022 0.38900003 4278195456
0.080999367 0.024996022 0.38900003 4278858259
0.082262844 0.024996022 0.38900003 4278856978
0.083741032 0.025060279 0.39000002 4278988564
0.085007749 0.025060279 0.39000002 4278790672
0.08649569 0.025124537 0.39100003 4278659086
0.087765656 0.025124537 0.39100003 4278790672
0.08903563 0.025124537 0.39100003 4278790672
0.090536557 0.025188792 0.39200002 4278724109
0.091809772 0.025188792 0.39200002 4278658314
0.093082987 0.025188792 0.39200002 4278659084
0.094596907 0.02525305 0.39300001 4278395912
0.095873371 0.02525305 0.39300001 4278659084
0.097149834 0.02525305 0.39300001 4278856465
0.098676749 0.025317308 0.39400002 4278922258
0.09995646 0.025317308 0.39400002 4278460937
0.10149312 0.025381563 0.39500001 4278724109
0.10277608 0.025381563 0.39500001 4278658316
0.10432249 0.025445823 0.39600003 4278395914
0.1056087 0.025445823 0.39600003 4278462220
0.10716484 0.025510078 0.39700001 4278395914
0.10845429 0.025510078 0.39700001 4278329867
0.10974374 0.025510078 0.39700001 4278395660
0.11131289 0.025574338 0.39800003 4278194944
0.1126056 0.025574338 0.39800003 4278399759
0.11389831 0.025574338 0.39800003 4278400529
0.11519101 0.025574338 0.39800003 4278532113
0.1164837 0.025574338 0.39800003 4278597906
0.11866418 0.025767108 0.40100002 4278728722
0.032213245 0.026664959 0.39500001 4280100633
0.033496205 0.026664959 0.39500001 4279902741
0.034691118 0.026597453 0.39400002 4279639569
0.03587953 0.026529947 0.39300001 4279705360
0.037061453 0.026462441 0.39200002 4279639567
0.038236879 0.026394935 0.39100003 4279640080
0.039405808 0.026327427 0.39000002 4279443471
0.04046395 0.026192416 0.38800001 4279182350
0.041724171 0.026192416 0.38800001 4279251736
0.042873617 0.02612491 0.38700002 4278858261
0.044016559 0.026057404 0.38600001 4278662677
0.045270287 0.026057404 0.38600001 4278794517
0.046403486 0.025989898 0.38500002 4278795287
0.047653969 0.025989898 0.38500002 4278466835
0.048904449 0.025989898 0.38500002 4278467605
0.050154928 0.025989898 0.38500002 4278204433
0.051405411 0.025989898 0.38500002 4278336019
0.052655887 0.025989898 0.38500002 4278598421
0.05390637 0.025989898 0.38500002 4278466835
0.055156853 0.025989898 0.38500002 4278532628
0.056407336 0.025989898 0.38500002 4278466835
0.057508048 0.02592239 0.384 4278269456
0.058755282 0.02592239 0.384 4278400529
0.060002517 0.02592239 0.384 4278662931
0.061409254 0.025989898 0.38500002 4278193664
0.062659733 0.025989898 0.38500002 4278922258
0.063910216 0.025989898 0.38500002 4278660882
0.065329939 0.026057404 0.38600001 4278196742
0.066583671 0.026057404 0.38600001 4278654472
0.068013154 0.02612491 0.38700002 4278457093
0.069270127 0.02612491 0.38700002 4278522119
0.070527099 0.02612491 0.38700002 4278522119
0.071969569 0.026192416 0.38800001 4278654218
0.07322979 0.026192416 0.38800001 4278456839
0.074490011 0.026192416 0.38800001 4278456839
0.075750239 0.026192416 0.38800001 4278522119
0.077208951 0.026259923 0.38900003 4278457093
0.078472421 0.026259923 0.38900003 4278457093
0.07973589 0.026259923 0.38900003 4278197254
0.080999367 0.026259923 0.38900003 4278792466
0.082474314 0.026327427 0.39000002 4278858773
0.083741032 0.026327427 0.39000002 4278661394
0.085007749 0.026327427 0.39000002 4278858259
0.08649569 0.026394935 0.39100003 4278989845
0.087765656 0.026394935 0.39100003 4279055638
0.08903563 0.026394935 0.39100003 4278858259
0.090536557 0.026462441 0.39200002 4278989845
0.091809772 0.026462441 0.39200002 4278989845
0.093082987 0.026462441 0.39200002 4279055892
0.094596907 0.026529947 0.39300001 4279186965
0.095873371 0.026529947 0.39300001 4279055892
0.097149834 0.026529947 0.39300001 4278924820
0.098676749 0.026597453 0.39400002 4278859027
0.09995646 0.026597453 0.39400002 4278924820
0.10149312 0.026664959 0.39500001 4278924820
0.10303628 0.026732467 0.39600003 4278727441
0.10432249 0.026732467 0.39600003 4278924820
0.10587539 0.026799971 0.39700001 4278859027
0.10716484 0.026799971 0.39700001 4278727441
0.10845429 0.026799971 0.39700001 4278859027
0.11002018 0.026867479 0.39800003 4278792468
0.11131289 0.026867479 0.39800003 4278194688
0.1126056 0.026867479 0.39800003 4278727957
0.11389831 0.026867479 0.39800003 4278728724
0.11548043 0.026934985 0.39900002 4278465552
0.11896009 0.027137503 0.40200001 4278794515
0.024143094 0.027523823 0.38900003 4280035092
0.026875721 0.027736088 0.39200002 4284907120
0.028220745 0.027806843 0.39300001 4284709741
0.032213245 0.027948353 0.39500001 4282603082
0.033496205 0.027948353 0.39500001 4279443221
0.034691118 0.027877599 0.39400002 4279639569
0.03587953 0.027806843 0.39300001 4279639569
0.036966912 0.027665334 0.39100003 4279639567
0.038139086 0.027594578 0.39000002 4279639567
0.039304767 0.027523823 0.38900003 4279378445
0.04046395 0.027453067 0.38800001 4279314449
0.041616637 0.027382312 0.38700002 4279251736
0.042873617 0.027382312 0.38700002 4279055640
0.044016559 0.027311556 0.38600001 4278596373
0.045270287 0.027311556 0.38600001 4278728470
0.046403486 0.027240802 0.38500002 4278532628
0.047653969 0.027240802 0.38500002 4278532628
0.048904449 0.027240802 0.38500002 4278336019
0.050154928 0.027240802 0.38500002 4278336019
0.051405411 0.027240802 0.38500002 4278204433
0.052655887 0.027240802 0.38500002 4278335249
0.05390637 0.027240802 0.38500002 4278598419
0.055156853 0.027240802 0.38500002 4278400527
0.056407336 0.027240802 0.38500002 4278400527
0.057657812 0.027240802 0.38500002 4278729492
0.058755282 0.027170045 0.384 4278532113
0.060002517 0.027170045 0.384 4278531343
0.061409254 0.027240802 0.38500002 4278196999
0.062659733 0.027240802 0.38500002 4278857746
0.063910216 0.027240802 0.38500002 4279055125
0.065329939 0.027311556 0.38600001 4278195715
0.066583671 0.027311556 0.38600001 4279313686
0.067837402 0.027311556 0.38600001 4278786572
0.069270127 0.027382312 0.38700002 4278853135
0.070527099 0.027382312 0.38700002 4279774237
0.071969569 0.027453067 0.38800001 4278721549
0.07322979 0.027453067 0.38800001 4279248406
0.074490011 0.027453067 0.38800001 4278853135
0.075750239 0.027453067 0.38800001 4278853135
0.077208951 0.027523823 0.38900003 4278984719
0.078472421 0.027523823 0.38900003 4278720779
0.07973589 0.027523823 0.38900003 4279118613
0.080999367 0.027523823 0.38900003 4278858259
0.082474314 0.027594578 0.39000002 4278462990
0.083741032 0.027594578 0.39000002 4278197254
0.085007749 0.027594578 0.39000002 4278262792
0.08649569 0.027665334 0.39100003 4278987797
0.087765656 0.027665334 0.39100003 4278199047
0.08903563 0.027665334 0.39100003 4279055127
0.090305597 0.027665334 0.39100003 4278265611
0.091809772 0.027736088 0.39200002 4278199818
0.093082987 0.027736088 0.39200002 4279318297
0.094596907 0.027806843 0.39300001 4278199045
0.095873371 0.027806843 0.39300001 4278398476
0.097397037 0.027877599 0.39400002 4278595855
0.098676749 0.027877599 0.39400002 4278859027
0.10021015 0.027948353 0.39500001 4278266376
0.10149312 0.027948353 0.39500001 4278200583
0.10303628 0.028019112 0.39600003 4278198528
0.10432249 0.028019112 0.39600003 4278857746
0.10587539 0.028089866 0.39700001 4278198788
0.10716484 0.028089866 0.39700001 4278200072
0.10872748 0.028160622 0.39800003 4278661394
0.11002018 0.028160622 0.39800003 4278792468
0.11131289 0.028160622 0.39800003 4278592269
0.11288852 0.028231377 0.39900002 4278728211
0.11418448 0.028231377 0.39900002 4278794004
0.11548043 0.028231377 0.39900002 4278531345
0.025471877 0.028861728 0.39000002 4279903254
0.033496205 0.029231749 0.39500001 4284842354
0.035788238 0.029009737 0.39200002 4279705364
0.036966912 0.028935732 0.39100003 4279705362
0.038139086 0.028861728 0.39000002 4279836948
0.039304767 0.028787725 0.38900003 4279312912
0.04046395 0.028713718 0.38800001 4279447832
0.041616637 0.028639715 0.38700002 4278990361
0.042873617 0.028639715 0.38700002 4278858775
0.044016559 0.028565709 0.38600001 4278399505
0.045270287 0.028565709 0.38600001 4278728470
0.046524014 0.028565709 0.38600001 4278795800
0.047653969 0.028491706 0.38500002 4278532628
0.048904449 0.028491706 0.38500002 4278335249
0.050154928 0.028491706 0.38500002 4278335249
0.051405411 0.028491706 0.38500002 4278466835
0.052655887 0.028491706 0.38500002 4278466835
0.05390637 0.028491706 0.38500002 4278268941
0.055156853 0.028491706 0.38500002 4278532113
0.056407336 0.028491706 0.38500002 4278532113
0.057657812 0.028491706 0.38500002 4278532113
0.058908295 0.028491706 0.38500002 4278663699
0.060158778 0.028491706 0.38500002 4278267660
0.061409254 0.028491706 0.38500002 4278197511
0.062659733 0.028491706 0.38500002 4278661394
0.063910216 0.028491706 0.38500002 4278922517
0.065329939 0.028565709 0.38600001 4278260996
0.066583671 0.028565709 0.38600001 4278985234
0.067837402 0.028565709 0.38600001 4279643932
0.069270127 0.028639715 0.38700002 4278328072
0.070527099 0.028639715 0.38700002 4278854416
0.071969569 0.028713718 0.38800001 4278195718
0.07322979 0.028713718 0.38800001 4278656267
0.074490011 0.028713718 0.38800001 4278195205
0.075750239 0.028713718 0.38800001 4279841313
0.077208951 0.028787725 0.38900003 4278393867
0.078472421 0.028787725 0.38900003 4278523400
0.07973589 0.028787725 0.38900003 4279251223
0.080999367 0.028787725 0.38900003 4278792468
0.082474314 0.028861728 0.39000002 4278197001
0.083741032 0.028861728 0.39000002 4278392330
0.085007749 0.028861728 0.39000002 4278458123
0.08649569 0.028935732 0.39100003 4278722832
0.087765656 0.028935732 0.39100003 4278923541
0.08903563 0.028935732 0.39100003 4279187226
0.090305597 0.028935732 0.39100003 4278462220
0.091809772 0.029009737 0.39200002 4279054357
0.093082987 0.029009737 0.39200002 4279187478
0.094596907 0.02908374 0.39300001 4278198016
0.095873371 0.02908374 0.39300001 4278726160
0.097397037 0.029157747 0.39400002 4278264839
0.098676749 0.029157747 0.39400002 4278526476
0.10021015 0.029231749 0.39500001 4279316762
0.10149312 0.029231749 0.39500001 4279185941
0.10303628 0.029305754 0.39600003 4279317527
0.10458592 0.029379759 0.39700001 4278789902
0.10587539 0.029379759 0.39700001 4278921488
0.10716484 0.029379759 0.39700001 4278197762
0.10872748 0.029453764 0.39800003 4278727187
0.11002018 0.029453764 0.39800003 4279514908
0.11159257 0.029527768 0.39900002 4278988051
0.11288852 0.029527768 0.39900002 4278464785
0.11447065 0.029601771 0.40000001 4278662677
0.11576986 0.029601771 0.40000001 4278728724
0.033496205 0.030515144 0.39500001 4284250987
0.034691118 0.030437892 0.39400002 4284382827
0.035788238 0.030283384 0.39200002 4284579436
0.036872365 0.030128878 0.39000002 4279310865
0.038041294 0.030051624 0.38900003 4279903256
0.039203726 0.029974369 0.38800001 4279380242
0.04046395 0.029974369 0.38800001 4279118867
0.041616637 0.029897118 0.38700002 4278858261
0.042873617 0.029897118 0.38700002 4278858773
0.044016559 0.029819863 0.38600001 4278531091
0.045270287 0.029819863 0.38600001 4278861080
0.046524014 0.029819863 0.38600001 4278598419
0.047777742 0.029819863 0.38600001 4278466833
0.04903147 0.029819863 0.38600001 4278466833
0.050285202 0.029819863 0.38600001 4278466833
0.051405411 0.02974261 0.38500002 4278532626
0.052655887 0.02974261 0.38500002 4278664212
0.05390637 0.02974261 0.38500002 4278532626
0.055156853 0.02974261 0.38500002 4278466833
0.056407336 0.02974261 0.38500002 4278466833
0.057657812 0.02974261 0.38500002 4278335247
0.058908295 0.02974261 0.38500002 4278531343
0.060158778 0.02974261 0.38500002 4278200331
0.061409254 0.02974261 0.38500002 4278658062
0.062659733 0.02974261 0.38500002 4278989845
0.063910216 0.02974261 0.38500002 4278460683
0.065329939 0.029819863 0.38600001 4278260998
0.066583671 0.029819863 0.38600001 4278391560
0.067837402 0.029819863 0.38600001 4278391560
0.069270127 0.029897118 0.38700002 4278195205
0.070527099 0.029897118 0.38700002 4278260998
0.071969569 0.029974369 0.38800001 4278325767
0.07322979 0.029974369 0.38800001 4278259974
0.074490011 0.029974369 0.38800001 4278391560
0.075945474 0.030051624 0.38900003 4278194434
0.077208951 0.030051624 0.38900003 4278195461
0.078472421 0.030051624 0.38900003 4278458377
0.07973589 0.030051624 0.38900003 4278923541
0.081207588 0.030128878 0.39000002 4278989847
0.082474314 0.030128878 0.39000002 4278195205
0.083741032 0.030128878 0.39000002 4278522886
0.085007749 0.030128878 0.39000002 4278524170
0.08649569 0.030206133 0.39100003 4279381787
0.087765656 0.030206133 0.39100003 4278198280
0.08903563 0.030206133 0.39100003 4278594576
0.090305597 0.030206133 0.39100003 4279055127
0.091809772 0.030283384 0.39200002 4278199561
0.093082987 0.030283384 0.39200002 4278198019
0.094596907 0.030360637 0.39300001 4279120918
0.095873371 0.030360637 0.39300001 4279055638
0.097397037 0.030437892 0.39400002 4279318810
0.098676749 0.030437892 0.39400002 4279185943
0.10021015 0.030515144 0.39500001 4279185689
0.10175007 0.030592399 0.39600003 4278461966
0.10303628 0.030592399 0.39600003 4278790931
0.10458592 0.030669652 0.39700001 4279317529
0.10587539 0.030669652 0.39700001 4278396427
0.10743479 0.030746907 0.39800003 4278726160
0.10872748 0.030746907 0.39800003 4278727187
0.11029661 0.030824158 0.39900002 4278198534
0.11159257 0.030824158 0.39900002 4279449115
0.11317145 0.030901412 0.40000001 4278794263
0.11447065 0.030901412 0.40000001 4278728470
0.11576986 0.030901412 0.40000001 4278662931
0.11765439 0.03105592 0.40200001 4278531343
0.11896009 0.03105592 0.40200001 4278860308
0.035696942 0.031476531 0.39100003 4284644975
0.03677782 0.031315524 0.38900003 4285697149
0.038041294 0.031315524 0.38900003 4279050514
0.039203726 0.031235021 0.38800001 4279118099
0.040359661 0.031154519 0.38700002 4279119637
0.041616637 0.031154519 0.38700002 4278924568
0.042873617 0.031154519 0.38700002 4278596373
0.04413059 0.031154519 0.38700002 4278531091
0.045270287 0.031074015 0.38600001 4278861080
0.046524014 0.031074015 0.38600001 4278532628
0.047777742 0.031074015 0.38600001 4278335247
0.04903147 0.031074015 0.38600001 4278335247
0.050285202 0.031074015 0.38600001 4278664212
0.051538929 0.031074015 0.38600001 4278467603
0.052655887 0.030993514 0.38500002 4278204433
0.05390637 0.030993514 0.38500002 4278401812
0.055156853 0.030993514 0.38500002 4278401812
0.056407336 0.030993514 0.38500002 4278335249
0.057657812 0.030993514 0.38500002 4278335249
0.058908295 0.030993514 0.38500002 4278531091
0.060158778 0.030993514 0.38500002 4278198022
0.061409254 0.030993514 0.38500002 4279119383
0.062659733 0.030993514 0.38500002 4278989845
0.063910216 0.030993514 0.38500002 4278329099
0.065329939 0.031074015 0.38600001 4278392584
0.066583671 0.031074015 0.38600001 4278391560
0.068013154 0.031154519 0.38700002 4278720013
0.069270127 0.031154519 0.38700002 4278522632
0.070527099 0.031154519 0.38700002 4278522632
0.071969569 0.031235021 0.38800001 4278587914
0.07322979 0.031235021 0.38800001 4278785293
0.074490011 0.031235021 0.38800001 4278785293
0.075945474 0.031315524 0.38900003 4278654218
0.077208951 0.031315524 0.38900003 4278654218
0.078472421 0.031315524 0.38900003 4278194435
0.07973589 0.031315524 0.38900003 4278988564
0.081207588 0.031396028 0.39000002 4278923539
0.082474314 0.031396028 0.39000002 4279315480
0.083741032 0.031396028 0.39000002 4279643932
0.085007749 0.031396028 0.39000002 4279578652
0.08649569 0.031476531 0.39100003 4279513373
0.087765656 0.031476531 0.39100003 4279383068
0.08903563 0.031476531 0.39100003 4279383322
0.090305597 0.031476531 0.39100003 4279054357
0.091809772 0.031557031 0.39200002 4279054357
0.093082987 0.031557031 0.39200002 4279383322
0.094596907 0.031637534 0.39300001 4279317527
0.095873371 0.031637534 0.39300001 4279318297
0.097397037 0.031718038 0.39400002 4279318299
0.098676749 0.031718038 0.39400002 4278726675
0.10021015 0.031798538 0.39500001 4278989847
0.10175007 0.031879045 0.39600003 4279120920
0.10303628 0.031879045 0.39600003 4278857748
0.10458592 0.031959545 0.39700001 4278791955
0.10587539 0.031959545 0.39700001 4278923541
0.10743479 0.032040048 0.39800003 4279185943
0.10872748 0.032040048 0.39800003 4278791953
0.11029661 0.032120552 0.39900002 4278198024
0.11159257 0.032120552 0.39900002 4279055638
0.11317145 0.032201052 0.40000001 4278662931
0.11447065 0.032201052 0.40000001 4278794515
0.11605928 0.032281555 0.40100002 4278860308
0.11765439 0.032362059 0.40200001 4278794515
0.11896009 0.032362059 0.40200001 4279057176
0.036683276 0.032495674 0.38800001 4284644975
0.037943501 0.032495674 0.38800001 4283592541
0.039203726 0.032495674 0.38800001 4278460685
0.040359661 0.032411922 0.38700002 4278987799
0.041616637 0.032411922 0.38700002 4279056152
0.042873617 0.032411922 0.38700002 4278859543
0.04413059 0.032411922 0.38700002 4278532115
0.04538757 0.032411922 0.38700002 4278992666
0.046524014 0.03232817 0.38600001 4278663699
0.047777742 0.03232817 0.38600001 4278663697
0.04903147 0.03232817 0.38600001 4278597904
0.050285202 0.03232817 0.38600001 4278729490
0.051538929 0.03232817 0.38600001 4278532624
0.052655887 0.032244418 0.38500002 4278532626
0.05390637 0.032244418 0.38500002 4278532626
0.055156853 0.032244418 0.38500002 4278532626
0.056407336 0.032244418 0.38500002 4278466833
0.057657812 0.032244418 0.38500002 4278532626
0.058908295 0.032244418 0.38500002 4278201356
0.060158778 0.032244418 0.38500002 4278266124
0.061409254 0.032244418 0.38500002 4278595089
0.062659733 0.032244418 0.38500002 4278990359
0.064076215 0.03232817 0.38600001 4278858773
0.065329939 0.03232817 0.38600001 4278857748
0.066583671 0.03232817 0.38600001 4279513371
0.068013154 0.032411922 0.38700002 4279710236
0.069270127 0.032411922 0.38700002 4279644445
0.070527099 0.032411922 0.38700002 4279512859
0.071969569 0.032495674 0.38800001 4279249687
0.07322979 0.032495674 0.38800001 4279578652
0.074490011 0.032495674 0.38800001 4279710752
0.075945474 0.032579426 0.38900003 4279118615
0.077208951 0.032579426 0.38900003 4279184410
0.078472421 0.032579426 0.38900003 4278922006
0.07973589 0.032579426 0.38900003 4279251736
0.081207588 0.032663178 0.39000002 4278988564
0.082474314 0.032663178 0.39000002 4279185943
0.083741032 0.032663178 0.39000002 4279250969
0.085007749 0.032663178 0.39000002 4279250969
0.08649569 0.03274693 0.39100003 4279316762
0.087765656 0.03274693 0.39100003 4279383068
0.08903563 0.03274693 0.39100003 4279383068
0.090305597 0.03274693 0.39100003 4279054103
0.091809772 0.032830682 0.39200002 4279382555
0.093082987 0.032830682 0.39200002 4279711520
0.094596907 0.03291443 0.39300001 4279316762
0.095873371 0.03291443 0.39300001 4279382555
0.097149834 0.03291443 0.39300001 4279382809
0.098676749 0.032998186 0.39400002 4279382809
0.10021015 0.033081934 0.39500001 4279580188
0.10175007 0.033165686 0.39600003 4279251223
0.10303628 0.033165686 0.39600003 4279711774
0.10458592 0.033249438 0.39700001 4279514908
0.10587539 0.033249438 0.39700001 4279251736
0.10743479 0.03333319 0.39800003 4279185943
0.10900066 0.033416942 0.39900002 4279383322
0.11029661 0.033416942 0.39900002 4279318810
0.11187225 0.033500694 0.40000001 4278727957
0.11317145 0.033500694 0.40000001 4278859795
0.11447065 0.033500694 0.40000001 4278925588
0.11605928 0.033584446 0.40100002 4279057174
0.11736172 0.033584446 0.40100002 4278991381
0.11896009 0.033668198 0.40200001 4279056152
0.035331756 0.033669323 0.38700002 4284644977
0.036683276 0.033756323 0.38800001 4284644977
0.037943501 0.033756323 0.38800001 4284644975
0.039102685 0.033669323 0.38700002 4284711792
0.040359661 0.033669323 0.38700002 4278922008
0.041616637 0.033669323 0.38700002 4279252252
0.042873617 0.033669323 0.38700002 4278925336
0.04413059 0.033669323 0.38700002 4278926103
0.04538757 0.033669323 0.38700002 4278992666
0.046644546 0.033669323 0.38700002 4278729492
0.047777742 0.033582322 0.38600001 4278334732
0.04903147 0.033582322 0.38600001 4278729492
0.050285202 0.033582322 0.38600001 4278532113
0.051538929 0.033582322 0.38600001 4278663699
0.052655887 0.033495322 0.38500002 4278598419
0.05390637 0.033495322 0.38500002 4278598419
0.055156853 0.033495322 0.38500002 4278664212
0.056407336 0.033495322 0.38500002 4278532626
0.057657812 0.033495322 0.38500002 4278598419
0.058908295 0.033495322 0.38500002 4278201612
0.060158778 0.033495322 0.38500002 4278398224
0.061409254 0.033495322 0.38500002 4278398224
0.062822483 0.033582322 0.38600001 4278991642
0.064076215 0.033582322 0.38600001 4278597654
0.065329939 0.033582322 0.38600001 4278729240
0.066583671 0.033582322 0.38600001 4278925336
0.068013154 0.033669323 0.38700002 4278925590
0.069270127 0.033669323 0.38700002 4278595855
0.070527099 0.033669323 0.38700002 4279319578
0.071969569 0.033756323 0.38800001 4278991383
0.07322979 0.033756323 0.38800001 4278991383
0.074490011 0.033756323 0.38800001 4278925590
0.075945474 0.033843327 0.38900003 4278991383
0.077208951 0.033843327 0.38900003 4279057176
0.078472421 0.033843327 0.38900003 4279057176
0.07973589 0.033843327 0.38900003 4279188762
0.081207588 0.033930324 0.39000002 4278991383
0.082474314 0.033930324 0.39000002 4278925590
0.083741032 0.033930324 0.39000002 4278925336
0.085007749 0.033930324 0.39000002 4278860056
0.08649569 0.034017328 0.39100003 4278991642
0.087765656 0.034017328 0.39100003 4278991896
0.08903563 0.034017328 0.39100003 4278991896
0.090305597 0.034017328 0.39100003 4279188762
0.091809772 0.034104329 0.39200002 4279254555
0.093082987 0.034104329 0.39200002 4279188762
0.094356209 0.034104329 0.39200002 4279254555
0.095873371 0.034191329 0.39300001 4279188762
0.097149834 0.034191329 0.39300001 4279188762
0.098676749 0.034278329 0.39400002 4278991383
0.10021015 0.03436533 0.39500001 4279188762
0.10149312 0.03436533 0.39500001 4279057176
0.10303628 0.03445233 0.39600003 4279188762
0.10458592 0.034539331 0.39700001 4279188762
0.10587539 0.034539331 0.39700001 4279188762
0.10743479 0.034626335 0.39800003 4279188762
0.10900066 0.034713335 0.39900002 4279254555
0.11029661 0.034713335 0.39900002 4279188762
0.11187225 0.034800332 0.40000001 4279254555
0.11317145 0.034800332 0.40000001 4279451934
0.11447065 0.034800332 0.40000001 4279320348
0.11605928 0.034887336 0.40100002 4279582748
0.11736172 0.034887336 0.40100002 4279186711
0.11896009 0.034974337 0.40200001 4285105264
0.036683276 0.035016976 0.38800001 4284644977
0.037845708 0.034926727 0.38700002 4284776561
0.039102685 0.034926727 0.38700002 4284776815
0.040359661 0.034926727 0.38700002 4285237366
0.041616637 0.034926727 0.38700002 4281356347
0.042873617 0.034926727 0.38700002 4278857496
0.04413059 0.034926727 0.38700002 4279187738
0.04538757 0.034926727 0.38700002 4279254814
0.046644546 0.034926727 0.38700002 4278927386
0.047901522 0.034926727 0.38700002 4279124763
0.04903147 0.034836479 0.38600001 4278993177
0.050285202 0.034836479 0.38600001 4278927384
0.051538929 0.034836479 0.38600001 4279058970
0.052792657 0.034836479 0.38600001 4278927384
0.05390637 0.03474623 0.38500002 4278993177
0.055156853 0.03474623 0.38500002 4278993177
0.056407336 0.03474623 0.38500002 4278993177
0.057657812 0.03474623 0.38500002 4279058970
0.058908295 0.03474623 0.38500002 4279058970
0.060158778 0.03474623 0.38500002 4278993179
0.061409254 0.03474623 0.38500002 4278861080
0.062822483 0.034836479 0.38600001 4278992666
0.064076215 0.034836479 0.38600001 4278861080
0.065329939 0.034836479 0.38600001 4279058459
0.066583671 0.034836479 0.38600001 4278861080
0.068013154 0.034926727 0.38700002 4279124250
0.069270127 0.034926727 0.38700002 4279124250
0.070527099 0.034926727 0.38700002 4279124250
0.071969569 0.035016976 0.38800001 4278861080
0.07322979 0.035016976 0.38800001 4279058459
0.074490011 0.035016976 0.38800001 4278992666
0.075945474 0.035107229 0.38900003 4279058459
0.077208951 0.035107229 0.38900003 4278992666
0.078472421 0.035107229 0.38900003 4278861080
0.07973589 0.035107229 0.38900003 4279189275
0.081207588 0.035197478 0.39000002 4279189275
0.082474314 0.035197478 0.39000002 4279123482
0.083741032 0.035197478 0.39000002 4279189275
0.085007749 0.035197478 0.39000002 4278991896
0.08649569 0.03528773 0.39100003 4278992666
0.087765656 0.03528773 0.39100003 4278992666
0.08903563 0.03528773 0.39100003 4278992666
0.090305597 0.03528773 0.39100003 4279123480
0.091809772 0.035377979 0.39200002 4279123480
0.093082987 0.035377979 0.39200002 4279123482
0.094356209 0.035377979 0.39200002 4279189275
0.095629416 0.035377979 0.39200002 4279255068
0.097149834 0.035468228 0.39300001 4279189275
0.098426297 0.035468228 0.39300001 4279189273
0.10021015 0.035648726 0.39500001 4279320346
0.10149312 0.035648726 0.39500001 4279385369
0.10303628 0.035738979 0.39600003 4279385369
0.10432249 0.035738979 0.39600003 4279450650
0.10587539 0.035829227 0.39700001 4279318810
0.10743479 0.03591948 0.39800003 4279121431
0.10872748 0.03591948 0.39800003 4279252758
0.11029661 0.036009729 0.39900002 4279186965
0.11159257 0.036009729 0.39900002 4279186965
0.11317145 0.036099978 0.40000001 4279844643
0.11447065 0.036099978 0.40000001 4282013505
0.11576986 0.036099978 0.40000001 4285038958
0.11736172 0.036190227 0.40100002 4285827706
0.037845708 0.036184132 0.38700002 4284776563
0.039102685 0.036184132 0.38700002 4284776561
0.040359661 0.036184132 0.38700002 4284974194
0.041616637 0.036184132 0.38700002 4284842606
0.042873617 0.036184132 0.38700002 4285435513
0.04413059 0.036184132 0.38700002 4283001172
0.04538757 0.036184132 0.38700002 4279383068
0.046644546 0.036184132 0.38700002 4279055640
0.047901522 0.036184132 0.38700002 4279451682
0.04903147 0.036090631 0.38600001 4279254814
0.050285202 0.036090631 0.38600001 4279254814
0.051538929 0.036090631 0.38600001 4279058205
0.052792657 0.036090631 0.38600001 4279058459
0.05390637 0.035997134 0.38500002 4279058459
0.055156853 0.035997134 0.38500002 4279255068
0.056407336 0.035997134 0.38500002 4279386141
0.057657812 0.035997134 0.38500002 4279254555
0.058908295 0.035997134 0.38500002 4279320861
0.060158778 0.035997134 0.38500002 4279255068
0.061409254 0.035997134 0.38500002 4279255068
0.062822483 0.036090631 0.38600001 4279123482
0.064076215 0.036090631 0.38600001 4279189275
0.065329939 0.036090631 0.38600001 4278991896
0.066583671 0.036090631 0.38600001 4279255068
0.068013154 0.036184132 0.38700002 4279255068
0.069270127 0.036184132 0.38700002 4279189275
0.070527099 0.036184132 0.38700002 4279189021
0.071969569 0.036277629 0.38800001 4279385887
0.07322979 0.036277629 0.38800001 4279188508
0.074490011 0.036277629 0.38800001 4279385887
0.075945474 0.03637113 0.38900003 4279517473
0.077208951 0.03637113 0.38900003 4279188508
0.078472421 0.03637113 0.38900003 4279320094
0.07973589 0.03637113 0.38900003 4279254301
0.081207588 0.036464628 0.39000002 4279320094
0.082474314 0.036464628 0.39000002 4279188508
0.083741032 0.036464628 0.39000002 4279188508
0.085007749 0.036464628 0.39000002 4279320094
0.08649569 0.036558129 0.39100003 4278991131
0.087765656 0.036558129 0.39100003 4278924568
0.08903563 0.036558129 0.39100003 4279450398
0.090305597 0.036558129 0.39100003 4279383320
0.091575563 0.036558129 0.39100003 4279251734
0.093082987 0.036651626 0.39200002 4278988562
0.094356209 0.036651626 0.39200002 4279909664
0.095629416 0.036651626 0.39200002 4280369704
0.096902639 0.036651626 0.39200002 4280896307
0.098175853 0.036651626 0.39200002 4281620802
0.10021015 0.036932122 0.39500001 4282673492
0.099437565 0.036184132 0.38700002 4284053858
0.10069454 0.036184132 0.38700002 4285171823
0.10195152 0.036184132 0.38700002 4285829239
0.1032085 0.036184132 0.38700002 4286157952
0.10446548 0.036184132 0.38700002 4285763194
0.10572244 0.036184132 0.38700002 4285434743
0.10697942 0.036184132 0.38700002 4285237364
0.1082364 0.036184132 0.38700002 4285171571
0.11317145 0.037399616 0.40000001 4285499509
0.11075036 0.036184132 0.38700002 4285499509
0.11200733 0.036184132 0.38700002 4285696888
0.11326431 0.036184132 0.38700002 4285630325
0.11422536 0.036090631 0.38600001 4285761913
0.08649569 0.037828527 0.39100003 4285501306
0.087765656 0.037828527 0.39100003 4285697915
0.08903563 0.037828527 0.39100003 4285895294
0.090305597 0.037828527 0.39100003 4285632122
0.091575563 0.037828527 0.39100003 4285237364
0.092845537 0.037828527 0.39100003 4285500536
0.094115503 0.037828527 0.39100003 4285302643
0.095385469 0.037828527 0.39100003 4285631095
0.096655443 0.037828527 0.39100003 4285499509
0.097925402 0.037828527 0.39100003 4285499509
0.098434277 0.037538283 0.38800001 4285433718
0.099437565 0.037441533 0.38700002 4285631097
0.10069454 0.037441533 0.38700002 4285499509
0.10195152 0.037441533 0.38700002 4285433716
0.10294181 0.037344784 0.38600001 4285433716
0.10446548 0.037441533 0.38700002 4285631095
0.10572244 0.037441533 0.38700002 4285631095
0.10697942 0.037441533 0.38700002 4285696888
0.1082364 0.037441533 0.38700002 4285631095
0.10949338 0.037441533 0.38700002 4285433716
0.11075036 0.037441533 0.38700002 4285631095
0.11200733 0.037441533 0.38700002 4285433716
0.11326431 0.037441533 0.38700002 4285631095
0.11422536 0.037344784 0.38600001 4285631097
0.08649569 0.039098926 0.39100003 4285302645
0.087765656 0.039098926 0.39100003 4285565815
0.08903563 0.039098926 0.39100003 4285302643
0.090305597 0.039098926 0.39100003 4285499509
0.091575563 0.039098926 0.39100003 4285631095
0.092845537 0.039098926 0.39100003 4285631095
0.094115503 0.039098926 0.39100003 4285631095
0.095385469 0.039098926 0.39100003 4285433716
0.096655443 0.039098926 0.39100003 4285499509
0.097674951 0.038998928 0.39000002 4285631095
0.098434277 0.038798932 0.38800001 4285499509
0.099437565 0.038698938 0.38700002 4285631097
0.10069454 0.038698938 0.38700002 4285433718
0.10168808 0.038598936 0.38600001 4285433718
0.10294181 0.038598936 0.38600001 4285631097
0.10419554 0.038598936 0.38600001 4285499511
0.10544926 0.038598936 0.38600001 4285631097
0.10697942 0.038698938 0.38700002 4285631097
0.1082364 0.038698938 0.38700002 4285696890
0.10949338 0.038698938 0.38700002 4285696890
0.11075036 0.038698938 0.38700002 4285696890
0.11200733 0.038698938 0.38700002 4285761913
0.11297163 0.038598936 0.38600001 4285630327
0.11422536 0.038598936 0.38600001 4285761913
0.10043435 0.039853089 0.38600001 4285762683
0.10168808 0.039853089 0.38600001 4285631097
0.10294181 0.039853089 0.38600001 4285631097
0.10419554 0.039853089 0.38600001 4285631097
0.10544926 0.039853089 0.38600001 4285696890
0.10697942 0.039956339 0.38700002 4285696890
0.1082364 0.039956339 0.38700002 4285762683
0.10949338 0.039956339 0.38700002 4285696890
0.11075036 0.039956339 0.38700002 4285762683
0.11200733 0.039956339 0.38700002 4285827706
0.11297163 0.039853089 0.38600001 4285893499
0.11422536 0.039853089 0.38600001 4285827706
0.073489174 0.027943578 0.38972864 4294967295
0.073489174 0.027943578 0.38972864 4294901760
0.073532552 0.027445549 0.38973784 4294901760
0.073575936 0.026947519 0.38974708 4294901760
0.073619314 0.02644949 0.38975629 4294901760
0.073662698 0.02595146 0.3897655 4294901760
0.073706076 0.025453432 0.38977474 4294901760
0.073749453 0.024955401 0.38978395 4294901760
0.073792838 0.024457373 0.38979316 4294901760
0.073836215 0.023959342 0.38980237 4294901760
0.0738796 0.023461314 0.38981161 4294901760
0.073922977 0.022963285 0.38982081 4294901760
0.073966354 0.022465255 0.38983002 4294901760
0.074009739 0.021967227 0.38983926 4294901760
0.074053116 0.021469198 0.38984847 4294901760
0.074096493 0.020971168 0.38985768 4294901760
0.074139878 0.020473137 0.38986692 4294901760
0.074183255 0.019975109 0.38987613 4294901760
0.07422664 0.019477081 0.38988534 4294901760
0.074270017 0.01897905 0.38989457 4294901760
0.074313395 0.01848102 0.38990378 4294901760
0.074356779 0.017982991 0.38991299 4294901760
0.074400157 0.017484963 0.38992223 4294901760
0.074443541 0.016986933 0.38993144 4294901760
0.074486919 0.016488904 0.38994065 4294901760
0.074530296 0.015990876 0.38994986 4294901760
0.074573681 0.015492845 0.3899591 4294901760
0.074617058 0.014994817 0.38996831 4294901760
0.074660443 0.014496787 0.38997751 4294901760
0.07470382 0.013998757 0.38998675 4294901760
0.074747197 0.013500729 0.38999596 4294901760
0.074790582 0.013002698 0.39000517 4294901760
0.074833959 0.01250467 0.39001441 4294901760
0.074877337 0.01200664 0.39002362 4294901760
0.074920721 0.01150861 0.39003283 4294901760
0.074964099 0.011010582 0.39004207 4294901760
0.075007483 0.010512553 0.39005128 4294901760
0.075050861 0.010014523 0.39006048 4294901760
0.075094238 0.0095164943 0.39006969 4294901760
0.075137623 0.009018464 0.39007893 4294901760
0.075181 0.0085204355 0.39008814 4294901760
0.075224385 0.0080224052 0.39009735 4294901760
0.075267762 0.0075243767 0.39010659 4294901760
0.075311139 0.0070263483 0.3901158 4294901760
0.075354524 0.0065283179 0.39012501 4294901760
0.075397901 0.0060302895 0.39013425 4294901760
0.075441286 0.005532261 0.39014345 4294901760
0.075484663 0.0050342306 0.39015266 4294901760
0.075528041 0.0045362003 0.3901619 4294901760
0.075571425 0.0040381718 0.39017111 4294901760
