# .PCD v0.7 - Point Cloud Data file format
VERSION 0.7
FIELDS x y z rgb
SIZE 4 4 4 4
TYPE F F F U
COUNT 1 1 1 1
WIDTH 1095
HEIGHT 1
VIEWPOINT 0 0 0 1 0 0 0
POINTS 1095
DATA ascii
0.087509118 0.1027603 0.29900002 4283055676
0.088480271 0.1027603 0.29900002 4282849555
0.089451425 0.1027603 0.29900002 4283045905
0.090120159 0.10241661 0.29800001 4283242514
0.091088064 0.10241661 0.29800001 4283439380
0.092055969 0.10241661 0.29800001 4283504655
0.092711717 0.10207294 0.29700002 4283635468
0.093676366 0.10207294 0.29700002 4284027403
0.094322361 0.10172925 0.296 4284290318
0.095283769 0.10172925 0.296 4284946195
0.095920034 0.10138558 0.29500002 4285208595
0.096878193 0.10138558 0.29500002 4285536533
0.09783636 0.10138558 0.29500002 4286260254
0.098794512 0.10138558 0.29500002 4289029211
0.099752672 0.10138558 0.29500002 4285014041
0.10105222 0.10172925 0.296 4285405717
0.10201363 0.10172925 0.296 4285274131
0.10297504 0.10172925 0.296 4285471510
0.10428759 0.10207294 0.29700002 4285208338
0.10737855 0.10413501 0.303 4285733912
0.10836269 0.10413501 0.303 4285536533
0.10934684 0.10413501 0.303 4285537303
0.11033098 0.10413501 0.303 4285471510
0.11131513 0.10413501 0.303 4285733397
0.11229927 0.10413501 0.303 4285601041
0.11328342 0.10413501 0.303 4285864213
0.11426757 0.10413501 0.303 4285995799
0.11525171 0.10413501 0.303 4285930776
0.11623584 0.10413501 0.303 4285864983
0.11721999 0.10413501 0.303 4286062362
0.11820414 0.10413501 0.303 4286128155
0.11918829 0.10413501 0.303 4285340701
0.12017243 0.10413501 0.303 4288311146
0.12115657 0.10413501 0.303 4286085738
0.12214071 0.10413501 0.303 4286020202
0.12353122 0.10447869 0.30400002 4285889136
0.12574741 0.10550974 0.30700001 4286086515
0.12674455 0.10550974 0.30700001 4286152308
0.12815779 0.10585342 0.30800003 4286152308
0.12915818 0.10585342 0.30800003 4286021492
0.13058114 0.1061971 0.30900002 4286021492
0.088480271 0.10373178 0.29900002 4282653461
0.089451425 0.10373178 0.29900002 4282652946
0.090120159 0.10338485 0.29800001 4282586383
0.091088064 0.10338485 0.29800001 4282980112
0.09174706 0.10303792 0.29700002 4283110669
0.092711717 0.10303792 0.29700002 4283241483
0.093360953 0.10269099 0.296 4283699978
0.094322361 0.10269099 0.296 4284225552
0.094961874 0.10234407 0.29500002 4284553490
0.095920034 0.10234407 0.29500002 4284619283
0.096878193 0.10234407 0.29500002 4285077777
0.09783636 0.10234407 0.29500002 4285077007
0.098794512 0.10234407 0.29500002 4285803814
0.099752672 0.10234407 0.29500002 4285078558
0.10071083 0.10234407 0.29500002 4285077527
0.10201363 0.10269099 0.296 4285144090
0.10297504 0.10269099 0.296 4284685079
0.10428759 0.10303792 0.29700002 4285078297
0.10737855 0.10511949 0.303 4285471767
0.10836269 0.10511949 0.303 4285733912
0.10934684 0.10511949 0.303 4285733910
0.11033098 0.10511949 0.303 4286985001
0.11131513 0.10511949 0.303 4286128668
0.11229927 0.10511949 0.303 4286062362
0.11328342 0.10511949 0.303 4285930776
0.11426757 0.10511949 0.303 4285995799
0.11525171 0.10511949 0.303 4286193178
0.11623584 0.10511949 0.303 4286061592
0.11721999 0.10511949 0.303 4285995799
0.11820414 0.10511949 0.303 4285995799
0.11918829 0.10511949 0.303 4284424480
0.12017243 0.10511949 0.303 4286738533
0.12115657 0.10511949 0.303 4285954155
0.12214071 0.10511949 0.303 4286151536
0.12353122 0.10546643 0.30400002 4285889136
0.12574741 0.10650721 0.30700001 4285889136
0.12674455 0.10650721 0.30700001 4286152308
0.12815779 0.10685415 0.30800003 4286152308
0.12915818 0.10685415 0.30800003 4286087285
0.13058114 0.10720107 0.30900002 4286153078
0.089152247 0.10435308 0.29800001 4282391057
0.090120159 0.10435308 0.29800001 4282586383
0.091088064 0.10435308 0.29800001 4282586383
0.09174706 0.1040029 0.29700002 4282717967
0.092711717 0.1040029 0.29700002 4282980366
0.093360953 0.10365272 0.296 4283175176
0.094322361 0.10365272 0.296 4283569675
0.094961874 0.10330255 0.29500002 4284094736
0.095920034 0.10330255 0.29500002 4284291345
0.096878193 0.10330255 0.29500002 4284619283
0.09783636 0.10330255 0.29500002 4285144857
0.098794512 0.10330255 0.29500002 4284882455
0.099752672 0.10330255 0.29500002 4284684822
0.10071083 0.10330255 0.29500002 4285079580
0.101669 0.10330255 0.29500002 4288836716
0.10297504 0.10365272 0.296 4286213474
0.10428759 0.1040029 0.29700002 4283116579
0.10737855 0.10610396 0.303 4284686619
0.10836269 0.10610396 0.303 4285079064
0.10934684 0.10610396 0.303 4285405972
0.11033098 0.10610396 0.303 4285603351
0.11131513 0.10610396 0.303 4285733910
0.11229927 0.10610396 0.303 4285733910
0.11328342 0.10610396 0.303 4285865496
0.11426757 0.10610396 0.303 4286062875
0.11525171 0.10610396 0.303 4286062364
0.11623584 0.10610396 0.303 4285799705
0.11721999 0.10610396 0.303 4286193178
0.11820414 0.10610396 0.303 4285995799
0.11918829 0.10610396 0.303 4284357656
0.12017243 0.10610396 0.303 4287197541
0.12115657 0.10610396 0.303 4286217331
0.12214071 0.10610396 0.303 4286217331
0.12353122 0.10645415 0.30400002 4286086261
0.12574741 0.10750468 0.30700001 4286217847
0.12674455 0.10750468 0.30700001 4286152308
0.12815779 0.10785487 0.30800003 4286086515
0.12915818 0.10785487 0.30800003 4286218101
0.13058114 0.10820504 0.30900002 4286218101
0.089152247 0.10532131 0.29800001 4282859574
0.090120159 0.10532131 0.29800001 4282719254
0.091088064 0.10532131 0.29800001 4282587666
0.09174706 0.10496788 0.29700002 4282455567
0.092399552 0.10461445 0.296 4282586383
0.093360953 0.10461445 0.296 4282915086
0.094003707 0.10426103 0.29500002 4283111950
0.094961874 0.10426103 0.29500002 4283899153
0.095920034 0.10426103 0.29500002 4283898640
0.096549787 0.1039076 0.294 4284161042
0.097504705 0.1039076 0.294 4284686619
0.098794512 0.10426103 0.29500002 4284882458
0.099752672 0.10426103 0.29500002 4284816665
0.10071083 0.10426103 0.29500002 4285416502
0.101669 0.10426103 0.29500002 4286412387
0.10297504 0.10461445 0.296 4286217327
0.10428759 0.10496788 0.29700002 4285822571
0.10737855 0.10708845 0.303 4286411885
0.10836269 0.10708845 0.303 4286014299
0.10934684 0.10708845 0.303 4284297253
0.11033098 0.10708845 0.303 4283638809
0.11131513 0.10708845 0.303 4284948246
0.11229927 0.10708845 0.303 4284618511
0.11328342 0.10708845 0.303 4285011216
0.11426757 0.10708845 0.303 4285405715
0.11525171 0.10708845 0.303 4286720292
0.11623584 0.10708845 0.303 4292447367
0.11721999 0.10708845 0.303 4286128418
0.11820414 0.10708845 0.303 4286128670
0.11918829 0.10708845 0.303 4285144857
0.12017243 0.10708845 0.303 4288182640
0.12115657 0.10708845 0.303 4286217331
0.12214071 0.10708845 0.303 4286020468
0.12353122 0.10744188 0.30400002 4286020470
0.12574741 0.10850216 0.30700001 4286152054
0.12674455 0.10850216 0.30700001 4286218101
0.12815779 0.10885559 0.30800003 4286349687
0.12915818 0.10885559 0.30800003 4286283894
0.13058114 0.10920901 0.30900002 4286283894
0.090782404 0.10593287 0.29700002 4283973430
0.09174706 0.10593287 0.29700002 4282786842
0.092399552 0.10557619 0.296 4282588436
0.093360953 0.10557619 0.296 4282718739
0.094003707 0.10521952 0.29500002 4282718737
0.094961874 0.10521952 0.29500002 4283110928
0.095594876 0.10486283 0.294 4283571479
0.096549787 0.10486283 0.294 4283570966
0.097504705 0.10486283 0.294 4283899931
0.098459609 0.10486283 0.294 4283965208
0.09941452 0.10486283 0.294 4286071354
0.10071083 0.10521952 0.29500002 4282125318
0.101669 0.10521952 0.29500002 4283246627
0.10297504 0.10557619 0.296 4282724912
0.10428759 0.10593287 0.29700002 4282001705
0.10737855 0.10807292 0.303 4282329389
0.10836269 0.10807292 0.303 4282592559
0.10934684 0.10807292 0.303 4282854949
0.11033098 0.10807292 0.303 4283775538
0.11131513 0.10807292 0.303 4282781963
0.11229927 0.10807292 0.303 4283569423
0.11328342 0.10807292 0.303 4284553236
0.11426757 0.10807292 0.303 4284946963
0.11525171 0.10807292 0.303 4285536531
0.11623584 0.10807292 0.303 4286062877
0.11721999 0.10807292 0.303 4286194211
0.11820414 0.10807292 0.303 4286194463
0.11918829 0.10807292 0.303 4285144855
0.12017243 0.10807292 0.303 4288181356
0.12115657 0.10807292 0.303 4286151538
0.12214071 0.10807292 0.303 4286152054
0.12353122 0.1084296 0.30400002 4286152056
0.12574741 0.10949963 0.30700001 4286217847
0.12674455 0.10949963 0.30700001 4286283894
0.12815779 0.10985631 0.30800003 4286349687
0.12915818 0.10985631 0.30800003 4286416250
0.13058114 0.11021298 0.30900002 4286350203
0.094961874 0.10617801 0.29500002 4282721051
0.095594876 0.10581807 0.294 4283246881
0.096549787 0.10581807 0.294 4282721051
0.097504705 0.10581807 0.294 4283512620
0.098459609 0.10581807 0.294 4285289542
0.09941452 0.10581807 0.294 4283249446
0.10071083 0.10617801 0.29500002 4282719000
0.101669 0.10617801 0.29500002 4282850073
0.10297504 0.10653792 0.296 4282390035
0.10428759 0.10689785 0.29700002 4282258451
0.10737855 0.1090574 0.303 4282127894
0.10836269 0.1090574 0.303 4281996308
0.10934684 0.1090574 0.303 4282062869
0.11033098 0.1090574 0.303 4281930769
0.11131513 0.1090574 0.303 4282849043
0.11229927 0.1090574 0.303 4283372303
0.11328342 0.1090574 0.303 4284487697
0.11426757 0.1090574 0.303 4284946965
0.11525171 0.1090574 0.303 4285405717
0.11623584 0.1090574 0.303 4285274131
0.11721999 0.1090574 0.303 4285668889
0.11820414 0.1090574 0.303 4285471510
0.11918829 0.1090574 0.303 4284751642
0.12017243 0.1090574 0.303 4287787882
0.12115657 0.1090574 0.303 4286217329
0.12214071 0.1090574 0.303 4286218101
0.12353122 0.10941733 0.30400002 4286217847
0.12574741 0.11049711 0.30700001 4286217847
0.12674455 0.11049711 0.30700001 4286283894
0.12815779 0.11085704 0.30800003 4286349687
0.12915818 0.11085704 0.30800003 4286546812
0.13058114 0.11121696 0.30900002 4286283640
0.10575815 0.057067793 0.30400002 4286148199
0.10674555 0.057067793 0.30400002 4284103481
0.10836269 0.056880068 0.303 4285084972
0.10408148 0.057673577 0.30200002 4283778620
0.10541026 0.057864547 0.303 4285017132
0.10639441 0.057864547 0.303 4284751390
0.10702417 0.057673577 0.30200002 4285275928
0.10800506 0.057673577 0.30200002 4285210135
0.10862508 0.057482608 0.30100003 4285474588
0.10960273 0.057482608 0.30100003 4285738017
0.1024178 0.05826636 0.30000001 4284433983
0.10373684 0.058460586 0.30100003 4284558376
0.10506238 0.058654804 0.30200002 4284749845
0.10604327 0.058654804 0.30200002 4284946965
0.10666979 0.058460586 0.30100003 4285275156
0.10764743 0.058460586 0.30100003 4285471765
0.10862508 0.058460586 0.30100003 4285406226
0.1092386 0.05826636 0.30000001 4285603605
0.10984563 0.058072142 0.29900002 4285605145
0.11081678 0.058072142 0.29900002 4285936168
0.1024178 0.059241094 0.30000001 4284098597
0.1033922 0.059241094 0.30000001 4284291863
0.1043666 0.059241094 0.30000001 4285077779
0.105341 0.059241094 0.30000001 4285011986
0.1063154 0.059241094 0.30000001 4285077007
0.1072898 0.059241094 0.30000001 4285274129
0.1082642 0.059241094 0.30000001 4285405715
0.1092386 0.059241094 0.30000001 4285471508
0.10984563 0.059043627 0.29900002 4285471508
0.11081678 0.059043627 0.29900002 4285603094
0.11141406 0.058846153 0.29800001 4285540383
0.11238196 0.058846153 0.29800001 4285806896
0.11373024 0.059043627 0.29900002 4287002729
0.10076711 0.059814382 0.29800001 4283184684
0.1020764 0.060015105 0.29900002 4284555033
0.10304756 0.060015105 0.29900002 4284487697
0.10401872 0.060015105 0.29900002 4284748814
0.10498987 0.060015105 0.29900002 4284814607
0.10596102 0.060015105 0.29900002 4285011984
0.10693217 0.060015105 0.29900002 4285208593
0.10790332 0.060015105 0.29900002 4285340179
0.10887448 0.060015105 0.29900002 4285669144
0.10984563 0.060015105 0.29900002 4285932316
0.11044616 0.059814382 0.29800001 4285866266
0.11141406 0.059814382 0.29800001 4285799703
0.11238196 0.059814382 0.29800001 4285668887
0.11373024 0.060015105 0.29900002 4285740842
0.115085 0.060215823 0.30000001 4284822820
0.1160594 0.060215823 0.30000001 4286210133
0.11742392 0.060416546 0.30100003 4287596924
0.099464305 0.060578652 0.29700002 4283644465
0.10076711 0.060782619 0.29800001 4284163103
0.10173501 0.060782619 0.29800001 4284750097
0.10270292 0.060782619 0.29800001 4284815377
0.10401872 0.06098659 0.29900002 4284683791
0.10498987 0.06098659 0.29900002 4284617998
0.10560663 0.060782619 0.29800001 4284749582
0.10657453 0.060782619 0.29800001 4285209363
0.10754243 0.060782619 0.29800001 4285077007
0.10851034 0.060782619 0.29800001 4285603094
0.10947824 0.060782619 0.29800001 4286262051
0.11044616 0.060782619 0.29800001 4287843136
0.11141406 0.060782619 0.29800001 4285866777
0.11238196 0.060782619 0.29800001 4285669141
0.11373024 0.06098659 0.29900002 4285537812
0.115085 0.061190557 0.30000001 4285738271
0.11644627 0.061394528 0.30100003 4285015066
0.11781403 0.061598495 0.30200002 4284751894
0.11918829 0.061802458 0.303 4285084718
0.12096565 0.062210396 0.30500001 4286009674
0.12235615 0.06241437 0.30600002 4285619793
0.12375314 0.062618338 0.30700001 4286672994
0.12475027 0.062618338 0.30700001 4286476131
0.12574741 0.062618338 0.30700001 4286543207
0.099464305 0.061543632 0.29700002 4284360484
0.10042896 0.061543632 0.29700002 4284357654
0.10173501 0.061750848 0.29800001 4284749584
0.10270292 0.061750848 0.29800001 4284946193
0.10367082 0.061750848 0.29800001 4284683791
0.10463873 0.061750848 0.29800001 4284421132
0.10560663 0.061750848 0.29800001 4284683789
0.10657453 0.061750848 0.29800001 4284683789
0.10754243 0.061750848 0.29800001 4285340179
0.10851034 0.061750848 0.29800001 4285405972
0.10947824 0.061750848 0.29800001 4285932570
0.11044616 0.061750848 0.29800001 4289093462
0.11141406 0.061750848 0.29800001 4286462262
0.11238196 0.061750848 0.29800001 4285669144
0.11373024 0.061958067 0.29900002 4285668371
0.115085 0.062165283 0.30000001 4285538582
0.11644627 0.062372506 0.30100003 4285014037
0.11781403 0.062579721 0.30200002 4284882451
0.11918829 0.062786937 0.303 4285079060
0.12096565 0.063201368 0.30500001 4285210648
0.12235615 0.063408591 0.30600002 4285276443
0.12375314 0.063615806 0.30700001 4285014041
0.12475027 0.063615806 0.30700001 4285474849
0.12574741 0.063615806 0.30700001 4285344803
0.12715741 0.063823029 0.30800003 4284885542
0.12815779 0.063823029 0.30800003 4284757038
0.099464305 0.06250862 0.29700002 4284751390
0.10042896 0.06250862 0.29700002 4284948248
0.10139362 0.06250862 0.29700002 4285077777
0.10235828 0.06250862 0.29700002 4285011214
0.10332294 0.06250862 0.29700002 4284486410
0.10428759 0.06250862 0.29700002 4284421130
0.10525225 0.06250862 0.29700002 4284552716
0.1062169 0.06250862 0.29700002 4284617996
0.10718156 0.06250862 0.29700002 4284814605
0.10814621 0.06250862 0.29700002 4285142800
0.10911088 0.06250862 0.29700002 4285537555
0.11044616 0.062719084 0.29800001 4285341203
0.11141406 0.062719084 0.29800001 4292781218
0.11238196 0.062719084 0.29800001 4284754474
0.11373024 0.062929556 0.29900002 4286062616
0.115085 0.06314002 0.30000001 4285537301
0.11644627 0.063350484 0.30100003 4284224528
0.11781403 0.063560948 0.30200002 4289099890
0.11918829 0.063771412 0.303 4284628784
0.12096565 0.064192347 0.30500001 4283307530
0.12235615 0.064402819 0.30600002 4284946963
0.12335004 0.064402819 0.30600002 4285275158
0.12475027 0.064613283 0.30700001 4285340181
0.12574741 0.064613283 0.30700001 4285471510
0.12715741 0.064823754 0.30800003 4285603098
0.12815779 0.064823754 0.30800003 4285801504
0.12915818 0.064823754 0.30800003 4284821539
0.099464305 0.063473605 0.29700002 4284947994
0.10042896 0.063473605 0.29700002 4285078551
0.10139362 0.063473605 0.29700002 4285471765
0.10235828 0.063473605 0.29700002 4284945421
0.10332294 0.063473605 0.29700002 4284157960
0.10428759 0.063473605 0.29700002 4284093964
0.10525225 0.063473605 0.29700002 4284093966
0.1062169 0.063473605 0.29700002 4284224780
0.10718156 0.063473605 0.29700002 4284421132
0.10814621 0.063473605 0.29700002 4284749582
0.10911088 0.063473605 0.29700002 4285077007
0.11007553 0.063473605 0.29700002 4285406742
0.11141406 0.063687317 0.29800001 4285472537
0.11238196 0.063687317 0.29800001 4286460463
0.11373024 0.063901037 0.29900002 4285407264
0.115085 0.064114749 0.30000001 4285405722
0.11644627 0.064328469 0.30100003 4284817435
0.11781403 0.064542182 0.30200002 4288905075
0.11918829 0.064755894 0.303 4286677875
0.12096565 0.065183327 0.30500001 4287138172
0.12235615 0.065397047 0.30600002 4283970602
0.12335004 0.065397047 0.30600002 4284883228
0.12475027 0.065610759 0.30700001 4287446325
0.12574741 0.065610759 0.30700001 4285603094
0.12715741 0.065824479 0.30800003 4285602324
0.12815779 0.065824479 0.30800003 4285603094
0.12915818 0.065824479 0.30800003 4285472535
0.13015856 0.065824479 0.30800003 4285606174
0.10042896 0.064438581 0.29700002 4285340951
0.10139362 0.064438581 0.29700002 4285209363
0.10235828 0.064438581 0.29700002 4284486410
0.10332294 0.064438581 0.29700002 4283765771
0.10428759 0.064438581 0.29700002 4283569421
0.10525225 0.064438581 0.29700002 4283437835
0.1062169 0.064438581 0.29700002 4283700491
0.10718156 0.064438581 0.29700002 4284225552
0.10814621 0.064438581 0.29700002 4284224780
0.10911088 0.064438581 0.29700002 4284815375
0.11007553 0.064438581 0.29700002 4284815375
0.11141406 0.06465555 0.29800001 4284946191
0.11238196 0.06465555 0.29800001 4285209363
0.11373024 0.064872518 0.29900002 4285539100
0.115085 0.065089479 0.30000001 4285341723
0.11644627 0.065306447 0.30100003 4284949021
0.11781403 0.065523408 0.30200002 4288445292
0.11918829 0.065740369 0.303 4286548086
0.12096565 0.066174299 0.30500001 4286416248
0.12195628 0.066174299 0.30500001 4286612087
0.12335004 0.066391267 0.30600002 4285951586
0.12475027 0.066608228 0.30700001 4284752666
0.12574741 0.066608228 0.30700001 4285078547
0.12674455 0.066608228 0.30700001 4285339406
0.12815779 0.066825204 0.30800003 4285668371
0.12915818 0.066825204 0.30800003 4285602578
0.13015856 0.066825204 0.30800003 4285734164
0.13115893 0.066825204 0.30800003 4285538328
0.10332294 0.065403573 0.29700002 4283905321
0.10393645 0.065183349 0.296 4282323463
0.10489786 0.065183349 0.296 4283109899
0.10585926 0.065183349 0.296 4283175178
0.10682067 0.065183349 0.296 4283634698
0.10814621 0.065403573 0.29700002 4283831564
0.10911088 0.065403573 0.29700002 4284224780
0.11007553 0.065403573 0.29700002 4284487693
0.11141406 0.065623783 0.29800001 4284617996
0.11238196 0.065623783 0.29800001 4284683789
0.11373024 0.065843999 0.29900002 4285144853
0.11546862 0.066284426 0.30100003 4285144853
0.11644627 0.066284426 0.30100003 4284687386
0.11820414 0.066724852 0.303 4288577394
0.11958165 0.066945069 0.30400002 4286481521
0.12096565 0.067165278 0.30500001 4286218867
0.12195628 0.067165278 0.30500001 4286416248
0.12335004 0.067385495 0.30600002 4286482041
0.12434392 0.067385495 0.30600002 4286411623
0.12574741 0.067605712 0.30700001 4283441176
0.12674455 0.067605712 0.30700001 4285340179
0.12774169 0.067605712 0.30700001 4285471762
0.12915818 0.067825928 0.30800003 4285799957
0.13015856 0.067825928 0.30800003 4285931030
0.13115893 0.067825928 0.30800003 4285931030
0.13215932 0.067825928 0.30800003 4285932313
0.10393645 0.066145085 0.296 4287138429
0.10489786 0.066145085 0.296 4283973171
0.10585926 0.066145085 0.296 4282782733
0.10682067 0.066145085 0.296 4283174663
0.10814621 0.06636855 0.29700002 4283700491
0.10911088 0.06636855 0.29700002 4283963150
0.11007553 0.06636855 0.29700002 4284422157
0.11141406 0.066592008 0.29800001 4284158728
0.11275909 0.066815481 0.29900002 4284290314
0.1141106 0.067038938 0.30000001 4284421900
0.11546862 0.067262404 0.30100003 4284487950
0.11683314 0.067485869 0.30200002 4284751894
0.11820414 0.067709327 0.303 4284752664
0.11958165 0.067932792 0.30400002 4284691243
0.12096565 0.06815625 0.30500001 4286472020
0.12195628 0.06815625 0.30500001 4287204219
0.12335004 0.068379723 0.30600002 4286218867
0.12434392 0.068379723 0.30600002 4286350455
0.12574741 0.06860318 0.30700001 4287268988
0.12674455 0.06860318 0.30700001 4284882712
0.12774169 0.06860318 0.30700001 4285405969
0.12873882 0.06860318 0.30700001 4290474077
0.12973596 0.06860318 0.30700001 4286001441
0.13115893 0.068826646 0.30800003 4285932313
0.13173023 0.06860318 0.30700001 4285733651
0.13272737 0.06860318 0.30700001 4285669914
0.10393645 0.067106821 0.296 4286350968
0.10489786 0.067106821 0.296 4285956210
0.10585926 0.067106821 0.296 4285754468
0.10682067 0.067106821 0.296 4282716170
0.10814621 0.067333534 0.29700002 4283110669
0.10911088 0.067333534 0.29700002 4283569423
0.11007553 0.067333534 0.29700002 4283897618
0.11141406 0.067560248 0.29800001 4284094736
0.11275909 0.067786962 0.29900002 4283831564
0.1141106 0.068013668 0.30000001 4284422161
0.11585224 0.068467095 0.30200002 4284685333
0.11721999 0.068693802 0.303 4284422157
0.11859426 0.068920523 0.30400002 4285079060
0.11958165 0.068920523 0.30400002 4285210133
0.12096565 0.069147229 0.30500001 4285210646
0.12195628 0.069147229 0.30500001 4285081892
0.12335004 0.06937395 0.30600002 4285020210
0.12434392 0.06937395 0.30600002 4287202682
0.12533781 0.06937395 0.30600002 4286283122
0.12674455 0.069600657 0.30700001 4283898911
0.12774169 0.069600657 0.30700001 4285275930
0.12873882 0.069600657 0.30700001 4285471760
0.12973596 0.069600657 0.30700001 4287643958
0.13073309 0.069600657 0.30700001 4286460200
0.13173023 0.069600657 0.30700001 4285864983
0.13272737 0.069600657 0.30700001 4285865496
0.10393645 0.068068549 0.296 4286153589
0.10489786 0.068068549 0.296 4286677371
0.10585926 0.068068549 0.296 4282527020
0.10682067 0.068068549 0.296 4282914323
0.10814621 0.068298519 0.29700002 4283569682
0.10911088 0.068298519 0.29700002 4283701522
0.11044616 0.068528473 0.29800001 4283635216
0.11141406 0.068528473 0.29800001 4283569936
0.11275909 0.068758443 0.29900002 4283569936
0.11449097 0.069218367 0.30100003 4283635729
0.11623584 0.069678284 0.303 4283701520
0.11760686 0.069908246 0.30400002 4284292628
0.11859426 0.069908246 0.30400002 4283897870
0.11997501 0.070138201 0.30500001 4284094736
0.12096565 0.070138201 0.30500001 4284160527
0.12235615 0.070368171 0.30600002 4284619538
0.12335004 0.070368171 0.30600002 4284553745
0.12434392 0.070368171 0.30600002 4284357654
0.12533781 0.070368171 0.30600002 4285280300
0.1263317 0.070368171 0.30600002 4287121223
0.12774169 0.070598125 0.30700001 4284356884
0.12873882 0.070598125 0.30700001 4285208593
0.12973596 0.070598125 0.30700001 4285998106
0.13073309 0.070598125 0.30700001 4290209631
0.13173023 0.070598125 0.30700001 4285866268
0.13272737 0.070598125 0.30700001 4285997084
0.13372451 0.070598125 0.30700001 4285734682
0.10489786 0.069030285 0.296 4284101171
0.10585926 0.069030285 0.296 4283966759
0.10682067 0.069030285 0.296 4284554265
0.10814621 0.069263503 0.29700002 4286330926
0.10911088 0.069263503 0.29700002 4285475617
0.11378177 0.071595602 0.30700001 4284555287
0.11539894 0.071362399 0.30600002 4284694323
0.11639281 0.071362399 0.30600002 4286871654
0.11700308 0.07112918 0.30500001 4287069803
0.11799373 0.07112918 0.30500001 4284828476
0.11898436 0.07112918 0.30500001 4281993984
0.12036838 0.071362399 0.30600002 4282716424
0.12136227 0.071362399 0.30600002 4282848010
0.12235615 0.071362399 0.30600002 4283374093
0.12335004 0.071362399 0.30600002 4283635981
0.12434392 0.071362399 0.30600002 4284226833
0.12533781 0.071362399 0.30600002 4284226322
0.1263317 0.071362399 0.30600002 4285669918
0.12732559 0.071362399 0.30600002 4286460204
0.12873882 0.071595602 0.30700001 4285340183
0.12973596 0.071595602 0.30700001 4285142545
0.13073309 0.071595602 0.30700001 4285602324
0.13173023 0.071595602 0.30700001 4285865496
0.13272737 0.071595602 0.30700001 4286194461
0.13372451 0.071595602 0.30700001 4285405717
0.094003707 0.069755562 0.29500002 4287910728
0.094961874 0.069755562 0.29500002 4288308314
0.095920034 0.069755562 0.29500002 4284555033
0.097206593 0.069992021 0.296 4283177745
0.098168001 0.069992021 0.296 4281801228
0.099129401 0.069992021 0.296 4280556298
0.10009081 0.069992021 0.296 4280292872
0.11079036 0.072593078 0.30700001 4285342234
0.1117875 0.072593078 0.30700001 4285407766
0.11278464 0.072593078 0.30700001 4284817685
0.11378177 0.072593078 0.30700001 4286273096
0.11477891 0.072593078 0.30700001 4286677875
0.11577605 0.072593078 0.30700001 4286481523
0.11677318 0.072593078 0.30700001 4286349937
0.11738671 0.072356619 0.30600002 4286349937
0.122756 0.072593078 0.30700001 4282651401
0.12375314 0.072593078 0.30700001 4283112465
0.12475027 0.072593078 0.30700001 4282979081
0.12574741 0.072593078 0.30700001 4283438348
0.12674455 0.072593078 0.30700001 4284357136
0.12774169 0.072593078 0.30700001 4284881683
0.12873882 0.072593078 0.30700001 4285340181
0.12973596 0.072593078 0.30700001 4284748044
0.13073309 0.072593078 0.30700001 4285077007
0.13173023 0.072593078 0.30700001 4285340179
0.13272737 0.072593078 0.30700001 4285997852
0.13372451 0.072593078 0.30700001 4285406744
0.088853084 0.071193472 0.29700002 4281147661
0.08981774 0.071193472 0.29700002 4284164892
0.094003707 0.070714049 0.29500002 4285411627
0.094961874 0.070714049 0.29500002 4284880918
0.095920034 0.070714049 0.29500002 4284027919
0.096878193 0.070714049 0.29500002 4281275656
0.098168001 0.070953757 0.296 4280423429
0.099129401 0.070953757 0.296 4280029700
0.10009081 0.070953757 0.296 4279963907
0.10105222 0.070953757 0.296 4280489222
0.10201363 0.070953757 0.296 4283380780
0.11015086 0.073830262 0.30800003 4289226849
0.11079036 0.073590554 0.30700001 4285078810
0.1117875 0.073590554 0.30700001 4284357138
0.11278464 0.073590554 0.30700001 4287136621
0.11378177 0.073590554 0.30700001 4286284142
0.11477891 0.073590554 0.30700001 4286350707
0.11577605 0.073590554 0.30700001 4286218867
0.11677318 0.073590554 0.30700001 4286939764
0.11777031 0.073590554 0.30700001 4282789158
0.12674455 0.073590554 0.30700001 4283438348
0.12774169 0.073590554 0.30700001 4284226322
0.12873882 0.073590554 0.30700001 4284421902
0.12973596 0.073590554 0.30700001 4284421132
0.13073309 0.073590554 0.30700001 4284617998
0.13173023 0.073590554 0.30700001 4284748814
0.13272737 0.073590554 0.30700001 4285077779
0.086923771 0.072158456 0.29700002 4280754189
0.087888427 0.072158456 0.29700002 4282655508
0.088853084 0.072158456 0.29700002 4284295195
0.08981774 0.072158456 0.29700002 4285211416
0.090476729 0.071915492 0.296 4285340949
0.091438144 0.071915492 0.296 4285471762
0.092087395 0.071672536 0.29500002 4286919206
0.093045548 0.071672536 0.29500002 4286261285
0.094003707 0.071672536 0.29500002 4285931809
0.094961874 0.071672536 0.29500002 4284684304
0.095920034 0.071672536 0.29500002 4282189568
0.096878193 0.071672536 0.29500002 4280028672
0.09783636 0.071672536 0.29500002 4279635456
0.098794512 0.071672536 0.29500002 4279635458
0.099752672 0.071672536 0.29500002 4279767044
0.10071083 0.071672536 0.29500002 4282655256
0.101669 0.071672536 0.29500002 4283836188
0.10262716 0.071672536 0.29500002 4284752666
0.11015086 0.074830994 0.30800003 4286002740
0.11079036 0.074588031 0.30700001 4284496946
0.11215164 0.074830994 0.30800003 4286741352
0.11315202 0.074830994 0.30800003 4286153326
0.11415241 0.074830994 0.30800003 4286350707
0.11515279 0.074830994 0.30800003 4287466367
0.12774169 0.074588031 0.30700001 4283176462
0.12873882 0.074588031 0.30700001 4283964946
0.13115893 0.074830994 0.30800003 4284225552
0.13173023 0.074588031 0.30700001 4284553747
0.13272737 0.074588031 0.30700001 4284422161
0.086923771 0.073123433 0.29700002 4281869588
0.087888427 0.073123433 0.29700002 4284294423
0.088853084 0.073123433 0.29700002 4285014294
0.089515321 0.072877221 0.296 4285208847
0.090476729 0.072877221 0.296 4285405199
0.091438144 0.072877221 0.296 4285602065
0.092087395 0.072631024 0.29500002 4285602065
0.093045548 0.072631024 0.29500002 4285798674
0.094003707 0.072631024 0.29500002 4285930260
0.094961874 0.072631024 0.29500002 4284881683
0.095920034 0.072631024 0.29500002 4282057984
0.096878193 0.072631024 0.29500002 4280093440
0.09783636 0.072631024 0.29500002 4279372288
0.098794512 0.072631024 0.29500002 4279701251
0.099752672 0.072631024 0.29500002 4281408787
0.10071083 0.072631024 0.29500002 4283376921
0.101669 0.072631024 0.29500002 4284162585
0.10262716 0.072631024 0.29500002 4284882453
0.11015086 0.075831711 0.30800003 4286007103
0.11115125 0.075831711 0.30800003 4286349167
0.11215164 0.075831711 0.30800003 4286218097
0.11315202 0.075831711 0.30800003 4286940795
0.12015472 0.075831711 0.30800003 4282913036
0.1211551 0.075831711 0.30800003 4282847243
0.12215549 0.075831711 0.30800003 4282650377
0.12915818 0.075831711 0.30800003 4283176975
0.13015856 0.075831711 0.30800003 4283176975
0.084994465 0.074088417 0.29700002 4280556548
0.085959122 0.074088417 0.29700002 4281671179
0.086923771 0.074088417 0.29700002 4283376919
0.087888427 0.074088417 0.29700002 4284816915
0.088553913 0.073838957 0.296 4284881168
0.089515321 0.073838957 0.296 4285011214
0.090476729 0.073838957 0.296 4285274383
0.091129236 0.073589511 0.29500002 4285405199
0.092087395 0.073589511 0.29500002 4285536785
0.093045548 0.073589511 0.29500002 4285667858
0.094003707 0.073589511 0.29500002 4285667858
0.094961874 0.073589511 0.29500002 4285668117
0.095920034 0.073589511 0.29500002 4285407512
0.096878193 0.073589511 0.29500002 4281602054
0.09783636 0.073589511 0.29500002 4280158720
0.098794512 0.073589511 0.29500002 4280750343
0.099752672 0.073589511 0.29500002 4282655256
0.10071083 0.073589511 0.29500002 4284030739
0.101669 0.073589511 0.29500002 4284686101
0.10262716 0.073589511 0.29500002 4285078547
0.10979322 0.076582976 0.30700001 4286479211
0.11079036 0.076582976 0.30700001 4286942592
0.11215164 0.076832436 0.30800003 4283320645
0.11315202 0.076832436 0.30800003 4282590762
0.11815394 0.076832436 0.30800003 4283438098
0.11915433 0.076832436 0.30800003 4283634446
0.12015472 0.076832436 0.30800003 4283699726
0.1211551 0.076832436 0.30800003 4283502345
0.12215549 0.076832436 0.30800003 4283306249
0.12315586 0.076832436 0.30800003 4282717194
0.12915818 0.076832436 0.30800003 4282914319
0.084994465 0.075053401 0.29700002 4281016327
0.085959122 0.075053401 0.29700002 4282653709
0.086923771 0.075053401 0.29700002 4283833874
0.087592505 0.074800692 0.296 4284683791
0.088553913 0.074800692 0.296 4284748812
0.089515321 0.074800692 0.296 4285011214
0.090171069 0.074547991 0.29500002 4285142543
0.091129236 0.074547991 0.29500002 4285339406
0.092087395 0.074547991 0.29500002 4285536785
0.093045548 0.074547991 0.29500002 4285602065
0.093685046 0.074295282 0.294 4285667858
0.094639964 0.074295282 0.294 4285931030
0.095594876 0.074295282 0.294 4285668371
0.096549787 0.074295282 0.294 4285079832
0.097504705 0.074295282 0.294 4282978829
0.098794512 0.074547991 0.29500002 4282784532
0.099752672 0.074547991 0.29500002 4283375383
0.10071083 0.074547991 0.29500002 4284554515
0.101669 0.074547991 0.29500002 4284619279
0.10262716 0.074547991 0.29500002 4285077777
0.11715356 0.077833161 0.30800003 4282258188
0.11915433 0.077833161 0.30800003 4283830288
0.12015472 0.077833161 0.30800003 4284027921
0.1211551 0.077833161 0.30800003 4283896587
0.12255209 0.078085862 0.30900002 4283699978
0.12355571 0.078085862 0.30900002 4283372809
0.12455935 0.078085862 0.30900002 4282914571
0.084994465 0.076018386 0.29700002 4281016329
0.085959122 0.076018386 0.29700002 4283047184
0.086923771 0.076018386 0.29700002 4283898640
0.087592505 0.075762428 0.296 4284355339
0.088553913 0.075762428 0.296 4284552718
0.089515321 0.075762428 0.296 4284880398
0.090171069 0.075506479 0.29500002 4285077007
0.091129236 0.075506479 0.29500002 4285273359
0.092087395 0.075506479 0.29500002 4285470225
0.092730135 0.075250521 0.294 4285667604
0.093685046 0.075250521 0.294 4285799190
0.094639964 0.075250521 0.294 4285799444
0.095594876 0.075250521 0.294 4285931030
0.096549787 0.075250521 0.294 4285865237
0.097504705 0.075250521 0.294 4285405715
0.098459609 0.075250521 0.294 4284422931
0.099752672 0.075506479 0.29500002 4284292115
0.10071083 0.075506479 0.29500002 4284684304
0.101669 0.075506479 0.29500002 4284946191
0.10262716 0.075506479 0.29500002 4284946961
0.11915433 0.078833885 0.30800003 4283503889
0.12015472 0.078833885 0.30800003 4283831825
0.1211551 0.078833885 0.30800003 4283765771
0.12255209 0.079089835 0.30900002 4283699978
0.12355571 0.079089835 0.30900002 4283307278
0.084029801 0.07698337 0.29700002 4281542673
0.084994465 0.07698337 0.29700002 4281213195
0.085959122 0.07698337 0.29700002 4283176975
0.086631089 0.076724164 0.296 4283898386
0.087592505 0.076724164 0.296 4284356368
0.088553913 0.076724164 0.296 4284224525
0.089212909 0.076464966 0.29500002 4284420619
0.090171069 0.076464966 0.29500002 4285077007
0.091129236 0.076464966 0.29500002 4285208336
0.091775231 0.07620576 0.294 4285404945
0.092730135 0.07620576 0.294 4285733651
0.093685046 0.07620576 0.294 4286194715
0.094639964 0.07620576 0.294 4287514173
0.095594876 0.07620576 0.294 4285404945
0.096549787 0.07620576 0.294 4286060819
0.097504705 0.07620576 0.294 4286061076
0.098459609 0.07620576 0.294 4285602578
0.099752672 0.076464966 0.29500002 4285734934
0.10105222 0.076724164 0.296 4285603605
0.101669 0.076464966 0.29500002 4285143054
0.11915433 0.07983461 0.30800003 4281929225
0.12015472 0.07983461 0.30800003 4283438862
0.1211551 0.07983461 0.30800003 4283633931
0.12215549 0.07983461 0.30800003 4283108102
0.083065145 0.077948347 0.29700002 4281149458
0.084029801 0.077948347 0.29700002 4281542419
0.084994465 0.077948347 0.29700002 4281475343
0.085959122 0.077948347 0.29700002 4283046672
0.086631089 0.077685893 0.296 4283766800
0.087592505 0.077685893 0.296 4284093966
0.088553913 0.077685893 0.296 4284356368
0.089212909 0.077423446 0.29500002 4284421902
0.090171069 0.077423446 0.29500002 4284618509
0.090820312 0.077160984 0.294 4285077007
0.091775231 0.077160984 0.294 4285142543
0.092730135 0.077160984 0.294 4285602578
0.093366392 0.076898538 0.29300001 4286128922
0.094318062 0.076898538 0.29300001 4290936184
0.095269725 0.076898538 0.29300001 4285144603
0.096549787 0.077160984 0.294 4286323994
0.097504705 0.077160984 0.294 4286060819
0.098459609 0.077160984 0.294 4285798674
0.10009081 0.077685893 0.296 4285799444
0.10105222 0.077685893 0.296 4285867293
0.10373684 0.078998163 0.30100003 4284552718
0.12015472 0.080835328 0.30800003 4282258190
0.1211551 0.080835328 0.30800003 4282190596
0.083065145 0.078913331 0.29700002 4280624138
0.084029801 0.078913331 0.29700002 4281675029
0.084994465 0.078913331 0.29700002 4281475597
0.085959122 0.078913331 0.29700002 4282784784
0.086923771 0.078913331 0.29700002 4283177743
0.087592505 0.078647628 0.296 4283635981
0.088553913 0.078647628 0.296 4283897870
0.089212909 0.078381933 0.29500002 4284094734
0.090171069 0.078381933 0.29500002 4284225548
0.090820312 0.078116223 0.294 4284486410
0.091775231 0.078116223 0.294 4284880398
0.092414729 0.077850528 0.29300001 4285208590
0.093366392 0.077850528 0.29300001 4285668371
0.094318062 0.077850528 0.29300001 4285275158
0.095269725 0.077850528 0.29300001 4291200387
0.096221395 0.077850528 0.29300001 4285668121
0.097504705 0.078116223 0.294 4285931030
0.098794512 0.078381933 0.29500002 4285930260
0.10042896 0.078913331 0.29700002 4285602065
0.10139362 0.078913331 0.29700002 4285142797
0.083065145 0.079878323 0.29700002 4280821263
0.084029801 0.079878323 0.29700002 4281149458
0.084994465 0.079878323 0.29700002 4281279247
0.085959122 0.079878323 0.29700002 4282193676
0.086923771 0.079878323 0.29700002 4282717967
0.087592505 0.079609364 0.296 4283176975
0.088553913 0.079609364 0.296 4283176460
0.089212909 0.079340421 0.29500002 4283701261
0.090171069 0.079340421 0.29500002 4283700489
0.090820312 0.079071462 0.294 4284223751
0.091775231 0.079071462 0.294 4284749582
0.092414729 0.078802519 0.29300001 4284617226
0.093366392 0.078802519 0.29300001 4285010957
0.094318062 0.078802519 0.29300001 4285470225
0.095269725 0.078802519 0.29300001 4286128157
0.096221395 0.078802519 0.29300001 4285799453
0.097504705 0.079071462 0.294 4285799192
0.098794512 0.079340421 0.29500002 4285667858
0.10076711 0.080147266 0.29800001 4285009928
0.1020764 0.080416225 0.29900002 4284683789
0.084029801 0.080843307 0.29700002 4281018644
0.084994465 0.080843307 0.29700002 4281148947
0.085959122 0.080843307 0.29700002 4282063119
0.086923771 0.080843307 0.29700002 4282259471
0.087888427 0.080843307 0.29700002 4282783760
0.088553913 0.0805711 0.296 4282651914
0.089515321 0.0805711 0.296 4283176460
0.090171069 0.080298908 0.29500002 4283372555
0.090820312 0.080026701 0.294 4283830794
0.091775231 0.080026701 0.294 4284093196
0.092414729 0.079754502 0.29300001 4284355339
0.093366392 0.079754502 0.29300001 4284421132
0.094318062 0.079754502 0.29300001 4284946193
0.095269725 0.079754502 0.29300001 4285405715
0.096221395 0.079754502 0.29300001 4285601811
0.097173057 0.079754502 0.29300001 4285864983
0.098459609 0.080026701 0.294 4285602324
0.10110525 0.081387706 0.29900002 4285142543
0.084029801 0.081808291 0.29700002 4280821265
0.084994465 0.081808291 0.29700002 4281017361
0.085959122 0.081808291 0.29700002 4281867793
0.086923771 0.081808291 0.29700002 4281931533
0.087888427 0.081808291 0.29700002 4282454795
0.088553913 0.081532836 0.296 4282454795
0.089515321 0.081532836 0.296 4282454022
0.090171069 0.081257388 0.29500002 4282585608
0.090820312 0.08098194 0.294 4283044104
0.091775231 0.08098194 0.294 4283569421
0.092414729 0.080706492 0.29300001 4284093964
0.093366392 0.080706492 0.29300001 4284356366
0.094318062 0.080706492 0.29300001 4284683791
0.095269725 0.080706492 0.29300001 4284945423
0.096221395 0.080706492 0.29300001 4285405715
0.097173057 0.080706492 0.29300001 4285404945
0.098459609 0.08098194 0.294 4285339152
0.1014434 0.082634635 0.30000001 4285010957
0.1024178 0.082634635 0.30000001 4282453768
0.08431273 0.083051965 0.29800001 4280558095
0.085280634 0.083051965 0.29800001 4280754704
0.085959122 0.082773268 0.29700002 4281999894
0.086923771 0.082773268 0.29700002 4281931535
0.087888427 0.082773268 0.29700002 4282258186
0.088553913 0.082494564 0.296 4282323209
0.089515321 0.082494564 0.296 4282454281
0.090171069 0.082215868 0.29500002 4282585867
0.091129236 0.082215868 0.29500002 4282585354
0.091775231 0.081937164 0.294 4282979083
0.092730135 0.081937164 0.294 4283569675
0.093366392 0.081658475 0.29300001 4283963148
0.094318062 0.081658475 0.29300001 4284224780
0.095269725 0.081658475 0.29300001 4284290316
0.096221395 0.081658475 0.29300001 4284683789
0.097173057 0.081658475 0.29300001 4284749582
0.10046899 0.083609357 0.30000001 4284748814
0.08431273 0.084020197 0.29800001 4280558095
0.085280634 0.084020197 0.29800001 4280492302
0.085959122 0.083738253 0.29700002 4282000664
0.086923771 0.083738253 0.29700002 4281865742
0.087888427 0.083738253 0.29700002 4282126602
0.088853084 0.083738253 0.29700002 4282323209
0.089515321 0.0834563 0.296 4282388488
0.090171069 0.083174355 0.29500002 4282454281
0.091129236 0.083174355 0.29500002 4282389002
0.091775231 0.082892403 0.294 4282454795
0.092730135 0.082892403 0.294 4282848008
0.093366392 0.082610466 0.29300001 4283373069
0.094318062 0.082610466 0.29300001 4283701259
0.095269725 0.082610466 0.29300001 4284161040
0.096221395 0.082610466 0.29300001 4284160527
0.097173057 0.082610466 0.29300001 4284422929
0.085280634 0.08498843 0.29800001 4282598709
0.086248539 0.08498843 0.29800001 4285555542
0.086923771 0.084703237 0.29700002 4281735439
0.087888427 0.084703237 0.29700002 4282192397
0.088853084 0.084703237 0.29700002 4282323981
0.089515321 0.084418036 0.296 4282454795
0.090476729 0.084418036 0.296 4282520588
0.091129236 0.084132843 0.29500002 4282323979
0.092087395 0.084132843 0.29500002 4282323979
0.092730135 0.083847642 0.294 4282454795
0.093685046 0.083847642 0.294 4282717707
0.094318062 0.083562449 0.29300001 4283374093
0.095269725 0.083562449 0.29300001 4283504909
0.096221395 0.083562449 0.29300001 4283701774
0.097173057 0.083562449 0.29300001 4283701261
0.085280634 0.085956663 0.29800001 4286022773
0.086248539 0.085956663 0.29800001 4287268988
0.086923771 0.085668221 0.29700002 4281867795
0.087888427 0.085668221 0.29700002 4282389774
0.088853084 0.085668221 0.29700002 4282587153
0.089515321 0.085379772 0.296 4282192393
0.090476729 0.085379772 0.296 4282126602
0.091129236 0.08509133 0.29500002 4283446055
0.092087395 0.08509133 0.29500002 4282656024
0.093045548 0.08509133 0.29500002 4282851606
0.093685046 0.084802881 0.294 4282587151
0.094639964 0.084802881 0.294 4282717192
0.095594876 0.084802881 0.294 4282913801
0.096549787 0.084802881 0.294 4283308046
0.097504705 0.084802881 0.294 4283701520
0.086248539 0.086924888 0.29800001 4287598980
0.086923771 0.086633198 0.29700002 4282132510
0.087888427 0.086633198 0.29700002 4282455569
0.088853084 0.086633198 0.29700002 4282587153
0.08981774 0.086633198 0.29700002 4282258188
0.090476729 0.0863415 0.296 4283048989
0.091438144 0.0863415 0.296 4286218097
0.092087395 0.08604981 0.29500002 4286416246
0.093045548 0.08604981 0.29500002 4285952615
0.094003707 0.08604981 0.29500002 4281871906
0.094639964 0.085758112 0.294 4282588436
0.095594876 0.085758112 0.294 4282258188
0.096549787 0.085758112 0.294 4282914573
0.097504705 0.085758112 0.294 4283504655
0.086248539 0.087893121 0.29800001 4286547064
0.087216437 0.087893121 0.29800001 4281343507
0.087888427 0.087598182 0.29700002 4282587666
0.088853084 0.087598182 0.29700002 4282521873
0.08981774 0.087598182 0.29700002 4282586383
0.090476729 0.087303236 0.296 4283312674
0.091438144 0.087303236 0.296 4286350968
0.092399552 0.087303236 0.296 4286285945
0.093045548 0.087008297 0.29500002 4286220152
0.094003707 0.087008297 0.29500002 4286876801
0.094961874 0.087008297 0.29500002 4281801232
0.095920034 0.087008297 0.29500002 4282258701
0.096878193 0.087008297 0.29500002 4282782733
0.097504705 0.086713351 0.294 4283570450
0.087216437 0.088861361 0.29800001 4281608482
0.087888427 0.088563167 0.29700002 4282653459
0.088853084 0.088563167 0.29700002 4282587153
0.090476729 0.088264972 0.296 4283773223
0.091438144 0.088264972 0.296 4286350457
0.092399552 0.088264972 0.296 4286154361
0.093360953 0.088264972 0.296 4286417533
0.094003707 0.087966785 0.29500002 4286811267
0.094961874 0.087966785 0.29500002 4281407251
0.095920034 0.087966785 0.29500002 4282062607
0.096878193 0.087966785 0.29500002 4282914319
0.097504705 0.087668583 0.294 4283898647
0.090782404 0.089528158 0.29700002 4284429868
0.091438144 0.089226708 0.296 4286416248
0.092399552 0.089226708 0.296 4286351740
0.093360953 0.089226708 0.296 4286417533
0.094322361 0.089226708 0.296 4286745474
0.095283769 0.089226708 0.296 4282065181
0.096245185 0.089226708 0.296 4282193939
0.097206593 0.089226708 0.296 4282980366
0.090782404 0.090493135 0.29700002 4284692009
0.09174706 0.090493135 0.29700002 4286350453
0.092399552 0.090188436 0.296 4286482554
0.093360953 0.090188436 0.296 4286416763
0.094322361 0.090188436 0.296 4286482302
0.095283769 0.090188436 0.296 4281605916
0.096245185 0.090188436 0.296 4282260246
0.097534999 0.090493135 0.29700002 4283046159
0.091088064 0.091766052 0.29800001 4283901981
0.092055969 0.091766052 0.29800001 4286810234
0.092399552 0.091150172 0.296 4286679420
0.093360953 0.091150172 0.296 4286416763
0.094322361 0.091150172 0.296 4286284923
0.095283769 0.091150172 0.296 4282265131
0.096245185 0.091150172 0.296 4281997076
0.097534999 0.091458119 0.29700002 4282915086
0.087216437 0.092734285 0.29800001 4284176206
0.088184342 0.092734285 0.29800001 4282784282
0.089152247 0.092734285 0.29800001 4282587155
0.092055969 0.092734285 0.29800001 4286612085
0.092399552 0.092111908 0.296 4286482041
0.093360953 0.092111908 0.296 4286482556
0.094322361 0.092111908 0.296 4286153337
0.095283769 0.092111908 0.296 4283581250
0.096570343 0.092423104 0.29700002 4281866260
0.097534999 0.092423104 0.29700002 4282717967
0.086537972 0.094016962 0.29900002 4286548349
0.087509118 0.094016962 0.29900002 4284636759
0.088184342 0.093702525 0.29800001 4282652696
0.089152247 0.093702525 0.29800001 4282389776
0.09174706 0.093388088 0.29700002 4287466367
0.092711717 0.093388088 0.29700002 4286547834
0.093360953 0.093073644 0.296 4286350203
0.094322361 0.093073644 0.296 4286547582
0.095283769 0.093073644 0.296 4285358431
0.096570343 0.093388088 0.29700002 4281998105
0.097534999 0.093388088 0.29700002 4282651660
0.086537972 0.09498845 0.29900002 4286548095
0.087509118 0.09498845 0.29900002 4283978829
0.088184342 0.094670758 0.29800001 4282653977
0.089152247 0.094670758 0.29800001 4282587151
0.09174706 0.094353072 0.29700002 4287924860
0.092711717 0.094353072 0.29700002 4286612857
0.093676366 0.094353072 0.29700002 4286613629
0.094322361 0.09403538 0.296 4286481789
0.095283769 0.09403538 0.296 4287202432
0.096570343 0.094353072 0.29700002 4281867291
0.097534999 0.094353072 0.29700002 4282520590
0.086537972 0.095959924 0.29900002 4286482043
0.087509118 0.095959924 0.29900002 4283847502
0.088480271 0.095959924 0.29900002 4282588697
0.089152247 0.095638983 0.29800001 4282783760
0.09174706 0.095318049 0.29700002 4286210646
0.092711717 0.095318049 0.29700002 4286677878
0.093676366 0.095318049 0.29700002 4286416763
0.094641022 0.095318049 0.29700002 4286350716
0.095283769 0.094997108 0.296 4286481019
0.096245185 0.094997108 0.296 4281344542
0.097534999 0.095318049 0.29700002 4282323981
0.086537972 0.096931405 0.29900002 4286481789
0.087509118 0.096931405 0.29900002 4283715403
0.088480271 0.096931405 0.29900002 4282850586
0.089152247 0.096607216 0.29800001 4282980114
0.09174706 0.096283033 0.29700002 4285410855
0.092711717 0.096283033 0.29700002 4287324764
0.093676366 0.096283033 0.29700002 4286677882
0.094641022 0.096283033 0.29700002 4286350716
0.095283769 0.095958844 0.296 4286284923
0.096245185 0.095958844 0.296 4284965983
0.097206593 0.095958844 0.296 4282520078
0.085852988 0.098230325 0.30000001 4286351486
0.086537972 0.097902894 0.29900002 4286350716
0.085852988 0.099205054 0.30000001 4286351999
0.086537972 0.098874375 0.29900002 4286612607
0.087509118 0.098874375 0.29900002 4282199851
0.085852988 0.10017978 0.30000001 4286615171
0.08682739 0.10017978 0.30000001 4286481789
0.085852988 0.10115451 0.30000001 4286352001
0.08682739 0.10115451 0.30000001 4287073926
0.087509118 0.10081733 0.29900002 4282132775
0.085852988 0.10212924 0.30000001 4286417281
0.08682739 0.10212924 0.30000001 4286876296
0.085852988 0.10310397 0.30000001 4286614660
0.08682739 0.10310397 0.30000001 4286809986
0.086537972 0.10373178 0.29900002 4286613377
0.087509118 0.10373178 0.29900002 4285163364
0.086537972 0.10470325 0.29900002 4286548097
0.087509118 0.10470325 0.29900002 4286548097
0.088480271 0.10470325 0.29900002 4283053100
0.087509118 0.10567474 0.29900002 4286614660
0.088480271 0.10567474 0.29900002 4286810754
0.089152247 0.10628954 0.29800001 4286877062
0.090120159 0.10628954 0.29800001 4285424474
0.10951691 0.081651755 0.30131757 4294967295
0.10951691 0.081651755 0.30131757 4294901760
0.10951691 0.081651755 0.30181757 4294901760
0.10951691 0.081651755 0.30231756 4294901760
0.10951691 0.081651755 0.30281758 4294901760
0.10951691 0.081651755 0.30331758 4294901760
0.10951691 0.081651755 0.30381757 4294901760
0.10951691 0.081651755 0.30431756 4294901760
0.10951691 0.081651755 0.30481759 4294901760
0.10951691 0.081651755 0.30531758 4294901760
0.10951691 0.081651755 0.30581757 4294901760
0.10951691 0.081651755 0.30631757 4294901760
0.10951691 0.081651755 0.30681756 4294901760
0.10951691 0.081651755 0.30731758 4294901760
0.10951691 0.081651755 0.30781758 4294901760
0.10951691 0.081651755 0.30831757 4294901760
0.10951691 0.081651755 0.30881757 4294901760
0.10951691 0.081651755 0.30931759 4294901760
0.10951691 0.081651755 0.30981758 4294901760
0.10951691 0.081651755 0.31031758 4294901760
0.10951691 0.081651755 0.31081757 4294901760
0.10951691 0.081651755 0.31131756 4294901760
0.10951691 0.081651755 0.31181759 4294901760
0.10951691 0.081651755 0.31231758 4294901760
0.10951691 0.081651755 0.31281757 4294901760
0.10951691 0.081651755 0.31331757 4294901760
0.10951691 0.081651755 0.31381756 4294901760
0.10951691 0.081651755 0.31431758 4294901760
0.10951691 0.081651755 0.31481758 4294901760
0.10951691 0.081651755 0.31531757 4294901760
0.10951691 0.081651755 0.31581756 4294901760
0.10951691 0.081651755 0.31631759 4294901760
0.10951691 0.081651755 0.31681758 4294901760
