# .PCD v0.7 - Point Cloud Data file format
VERSION 0.7
FIELDS x y z rgb
SIZE 4 4 4 4
TYPE F F F U
COUNT 1 1 1 1
WIDTH 1018
HEIGHT 1
VIEWPOINT 0 0 0 1 0 0 0
POINTS 1018
DATA ascii
0.044354506 -0.018201815 0.36800003 4280365352
0.045549769 -0.018201815 0.36800003 4280167973
0.046618003 -0.018152352 0.36700001 4280365350
0.047810022 -0.018152352 0.36700001 4281418038
0.048868522 -0.018102892 0.36600003 4281286452
0.049920518 -0.018053429 0.36500001 4281878843
0.051106039 -0.018053429 0.36500001 4281286706
0.052148297 -0.018003969 0.36400002 4281353269
0.053184059 -0.017954506 0.36300001 4282932299
0.054363079 -0.017954506 0.36300001 4280892464
0.055389099 -0.017905045 0.36200002 4280761910
0.1204861 -0.018894276 0.38200003 4279648289
0.12172684 -0.018894276 0.38200003 4279649572
0.12296758 -0.018894276 0.38200003 4279387683
0.12420832 -0.018894276 0.38200003 4279322660
0.12544906 -0.018894276 0.38200003 4279257121
0.12702143 -0.018943736 0.38300002 4279257121
0.12826541 -0.018943736 0.38300002 4279126047
0.1295094 -0.018943736 0.38300002 4279126047
0.13109477 -0.018993197 0.384 4278995744
0.13234201 -0.018993197 0.384 4279127328
0.13358924 -0.018993197 0.384 4279193121
0.13483648 -0.018993197 0.384 4279193375
0.13608371 -0.018993197 0.384 4279061537
0.043041959 -0.016959934 0.36700001 4280826155
0.044354506 -0.017006146 0.36800003 4282208324
0.045425989 -0.016959934 0.36700001 4281747773
0.046618003 -0.016959934 0.36700001 4281813820
0.047810022 -0.016959934 0.36700001 4281353269
0.048868522 -0.016913721 0.36600003 4282076220
0.049920518 -0.016867507 0.36500001 4282076220
0.051106039 -0.016867507 0.36500001 4281747255
0.052148297 -0.016821297 0.36400002 4281286704
0.053330574 -0.016821297 0.36400002 4280234016
0.054363079 -0.016775083 0.36300001 4281089325
0.055542104 -0.016775083 0.36300001 4280958770
0.056564875 -0.016728871 0.36200002 4281617472
0.11800463 -0.017653119 0.38200003 4279649059
0.11924537 -0.017653119 0.38200003 4279453217
0.1204861 -0.017653119 0.38200003 4279387935
0.12172684 -0.017653119 0.38200003 4279125533
0.12296758 -0.017653119 0.38200003 4278994461
0.12420832 -0.017653119 0.38200003 4279257633
0.12544906 -0.017653119 0.38200003 4279191840
0.12702143 -0.017699331 0.38300002 4279126049
0.12826541 -0.017699331 0.38300002 4279389734
0.1295094 -0.017699331 0.38300002 4279389734
0.13109477 -0.017745541 0.384 4279060767
0.13234201 -0.017745541 0.384 4279455012
0.03935837 -0.015724549 0.36600003 4281350698
0.04054714 -0.015724549 0.36600003 4281483054
0.041849941 -0.015767513 0.36700001 4281945404
0.043041959 -0.015767513 0.36700001 4282142781
0.044354506 -0.015810477 0.36800003 4281682745
0.045425989 -0.015767513 0.36700001 4281287989
0.046618003 -0.015767513 0.36700001 4281879613
0.047810022 -0.015767513 0.36700001 4281879613
0.048868522 -0.015724549 0.36600003 4282207806
0.050057288 -0.015724549 0.36600003 4282207804
0.051106039 -0.015681585 0.36500001 4281747255
0.052291561 -0.015681585 0.36500001 4280957739
0.053330574 -0.015638623 0.36400002 4281023530
0.05451284 -0.015638623 0.36400002 4280234014
0.055542104 -0.01559566 0.36300001 4280760878
0.056564875 -0.015552697 0.36200002 4281090356
0.11398324 -0.016368998 0.38100001 4279124511
0.11522074 -0.016368998 0.38100001 4279322660
0.11645823 -0.016368998 0.38100001 4279059488
0.11769572 -0.016368998 0.38100001 4279125535
0.11893321 -0.016368998 0.38100001 4278862875
0.12017069 -0.016368998 0.38100001 4279060767
0.12140818 -0.016368998 0.38100001 4279258916
0.12264567 -0.016368998 0.38100001 4279127330
0.12420832 -0.016411962 0.38200003 4279258916
0.12544906 -0.016411962 0.38200003 4279389732
0.12702143 -0.016454924 0.38300002 4279455012
0.036879793 -0.014495664 0.36500001 4280759331
0.043041959 -0.014575092 0.36700001 4280893231
0.044354506 -0.014614807 0.36800003 4280893231
0.045549769 -0.014614807 0.36800003 4280893231
0.046745032 -0.014614807 0.36800003 4281287476
0.047810022 -0.014575092 0.36700001 4281748027
0.04900204 -0.014575092 0.36700001 4281616441
0.050057288 -0.014535379 0.36600003 4281944634
0.051246058 -0.014535379 0.36600003 4281352495
0.052291561 -0.014495664 0.36500001 4280628772
0.053477082 -0.014495664 0.36500001 4281089323
0.05451284 -0.01445595 0.36400002 4282340160
0.055695117 -0.01445595 0.36400002 4279576088
0.10751288 -0.015091376 0.38000003 4279649572
0.10874712 -0.015091376 0.38000003 4279452193
0.10998137 -0.015091376 0.38000003 4279321377
0.1112156 -0.015091376 0.38000003 4279189791
0.11244984 -0.015091376 0.38000003 4278993179
0.11368408 -0.015091376 0.38000003 4279125535
0.11491832 -0.015091376 0.38000003 4279126049
0.11645823 -0.01513109 0.38100001 4279126562
0.11769572 -0.01513109 0.38100001 4279193125
0.11893321 -0.01513109 0.38100001 4279916846
0.12017069 -0.01513109 0.38100001 4279784488
0.12140818 -0.01513109 0.38100001 4279389730
0.12264567 -0.01513109 0.38100001 4279323937
0.1286003 -0.015250232 0.384 4279847205
0.12984754 -0.015250232 0.384 4279451934
0.033323228 -0.01330974 0.36500001 4283062601
0.038065314 -0.01330974 0.36500001 4282536005
0.03935837 -0.013346206 0.36600003 4281484601
0.04054714 -0.013346206 0.36600003 4280299043
0.043041959 -0.01338267 0.36700001 4280695085
0.044354506 -0.013419136 0.36800003 4280958770
0.045549769 -0.013419136 0.36800003 4280959024
0.046745032 -0.013419136 0.36800003 4281616441
0.047940299 -0.013419136 0.36800003 4281682234
0.049135566 -0.013419136 0.36800003 4281549876
0.050194055 -0.01338267 0.36700001 4281352495
0.051386073 -0.01338267 0.36700001 4280694565
0.052434828 -0.013346206 0.36600003 4280891944
0.053623598 -0.013346206 0.36600003 4281353265
0.0546626 -0.01330974 0.36500001 4282077501
0.055848122 -0.01330974 0.36500001 4282207806
0.10326378 -0.013783786 0.37800002 4279385887
0.10449153 -0.013783786 0.37800002 4279320861
0.10571928 -0.013783786 0.37800002 4279190045
0.10694702 -0.013783786 0.37800002 4278928156
0.10817477 -0.013783786 0.37800002 4278928156
0.10940251 -0.013783786 0.37800002 4279257119
0.11092292 -0.013820251 0.37900001 4279388705
0.11215391 -0.013820251 0.37900001 4279257119
0.11338491 -0.013820251 0.37900001 4279455010
0.11491832 -0.013856716 0.38000003 4279719465
0.11615257 -0.013856716 0.38000003 4279193121
0.11738681 -0.013856716 0.38000003 4279193123
0.11862105 -0.013856716 0.38000003 4279389730
0.033323228 -0.012123819 0.36500001 4282404673
0.036879793 -0.012123819 0.36500001 4282536257
0.038065314 -0.012123819 0.36500001 4283590231
0.03935837 -0.012157035 0.36600003 4280431915
0.043041959 -0.012190251 0.36700001 4280431143
0.044354506 -0.012223467 0.36800003 4281155890
0.045549769 -0.012223467 0.36800003 4281616441
0.046745032 -0.012223467 0.36800003 4281748027
0.047940299 -0.012223467 0.36800003 4281813820
0.049135566 -0.012223467 0.36800003 4281484851
0.050330825 -0.012223467 0.36800003 4281023530
0.051526092 -0.012223467 0.36800003 4280497186
0.052578092 -0.012190251 0.36700001 4281286442
0.05377011 -0.012190251 0.36700001 4281550128
0.054812364 -0.012157035 0.36600003 4281879093
0.056001134 -0.012157035 0.36600003 4281813046
0.057189904 -0.012157035 0.36600003 4282667841
0.058059659 -0.012090603 0.36400002 4280036637
0.059079178 -0.012057386 0.36300001 4280236071
0.060092207 -0.012024171 0.36200002 4279581219
0.061267979 -0.012024171 0.36200002 4279450146
0.062271263 -0.011990955 0.36100003 4285895292
0.063443795 -0.011990955 0.36100003 4285368436
0.10027492 -0.012489194 0.37600002 4279255586
0.10149617 -0.012489194 0.37600002 4279059742
0.10271741 -0.012489194 0.37600002 4278862363
0.10421509 -0.01252241 0.377 4278862877
0.10543959 -0.01252241 0.377 4278665498
0.10666409 -0.01252241 0.377 4278797597
0.10788859 -0.01252241 0.377 4279521318
0.10911308 -0.01252241 0.377 4279850283
0.11063025 -0.012555626 0.37800002 4279258146
0.111858 -0.012555626 0.37800002 4279126560
0.11338491 -0.012588842 0.37900001 4279389732
0.1146159 -0.012588842 0.37900001 4279783977
0.026281916 -0.010967864 0.36600003 4279246094
0.027395627 -0.010937897 0.36500001 4282009400
0.030952191 -0.010937897 0.36500001 4282339140
0.032137711 -0.010937897 0.36500001 4282274884
0.033323228 -0.010937897 0.36500001 4284709223
0.03450875 -0.010937897 0.36500001 4288330666
0.038065314 -0.010937897 0.36500001 4282404419
0.039250832 -0.010937897 0.36500001 4283063633
0.04054714 -0.010967864 0.36600003 4282406470
0.04173591 -0.010967864 0.36600003 4282340677
0.043041959 -0.01099783 0.36700001 4282406470
0.044233974 -0.01099783 0.36700001 4280695598
0.045549769 -0.011027797 0.36800003 4281681980
0.046745032 -0.011027797 0.36800003 4281813820
0.048070569 -0.011057764 0.36900002 4281813820
0.049269084 -0.011057764 0.36900002 4281286702
0.050467592 -0.011057764 0.36900002 4280826151
0.051526092 -0.011027797 0.36800003 4281285929
0.052721359 -0.011027797 0.36800003 4281549101
0.05377011 -0.01099783 0.36700001 4281418028
0.054962121 -0.01099783 0.36700001 4281879093
0.056001134 -0.010967864 0.36600003 4281550128
0.057189904 -0.010967864 0.36600003 4281813300
0.058059659 -0.01090793 0.36400002 4282207290
0.059079178 -0.010877962 0.36300001 4280234014
0.060092207 -0.010847996 0.36200002 4279251484
0.061267979 -0.010847996 0.36200002 4279515937
0.062271263 -0.01081803 0.36100003 4281356858
0.063443795 -0.01081803 0.36100003 4285237366
0.06443733 -0.010788063 0.36000001 4285368436
0.094628833 -0.011177632 0.37300003 4279189021
0.096097283 -0.011207598 0.37400001 4278992412
0.097572237 -0.011237565 0.37500003 4279058459
0.098790236 -0.011237565 0.37500003 4278993179
0.10000824 -0.011237565 0.37500003 4278862363
0.10122624 -0.011237565 0.37500003 4278796568
0.10244423 -0.011237565 0.37500003 4279059740
0.10393866 -0.011267532 0.37600002 4279652902
0.10515992 -0.011267532 0.37600002 4279652902
0.10638116 -0.011267532 0.37600002 4279390500
0.10760242 -0.011267532 0.37600002 4279061537
0.10882366 -0.011267532 0.37600002 4279586598
0.11033757 -0.011297498 0.377 4279980842
0.11156207 -0.011297498 0.377 4279980074
0.025161708 -0.0098054102 0.36700001 4282405183
0.028581148 -0.0097519746 0.36500001 4279376145
0.029766668 -0.0097519746 0.36500001 4282075454
0.030952191 -0.0097519746 0.36500001 4281747773
0.032049663 -0.0097252568 0.36400002 4282406988
0.034414209 -0.0097252568 0.36400002 4280235049
0.035596479 -0.0097252568 0.36400002 4282011458
0.036778755 -0.0097252568 0.36400002 4281615417
0.038065314 -0.0097519746 0.36500001 4282274884
0.039250832 -0.0097519746 0.36500001 4282078534
0.04054714 -0.0097786924 0.36600003 4281881155
0.04173591 -0.0097786924 0.36600003 4281946948
0.043041959 -0.0098054102 0.36700001 4281683776
0.044233974 -0.0098054102 0.36700001 4281617985
0.045549769 -0.009832128 0.36800003 4280827703
0.046872053 -0.0098588457 0.36900002 4281090358
0.048070569 -0.0098588457 0.36900002 4280892977
0.049269084 -0.0098588457 0.36900002 4280695337
0.050467592 -0.0098588457 0.36900002 4280694565
0.051666107 -0.0098588457 0.36900002 4281418288
0.052721359 -0.009832128 0.36800003 4281155370
0.053916626 -0.009832128 0.36800003 4281286956
0.054962121 -0.0098054102 0.36700001 4281484081
0.056001134 -0.0097786924 0.36600003 4281615667
0.057189904 -0.0097786924 0.36600003 4281944632
0.058059659 -0.0097252568 0.36400002 4282207804
0.059079178 -0.009698539 0.36300001 4281220395
0.060092207 -0.0096718213 0.36200002 4279447578
0.061267979 -0.0096718213 0.36200002 4278858007
0.062271263 -0.0096451044 0.36100003 4279252765
0.063443795 -0.0096451044 0.36100003 4283068250
0.064616323 -0.0096451044 0.36100003 4285303157
0.065606602 -0.0096183857 0.36000001 4285236850
0.091711424 -0.0099122813 0.37100002 4279056922
0.093166873 -0.0099389981 0.37200001 4278992412
0.094628833 -0.0099657169 0.37300003 4278860826
0.096097283 -0.0099924337 0.37400001 4278927386
0.097312033 -0.0099924337 0.37400001 4279058972
0.098526791 -0.0099924337 0.37400001 4278928156
0.10000824 -0.010019152 0.37500003 4278994463
0.10122624 -0.010019152 0.37500003 4279126049
0.10244423 -0.010019152 0.37500003 4279191842
0.10366224 -0.010019152 0.37500003 4279389219
0.10488024 -0.010019152 0.37500003 4279718184
0.10609824 -0.010019152 0.37500003 4279980842
0.020504778 -0.0086599262 0.36900002 4282010163
0.021703292 -0.0086599262 0.36900002 4283655252
0.022901803 -0.0086599262 0.36900002 4283459154
0.024035003 -0.0086364578 0.36800003 4282735431
0.027470684 -0.0085895211 0.36600003 4279376912
0.03086739 -0.0085425833 0.36400002 4280233764
0.033231933 -0.0085425833 0.36400002 4282539085
0.034414209 -0.0085425833 0.36400002 4282078788
0.035596479 -0.0085425833 0.36400002 4282473546
0.036778755 -0.0085425833 0.36400002 4281681980
0.038065314 -0.0085660517 0.36500001 4282076738
0.039250832 -0.0085660517 0.36500001 4282078023
0.040436354 -0.0085660517 0.36500001 4281946437
0.04173591 -0.0085895211 0.36600003 4282011458
0.043041959 -0.0086129894 0.36700001 4282077251
0.044233974 -0.0086129894 0.36700001 4281420606
0.045549769 -0.0086364578 0.36800003 4280038187
0.046872053 -0.0086599262 0.36900002 4280761912
0.048070569 -0.0086599262 0.36900002 4280761912
0.049269084 -0.0086599262 0.36900002 4280761912
0.050467592 -0.0086599262 0.36900002 4280629807
0.051666107 -0.0086599262 0.36900002 4280959020
0.052864619 -0.0086599262 0.36900002 4281024300
0.054063134 -0.0086599262 0.36900002 4280958507
0.055261642 -0.0086599262 0.36900002 4281024302
0.056460157 -0.0086599262 0.36900002 4281156401
0.057658672 -0.0086599262 0.36900002 4281419573
0.058059659 -0.0085425833 0.36400002 4281748023
0.058916427 -0.0084956456 0.36200002 4282208574
0.060092207 -0.0084956456 0.36200002 4278658316
0.061267979 -0.0084956456 0.36200002 4278922771
0.062443756 -0.0084956456 0.36200002 4278858261
0.063443795 -0.0084721772 0.36100003 4279515939
0.064616323 -0.0084721772 0.36100003 4284646512
0.06578885 -0.0084721772 0.36100003 4285171571
0.084993504 -0.0086364578 0.36800003 4278990361
0.086422972 -0.0086599262 0.36900002 4279121945
0.087858938 -0.0086833946 0.37 4279121945
0.089060701 -0.0086833946 0.37 4278991129
0.090506412 -0.008706864 0.37100002 4278991642
0.091711424 -0.008706864 0.37100002 4279189275
0.093166873 -0.0087303324 0.37200001 4278861080
0.094628833 -0.0087538008 0.37300003 4279256351
0.098526791 -0.0087772692 0.37400001 4279059742
0.099741548 -0.0087772692 0.37400001 4279125535
0.1009563 -0.0087772692 0.37400001 4279718186
0.10244423 -0.0088007385 0.37500003 4280047151
0.10366224 -0.0088007385 0.37500003 4280243762
0.019358585 -0.0074812272 0.37 4281087517
0.020504778 -0.0074610082 0.36900002 4282208058
0.021762107 -0.0074812272 0.37 4283064396
0.022901803 -0.0074610082 0.36900002 4282405955
0.024035003 -0.0074407887 0.36800003 4281682230
0.027470684 -0.0074003497 0.36600003 4282404669
0.028581148 -0.0073801298 0.36500001 4282076218
0.029766668 -0.0073801298 0.36500001 4278720527
0.03086739 -0.0073599103 0.36400002 4281484350
0.032049663 -0.0073599103 0.36400002 4282736978
0.033231933 -0.0073599103 0.36400002 4282606162
0.034414209 -0.0073599103 0.36400002 4282343242
0.035596479 -0.0073599103 0.36400002 4282276681
0.036778755 -0.0073599103 0.36400002 4285302130
0.038065314 -0.0073801298 0.36500001 4282735435
0.039250832 -0.0073801298 0.36500001 4283919457
0.040436354 -0.0073801298 0.36500001 4283591262
0.04173591 -0.0074003497 0.36600003 4282537802
0.043041959 -0.0074205687 0.36700001 4280957487
0.044233974 -0.0074205687 0.36700001 4280366122
0.045425989 -0.0074205687 0.36700001 4280169003
0.046872053 -0.0074610082 0.36900002 4280565048
0.048070569 -0.0074610082 0.36900002 4280696634
0.049269084 -0.0074610082 0.36900002 4280696634
0.050467592 -0.0074610082 0.36900002 4281091392
0.051666107 -0.0074610082 0.36900002 4280432428
0.052864619 -0.0074610082 0.36900002 4280827184
0.054063134 -0.0074610082 0.36900002 4280893229
0.055261642 -0.0074610082 0.36900002 4280893229
0.056460157 -0.0074610082 0.36900002 4280959022
0.057658672 -0.0074610082 0.36900002 4281156401
0.05885718 -0.0074610082 0.36900002 4281287987
0.058916427 -0.0073194713 0.36200002 4281287985
0.060092207 -0.0073194713 0.36200002 4279645209
0.061437227 -0.0073396903 0.36300001 4278988562
0.062443756 -0.0073194713 0.36200002 4278857746
0.063619532 -0.0073194713 0.36200002 4278529294
0.064795315 -0.0073194713 0.36200002 4279779363
0.065971084 -0.0073194713 0.36200002 4284909680
0.072842374 -0.0074205687 0.36700001 4285631093
0.074034385 -0.0074205687 0.36700001 4285763192
0.075226404 -0.0074205687 0.36700001 4285763192
0.076626651 -0.0074407887 0.36800003 4285697399
0.079017177 -0.0074407887 0.36800003 4279843873
0.080212444 -0.0074407887 0.36800003 4279975711
0.081407711 -0.0074407887 0.36800003 4279318551
0.08260297 -0.0074407887 0.36800003 4279318810
0.083798237 -0.0074407887 0.36800003 4279319324
0.085224465 -0.0074610082 0.36900002 4278465298
0.086422972 -0.0074610082 0.36900002 4278860056
0.087858938 -0.0074812272 0.37 4278926103
0.089060701 -0.0074812272 0.37 4279123482
0.090506412 -0.0075014471 0.37100002 4279124252
0.09195862 -0.0075216666 0.37200001 4279256351
0.094628833 -0.0075418861 0.37300003 4279256351
0.096097283 -0.0075621055 0.37400001 4280045867
0.097312033 -0.0075621055 0.37400001 4280045867
0.098526791 -0.0075621055 0.37400001 4279979820
0.10244423 -0.0075823255 0.37500003 4279913514
0.027470684 -0.0062111774 0.36600003 4282274621
0.030952191 -0.0061942069 0.36500001 4282538834
0.032049663 -0.0061772368 0.36400002 4282473808
0.033231933 -0.0061772368 0.36400002 4282671955
0.034414209 -0.0061772368 0.36400002 4282211658
0.035596479 -0.0061772368 0.36400002 4282211658
0.036778755 -0.0061772368 0.36400002 4281222196
0.038065314 -0.0061942069 0.36500001 4281747257
0.039250832 -0.0061942069 0.36500001 4282405187
0.040436354 -0.0061942069 0.36500001 4282010429
0.04173591 -0.0062111774 0.36600003 4282471750
0.043041959 -0.006228148 0.36700001 4282735435
0.044233974 -0.006228148 0.36700001 4282735435
0.045425989 -0.006228148 0.36700001 4282077251
0.046872053 -0.0062620887 0.36900002 4280696634
0.048070569 -0.0062620887 0.36900002 4280564794
0.049269084 -0.0062620887 0.36900002 4280630587
0.050467592 -0.0062620887 0.36900002 4280630587
0.051666107 -0.0062620887 0.36900002 4281091392
0.052864619 -0.0062620887 0.36900002 4280236081
0.054063134 -0.0062620887 0.36900002 4280696368
0.055261642 -0.0062620887 0.36900002 4280696622
0.056460157 -0.0062620887 0.36900002 4280762415
0.057658672 -0.0062620887 0.36900002 4280762415
0.05885718 -0.0062620887 0.36900002 4281025585
0.060055695 -0.0062620887 0.36900002 4281091376
0.061254211 -0.0062620887 0.36900002 4279578902
0.061606478 -0.0061772368 0.36400002 4278922256
0.062616251 -0.0061602662 0.36300001 4278726160
0.063795276 -0.0061602662 0.36300001 4278858259
0.064974301 -0.0061602662 0.36300001 4278858261
0.066153325 -0.0061602662 0.36300001 4279055386
0.067517839 -0.0061772368 0.36400002 4284711022
0.068888851 -0.0061942069 0.36500001 4285566329
0.070074365 -0.0061942069 0.36500001 4285368436
0.071455128 -0.0062111774 0.36600003 4285894778
0.072842374 -0.006228148 0.36700001 4285368436
0.076626651 -0.0062451186 0.36800003 4278922256
0.077821918 -0.0062451186 0.36800003 4279581471
0.079017177 -0.0062451186 0.36800003 4279056152
0.080212444 -0.0062451186 0.36800003 4278530062
0.081407711 -0.0062451186 0.36800003 4278924820
0.08260297 -0.0062451186 0.36800003 4278727441
0.084025949 -0.0062620887 0.36900002 4278924820
0.085224465 -0.0062620887 0.36900002 4278794517
0.086422972 -0.0062620887 0.36900002 4279189275
0.087858938 -0.0062790592 0.37 4279321631
0.089301407 -0.0062960298 0.37100002 4279321377
0.090506412 -0.0062960298 0.37100002 4279190304
0.09195862 -0.0063129999 0.37200001 4279848488
0.093417332 -0.0063299704 0.37300003 4280045867
0.025161708 -0.0050357278 0.36700001 4281350941
0.027470684 -0.0050220066 0.36600003 4283656020
0.029766668 -0.0050082849 0.36500001 4282143816
0.030952191 -0.0050082849 0.36500001 4282539601
0.032049663 -0.0049945638 0.36400002 4282408785
0.033231933 -0.0049945638 0.36400002 4282277199
0.034414209 -0.0049945638 0.36400002 4282210634
0.035596479 -0.0049945638 0.36400002 4281551931
0.036778755 -0.0049945638 0.36400002 4281024300
0.038065314 -0.0050082849 0.36500001 4281089061
0.039250832 -0.0050082849 0.36500001 4280364307
0.040436354 -0.0050082849 0.36500001 4282140205
0.04173591 -0.0050220066 0.36600003 4282798648
0.043041959 -0.0050357278 0.36700001 4281485105
0.044233974 -0.0050357278 0.36700001 4282736203
0.045549769 -0.0050494494 0.36800003 4282209089
0.046872053 -0.0050631706 0.36900002 4280499253
0.048070569 -0.0050631706 0.36900002 4280367929
0.049269084 -0.0050631706 0.36900002 4280499517
0.050467592 -0.0050631706 0.36900002 4280762175
0.051666107 -0.0050631706 0.36900002 4280893759
0.052864619 -0.0050631706 0.36900002 4280630841
0.054063134 -0.0050631706 0.36900002 4280498991
0.055261642 -0.0050631706 0.36900002 4280564782
0.056460157 -0.0050631706 0.36900002 4280761391
0.058283698 -0.0051180557 0.37300003 4280893231
0.05885718 -0.0050631706 0.36900002 4280893229
0.059892945 -0.0050494494 0.36800003 4280037918
0.060922209 -0.0050357278 0.36700001 4279578904
0.061775722 -0.0050082849 0.36500001 4279184658
0.062961243 -0.0050082849 0.36500001 4278856976
0.063971028 -0.0049945638 0.36400002 4278923539
0.065153301 -0.0049945638 0.36400002 4278857746
0.066335566 -0.0049945638 0.36400002 4278923539
0.067703329 -0.0050082849 0.36500001 4279318045
0.068888851 -0.0050082849 0.36500001 4279975205
0.070266359 -0.0050220066 0.36600003 4279777313
0.071455128 -0.0050220066 0.36600003 4279513371
0.072842374 -0.0050357278 0.36700001 4279317529
0.074034385 -0.0050357278 0.36700001 4279581471
0.075431384 -0.0050494494 0.36800003 4279187226
0.076626651 -0.0050494494 0.36800003 4279055638
0.077821918 -0.0050494494 0.36800003 4278924566
0.079017177 -0.0050494494 0.36800003 4278596371
0.080212444 -0.0050494494 0.36800003 4278859543
0.081628926 -0.0050631706 0.36900002 4278991129
0.082827434 -0.0050631706 0.36900002 4279254555
0.084025949 -0.0050631706 0.36900002 4279320861
0.085224465 -0.0050631706 0.36900002 4279320861
0.086657174 -0.0050768917 0.37 4279255838
0.089301407 -0.0050906129 0.37100002 4279979307
0.090750366 -0.0051043341 0.37200001 4280307502
0.09195862 -0.0051043341 0.37200001 4280372782
0.093417332 -0.0051180557 0.37300003 4280437291
0.025161708 -0.003843307 0.36700001 4281350941
0.026281916 -0.003832835 0.36600003 4281350941
0.029766668 -0.0038223625 0.36500001 4281419321
0.030952191 -0.0038223625 0.36500001 4282802771
0.032137711 -0.0038223625 0.36500001 4282540371
0.033231933 -0.0038118905 0.36400002 4281290304
0.034414209 -0.0038118905 0.36400002 4282010427
0.035596479 -0.0038118905 0.36400002 4280759583
0.036879793 -0.0038223625 0.36500001 4281284896
0.038065314 -0.0038223625 0.36500001 4281548066
0.039250832 -0.0038223625 0.36500001 4281283608
0.040436354 -0.0038223625 0.36500001 4281941790
0.04173591 -0.003832835 0.36600003 4280824595
0.043041959 -0.003843307 0.36700001 4282932803
0.044233974 -0.003843307 0.36700001 4282209857
0.045549769 -0.0038537795 0.36800003 4280826925
0.046872053 -0.0038642515 0.36900002 4280367154
0.048070569 -0.0038642515 0.36900002 4280433460
0.049269084 -0.0038642515 0.36900002 4280433976
0.050467592 -0.0038642515 0.36900002 4280565308
0.051666107 -0.0038642515 0.36900002 4280565308
0.052864619 -0.0038642515 0.36900002 4280762687
0.054063134 -0.0038642515 0.36900002 4280498991
0.056759246 -0.0039689736 0.37900001 4280300840
0.057990242 -0.0039689736 0.37900001 4280827184
0.058283698 -0.0039061406 0.37300003 4280827184
0.059176192 -0.0038851961 0.37100002 4280761645
0.060218446 -0.0038747236 0.37 4279446551
0.061088212 -0.0038537795 0.36800003 4279514141
0.06211422 -0.003843307 0.36700001 4279382809
0.063133746 -0.003832835 0.36600003 4278726160
0.064322516 -0.003832835 0.36600003 4278791953
0.065332286 -0.0038223625 0.36500001 4279055638
0.066517808 -0.0038223625 0.36500001 4279581982
0.067888819 -0.003832835 0.36600003 4278660880
0.069077589 -0.003832835 0.36600003 4279055125
0.070266359 -0.003832835 0.36600003 4278857746
0.071650356 -0.003843307 0.36700001 4278791953
0.072842374 -0.003843307 0.36700001 4278726162
0.074236117 -0.0038537795 0.36800003 4278792468
0.075431384 -0.0038537795 0.36800003 4278792466
0.076626651 -0.0038537795 0.36800003 4278792466
0.078033388 -0.0038642515 0.36900002 4278529808
0.079231896 -0.0038642515 0.36900002 4279385887
0.080430411 -0.0038642515 0.36900002 4279254814
0.081628926 -0.0038642515 0.36900002 4279254814
0.082827434 -0.0038642515 0.36900002 4279452447
0.084025949 -0.0038642515 0.36900002 4279781412
0.085455418 -0.0038747236 0.37 4280438829
0.086657174 -0.0038747236 0.37 4280241196
0.089542113 -0.0038956681 0.37200001 4280175403
0.090750366 -0.0038956681 0.37200001 4279251223
0.026281916 -0.0026436637 0.36600003 4281219101
0.027470684 -0.0026436637 0.36600003 4281284894
0.028581148 -0.0026364403 0.36500001 4281153823
0.029766668 -0.0026364403 0.36500001 4282735431
0.030952191 -0.0026364403 0.36500001 4282867787
0.032137711 -0.0026364403 0.36500001 4282077251
0.033323228 -0.0026364403 0.36500001 4282669127
0.03450875 -0.0026364403 0.36500001 4281086749
0.035694271 -0.0026364403 0.36500001 4281151513
0.036879793 -0.0026364403 0.36500001 4281217304
0.038065314 -0.0026364403 0.36500001 4280625421
0.039250832 -0.0026364403 0.36500001 4282006302
0.040436354 -0.0026364403 0.36500001 4282467623
0.04173591 -0.0026436637 0.36600003 4282534443
0.043041959 -0.0026508868 0.36700001 4282734138
0.044233974 -0.0026508868 0.36700001 4280893229
0.045549769 -0.0026581099 0.36800003 4280563753
0.046872053 -0.002665333 0.36900002 4280432177
0.048070569 -0.002665333 0.36900002 4280367154
0.049269084 -0.002665333 0.36900002 4280368181
0.050467592 -0.002665333 0.36900002 4280368183
0.051666107 -0.002665333 0.36900002 4280499515
0.052864619 -0.002665333 0.36900002 4280631101
0.0559678 -0.0027592336 0.38200003 4280894013
0.056759246 -0.002737564 0.37900001 4280104233
0.057837237 -0.0027303412 0.37800002 4280695598
0.058439955 -0.0027014485 0.37400001 4280432426
0.059335694 -0.0026870023 0.37200001 4278920211
0.0603812 -0.0026797792 0.37100002 4279315478
0.06142021 -0.0026725559 0.37 4279382555
0.062283471 -0.0026581099 0.36800003 4279383322
0.063478738 -0.0026581099 0.36800003 4279120918
0.064498261 -0.0026508868 0.36700001 4278594574
0.065690279 -0.0026508868 0.36700001 4278727187
0.06688229 -0.0026508868 0.36700001 4278200842
0.068074308 -0.0026508868 0.36700001 4279780899
0.069266327 -0.0026508868 0.36700001 4278661648
0.070458338 -0.0026508868 0.36700001 4278989845
0.071845591 -0.0026581099 0.36800003 4278924566
0.073040858 -0.0026581099 0.36800003 4278858773
0.074236117 -0.0026581099 0.36800003 4278793752
0.075431384 -0.0026581099 0.36800003 4278859543
0.076834872 -0.002665333 0.36900002 4279385887
0.078033388 -0.002665333 0.36900002 4279320094
0.079231896 -0.002665333 0.36900002 4279188508
0.080430411 -0.002665333 0.36900002 4279714852
0.081628926 -0.002665333 0.36900002 4279978024
0.083051898 -0.0026725559 0.37 4279978024
0.084253661 -0.0026725559 0.37 4280700977
0.085455418 -0.0026725559 0.37 4280174119
0.026281916 -0.0014544923 0.36600003 4281350689
0.027470684 -0.0014544923 0.36600003 4281087515
0.028581148 -0.0014505181 0.36500001 4281284894
0.029766668 -0.0014505181 0.36500001 4280564003
0.030952191 -0.0014505181 0.36500001 4283394385
0.032137711 -0.0014505181 0.36500001 4283129930
0.03450875 -0.0014505181 0.36500001 4282600238
0.035694271 -0.0014505181 0.36500001 4281743902
0.036879793 -0.0014505181 0.36500001 4282599209
0.038065314 -0.0014505181 0.36500001 4282665002
0.039250832 -0.0014505181 0.36500001 4282467623
0.040436354 -0.0014505181 0.36500001 4282533416
0.04173591 -0.0014544923 0.36600003 4282403892
0.043041959 -0.0014584663 0.36700001 4284247893
0.044233974 -0.0014584663 0.36700001 4280103200
0.045549769 -0.0014624404 0.36800003 4280628776
0.046872053 -0.0014664143 0.36900002 4280235049
0.048070569 -0.0014664143 0.36900002 4280300842
0.049269084 -0.0014664143 0.36900002 4280301361
0.050467592 -0.0014664143 0.36900002 4280236083
0.051666107 -0.0014664143 0.36900002 4280630841
0.052864619 -0.0014664143 0.36900002 4280696634
0.0559678 -0.0015180766 0.38200003 4280631355
0.05690901 -0.0015101286 0.38000003 4279643944
0.057837237 -0.0015021805 0.37800002 4279774496
0.05875247 -0.0014942324 0.37600002 4279248152
0.059654702 -0.0014862844 0.37400001 4279183894
0.060706709 -0.0014823105 0.37300003 4279184406
0.061586212 -0.0014743623 0.37100002 4279448602
0.062621966 -0.0014703883 0.37 4279448602
0.063651234 -0.0014664143 0.36900002 4279646492
0.064849749 -0.0014664143 0.36900002 4279647262
0.065869272 -0.0014624404 0.36800003 4279385117
0.067064531 -0.0014624404 0.36800003 4279056152
0.068259798 -0.0014624404 0.36800003 4278596371
0.069455065 -0.0014624404 0.36800003 4278859797
0.070650324 -0.0014624404 0.36800003 4278990613
0.071845591 -0.0014624404 0.36800003 4278924566
0.073040858 -0.0014624404 0.36800003 4278925336
0.074437842 -0.0014664143 0.36900002 4278793750
0.075636357 -0.0014664143 0.36900002 4279254301
0.076834872 -0.0014664143 0.36900002 4279714852
0.078033388 -0.0014664143 0.36900002 4280241196
0.079446614 -0.0014703883 0.37 4280372782
0.080648378 -0.0014703883 0.37 4280372012
0.081850141 -0.0014703883 0.37 4280306219
0.027395627 -0.00026459587 0.36500001 4280824347
0.028581148 -0.00026459587 0.36500001 4280955933
0.030952191 -0.00026459587 0.36500001 4283985239
0.032137711 -0.00026459587 0.36500001 4283064137
0.033323228 -0.00026459587 0.36500001 4282866758
0.03450875 -0.00026459587 0.36500001 4282864439
0.035694271 -0.00026459587 0.36500001 4282864432
0.036879793 -0.00026459587 0.36500001 4282862892
0.038065314 -0.00026459587 0.36500001 4282533673
0.039250832 -0.00026459587 0.36500001 4283258688
0.040436354 -0.00026459587 0.36500001 4284706393
0.04173591 -0.00026532082 0.36600003 4283918676
0.043041959 -0.00026604571 0.36700001 4283722067
0.044233974 -0.00026604571 0.36700001 4281418290
0.045549769 -0.00026677066 0.36800003 4280826155
0.046872053 -0.00026749558 0.36900002 4279905571
0.048070569 -0.00026749558 0.36900002 4280365869
0.049269084 -0.00026749558 0.36900002 4280103984
0.050467592 -0.00026749558 0.36900002 4280169777
0.051666107 -0.00026749558 0.36900002 4280499001
0.052864619 -0.00026749558 0.36900002 4280499515
0.0559678 -0.00027691954 0.38200003 4280565308
0.05705877 -0.00027619459 0.38100001 4280894525
0.057990242 -0.00027474476 0.37900001 4279248922
0.058908723 -0.00027329492 0.377 4279249689
0.059973713 -0.00027257 0.37600002 4279118615
0.060869459 -0.00027112017 0.37400001 4279119383
0.061918214 -0.00027039525 0.37300003 4279316762
0.062960461 -0.00026967033 0.37200001 4279646240
0.063996226 -0.00026894541 0.37100002 4279384092
0.065025486 -0.00026822046 0.37 4279581982
0.06622725 -0.00026822046 0.37 4279451164
0.067246772 -0.00026749558 0.36900002 4279845922
0.068445288 -0.00026749558 0.36900002 4279845922
0.069643795 -0.00026749558 0.36900002 4280306473
0.070842311 -0.00026749558 0.36900002 4280109094
0.072040819 -0.00026749558 0.36900002 4279780129
0.073239334 -0.00026749558 0.36900002 4280108840
0.074437842 -0.00026749558 0.36900002 4280240426
0.075636357 -0.00026749558 0.36900002 4280437805
0.076834872 -0.00026749558 0.36900002 4280503598
0.078244857 -0.00026822046 0.37 4280701231
0.079446614 -0.00026822046 0.37 4280767024
0.030952191 0.00092132646 0.36500001 4283327822
0.032137711 0.00092132646 0.36500001 4283064650
0.033323228 0.00092132646 0.36500001 4282867271
0.03450875 0.00092132646 0.36500001 4282866758
0.035694271 0.00092132646 0.36500001 4282997572
0.036879793 0.00092132646 0.36500001 4284181073
0.038065314 0.00092132646 0.36500001 4284378711
0.039250832 0.00092132646 0.36500001 4284051032
0.040436354 0.00092132646 0.36500001 4284051291
0.04173591 0.00092385069 0.36600003 4283722326
0.043041959 0.00092637481 0.36700001 4283590740
0.044233974 0.00092637481 0.36700001 4284248161
0.045549769 0.00092889904 0.36800003 4280102178
0.046872053 0.00093142322 0.36900002 4280496938
0.048070569 0.00093142322 0.36900002 4280365869
0.049269084 0.00093142322 0.36900002 4280169005
0.050467592 0.00093142322 0.36900002 4280498740
0.051666107 0.00093142322 0.36900002 4280564794
0.052864619 0.00093142322 0.36900002 4280631101
0.056114309 0.00096676173 0.38300002 4280433722
0.05705877 0.00096171338 0.38100001 4280631355
0.058143254 0.0009591892 0.38000003 4280960055
0.059221238 0.00095666497 0.37900001 4279052824
0.060133215 0.00095161662 0.377 4278987799
0.061194964 0.00094909244 0.37600002 4278922004
0.062084213 0.00094404409 0.37400001 4279448861
0.063129716 0.00094151992 0.37300003 4279515424
0.064168721 0.00093899574 0.37200001 4279647264
0.065376982 0.00093899574 0.37200001 4279647775
0.06640625 0.00093647157 0.37100002 4279582496
0.067611255 0.00093647157 0.37100002 4280372012
0.06863077 0.00093394733 0.37 4280372266
0.069832534 0.00093394733 0.37 4280306473
0.07103429 0.00093394733 0.37 4280240680
0.072236054 0.00093394733 0.37 4280240680
0.073437817 0.00093394733 0.37 4280109094
0.074639574 0.00093394733 0.37 4280832303
0.07584133 0.00093394733 0.37 4280832303
0.077043094 0.00093394733 0.37 4280963889
0.078244857 0.00093394733 0.37 4280700463
0.079446614 0.00093394733 0.37 4279778848
0.080648378 0.00093394733 0.37 4281290036
0.030952191 0.0021072486 0.36500001 4280695600
0.032137711 0.0021072486 0.36500001 4280432680
0.033323228 0.0021072486 0.36500001 4284248672
0.03450875 0.0021072486 0.36500001 4284117086
0.035694271 0.0021072486 0.36500001 4284182879
0.036879793 0.0021072486 0.36500001 4284248672
0.038065314 0.0021072486 0.36500001 4284117086
0.039250832 0.0021072486 0.36500001 4283854684
0.040436354 0.0021072486 0.36500001 4283854684
0.04173591 0.0021130221 0.36600003 4283657305
0.043041959 0.0021187954 0.36700001 4283591512
0.044233974 0.0021187954 0.36700001 4283459158
0.045549769 0.0021245687 0.36800003 4280826671
0.046872053 0.0021303419 0.36900002 4280892464
0.048070569 0.0021303419 0.36900002 4280431915
0.049269084 0.0021303419 0.36900002 4280234283
0.050467592 0.0021303419 0.36900002 4280235570
0.051666107 0.0021303419 0.36900002 4280894013
0.052864619 0.0021303419 0.36900002 4280959552
0.056114309 0.0022111679 0.38300002 4280038450
0.057208531 0.0022053947 0.38200003 4280170290
0.058296259 0.0021996212 0.38100001 4280959804
0.059377495 0.0021938481 0.38000003 4279907881
0.060292721 0.0021823014 0.37800002 4279184408
0.061357714 0.0021765281 0.377 4279185691
0.062416214 0.0021707548 0.37600002 4279450398
0.06346821 0.0021649816 0.37500003 4279647777
0.064513713 0.0021592083 0.37400001 4279713570
0.065552726 0.002153435 0.37300003 4279648289
0.066764235 0.002153435 0.37300003 4280043049
0.067793489 0.0021476618 0.37200001 4280372014
0.06881626 0.0021418885 0.37100002 4280372012
0.070021272 0.0021418885 0.37100002 4280240426
0.071226276 0.0021418885 0.37100002 4280438059
0.072431289 0.0021418885 0.37100002 4280569645
0.073437817 0.0021361152 0.37 4280767024
0.074639574 0.0021361152 0.37 4280767024
0.07584133 0.0021361152 0.37 4281094962
0.077043094 0.0021361152 0.37 4281028915
0.078244857 0.0021361152 0.37 4281159479
0.056114309 0.0034555739 0.38300002 4280038191
0.057208531 0.0034465517 0.38200003 4280498742
0.058296259 0.0034375291 0.38100001 4280565046
0.059377495 0.0034285069 0.38000003 4280894011
0.060452227 0.0034194842 0.37900001 4279644961
0.061520468 0.0034104621 0.37800002 4279514654
0.06258221 0.0034014394 0.377 4279647775
0.063637458 0.0033924172 0.37600002 4279713568
0.064686216 0.003383395 0.37500003 4279516703
0.065728471 0.0033743724 0.37400001 4279978024
0.066943221 0.0033743724 0.37400001 4280570161
0.067975737 0.0033653502 0.37300003 4279780645
0.069001749 0.0033563275 0.37200001 4280109612
0.07021001 0.0033563275 0.37200001 4280241196
0.071226276 0.0033473053 0.37100002 4280438575
0.072431289 0.0033473053 0.37100002 4280701747
0.073636301 0.0033473053 0.37100002 4280832563
0.074841306 0.0033473053 0.37100002 4281227321
0.07584133 0.0033382827 0.37 4281094710
0.077251323 0.0033473053 0.37100002 4281357112
0.058296259 0.0046754372 0.38100001 4280696634
0.059377495 0.0046631657 0.38000003 4280959806
0.060452227 0.0046508941 0.37900001 4280762937
0.061520468 0.004638623 0.37800002 4279975209
0.06258221 0.0046263509 0.377 4279713570
0.063637458 0.0046140798 0.37600002 4279779363
0.064686216 0.0046018083 0.37500003 4279779877
0.065904215 0.0046018083 0.37500003 4280437807
0.066943221 0.0045895367 0.37400001 4280306991
0.068157971 0.0045895367 0.37400001 4280109612
0.069187239 0.0045772656 0.37300003 4280570163
0.07021001 0.0045649935 0.37200001 4280832565
0.071418263 0.0045649935 0.37200001 4280832565
0.072431289 0.0045527224 0.37100002 4281029176
0.073636301 0.0045527224 0.37100002 4281554491
0.067122221 0.0058202217 0.37500003 4280306737
0.068157971 0.0058047008 0.37400001 4280569909
0.064408645 -0.0073415572 0.36978367 4294967295
0.064408645 -0.0073415572 0.36978367 4294901760
0.064364694 -0.007839621 0.36978331 4294901760
0.064320736 -0.0083376858 0.36978295 4294901760
0.064276785 -0.0088357497 0.3697826 4294901760
0.064232834 -0.0093338136 0.36978224 4294901760
0.064188875 -0.0098318784 0.36978191 4294901760
0.064144924 -0.010329942 0.36978155 4294901760
0.064100973 -0.010828007 0.3697812 4294901760
0.064057022 -0.011326071 0.36978084 4294901760
0.064013064 -0.011824136 0.36978048 4294901760
0.063969113 -0.0123222 0.36978012 4294901760
0.063925162 -0.012820264 0.36977977 4294901760
0.063881204 -0.013318328 0.36977941 4294901760
0.063837253 -0.013816392 0.36977905 4294901760
0.063793302 -0.014314456 0.36977869 4294901760
0.063749343 -0.014812522 0.36977834 4294901760
0.063705392 -0.015310585 0.36977801 4294901760
0.063661441 -0.015808649 0.36977765 4294901760
0.06361749 -0.016306713 0.36977729 4294901760
0.063573532 -0.016804777 0.36977693 4294901760
0.063529581 -0.017302841 0.36977658 4294901760
0.06348563 -0.017800905 0.36977622 4294901760
0.063441671 -0.018298971 0.36977586 4294901760
0.06339772 -0.018797034 0.3697755 4294901760
0.063353769 -0.019295098 0.36977515 4294901760
0.063309811 -0.019793164 0.36977482 4294901760
0.06326586 -0.020291228 0.36977446 4294901760
0.063221909 -0.020789292 0.3697741 4294901760
0.063177951 -0.021287356 0.36977375 4294901760
0.063134 -0.021785419 0.36977339 4294901760
0.063090049 -0.022283485 0.36977303 4294901760
0.063046098 -0.022781549 0.36977267 4294901760
0.063002139 -0.023279611 0.36977232 4294901760
0.062958188 -0.023777679 0.36977196 4294901760
0.062914237 -0.024275742 0.3697716 4294901760
0.062870279 -0.024773806 0.36977124 4294901760
0.062826328 -0.02527187 0.36977091 4294901760
0.062782377 -0.025769934 0.36977056 4294901760
0.062738419 -0.026267998 0.3697702 4294901760
0.062694468 -0.026766062 0.36976984 4294901760
0.062650517 -0.027264126 0.36976948 4294901760
0.062606558 -0.02776219 0.36976913 4294901760
0.062562607 -0.028260253 0.36976877 4294901760
0.062518656 -0.028758321 0.36976841 4294901760
0.062474702 -0.029256385 0.36976805 4294901760
0.062430751 -0.029754449 0.36976773 4294901760
0.062386796 -0.030252513 0.36976737 4294901760
0.062342841 -0.030750576 0.36976701 4294901760
0.06229889 -0.03124864 0.36976665 4294901760
0.062254936 -0.031746704 0.36976629 4294901760
0.062210985 -0.032244768 0.36976594 4294901760
0.06216703 -0.032742832 0.36976558 4294901760
0.062123075 -0.033240896 0.36976522 4294901760
0.062079124 -0.03373896 0.36976486 4294901760
0.062035169 -0.034237027 0.36976451 4294901760
0.061991215 -0.034735091 0.36976415 4294901760
0.061947264 -0.035233155 0.36976382 4294901760
0.061903309 -0.035731219 0.36976346 4294901760
0.061859358 -0.036229283 0.36976311 4294901760
0.061815403 -0.036727346 0.36976275 4294901760
0.061771449 -0.037225414 0.36976239 4294901760
0.061727498 -0.037723478 0.36976203 4294901760
0.061683543 -0.038221542 0.36976168 4294901760
0.061639592 -0.038719602 0.36976132 4294901760
0.061595637 -0.039217666 0.36976096 4294901760
0.061551683 -0.03971573 0.36976063 4294901760
0.061507732 -0.040213797 0.36976027 4294901760
0.061463777 -0.040711861 0.36975992 4294901760
0.061419822 -0.041209925 0.36975956 4294901760
0.061375871 -0.041707989 0.3697592 4294901760
0.061331917 -0.042206053 0.36975884 4294901760
0.061287966 -0.042704117 0.36975849 4294901760
0.061244011 -0.043202184 0.36975813 4294901760
0.061200056 -0.043700248 0.36975777 4294901760
0.061156105 -0.044198312 0.36975741 4294901760
0.061112151 -0.044696376 0.36975706 4294901760
0.0610682 -0.045194436 0.36975673 4294901760
0.061024245 -0.0456925 0.36975637 4294901760
0.06098029 -0.046190564 0.36975601 4294901760
0.060936339 -0.046688631 0.36975566 4294901760
0.060892384 -0.047186695 0.3697553 4294901760
0.060848434 -0.047684759 0.36975494 4294901760
0.060804479 -0.048182823 0.36975458 4294901760
0.060760524 -0.048680887 0.36975423 4294901760
0.060716573 -0.04917895 0.36975387 4294901760
0.060672618 -0.049677018 0.36975354 4294901760
0.060628667 -0.050175082 0.36975318 4294901760
0.060584713 -0.050673146 0.36975282 4294901760
0.060540758 -0.05117121 0.36975247 4294901760
0.060496807 -0.051669274 0.36975211 4294901760
0.060452852 -0.052167337 0.36975175 4294901760
0.060408898 -0.052665401 0.36975139 4294901760
0.060364947 -0.053163465 0.36975104 4294901760
0.060320992 -0.053661529 0.36975068 4294901760
0.060277041 -0.054159593 0.36975032 4294901760
0.060233086 -0.054657657 0.36974996 4294901760
0.060189135 -0.055155721 0.36974964 4294901760
0.060145181 -0.055653788 0.36974928 4294901760
0.060101226 -0.056151852 0.36974892 4294901760
0.060057275 -0.056649916 0.36974856 4294901760
0.06001332 -0.05714798 0.3697482 4294901760
0.064408645 -0.0073415572 0.36978367 4278255360
0.064900041 -0.0073849801 0.36986518 4278255360
0.065391444 -0.0074284035 0.36994666 4278255360
0.065882839 -0.0074718264 0.37002817 4278255360
0.066374242 -0.0075152498 0.37010965 4278255360
0.066865638 -0.0075586727 0.37019116 4278255360
0.067357041 -0.0076020956 0.37027264 4278255360
0.067848437 -0.007645519 0.37035415 4278255360
0.06833984 -0.0076889419 0.37043563 4278255360
0.068831235 -0.0077323653 0.37051713 4278255360
0.069322631 -0.0077757882 0.37059861 4278255360
0.069814034 -0.0078192111 0.37068012 4278255360
0.070305429 -0.007862635 0.37076163 4278255360
0.070796832 -0.0079060579 0.37084311 4278255360
0.071288228 -0.0079494808 0.37092462 4278255360
0.071779631 -0.0079929037 0.3710061 4278255360
0.072271027 -0.0080363266 0.37108761 4278255360
0.07276243 -0.0080797505 0.37116909 4278255360
0.073253825 -0.0081231734 0.3712506 4278255360
0.073745221 -0.0081665963 0.37133208 4278255360
0.074236624 -0.0082100192 0.37141359 4278255360
0.07472802 -0.0082534421 0.3714951 4278255360
0.075219423 -0.008296866 0.37157658 4278255360
0.075710818 -0.0083402889 0.37165809 4278255360
0.076202221 -0.0083837118 0.37173957 4278255360
0.076693617 -0.0084271347 0.37182108 4278255360
0.07718502 -0.0084705576 0.37190256 4278255360
0.077676415 -0.0085139815 0.37198406 4278255360
0.078167818 -0.0085574044 0.37206554 4278255360
0.078659214 -0.0086008273 0.37214705 4278255360
0.079150617 -0.0086442502 0.37222856 4278255360
0.079642013 -0.0086876731 0.37231004 4278255360
0.080133408 -0.008731097 0.37239155 4278255360
0.080624811 -0.0087745199 0.37247303 4278255360
0.081116207 -0.0088179428 0.37255454 4278255360
0.08160761 -0.0088613657 0.37263602 4278255360
0.082099006 -0.0089047896 0.37271753 4278255360
0.082590409 -0.0089482125 0.37279901 4278255360
0.083081804 -0.0089916354 0.37288052 4278255360
0.083573207 -0.0090350583 0.372962 4278255360
0.084064603 -0.0090784812 0.37304351 4278255360
0.084555998 -0.0091219051 0.37312502 4278255360
0.085047401 -0.009165328 0.3732065 4278255360
0.085538805 -0.0092087509 0.37328801 4278255360
0.0860302 -0.0092521738 0.37336949 4278255360
0.086521596 -0.0092955977 0.37345099 4278255360
0.087012999 -0.0093390206 0.37353247 4278255360
0.087504394 -0.0093824435 0.37361398 4278255360
0.087995797 -0.0094258664 0.37369546 4278255360
0.088487193 -0.0094692893 0.37377697 4278255360
0.088978589 -0.0095127132 0.37385845 4278255360
0.089469992 -0.0095561361 0.37393996 4278255360
0.089961387 -0.009599559 0.37402147 4278255360
0.09045279 -0.0096429819 0.37410295 4278255360
0.090944186 -0.0096864048 0.37418446 4278255360
0.091435589 -0.0097298287 0.37426594 4278255360
0.091926984 -0.0097732516 0.37434745 4278255360
0.092418388 -0.0098166745 0.37442893 4278255360
0.092909783 -0.0098600974 0.37451044 4278255360
0.093401179 -0.0099035203 0.37459192 4278255360
0.093892582 -0.0099469442 0.37467343 4278255360
0.094383985 -0.0099903671 0.37475494 4278255360
0.09487538 -0.01003379 0.37483642 4278255360
0.095366776 -0.010077213 0.37491792 4278255360
0.095858172 -0.010120636 0.3749994 4278255360
0.096349575 -0.01016406 0.37508091 4278255360
0.096840978 -0.010207483 0.37516239 4278255360
0.097332373 -0.010250906 0.3752439 4278255360
0.097823769 -0.010294328 0.37532538 4278255360
0.098315172 -0.010337751 0.37540689 4278255360
0.098806575 -0.010381175 0.3754884 4278255360
0.099297971 -0.010424598 0.37556988 4278255360
0.099789366 -0.010468021 0.37565139 4278255360
0.10028077 -0.010511445 0.37573287 4278255360
0.10077217 -0.010554867 0.37581438 4278255360
0.10126357 -0.010598291 0.37589586 4278255360
0.10175496 -0.010641714 0.37597737 4278255360
0.10224636 -0.010685137 0.37605885 4278255360
0.10273776 -0.010728559 0.37614036 4278255360
0.10322917 -0.010771983 0.37622184 4278255360
0.10372056 -0.010815406 0.37630334 4278255360
0.10421196 -0.010858829 0.37638485 4278255360
0.10470336 -0.010902252 0.37646633 4278255360
0.10519475 -0.010945675 0.37654784 4278255360
0.10568616 -0.010989098 0.37662932 4278255360
0.10617755 -0.011032522 0.37671083 4278255360
0.10666896 -0.011075945 0.37679231 4278255360
0.10716035 -0.011119368 0.37687382 4278255360
0.10765176 -0.011162791 0.3769553 4278255360
0.10814315 -0.011206213 0.37703681 4278255360
0.10863455 -0.011249637 0.37711829 4278255360
0.10912595 -0.01129306 0.3771998 4278255360
0.10961735 -0.011336483 0.37728131 4278255360
0.11010875 -0.011379907 0.37736279 4278255360
0.11060014 -0.011423329 0.3774443 4278255360
0.11109154 -0.011466753 0.37752578 4278255360
0.11158294 -0.011510176 0.37760729 4278255360
0.11207435 -0.011553599 0.37768877 4278255360
0.11256574 -0.011597022 0.37777027 4278255360
0.11305714 -0.011640445 0.37785175 4278255360
0.11354854 -0.011683868 0.37793326 4278255360
0.064408645 -0.0073415572 0.36978367 4278190335
0.064314634 -0.0073336102 0.37027469 4278190335
0.064220615 -0.0073256632 0.37076572 4278190335
0.064126603 -0.0073177163 0.37125671 4278190335
0.064032584 -0.0073097697 0.37174773 4278190335
0.063938573 -0.0073018228 0.37223876 4278190335
0.063844554 -0.0072938758 0.37272978 4278190335
0.063750543 -0.0072859288 0.3732208 4278190335
0.063656524 -0.0072779818 0.37371179 4278190335
0.063562512 -0.0072700349 0.37420282 4278190335
0.063468501 -0.0072620879 0.37469384 4278190335
0.063374482 -0.0072541409 0.37518486 4278190335
0.063280471 -0.0072461944 0.37567589 4278190335
0.063186452 -0.0072382474 0.37616691 4278190335
0.06309244 -0.0072303005 0.3766579 4278190335
0.062998421 -0.0072223535 0.37714893 4278190335
0.06290441 -0.0072144065 0.37763995 4278190335
0.062810399 -0.0072064595 0.37813097 4278190335
0.06271638 -0.0071985126 0.378622 4278190335
0.062622368 -0.0071905656 0.37911299 4278190335
0.062528349 -0.0071826191 0.37960401 4278190335
0.062434338 -0.0071746721 0.38009503 4278190335
0.062340323 -0.0071667251 0.38058606 4278190335
0.062246308 -0.0071587781 0.38107708 4278190335
0.062152293 -0.0071508312 0.38156807 4278190335
0.062058277 -0.0071428842 0.3820591 4278190335
0.061964262 -0.0071349372 0.38255012 4278190335
0.061870247 -0.0071269907 0.38304114 4278190335
0.061776232 -0.0071190437 0.38353217 4278190335
0.061682217 -0.0071110968 0.38402316 4278190335
0.061588205 -0.0071031498 0.38451418 4278190335
0.06149419 -0.0070952028 0.38500521 4278190335
0.061400175 -0.0070872558 0.38549623 4278190335
0.06130616 -0.0070793089 0.38598725 4278190335
0.061212145 -0.0070713619 0.38647828 4278190335
0.06111813 -0.0070634154 0.38696927 4278190335
