# .PCD v0.7 - Point Cloud Data file format
VERSION 0.7
FIELDS x y z rgb
SIZE 4 4 4 4
TYPE F F F U
COUNT 1 1 1 1
WIDTH 852
HEIGHT 1
VIEWPOINT 0 0 0 1 0 0 0
POINTS 852
DATA ascii
0.0064378832 0.012325248 0.38800001 4279452193
0.0077179489 0.012357014 0.38900003 4278994463
0.0089814216 0.012357014 0.38900003 4278799650
0.010244895 0.012357014 0.38900003 4279129129
0.011508367 0.012357014 0.38900003 4279129129
0.012804672 0.01238878 0.39000002 4279589680
0.019236421 0.012452313 0.39200002 4279718697
0.020509636 0.012452313 0.39200002 4279851053
0.007698108 0.013585899 0.38800001 4279058718
0.0089814216 0.013620915 0.38900003 4278798113
0.010244895 0.013620915 0.38900003 4278733087
0.011508367 0.013620915 0.38900003 4278208025
0.012804672 0.01365593 0.39000002 4278865955
0.014107473 0.013690946 0.39100003 4279326506
0.015377442 0.013690946 0.39100003 4280641852
0.016647412 0.013690946 0.39100003 4279852588
0.017963205 0.013725961 0.39200002 4279458603
0.019236421 0.013725961 0.39200002 4279590189
0.020561956 0.013760975 0.39300001 4279260713
0.021838421 0.013760975 0.39300001 4278998824
0.023114886 0.013760975 0.39300001 4278933031
0.007698108 0.01484655 0.38800001 4279254816
0.0089583332 0.01484655 0.38800001 4279059488
0.010244895 0.014884816 0.38900003 4278731291
0.011508367 0.014884816 0.38900003 4278600984
0.012804672 0.014923079 0.39000002 4278864669
0.014071392 0.014923079 0.39000002 4278668576
0.015377442 0.014961344 0.39100003 4278734882
0.016647412 0.014961344 0.39100003 4278537501
0.017963205 0.014999609 0.39200002 4278735650
0.019236421 0.014999609 0.39200002 4279130408
0.020561956 0.015037872 0.39300001 4278867236
0.021838421 0.015037872 0.39300001 4278604064
0.023173705 0.015076137 0.39400002 4278538271
0.024453416 0.015076137 0.39400002 4278669857
0.007698108 0.016107202 0.38800001 4279319324
0.0089583332 0.016107202 0.38800001 4279124252
0.010244895 0.016148716 0.38900003 4278533912
0.011508367 0.016148716 0.38900003 4278731287
0.012804672 0.016190229 0.39000002 4278929433
0.014071392 0.016190229 0.39000002 4278733337
0.015377442 0.016231744 0.39100003 4278405142
0.016647412 0.016231744 0.39100003 4278669341
0.017963205 0.016273256 0.39200002 4278734880
0.019236421 0.016273256 0.39200002 4278998052
0.020561956 0.016314769 0.39300001 4278734880
0.021838421 0.016314769 0.39300001 4278602781
0.023173705 0.016356282 0.39400002 4278734367
0.024453416 0.016356282 0.39400002 4278668574
0.02579844 0.016397797 0.39500001 4278734367
0.027081402 0.016397797 0.39500001 4278470165
0.028364362 0.016397797 0.39500001 4278471449
0.007678268 0.017323092 0.38700002 4279450650
0.0089583332 0.017367853 0.38800001 4279190558
0.010218557 0.017367853 0.38800001 4278862363
0.011508367 0.017412616 0.38900003 4279126045
0.012804672 0.017457379 0.39000002 4278863386
0.014071392 0.017457379 0.39000002 4278798363
0.015377442 0.017502142 0.39100003 4278535704
0.016647412 0.017502142 0.39100003 4278602267
0.017963205 0.017546903 0.39200002 4278800160
0.019236421 0.017546903 0.39200002 4278931746
0.020561956 0.017591666 0.39300001 4279129125
0.021893991 0.01763643 0.39400002 4278668574
0.023173705 0.01763643 0.39400002 4278668574
0.024453416 0.01763643 0.39400002 4278668574
0.02579844 0.017681191 0.39500001 4278667290
0.027081402 0.017681191 0.39500001 4279520291
0.028364362 0.017681191 0.39500001 4278731800
0.02972238 0.017725954 0.39600003 4278799900
0.031086894 0.017770715 0.39700001 4278799900
0.032457903 0.01781548 0.39800003 4278864921
0.03392021 0.017905002 0.40000001 4278733335
0.035307456 0.017949766 0.40100002 4278865691
0.036701199 0.017994529 0.40200001 4278602519
0.044305053 0.018442154 0.41200003 4278733337
0.045754012 0.018486917 0.41300002 4278601751
0.048788704 0.018621203 0.41600001 4278733337
0.050260402 0.018665968 0.41700003 4278733337
0.051614817 0.018665968 0.41700003 4278733337
0.063293427 0.019337403 0.43200001 4279063332
0.066558726 0.019471692 0.43500003 4278734369
0.068127863 0.019516453 0.43600002 4279061798
0.007678268 0.018580494 0.38700002 4279515160
0.0089583332 0.018628506 0.38800001 4279124252
0.010218557 0.018628506 0.38800001 4278927386
0.011508367 0.018676519 0.38900003 4278797082
0.01277184 0.018676519 0.38900003 4278797595
0.014071392 0.018724529 0.39000002 4278930462
0.015338113 0.018724529 0.39000002 4278733083
0.016647412 0.018772542 0.39100003 4278865439
0.01791738 0.018772542 0.39100003 4278733853
0.019236421 0.018820552 0.39200002 4278536474
0.020561956 0.018868564 0.39300001 4278865439
0.021838421 0.018868564 0.39300001 4278733853
0.023173705 0.018916577 0.39400002 4278734367
0.024453416 0.018916577 0.39400002 4278931232
0.02579844 0.018964587 0.39500001 4279194404
0.027081402 0.018964587 0.39500001 4278533396
0.028436171 0.0190126 0.39600003 4279192351
0.02972238 0.0190126 0.39600003 4278203403
0.031086894 0.01906061 0.39700001 4278198784
0.032457903 0.019108623 0.39800003 4278198787
0.03392021 0.019204644 0.40000001 4278199041
0.035307456 0.019252658 0.40100002 4278197504
0.036792498 0.019348681 0.40300003 4278198528
0.038290534 0.019444704 0.40500003 4278198272
0.039801557 0.019540727 0.40700001 4278198784
0.041325577 0.01963675 0.40900001 4278199040
0.042758297 0.019684762 0.41000003 4278199045
0.044305053 0.019780785 0.41200003 4278197248
0.045754012 0.019828796 0.41300002 4278196736
0.047209471 0.01987681 0.41400003 4278196736
0.048788704 0.019972831 0.41600001 4278197248
0.050260402 0.020020844 0.41700003 4278196736
0.051738594 0.020068854 0.41800001 4278197248
0.053223282 0.020116867 0.41900003 4278196992
0.057146799 0.020548971 0.42800003 4278196992
0.058673706 0.020596983 0.42900002 4278196480
0.060207114 0.020644994 0.43000001 4278196736
0.061747022 0.020693006 0.43100002 4278196736
0.063293427 0.020741018 0.43200001 4278666777
0.064846322 0.020789029 0.43300003 4278733853
0.066558726 0.020885052 0.43500003 4278799648
0.06797161 0.020885052 0.43500003 4279127330
0.069384485 0.020885052 0.43500003 4286226060
0.007678268 0.019837897 0.38700002 4279646746
0.0089352448 0.019837897 0.38700002 4279255066
0.010218557 0.019889157 0.38800001 4279058457
0.011478783 0.019889157 0.38800001 4278862361
0.01277184 0.019940419 0.38900003 4278928668
0.014035312 0.019940419 0.38900003 4278798363
0.015338113 0.019991679 0.39000002 4278996255
0.016604833 0.019991679 0.39000002 4278799646
0.01791738 0.020042941 0.39100003 4278997025
0.019236421 0.020094201 0.39200002 4279194404
0.020561956 0.020145461 0.39300001 4279062818
0.021838421 0.020145461 0.39300001 4278733853
0.023173705 0.020196723 0.39400002 4278931232
0.024453416 0.020196723 0.39400002 4279062048
0.02579844 0.020247983 0.39500001 4278402835
0.027081402 0.020247983 0.39500001 4278199040
0.028436171 0.020299245 0.39600003 4279520291
0.029797435 0.020350505 0.39700001 4278196226
0.031165199 0.020401767 0.39800003 4278721547
0.032539453 0.020453027 0.39900002 4278852111
0.03392021 0.020504287 0.40000001 4278786318
0.035395507 0.020606807 0.40200001 4278852881
0.036792498 0.020658068 0.40300003 4278721295
0.038385078 0.02081185 0.40600002 4278786572
0.039801557 0.02086311 0.40700001 4278458888
0.041325577 0.020965632 0.40900001 4279716135
0.042758297 0.021016894 0.41000003 4279387683
0.044305053 0.021119416 0.41200003 4279388707
0.045754012 0.021170676 0.41300002 4279322914
0.047209471 0.021221938 0.41400003 4279059742
0.048788704 0.021324458 0.41600001 4279388707
0.050260402 0.021375719 0.41700003 4279520293
0.051738594 0.021426979 0.41800001 4279125535
0.053350307 0.021529501 0.42000002 4279190558
0.055235557 0.021734543 0.42400002 4279190558
0.057013273 0.021888325 0.42700002 4279256351
0.058673706 0.021990847 0.42900002 4279387937
0.060207114 0.022042107 0.43000001 4279387937
0.061747022 0.022093369 0.43100002 4279848234
0.063293427 0.022144629 0.43200001 4279388707
0.064846322 0.022195891 0.43300003 4278732570
0.066405714 0.022247151 0.43400002 4278930462
0.06797161 0.022298412 0.43500003 4279060767
0.069384485 0.022298412 0.43500003 4285963401
0.007678268 0.0210953 0.38700002 4279451164
0.0089352448 0.0210953 0.38700002 4279058970
0.010218557 0.021149809 0.38800001 4279058970
0.011478783 0.021149809 0.38800001 4279059740
0.01277184 0.021204319 0.38900003 4278862873
0.014035312 0.021204319 0.38900003 4278666777
0.015338113 0.021258829 0.39000002 4278733083
0.016604833 0.021258829 0.39000002 4278997025
0.01791738 0.021313339 0.39100003 4278931232
0.019236421 0.021367848 0.39200002 4279062818
0.020509636 0.021367848 0.39200002 4278931232
0.021838421 0.021422358 0.39300001 4278733853
0.023173705 0.021476869 0.39400002 4278865439
0.024453416 0.021476869 0.39400002 4279127328
0.02579844 0.021531377 0.39500001 4279323937
0.027081402 0.021531377 0.39500001 4278925336
0.028436171 0.021585887 0.39600003 4280111145
0.029797435 0.021640398 0.39700001 4278328074
0.031165199 0.021694908 0.39800003 4278853648
0.032539453 0.021749416 0.39900002 4278918674
0.034005009 0.021858437 0.40100002 4278853394
0.035395507 0.021912945 0.40200001 4279774496
0.036883794 0.022021966 0.40400001 4278853394
0.038385078 0.022130987 0.40600002 4279642397
0.039801557 0.022185495 0.40700001 4278459658
0.041325577 0.022294514 0.40900001 4279322914
0.042758297 0.022349026 0.41000003 4278202377
0.044305053 0.022458045 0.41200003 4278201094
0.045754012 0.022512555 0.41300002 4278467603
0.047209471 0.022567065 0.41400003 4278203660
0.048788704 0.022676084 0.41600001 4278402324
0.050260402 0.022730595 0.41700003 4278200576
0.05186237 0.022839613 0.41900003 4279126558
0.053350307 0.022894124 0.42000002 4278863386
0.055105284 0.023057653 0.42300001 4278666007
0.056879755 0.023221184 0.42600003 4278468630
0.058536936 0.023330202 0.42800003 4278600216
0.060067099 0.023384711 0.42900002 4278666011
0.061603755 0.023439221 0.43000001 4278402839
0.063146912 0.023493731 0.43100002 4279388707
0.064696558 0.02354824 0.43200001 4278929951
0.066252708 0.023602752 0.43300003 4279062050
0.067815349 0.02365726 0.43400002 4279390502
0.069224976 0.02365726 0.43400002 4285239678
0.007678268 0.022352701 0.38700002 4279254301
0.0089352448 0.022352701 0.38700002 4278795798
0.010218557 0.02241046 0.38800001 4278993177
0.011478783 0.02241046 0.38800001 4278993947
0.01277184 0.02246822 0.38900003 4278928668
0.014035312 0.02246822 0.38900003 4278995742
0.015298785 0.02246822 0.38900003 4279061535
0.016604833 0.022525977 0.39000002 4278996257
0.01791738 0.022583738 0.39100003 4278997027
0.01918735 0.022583738 0.39100003 4278997027
0.020509636 0.022641497 0.39200002 4278865439
0.021838421 0.022699254 0.39300001 4278799646
0.023173705 0.022757014 0.39400002 4278602267
0.024453416 0.022757014 0.39400002 4278864669
0.02579844 0.022814773 0.39500001 4279851051
0.027081402 0.022814773 0.39500001 4280044582
0.028436171 0.022872532 0.39600003 4279782180
0.029797435 0.022930291 0.39700001 4278262792
0.031165199 0.022988051 0.39800003 4279249174
0.032539453 0.023045808 0.39900002 4279249687
0.034005009 0.023161327 0.40100002 4278592271
0.035395507 0.023219084 0.40200001 4279052308
0.036883794 0.023334604 0.40400001 4278591759
0.038385078 0.023450121 0.40600002 4279710240
0.039801557 0.02350788 0.40700001 4278461455
0.041325577 0.023623398 0.40900001 4279518756
0.042758297 0.023681156 0.41000003 4278200074
0.044197515 0.023738915 0.41100001 4278197506
0.045754012 0.023854433 0.41300002 4279123228
0.047209471 0.023912193 0.41400003 4279387937
0.048788704 0.024027709 0.41600001 4278598421
0.050260402 0.02408547 0.41700003 4279586086
0.05186237 0.024200987 0.41900003 4278204179
0.053477332 0.024316506 0.42100003 4278202384
0.055105284 0.024432022 0.42300001 4278201870
0.056879755 0.0246053 0.42600003 4279123230
0.058536936 0.024720818 0.42800003 4278465300
0.060067099 0.024778577 0.42900002 4278729753
0.061603755 0.024836333 0.43000001 4279124511
0.063146912 0.024894094 0.43100002 4278993949
0.064696558 0.024951853 0.43200001 4278929181
0.066252708 0.025009612 0.43300003 4279061537
0.067815349 0.02506737 0.43400002 4279456297
0.069224976 0.02506737 0.43400002 4285107833
0.007678268 0.023610104 0.38700002 4279320861
0.0089583332 0.023671111 0.38800001 4278993179
0.010218557 0.023671111 0.38800001 4279058970
0.011478783 0.023671111 0.38800001 4278862875
0.01277184 0.02373212 0.38900003 4279192353
0.014035312 0.02373212 0.38900003 4278930203
0.015338113 0.023793127 0.39000002 4279061789
0.016604833 0.023793127 0.39000002 4279457060
0.01791738 0.023854136 0.39100003 4278997025
0.01918735 0.023854136 0.39100003 4278997025
0.020509636 0.023915144 0.39200002 4278799646
0.021838421 0.023976151 0.39300001 4278602267
0.023173705 0.02403716 0.39400002 4278799646
0.024453416 0.02403716 0.39400002 4278864669
0.02579844 0.024098167 0.39500001 4278797593
0.027081402 0.024098167 0.39500001 4279912996
0.028436171 0.024159176 0.39600003 4280110375
0.029797435 0.024220183 0.39700001 4278592271
0.031165199 0.024281193 0.39800003 4278657550
0.032539453 0.0243422 0.39900002 4279512859
0.034005009 0.024464216 0.40100002 4278195200
0.035395507 0.024525223 0.40200001 4278591757
0.036883794 0.02464724 0.40400001 4280302373
0.038385078 0.024769256 0.40600002 4280501036
0.039801557 0.024830263 0.40700001 4279383838
0.041325577 0.024952279 0.40900001 4278924568
0.042758297 0.025013288 0.41000003 4278657548
0.044197515 0.025074296 0.41100001 4278592269
0.045754012 0.025196312 0.41300002 4278661396
0.047209471 0.025257321 0.41400003 4278334736
0.048671424 0.025318328 0.41500002 4278203150
0.050260402 0.025440345 0.41700003 4278203919
0.05186237 0.025562361 0.41900003 4278795546
0.053477332 0.025684377 0.42100003 4278531093
0.055105284 0.025806392 0.42300001 4279320096
0.056879755 0.025989417 0.42600003 4278464787
0.058536936 0.026111433 0.42800003 4278202128
0.060067099 0.02617244 0.42900002 4278598167
0.061603755 0.026233448 0.43000001 4278927132
0.063146912 0.026294457 0.43100002 4278994463
0.064696558 0.026355464 0.43200001 4278929951
0.066252708 0.026416473 0.43300003 4278469400
0.067659095 0.026416473 0.43300003 4278468632
0.069224976 0.02647748 0.43400002 4286488716
0.007698108 0.024931764 0.38800001 4279320348
0.0089583332 0.024931764 0.38800001 4279058972
0.010218557 0.024931764 0.38800001 4279058970
0.011508367 0.024996022 0.38900003 4279124763
0.01277184 0.024996022 0.38900003 4278994461
0.014035312 0.024996022 0.38900003 4278930462
0.015338113 0.025060279 0.39000002 4278996255
0.016604833 0.025060279 0.39000002 4278997279
0.01791738 0.025124537 0.39100003 4279194658
0.019236421 0.025188792 0.39200002 4279194404
0.020509636 0.025188792 0.39200002 4278799646
0.021838421 0.02525305 0.39300001 4279194404
0.023173705 0.025317308 0.39400002 4278865439
0.024453416 0.025317308 0.39400002 4278930716
0.02579844 0.025381563 0.39500001 4278862359
0.027081402 0.025381563 0.39500001 4279847203
0.028436171 0.025445823 0.39600003 4279320859
0.029797435 0.025510078 0.39700001 4278459660
0.031165199 0.025574338 0.39800003 4278787601
0.032539453 0.025638593 0.39900002 4278655502
0.034005009 0.025767108 0.40100002 4278655502
0.035395507 0.025831364 0.40200001 4278721295
0.036883794 0.025959879 0.40400001 4278589709
0.038385078 0.026088392 0.40600002 4278459660
0.039801557 0.02615265 0.40700001 4279712287
0.041325577 0.026281163 0.40900001 4279584033
0.042758297 0.026345422 0.41000003 4278198277
0.044197515 0.026409678 0.41100001 4279779877
0.045754012 0.026538193 0.41300002 4279650342
0.047209471 0.026602451 0.41400003 4279190558
0.048671424 0.026666706 0.41500002 4279190558
0.050260402 0.026795221 0.41700003 4279257121
0.05186237 0.026923737 0.41900003 4279059742
0.053477332 0.027052252 0.42100003 4279322914
0.055105284 0.027180763 0.42300001 4279388707
0.056879755 0.027373536 0.42600003 4279257121
0.058536936 0.027502051 0.42800003 4279322914
0.060067099 0.027566306 0.42900002 4278862109
0.061603755 0.027630564 0.43000001 4278203409
0.063146912 0.027694821 0.43100002 4279060769
0.064696558 0.027759077 0.43200001 4278995744
0.066252708 0.027823336 0.43300003 4279193125
0.067659095 0.027823336 0.43300003 4279125029
0.0064378832 0.026192416 0.38800001 4279581469
0.007698108 0.026192416 0.38800001 4279320094
0.0089583332 0.026192416 0.38800001 4278992666
0.010244895 0.026259923 0.38900003 4278927384
0.011508367 0.026259923 0.38900003 4278533396
0.01277184 0.026259923 0.38900003 4278994461
0.014071392 0.026327427 0.39000002 4278798363
0.015338113 0.026327427 0.39000002 4278930462
0.016647412 0.026394935 0.39100003 4278931232
0.01791738 0.026394935 0.39100003 4279062818
0.019236421 0.026462441 0.39200002 4278997025
0.020509636 0.026462441 0.39200002 4278865439
0.021838421 0.026529947 0.39300001 4278799646
0.023173705 0.026597453 0.39400002 4278865439
0.024453416 0.026597453 0.39400002 4278930462
0.02579844 0.026664959 0.39500001 4278203662
0.027081402 0.026664959 0.39500001 4279254301
0.028436171 0.026732467 0.39600003 4280175918
0.029797435 0.026799971 0.39700001 4278787601
0.031165199 0.026867479 0.39800003 4278983697
0.032539453 0.026934985 0.39900002 4279049492
0.03392021 0.027002489 0.40000001 4278786320
0.035395507 0.027137503 0.40200001 4278983699
0.036883794 0.027272515 0.40400001 4278786320
0.038385078 0.027407529 0.40600002 4278853135
0.039801557 0.027475033 0.40700001 4279842336
0.041325577 0.027610047 0.40900001 4278198273
0.042758297 0.027677553 0.41000003 4278196736
0.044197515 0.027745059 0.41100001 4278196224
0.045754012 0.027880071 0.41300002 4278196224
0.047209471 0.027947579 0.41400003 4278196480
0.048671424 0.028015085 0.41500002 4278196736
0.050260402 0.028150097 0.41700003 4278197248
0.05186237 0.02828511 0.41900003 4278196224
0.053477332 0.028420122 0.42100003 4278196992
0.055105284 0.028555132 0.42300001 4278197504
0.056879755 0.028757654 0.42600003 4278196992
0.058536936 0.028892666 0.42800003 4278200330
0.060067099 0.028960172 0.42900002 4278200844
0.061603755 0.029027676 0.43000001 4279650344
0.063146912 0.029095184 0.43100002 4279127330
0.064696558 0.02916269 0.43200001 4279127328
0.066252708 0.029230196 0.43300003 4279389734
0.067659095 0.029230196 0.43300003 4282150226
0.0064544762 0.027523823 0.38900003 4279516189
0.007698108 0.027453067 0.38800001 4279254301
0.0089814216 0.027523823 0.38900003 4279124763
0.010244895 0.027523823 0.38900003 4278928154
0.011508367 0.027523823 0.38900003 4279059740
0.01277184 0.027523823 0.38900003 4279126047
0.014071392 0.027594578 0.39000002 4279126560
0.015338113 0.027594578 0.39000002 4279127328
0.016647412 0.027665334 0.39100003 4278930462
0.01791738 0.027665334 0.39100003 4278997027
0.019236421 0.027736088 0.39200002 4279194406
0.020561956 0.027806843 0.39300001 4278602267
0.021838421 0.027806843 0.39300001 4278996255
0.023173705 0.027877599 0.39400002 4278995742
0.024453416 0.027877599 0.39400002 4278930462
0.02579844 0.027948353 0.39500001 4278731289
0.027081402 0.027948353 0.39500001 4279123998
0.028436171 0.028019112 0.39600003 4279519523
0.029797435 0.028089866 0.39700001 4279452195
0.031086894 0.028089866 0.39700001 4280108842
0.032539453 0.028231377 0.39900002 4280568625
0.03392021 0.028302131 0.40000001 4280437553
0.035307456 0.028372888 0.40100002 4280437805
0.036883794 0.028585153 0.40400001 4280372012
0.038290534 0.028655909 0.40500003 4279912485
0.039801557 0.028797418 0.40700001 4279846690
0.041325577 0.028938929 0.40900001 4279715617
0.042758297 0.029009685 0.41000003 4279715617
0.044197515 0.029080439 0.41100001 4279453215
0.045643229 0.029151196 0.41200003 4279519008
0.047209471 0.029292706 0.41400003 4279453728
0.048671424 0.029363461 0.41500002 4279387935
0.050260402 0.029504972 0.41700003 4279519521
0.05186237 0.029646484 0.41900003 4279256349
0.053477332 0.029787995 0.42100003 4279059742
0.055235557 0.03000026 0.42400002 4279125535
0.056879755 0.030141771 0.42600003 4279387937
0.058536936 0.030283282 0.42800003 4279388707
0.060067099 0.030354036 0.42900002 4279191842
0.061603755 0.03042479 0.43000001 4279126562
0.063146912 0.030495547 0.43100002 4279061537
0.064696558 0.030566301 0.43200001 4279127330
0.066252708 0.030637057 0.43300003 4279123746
0.067659095 0.030637057 0.43300003 4285897349
0.0064544762 0.028787725 0.38900003 4279516189
0.0077179489 0.028787725 0.38900003 4279516703
0.0089814216 0.028787725 0.38900003 4279453215
0.010244895 0.028787725 0.38900003 4279058970
0.011508367 0.028787725 0.38900003 4279125533
0.01277184 0.028787725 0.38900003 4278994461
0.014071392 0.028861728 0.39000002 4279061535
0.015338113 0.028861728 0.39000002 4279193121
0.016647412 0.028935732 0.39100003 4279062050
0.01791738 0.028935732 0.39100003 4279062820
0.019236421 0.029009737 0.39200002 4278865441
0.020561956 0.02908374 0.39300001 4278733853
0.021838421 0.02908374 0.39300001 4278930716
0.023173705 0.029157747 0.39400002 4278733337
0.02451548 0.029231749 0.39500001 4279060767
0.02579844 0.029231749 0.39500001 4278203406
0.027081402 0.029231749 0.39500001 4279322914
0.028436171 0.029305754 0.39600003 4279192355
0.02972238 0.029305754 0.39600003 4279060769
0.031086894 0.029379759 0.39700001 4278995746
0.032457903 0.029453764 0.39800003 4279061539
0.033835407 0.029527768 0.39900002 4279192355
0.035307456 0.029675776 0.40100002 4278994461
0.036792498 0.029823786 0.40300003 4278928666
0.038290534 0.029971795 0.40500003 4279191838
0.039801557 0.030119803 0.40700001 4278994459
0.041325577 0.03026781 0.40900001 4279060765
0.042758297 0.030341817 0.41000003 4279258144
0.044197515 0.03041582 0.41100001 4278863386
0.045643229 0.030489827 0.41200003 4279060765
0.047209471 0.030637836 0.41400003 4278863386
0.048671424 0.030711839 0.41500002 4279060765
0.050260402 0.030859848 0.41700003 4278798363
0.05186237 0.031007856 0.41900003 4278929951
0.053477332 0.031155866 0.42100003 4278995744
0.055235557 0.031377878 0.42400002 4279061537
0.056879755 0.031525888 0.42600003 4279192353
0.058536936 0.031673897 0.42800003 4279323939
0.060067099 0.0317479 0.42900002 4279389734
0.061603755 0.031821903 0.43000001 4279257894
0.063146912 0.031895909 0.43100002 4279256869
0.064696558 0.031969912 0.43200001 4279188773
0.066252708 0.032043919 0.43300003 4285960837
-0.011176383 0.029897118 0.38700002 4286815882
-0.0099706687 0.030051624 0.38900003 4286552712
-0.0087295799 0.030128878 0.39000002 4286617992
-0.0074819946 0.030206133 0.39100003 4286749578
-0.0062438003 0.030360637 0.39300001 4286289286
-0.004979976 0.030437892 0.39400002 4285762942
-0.0037002631 0.030437892 0.39400002 4284381030
0.0051910039 0.030051624 0.38900003 4279975205
0.0064544762 0.030051624 0.38900003 4279713570
0.0077179489 0.030051624 0.38900003 4279582496
0.0089814216 0.030051624 0.38900003 4279124252
0.010244895 0.030051624 0.38900003 4279190045
0.011508367 0.030051624 0.38900003 4279257119
0.01277184 0.030051624 0.38900003 4279191840
0.014071392 0.030128878 0.39000002 4279192353
0.015338113 0.030128878 0.39000002 4279061537
0.016647412 0.030206133 0.39100003 4279127843
0.017963205 0.030283384 0.39200002 4278931234
0.019236421 0.030283384 0.39200002 4278931234
0.020561956 0.030360637 0.39300001 4278602269
0.021893991 0.030437892 0.39400002 4278799648
0.023173705 0.030437892 0.39400002 4278733855
0.02451548 0.030515144 0.39500001 4279062050
0.02579844 0.030515144 0.39500001 4279062050
0.027081402 0.030515144 0.39500001 4279258146
0.028436171 0.030592399 0.39600003 4278929951
0.02972238 0.030592399 0.39600003 4278930466
0.031086894 0.030669652 0.39700001 4278930212
0.032457903 0.030746907 0.39800003 4279127591
0.033835407 0.030824158 0.39900002 4279062052
0.035219409 0.030901412 0.40000001 4279193123
0.036792498 0.031133173 0.40300003 4279193123
0.038290534 0.031287681 0.40500003 4278798365
0.039801557 0.031442188 0.40700001 4279127330
0.041325577 0.031596694 0.40900001 4279193123
0.042758297 0.031673949 0.41000003 4279061537
0.044197515 0.031751201 0.41100001 4279061537
0.045643229 0.031828456 0.41200003 4279193123
0.047209471 0.031982962 0.41400003 4279061535
0.048788704 0.032137468 0.41600001 4279127328
0.050260402 0.032214724 0.41700003 4279127332
0.05186237 0.03236923 0.41900003 4279060515
0.053477332 0.032523736 0.42100003 4279125795
0.055235557 0.032755498 0.42400002 4278796832
0.056879755 0.032910004 0.42600003 4278860058
0.058536936 0.033064511 0.42800003 4279583527
0.060067099 0.033141766 0.42900002 4282344786
0.061603755 0.033219017 0.43000001 4284844409
0.063146912 0.033296272 0.43100002 4286027400
-0.011205262 0.031235021 0.38800001 4286158466
-0.0099706687 0.031315524 0.38900003 4286224261
-0.0087295799 0.031396028 0.39000002 4286224261
-0.0074819946 0.031476531 0.39100003 4286224261
-0.0062438003 0.031637534 0.39300001 4286027652
-0.004979976 0.031718038 0.39400002 4286290824
-0.0037002631 0.031718038 0.39400002 4286093445
-0.0024205504 0.031718038 0.39400002 4286027652
-0.0011408377 0.031718038 0.39400002 4286224007
0.00013852259 0.031637534 0.39300001 4286947730
0.0039376272 0.031396028 0.39000002 4279843108
0.0051910039 0.031315524 0.38900003 4279974694
0.0064544762 0.031315524 0.38900003 4279713318
0.007698108 0.031235021 0.38800001 4279647525
0.0089583332 0.031235021 0.38800001 4279254814
0.010244895 0.031315524 0.38900003 4279254814
0.011508367 0.031315524 0.38900003 4279716648
0.01277184 0.031315524 0.38900003 4279388453
0.014071392 0.031396028 0.39000002 4279192355
0.015338113 0.031396028 0.39000002 4278929953
0.016647412 0.031476531 0.39100003 4279193125
0.017963205 0.031557031 0.39200002 4279061537
0.019236421 0.031557031 0.39200002 4279127843
0.020561956 0.031637534 0.39300001 4278996257
0.021893991 0.031718038 0.39400002 4279127843
0.023173705 0.031718038 0.39400002 4279062050
0.02451548 0.031798538 0.39500001 4279127330
0.02579844 0.031798538 0.39500001 4279193123
0.027081402 0.031798538 0.39500001 4279061537
0.028436171 0.031879045 0.39600003 4279061539
0.02972238 0.031879045 0.39600003 4278995492
0.031086894 0.031959545 0.39700001 4279127080
0.032376349 0.031959545 0.39700001 4279257896
0.033750609 0.032040048 0.39800003 4279192101
0.035131361 0.032120552 0.39900002 4279323687
0.036792498 0.032442562 0.40300003 4278731550
0.038290534 0.032603566 0.40500003 4279652139
0.039801557 0.032764569 0.40700001 4279586346
0.041325577 0.032925576 0.40900001 4279257383
0.042758297 0.033006079 0.41000003 4278994211
0.044197515 0.033086583 0.41100001 4278993697
0.045643229 0.033167087 0.41200003 4279519269
0.047209471 0.03332809 0.41400003 4279517475
0.048788704 0.033489093 0.41600001 4280569393
0.050260402 0.033569597 0.41700003 4281885003
0.05186237 0.033730604 0.41900003 4284450676
0.053477332 0.033891611 0.42100003 4286029448
0.055235557 0.034133118 0.42400002 4286621072
-0.011234142 0.032579426 0.38900003 4286355079
-0.0099962996 0.032663178 0.39000002 4286355079
-0.0087295799 0.032663178 0.39000002 4286486665
-0.0074819946 0.03274693 0.39100003 4286618251
-0.0062438003 0.03291443 0.39300001 4286421386
-0.004979976 0.032998186 0.39400002 4286421386
-0.0037002631 0.032998186 0.39400002 4286552972
-0.0024205504 0.032998186 0.39400002 4286026628
-0.0011408377 0.032998186 0.39400002 4286421386
0.00013852259 0.03291443 0.39300001 4286487433
0.0014113868 0.032830682 0.39200002 4286421640
0.002677755 0.03274693 0.39100003 4286421640
0.0039376272 0.032663178 0.39000002 4286947730
0.0051910039 0.032579426 0.38900003 4286027652
0.0064544762 0.032579426 0.38900003 4284514672
0.007698108 0.032495674 0.38800001 4281817159
0.0089583332 0.032495674 0.38800001 4280698932
0.010218557 0.032495674 0.38800001 4279581221
0.011508367 0.032579426 0.38900003 4279254053
0.01277184 0.032579426 0.38900003 4279321129
0.014071392 0.032663178 0.39000002 4279716400
0.015338113 0.032663178 0.39000002 4279584812
0.016647412 0.03274693 0.39100003 4279716650
0.017963205 0.032830682 0.39200002 4279716650
0.019236421 0.032830682 0.39200002 4279519271
0.020561956 0.03291443 0.39300001 4279848236
0.021893991 0.032998186 0.39400002 4279716650
0.023173705 0.032998186 0.39400002 4279781930
0.02451548 0.033081934 0.39500001 4280044078
0.02579844 0.033081934 0.39500001 4279649320
0.027081402 0.033081934 0.39500001 4279649322
0.028436171 0.033165686 0.39600003 4279846701
0.02972238 0.033165686 0.39600003 4280109360
0.03100859 0.033165686 0.39600003 4280240946
0.032376349 0.033249438 0.39700001 4280766520
0.033750609 0.03333319 0.39800003 4281029692
0.035131361 0.033416942 0.39900002 4281819208
0.036792498 0.03375195 0.40300003 4282739796
0.038290534 0.033919454 0.40500003 4283266656
0.039801557 0.034086954 0.40700001 4283859563
0.041325577 0.034254458 0.40900001 4284713848
0.042758297 0.034338214 0.41000003 4285700229
0.044197515 0.034421962 0.41100001 4286752404
0.045643229 0.034505714 0.41200003 4286818197
0.047209471 0.034673218 0.41400003 4286817681
0.048788704 0.034840722 0.41600001 4286685582
0.050260402 0.034924474 0.41700003 4286553996
-0.012497614 0.033843327 0.38900003 4286749837
-0.011234142 0.033843327 0.38900003 4286224009
-0.0099962996 0.033930324 0.39000002 4286355595
-0.0087295799 0.033930324 0.39000002 4286355595
-0.0074819946 0.034017328 0.39100003 4286355595
-0.0062438003 0.034191329 0.39300001 4286552972
-0.004979976 0.034278329 0.39400002 4286487179
-0.0037002631 0.034278329 0.39400002 4286618765
-0.0024205504 0.034278329 0.39400002 4286421386
-0.0011408377 0.034278329 0.39400002 4286553226
0.00013887507 0.034278329 0.39400002 4286619019
0.0014185878 0.034278329 0.39400002 4286553226
0.0026983004 0.034278329 0.39400002 4286487179
0.0039780131 0.034278329 0.39400002 4286355595
0.0051910039 0.033843327 0.38900003 4286487181
0.0064378832 0.033756323 0.38800001 4286355593
0.007698108 0.033756323 0.38800001 4286290570
0.0089583332 0.033756323 0.38800001 4286224777
0.010218557 0.033756323 0.38800001 4286356363
0.011478783 0.033756323 0.38800001 4286487949
0.01277184 0.033843327 0.38900003 4286356876
0.014071392 0.033930324 0.39000002 4286817427
0.015338113 0.033930324 0.39000002 4286751888
0.016647412 0.034017328 0.39100003 4286422923
0.017963205 0.034104329 0.39200002 4286555279
0.019236421 0.034104329 0.39200002 4286555279
0.020561956 0.034191329 0.39300001 4286818449
-0.013761087 0.035107229 0.38900003 4286684044
-0.012497614 0.035107229 0.38900003 4286487181
0.029857388 0.025673589 0.40237647 4294967295
0.029857388 0.025673589 0.40237647 4294901760
0.029857388 0.025673589 0.40287647 4294901760
0.029857388 0.025673589 0.40337646 4294901760
0.029857388 0.025673589 0.40387648 4294901760
0.029857388 0.025673589 0.40437648 4294901760
0.029857388 0.025673589 0.40487647 4294901760
0.029857388 0.025673589 0.40537646 4294901760
0.029857388 0.025673589 0.40587649 4294901760
0.029857388 0.025673589 0.40637648 4294901760
0.029857388 0.025673589 0.40687647 4294901760
0.029857388 0.025673589 0.40737647 4294901760
0.029857388 0.025673589 0.40787646 4294901760
0.029857388 0.025673589 0.40837649 4294901760
0.029857388 0.025673589 0.40887648 4294901760
0.029857388 0.025673589 0.40937647 4294901760
0.029857388 0.025673589 0.40987647 4294901760
0.029857388 0.025673589 0.41037649 4294901760
0.029857388 0.025673589 0.41087648 4294901760
0.029857388 0.025673589 0.41137648 4294901760
0.029857388 0.025673589 0.41187647 4294901760
0.029857388 0.025673589 0.41237646 4294901760
0.029857388 0.025673589 0.41287649 4294901760
0.029857388 0.025673589 0.41337648 4294901760
0.029857388 0.025673589 0.41387647 4294901760
0.029857388 0.025673589 0.41437647 4294901760
0.029857388 0.025673589 0.41487646 4294901760
0.029857388 0.025673589 0.41537648 4294901760
0.029857388 0.025673589 0.41587648 4294901760
0.029857388 0.025673589 0.41637647 4294901760
0.029857388 0.025673589 0.41687647 4294901760
0.029857388 0.025673589 0.41737649 4294901760
0.029857388 0.025673589 0.41787648 4294901760
0.029857388 0.025673589 0.41837648 4294901760
0.029857388 0.025673589 0.41887647 4294901760
0.029857388 0.025673589 0.41937649 4294901760
0.029857388 0.025673589 0.41987649 4294901760
0.029857388 0.025673589 0.42037648 4294901760
0.029857388 0.025673589 0.42087647 4294901760
0.029857388 0.025673589 0.42137647 4294901760
0.029857388 0.025673589 0.42187649 4294901760
0.029857388 0.025673589 0.42237648 4294901760
0.029857388 0.025673589 0.42287648 4294901760
0.029857388 0.025673589 0.42337647 4294901760
0.029857388 0.025673589 0.42387646 4294901760
0.029857388 0.025673589 0.42437649 4294901760
0.029857388 0.025673589 0.42487648 4294901760
0.029857388 0.025673589 0.42537647 4294901760
0.029857388 0.025673589 0.42587647 4294901760
0.029857388 0.025673589 0.42637649 4294901760
0.029857388 0.025673589 0.42687649 4294901760
0.029857388 0.025673589 0.42737648 4294901760
0.029857388 0.025673589 0.42787647 4294901760
0.029857388 0.025673589 0.42837647 4294901760
0.029857388 0.025673589 0.42887649 4294901760
0.029857388 0.025673589 0.42937648 4294901760
0.029857388 0.025673589 0.42987648 4294901760
0.029857388 0.025673589 0.43037647 4294901760
0.029857388 0.025673589 0.43087649 4294901760
0.029857388 0.025673589 0.43137649 4294901760
0.029857388 0.025673589 0.43187648 4294901760
0.029857388 0.025673589 0.43237647 4294901760
0.029857388 0.025673589 0.43287647 4294901760
0.029857388 0.025673589 0.43337649 4294901760
0.029857388 0.025673589 0.43387648 4294901760
0.029857388 0.025673589 0.43437648 4294901760
0.029857388 0.025673589 0.43487647 4294901760
0.029857388 0.025673589 0.4353765 4294901760
0.029857388 0.025673589 0.43587649 4294901760
0.029857388 0.025673589 0.43637648 4294901760
0.029857388 0.025673589 0.43687648 4294901760
0.029857388 0.025673589 0.43737647 4294901760
0.029857388 0.025673589 0.43787649 4294901760
0.029857388 0.025673589 0.43837649 4294901760
0.029857388 0.025673589 0.43887648 4294901760
0.029857388 0.025673589 0.43937647 4294901760
0.029857388 0.025673589 0.4398765 4294901760
0.029857388 0.025673589 0.44037649 4294901760
0.029857388 0.025673589 0.44087648 4294901760
0.029857388 0.025673589 0.44137648 4294901760
0.029857388 0.025673589 0.44187647 4294901760
0.029857388 0.025673589 0.44237649 4294901760
0.029857388 0.025673589 0.44287649 4294901760
0.029857388 0.025673589 0.44337648 4294901760
0.029857388 0.025673589 0.44387648 4294901760
0.029857388 0.025673589 0.44437647 4294901760
0.029857388 0.025673589 0.44487649 4294901760
0.029857388 0.025673589 0.44537649 4294901760
0.029857388 0.025673589 0.44587648 4294901760
0.029857388 0.025673589 0.44637647 4294901760
0.029857388 0.025673589 0.44687647 4294901760
0.029857388 0.025673589 0.44737649 4294901760
0.029857388 0.025673589 0.44787648 4294901760
0.029857388 0.025673589 0.44837648 4294901760
0.029857388 0.025673589 0.4488765 4294901760
0.029857388 0.025673589 0.44937649 4294901760
0.029857388 0.025673589 0.44987649 4294901760
0.029857388 0.025673589 0.45037648 4294901760
0.029857388 0.025673589 0.45087647 4294901760
0.029857388 0.025673589 0.4513765 4294901760
0.029857388 0.025673589 0.45187649 4294901760
0.029857388 0.025673589 0.45237648 4294901760
0.029857388 0.025673589 0.40237647 4278255360
0.029668743 0.025673999 0.40283951 4278255360
0.029480098 0.025674408 0.40330258 4278255360
0.029291453 0.025674818 0.40376562 4278255360
0.029102808 0.025675228 0.40422866 4278255360
0.028914161 0.025675638 0.4046917 4278255360
0.028725516 0.025676047 0.40515476 4278255360
0.028536871 0.025676457 0.4056178 4278255360
0.028348226 0.025676867 0.40608084 4278255360
0.028159581 0.025677277 0.40654391 4278255360
0.027970936 0.025677687 0.40700695 4278255360
0.027782291 0.025678096 0.40746999 4278255360
0.027593646 0.025678506 0.40793303 4278255360
0.027405001 0.025678918 0.4083961 4278255360
0.027216356 0.025679328 0.40885913 4278255360
0.027027709 0.025679737 0.40932217 4278255360
0.026839064 0.025680147 0.40978524 4278255360
0.026650419 0.025680557 0.41024828 4278255360
0.026461774 0.025680967 0.41071132 4278255360
0.02627313 0.025681376 0.41117436 4278255360
0.026084485 0.025681786 0.41163743 4278255360
0.02589584 0.025682196 0.41210046 4278255360
0.025707193 0.025682606 0.4125635 4278255360
0.025518548 0.025683016 0.41302657 4278255360
0.025329903 0.025683425 0.41348961 4278255360
0.025141258 0.025683835 0.41395265 4278255360
0.024952613 0.025684245 0.41441572 4278255360
0.024763968 0.025684655 0.41487876 4278255360
0.024575323 0.025685064 0.41534179 4278255360
0.024386678 0.025685474 0.41580483 4278255360
0.024198033 0.025685884 0.4162679 4278255360
0.024009388 0.025686294 0.41673094 4278255360
0.023820743 0.025686704 0.41719398 4278255360
0.023632096 0.025687113 0.41765705 4278255360
0.023443451 0.025687523 0.41812009 4278255360
0.023254806 0.025687933 0.41858312 4278255360
0.023066161 0.025688343 0.41904616 4278255360
0.022877516 0.025688753 0.41950923 4278255360
0.022688871 0.025689164 0.41997227 4278255360
0.022500226 0.025689574 0.42043531 4278255360
0.022311579 0.025689984 0.42089838 4278255360
0.022122934 0.025690394 0.42136142 4278255360
0.021934289 0.025690803 0.42182446 4278255360
0.021745645 0.025691213 0.42228752 4278255360
0.021557 0.025691623 0.42275056 4278255360
0.021368355 0.025692033 0.4232136 4278255360
0.02117971 0.025692442 0.42367664 4278255360
0.020991065 0.025692852 0.42413971 4278255360
0.02080242 0.025693262 0.42460275 4278255360
0.020613775 0.025693672 0.42506579 4278255360
0.02042513 0.025694082 0.42552882 4278255360
0.020236485 0.025694491 0.42599189 4278255360
0.02004784 0.025694901 0.42645493 4278255360
0.019859195 0.025695311 0.42691797 4278255360
0.019670548 0.025695721 0.42738104 4278255360
0.019481903 0.02569613 0.42784408 4278255360
0.019293258 0.02569654 0.42830712 4278255360
0.019104613 0.02569695 0.42877018 4278255360
0.018915968 0.02569736 0.42923322 4278255360
0.018727323 0.02569777 0.42969626 4278255360
0.018538676 0.025698179 0.4301593 4278255360
0.018350031 0.025698589 0.43062237 4278255360
0.018161386 0.025698999 0.43108541 4278255360
0.017972741 0.025699411 0.43154845 4278255360
0.017784096 0.02569982 0.43201151 4278255360
0.017595451 0.02570023 0.43247455 4278255360
0.017406806 0.02570064 0.43293759 4278255360
0.017218161 0.02570105 0.43340063 4278255360
0.017029516 0.025701459 0.4338637 4278255360
0.016840871 0.025701869 0.43432674 4278255360
0.016652226 0.025702279 0.43478978 4278255360
0.016463581 0.025702689 0.43525285 4278255360
0.016274935 0.025703099 0.43571588 4278255360
0.01608629 0.025703508 0.43617892 4278255360
0.015897645 0.025703918 0.43664199 4278255360
0.015709 0.025704328 0.43710503 4278255360
0.015520354 0.025704738 0.43756807 4278255360
0.015331709 0.025705148 0.43803111 4278255360
0.015143064 0.025705557 0.43849418 4278255360
0.014954418 0.025705967 0.43895721 4278255360
0.014765773 0.025706377 0.43942025 4278255360
0.014577128 0.025706787 0.43988329 4278255360
0.014388483 0.025707196 0.44034636 4278255360
0.014199838 0.025707606 0.4408094 4278255360
0.014011193 0.025708016 0.44127244 4278255360
0.013822546 0.025708426 0.44173551 4278255360
0.013633901 0.025708836 0.44219854 4278255360
0.013445256 0.025709245 0.44266158 4278255360
0.013256611 0.025709657 0.44312465 4278255360
0.013067966 0.025710067 0.44358769 4278255360
0.012879321 0.025710477 0.44405073 4278255360
0.012690676 0.025710886 0.44451377 4278255360
0.012502031 0.025711296 0.44497684 4278255360
0.012313386 0.025711706 0.44543988 4278255360
0.012124741 0.025712116 0.44590291 4278255360
0.011936096 0.025712525 0.44636595 4278255360
0.011747451 0.025712935 0.44682902 4278255360
0.011558805 0.025713345 0.44729206 4278255360
0.01137016 0.025713755 0.4477551 4278255360
0.011181515 0.025714165 0.44821817 4278255360
0.01099287 0.025714574 0.44868121 4278255360
