# .PCD v0.7 - Point Cloud Data file format
VERSION 0.7
FIELDS x y z rgb
SIZE 4 4 4 4
TYPE F F F U
COUNT 1 1 1 1
WIDTH 1018
HEIGHT 1
VIEWPOINT 0 0 0 1 0 0 0
POINTS 1018
DATA ascii
-0.0090893796 0.021262191 0.47500002 4288196252
-0.0075465781 0.021262191 0.47500002 4281933082
-0.0060164174 0.021306954 0.47600001 4283310876
-0.0044703684 0.021306954 0.47600001 4283769110
-0.0029304633 0.021351717 0.47700003 4285281066
-0.0013840619 0.021396479 0.47800002 4286534731
0.00016848295 0.021396479 0.47800002 4289898904
-0.045324516 0.02318961 0.48300001 4285230148
-0.043665141 0.023141598 0.48200002 4289375622
-0.039945398 0.022805518 0.47500002 4283190317
-0.033703089 0.022757506 0.47400004 4284888615
-0.032163538 0.022757506 0.47400004 4286330926
-0.029590266 0.021989319 0.45800003 4285608486
-0.028102677 0.021989319 0.45800003 4283183387
-0.026615093 0.021989319 0.45800003 4282789145
-0.025182372 0.022037331 0.45900002 4283706397
-0.023743154 0.022085343 0.46000001 4283966489
-0.022345807 0.022181366 0.46200001 4285017630
-0.020890351 0.022229377 0.46300003 4287390796
-0.019470271 0.022325402 0.46500003 4284299304
-0.018037196 0.022421423 0.46700001 4283772962
-0.01659113 0.022517446 0.46900001 4282852119
-0.015132072 0.02261347 0.47100002 4281667847
-0.013631144 0.022661483 0.47200003 4283903528
-0.012123718 0.022709493 0.47300002 4289172876
-0.010609797 0.022757506 0.47400004 4286882961
-0.0090893796 0.022805518 0.47500002 4287277719
-0.0075624655 0.022853527 0.47600001 4286743673
-0.0060164174 0.022853527 0.47600001 4282984741
-0.0044797603 0.022901541 0.47700003 4283309842
-0.0029366068 0.022949552 0.47800002 4285216810
-0.0013840619 0.022949552 0.47800002 4286462514
0.00016883542 0.022997564 0.47900003 4286527280
0.0017282286 0.023045575 0.48000002 4287725678
-0.051813319 0.024861448 0.48500001 4284242485
-0.050134454 0.024810188 0.48400003 4285361988
-0.048562422 0.024810188 0.48400003 4285099066
-0.046893299 0.024758926 0.48300001 4283782184
-0.045230675 0.024707666 0.48200002 4283585584
-0.037109032 0.023528669 0.45900002 4282268961
-0.035540603 0.023477409 0.45800003 4282399777
-0.033978667 0.023426147 0.45700002 4284561960
-0.032494329 0.023426147 0.45700002 4285346597
-0.031009993 0.023426147 0.45700002 4286529073
-0.029525656 0.023426147 0.45700002 4283834642
-0.028102677 0.023477409 0.45800003 4281869840
-0.026615093 0.023477409 0.45800003 4282198807
-0.025182372 0.023528669 0.45900002 4284101407
-0.02379477 0.023631191 0.46100003 4285017630
-0.022345807 0.023682451 0.46200001 4286136879
-0.02093547 0.023784973 0.46400002 4283902229
-0.019512143 0.023887493 0.46600002 4284107067
-0.01807582 0.023990015 0.46800002 4280358415
-0.016626507 0.024092536 0.47000003 4282335287
-0.015132072 0.024143796 0.47100002 4281086247
-0.013660023 0.024246318 0.47300002 4280821794
-0.01214935 0.02429758 0.47400004 4284309599
-0.010632181 0.02434884 0.47500002 4286947730
-0.0091085145 0.0244001 0.47600001 4287014293
-0.0075624655 0.0244001 0.47600001 4288787876
-0.0060290569 0.024451362 0.47700003 4282133541
-0.0044891518 0.024502622 0.47800002 4283310104
-0.0029366068 0.024502622 0.47800002 4284032536
-0.0013869575 0.024553884 0.47900003 4286066725
0.00016883542 0.024553884 0.47900003 4287775290
0.0017282286 0.024605144 0.48000002 4287447095
-0.051813319 0.02643726 0.48500001 4283650348
-0.050134454 0.026382752 0.48400003 4284374321
-0.048462085 0.026328241 0.48300001 4283848747
-0.037028186 0.024965497 0.45800003 4282465824
-0.035463002 0.024910986 0.45700002 4282596897
-0.033904314 0.024856478 0.45600003 4285019429
-0.032423224 0.024856478 0.45600003 4285672994
-0.030942136 0.024856478 0.45600003 4285477668
-0.029525656 0.024910986 0.45700002 4282851088
-0.028041318 0.024910986 0.45700002 4280751620
-0.026615093 0.024965497 0.45800003 4283119395
-0.025182372 0.025020007 0.45900002 4284690462
-0.02379477 0.025129026 0.46100003 4286594350
-0.022345807 0.025183534 0.46200001 4285741867
-0.02093547 0.025292555 0.46400002 4285353019
-0.019512143 0.025401575 0.46600002 4280097042
-0.01807582 0.025510594 0.46800002 4279966485
-0.016626507 0.025619615 0.47000003 4279442202
-0.015132072 0.025674123 0.47100002 4279114518
-0.013660023 0.025783144 0.47300002 4282600517
-0.01214935 0.025837654 0.47400004 4280297762
-0.010632181 0.025892163 0.47500002 4288196770
-0.0091085145 0.025946673 0.47600001 4287408533
-0.0075783534 0.026001183 0.47700003 4288000158
-0.0060290569 0.026001183 0.47700003 4281217061
-0.0044891518 0.026055692 0.47800002 4283507485
-0.0029427505 0.026110204 0.47900003 4283900185
-0.0013869575 0.026110204 0.47900003 4286065957
0.0001691879 0.026164712 0.48000002 4292644744
0.0017282286 0.026164712 0.48000002 4287053624
0.003294118 0.026219223 0.48100004 4285805102
-0.050134454 0.027955318 0.48400003 4283452967
-0.039188538 0.026915656 0.46600002 4282269728
-0.037028186 0.026453586 0.45800003 4282465824
-0.035385404 0.026338067 0.45600003 4283711014
-0.033829961 0.026280308 0.45500001 4285476387
-0.03235212 0.026280308 0.45500001 4286132772
-0.03087428 0.026280308 0.45500001 4284164120
-0.02946105 0.026338067 0.45600003 4282065676
-0.027979959 0.026338067 0.45600003 4282923811
-0.02655698 0.026395826 0.45700002 4283577893
-0.025182372 0.026511343 0.45900002 4285476898
-0.023743154 0.026569102 0.46000001 4286133545
-0.022345807 0.026684619 0.46200001 4285483830
-0.02093547 0.026800139 0.46400002 4279898114
-0.019512143 0.026915656 0.46600002 4280032278
-0.01807582 0.027031174 0.46800002 4282072890
-0.016626507 0.027146691 0.47000003 4284445288
-0.015132072 0.02720445 0.47100002 4284050528
-0.013660023 0.027319968 0.47300002 4278850833
-0.01214935 0.027377728 0.47400004 4279707169
-0.010632181 0.027435487 0.47500002 4282472781
-0.0091085145 0.027493244 0.47600001 4287540119
-0.0075783534 0.027551005 0.47700003 4287869086
-0.0060416963 0.027608763 0.47800002 4282667332
-0.0044891518 0.027608763 0.47800002 4283704864
-0.0029427505 0.027666522 0.47900003 4284031771
-0.0013869575 0.027666522 0.47900003 4285935141
0.0001691879 0.027724281 0.48000002 4286460202
0.0017282286 0.027724281 0.48000002 4287973954
0.003294118 0.027782042 0.48100004 4286593071
-0.03678564 0.027758649 0.45500001 4282924065
-0.035230204 0.027697641 0.45400003 4284758824
-0.033755612 0.027697641 0.45400003 4285540638
-0.032281019 0.027697641 0.45400003 4286922288
-0.030806426 0.027697641 0.45400003 4282851342
-0.029396441 0.027758649 0.45500001 4282001426
-0.027979959 0.027819658 0.45600003 4283646251
-0.02655698 0.027880665 0.45700002 4283904798
-0.02512751 0.027941674 0.45800003 4285739041
-0.023743154 0.028063688 0.46000001 4285674018
-0.022345807 0.028185705 0.46200001 4283186735
-0.02093547 0.028307721 0.46400002 4280756255
-0.019512143 0.028429737 0.46600002 4280429346
-0.01807582 0.028551754 0.46800002 4286156158
-0.016626507 0.02867377 0.47000003 4282735181
-0.0151642 0.028795786 0.47200003 4284051295
-0.013660023 0.028856793 0.47300002 4282601798
-0.012174981 0.02897881 0.47500002 4279838492
-0.010654564 0.029039817 0.47600001 4279576866
-0.0091276504 0.029100826 0.47700003 4287145109
-0.0075783534 0.029100826 0.47700003 4287211156
-0.0060416963 0.029161833 0.47800002 4283654225
-0.0044985432 0.029222842 0.47900003 4283967009
-0.0029427505 0.029222842 0.47900003 4284031517
-0.001389853 0.02928385 0.48000002 4285476387
0.0001691879 0.02928385 0.48000002 4285936936
0.0017318293 0.029344859 0.48100004 4286395944
0.003294118 0.029344859 0.48100004 4286461740
-0.036623947 0.029108478 0.45300001 4283578913
-0.035152603 0.029108478 0.45300001 4285413672
-0.033681259 0.029108478 0.45300001 4286263586
-0.032209914 0.029108478 0.45300001 4286264356
-0.03073857 0.029108478 0.45300001 4282063369
-0.029331835 0.029172735 0.45400003 4281606670
-0.027918598 0.029236991 0.45500001 4283183133
-0.026498869 0.02930125 0.45600003 4284232482
-0.02512751 0.029429764 0.45800003 4286002729
-0.023743154 0.029558277 0.46000001 4284557079
-0.022345807 0.029686792 0.46200001 4280426003
-0.02093547 0.029815305 0.46400002 4281021485
-0.019512143 0.02994382 0.46600002 4284114275
-0.01807582 0.030072335 0.46800002 4283654237
-0.016626507 0.03020085 0.47000003 4290565330
-0.0151642 0.030329363 0.47200003 4281615417
-0.013660023 0.030393621 0.47300002 4282733123
-0.012174981 0.030522134 0.47500002 4282404671
-0.010654564 0.030586392 0.47600001 4279379227
-0.0091276504 0.030650649 0.47700003 4287474074
-0.0075942408 0.030714905 0.47800002 4287474328
-0.0060416963 0.030714905 0.47800002 4283720018
-0.0044985432 0.030779164 0.47900003 4284295202
-0.0029427505 0.030779164 0.47900003 4284623136
-0.001389853 0.03084342 0.48000002 4285346086
0.0001691879 0.03084342 0.48000002 4285148705
0.0017318293 0.030907677 0.48100004 4285347113
0.003294118 0.030907677 0.48100004 4286339150
-0.037758913 0.030310297 0.44900003 4281874203
-0.036462255 0.030445309 0.45100003 4285022509
-0.034997404 0.030445309 0.45100003 4285346849
-0.033606909 0.030512815 0.45200002 4287314475
-0.03213881 0.030512815 0.45200002 4285341971
-0.03073857 0.030580319 0.45300001 4281471750
-0.029267225 0.030580319 0.45300001 4281277453
-0.027857238 0.030647827 0.45400003 4283248674
-0.026498869 0.030782839 0.45600003 4284559909
-0.02512751 0.030917853 0.45800003 4285672994
-0.023743154 0.031052863 0.46000001 4283965458
-0.022345807 0.031187877 0.46200001 4282927422
-0.02093547 0.031322889 0.46400002 4279376660
-0.019512143 0.031457901 0.46600002 4280429095
-0.01807582 0.031592913 0.46800002 4281349686
-0.016626507 0.031727929 0.47000003 4284901973
-0.0151642 0.031862941 0.47200003 4287532903
-0.013660023 0.031930447 0.47300002 4283849535
-0.012174981 0.032065459 0.47500002 4281811753
-0.010654564 0.032132965 0.47600001 4279511063
-0.0091276504 0.032200471 0.47700003 4287342742
-0.0075942408 0.032267977 0.47800002 4287277719
-0.0060416963 0.032267977 0.47800002 4283588430
-0.0044985432 0.032335483 0.47900003 4284688677
-0.0029427505 0.032335483 0.47900003 4284885281
-0.001389853 0.032402989 0.48000002 4285477672
0.0001691879 0.032402989 0.48000002 4285610285
0.0017318293 0.032470495 0.48100004 4283647547
-0.048662756 0.034316335 0.48500001 4282994221
-0.037758913 0.031769142 0.44900003 4282399264
-0.036462255 0.031910654 0.45100003 4285873453
-0.034997404 0.031910654 0.45100003 4285738269
-0.033532556 0.031910654 0.45100003 4290078299
-0.032067709 0.031910654 0.45100003 4287248176
-0.030670714 0.031981409 0.45200002 4287185465
-0.029267225 0.032052163 0.45300001 4283965460
-0.027857238 0.032122921 0.45400003 4284558113
-0.026498869 0.03226443 0.45600003 4285082914
-0.025072645 0.032335185 0.45700002 4286330924
-0.023743154 0.032547452 0.46000001 4284359704
-0.022345807 0.03268896 0.46200001 4282927422
-0.02093547 0.032830473 0.46400002 4279179279
-0.019512143 0.032971982 0.46600002 4280495141
-0.01807582 0.033113495 0.46800002 4281810488
-0.016626507 0.033255003 0.47000003 4281414685
-0.0151642 0.033396516 0.47200003 4282662686
-0.013688903 0.033538029 0.47400004 4282796070
-0.012174981 0.033608783 0.47500002 4281744157
-0.010654564 0.033679534 0.47600001 4280432167
-0.0091276504 0.033750292 0.47700003 4287474074
-0.0075942408 0.033821046 0.47800002 4287539867
-0.0060543362 0.033891805 0.47900003 4282927679
-0.0044985432 0.033891805 0.47900003 4285148455
-0.0029427505 0.033891805 0.47900003 4285147683
-0.001389853 0.033962559 0.48000002 4285806898
0.0001691879 0.033962559 0.48000002 4289829261
-0.037758913 0.033227991 0.44900003 4283842346
-0.036381405 0.033301994 0.45000002 4285740324
-0.034919806 0.033301994 0.45000002 4286460706
-0.033532556 0.033376001 0.45100003 4287181349
-0.032067709 0.033376001 0.45100003 4287247142
-0.030670714 0.033450004 0.45200002 4287509544
-0.029267225 0.033524007 0.45300001 4287970611
-0.027857238 0.033598013 0.45400003 4287642929
-0.026498869 0.033746019 0.45600003 4288565830
-0.025072645 0.033820026 0.45700002 4285869346
-0.023743154 0.034042038 0.46000001 4284820001
-0.022345807 0.034190048 0.46200001 4281348138
-0.02093547 0.034338053 0.46400002 4279442453
-0.019512143 0.034486063 0.46600002 4280560673
-0.01807582 0.034634072 0.46800002 4282402877
-0.016626507 0.034782082 0.47000003 4281678114
-0.0151642 0.034930091 0.47200003 4281413652
-0.013688903 0.035078101 0.47400004 4281612314
-0.012174981 0.035152104 0.47500002 4282533675
-0.010676947 0.035300113 0.47700003 4285432694
-0.0091467863 0.035374116 0.47800002 4287409051
-0.0075942408 0.035374116 0.47800002 4287998873
-0.0060543362 0.035448123 0.47900003 4282332455
-0.0044985432 0.035448123 0.47900003 4285542182
-0.0029427505 0.035448123 0.47900003 4285738789
-0.0013869575 0.035448123 0.47900003 4284231460
-0.039217263 0.034686837 0.44900003 4282006050
-0.037758913 0.034686837 0.44900003 4284235562
-0.036381405 0.034764089 0.45000002 4286067234
-0.034919806 0.034764089 0.45000002 4286327580
-0.033458207 0.034764089 0.45000002 4286918690
-0.032067709 0.034841344 0.45100003 4287049763
-0.030670714 0.034918595 0.45200002 4286326040
-0.029267225 0.03499585 0.45300001 4292842627
-0.027857238 0.035073105 0.45400003 4287511345
-0.026498869 0.035227612 0.45600003 4287707952
-0.02512751 0.035382118 0.45800003 4286394922
-0.023743154 0.035536624 0.46000001 4284687904
-0.022345807 0.035691131 0.46200001 4284109645
-0.02093547 0.035845637 0.46400002 4279243019
-0.019512143 0.036000147 0.46600002 4280888098
-0.01807582 0.036154654 0.46800002 4286416248
-0.016626507 0.03630916 0.47000003 4281548070
-0.0151642 0.036463667 0.47200003 4282928179
-0.013688903 0.036618177 0.47400004 4282270503
-0.012200613 0.03677268 0.47600001 4280560405
-0.010676947 0.036849935 0.47700003 4288460196
-0.0091467863 0.036927186 0.47800002 4287408535
-0.0075942408 0.036927186 0.47800002 4289247141
-0.0060543362 0.037004441 0.47900003 4284037679
-0.0044985432 0.037004441 0.47900003 4285803810
-0.0029427505 0.037004441 0.47900003 4285869346
-0.0013869575 0.037004441 0.47900003 4285221951
-0.039304607 0.036226183 0.45000002 4282465318
-0.037843008 0.036226183 0.45000002 4284101925
-0.036381405 0.036226183 0.45000002 4285476900
-0.034919806 0.036226183 0.45000002 4286001189
-0.033532556 0.03630669 0.45100003 4286196512
-0.032067709 0.03630669 0.45100003 4286590241
-0.030670714 0.03638719 0.45200002 4287312935
-0.029267225 0.03646769 0.45300001 4287116839
-0.027857238 0.036548197 0.45400003 4288039486
-0.026498869 0.036709201 0.45600003 4287511600
-0.02512751 0.036870208 0.45800003 4286197541
-0.023743154 0.037031211 0.46000001 4284293659
-0.022345807 0.037192214 0.46200001 4280425753
-0.02093547 0.037353221 0.46400002 4280098330
-0.019512143 0.037514228 0.46600002 4279835156
-0.01807582 0.037675232 0.46800002 4279967766
-0.016661881 0.037916739 0.47100002 4283588166
-0.015196327 0.038077746 0.47300002 4282732857
-0.013717782 0.038238753 0.47500002 4282337332
-0.012200613 0.038319252 0.47600001 4280559381
-0.010676947 0.038399756 0.47700003 4288064153
-0.0091467863 0.038480259 0.47800002 4287605400
-0.0076101287 0.038560763 0.47900003 4288122753
-0.0060543362 0.038560763 0.47900003 4285281068
-0.0044985432 0.038560763 0.47900003 4286263336
-0.0029427505 0.038560763 0.47900003 4285671969
-0.0013869575 0.038560763 0.47900003 4288516481
-0.040766209 0.037688281 0.45000002 4281678109
-0.039304607 0.037688281 0.45000002 4282201383
-0.037843008 0.037688281 0.45000002 4283774507
-0.036381405 0.037688281 0.45000002 4285083941
-0.034919806 0.037688281 0.45000002 4285346084
-0.033532556 0.037772033 0.45100003 4285738017
-0.032067709 0.037772033 0.45100003 4285934369
-0.030670714 0.037855785 0.45200002 4286590241
-0.029267225 0.037939534 0.45300001 4286918436
-0.027857238 0.038023289 0.45400003 4287576368
-0.026498869 0.038190793 0.45600003 4287906101
-0.02512751 0.038358297 0.45800003 4285016097
-0.023743154 0.038525797 0.46000001 4288317306
-0.022345807 0.038693301 0.46200001 4280759083
-0.02093547 0.038860805 0.46400002 4280363302
-0.019554013 0.039112058 0.46700001 4279836445
-0.018114444 0.039279561 0.46900001 4281086765
-0.016661881 0.039447065 0.47100002 4279508496
-0.015196327 0.039614569 0.47300002 4284706141
-0.013717782 0.039782073 0.47500002 4280687632
-0.012226244 0.039949577 0.47700003 4286207053
-0.010699331 0.040033329 0.47800002 4287660405
-0.0091467863 0.040033329 0.47800002 4288260500
-0.0076101287 0.040117081 0.47900003 4285350970
-0.0060543362 0.040117081 0.47900003 4286329901
-0.0044985432 0.040117081 0.47900003 4286722604
-0.0029427505 0.040117081 0.47900003 4286131752
-0.040766209 0.039150376 0.45000002 4282072368
-0.039304607 0.039150376 0.45000002 4285426788
-0.037843008 0.039150376 0.45000002 4283513651
-0.036381405 0.039150376 0.45000002 4284297251
-0.034997404 0.03923738 0.45100003 4284229661
-0.033532556 0.03923738 0.45100003 4284556829
-0.03213881 0.039324377 0.45200002 4285278240
-0.030670714 0.039324377 0.45200002 4285869600
-0.029267225 0.039411377 0.45300001 4286263075
-0.027918598 0.039585378 0.45500001 4286393121
-0.026498869 0.039672382 0.45600003 4286853672
-0.02512751 0.039846383 0.45800003 4284889136
-0.023743154 0.040020384 0.46000001 4288783249
-0.022345807 0.040194385 0.46200001 4287802525
-0.02093547 0.040368386 0.46400002 4279905831
-0.019554013 0.040629391 0.46700001 4280298283
-0.018114444 0.040803391 0.46900001 4280955439
-0.016661881 0.040977392 0.47100002 4279312150
-0.015228455 0.041238397 0.47400004 4279901201
-0.013717782 0.041325398 0.47500002 4285151794
-0.012226244 0.041499399 0.47700003 4286530360
-0.010699331 0.041586399 0.47800002 4286200371
-0.0091659222 0.0416734 0.47900003 4287717460
-0.0076101287 0.0416734 0.47900003 4285869348
-0.0060543362 0.0416734 0.47900003 4286919983
-0.0044985432 0.0416734 0.47900003 4286787627
-0.0029427505 0.0416734 0.47900003 4286330674
-0.040766209 0.040612474 0.45000002 4288525735
-0.039304607 0.040612474 0.45000002 4288654493
-0.037843008 0.040612474 0.45000002 4283779133
-0.036462255 0.040702727 0.45100003 4283904809
-0.034997404 0.040702727 0.45100003 4283903526
-0.033606909 0.040792976 0.45200002 4284295974
-0.03213881 0.040792976 0.45200002 4284097310
-0.03073857 0.040883224 0.45300001 4285147937
-0.029331835 0.040973477 0.45400003 4285674281
-0.027918598 0.041063726 0.45500001 4285937453
-0.02655698 0.041244224 0.45700002 4285871660
-0.02512751 0.041334476 0.45800003 4283902243
-0.023743154 0.041514974 0.46000001 4288717458
-0.022345807 0.041695476 0.46200001 4287343512
-0.02093547 0.041875973 0.46400002 4287868832
-0.019554013 0.042146724 0.46700001 4281419074
-0.018114444 0.042327221 0.46900001 4279905835
-0.016697258 0.042597976 0.47200003 4280951327
-0.015228455 0.042778477 0.47400004 4284496694
-0.013746661 0.042958971 0.47600001 4286398000
-0.012226244 0.043049224 0.47700003 4287053620
-0.010699331 0.043139473 0.47800002 4287646786
-0.0091659222 0.043229725 0.47900003 4287053877
-0.0076101287 0.043229725 0.47900003 4287050797
-0.0060543362 0.043229725 0.47900003 4287116333
-0.0045079347 0.043319974 0.48000002 4287118130
-0.0029488937 0.043319974 0.48000002 4290549641
-0.039304607 0.042074572 0.45000002 4288853417
-0.037927102 0.04216807 0.45100003 4282928449
-0.036462255 0.04216807 0.45100003 4284301114
-0.035075005 0.042261571 0.45200002 4283905325
-0.033606909 0.042261571 0.45200002 4283837220
-0.032209914 0.042355068 0.45300001 4284493864
-0.030806426 0.042448569 0.45400003 4284822822
-0.029331835 0.042448569 0.45400003 4284954408
-0.027979959 0.042635567 0.45600003 4284822570
-0.02655698 0.042729065 0.45700002 4285216558
-0.025182372 0.042916063 0.45900002 4284822829
-0.023743154 0.043009561 0.46000001 4290161052
-0.022345807 0.043196559 0.46200001 4287342740
-0.02093547 0.043383557 0.46400002 4287409305
-0.019554013 0.043664053 0.46700001 4287539867
-0.018114444 0.043851051 0.46900001 4288000418
-0.016697258 0.044131551 0.47200003 4283651147
-0.015228455 0.044318549 0.47400004 4283774255
-0.013746661 0.044505544 0.47600001 4285607721
-0.012226244 0.044599045 0.47700003 4286264365
-0.010699331 0.044692542 0.47800002 4291924101
-0.0091659222 0.044786043 0.47900003 4287249716
-0.0076101287 0.044786043 0.47900003 4287379505
-0.0060543362 0.044786043 0.47900003 4286918954
-0.0045079347 0.044879541 0.48000002 4286200112
-0.037927102 0.043633416 0.45100003 4288394916
-0.036543101 0.043730162 0.45200002 4284768345
-0.035075005 0.043730162 0.45200002 4284564802
-0.033681259 0.043826912 0.45300001 4284563253
-0.032281019 0.043923661 0.45400003 4285022775
-0.030806426 0.043923661 0.45400003 4284498228
-0.029396441 0.044020407 0.45500001 4286609516
-0.027979959 0.044117156 0.45600003 4289046428
-0.02655698 0.044213902 0.45700002 4283185461
-0.025182372 0.044407401 0.45900002 4285020726
-0.02379477 0.044600897 0.46100003 4288049770
-0.022345807 0.044697642 0.46200001 4287539603
-0.02093547 0.044891141 0.46400002 4287605660
-0.019554013 0.045181382 0.46700001 4287539869
-0.018153068 0.045471631 0.47000003 4287934627
-0.016697258 0.045665126 0.47200003 4288197024
-0.015228455 0.045858625 0.47400004 4283520584
-0.013746661 0.046052117 0.47600001 4291008655
-0.012226244 0.046148866 0.47700003 4291271563
-0.010699331 0.046245612 0.47800002 4287840313
-0.0091659222 0.046342365 0.47900003 4287641907
-0.0076101287 0.046342365 0.47900003 4288766289
-0.0060543362 0.046342365 0.47900003 4289622627
-0.0045079347 0.046439111 0.48000002 4287118132
-0.0029488937 0.046439111 0.48000002 4288374109
-0.038011197 0.045198757 0.45200002 4287803039
-0.036543101 0.045198757 0.45200002 4288327588
-0.035152603 0.045298751 0.45300001 4284177237
-0.033755612 0.045398753 0.45400003 4284301366
-0.03235212 0.045498747 0.45500001 4283115293
-0.03087428 0.045498747 0.45500001 4287793022
-0.02946105 0.045598745 0.45600003 4287932567
-0.028041318 0.045698743 0.45700002 4287671193
-0.026615093 0.045798741 0.45800003 4285694323
-0.025182372 0.045898739 0.45900002 4284234036
-0.02379477 0.046098731 0.46100003 4284627251
-0.022345807 0.046198729 0.46200001 4289180319
-0.020980591 0.046498723 0.46500003 4287605396
-0.019554013 0.046698716 0.46700001 4287605660
-0.018114444 0.046898708 0.46900001 4287539867
-0.016697258 0.047198702 0.47200003 4287671193
-0.015228455 0.047398698 0.47400004 4288326553
-0.013717782 0.047498692 0.47500002 4285546039
-0.012226244 0.047698688 0.47700003 4286856243
-0.010699331 0.047798686 0.47800002 4287641900
-0.0091467863 0.047798686 0.47800002 4287312935
-0.0076101287 0.047898684 0.47900003 4290870895
-0.0060543362 0.047898684 0.47900003 4288305997
-0.0044985432 0.047898684 0.47900003 4287315509
-0.0029488937 0.047998678 0.48000002 4286658862
-0.038011197 0.046667352 0.45200002 4287672223
-0.036623947 0.046770595 0.45300001 4287409051
-0.035230204 0.046873845 0.45400003 4287934113
-0.033829961 0.046977088 0.45500001 4283512627
-0.032423224 0.047080338 0.45600003 4284498232
-0.030942136 0.047080338 0.45600003 4283116838
-0.029525656 0.047183581 0.45700002 4288981403
-0.028102677 0.047286831 0.45800003 4287671193
-0.026673203 0.047390074 0.45900002 4288394916
-0.025237234 0.04749332 0.46000001 4284305225
-0.02379477 0.047596566 0.46100003 4285021755
-0.022394177 0.047803063 0.46300003 4285877316
-0.020980591 0.048009556 0.46500003 4288978829
-0.019554013 0.048216045 0.46700001 4288588952
-0.018114444 0.048422538 0.46900001 4288852124
-0.016697258 0.048732277 0.47200003 4288910726
-0.015228455 0.048938774 0.47400004 4285876031
-0.013717782 0.049042016 0.47500002 4287445809
-0.012200613 0.049145263 0.47600001 4287576620
-0.010676947 0.049248509 0.47700003 4287576105
-0.0091467863 0.049351756 0.47800002 4288101681
-0.0075942408 0.049351756 0.47800002 4287707952
-0.0060543362 0.049455002 0.47900003 4286458655
-0.0044985432 0.049455002 0.47900003 4287511602
-0.0029427505 0.049455002 0.47900003 4286724139
-0.038095292 0.048242439 0.45300001 4287540639
-0.036623947 0.048242439 0.45300001 4287738018
-0.035385404 0.048561927 0.45600003 4287672225
-0.033904314 0.048561927 0.45600003 4285295718
-0.032494329 0.048668422 0.45700002 4284367677
-0.031077849 0.04877492 0.45800003 4285153080
-0.029590266 0.04877492 0.45800003 4289104255
-0.028164037 0.048881412 0.45900002 4287671193
-0.026731314 0.048987906 0.46000001 4287605400
-0.025237234 0.048987906 0.46000001 4288591782
-0.023846386 0.0492009 0.46200001 4282729275
-0.022394177 0.049307395 0.46300003 4285809211
-0.020980591 0.049520388 0.46500003 4286399547
-0.019554013 0.049733374 0.46700001 4287715407
-0.018114444 0.049946368 0.46900001 4286726202
-0.016661881 0.050159357 0.47100002 4287314741
-0.015196327 0.050372347 0.47300002 4287773747
-0.013717782 0.050585341 0.47500002 4287575853
-0.012200613 0.050691836 0.47600001 4287773486
-0.010676947 0.05079833 0.47700003 4287905585
-0.0091276504 0.05079833 0.47700003 4287117096
-0.0075942408 0.050904825 0.47800002 4286592805
-0.0060543362 0.051011324 0.47900003 4286328866
-0.0044985432 0.051011324 0.47900003 4286855212
-0.0029427505 0.051011324 0.47900003 4285411109
-0.035463002 0.050153259 0.45700002 4287671972
-0.03405302 0.050263006 0.45800003 4288919210
-0.032565434 0.050263006 0.45800003 4282530611
-0.031145703 0.05037275 0.45900002 4284825398
-0.029654872 0.05037275 0.45900002 4284757552
-0.028225396 0.050482493 0.46000001 4288391319
-0.026731314 0.050482493 0.46000001 4287605398
-0.0252921 0.05059224 0.46100003 4287342488
-0.023846386 0.050701983 0.46200001 4288787876
-0.022394177 0.05081173 0.46300003 4283966237
-0.020980591 0.051031221 0.46500003 4286133549
-0.019554013 0.051250704 0.46700001 4287248178
-0.018114444 0.051470194 0.46900001 4287905079
-0.016661881 0.051689684 0.47100002 4288169278
-0.015196327 0.051909175 0.47300002 4287840567
-0.013688903 0.052018922 0.47400004 4287708981
-0.012174981 0.052128665 0.47500002 4287708981
-0.010654564 0.052238405 0.47600001 4286265133
-0.0091276504 0.052348152 0.47700003 4285346084
-0.0075942408 0.052457895 0.47800002 4285412390
-0.0060416963 0.052457895 0.47800002 4285872941
-0.0044985432 0.052567642 0.47900003 4285742389
-0.0029427505 0.052567642 0.47900003 4287395438
-0.037189879 0.051977079 0.46000001 4287803811
-0.035618201 0.051864088 0.45900002 4287803811
-0.03412737 0.051864088 0.45900002 4287738018
-0.032636534 0.051864088 0.45900002 4285891702
-0.031213557 0.051977079 0.46000001 4284628794
-0.029719478 0.051977079 0.46000001 4285482047
-0.028225396 0.051977079 0.46000001 4284559921
-0.026789427 0.052090075 0.46100003 4286736736
-0.025346963 0.052203067 0.46200001 4287791223
-0.023898002 0.052316062 0.46300003 4285351740
-0.022442544 0.052429054 0.46400002 4286923063
-0.020980591 0.052542049 0.46500003 4291266169
-0.019554013 0.052768037 0.46700001 4286593069
-0.018114444 0.052994024 0.46900001 4287840313
-0.016626507 0.05310702 0.47000003 4286459430
-0.0151642 0.053333007 0.47200003 4286790450
-0.013688903 0.053558994 0.47400004 4286331698
-0.012174981 0.053671986 0.47500002 4285345832
-0.010632181 0.053671986 0.47500002 4284758574
-0.0091085145 0.053784978 0.47600001 4284693040
-0.0075783534 0.053897973 0.47700003 4284430642
-0.0060416963 0.054010965 0.47800002 4284365624
-0.0044985432 0.05412396 0.47900003 4286481273
-0.037189879 0.053471666 0.46000001 4287935397
-0.035618201 0.053355426 0.45900002 4287803811
-0.034201719 0.053471666 0.46000001 4287803811
-0.032707639 0.053471666 0.46000001 4288855215
-0.031213557 0.053471666 0.46000001 4283973950
-0.029784087 0.05358791 0.46100003 4284825659
-0.028286757 0.05358791 0.46100003 4284953904
-0.026847538 0.053704154 0.46200001 4285018414
-0.025346963 0.053704154 0.46200001 4285477679
-0.023898002 0.053820398 0.46300003 4285738537
-0.022442544 0.053936638 0.46400002 4286657579
-0.020980591 0.054052882 0.46500003 4287446579
-0.019512143 0.054169126 0.46600002 4288039999
-0.01807582 0.05440161 0.46800002 4287183407
-0.016626507 0.054634098 0.47000003 4286002733
-0.0151642 0.054866582 0.47200003 4284361767
-0.013660023 0.054982822 0.47300002 4284236091
-0.01214935 0.05509907 0.47400004 4285686876
-0.010632181 0.05521531 0.47500002 4287665545
-0.0091085145 0.055331551 0.47600001 4287600522
-0.0075783534 0.055447794 0.47700003 4288129178
-0.0060416963 0.055564038 0.47800002 4287801242
-0.035695799 0.054966252 0.46000001 4287869604
-0.034201719 0.054966252 0.46000001 4287869604
-0.032778744 0.055085748 0.46100003 4287934627
-0.031281415 0.055085748 0.46100003 4284109132
-0.029784087 0.055085748 0.46100003 4283971634
-0.028348114 0.055205237 0.46200001 4284625964
-0.026847538 0.055205237 0.46200001 4284559657
-0.025401827 0.05532473 0.46300003 4284886308
-0.023898002 0.05532473 0.46300003 4285081890
-0.022442544 0.055444222 0.46400002 4286395690
-0.020980591 0.055563714 0.46500003 4286658092
-0.019512143 0.055683207 0.46600002 4286723374
-0.01807582 0.055922192 0.46800002 4287052852
-0.01659113 0.05604168 0.46900001 4286340436
-0.015132072 0.056280665 0.47100002 4288652442
-0.013631144 0.056400158 0.47200003 4287999393
-0.012123718 0.05651965 0.47300002 4287736221
-0.010609797 0.056639142 0.47400004 4287802527
-0.0090893796 0.056758635 0.47500002 4287736732
-0.0075624655 0.056878123 0.47600001 4287670939
-0.034276072 0.056583583 0.46100003 4287934627
-0.032778744 0.056583583 0.46100003 4287803041
-0.031349268 0.05670632 0.46200001 4288982436
-0.029848693 0.05670632 0.46200001 4284171841
-0.028348114 0.05670632 0.46200001 4284495663
-0.02690565 0.056829065 0.46300003 4284428585
-0.025401827 0.056829065 0.46300003 4283967261
-0.023949616 0.056951806 0.46400002 4284689699
-0.022442544 0.056951806 0.46400002 4285741357
-0.020980591 0.057074547 0.46500003 4285543465
-0.019512143 0.057197288 0.46600002 4286200112
-0.018037196 0.057320025 0.46700001 4285872178
-0.01659113 0.05756551 0.46900001 4288851620
-0.015132072 0.057810992 0.47100002 4287736734
-0.013631144 0.057933733 0.47200003 4287670941
-0.012123718 0.058056474 0.47300002 4287802527
-0.010587414 0.058056474 0.47300002 4287803041
-0.0090702446 0.058179218 0.47400004 4287934627
-0.032849845 0.058207411 0.46200001 4287868834
-0.031349268 0.058207411 0.46200001 4287868059
-0.029848693 0.058207411 0.46200001 4282731072
-0.028409475 0.058333404 0.46300003 4284564284
-0.02690565 0.058333404 0.46300003 4284235060
-0.025401827 0.058333404 0.46300003 4283903526
-0.023949616 0.05845939 0.46400002 4284758322
-0.022442544 0.05845939 0.46400002 4285153078
-0.020980591 0.058585383 0.46500003 4285415480
-0.019470271 0.058585383 0.46500003 4284893251
-0.017998572 0.058711372 0.46600002 4288190092
-0.016555754 0.058963351 0.46800002 4287670939
-0.013631144 0.059467316 0.47200003 4287999904
-0.012098087 0.059467316 0.47200003 4287736732
-0.010587414 0.059593301 0.47300002 4287803041
-0.032849845 0.059708491 0.46200001 4287934627
-0.031349268 0.059708491 0.46200001 4288066213
-0.029848693 0.059708491 0.46200001 4288788907
-0.028409475 0.059837732 0.46300003 4285493351
-0.02690565 0.059837732 0.46300003 4284043337
-0.025456689 0.05996697 0.46400002 4284172608
-0.023949616 0.05996697 0.46400002 4284304194
-0.022442544 0.05996697 0.46400002 4283909954
-0.020980591 0.060096212 0.46500003 4285951849
-0.019470271 0.060096212 0.46500003 4288787624
-0.017998572 0.06022545 0.46600002 4287999904
-0.031349268 0.061209582 0.46200001 4287803041
-0.029913303 0.061342072 0.46300003 4287803041
-0.028409475 0.061342072 0.46300003 4287671455
-0.02690565 0.061342072 0.46300003 4287671453
-0.025456689 0.061474558 0.46400002 4288328608
-0.023949616 0.061474558 0.46400002 4288328608
-0.022442544 0.061474558 0.46400002 4287736473
-0.020980591 0.061607048 0.46500003 4287802525
-0.019470271 0.061607048 0.46500003 4287934625
-0.029913303 0.0628464 0.46300003 4287934627
-0.028409475 0.0628464 0.46300003 4287868834
-0.026963761 0.062982135 0.46400002 4287803041
-0.025456689 0.062982135 0.46400002 4287934625
-0.023949616 0.062982135 0.46400002 4287803039
-0.022442544 0.062982135 0.46400002 4287671455
-0.020980591 0.063117877 0.46500003 4287868834
-0.019470271 0.063117877 0.46500003 4287934627
-0.026963761 0.064489722 0.46400002 4287803041
-0.025456689 0.064489722 0.46400002 4287671455
-0.023949616 0.064489722 0.46400002 4287803041
-0.022442544 0.064489722 0.46400002 4287803041
-0.020980591 0.064628713 0.46500003 4287868834
-0.017507508 0.036073826 0.46680471 4294967295
-0.017507508 0.036073826 0.46680471 4294901760
-0.017507508 0.035575058 0.46676967 4294901760
-0.017507508 0.035076287 0.46673459 4294901760
-0.017507508 0.034577519 0.46669954 4294901760
-0.017507508 0.034078747 0.46666449 4294901760
-0.017507508 0.033579979 0.46662942 4294901760
-0.017507508 0.033081211 0.46659437 4294901760
-0.017507508 0.032582439 0.46655932 4294901760
-0.017507508 0.032083672 0.46652424 4294901760
-0.017507508 0.0315849 0.4664892 4294901760
-0.017507508 0.031086132 0.46645415 4294901760
-0.017507508 0.030587362 0.46641907 4294901760
-0.017507508 0.030088592 0.46638402 4294901760
-0.017507508 0.029589823 0.46634898 4294901760
-0.017507508 0.029091053 0.4663139 4294901760
-0.017507508 0.028592283 0.46627885 4294901760
-0.017507508 0.028093513 0.4662438 4294901760
-0.017507508 0.027594745 0.46620873 4294901760
-0.017507508 0.027095973 0.46617368 4294901760
-0.017507508 0.026597206 0.46613863 4294901760
-0.017507508 0.026098436 0.46610355 4294901760
-0.017507508 0.025599666 0.46606851 4294901760
-0.017507508 0.025100898 0.46603346 4294901760
-0.017507508 0.024602126 0.46599838 4294901760
-0.017507508 0.024103358 0.46596333 4294901760
-0.017507508 0.023604589 0.46592826 4294901760
-0.017507508 0.023105819 0.46589321 4294901760
-0.017507508 0.022607049 0.46585816 4294901760
-0.017507508 0.022108279 0.46582308 4294901760
-0.017507508 0.021609511 0.46578804 4294901760
-0.017507508 0.02111074 0.46575299 4294901760
-0.017507508 0.020611972 0.46571791 4294901760
-0.017507508 0.020113202 0.46568286 4294901760
-0.017507508 0.019614432 0.46564782 4294901760
-0.017507508 0.019115662 0.46561274 4294901760
-0.017507508 0.018616894 0.46557769 4294901760
-0.017507508 0.018118123 0.46554264 4294901760
-0.017507508 0.017619355 0.46550757 4294901760
-0.017507508 0.017120585 0.46547252 4294901760
-0.017507508 0.016621817 0.46543747 4294901760
-0.017507508 0.016123045 0.46540239 4294901760
-0.017507508 0.015624277 0.46536735 4294901760
-0.017507508 0.015125507 0.4653323 4294901760
-0.017507508 0.014626738 0.46529722 4294901760
-0.017507508 0.014127968 0.46526217 4294901760
-0.017507508 0.0136292 0.46522713 4294901760
-0.017507508 0.013130428 0.46519205 4294901760
-0.017507508 0.01263166 0.465157 4294901760
-0.017507508 0.012132891 0.46512195 4294901760
-0.017507508 0.011634121 0.46508688 4294901760
-0.017507508 0.011135351 0.46505183 4294901760
-0.017507508 0.010636581 0.46501678 4294901760
-0.017507508 0.010137813 0.4649817 4294901760
-0.017507508 0.0096390434 0.46494666 4294901760
-0.017507508 0.0091402717 0.46491161 4294901760
-0.017507508 0.0086415019 0.46487653 4294901760
-0.017507508 0.0081427339 0.46484149 4294901760
-0.017507508 0.0076439641 0.46480644 4294901760
-0.017507508 0.0071451962 0.46477136 4294901760
-0.017507508 0.0066464264 0.46473631 4294901760
-0.017507508 0.0061476547 0.46470127 4294901760
-0.017507508 0.0056488849 0.46466619 4294901760
-0.017507508 0.005150117 0.46463114 4294901760
-0.017507508 0.004651349 0.46459609 4294901760
-0.017507508 0.0041525774 0.46456102 4294901760
-0.017507508 0.0036538094 0.46452597 4294901760
-0.017507508 0.0031550378 0.46449092 4294901760
-0.017507508 0.0026562698 0.46445584 4294901760
-0.017507508 0.0021574982 0.4644208 4294901760
-0.017507508 0.0016587302 0.46438575 4294901760
-0.017507508 0.0011599623 0.46435067 4294901760
-0.017507508 0.0006611906 0.46431562 4294901760
-0.017507508 0.00016241893 0.46428058 4294901760
-0.017507508 -0.00033634901 0.4642455 4294901760
-0.017507508 -0.00083511695 0.46421045 4294901760
-0.017507508 -0.0013338849 0.4641754 4294901760
-0.017507508 -0.0018326566 0.46414033 4294901760
-0.017507508 -0.0023314245 0.46410528 4294901760
-0.017507508 -0.0028301924 0.4640702 4294901760
-0.017507508 -0.0033289641 0.46403515 4294901760
-0.017507508 -0.0038277358 0.46400011 4294901760
-0.017507508 -0.0043265037 0.46396503 4294901760
-0.017507508 -0.0048252717 0.46392998 4294901760
-0.017507508 -0.0053240433 0.46389493 4294901760
-0.017507508 -0.0058228113 0.46385986 4294901760
-0.017507508 -0.0063215829 0.46382481 4294901760
-0.017507508 -0.0068203509 0.46378976 4294901760
-0.017507508 -0.0073191226 0.46375468 4294901760
-0.017507508 -0.0078178905 0.46371964 4294901760
-0.017507508 -0.0083166584 0.46368459 4294901760
-0.017507508 -0.0088154264 0.46364951 4294901760
-0.017507508 -0.0093142018 0.46361446 4294901760
-0.017507508 -0.0098129697 0.46357942 4294901760
-0.017507508 -0.010311738 0.46354434 4294901760
-0.017507508 -0.010810506 0.46350929 4294901760
-0.017507508 -0.011309277 0.46347424 4294901760
-0.017507508 -0.011808045 0.46343917 4294901760
-0.017507508 -0.012306817 0.46340412 4294901760
-0.017507508 -0.012805585 0.46336907 4294901760
-0.017507508 -0.013304356 0.46333399 4294901760
-0.017507508 -0.013803124 0.46329895 4294901760
-0.017507508 0.036073826 0.46680471 4278255360
-0.017138038 0.036050204 0.46714076 4278255360
-0.016768567 0.036026586 0.46747681 4278255360
-0.016399097 0.036002964 0.4678129 4278255360
-0.016029626 0.035979342 0.46814895 4278255360
-0.015660156 0.035955723 0.468485 4278255360
-0.015290685 0.035932101 0.46882105 4278255360
-0.014921214 0.035908483 0.4691571 4278255360
-0.014551744 0.035884861 0.46949315 4278255360
-0.014182273 0.035861239 0.46982923 4278255360
-0.013812803 0.03583762 0.47016528 4278255360
-0.013443332 0.035813998 0.47050133 4278255360
-0.013073862 0.035790376 0.47083738 4278255360
-0.012704391 0.035766758 0.47117344 4278255360
-0.01233492 0.035743136 0.47150949 4278255360
-0.011965449 0.035719518 0.47184557 4278255360
-0.011595979 0.035695896 0.47218162 4278255360
-0.011226508 0.035672273 0.47251767 4278255360
-0.010857037 0.035648655 0.47285372 4278255360
-0.010487568 0.035625033 0.47318977 4278255360
-0.010118096 0.035601411 0.47352582 4278255360
-0.0097486265 0.035577793 0.4738619 4278255360
-0.009379155 0.035554171 0.47419795 4278255360
-0.0090096844 0.035530552 0.474534 4278255360
-0.0086402139 0.03550693 0.47487006 4278255360
-0.0082707433 0.035483308 0.47520611 4278255360
-0.0079012727 0.03545969 0.47554216 4278255360
-0.0075318012 0.035436068 0.47587824 4278255360
-0.0071623316 0.035412446 0.47621429 4278255360
-0.006792861 0.035388827 0.47655034 4278255360
-0.0064233895 0.035365205 0.47688639 4278255360
-0.0060539199 0.035341583 0.47722244 4278255360
-0.0056844493 0.035317965 0.47755849 4278255360
-0.0053149778 0.035294343 0.47789457 4278255360
-0.0049455073 0.035270724 0.47823063 4278255360
-0.0045760376 0.035247102 0.47856668 4278255360
-0.0042065661 0.03522348 0.47890273 4278255360
-0.0038370956 0.035199862 0.47923878 4278255360
-0.0034676259 0.03517624 0.47957483 4278255360
-0.0030981554 0.035152618 0.47991091 4278255360
-0.0027286839 0.035129 0.48024696 4278255360
-0.0023592142 0.035105377 0.48058301 4278255360
-0.0019897437 0.035081759 0.48091906 4278255360
-0.0016202722 0.035058137 0.48125511 4278255360
-0.0012508016 0.035034515 0.48159117 4278255360
-0.00088133104 0.035010897 0.48192725 4278255360
-0.00051186047 0.034987275 0.4822633 4278255360
-0.00014238991 0.034963652 0.48259935 4278255360
0.00022708066 0.034940034 0.4829354 4278255360
0.00059655122 0.034916412 0.48327145 4278255360
0.00096602179 0.03489279 0.48360753 4278255360
0.0013354924 0.034869172 0.48394358 4278255360
0.0017049629 0.03484555 0.48427963 4278255360
0.0020744316 0.034821931 0.48461568 4278255360
0.0024439059 0.034798309 0.48495173 4278255360
0.0028133746 0.034774687 0.48528779 4278255360
0.0031828452 0.034751069 0.48562384 4278255360
0.0035523158 0.034727447 0.48595992 4278255360
0.0039217863 0.034703825 0.48629597 4278255360
0.0042912569 0.034680206 0.48663202 4278255360
0.0046607293 0.034656584 0.48696807 4278255360
0.0050301999 0.034632966 0.48730412 4278255360
0.0053996686 0.034609344 0.4876402 4278255360
0.0057691392 0.034585722 0.48797625 4278255360
0.0061386097 0.034562103 0.4883123 4278255360
0.0065080803 0.034538481 0.48864836 4278255360
0.0068775527 0.034514859 0.48898441 4278255360
0.0072470233 0.034491241 0.48932046 4278255360
0.0076164939 0.034467619 0.48965654 4278255360
0.0079859626 0.034444001 0.48999259 4278255360
0.0083554331 0.034420379 0.49032864 4278255360
0.0087249037 0.034396756 0.49066469 4278255360
0.0090943761 0.034373138 0.49100074 4278255360
0.0094638467 0.034349516 0.49133679 4278255360
0.0098333173 0.034325894 0.49167287 4278255360
0.010202788 0.034302276 0.49200892 4278255360
0.010572257 0.034278654 0.49234498 4278255360
0.010941727 0.034255035 0.49268103 4278255360
0.011311198 0.034231413 0.49301708 4278255360
0.01168067 0.034207791 0.49335313 4278255360
0.012050141 0.034184173 0.49368921 4278255360
0.012419611 0.034160551 0.49402526 4278255360
0.01278908 0.034136929 0.49436131 4278255360
0.01315855 0.03411331 0.49469736 4278255360
0.013528021 0.034089688 0.49503341 4278255360
0.013897493 0.034066066 0.49536949 4278255360
0.014266964 0.034042448 0.49570554 4278255360
0.014636435 0.034018826 0.4960416 4278255360
0.015005905 0.033995207 0.49637765 4278255360
0.015375376 0.033971585 0.4967137 4278255360
0.015744846 0.033947963 0.49704975 4278255360
0.016114317 0.033924345 0.4973858 4278255360
0.016483787 0.033900723 0.49772188 4278255360
0.016853258 0.033877101 0.49805793 4278255360
0.017222729 0.033853482 0.49839398 4278255360
0.017592199 0.03382986 0.49873003 4278255360
0.01796167 0.033806242 0.49906608 4278255360
0.01833114 0.03378262 0.49940217 4278255360
0.018700611 0.033758998 0.49973822 4278255360
0.019070081 0.03373538 0.50007427 4278255360
0.019439552 0.033711758 0.50041032 4278255360
-0.017507508 0.036073826 0.46680471 4278190335
-0.017844394 0.036047921 0.46717328 4278190335
-0.018181277 0.036022015 0.46754184 4278190335
-0.018518163 0.035996109 0.46791041 4278190335
-0.018855048 0.035970204 0.46827894 4278190335
-0.019191934 0.035944298 0.46864751 4278190335
-0.019528817 0.035918392 0.46901608 4278190335
-0.019865703 0.035892487 0.46938464 4278190335
-0.020202588 0.035866581 0.46975321 4278190335
-0.020539474 0.035840679 0.47012177 4278190335
-0.020876357 0.035814773 0.47049034 4278190335
-0.021213243 0.035788868 0.4708589 4278190335
-0.021550128 0.035762962 0.47122744 4278190335
-0.021887012 0.035737056 0.471596 4278190335
-0.022223897 0.035711151 0.47196457 4278190335
-0.022560783 0.035685245 0.47233313 4278190335
-0.022897668 0.035659339 0.4727017 4278190335
-0.023234554 0.035633434 0.47307026 4278190335
-0.023571439 0.035607528 0.47343883 4278190335
-0.023908323 0.035581622 0.47380739 4278190335
-0.024245208 0.035555717 0.47417593 4278190335
-0.024582092 0.035529811 0.4745445 4278190335
-0.024918977 0.035503905 0.47491306 4278190335
-0.025255863 0.035478 0.47528163 4278190335
-0.025592748 0.035452094 0.47565019 4278190335
-0.025929634 0.035426192 0.47601876 4278190335
-0.026266517 0.035400286 0.47638732 4278190335
-0.026603403 0.035374381 0.47675586 4278190335
-0.026940286 0.035348475 0.47712442 4278190335
-0.027277172 0.035322569 0.47749299 4278190335
-0.027614057 0.035296664 0.47786155 4278190335
-0.027950943 0.035270758 0.47823012 4278190335
-0.028287828 0.035244852 0.47859868 4278190335
-0.028624713 0.035218947 0.47896725 4278190335
-0.028961597 0.035193041 0.47933581 4278190335
-0.029298482 0.035167135 0.47970435 4278190335
-0.029635368 0.03514123 0.48007292 4278190335
-0.029972252 0.035115324 0.48044148 4278190335
-0.030309137 0.035089418 0.48081005 4278190335
-0.030646022 0.035063513 0.48117861 4278190335
-0.030982908 0.035037607 0.48154718 4278190335
-0.031319793 0.035011701 0.48191574 4278190335
-0.031656675 0.034985799 0.48228431 4278190335
-0.03199356 0.034959894 0.48265284 4278190335
-0.032330446 0.034933988 0.48302141 4278190335
-0.032667331 0.034908082 0.48338997 4278190335
-0.033004217 0.034882177 0.48375854 4278190335
-0.033341102 0.034856271 0.4841271 4278190335
-0.033677988 0.034830365 0.48449567 4278190335
-0.034014873 0.03480446 0.48486423 4278190335
-0.034351759 0.034778554 0.48523277 4278190335
-0.034688644 0.034752648 0.48560134 4278190335
-0.035025526 0.034726743 0.4859699 4278190335
-0.035362411 0.034700837 0.48633847 4278190335
-0.035699297 0.034674931 0.48670703 4278190335
-0.036036182 0.034649026 0.4870756 4278190335
-0.036373064 0.03462312 0.48744416 4278190335
-0.036709949 0.034597214 0.48781273 4278190335
-0.037046835 0.034571312 0.48818126 4278190335
-0.03738372 0.034545407 0.48854983 4278190335
-0.037720606 0.034519501 0.48891839 4278190335
-0.038057491 0.034493595 0.48928696 4278190335
-0.038394377 0.03446769 0.48965552 4278190335
-0.038731262 0.034441784 0.49002409 4278190335
-0.039068148 0.034415878 0.49039266 4278190335
-0.039405033 0.034389973 0.49076122 4278190335
-0.039741918 0.034364067 0.49112976 4278190335
-0.040078804 0.034338161 0.49149832 4278190335
-0.040415686 0.034312256 0.49186689 4278190335
-0.040752571 0.03428635 0.49223545 4278190335
-0.041089457 0.034260444 0.49260402 4278190335
-0.041426338 0.034234539 0.49297258 4278190335
-0.041763227 0.034208633 0.49334115 4278190335
-0.042100109 0.034182727 0.49370971 4278190335
-0.042436995 0.034156822 0.49407825 4278190335
-0.04277388 0.034130916 0.49444681 4278190335
-0.043110766 0.034105014 0.49481538 4278190335
-0.043447651 0.034079108 0.49518394 4278190335
-0.043784536 0.034053203 0.49555251 4278190335
-0.044121422 0.034027297 0.49592108 4278190335
-0.044458307 0.034001391 0.49628964 4278190335
-0.044795193 0.033975486 0.49665821 4278190335
-0.045132078 0.03394958 0.49702674 4278190335
-0.04546896 0.033923674 0.49739531 4278190335
-0.045805845 0.033897769 0.49776387 4278190335
-0.046142731 0.033871863 0.49813244 4278190335
-0.046479616 0.033845957 0.498501 4278190335
-0.046816498 0.033820052 0.49886957 4278190335
-0.047153383 0.033794146 0.49923813 4278190335
-0.047490269 0.03376824 0.49960667 4278190335
-0.047827154 0.033742335 0.49997523 4278190335
-0.04816404 0.033716429 0.5003438 4278190335
-0.048500925 0.033690527 0.50071239 4278190335
-0.048837811 0.033664621 0.50108093 4278190335
-0.049174696 0.033638716 0.50144947 4278190335
-0.049511582 0.03361281 0.50181806 4278190335
-0.049848463 0.033586904 0.5021866 4278190335
-0.050185353 0.033560999 0.50255519 4278190335
-0.050522234 0.033535093 0.50292373 4278190335
-0.05085912 0.033509187 0.50329232 4278190335
-0.051196005 0.033483282 0.50366086 4278190335
-0.017507508 0.036073826 0.46680471 4294967295
-0.016833739 0.036125638 0.46606758 4294967295
-0.016159968 0.036177449 0.46533048 4294967295
-0.015486198 0.03622926 0.46459335 4294967295
-0.014812429 0.036281072 0.46385622 4294967295
-0.014138659 0.036332879 0.46311909 4294967295
-0.013464889 0.036384691 0.46238199 4294967295
-0.01279112 0.036436502 0.46164486 4294967295
-0.012117349 0.036488313 0.46090773 4294967295
-0.011443579 0.036540125 0.4601706 4294967295
-0.010769809 0.036591936 0.4594335 4294967295
-0.01009604 0.036643747 0.45869637 4294967295
-0.0094222696 0.036695559 0.45795923 4294967295
-0.0087484997 0.036747366 0.45722213 4294967295
-0.0080747297 0.036799178 0.456485 4294967295
-0.0074009588 0.036850989 0.45574787 4294967295
-0.0067271898 0.0369028 0.45501074 4294967295
-0.0060534198 0.036954612 0.45427364 4294967295
-0.0053796489 0.037006423 0.45353651 4294967295
-0.0047058798 0.037058234 0.45279938 4294967295
-0.0040321099 0.037110046 0.45206225 4294967295
-0.0033583399 0.037161853 0.45132515 4294967295
-0.0026845699 0.037213665 0.45058802 4294967295
-0.0020107999 0.037265476 0.44985089 4294967295
-0.0013370309 0.037317287 0.44911379 4294967295
-0.00066326 0.037369099 0.44837666 4294967295
1.0509044e-05 0.03742091 0.44763952 4294967295
0.00068427995 0.037472721 0.44690239 4294967295
0.001358049 0.037524533 0.44616529 4294967295
0.0020318199 0.03757634 0.44542816 4294967295
0.0027055908 0.037628151 0.44469103 4294967295
0.0033793598 0.037679963 0.4439539 4294967295
0.0040531289 0.037731774 0.4432168 4294967295
0.0047268998 0.037783585 0.44247967 4294967295
0.0054006688 0.037835397 0.44174254 4294967295
