# .PCD v0.7 - Point Cloud Data file format
VERSION 0.7
FIELDS x y z rgb
SIZE 4 4 4 4
TYPE F F F U
COUNT 1 1 1 1
WIDTH 933
HEIGHT 1
VIEWPOINT 0 0 0 1 0 0 0
POINTS 933
DATA ascii
0.076071844 -0.076255858 0.42500001 4283922535
0.077634484 -0.076435283 0.42600003 4281423938
0.079018138 -0.076435283 0.42600003 4280568629
0.074691445 -0.074874982 0.42500001 4281818442
0.076071844 -0.074874982 0.42500001 4280506684
0.077452242 -0.074874982 0.42500001 4280113721
0.079018138 -0.075051166 0.42600003 4279653422
0.080401786 -0.075051166 0.42600003 4280440373
0.073138542 -0.073321193 0.42400002 4281359429
0.0745157 -0.073321193 0.42400002 4280506684
0.075892851 -0.073321193 0.42400002 4279457326
0.077452242 -0.073494121 0.42500001 4279720752
0.078832641 -0.073494121 0.42500001 4279260715
0.080213048 -0.073494121 0.42500001 4280442170
0.071592137 -0.071773894 0.42300001 4281227073
0.072966047 -0.071773894 0.42300001 4280178744
0.074339949 -0.071773894 0.42300001 4279851316
0.075892851 -0.071943574 0.42400002 4279327019
0.077270001 -0.071943574 0.42400002 4279195433
0.078832641 -0.072113246 0.42500001 4279720750
0.080213048 -0.072113246 0.42500001 4281229376
0.068518832 -0.070066668 0.42100003 4284186477
0.069886245 -0.070066668 0.42100003 4280637239
0.07142289 -0.070233099 0.42200002 4280310071
0.072793551 -0.070233099 0.42200002 4279852084
0.074339949 -0.070399523 0.42300001 4279195435
0.075713858 -0.070399523 0.42300001 4279327021
0.077270001 -0.070565954 0.42400002 4279327021
0.078647159 -0.070565954 0.42400002 4281491776
0.080213048 -0.070732385 0.42500001 4284120164
0.068356074 -0.068535611 0.42000002 4281033026
0.069720238 -0.068535611 0.42000002 4279982900
0.071253642 -0.068698794 0.42100003 4279655219
0.072793551 -0.068861976 0.42200002 4279458607
0.074164212 -0.068861976 0.42200002 4279261228
0.075713858 -0.069025151 0.42300001 4278865443
0.07708776 -0.069025151 0.42300001 4281560390
0.078647159 -0.069188334 0.42400002 4282541638
0.065158986 -0.066691197 0.41700003 4282212687
0.066672906 -0.066851124 0.41800001 4280967485
0.068193324 -0.067011058 0.41900003 4279917107
0.069720238 -0.067170985 0.42000002 4279261228
0.071253642 -0.067330919 0.42100003 4279262511
0.072621055 -0.067330919 0.42100003 4278933544
0.074164212 -0.067490846 0.42200002 4279261226
0.075534865 -0.067490846 0.42200002 4281100098
0.07708776 -0.06765078 0.42300001 4281756231
0.063498549 -0.06502296 0.41500002 4281556556
0.065002732 -0.065179639 0.41600001 4281033028
0.066513397 -0.065336324 0.41700003 4279720752
0.067867815 -0.065336324 0.41700003 4279590193
0.06955424 -0.065649688 0.41900003 4279065132
0.071084395 -0.065806367 0.42000002 4278999339
0.072621055 -0.065963052 0.42100003 4280312119
0.073988467 -0.065963052 0.42100003 4281166145
0.075534865 -0.06611973 0.42200002 4281228604
0.076905519 -0.06611973 0.42200002 4281687872
0.061851107 -0.06336771 0.41300002 4281555786
0.063345544 -0.063521147 0.41400003 4280573504
0.064690217 -0.063521147 0.41400003 4279720500
0.066194393 -0.063674577 0.41500002 4279327791
0.067705065 -0.063828006 0.41600001 4278604579
0.069388233 -0.064134873 0.41800001 4278933031
0.071084395 -0.064441741 0.42000002 4280510268
0.072621055 -0.064595178 0.42100003 4280967485
0.073988467 -0.064595178 0.42100003 4281624132
0.075534865 -0.064748608 0.42200002 4281885251
0.076905519 -0.064748608 0.42200002 4284120416
0.058738466 -0.061575286 0.41000003 4286488462
0.060216662 -0.061725467 0.41100001 4281163333
0.061551586 -0.061725467 0.41100001 4280506684
0.063039526 -0.061875656 0.41200003 4279589428
0.064533964 -0.062025838 0.41300002 4279590193
0.065875381 -0.062025838 0.41300002 4279065132
0.067379564 -0.062176023 0.41400003 4278933544
0.069222234 -0.06262657 0.41700003 4280640571
0.058451939 -0.059949283 0.40800002 4280636989
0.059923634 -0.060096215 0.40900001 4280115004
0.061401825 -0.060243152 0.41000003 4279655219
0.062733509 -0.060243152 0.41000003 4279130410
0.064221449 -0.060390085 0.41100001 4279130923
0.065715879 -0.060537022 0.41200003 4279327789
0.067054056 -0.060537022 0.41200003 4280905026
0.055528026 -0.05833628 0.40600002 4285107579
0.056846719 -0.05833628 0.40600002 4281360710
0.058308672 -0.058479965 0.40700001 4280047928
0.059777126 -0.058623653 0.40800002 4279393330
0.061102305 -0.058623653 0.40800002 4279393582
0.062580496 -0.058767337 0.40900001 4278933031
0.063908935 -0.058767337 0.40900001 4279393582
0.065396868 -0.058911026 0.41000003 4280771387
0.066728555 -0.058911026 0.41000003 4280310323
0.055391259 -0.056876708 0.40500003 4280966465
0.056706704 -0.056876708 0.40500003 4279852086
0.058165409 -0.057017144 0.40600002 4279458353
0.059484098 -0.057017144 0.40600002 4279262509
0.06095254 -0.057157576 0.40700001 4279065130
0.062274482 -0.057157576 0.40700001 4279194920
0.063752681 -0.057298016 0.40800002 4280574778
0.065077856 -0.057298016 0.40800002 4280704827
0.066403046 -0.057298016 0.40800002 4281492800
0.053808782 -0.055286452 0.40300003 4280440889
0.055254489 -0.055423636 0.40400001 4279653424
0.056566685 -0.055423636 0.40400001 4279458607
0.058022145 -0.055560827 0.40500003 4279393582
0.05933759 -0.055560827 0.40500003 4279394095
0.060802784 -0.055698011 0.40600002 4279130410
0.062121473 -0.055698011 0.40600002 4281034557
0.06359642 -0.055835195 0.40700001 4280967739
0.064918354 -0.055835195 0.40700001 4281754948
0.066240288 -0.055835195 0.40700001 4281096505
0.067396231 -0.055698011 0.40600002 4281752638
0.050809812 -0.053575244 0.40000001 4283069275
0.052239291 -0.053709183 0.40100002 4280769084
0.05367526 -0.053843118 0.40200001 4279852086
0.055117723 -0.053977061 0.40300003 4279327021
0.05642667 -0.053977061 0.40300003 4279327789
0.057878878 -0.054110996 0.40400001 4279590961
0.05933759 -0.054244936 0.40500003 4279325992
0.060653023 -0.054244936 0.40500003 4280706362
0.062121473 -0.054378871 0.40600002 4280572211
0.063440166 -0.054378871 0.40600002 4281491776
0.064758852 -0.054378871 0.40600002 4281424700
0.066077538 -0.054378871 0.40600002 4281951046
0.04938684 -0.052144911 0.39900002 4283463006
0.050809812 -0.052275598 0.40000001 4280507709
0.052239291 -0.052406289 0.40100002 4279653937
0.053541742 -0.052406289 0.40100002 4279328304
0.054980952 -0.052536976 0.40200001 4279000107
0.05642667 -0.05266767 0.40300003 4279131693
0.057735614 -0.05266767 0.40300003 4279788340
0.059191074 -0.052798357 0.40400001 4281035327
0.060653023 -0.052929047 0.40500003 4279652391
0.061968468 -0.052929047 0.40500003 4281492800
0.063283913 -0.052929047 0.40500003 4281623362
0.064758852 -0.053059734 0.40600002 4281686847
0.066077538 -0.053059734 0.40600002 4284580456
0.047970362 -0.050721087 0.39800003 4283200345
0.049263064 -0.050721087 0.39800003 4280505912
0.050682791 -0.050848521 0.39900002 4279458353
0.052109014 -0.05097596 0.40000001 4279458607
0.053541742 -0.051103402 0.40100002 4279065128
0.054844186 -0.051103402 0.40100002 4278869033
0.056286652 -0.05123084 0.40200001 4279721266
0.057735614 -0.051358283 0.40300003 4280970049
0.059191074 -0.051485721 0.40400001 4280112944
0.060503263 -0.051485721 0.40400001 4281492546
0.061968468 -0.051613163 0.40500003 4281359677
0.063283913 -0.051613163 0.40500003 4281688642
0.06459935 -0.051613163 0.40500003 4284382307
0.065914787 -0.051613163 0.40500003 4286289790
0.046443094 -0.049179561 0.39600003 4282871384
0.04784983 -0.049303748 0.39700001 4280573241
0.049263064 -0.049427941 0.39800003 4279785521
0.050555769 -0.049427941 0.39800003 4279196205
0.051978745 -0.049552131 0.39900002 4279130923
0.053408217 -0.049676321 0.40000001 4278604577
0.054844186 -0.049800515 0.40100002 4280181815
0.056286652 -0.049924701 0.40200001 4280968512
0.057735614 -0.050048895 0.40300003 4279980590
0.059044562 -0.050048895 0.40300003 4281096505
0.060503263 -0.050173085 0.40400001 4282016837
0.061815456 -0.050173085 0.40400001 4281884737
0.063283913 -0.050297279 0.40500003 4283725660
0.06459935 -0.050297279 0.40500003 4285697913
0.065914787 -0.050297279 0.40500003 4286223997
0.067230232 -0.050297279 0.40500003 4286158204
0.04504285 -0.047771972 0.39500001 4282674517
0.046443094 -0.047892917 0.39600003 4280571705
0.047729302 -0.047892917 0.39600003 4279260715
0.049139284 -0.048013855 0.39700001 4279064619
0.050555769 -0.0481348 0.39800003 4278736935
0.051978745 -0.048255742 0.39900002 4278342691
0.053274699 -0.048255742 0.39900002 4280048947
0.054707415 -0.048376679 0.40000001 4281166915
0.056146637 -0.048497625 0.40100002 4279584551
0.057592351 -0.048618563 0.40200001 4281097020
0.059044562 -0.048739508 0.40300003 4281686847
0.060503263 -0.048860449 0.40400001 4281752640
0.061815456 -0.048860449 0.40400001 4283724893
0.063283913 -0.048981391 0.40500003 4286157950
0.06459935 -0.048981391 0.40500003 4286092157
0.065914787 -0.048981391 0.40500003 4286026618
0.067230232 -0.048981391 0.40500003 4286157691
0.043538321 -0.046253193 0.39300001 4282147659
0.044928819 -0.046370886 0.39400002 4280639547
0.046325814 -0.046488576 0.39500001 4279851568
0.047729302 -0.046606272 0.39600003 4279065130
0.049015511 -0.046606272 0.39600003 4279000107
0.050428741 -0.046723962 0.39700001 4278868521
0.051848475 -0.046841659 0.39800003 4280510780
0.053274699 -0.046959348 0.39900002 4280903743
0.054707415 -0.047077041 0.40000001 4279912744
0.056146637 -0.047194734 0.40100002 4282673488
0.057592351 -0.047312424 0.40200001 4280502319
0.059044562 -0.04743012 0.40300003 4281949765
0.060503263 -0.04754781 0.40400001 4283463004
0.061815456 -0.04754781 0.40400001 4285895292
0.063127652 -0.04754781 0.40400001 4286223743
0.06459935 -0.047665507 0.40500003 4285960058
0.065914787 -0.047665507 0.40500003 4286157691
0.04215432 -0.044861849 0.39200002 4282017870
0.043427538 -0.044861849 0.39200002 4280572989
0.044814784 -0.04497629 0.39300001 4279196205
0.046208534 -0.045090739 0.39400002 4279130410
0.04760877 -0.04520518 0.39500001 4279000105
0.049015511 -0.045319624 0.39600003 4278802726
0.050428741 -0.045434065 0.39700001 4280247606
0.051848475 -0.045548514 0.39800003 4280773436
0.05314118 -0.045548514 0.39800003 4279582244
0.054570649 -0.045662954 0.39900002 4280962870
0.056146637 -0.04589184 0.40100002 4282475339
0.057592351 -0.046006285 0.40200001 4282475339
0.059044562 -0.046120729 0.40300003 4284184674
0.060503263 -0.04623517 0.40400001 4285894778
0.061815456 -0.04623517 0.40400001 4286092411
0.063127652 -0.04623517 0.40400001 4286223997
0.064439841 -0.04623517 0.40400001 4286223997
0.040672526 -0.043365814 0.39000002 4281621567
0.041939247 -0.043365814 0.39000002 4280113975
0.043316755 -0.04347701 0.39100003 4279589426
0.044700753 -0.043588202 0.39200002 4278801958
0.046091251 -0.043699395 0.39300001 4279263279
0.047488246 -0.043810591 0.39400002 4279065130
0.048891731 -0.043921784 0.39500001 4280248121
0.050301719 -0.04403298 0.39600003 4280706362
0.051718198 -0.044144172 0.39700001 4279518756
0.05314118 -0.044255368 0.39800003 4281488444
0.054570649 -0.044366561 0.39900002 4280764723
0.056006618 -0.044477757 0.40000001 4282080581
0.057449088 -0.044588953 0.40100002 4283001170
0.058898047 -0.044700146 0.40200001 4286289536
0.039203726 -0.041882772 0.38800001 4282082370
0.04056824 -0.04199072 0.38900003 4280769336
0.041831709 -0.04199072 0.38900003 4279130412
0.043205969 -0.042098664 0.39000002 4279262511
0.044586722 -0.042206611 0.39100003 4279328554
0.045973971 -0.042314555 0.39200002 4279262761
0.047367714 -0.0424225 0.39300001 4280904254
0.048767958 -0.042530444 0.39400002 4281560903
0.050174691 -0.042638388 0.39500001 4279450398
0.051587928 -0.042746335 0.39600003 4281290806
0.053007659 -0.042854279 0.39700001 4281355575
0.054433882 -0.042962227 0.39800003 4282803793
0.056006618 -0.043178115 0.40000001 4283263058
0.057449088 -0.043286063 0.40100002 4286354046
0.037845708 -0.040517427 0.38700002 4282016071
0.039102685 -0.040517427 0.38700002 4280245043
0.04046395 -0.040622123 0.38800001 4279392301
0.041831709 -0.040726818 0.38900003 4279131693
0.043205969 -0.040831514 0.39000002 4278934566
0.044586722 -0.040936213 0.39100003 4278999589
0.045973971 -0.041040905 0.39200002 4280511032
0.047367714 -0.0411456 0.39300001 4281034042
0.048767958 -0.0412503 0.39400002 4279254301
0.050174691 -0.041354995 0.39500001 4280895026
0.051587928 -0.041459691 0.39600003 4280763440
0.053007659 -0.041564386 0.39700001 4282672718
0.054433882 -0.041669086 0.39800003 4283395412
0.028971814 -0.039158575 0.38600001 4279130925
0.030225543 -0.039158575 0.38600001 4279262257
0.031397719 -0.039057128 0.38500002 4280181563
0.032648202 -0.039057128 0.38500002 4279719217
0.033898681 -0.039057128 0.38500002 4280903241
0.035149161 -0.039057128 0.38500002 4281230923
0.036494188 -0.039158575 0.38600001 4280506934
0.037747912 -0.039158575 0.38600001 4279982387
0.039102685 -0.039260022 0.38700002 4279590963
0.040359661 -0.039260022 0.38700002 4279197488
0.041724171 -0.039361469 0.38800001 4279000621
0.043095186 -0.039462917 0.38900003 4278803242
0.044472687 -0.039564364 0.39000002 4280247610
0.045856692 -0.039665814 0.39100003 4280508985
0.047367714 -0.039868705 0.39300001 4280372266
0.048767958 -0.039970152 0.39400002 4280238631
0.05004767 -0.039970152 0.39400002 4280894512
0.051587928 -0.040173046 0.39600003 4282473542
0.05287414 -0.040173046 0.39600003 4283264342
0.054433882 -0.040375941 0.39800003 4286223743
0.028579788 -0.039082799 0.39800003 4279256349
0.029797435 -0.0389846 0.39700001 4278800927
0.03014724 -0.037806224 0.38500002 4279131175
0.031479269 -0.037904423 0.38600001 4279394097
0.032648202 -0.037806224 0.38500002 4278801960
0.033898681 -0.037806224 0.38500002 4279327537
0.035149161 -0.037806224 0.38500002 4279655732
0.036494188 -0.037904423 0.38600001 4279524400
0.037747912 -0.037904423 0.38600001 4279459377
0.039102685 -0.038002621 0.38700002 4279328304
0.040359661 -0.038002621 0.38700002 4279592244
0.041724171 -0.038100816 0.38800001 4278868521
0.043095186 -0.038199019 0.38900003 4280510780
0.044472687 -0.038297214 0.39000002 4280968764
0.045856692 -0.038395412 0.39100003 4280835383
0.047247186 -0.038493611 0.39200002 4280437293
0.048644178 -0.038591806 0.39300001 4280632622
0.05004767 -0.038690008 0.39400002 4281685312
0.051587928 -0.038886402 0.39600003 4283922272
0.05287414 -0.038886402 0.39600003 4286092671
0.054433882 -0.039082799 0.39800003 4286158464
0.028651597 -0.037884604 0.39900002 4279382809
0.029872492 -0.037789658 0.39800003 4278732570
0.030225543 -0.03665027 0.38600001 4278734367
0.031479269 -0.03665027 0.38600001 4278539556
0.032733001 -0.03665027 0.38600001 4278671144
0.033986729 -0.03665027 0.38600001 4283801463
0.035240456 -0.03665027 0.38600001 4282748773
0.036494188 -0.03665027 0.38600001 4281432393
0.037747912 -0.03665027 0.38600001 4279591474
0.039102685 -0.03674522 0.38700002 4279921209
0.04046395 -0.036840167 0.38800001 4278868521
0.041831709 -0.036935117 0.38900003 4280510266
0.043205969 -0.037030064 0.39000002 4280903741
0.044586722 -0.037125014 0.39100003 4280637491
0.045973971 -0.037219964 0.39200002 4282084167
0.047247186 -0.037219964 0.39200002 4280501290
0.048644178 -0.03731491 0.39300001 4282277447
0.05004767 -0.037409861 0.39400002 4283725147
0.051587928 -0.037599761 0.39600003 4285895032
0.05287414 -0.037599761 0.39600003 4286158204
0.054433882 -0.037789658 0.39800003 4286223743
0.028723404 -0.036679912 0.40000001 4280039203
0.029872492 -0.036496516 0.39800003 4278664982
0.030225543 -0.035396114 0.38600001 4278600216
0.031479269 -0.035396114 0.38600001 4278602267
0.032733001 -0.035396114 0.38600001 4278405915
0.033986729 -0.035396114 0.38600001 4278736935
0.035240456 -0.035396114 0.38600001 4278869037
0.036494188 -0.035396114 0.38600001 4278737449
0.037845708 -0.035487816 0.38700002 4278802728
0.039102685 -0.035487816 0.38700002 4279788853
0.04046395 -0.035579514 0.38800001 4280313914
0.041831709 -0.035671216 0.38900003 4280640571
0.043205969 -0.035762914 0.39000002 4281166145
0.044586722 -0.035854615 0.39100003 4280373297
0.045973971 -0.035946317 0.39200002 4280700465
0.047247186 -0.035946317 0.39200002 4282408517
0.048644178 -0.036038015 0.39300001 4283592791
0.05004767 -0.036129717 0.39400002 4286355329
0.051587928 -0.036313117 0.39600003 4286289790
0.05287414 -0.036313117 0.39600003 4286158204
0.054433882 -0.036496516 0.39800003 4286223484
0.028723404 -0.03538027 0.40000001 4279908899
0.029872492 -0.035203371 0.39800003 4278664214
0.031165199 -0.035203371 0.39800003 4278599191
0.031560823 -0.034230415 0.38700002 4278665496
0.032817803 -0.034230415 0.38700002 4279193636
0.03407478 -0.034230415 0.38700002 4278998824
0.035331756 -0.034230415 0.38700002 4278999337
0.036588732 -0.034230415 0.38700002 4279855416
0.037845708 -0.034230415 0.38700002 4279525168
0.039203726 -0.034318864 0.38800001 4280050229
0.04056824 -0.034407318 0.38900003 4280837948
0.041939247 -0.034495767 0.39000002 4281297216
0.043316755 -0.034584217 0.39100003 4281165116
0.044586722 -0.034584217 0.39100003 4280965180
0.045973971 -0.034672666 0.39200002 4282675285
0.047247186 -0.034672666 0.39200002 4284513893
0.048644178 -0.034761116 0.39300001 4285961339
0.05004767 -0.034849569 0.39400002 4286223743
0.051587928 -0.035026472 0.39600003 4286355329
0.05287414 -0.035026472 0.39600003 4286355070
0.054433882 -0.035203371 0.39800003 4286289277
0.029797435 -0.033825029 0.39700001 4278795800
0.031165199 -0.03391023 0.39800003 4278796568
0.031642377 -0.033058211 0.38800001 4278928668
0.032902602 -0.033058211 0.38800001 4279258146
0.03407478 -0.032973014 0.38700002 4279062820
0.035331756 -0.032973014 0.38700002 4279852852
0.036683276 -0.033058211 0.38800001 4279984184
0.037943501 -0.033058211 0.38800001 4280049979
0.039304767 -0.033143416 0.38900003 4280509498
0.04056824 -0.033143416 0.38900003 4281034557
0.041939247 -0.033228617 0.39000002 4281165630
0.043316755 -0.033313818 0.39100003 4280769590
0.044700753 -0.033399019 0.39200002 4282016585
0.045973971 -0.033399019 0.39200002 4284383336
0.047247186 -0.033399019 0.39200002 4286223743
0.048644178 -0.033484221 0.39300001 4286223743
0.05004767 -0.033569422 0.39400002 4286289023
0.051587928 -0.033739828 0.39600003 4286420863
0.05287414 -0.033739828 0.39600003 4286289277
0.054433882 -0.03391023 0.39800003 4286420863
0.028436171 -0.032453183 0.39600003 4279056154
0.02972238 -0.032453183 0.39600003 4278795800
0.030773675 -0.032207321 0.39300001 4278664984
0.031805482 -0.031961467 0.39000002 4278928154
0.032987405 -0.031879514 0.38900003 4279521318
0.034250874 -0.031879514 0.38900003 4279456295
0.035423048 -0.031797562 0.38800001 4280246326
0.036683276 -0.031797562 0.38800001 4279983670
0.038041294 -0.031879514 0.38900003 4279523119
0.039304767 -0.031879514 0.38900003 4280508985
0.040672526 -0.031961467 0.39000002 4281101122
0.042046785 -0.03204342 0.39100003 4281363011
0.043316755 -0.03204342 0.39100003 4280374319
0.044700753 -0.032125372 0.39200002 4284119905
0.045973971 -0.032125372 0.39200002 4286026878
0.047247186 -0.032125372 0.39200002 4286223743
0.048644178 -0.032207321 0.39300001 4286354816
0.05004767 -0.032289278 0.39400002 4286420863
0.051587928 -0.032453183 0.39600003 4286552449
0.05287414 -0.032453183 0.39600003 4286223230
0.054433882 -0.032617088 0.39800003 4286552195
0.028436171 -0.031166535 0.39600003 4279254301
0.029647322 -0.031087831 0.39500001 4278730007
0.030851981 -0.031009128 0.39400002 4278927386
0.031887036 -0.030773019 0.39100003 4279257633
0.033072203 -0.030694313 0.39000002 4279323939
0.034250874 -0.030615611 0.38900003 4279719467
0.035514347 -0.030615611 0.38900003 4280312119
0.03677782 -0.030615611 0.38900003 4280048947
0.038139086 -0.030694313 0.39000002 4280443451
0.039405808 -0.030694313 0.39000002 4280968512
0.040672526 -0.030694313 0.39000002 4281231684
0.042046785 -0.030773019 0.39100003 4281558852
0.043316755 -0.030773019 0.39100003 4284121699
0.044700753 -0.030851722 0.39200002 4286027132
0.045973971 -0.030851722 0.39200002 4286092925
0.047247186 -0.030851722 0.39200002 4286289536
0.048644178 -0.030930424 0.39300001 4286223743
0.05004767 -0.031009128 0.39400002 4286355329
0.051587928 -0.031166535 0.39600003 4286355329
0.05287414 -0.031166535 0.39600003 4286289536
0.054433882 -0.031323943 0.39800003 4286289536
0.028436171 -0.02987989 0.39600003 4278728724
0.029647322 -0.029804435 0.39500001 4278795800
0.030851981 -0.029728983 0.39400002 4278796570
0.032050136 -0.029653527 0.39300001 4279850281
0.033241805 -0.029578073 0.39200002 4279390500
0.034338925 -0.029427165 0.39000002 4279983152
0.035605643 -0.029427165 0.39000002 4279918129
0.036872365 -0.029427165 0.39000002 4279918129
0.038139086 -0.029427165 0.39000002 4280378680
0.039405808 -0.029427165 0.39000002 4281757255
0.040776815 -0.029502621 0.39100003 4281888071
0.042046785 -0.029502621 0.39100003 4284515944
0.043316755 -0.029502621 0.39100003 4285896314
0.044700753 -0.029578073 0.39200002 4286223997
0.045973971 -0.029578073 0.39200002 4286289790
0.047247186 -0.029578073 0.39200002 4286354816
0.048644178 -0.029653527 0.39300001 4286420609
0.05004767 -0.029728983 0.39400002 4286354816
0.051587928 -0.02987989 0.39600003 4286157950
0.05287414 -0.02987989 0.39600003 4286355329
0.054433882 -0.0300308 0.39800003 4286223743
0.025929065 -0.028665451 0.39700001 4280039201
0.027149964 -0.028593246 0.39600003 4279056404
0.028436171 -0.028593246 0.39600003 4278926101
0.029647322 -0.02852104 0.39500001 4278664212
0.030930284 -0.02852104 0.39500001 4279059740
0.032050136 -0.02837663 0.39300001 4279060765
0.033326603 -0.02837663 0.39300001 4278798363
0.034426972 -0.028232221 0.39100003 4279917357
0.035605643 -0.028160015 0.39000002 4279786543
0.036966912 -0.028232221 0.39100003 4280378680
0.038236879 -0.028232221 0.39100003 4280641852
0.039506849 -0.028232221 0.39100003 4281361214
0.040776815 -0.028232221 0.39100003 4285108083
0.042046785 -0.028232221 0.39100003 4286092671
0.043316755 -0.028232221 0.39100003 4286026878
0.044700753 -0.028304426 0.39200002 4286355329
0.045973971 -0.028304426 0.39200002 4286355329
0.047247186 -0.028304426 0.39200002 4286354816
0.048644178 -0.02837663 0.39300001 4286420609
0.05004767 -0.028448837 0.39400002 4286617988
0.051587928 -0.028593246 0.39600003 4286355329
0.05287414 -0.028593246 0.39600003 4286486915
0.054433882 -0.028737657 0.39800003 4286552708
0.023350153 -0.027375558 0.39700001 4281024304
0.02463961 -0.027375558 0.39700001 4279578139
0.025863754 -0.027306603 0.39600003 4279448861
0.027149964 -0.027306603 0.39600003 4279123228
0.028436171 -0.027306603 0.39600003 4279058459
0.02972238 -0.027306603 0.39600003 4279257633
0.030930284 -0.027237644 0.39500001 4279322910
0.032131691 -0.027168689 0.39400002 4279521316
0.033411406 -0.027168689 0.39400002 4278995742
0.034779165 -0.027237644 0.39500001 4279983922
0.036062125 -0.027237644 0.39500001 4279786543
0.036966912 -0.026961822 0.39100003 4280312889
0.038236879 -0.026961822 0.39100003 4280902460
0.039506849 -0.026961822 0.39100003 4285041518
0.040776815 -0.026961822 0.39100003 4286027132
0.023350153 -0.026085664 0.39700001 4279643930
0.024577547 -0.026019959 0.39600003 4279843360
0.025863754 -0.026019959 0.39600003 4279450912
0.027149964 -0.026019959 0.39600003 4279189793
0.028436171 -0.026019959 0.39600003 4278992927
0.02972238 -0.026019959 0.39600003 4278796830
0.030930284 -0.02595425 0.39500001 4279126047
0.032213245 -0.02595425 0.39500001 4279258914
0.033411406 -0.025888544 0.39400002 4280114736
0.034779165 -0.02595425 0.39500001 4279589680
0.036062125 -0.02595425 0.39500001 4280116024
0.037345089 -0.02595425 0.39500001 4280966969
0.038628045 -0.02595425 0.39500001 4284780143
0.039911009 -0.02595425 0.39500001 4286158716
0.04119397 -0.02595425 0.39500001 4286289788
0.01904013 -0.02423365 0.38800001 4286619269
0.023291336 -0.024733314 0.39600003 4286816132
0.024577547 -0.024733314 0.39600003 4284646249
0.025863754 -0.024733314 0.39600003 4279514654
0.027149964 -0.024733314 0.39600003 4279254303
0.028436171 -0.024733314 0.39600003 4279387685
0.029647322 -0.024670856 0.39500001 4279256869
0.030930284 -0.024670856 0.39500001 4279585832
0.032213245 -0.024670856 0.39500001 4279390502
0.033496205 -0.024670856 0.39500001 4280246324
0.034779165 -0.024670856 0.39500001 4279786805
0.036062125 -0.024670856 0.39500001 4279785523
0.037345089 -0.024670856 0.39500001 4285699450
0.038628045 -0.024670856 0.39500001 4286027130
0.023291336 -0.02344667 0.39600003 4286487169
0.024577547 -0.02344667 0.39600003 4286223997
0.025863754 -0.02344667 0.39600003 4286289790
0.027149964 -0.02344667 0.39600003 4286685060
0.028436171 -0.02344667 0.39600003 4282013757
0.029647322 -0.02338746 0.39500001 4279845670
0.030930284 -0.02338746 0.39500001 4280175403
0.032213245 -0.02338746 0.39500001 4280373549
0.033496205 -0.02338746 0.39500001 4280440112
0.027149964 -0.022160025 0.39600003 4286552960
0.028364362 -0.022104066 0.39500001 4286355581
0.029647322 -0.022104066 0.39500001 4286158202
0.030930284 -0.022104066 0.39500001 4286684546
0.032213245 -0.022104066 0.39500001 4286619007
0.029647322 -0.020820668 0.39500001 4286552962
0.049258716 -0.04331037 0.39929757 4294967295
0.049258716 -0.04331037 0.39929757 4294901760
0.048919156 -0.04367663 0.39927402 4294901760
0.0485796 -0.044042889 0.39925048 4294901760
0.048240039 -0.044409148 0.39922696 4294901760
0.047900483 -0.044775408 0.39920342 4294901760
0.047560923 -0.045141667 0.39917988 4294901760
0.047221363 -0.045507926 0.39915633 4294901760
0.046881806 -0.045874186 0.39913279 4294901760
0.046542246 -0.046240445 0.39910927 4294901760
0.046202689 -0.046606705 0.39908573 4294901760
0.045863129 -0.046972964 0.39906219 4294901760
0.045523569 -0.047339223 0.39903864 4294901760
0.045184013 -0.047705483 0.39901513 4294901760
0.044844452 -0.048071742 0.39899158 4294901760
0.044504896 -0.048438001 0.39896804 4294901760
0.044165336 -0.048804261 0.3989445 4294901760
0.043825775 -0.049170516 0.39892095 4294901760
0.043486219 -0.04953678 0.39889744 4294901760
0.043146659 -0.049903035 0.3988739 4294901760
0.042807102 -0.050269295 0.39885035 4294901760
0.042467542 -0.050635554 0.39882681 4294901760
0.042127982 -0.051001813 0.39880326 4294901760
0.041788425 -0.051368073 0.39877975 4294901760
0.041448865 -0.051734332 0.39875621 4294901760
0.041109309 -0.052100591 0.39873266 4294901760
0.040769748 -0.052466851 0.39870912 4294901760
0.040430188 -0.05283311 0.39868557 4294901760
0.040090632 -0.053199369 0.39866206 4294901760
0.039751071 -0.053565629 0.39863852 4294901760
0.039411515 -0.053931888 0.39861497 4294901760
0.039071955 -0.054298148 0.39859143 4294901760
0.038732395 -0.054664407 0.39856791 4294901760
0.038392838 -0.055030666 0.39854437 4294901760
0.038053278 -0.055396926 0.39852083 4294901760
0.037713721 -0.055763185 0.39849728 4294901760
0.037374161 -0.056129444 0.39847374 4294901760
0.037034601 -0.056495704 0.39845023 4294901760
0.036695044 -0.056861963 0.39842668 4294901760
0.036355484 -0.057228222 0.39840314 4294901760
0.036015928 -0.057594482 0.39837959 4294901760
0.035676368 -0.057960741 0.39835605 4294901760
0.035336807 -0.058327001 0.39833254 4294901760
0.034997251 -0.05869326 0.39830899 4294901760
0.034657691 -0.059059519 0.39828545 4294901760
0.034318134 -0.059425779 0.3982619 4294901760
0.033978574 -0.059792034 0.39823836 4294901760
0.033639014 -0.060158297 0.39821485 4294901760
0.033299457 -0.060524553 0.3981913 4294901760
0.032959901 -0.060890816 0.39816776 4294901760
0.032620341 -0.061257072 0.39814422 4294901760
0.03228078 -0.061623335 0.3981207 4294901760
0.03194122 -0.061989591 0.39809716 4294901760
0.031601664 -0.062355854 0.39807361 4294901760
0.031262107 -0.062722109 0.39805007 4294901760
0.030922545 -0.063088372 0.39802653 4294901760
0.030582987 -0.063454628 0.39800301 4294901760
0.030243428 -0.063820891 0.39797947 4294901760
0.02990387 -0.064187147 0.39795592 4294901760
0.029564312 -0.06455341 0.39793238 4294901760
0.029224753 -0.064919665 0.39790884 4294901760
0.028885193 -0.065285929 0.39788532 4294901760
0.028545635 -0.065652184 0.39786178 4294901760
0.028206076 -0.066018447 0.39783823 4294901760
0.027866516 -0.066384703 0.39781469 4294901760
0.027526958 -0.066750959 0.39779115 4294901760
0.0271874 -0.067117222 0.39776763 4294901760
0.026847839 -0.067483485 0.39774409 4294901760
0.026508281 -0.06784974 0.39772055 4294901760
0.026168723 -0.068215996 0.397697 4294901760
0.025829164 -0.068582259 0.39767346 4294901760
0.025489606 -0.068948522 0.39764994 4294901760
0.025150048 -0.069314778 0.3976264 4294901760
0.024810487 -0.069681033 0.39760286 4294901760
0.024470929 -0.070047297 0.39757931 4294901760
0.024131371 -0.07041356 0.3975558 4294901760
0.023791812 -0.070779815 0.39753225 4294901760
0.023452254 -0.071146071 0.39750871 4294901760
0.023112696 -0.071512334 0.39748517 4294901760
0.022773137 -0.07187859 0.39746162 4294901760
0.022433577 -0.072244853 0.39743811 4294901760
0.022094019 -0.072611108 0.39741457 4294901760
0.02175446 -0.072977372 0.39739102 4294901760
0.021414902 -0.073343627 0.39736748 4294901760
0.021075344 -0.07370989 0.39734393 4294901760
0.020735785 -0.074076146 0.39732042 4294901760
0.020396225 -0.074442409 0.39729688 4294901760
0.020056667 -0.074808672 0.39727333 4294901760
0.019717108 -0.075174928 0.39724979 4294901760
0.019377548 -0.075541183 0.39722624 4294901760
0.01903799 -0.075907439 0.39720273 4294901760
0.018698432 -0.076273702 0.39717919 4294901760
0.018358871 -0.076639965 0.39715564 4294901760
0.018019313 -0.077006221 0.3971321 4294901760
0.017679755 -0.077372476 0.39710858 4294901760
0.017340198 -0.07773874 0.39708504 4294901760
0.017000638 -0.078105003 0.3970615 4294901760
0.016661081 -0.078471258 0.39703795 4294901760
0.016321521 -0.078837514 0.39701441 4294901760
0.015981961 -0.079203777 0.3969909 4294901760
0.015642405 -0.07957004 0.39696735 4294901760
0.015302844 -0.079936296 0.39694381 4294901760
0.049258716 -0.04331037 0.39929757 4278255360
0.049577996 -0.04362097 0.39952469 4278255360
0.049897276 -0.04393157 0.39975184 4278255360
0.050216556 -0.04424217 0.39997897 4278255360
0.050535832 -0.04455277 0.40020609 4278255360
0.050855111 -0.044863369 0.40043321 4278255360
0.051174391 -0.045173969 0.40066034 4278255360
0.051493671 -0.045484569 0.40088749 4278255360
0.051812951 -0.045795169 0.40111461 4278255360
0.05213223 -0.046105772 0.40134174 4278255360
0.05245151 -0.046416372 0.40156889 4278255360
0.052770786 -0.046726972 0.40179601 4278255360
0.053090066 -0.047037572 0.40202314 4278255360
0.053409345 -0.047348171 0.40225026 4278255360
0.053728625 -0.047658771 0.40247738 4278255360
0.054047905 -0.047969371 0.40270454 4278255360
0.054367185 -0.048279971 0.40293166 4278255360
0.054686464 -0.048590571 0.40315878 4278255360
0.055005744 -0.04890117 0.40338594 4278255360
0.05532502 -0.04921177 0.40361306 4278255360
0.0556443 -0.04952237 0.40384018 4278255360
0.05596358 -0.04983297 0.40406731 4278255360
0.056282859 -0.05014357 0.40429443 4278255360
0.056602139 -0.05045417 0.40452158 4278255360
0.056921419 -0.050764769 0.40474871 4278255360
0.057240695 -0.051075369 0.40497583 4278255360
0.057559974 -0.051385969 0.40520298 4278255360
0.057879254 -0.051696569 0.40543011 4278255360
0.058198534 -0.052007169 0.40565723 4278255360
0.058517814 -0.052317768 0.40588436 4278255360
0.058837093 -0.052628368 0.40611151 4278255360
0.059156373 -0.052938968 0.40633863 4278255360
0.059475653 -0.053249568 0.40656576 4278255360
0.059794933 -0.053560171 0.40679288 4278255360
0.060114209 -0.053870771 0.40702003 4278255360
0.060433488 -0.054181371 0.40724716 4278255360
0.060752768 -0.054491971 0.40747428 4278255360
0.061072048 -0.05480257 0.4077014 4278255360
0.061391328 -0.05511317 0.40792853 4278255360
0.061710604 -0.05542377 0.40815568 4278255360
0.062029883 -0.05573437 0.4083828 4278255360
0.062349163 -0.05604497 0.40860993 4278255360
0.062668443 -0.05635557 0.40883708 4278255360
0.062987722 -0.056666169 0.4090642 4278255360
0.063307002 -0.056976769 0.40929133 4278255360
0.063626282 -0.057287369 0.40951845 4278255360
0.063945562 -0.057597969 0.40974557 4278255360
0.064264841 -0.057908569 0.40997273 4278255360
0.064584121 -0.058219168 0.41019985 4278255360
0.064903393 -0.058529772 0.41042697 4278255360
0.065222681 -0.058840372 0.41065413 4278255360
0.065541953 -0.059150971 0.41088125 4278255360
0.065861233 -0.059461571 0.41110837 4278255360
0.066180512 -0.059772171 0.4113355 4278255360
0.066499792 -0.060082771 0.41156265 4278255360
0.066819072 -0.060393371 0.41178977 4278255360
0.067138352 -0.06070397 0.4120169 4278255360
0.067457631 -0.06101457 0.41224402 4278255360
0.067776911 -0.06132517 0.41247118 4278255360
0.068096191 -0.06163577 0.4126983 4278255360
0.06841547 -0.06194637 0.41292542 4278255360
0.06873475 -0.06225697 0.41315255 4278255360
0.06905403 -0.062567569 0.41337967 4278255360
0.06937331 -0.062878169 0.41360682 4278255360
0.069692582 -0.063188769 0.41383395 4278255360
0.070011862 -0.063499369 0.41406107 4278255360
0.070331141 -0.063809969 0.41428822 4278255360
0.070650429 -0.064120568 0.41451535 4278255360
0.070969701 -0.064431168 0.41474247 4278255360
0.071288981 -0.064741768 0.41496959 4278255360
0.07160826 -0.065052368 0.41519672 4278255360
0.07192754 -0.065362968 0.41542387 4278255360
0.07224682 -0.065673575 0.41565099 4278255360
0.072566099 -0.065984175 0.41587812 4278255360
0.072885379 -0.066294774 0.41610527 4278255360
0.073204659 -0.066605374 0.41633239 4278255360
0.073523939 -0.066915967 0.41655952 4278255360
0.073843211 -0.067226566 0.41678664 4278255360
0.074162498 -0.067537166 0.41701376 4278255360
0.07448177 -0.067847773 0.41724092 4278255360
0.074801058 -0.068158373 0.41746804 4278255360
0.07512033 -0.068468973 0.41769516 4278255360
0.07543961 -0.068779573 0.41792232 4278255360
0.075758889 -0.069090173 0.41814944 4278255360
0.076078169 -0.069400772 0.41837656 4278255360
0.076397449 -0.069711372 0.41860369 4278255360
0.076716729 -0.070021972 0.41883081 4278255360
0.077036008 -0.070332572 0.41905797 4278255360
0.077355288 -0.070643172 0.41928509 4278255360
0.077674568 -0.070953771 0.41951221 4278255360
0.07799384 -0.071264371 0.41973937 4278255360
0.078313127 -0.071574971 0.41996649 4278255360
0.078632407 -0.071885571 0.42019361 4278255360
0.078951687 -0.072196171 0.42042074 4278255360
0.079270959 -0.07250677 0.42064786 4278255360
0.079590239 -0.07281737 0.42087501 4278255360
0.079909518 -0.07312797 0.42110214 4278255360
0.080228798 -0.07343857 0.42132926 4278255360
0.080548078 -0.07374917 0.42155641 4278255360
0.080867358 -0.07405977 0.42178354 4278255360
0.081186637 -0.074370369 0.42201066 4278255360
0.049258716 -0.04331037 0.39929757 4278190335
0.049030896 -0.043125167 0.39970228 4278190335
0.04880308 -0.042939968 0.400107 4278190335
0.04857526 -0.042754766 0.40051174 4278190335
0.048347443 -0.042569567 0.40091646 4278190335
0.048119623 -0.042384364 0.40132117 4278190335
0.047891803 -0.042199165 0.40172589 4278190335
0.047663987 -0.042013962 0.4021306 4278190335
0.047436167 -0.041828759 0.40253535 4278190335
0.04720835 -0.04164356 0.40294006 4278190335
0.04698053 -0.041458357 0.40334478 4278190335
0.046752714 -0.041273158 0.4037495 4278190335
0.046524893 -0.041087955 0.40415421 4278190335
0.046297073 -0.040902756 0.40455893 4278190335
0.046069257 -0.040717553 0.40496367 4278190335
0.045841437 -0.040532351 0.40536839 4278190335
0.04561362 -0.040347151 0.4057731 4278190335
0.0453858 -0.040161949 0.40617782 4278190335
0.04515798 -0.03997675 0.40658253 4278190335
0.044930164 -0.039791547 0.40698728 4278190335
0.044702344 -0.039606348 0.407392 4278190335
0.044474527 -0.039421145 0.40779671 4278190335
0.044246707 -0.039235942 0.40820143 4278190335
0.044018887 -0.039050743 0.40860614 4278190335
0.043791071 -0.03886554 0.40901089 4278190335
0.04356325 -0.038680341 0.4094156 4278190335
0.043335434 -0.038495138 0.40982032 4278190335
0.043107614 -0.038309935 0.41022503 4278190335
0.042879798 -0.038124736 0.41062975 4278190335
0.042651977 -0.037939534 0.41103446 4278190335
0.042424157 -0.037754335 0.41143921 4278190335
0.042196341 -0.037569132 0.41184393 4278190335
0.041968521 -0.037383933 0.41224864 4278190335
0.041740701 -0.03719873 0.41265336 4278190335
0.041512884 -0.037013527 0.41305807 4278190335
0.041285068 -0.036828328 0.41346282 4278190335
0.041057248 -0.036643125 0.41386753 4278190335
0.040829428 -0.036457926 0.41427225 4278190335
0.040601611 -0.036272723 0.41467696 4278190335
0.040373791 -0.036087524 0.41508168 4278190335
0.040145971 -0.035902321 0.41548643 4278190335
0.039918154 -0.035717122 0.41589114 4278190335
0.039690334 -0.035531919 0.41629586 4278190335
0.039462514 -0.035346717 0.41670057 4278190335
0.039234698 -0.035161518 0.41710529 4278190335
0.039006881 -0.034976315 0.41751003 4278190335
0.038779061 -0.034791112 0.41791475 4278190335
0.038551241 -0.034605913 0.41831946 4278190335
0.038323425 -0.034420714 0.41872418 4278190335
0.038095605 -0.034235511 0.41912889 4278190335
0.037867785 -0.034050308 0.41953361 4278190335
0.037639968 -0.033865109 0.41993836 4278190335
0.037412152 -0.033679906 0.42034307 4278190335
0.037184332 -0.033494707 0.42074779 4278190335
0.036956511 -0.033309504 0.4211525 4278190335
0.036728695 -0.033124302 0.42155722 4278190335
0.036500875 -0.032939103 0.42196196 4278190335
0.036273055 -0.0327539 0.42236668 4278190335
0.036045238 -0.032568701 0.42277139 4278190335
0.035817418 -0.032383498 0.42317611 4278190335
0.035589598 -0.032198295 0.42358083 4278190335
0.035361782 -0.032013096 0.42398557 4278190335
0.035133965 -0.031827893 0.42439029 4278190335
0.034906145 -0.031642694 0.424795 4278190335
0.034678325 -0.031457491 0.42519972 4278190335
0.034450509 -0.031272292 0.42560443 4278190335
0.034222689 -0.031087089 0.42600918 4278190335
0.033994868 -0.030901888 0.42641389 4278190335
0.033767052 -0.030716687 0.42681861 4278190335
0.033539236 -0.030531485 0.42722332 4278190335
0.033311415 -0.030346286 0.42762804 4278190335
0.033083595 -0.030161083 0.42803276 4278190335
0.032855779 -0.029975882 0.4284375 4278190335
0.032627959 -0.029790681 0.42884222 4278190335
0.032400139 -0.02960548 0.42924693 4278190335
0.032172322 -0.029420279 0.42965165 4278190335
0.031944502 -0.029235076 0.43005636 4278190335
0.031716682 -0.029049877 0.43046111 4278190335
0.031488866 -0.028864674 0.43086582 4278190335
0.031261049 -0.028679473 0.43127054 4278190335
0.031033227 -0.028494272 0.43167526 4278190335
0.030805409 -0.028309071 0.43207997 4278190335
0.030577591 -0.02812387 0.43248472 4278190335
0.030349772 -0.027938668 0.43288943 4278190335
0.030121954 -0.027753469 0.43329415 4278190335
0.029894134 -0.027568266 0.43369886 4278190335
0.029666316 -0.027383065 0.43410358 4278190335
0.029438497 -0.027197864 0.43450832 4278190335
0.029210679 -0.027012663 0.43491304 4278190335
0.028982861 -0.026827462 0.43531775 4278190335
0.028755043 -0.026642261 0.43572247 4278190335
0.028527223 -0.026457058 0.43612719 4278190335
0.028299404 -0.026271857 0.4365319 4278190335
0.028071586 -0.026086656 0.43693665 4278190335
0.027843768 -0.025901455 0.43734136 4278190335
0.02761595 -0.025716254 0.43774608 4278190335
0.027388131 -0.025531054 0.43815079 4278190335
0.027160311 -0.025345851 0.43855554 4278190335
0.026932493 -0.02516065 0.43896025 4278190335
0.026704675 -0.024975449 0.43936497 4278190335
0.026476856 -0.024790248 0.43976969 4278190335
0.049258716 -0.04331037 0.39929757 4294967295
0.05062563 -0.044421576 0.39686924 4294967295
0.051992539 -0.045532785 0.39444092 4294967295
0.053359453 -0.046643991 0.3920126 4294967295
0.054726362 -0.0477552 0.38958424 4294967295
0.056093276 -0.048866406 0.38715592 4294967295
0.057460189 -0.049977615 0.3847276 4294967295
0.058827098 -0.051088821 0.38229927 4294967295
0.060194012 -0.052200027 0.37987095 4294967295
0.061560921 -0.053311236 0.37744263 4294967295
0.062927835 -0.054422446 0.37501431 4294967295
0.064294748 -0.055533651 0.37258598 4294967295
0.065661654 -0.056644857 0.37015763 4294967295
0.067028567 -0.057756066 0.36772931 4294967295
0.068395481 -0.058867272 0.36530098 4294967295
0.069762394 -0.059978481 0.36287266 4294967295
0.071129307 -0.061089687 0.36044434 4294967295
0.07249622 -0.062200896 0.35801601 4294967295
0.073863134 -0.063312098 0.35558769 4294967295
0.07523004 -0.064423308 0.35315937 4294967295
0.076596953 -0.065534517 0.35073102 4294967295
0.077963866 -0.066645727 0.34830269 4294967295
0.079330772 -0.067756929 0.34587437 4294967295
0.080697685 -0.068868138 0.34344605 4294967295
0.082064599 -0.069979347 0.34101772 4294967295
0.083431512 -0.071090549 0.3385894 4294967295
0.084798425 -0.072201759 0.33616108 4294967295
0.086165339 -0.073312968 0.33373272 4294967295
0.087532252 -0.074424177 0.3313044 4294967295
0.088899158 -0.075535387 0.32887608 4294967295
0.090266071 -0.076646596 0.32644776 4294967295
0.091632985 -0.077757798 0.32401943 4294967295
0.09299989 -0.078869 0.32159111 4294967295
0.094366804 -0.079980209 0.31916279 4294967295
0.095733717 -0.081091419 0.31673443 4294967295
0.09710063 -0.082202628 0.31430614 4294967295
0.098467544 -0.083313838 0.31187779 4294967295
0.099834457 -0.08442504 0.30944946 4294967295
0.10120137 -0.085536249 0.30702114 4294967295
0.10256828 -0.086647451 0.30459282 4294967295
0.10393519 -0.08775866 0.30216449 4294967295
0.1053021 -0.08886987 0.29973617 4294967295
0.10666901 -0.089981079 0.29730785 4294967295
0.10803592 -0.091092288 0.2948795 4294967295
0.10940284 -0.09220349 0.29245117 4294967295
0.11076975 -0.093314692 0.29002285 4294967295
0.11213666 -0.094425902 0.28759453 4294967295
0.11350358 -0.095537111 0.2851662 4294967295
0.11487048 -0.096648321 0.28273788 4294967295
0.11623739 -0.09775953 0.28030956 4294967295
0.11760431 -0.098870739 0.27788121 4294967295
0.11897122 -0.099981941 0.27545291 4294967295
0.12033813 -0.10109314 0.27302456 4294967295
0.12170504 -0.10220435 0.27059627 4294967295
0.12307196 -0.10331556 0.26816791 4294967295
0.12443887 -0.10442677 0.26573959 4294967295
0.12580578 -0.10553798 0.26331127 4294967295
0.12717268 -0.10664919 0.26088291 4294967295
0.12853959 -0.1077604 0.25845462 4294967295
0.12990651 -0.10887159 0.25602627 4294967295
0.13127342 -0.10998282 0.25359794 4294967295
0.13264033 -0.11109401 0.25116962 4294967295
0.13400725 -0.11220522 0.2487413 4294967295
0.13537416 -0.11331643 0.24631298 4294967295
0.13674107 -0.11442764 0.24388465 4294967295
0.13810799 -0.11553884 0.24145631 4294967295
0.1394749 -0.11665006 0.23902798 4294967295
0.14084181 -0.11776125 0.23659965 4294967295
0.14220873 -0.11887246 0.23417133 4294967295
0.14357564 -0.11998367 0.23174301 4294967295
0.14494255 -0.12109488 0.22931468 4294967295
0.14630945 -0.12220609 0.22688636 4294967295
0.14767638 -0.1233173 0.22445802 4294967295
0.14904329 -0.12442851 0.2220297 4294967295
0.15041019 -0.12553971 0.21960138 4294967295
0.1517771 -0.12665091 0.21717304 4294967295
0.15314402 -0.12776212 0.21474472 4294967295
0.15451092 -0.12887333 0.21231639 4294967295
0.15587783 -0.12998454 0.20988807 4294967295
0.15724476 -0.13109575 0.20745973 4294967295
0.15861166 -0.13220696 0.20503141 4294967295
0.15997857 -0.13331816 0.20260309 4294967295
0.16134548 -0.13442937 0.20017476 4294967295
0.1627124 -0.13554057 0.19774644 4294967295
0.16407931 -0.13665178 0.19531812 4294967295
0.16544622 -0.13776299 0.19288978 4294967295
0.16681314 -0.1388742 0.19046144 4294967295
0.16818005 -0.13998541 0.18803312 4294967295
0.16954696 -0.14109661 0.1856048 4294967295
0.17091388 -0.14220782 0.18317647 4294967295
0.17228079 -0.14331903 0.18074815 4294967295
0.1736477 -0.14443024 0.17831981 4294967295
0.17501462 -0.14554144 0.17589149 4294967295
0.17638153 -0.14665265 0.17346317 4294967295
0.17774844 -0.14776386 0.17103484 4294967295
0.17911533 -0.14887506 0.1686065 4294967295
0.18048224 -0.14998627 0.16617818 4294967295
0.18184918 -0.15109748 0.16374984 4294967295
0.18321607 -0.15220869 0.16132152 4294967295
0.18458298 -0.1533199 0.1588932 4294967295
0.18594989 -0.1544311 0.15646487 4294967295
