# .PCD v0.7 - Point Cloud Data file format
VERSION 0.7
FIELDS x y z rgb
SIZE 4 4 4 4
TYPE F F F U
COUNT 1 1 1 1
WIDTH 1026
HEIGHT 1
VIEWPOINT 0 0 0 1 0 0 0
POINTS 1026
DATA ascii
0.0422078 0.040746726 0.34100002 4279641104
0.04331537 0.040746726 0.34100002 4279317781
0.044422939 0.040746726 0.34100002 4279386652
0.045530509 0.040746726 0.34100002 4278796820
0.046501301 0.04062723 0.34 4278600468
0.047605623 0.04062723 0.34 4278798617
0.048709948 0.04062723 0.34 4278930203
0.040227227 0.04210015 0.34300002 4279573256
0.04134129 0.04210015 0.34300002 4279507465
0.042331576 0.041977406 0.34200001 4279508235
0.04331537 0.041854668 0.34100002 4279184912
0.044422939 0.041854668 0.34100002 4279451162
0.045530509 0.041854668 0.34100002 4278795537
0.046638072 0.041854668 0.34100002 4278665234
0.047745645 0.041854668 0.34100002 4278600468
0.048853215 0.041854668 0.34100002 4278600468
0.049960785 0.041854668 0.34100002 4278600214
0.040227227 0.043214593 0.34300002 4279638281
0.04134129 0.043214593 0.34300002 4279770383
0.042331576 0.043088604 0.34200001 4279507981
0.043442391 0.043088604 0.34200001 4279249676
0.044553209 0.043088604 0.34200001 4279779613
0.045530509 0.042962614 0.34100002 4278794515
0.046638072 0.042962614 0.34100002 4278730003
0.047745645 0.042962614 0.34100002 4278731541
0.048853215 0.042962614 0.34100002 4278665748
0.049960785 0.042962614 0.34100002 4278468369
0.11202016 0.040568803 0.32200003 4278927636
0.11306601 0.040568803 0.32200003 4279125015
0.11411187 0.040568803 0.32200003 4278993175
0.11515772 0.040568803 0.32200003 4279190554
0.11620358 0.040568803 0.32200003 4279058968
0.11724944 0.040568803 0.32200003 4279124248
0.11829529 0.040568803 0.32200003 4279124248
0.11934115 0.040568803 0.32200003 4279255834
0.12038701 0.040568803 0.32200003 4279911713
0.040344507 0.04445827 0.34400001 4279704844
0.04134129 0.044329032 0.34300002 4279507465
0.042455353 0.044329032 0.34300002 4279573004
0.043442391 0.044199791 0.34200001 4279183885
0.044553209 0.044199791 0.34200001 4279779100
0.045664027 0.044199791 0.34200001 4278794515
0.046774838 0.044199791 0.34200001 4278729490
0.047885656 0.044199791 0.34200001 4278730003
0.048996475 0.044199791 0.34200001 4279058968
0.050107293 0.044199791 0.34200001 4278795796
0.059604526 0.04303664 0.333 4279256349
0.060686108 0.04303664 0.333 4279190043
0.10888258 0.041615013 0.32200003 4278796820
0.10992844 0.041615013 0.32200003 4278665234
0.1109743 0.041615013 0.32200003 4278796050
0.11202016 0.041615013 0.32200003 4279059222
0.11306601 0.041615013 0.32200003 4278796050
0.11411187 0.041615013 0.32200003 4278927636
0.11515772 0.041615013 0.32200003 4278993429
0.11620358 0.041615013 0.32200003 4279059222
0.11724944 0.041615013 0.32200003 4278993429
0.11829529 0.041615013 0.32200003 4278993427
0.11934115 0.041615013 0.32200003 4278993427
0.12038701 0.041615013 0.32200003 4278861328
0.12143287 0.041615013 0.32200003 4279255316
0.040344507 0.045575965 0.34400001 4279638797
0.041461818 0.045575965 0.34400001 4279638797
0.042455353 0.045443479 0.34300002 4279638797
0.043569416 0.045443479 0.34300002 4279051275
0.044683482 0.045443479 0.34300002 4279976481
0.045664027 0.045310989 0.34200001 4279057176
0.046774838 0.045310989 0.34200001 4278662931
0.047885656 0.045310989 0.34200001 4278993177
0.049139742 0.045443479 0.34300002 4278993177
0.050253808 0.045443479 0.34300002 4278730003
0.051517628 0.045575965 0.34400001 4278993175
0.052634943 0.045575965 0.34400001 4279256347
0.057441354 0.044118594 0.333 4279256349
0.05852294 0.044118594 0.333 4279124250
0.059604526 0.044118594 0.333 4278660367
0.060686108 0.044118594 0.333 4279976227
0.061767694 0.044118594 0.333 4278199301
0.062849283 0.044118594 0.333 4279386654
0.063930862 0.044118594 0.333 4279386652
0.065012448 0.044118594 0.333 4279320859
0.10888258 0.042661224 0.32200003 4278796050
0.10992844 0.042661224 0.32200003 4278664464
0.1109743 0.042661224 0.32200003 4278729744
0.11202016 0.042661224 0.32200003 4278861076
0.11306601 0.042661224 0.32200003 4278663697
0.11411187 0.042661224 0.32200003 4278730257
0.11515772 0.042661224 0.32200003 4278796050
0.11620358 0.042661224 0.32200003 4278927636
0.11724944 0.042661224 0.32200003 4278796050
0.11829529 0.042661224 0.32200003 4279125015
0.11934115 0.042661224 0.32200003 4279256601
0.12038701 0.042661224 0.32200003 4279059222
0.12143287 0.042661224 0.32200003 4278992916
0.040344507 0.046693653 0.34400001 4279507465
0.041461818 0.046693653 0.34400001 4279573258
0.042579129 0.046693653 0.34400001 4279442188
0.043569416 0.046557918 0.34300002 4279379729
0.044683482 0.046557918 0.34300002 4280304424
0.045797549 0.046557918 0.34300002 4279056922
0.046911612 0.046557918 0.34300002 4278662931
0.048025675 0.046557918 0.34300002 4278795800
0.049139742 0.046557918 0.34300002 4278993179
0.05040032 0.046693653 0.34400001 4278993177
0.051517628 0.046693653 0.34400001 4278927384
0.052634943 0.046693653 0.34400001 4279256349
0.056529019 0.04533628 0.33400002 4279453217
0.057441354 0.045200542 0.333 4279321631
0.058698688 0.04533628 0.33400002 4279255838
0.059604526 0.045200542 0.333 4279648543
0.060686108 0.045200542 0.333 4278397710
0.061767694 0.045200542 0.333 4279647777
0.062849283 0.045200542 0.333 4279649313
0.063930862 0.045200542 0.333 4279386654
0.065012448 0.045200542 0.333 4279649826
0.066094033 0.045200542 0.333 4279187224
0.067175612 0.045200542 0.333 4279318810
0.068257198 0.045200542 0.333 4279977254
0.069338784 0.045200542 0.333 4279516957
0.075145155 0.04479333 0.33000001 4279451164
0.076216996 0.04479333 0.33000001 4279648543
0.077288836 0.04479333 0.33000001 4279451164
0.078360677 0.04479333 0.33000001 4279254555
0.079432517 0.04479333 0.33000001 4279188762
0.10324474 0.043978903 0.324 4278991892
0.1042971 0.043978903 0.324 4278991379
0.10534945 0.043978903 0.324 4279320598
0.10607341 0.043843169 0.32300001 4279189012
0.10712252 0.043843169 0.32300001 4279320598
0.10817161 0.043843169 0.32300001 4279189525
0.10922072 0.043843169 0.32300001 4279189525
0.10992844 0.043707434 0.32200003 4278926099
0.1109743 0.043707434 0.32200003 4278926101
0.11202016 0.043707434 0.32200003 4278860306
0.11306601 0.043707434 0.32200003 4279255064
0.11411187 0.043707434 0.32200003 4279123478
0.11515772 0.043707434 0.32200003 4278992146
0.11620358 0.043707434 0.32200003 4279123732
0.11724944 0.043707434 0.32200003 4278861076
0.11829529 0.043707434 0.32200003 4278663697
0.11934115 0.043707434 0.32200003 4278729490
0.12038701 0.043707434 0.32200003 4278861076
0.12143287 0.043707434 0.32200003 4278926099
0.12247872 0.043707434 0.32200003 4278924816
0.12352458 0.043707434 0.32200003 4279515156
0.04046179 0.047950335 0.34500003 4279376395
0.041461818 0.047811348 0.34400001 4279376395
0.042579129 0.047811348 0.34400001 4279507981
0.043696441 0.047811348 0.34400001 4278721799
0.044813756 0.047811348 0.34400001 4280435495
0.045931067 0.047811348 0.34400001 4279189021
0.047048379 0.047811348 0.34400001 4278663447
0.04816569 0.047811348 0.34400001 4278795800
0.049283005 0.047811348 0.34400001 4278993177
0.05040032 0.047811348 0.34400001 4278927384
0.051667392 0.047950335 0.34500003 4279058970
0.052787956 0.047950335 0.34500003 4279256349
0.056529019 0.046421483 0.33400002 4279190558
0.057613853 0.046421483 0.33400002 4279190558
0.058698688 0.046421483 0.33400002 4279255838
0.059783522 0.046421483 0.33400002 4278857748
0.060868353 0.046421483 0.33400002 4278196740
0.061953187 0.046421483 0.33400002 4279186459
0.062849283 0.046282496 0.333 4279517473
0.063930862 0.046282496 0.333 4279254303
0.065012448 0.046282496 0.333 4278328585
0.066094033 0.046282496 0.333 4278654986
0.067175612 0.046282496 0.333 4278458377
0.068257198 0.046282496 0.333 4278458377
0.069338784 0.046282496 0.333 4278392584
0.0702089 0.046143509 0.33200002 4278720777
0.071287237 0.046143509 0.33200002 4278786056
0.072365575 0.046143509 0.33200002 4278654984
0.073222697 0.046004526 0.33100003 4278589191
0.074297786 0.046004526 0.33100003 4278458377
0.075372875 0.046004526 0.33100003 4278458375
0.076447964 0.046004526 0.33100003 4278720777
0.077288836 0.045865536 0.33000001 4278524168
0.078360677 0.045865536 0.33000001 4278589961
0.079432517 0.045865536 0.33000001 4278195717
0.080504358 0.045865536 0.33000001 4279845670
0.081576198 0.045865536 0.33000001 4278197504
0.082648039 0.045865536 0.33000001 4278196738
0.083719879 0.045865536 0.33000001 4278195456
0.08479172 0.045865536 0.33000001 4278195712
0.08586356 0.045865536 0.33000001 4278196225
0.10145222 0.045170605 0.32500002 4278725390
0.10250781 0.045170605 0.32500002 4278660367
0.10324474 0.045031615 0.324 4279252504
0.1042971 0.045031615 0.324 4279121172
0.10534945 0.045031615 0.324 4278923793
0.10607341 0.044892631 0.32300001 4279121172
0.10712252 0.044892631 0.32300001 4279515930
0.10817161 0.044892631 0.32300001 4279252758
0.10922072 0.044892631 0.32300001 4279055379
0.11026983 0.044892631 0.32300001 4279581723
0.11131893 0.044892631 0.32300001 4279318551
0.11236804 0.044892631 0.32300001 4279122195
0.11306601 0.044753648 0.32200003 4279187988
0.11411187 0.044753648 0.32200003 4279385367
0.11515772 0.044753648 0.32200003 4279385621
0.11620358 0.044753648 0.32200003 4279385621
0.11724944 0.044753648 0.32200003 4279122195
0.11829529 0.044753648 0.32200003 4279254551
0.11934115 0.044753648 0.32200003 4279188758
0.12038701 0.044753648 0.32200003 4278926099
0.12143287 0.044753648 0.32200003 4279123480
0.12247872 0.044753648 0.32200003 4278991381
0.12352458 0.044753648 0.32200003 4279055890
0.042579129 0.048929039 0.34400001 4279442188
0.043696441 0.048929039 0.34400001 4279312652
0.044813756 0.048929039 0.34400001 4280632358
0.045931067 0.048929039 0.34400001 4279189273
0.047048379 0.048929039 0.34400001 4278794515
0.048305709 0.049071278 0.34500003 4278795285
0.049426273 0.049071278 0.34500003 4279058457
0.050546836 0.049071278 0.34500003 4278992664
0.051667392 0.049071278 0.34500003 4279124250
0.052787956 0.049071278 0.34500003 4279453215
0.056529019 0.047506686 0.33400002 4279256351
0.057613853 0.047506686 0.33400002 4279190045
0.058698688 0.047506686 0.33400002 4279190045
0.059783522 0.047506686 0.33400002 4280370215
0.060868353 0.047506686 0.33400002 4278919439
0.061953187 0.047506686 0.33400002 4280304424
0.063038021 0.047506686 0.33400002 4279385887
0.064122848 0.047506686 0.33400002 4279186459
0.065012448 0.047364447 0.333 4278786058
0.066094033 0.047364447 0.333 4279048717
0.067175612 0.047364447 0.333 4278917131
0.068257198 0.047364447 0.333 4278917131
0.069338784 0.047364447 0.333 4278917131
0.0702089 0.047222216 0.33200002 4278718982
0.071287237 0.047222216 0.33200002 4278785545
0.072365575 0.047222216 0.33200002 4278719498
0.073222697 0.04707998 0.33100003 4278982670
0.074297786 0.04707998 0.33100003 4279048717
0.075372875 0.04707998 0.33100003 4278851338
0.076447964 0.04707998 0.33100003 4278917131
0.077523045 0.04707998 0.33100003 4278982924
0.078598142 0.04707998 0.33100003 4278917644
0.079432517 0.046937741 0.33000001 4278654986
0.080504358 0.046937741 0.33000001 4279647777
0.081576198 0.046937741 0.33000001 4279713568
0.082648039 0.046937741 0.33000001 4279647775
0.083719879 0.046937741 0.33000001 4279713570
0.08479172 0.046937741 0.33000001 4279581982
0.08586356 0.046937741 0.33000001 4279713055
0.086671971 0.04679551 0.32900003 4279515676
0.087740563 0.04679551 0.32900003 4279647262
0.088809155 0.04679551 0.32900003 4279646492
0.098587818 0.0463688 0.32600001 4279711772
0.099646673 0.0463688 0.32600001 4279843358
0.10039661 0.046226565 0.32500002 4279974174
0.10145222 0.046226565 0.32500002 4279974944
0.10250781 0.046226565 0.32500002 4279317529
0.10324474 0.046084326 0.324 4279646494
0.1042971 0.046084326 0.324 4279514908
0.10534945 0.046084326 0.324 4279514908
0.10640181 0.046084326 0.324 4279778080
0.10712252 0.045942094 0.32300001 4279778080
0.10817161 0.045942094 0.32300001 4279711774
0.10922072 0.045942094 0.32300001 4279843360
0.11026983 0.045942094 0.32300001 4279184660
0.11131893 0.045942094 0.32300001 4278723595
0.11236804 0.045942094 0.32300001 4279514645
0.11341714 0.045942094 0.32300001 4279319062
0.11446625 0.045942094 0.32300001 4279385367
0.11515772 0.045799859 0.32200003 4279187988
0.11620358 0.045799859 0.32200003 4279385367
0.11724944 0.045799859 0.32200003 4279187988
0.11829529 0.045799859 0.32200003 4279187988
0.11934115 0.045799859 0.32200003 4279057172
0.12038701 0.045799859 0.32200003 4279122195
0.12143287 0.045799859 0.32200003 4279187988
0.12247872 0.045799859 0.32200003 4279056402
0.12352458 0.045799859 0.32200003 4279516441
0.042702906 0.050192215 0.34500003 4279376395
0.043823466 0.050192215 0.34500003 4279181066
0.044944029 0.050192215 0.34500003 4280566051
0.046064593 0.050192215 0.34500003 4279254553
0.047185149 0.050192215 0.34500003 4278794515
0.048305709 0.050192215 0.34500003 4278992664
0.049569536 0.050337698 0.34600002 4279190043
0.050693344 0.050337698 0.34600002 4278992664
0.051667392 0.050192215 0.34500003 4279058457
0.058698688 0.048591882 0.33400002 4279452447
0.059783522 0.048591882 0.33400002 4280502571
0.060868353 0.048591882 0.33400002 4278327300
0.061953187 0.048591882 0.33400002 4279713057
0.063038021 0.048591882 0.33400002 4279516703
0.064122848 0.048591882 0.33400002 4279777313
0.065207683 0.048591882 0.33400002 4278786572
0.066094033 0.048446395 0.333 4279970846
0.067175612 0.048446395 0.333 4278524170
0.068257198 0.048446395 0.333 4279312916
0.069338784 0.048446395 0.333 4279312916
0.0702089 0.048300914 0.33200002 4280562981
0.071287237 0.048300914 0.33200002 4278853131
0.072365575 0.048300914 0.33200002 4278918926
0.073443912 0.048300914 0.33200002 4280366883
0.074297786 0.048155431 0.33100003 4279971612
0.075372875 0.048155431 0.33100003 4279905051
0.076447964 0.048155431 0.33100003 4278391812
0.077523045 0.048155431 0.33100003 4279972127
0.078598142 0.048155431 0.33100003 4279312916
0.079673231 0.048155431 0.33100003 4278983951
0.080748312 0.048155431 0.33100003 4279581469
0.081576198 0.048009943 0.33000001 4279516703
0.082648039 0.048009943 0.33000001 4279187738
0.083719879 0.048009943 0.33000001 4278198533
0.08479172 0.048009943 0.33000001 4278263304
0.08586356 0.048009943 0.33000001 4278657548
0.086671971 0.047864459 0.32900003 4278660369
0.087740563 0.047864459 0.32900003 4279318810
0.088809155 0.047864459 0.32900003 4278197506
0.08987774 0.047864459 0.32900003 4278198534
0.093865931 0.047718972 0.32800001 4278197248
0.094931282 0.047718972 0.32800001 4278198532
0.095703945 0.047573492 0.32700002 4279318297
0.096766047 0.047573492 0.32700002 4279450650
0.097828142 0.047573492 0.32700002 4279450648
0.098587818 0.047428004 0.32600001 4279187990
0.099646673 0.047428004 0.32600001 4279187990
0.10039661 0.047282521 0.32500002 4279253269
0.10145222 0.047282521 0.32500002 4279450648
0.10250781 0.047282521 0.32500002 4279582236
0.10356341 0.047282521 0.32500002 4279253271
0.1042971 0.047137033 0.324 4279450650
0.10534945 0.047137033 0.324 4279516443
0.10640181 0.047137033 0.324 4279516443
0.10745417 0.047137033 0.324 4279319064
0.10850651 0.047137033 0.324 4279516441
0.10922072 0.046991549 0.32300001 4279582234
0.11026983 0.046991549 0.32300001 4279581721
0.11131893 0.046991549 0.32300001 4279118865
0.11236804 0.046991549 0.32300001 4279184658
0.11341714 0.046991549 0.32300001 4279450648
0.11446625 0.046991549 0.32300001 4279187990
0.11551534 0.046991549 0.32300001 4279385367
0.11656445 0.046991549 0.32300001 4279385367
0.11724944 0.046846069 0.32200003 4279451160
0.11829529 0.046846069 0.32200003 4279187990
0.11934115 0.046846069 0.32200003 4278991381
0.12038701 0.046846069 0.32200003 4279188758
0.12143287 0.046846069 0.32200003 4279122195
0.12247872 0.046846069 0.32200003 4278990095
0.12352458 0.046846069 0.32200003 4279515926
0.042702906 0.051313158 0.34500003 4279113225
0.043823466 0.051313158 0.34500003 4278982920
0.044944029 0.051313158 0.34500003 4280104735
0.046198111 0.05146189 0.34600002 4279386139
0.047321916 0.05146189 0.34600002 4278794515
0.048445724 0.05146189 0.34600002 4278861078
0.049569536 0.05146189 0.34600002 4279058455
0.050839856 0.051610623 0.347 4278795796
0.058874432 0.049825817 0.33500001 4279584031
0.059962511 0.049825817 0.33500001 4279976994
0.06105059 0.049825817 0.33500001 4278525703
0.062138673 0.049825817 0.33500001 4279318299
0.063038021 0.049677085 0.33400002 4279451680
0.064122848 0.049677085 0.33400002 4279909412
0.065207683 0.049677085 0.33400002 4278852365
0.066292517 0.049677085 0.33400002 4279379479
0.067175612 0.049528349 0.333 4278655756
0.068257198 0.049528349 0.333 4279774235
0.069338784 0.049528349 0.333 4279972127
0.07042037 0.049528349 0.333 4280366370
0.071287237 0.049379617 0.33200002 4278983949
0.072365575 0.049379617 0.33200002 4278589191
0.073443912 0.049379617 0.33200002 4279840026
0.074522242 0.049379617 0.33200002 4278720777
0.075372875 0.049230885 0.33100003 4279247121
0.076447964 0.049230885 0.33100003 4279841824
0.077523045 0.049230885 0.33100003 4278854929
0.078598142 0.049230885 0.33100003 4279049742
0.079673231 0.049230885 0.33100003 4278786058
0.080748312 0.049230885 0.33100003 4279779102
0.081823401 0.049230885 0.33100003 4279451164
0.082648039 0.049082149 0.33000001 4278198278
0.083719879 0.049082149 0.33000001 4278458886
0.08479172 0.049082149 0.33000001 4278786570
0.08586356 0.049082149 0.33000001 4279115021
0.086671971 0.048933417 0.32900003 4278459658
0.087740563 0.048933417 0.32900003 4278921234
0.088809155 0.048933417 0.32900003 4279581469
0.08987774 0.048933417 0.32900003 4279778848
0.0906699 0.048784681 0.32800001 4279448602
0.091735244 0.048784681 0.32800001 4279382809
0.092800587 0.048784681 0.32800001 4279251736
0.093865931 0.048784681 0.32800001 4279646494
0.094931282 0.048784681 0.32800001 4279449113
0.095703945 0.048635948 0.32700002 4278197508
0.096766047 0.048635948 0.32700002 4278462218
0.097828142 0.048635948 0.32700002 4278856976
0.098587818 0.048487213 0.32600001 4278198789
0.099646673 0.048487213 0.32600001 4278659086
0.10070552 0.048487213 0.32600001 4278461707
0.10145222 0.04833848 0.32500002 4279382809
0.10250781 0.04833848 0.32500002 4278593293
0.10356341 0.04833848 0.32500002 4278790672
0.10461901 0.04833848 0.32500002 4278527498
0.10567461 0.04833848 0.32500002 4279383061
0.10640181 0.048189744 0.324 4278659084
0.10745417 0.048189744 0.324 4278198532
0.10850651 0.048189744 0.324 4278858000
0.10955886 0.048189744 0.324 4279450648
0.11061122 0.048189744 0.324 4279450648
0.11166357 0.048189744 0.324 4278593291
0.11271592 0.048189744 0.324 4279645209
0.11341714 0.048041012 0.32300001 4279318551
0.11446625 0.048041012 0.32300001 4279385369
0.11551534 0.048041012 0.32300001 4279319574
0.11656445 0.048041012 0.32300001 4279385367
0.11761356 0.048041012 0.32300001 4279319574
0.11866266 0.048041012 0.32300001 4279187988
0.11934115 0.04789228 0.32200003 4279319574
0.12038701 0.04789228 0.32200003 4279187988
0.12143287 0.04789228 0.32200003 4279187988
0.12247872 0.04789228 0.32200003 4279581719
0.12352458 0.04789228 0.32200003 4279647512
0.043950491 0.052586075 0.34600002 4279048717
0.045074299 0.052586075 0.34600002 4279182098
0.046198111 0.052586075 0.34600002 4279648541
0.047321916 0.052586075 0.34600002 4278925588
0.048585739 0.052738059 0.347 4278992664
0.049712799 0.052738059 0.347 4279058457
0.050986372 0.052890044 0.34800002 4278992662
0.059050176 0.05106625 0.33600003 4279649824
0.059962511 0.050914265 0.33500001 4278462218
0.06105059 0.050914265 0.33500001 4278721545
0.062138673 0.050914265 0.33500001 4278196226
0.063226752 0.050914265 0.33500001 4279581984
0.064122848 0.050762285 0.33400002 4280369963
0.065207683 0.050762285 0.33400002 4278721547
0.066292517 0.050762285 0.33400002 4278917644
0.067377344 0.050762285 0.33400002 4278916877
0.068257198 0.050610296 0.333 4278917390
0.069338784 0.050610296 0.333 4278785804
0.07042037 0.050610296 0.333 4278851851
0.071287237 0.050458316 0.33200002 4278982924
0.072365575 0.050458316 0.33200002 4278917131
0.073443912 0.050458316 0.33200002 4278917131
0.074522242 0.050458316 0.33200002 4278851338
0.075600579 0.050458316 0.33200002 4278719752
0.076447964 0.050306335 0.33100003 4278260996
0.077523045 0.050306335 0.33100003 4278260996
0.078598142 0.050306335 0.33100003 4278786570
0.079673231 0.050306335 0.33100003 4278654986
0.080748312 0.050306335 0.33100003 4279384090
0.081823401 0.050306335 0.33100003 4279582236
0.082648039 0.050154351 0.33000001 4279315732
0.083719879 0.050154351 0.33000001 4278917642
0.08479172 0.050154351 0.33000001 4279048715
0.08586356 0.050154351 0.33000001 4278982922
0.086671971 0.05000237 0.32900003 4279314965
0.087740563 0.05000237 0.32900003 4279382039
0.088809155 0.05000237 0.32900003 4278659086
0.08987774 0.05000237 0.32900003 4279251223
0.0906699 0.049850386 0.32800001 4278395914
0.091735244 0.049850386 0.32800001 4279843360
0.092800587 0.049850386 0.32800001 4278329867
0.093865931 0.049850386 0.32800001 4279317275
0.094931282 0.049850386 0.32800001 4279449115
0.095703945 0.049698401 0.32700002 4278791183
0.096766047 0.049698401 0.32700002 4279581723
0.097828142 0.049698401 0.32700002 4278330632
0.098587818 0.049546417 0.32600001 4279315732
0.099646673 0.049546417 0.32600001 4278328837
0.10070552 0.049546417 0.32600001 4279777567
0.10176437 0.049546417 0.32600001 4279317016
0.10250781 0.049394436 0.32500002 4279448348
0.10356341 0.049394436 0.32500002 4279382809
0.10461901 0.049394436 0.32500002 4278328835
0.10567461 0.049394436 0.32500002 4279381523
0.10673022 0.049394436 0.32500002 4279447830
0.10778581 0.049394436 0.32500002 4278461705
0.10850651 0.049242452 0.324 4278198789
0.10955886 0.049242452 0.324 4279582234
0.11061122 0.049242452 0.324 4279319576
0.11166357 0.049242452 0.324 4278527500
0.11271592 0.049242452 0.324 4279448600
0.11376828 0.049242452 0.324 4279515930
0.11482063 0.049242452 0.324 4279254553
0.11587297 0.049242452 0.324 4279057174
0.11656445 0.049090471 0.32300001 4279320346
0.11761356 0.049090471 0.32300001 4279188758
0.11866266 0.049090471 0.32300001 4278991379
0.11971177 0.049090471 0.32300001 4279385367
0.12038701 0.04893849 0.32200003 4279319574
0.12143287 0.04893849 0.32200003 4279187474
0.12247872 0.04893849 0.32200003 4279516439
0.12352458 0.04893849 0.32200003 4279251473
0.043950491 0.053710267 0.34600002 4279246355
0.045074299 0.053710267 0.34600002 4279246609
0.046331629 0.0538655 0.347 4279976481
0.047458682 0.0538655 0.347 4279122197
0.048585739 0.0538655 0.347 4278991894
0.049856067 0.054020733 0.34800002 4279255066
0.051132884 0.054175962 0.34900001 4279058457
0.058131341 0.052313179 0.33700001 4279649826
0.059050176 0.05215795 0.33600003 4279452447
0.060141508 0.05215795 0.33600003 4279582496
0.061232831 0.05215795 0.33600003 4279909153
0.062138673 0.052002717 0.33500001 4280238118
0.063226752 0.052002717 0.33500001 4279713568
0.064314827 0.052002717 0.33500001 4280108580
0.065207683 0.051847484 0.33400002 4278921488
0.066292517 0.051847484 0.33400002 4278852365
0.067377344 0.051847484 0.33400002 4278654472
0.068257198 0.051692251 0.333 4278785804
0.069338784 0.051692251 0.333 4278983183
0.07042037 0.051692251 0.333 4278719498
0.071501955 0.051692251 0.333 4278917131
0.072365575 0.051537022 0.33200002 4279048717
0.073443912 0.051537022 0.33200002 4279179533
0.074522242 0.051537022 0.33200002 4278982924
0.075600579 0.051537022 0.33200002 4279246096
0.076447964 0.051381789 0.33100003 4278851851
0.077523045 0.051381789 0.33100003 4278786058
0.078598142 0.051381789 0.33100003 4278917390
0.079673231 0.051381789 0.33100003 4279180562
0.080748312 0.051381789 0.33100003 4279581469
0.081823401 0.051381789 0.33100003 4279648029
0.082648039 0.051226556 0.33000001 4279909151
0.083719879 0.051226556 0.33000001 4280038942
0.08479172 0.051226556 0.33000001 4279840026
0.08586356 0.051226556 0.33000001 4280563749
0.086671971 0.051071327 0.32900003 4279843358
0.087740563 0.051071327 0.32900003 4279843358
0.088809155 0.051071327 0.32900003 4279909664
0.08987774 0.051071327 0.32900003 4280238629
0.0906699 0.050916091 0.32800001 4279712285
0.091735244 0.050916091 0.32800001 4280107043
0.092800587 0.050916091 0.32800001 4279909664
0.093865931 0.050916091 0.32800001 4279975457
0.094931282 0.050916091 0.32800001 4279449113
0.095996618 0.050916091 0.32800001 4279646492
0.096766047 0.050760861 0.32700002 4279581723
0.097828142 0.050760861 0.32700002 4279384344
0.098890245 0.050760861 0.32700002 4279712539
0.099646673 0.050605629 0.32600001 4279712539
0.10070552 0.050605629 0.32600001 4279646746
0.10176437 0.050605629 0.32600001 4279646746
0.10282321 0.050605629 0.32600001 4279514906
0.10356341 0.050450396 0.32500002 4279974944
0.10461901 0.050450396 0.32500002 4279580186
0.10567461 0.050450396 0.32500002 4279580440
0.10673022 0.050450396 0.32500002 4279317268
0.10778581 0.050450396 0.32500002 4279777819
0.10884141 0.050450396 0.32500002 4279712539
0.10989701 0.050450396 0.32500002 4279450650
0.11095262 0.050450396 0.32500002 4279187990
0.11200821 0.050450396 0.32500002 4278263558
0.11306382 0.050450396 0.32500002 4279711774
0.11376828 0.050295163 0.324 4279581723
0.11482063 0.050295163 0.324 4279516441
0.11587297 0.050295163 0.324 4279319576
0.11692533 0.050295163 0.324 4279451162
0.11797769 0.050295163 0.324 4279451162
0.11866266 0.050139934 0.32300001 4279385367
0.11971177 0.050139934 0.32300001 4279319574
0.12076088 0.050139934 0.32300001 4279187988
0.12143287 0.049984701 0.32200003 4279056402
0.12247872 0.049984701 0.32200003 4279186963
0.043950491 0.054834455 0.34600002 4279311635
0.045204572 0.054992933 0.347 4279509014
0.046331629 0.054992933 0.347 4279445783
0.047458682 0.054992933 0.347 4279909918
0.048725758 0.055151418 0.34800002 4279385369
0.049856067 0.055151418 0.34800002 4279386139
0.051132884 0.055309895 0.34900001 4279190043
0.057036765 0.053408124 0.33700001 4279584803
0.058131341 0.053408124 0.33700001 4279781410
0.059050176 0.053249646 0.33600003 4279649824
0.060141508 0.053249646 0.33600003 4279055638
0.061232831 0.053249646 0.33600003 4278593804
0.062324163 0.053249646 0.33600003 4278395914
0.063226752 0.053091161 0.33500001 4279778848
0.064314827 0.053091161 0.33500001 4279911713
0.06540291 0.053091161 0.33500001 4279845920
0.066292517 0.052932683 0.33400002 4279910947
0.067377344 0.052932683 0.33400002 4279778848
0.068462178 0.052932683 0.33400002 4279975457
0.069338784 0.052774198 0.333 4280107043
0.07042037 0.052774198 0.333 4280107043
0.071501955 0.052774198 0.333 4280107045
0.072365575 0.052615721 0.33200002 4279909153
0.073443912 0.052615721 0.33200002 4280369704
0.074522242 0.052615721 0.33200002 4280172325
0.075600579 0.052615721 0.33200002 4279974946
0.076678924 0.052615721 0.33200002 4280105508
0.077523045 0.052457239 0.33100003 4280500266
0.078598142 0.052457239 0.33100003 4280500520
0.079673231 0.052457239 0.33100003 4280171555
0.080748312 0.052457239 0.33100003 4279647516
0.081823401 0.052457239 0.33100003 4279384344
0.082648039 0.052298758 0.33000001 4279514906
0.083719879 0.052298758 0.33000001 4279251221
0.08479172 0.052298758 0.33000001 4279447832
0.08586356 0.052298758 0.33000001 4279118867
0.086671971 0.052140277 0.32900003 4278987281
0.087740563 0.052140277 0.32900003 4278197765
0.088809155 0.052140277 0.32900003 4278724109
0.08987774 0.052140277 0.32900003 4278196994
0.0906699 0.051981796 0.32800001 4278197251
0.091735244 0.051981796 0.32800001 4278197251
0.092800587 0.051981796 0.32800001 4278329351
0.093865931 0.051981796 0.32800001 4278196994
0.094931282 0.051981796 0.32800001 4278196992
0.095996618 0.051981796 0.32800001 4278196224
0.096766047 0.051823314 0.32700002 4278196992
0.097828142 0.051823314 0.32700002 4278195968
0.098890245 0.051823314 0.32700002 4278195456
0.099646673 0.051664833 0.32600001 4278197763
0.10070552 0.051664833 0.32600001 4278197249
0.10176437 0.051664833 0.32600001 4278195200
0.10282321 0.051664833 0.32600001 4278196994
0.10388206 0.051664833 0.32600001 4278196740
0.10461901 0.051506352 0.32500002 4278196994
0.10567461 0.051506352 0.32500002 4278329351
0.10673022 0.051506352 0.32500002 4278592521
0.10778581 0.051506352 0.32500002 4278526728
0.10884141 0.051506352 0.32500002 4278789900
0.10989701 0.051506352 0.32500002 4278724107
0.11095262 0.051506352 0.32500002 4278789902
0.11200821 0.051506352 0.32500002 4278657802
0.11306382 0.051506352 0.32500002 4279580186
0.11411942 0.051506352 0.32500002 4279581723
0.11517502 0.051506352 0.32500002 4279515926
0.11623061 0.051506352 0.32500002 4279648025
0.11692533 0.05134787 0.324 4279451160
0.11797769 0.05134787 0.324 4279385367
0.11903004 0.05134787 0.324 4279385367
0.12008239 0.05134787 0.324 4279516439
0.12076088 0.051189389 0.32300001 4279385367
0.12180998 0.051189389 0.32300001 4279319576
0.12247872 0.051030912 0.32200003 4279051529
0.045204572 0.056120373 0.347 4279640600
0.046331629 0.056120373 0.347 4279773213
0.047458682 0.056120373 0.347 4280959022
0.048725758 0.056282107 0.34800002 4280040221
0.049856067 0.056282107 0.34800002 4279712537
0.051132884 0.056443837 0.34900001 4279517725
0.058131341 0.054503076 0.33700001 4279649824
0.059225921 0.054503076 0.33700001 4279715617
0.060141508 0.054341346 0.33600003 4279780897
0.061232831 0.054341346 0.33600003 4279715104
0.062324163 0.054341346 0.33600003 4279845922
0.06341549 0.054341346 0.33600003 4279845922
0.064314827 0.054179613 0.33500001 4279845922
0.06540291 0.054179613 0.33500001 4279845920
0.066490993 0.054179613 0.33500001 4279780129
0.067377344 0.054017887 0.33400002 4279845922
0.068462178 0.054017887 0.33400002 4279648543
0.069338784 0.053856153 0.333 4279648543
0.07042037 0.053856153 0.333 4279649313
0.071501955 0.053856153 0.333 4279517727
0.072365575 0.053694423 0.33200002 4279715106
0.073443912 0.053694423 0.33200002 4279517727
0.074522242 0.053694423 0.33200002 4279517727
0.075600579 0.053694423 0.33200002 4279517727
0.076678924 0.053694423 0.33200002 4279451934
0.077523045 0.053532697 0.33100003 4279451934
0.078598142 0.053532697 0.33100003 4279648541
0.079673231 0.053532697 0.33100003 4279648541
0.080748312 0.053532697 0.33100003 4279516955
0.081823401 0.053532697 0.33100003 4279451164
0.082648039 0.053370964 0.33000001 4279582750
0.083719879 0.053370964 0.33000001 4279582750
0.08479172 0.053370964 0.33000001 4279582750
0.08586356 0.053370964 0.33000001 4279648543
0.086671971 0.053209234 0.32900003 4279516957
0.087740563 0.053209234 0.32900003 4279516957
0.088809155 0.053209234 0.32900003 4279647516
0.08987774 0.053209234 0.32900003 4279647516
0.0906699 0.053047501 0.32800001 4279647516
0.091735244 0.053047501 0.32800001 4279647516
0.092800587 0.053047501 0.32800001 4279647516
0.093865931 0.053047501 0.32800001 4279779102
0.094931282 0.053047501 0.32800001 4279909916
0.095996618 0.053047501 0.32800001 4279844123
0.096766047 0.052885775 0.32700002 4279712537
0.097828142 0.052885775 0.32700002 4279844123
0.098890245 0.052885775 0.32700002 4279712537
0.099646673 0.052724041 0.32600001 4279647516
0.10070552 0.052724041 0.32600001 4279647516
0.10176437 0.052724041 0.32600001 4279581723
0.10282321 0.052724041 0.32600001 4279515930
0.10388206 0.052724041 0.32600001 4279581723
0.10494091 0.052724041 0.32600001 4279909664
0.10599976 0.052724041 0.32600001 4279646492
0.10673022 0.052562311 0.32500002 4280107043
0.10778581 0.052562311 0.32500002 4279712285
0.10884141 0.052562311 0.32500002 4279777565
0.10989701 0.052562311 0.32500002 4280632874
0.11095262 0.052562311 0.32500002 4279711774
0.11200821 0.052562311 0.32500002 4279908383
0.11306382 0.052562311 0.32500002 4279843871
0.11411942 0.052562311 0.32500002 4279647516
0.11517502 0.052562311 0.32500002 4279648025
0.11623061 0.052562311 0.32500002 4279648025
0.11728621 0.052562311 0.32500002 4279450646
0.11834182 0.052562311 0.32500002 4279319574
0.11903004 0.052400582 0.324 4279713818
0.12008239 0.052400582 0.324 4279648025
0.12113474 0.052400582 0.324 4279516439
0.058131341 0.055598021 0.33700001 4279318810
0.059225921 0.055598021 0.33700001 4279844895
0.060320497 0.055598021 0.33700001 4279779102
0.061232831 0.055433042 0.33600003 4279844895
0.062324163 0.055433042 0.33600003 4280042274
0.06341549 0.055433042 0.33600003 4279779102
0.064506821 0.055433042 0.33600003 4279911201
0.06540291 0.05526806 0.33500001 4279779615
0.066490993 0.05526806 0.33500001 4279713822
0.067377344 0.055103082 0.33400002 4279713568
0.068462178 0.055103082 0.33400002 4279516703
0.069338784 0.0549381 0.333 4279779875
0.07042037 0.0549381 0.333 4279582496
0.071501955 0.0549381 0.333 4279845668
0.072365575 0.054773122 0.33200002 4279649313
0.073443912 0.054773122 0.33200002 4279517727
0.074522242 0.054773122 0.33200002 4279582750
0.075600579 0.054773122 0.33200002 4279582750
0.076678924 0.054773122 0.33200002 4279386141
0.077523045 0.054608148 0.33100003 4279517727
0.078598142 0.054608148 0.33100003 4279451932
0.079673231 0.054608148 0.33100003 4279386139
0.080748312 0.054608148 0.33100003 4279517727
0.081823401 0.054608148 0.33100003 4279451934
0.082648039 0.054443166 0.33000001 4279451934
0.083719879 0.054443166 0.33000001 4279451934
0.08479172 0.054443166 0.33000001 4279451934
0.085603371 0.054278187 0.32900003 4279386141
0.086671971 0.054278187 0.32900003 4279386141
0.087740563 0.054278187 0.32900003 4279451162
0.088809155 0.054278187 0.32900003 4279648541
0.08987774 0.054278187 0.32900003 4279516955
0.0906699 0.054113206 0.32800001 4279582748
0.091735244 0.054113206 0.32800001 4279582748
0.092800587 0.054113206 0.32800001 4279582234
0.093865931 0.054113206 0.32800001 4279582234
0.094931282 0.054113206 0.32800001 4279648027
0.095996618 0.054113206 0.32800001 4279648027
0.096766047 0.053948227 0.32700002 4279582234
0.097828142 0.053948227 0.32700002 4279648027
0.098890245 0.053948227 0.32700002 4279648027
0.099646673 0.053783245 0.32600001 4279713820
0.10070552 0.053783245 0.32600001 4279385371
0.10176437 0.053783245 0.32600001 4279451164
0.10282321 0.053783245 0.32600001 4279516957
0.10388206 0.053783245 0.32600001 4279451164
0.10494091 0.053783245 0.32600001 4279451164
0.10599976 0.053783245 0.32600001 4279451164
0.10705861 0.053783245 0.32600001 4279582236
0.10811746 0.053783245 0.32600001 4279582236
0.1091763 0.053783245 0.32600001 4279581723
0.11023515 0.053783245 0.32600001 4279713309
0.111294 0.053783245 0.32600001 4279581723
0.11235285 0.053783245 0.32600001 4279647516
0.1134117 0.053783245 0.32600001 4279647516
0.11411942 0.053618267 0.32500002 4279713309
0.11517502 0.053618267 0.32500002 4279647514
0.11623061 0.053618267 0.32500002 4279713307
0.11728621 0.053618267 0.32500002 4279647514
0.11834182 0.053618267 0.32500002 4279647514
0.11939742 0.053618267 0.32500002 4279515158
0.12045302 0.053618267 0.32500002 4279514647
0.06341549 0.056524742 0.33600003 4283064648
0.064506821 0.056524742 0.33600003 4282999625
0.06540291 0.056356512 0.33500001 4282407488
0.066490993 0.056356512 0.33500001 4282934347
0.067377344 0.056188285 0.33400002 4283526230
0.068462178 0.056188285 0.33400002 4283197781
0.071287237 0.055851828 0.33200002 4283459926
0.072365575 0.055851828 0.33200002 4283130959
0.073443912 0.055851828 0.33200002 4282934093
0.082648039 0.055515371 0.33000001 4279514908
0.083719879 0.055515371 0.33000001 4279909664
0.08479172 0.055515371 0.33000001 4279909918
0.085603371 0.055347145 0.32900003 4279712539
0.086671971 0.055347145 0.32900003 4279449367
0.087740563 0.055347145 0.32900003 4279514647
0.088809155 0.055347145 0.32900003 4279448854
0.089604549 0.055178914 0.32800001 4279383061
0.0906699 0.055178914 0.32800001 4279383061
0.091735244 0.055178914 0.32800001 4279383061
0.092800587 0.055178914 0.32800001 4279448600
0.093865931 0.055178914 0.32800001 4279580188
0.094931282 0.055178914 0.32800001 4279514395
0.095996618 0.055178914 0.32800001 4279711772
0.097061962 0.055178914 0.32800001 4280039967
0.098127306 0.055178914 0.32800001 4280039967
0.099192657 0.055178914 0.32800001 4279908383
0.100258 0.055178914 0.32800001 4279842590
0.10132334 0.055178914 0.32800001 4280303141
0.10238869 0.055178914 0.32800001 4279777567
0.10345403 0.055178914 0.32800001 4280435497
0.10451937 0.055178914 0.32800001 4280961071
0.10558472 0.055178914 0.32800001 4281223729
0.10665007 0.055178914 0.32800001 4281223727
0.10771541 0.055178914 0.32800001 4281684278
0.10878076 0.055178914 0.32800001 4282079036
0.1091763 0.054842453 0.32600001 4283064902
0.11023515 0.054842453 0.32600001 4282999109
0.111294 0.054842453 0.32600001 4283197256
0.11235285 0.054842453 0.32600001 4283460430
0.1134117 0.054842453 0.32600001 4283855188
0.11447055 0.054842453 0.32600001 4284709473
0.1155294 0.054842453 0.32600001 4284511842
0.11658824 0.054842453 0.32600001 4284381026
0.082648039 0.056587569 0.33000001 4282867017
0.083719879 0.056587569 0.33000001 4281156140
0.084534779 0.056416094 0.32900003 4281221679
0.085603371 0.056416094 0.32900003 4282274882
0.086671971 0.056416094 0.32900003 4282998603
0.087740563 0.056416094 0.32900003 4283130189
0.088809155 0.056416094 0.32900003 4283525971
0.089604549 0.056244615 0.32800001 4283657303
0.0906699 0.056244615 0.32800001 4283854682
0.091735244 0.056244615 0.32800001 4284052061
0.092800587 0.056244615 0.32800001 4284380256
0.084522761 0.049383953 0.33068535 4294967295
0.084522761 0.049383953 0.33068535 4294901760
0.084522761 0.049383953 0.33118534 4294901760
0.084522761 0.049383953 0.33168533 4294901760
0.084522761 0.049383953 0.33218536 4294901760
0.084522761 0.049383953 0.33268535 4294901760
0.084522761 0.049383953 0.33318534 4294901760
0.084522761 0.049383953 0.33368534 4294901760
0.084522761 0.049383953 0.33418536 4294901760
0.084522761 0.049383953 0.33468536 4294901760
0.084522761 0.049383953 0.33518535 4294901760
0.084522761 0.049383953 0.33568534 4294901760
0.084522761 0.049383953 0.33618534 4294901760
0.084522761 0.049383953 0.33668536 4294901760
0.084522761 0.049383953 0.33718535 4294901760
0.084522761 0.049383953 0.33768535 4294901760
0.084522761 0.049383953 0.33818534 4294901760
0.084522761 0.049383953 0.33868533 4294901760
0.084522761 0.049383953 0.33918536 4294901760
0.084522761 0.049383953 0.33968535 4294901760
0.084522761 0.049383953 0.34018534 4294901760
0.084522761 0.049383953 0.34068534 4294901760
0.084522761 0.049383953 0.34118536 4294901760
0.084522761 0.049383953 0.34168535 4294901760
0.084522761 0.049383953 0.34218535 4294901760
0.084522761 0.049383953 0.34268534 4294901760
0.084522761 0.049383953 0.34318537 4294901760
0.084522761 0.049383953 0.34368536 4294901760
0.084522761 0.049383953 0.34418535 4294901760
0.084522761 0.049383953 0.34468535 4294901760
0.084522761 0.049383953 0.34518534 4294901760
0.084522761 0.049383953 0.34568536 4294901760
0.084522761 0.049383953 0.34618536 4294901760
0.084522761 0.049383953 0.34668535 4294901760
0.084522761 0.049383953 0.34718534 4294901760
0.084522761 0.049383953 0.34768534 4294901760
0.084522761 0.049383953 0.34818536 4294901760
0.084522761 0.049383953 0.34868535 4294901760
0.084522761 0.049383953 0.34918535 4294901760
0.084522761 0.049383953 0.34968534 4294901760
0.084522761 0.049383953 0.35018536 4294901760
0.084522761 0.049383953 0.35068536 4294901760
0.084522761 0.049383953 0.35118535 4294901760
0.084522761 0.049383953 0.35168535 4294901760
0.084522761 0.049383953 0.35218537 4294901760
0.084522761 0.049383953 0.35268536 4294901760
0.084522761 0.049383953 0.35318536 4294901760
0.084522761 0.049383953 0.35368535 4294901760
0.084522761 0.049383953 0.35418534 4294901760
0.084522761 0.049383953 0.35468537 4294901760
0.084522761 0.049383953 0.35518536 4294901760
0.084522761 0.049383953 0.35568535 4294901760
0.084522761 0.049383953 0.35618535 4294901760
0.084522761 0.049383953 0.35668534 4294901760
0.084522761 0.049383953 0.35718536 4294901760
0.084522761 0.049383953 0.35768536 4294901760
0.084522761 0.049383953 0.35818535 4294901760
0.084522761 0.049383953 0.35868534 4294901760
0.084522761 0.049383953 0.35918534 4294901760
0.084522761 0.049383953 0.35968536 4294901760
0.084522761 0.049383953 0.36018535 4294901760
0.084522761 0.049383953 0.36068535 4294901760
0.084522761 0.049383953 0.36118534 4294901760
0.084522761 0.049383953 0.36168537 4294901760
0.084522761 0.049383953 0.36218536 4294901760
0.084522761 0.049383953 0.36268535 4294901760
0.084522761 0.049383953 0.36318535 4294901760
0.084522761 0.049383953 0.36368537 4294901760
0.084522761 0.049383953 0.36418536 4294901760
0.084522761 0.049383953 0.36468536 4294901760
0.084522761 0.049383953 0.36518535 4294901760
0.084522761 0.049383953 0.36568534 4294901760
0.084522761 0.049383953 0.36618537 4294901760
0.084522761 0.049383953 0.36668536 4294901760
0.084522761 0.049383953 0.36718535 4294901760
0.084522761 0.049383953 0.36768535 4294901760
0.084522761 0.049383953 0.36818534 4294901760
0.084522761 0.049383953 0.36868536 4294901760
0.084522761 0.049383953 0.36918536 4294901760
0.084522761 0.049383953 0.36968535 4294901760
0.084522761 0.049383953 0.37018535 4294901760
0.084522761 0.049383953 0.37068537 4294901760
0.084522761 0.049383953 0.37118536 4294901760
0.084522761 0.049383953 0.37168536 4294901760
0.084522761 0.049383953 0.37218535 4294901760
0.084522761 0.049383953 0.37268534 4294901760
0.084522761 0.049383953 0.37318537 4294901760
0.084522761 0.049383953 0.37368536 4294901760
0.084522761 0.049383953 0.37418535 4294901760
0.084522761 0.049383953 0.37468535 4294901760
0.084522761 0.049383953 0.37518537 4294901760
0.084522761 0.049383953 0.37568536 4294901760
0.084522761 0.049383953 0.37618536 4294901760
0.084522761 0.049383953 0.37668535 4294901760
0.084522761 0.049383953 0.37718534 4294901760
0.084522761 0.049383953 0.37768537 4294901760
0.084522761 0.049383953 0.37818536 4294901760
0.084522761 0.049383953 0.37868536 4294901760
0.084522761 0.049383953 0.37918535 4294901760
0.084522761 0.049383953 0.37968537 4294901760
0.084522761 0.049383953 0.38018537 4294901760
0.084522761 0.049383953 0.38068536 4294901760
0.084522761 0.049383953 0.33068535 4278255360
0.084616385 0.049265761 0.33116207 4278255360
0.084710002 0.049147565 0.33163878 4278255360
0.084803626 0.049029373 0.33211553 4278255360
0.08489725 0.04891118 0.33259225 4278255360
0.084990874 0.048792988 0.33306897 4278255360
0.08508449 0.048674792 0.33354568 4278255360
0.085178114 0.0485566 0.3340224 4278255360
0.085271738 0.048438407 0.33449915 4278255360
0.085365355 0.048320215 0.33497587 4278255360
0.085458979 0.048202019 0.33545259 4278255360
0.085552603 0.048083827 0.3359293 4278255360
0.085646227 0.047965635 0.33640602 4278255360
0.085739844 0.047847442 0.33688274 4278255360
0.085833468 0.047729246 0.33735949 4278255360
0.085927092 0.047611054 0.33783621 4278255360
0.086020708 0.047492862 0.33831292 4278255360
0.086114332 0.047374669 0.33878964 4278255360
0.086207956 0.047256473 0.33926636 4278255360
0.086301573 0.047138281 0.33974311 4278255360
0.086395197 0.047020089 0.34021983 4278255360
0.086488821 0.046901897 0.34069654 4278255360
0.086582445 0.046783701 0.34117326 4278255360
0.086676061 0.046665508 0.34164998 4278255360
0.086769685 0.046547316 0.34212673 4278255360
0.086863309 0.04642912 0.34260345 4278255360
0.086956926 0.046310928 0.34308016 4278255360
0.08705055 0.046192735 0.34355688 4278255360
0.087144174 0.046074543 0.3440336 4278255360
0.087237798 0.045956351 0.34451032 4278255360
0.087331414 0.045838155 0.34498706 4278255360
0.087425038 0.045719963 0.34546378 4278255360
0.087518662 0.04560177 0.3459405 4278255360
0.087612279 0.045483574 0.34641722 4278255360
0.087705903 0.045365382 0.34689394 4278255360
0.087799527 0.04524719 0.34737068 4278255360
0.087893151 0.045128997 0.3478474 4278255360
0.087986767 0.045010801 0.34832412 4278255360
0.088080391 0.044892609 0.34880084 4278255360
0.088174015 0.044774417 0.34927756 4278255360
0.088267632 0.044656225 0.3497543 4278255360
0.088361256 0.044538029 0.35023102 4278255360
0.08845488 0.044419836 0.35070774 4278255360
0.088548504 0.044301644 0.35118446 4278255360
0.08864212 0.044183452 0.35166118 4278255360
0.088735744 0.044065256 0.35213792 4278255360
0.088829368 0.043947063 0.35261464 4278255360
0.088922985 0.043828871 0.35309136 4278255360
0.089016609 0.043710679 0.35356808 4278255360
0.089110233 0.043592483 0.3540448 4278255360
0.089203849 0.043474291 0.35452151 4278255360
0.089297473 0.043356098 0.35499826 4278255360
0.089391097 0.043237902 0.35547498 4278255360
0.089484721 0.04311971 0.3559517 4278255360
0.089578338 0.043001518 0.35642841 4278255360
0.089671962 0.042883325 0.35690516 4278255360
0.089765586 0.042765129 0.35738188 4278255360
0.089859203 0.042646937 0.3578586 4278255360
0.089952826 0.042528745 0.35833532 4278255360
0.09004645 0.042410553 0.35881203 4278255360
0.090140074 0.042292356 0.35928875 4278255360
0.090233691 0.042174164 0.3597655 4278255360
0.090327315 0.042055972 0.36024222 4278255360
0.090420939 0.04193778 0.36071894 4278255360
0.090514556 0.041819584 0.36119565 4278255360
0.09060818 0.041701391 0.36167237 4278255360
0.090701804 0.041583199 0.36214912 4278255360
0.090795428 0.041465007 0.36262584 4278255360
0.090889044 0.041346811 0.36310256 4278255360
0.090982668 0.041228618 0.36357927 4278255360
0.091076292 0.041110426 0.36405599 4278255360
0.091169909 0.04099223 0.36453271 4278255360
0.091263533 0.040874038 0.36500946 4278255360
0.091357157 0.040755846 0.36548617 4278255360
0.091450781 0.040637653 0.36596289 4278255360
0.091544397 0.040519461 0.36643961 4278255360
0.091638021 0.040401265 0.36691633 4278255360
0.091731645 0.040283073 0.36739308 4278255360
0.091825262 0.04016488 0.36786979 4278255360
0.091918886 0.040046684 0.36834651 4278255360
0.09201251 0.039928492 0.36882323 4278255360
0.092106134 0.0398103 0.36929995 4278255360
0.09219975 0.039692108 0.3697767 4278255360
0.092293374 0.039573915 0.37025341 4278255360
0.092386998 0.039455719 0.37073013 4278255360
0.092480615 0.039337527 0.37120685 4278255360
0.092574239 0.039219335 0.37168357 4278255360
0.092667863 0.039101139 0.37216032 4278255360
0.092761487 0.038982946 0.37263703 4278255360
0.092855103 0.038864754 0.37311375 4278255360
0.092948727 0.038746562 0.37359047 4278255360
0.093042351 0.038628366 0.37406719 4278255360
0.093135968 0.038510174 0.37454391 4278255360
0.093229592 0.038391981 0.37502065 4278255360
0.093323216 0.038273789 0.37549737 4278255360
0.093416832 0.038155593 0.37597409 4278255360
0.093510456 0.038037401 0.37645081 4278255360
0.09360408 0.037919208 0.37692755 4278255360
0.093697704 0.037801012 0.37740427 4278255360
0.093791321 0.03768282 0.37788099 4278255360
0.093884945 0.037564628 0.37835771 4278255360
