# .PCD v0.7 - Point Cloud Data file format
VERSION 0.7
FIELDS x y z rgb
SIZE 4 4 4 4
TYPE F F F U
COUNT 1 1 1 1
WIDTH 925
HEIGHT 1
VIEWPOINT 0 0 0 1 0 0 0
POINTS 925
DATA ascii
0.068277322 0.020986758 0.34400001 4279451432
0.066042691 0.023222141 0.34400001 4279256351
0.067160003 0.023222141 0.34400001 4279126049
0.068277322 0.023222141 0.34400001 4279716650
0.069394633 0.023222141 0.34400001 4285108608
0.066042691 0.024339832 0.34400001 4278928670
0.067160003 0.024339832 0.34400001 4279126562
0.068277322 0.024339832 0.34400001 4279454762
0.065850712 0.025383521 0.34300002 4278929183
0.066964775 0.025383521 0.34300002 4278929953
0.068078846 0.025383521 0.34300002 4279323941
0.069192901 0.025383521 0.34300002 4280505399
0.065850712 0.026497962 0.34300002 4278798365
0.066964775 0.026497962 0.34300002 4278732572
0.068078846 0.026497962 0.34300002 4278995744
0.069192901 0.026497962 0.34300002 4279256867
0.065850712 0.027612403 0.34300002 4278929179
0.066964775 0.027612403 0.34300002 4278798363
0.068078846 0.027612403 0.34300002 4278864669
0.069192901 0.027612403 0.34300002 4279455014
0.065850712 0.028726846 0.34300002 4278862875
0.066964775 0.028726846 0.34300002 4279127330
0.068078846 0.028726846 0.34300002 4278733085
0.069192901 0.028726846 0.34300002 4279258148
0.070101991 0.028643092 0.34200001 4279713057
0.065658726 0.029754285 0.34200001 4278863390
0.06676954 0.029754285 0.34200001 4278930466
0.067880362 0.029754285 0.34200001 4279325224
0.068991169 0.029754285 0.34200001 4279062052
0.070101991 0.029754285 0.34200001 4279651109
0.071212806 0.029754285 0.34200001 4279188762
0.072323628 0.029754285 0.34200001 4281817409
0.063622586 0.030955732 0.34300002 4279517727
0.064547911 0.030865481 0.34200001 4279452447
0.06676954 0.030865481 0.34200001 4279060769
0.067880362 0.030865481 0.34200001 4278799650
0.068991169 0.030865481 0.34200001 4282154839
0.070101991 0.030865481 0.34200001 4279257119
0.071212806 0.030865481 0.34200001 4279125533
0.072323628 0.030865481 0.34200001 4279453215
0.073434442 0.030865481 0.34200001 4279386654
0.07432729 0.030775232 0.34100002 4279582498
0.075434864 0.030775232 0.34100002 4279514908
0.076317959 0.03068498 0.34 4280368934
0.062508516 0.032070175 0.34300002 4279713568
0.065658726 0.031976674 0.34200001 4279849518
0.06676954 0.031976674 0.34200001 4279718186
0.067880362 0.031976674 0.34200001 4279390504
0.068991169 0.031976674 0.34200001 4278865703
0.070101991 0.031976674 0.34200001 4280442420
0.071212806 0.031976674 0.34200001 4279257633
0.072323628 0.031976674 0.34200001 4278863388
0.073434442 0.031976674 0.34200001 4278863388
0.074545257 0.031976674 0.34200001 4279322912
0.075434864 0.031883176 0.34100002 4279453728
0.076317959 0.031789675 0.34 4279387937
0.077194571 0.031696178 0.33900002 4279584803
0.078064688 0.031602681 0.33800003 4279715106
0.078928299 0.03150918 0.33700001 4279451164
0.080022871 0.03150918 0.33700001 4279976481
0.064736649 0.033184614 0.34300002 4280703030
0.065850712 0.033184614 0.34300002 4280571957
0.066964775 0.033184614 0.34300002 4280309809
0.068078846 0.033184614 0.34300002 4279719469
0.069192901 0.033184614 0.34300002 4279127845
0.070306972 0.033184614 0.34300002 4280377395
0.071421035 0.033184614 0.34300002 4281758278
0.072535105 0.033184614 0.34300002 4279390502
0.073434442 0.033087865 0.34200001 4279061537
0.074545257 0.033087865 0.34200001 4278666779
0.075434864 0.032991119 0.34100002 4278797595
0.07654243 0.032991119 0.34100002 4278994461
0.077194571 0.032797623 0.33900002 4278928668
0.078064688 0.032700874 0.33800003 4278928154
0.079162508 0.032700874 0.33800003 4278993947
0.080260336 0.032700874 0.33800003 4279190556
0.081358157 0.032700874 0.33800003 4279190556
0.082455985 0.032700874 0.33800003 4279190556
0.083801009 0.032797623 0.33900002 4279453215
0.084902078 0.032797623 0.33900002 4279649826
0.086003147 0.032797623 0.33900002 4279517727
0.087361164 0.032894369 0.34 4279779615
0.092048392 0.032991119 0.34100002 4280172584
0.09315595 0.032991119 0.34100002 4280501038
0.063622586 0.034299057 0.34300002 4280768053
0.064736649 0.034299057 0.34300002 4280834616
0.065850712 0.034299057 0.34300002 4280637491
0.066964775 0.034299057 0.34300002 4280769590
0.068078846 0.034299057 0.34300002 4280507188
0.069192901 0.034299057 0.34300002 4280507702
0.070306972 0.034299057 0.34300002 4280705592
0.071421035 0.034299057 0.34300002 4279389730
0.072535105 0.034299057 0.34300002 4278996255
0.073649161 0.034299057 0.34300002 4279193634
0.074545257 0.034199059 0.34200001 4278995742
0.075656079 0.034199059 0.34200001 4278930203
0.07654243 0.034099061 0.34100002 4278930203
0.077422284 0.033999063 0.34 4278930203
0.078295648 0.033899069 0.33900002 4279127582
0.079396717 0.033899069 0.33900002 4278732824
0.080260336 0.033799071 0.33800003 4278666777
0.081598863 0.033899069 0.33900002 4279060767
0.082699932 0.033899069 0.33900002 4278731802
0.083801009 0.033899069 0.33900002 4278731802
0.084902078 0.033899069 0.33900002 4278731289
0.086256839 0.033999063 0.34 4278731289
0.087361164 0.033999063 0.34 4278862361
0.088725686 0.034099061 0.34100002 4278993177
0.089833252 0.034099061 0.34100002 4279058457
0.090940826 0.034099061 0.34100002 4279320859
0.092048392 0.034099061 0.34100002 4279386141
0.092882767 0.033999063 0.34 4279386141
0.093987085 0.033999063 0.34 4279516957
0.09481173 0.033899069 0.33900002 4279450910
0.095912807 0.033899069 0.33900002 4279581984
0.096727706 0.033799071 0.33800003 4279581984
0.097825535 0.033799071 0.33800003 4279844391
0.098923348 0.033799071 0.33800003 4279383070
0.10534649 0.033399083 0.33400002 4281156672
0.063622586 0.0354135 0.34300002 4280834616
0.064736649 0.0354135 0.34300002 4280966202
0.066042691 0.035516743 0.34400001 4280966202
0.067160003 0.035516743 0.34400001 4281032249
0.068277322 0.035516743 0.34400001 4280769336
0.069394633 0.035516743 0.34400001 4280638520
0.070511945 0.035516743 0.34400001 4280441141
0.071629256 0.035516743 0.34400001 4280112690
0.072746575 0.035516743 0.34400001 4279784492
0.073649161 0.0354135 0.34300002 4279784490
0.074763231 0.0354135 0.34300002 4279718695
0.075877294 0.0354135 0.34300002 4279061019
0.076766886 0.03531025 0.34200001 4279126812
0.077649996 0.035207007 0.34100002 4279126812
0.078526601 0.035103757 0.34 4278732824
0.079630919 0.035103757 0.34 4279061789
0.080497786 0.035000514 0.33900002 4278995742
0.081598863 0.035000514 0.33900002 4278995744
0.082699932 0.035000514 0.33900002 4278798365
0.084048204 0.035103757 0.34 4279061537
0.085152522 0.035103757 0.34 4278929181
0.086256839 0.035103757 0.34 4278863388
0.087618113 0.035207007 0.34100002 4278797595
0.088725686 0.035207007 0.34100002 4278862875
0.089833252 0.035207007 0.34100002 4278664982
0.090940826 0.035207007 0.34100002 4278993947
0.092048392 0.035207007 0.34100002 4278796570
0.092882767 0.035103757 0.34 4278795800
0.093987085 0.035103757 0.34 4278993177
0.09481173 0.035000514 0.33900002 4278993177
0.095912807 0.035000514 0.33900002 4278992664
0.096727706 0.034897268 0.33800003 4279123480
0.097825535 0.034897268 0.33800003 4279320348
0.098923348 0.034897268 0.33800003 4279188762
0.099725246 0.034794021 0.33700001 4279450910
0.10052066 0.034690775 0.33600003 4279450910
0.10161199 0.034690775 0.33600003 4279647775
0.10239765 0.034587529 0.33500001 4279647775
0.10348573 0.034587529 0.33500001 4279186972
0.10457382 0.034587529 0.33500001 4279975977
0.10566189 0.034587529 0.33500001 4280173356
0.10674997 0.034587529 0.33500001 4281093175
0.10783806 0.034587529 0.33500001 4283064396
0.10892613 0.034587529 0.33500001 4284643169
0.063808069 0.036634434 0.34400001 4280900409
0.06492538 0.036634434 0.34400001 4280900663
0.066042691 0.036634434 0.34400001 4281098042
0.067160003 0.036634434 0.34400001 4281098042
0.068277322 0.036634434 0.34400001 4280966202
0.069394633 0.036634434 0.34400001 4280571957
0.070511945 0.036634434 0.34400001 4280309555
0.071629256 0.036634434 0.34400001 4280375348
0.072746575 0.036634434 0.34400001 4280375348
0.073863879 0.036634434 0.34400001 4280177969
0.074981198 0.036634434 0.34400001 4280047151
0.075877294 0.036527943 0.34300002 4279849770
0.076991357 0.036527943 0.34300002 4279783975
0.077877708 0.036421444 0.34200001 4279783975
0.078757569 0.036314949 0.34100002 4279718182
0.079865135 0.036314949 0.34100002 4279915561
0.080972701 0.036314949 0.34100002 4279915561
0.081839561 0.036208451 0.34 4279652902
0.082943879 0.036208451 0.34 4278666779
0.084048204 0.036208451 0.34 4278535193
0.085402973 0.036314949 0.34100002 4278666777
0.086510539 0.036314949 0.34100002 4278995742
0.087618113 0.036314949 0.34100002 4278732570
0.088725686 0.036314949 0.34100002 4278798363
0.089833252 0.036314949 0.34100002 4279323937
0.090940826 0.036314949 0.34100002 4278862873
0.092048392 0.036314949 0.34100002 4278928666
0.092882767 0.036208451 0.34 4278928666
0.093987085 0.036208451 0.34 4278862873
0.09481173 0.03610196 0.33900002 4278797080
0.095912807 0.03610196 0.33900002 4278928152
0.096727706 0.035995465 0.33800003 4278927382
0.097825535 0.035995465 0.33800003 4278993175
0.098923348 0.035995465 0.33800003 4278927384
0.099725246 0.035888966 0.33700001 4278992664
0.10052066 0.035782471 0.33600003 4278861078
0.10161199 0.035782471 0.33600003 4278926101
0.10270333 0.035782471 0.33600003 4279189273
0.10348573 0.035675976 0.33500001 4279189273
0.10457382 0.035675976 0.33500001 4279255066
0.10566189 0.035675976 0.33500001 4279320859
0.10674997 0.035675976 0.33500001 4279255068
0.10783806 0.035675976 0.33500001 4279581982
0.10892613 0.035675976 0.33500001 4280107297
0.11001422 0.035675976 0.33500001 4280434979
0.11219037 0.035675976 0.33500001 4280301342
0.063808069 0.037752125 0.34400001 4281556026
0.06492538 0.037752125 0.34400001 4281228345
0.066234678 0.037861872 0.34500003 4281163835
0.067355245 0.037861872 0.34500003 4281163835
0.068475805 0.037861872 0.34500003 4280966456
0.069596365 0.037861872 0.34500003 4280900663
0.070716925 0.037861872 0.34500003 4280506164
0.071837485 0.037861872 0.34500003 4280571957
0.072958045 0.037861872 0.34500003 4280440371
0.074078605 0.037861872 0.34500003 4280374578
0.074981198 0.037752125 0.34400001 4280374578
0.076098509 0.037752125 0.34400001 4280045613
0.077215821 0.037752125 0.34400001 4280111658
0.07810542 0.037642382 0.34300002 4280177451
0.078988522 0.037532635 0.34200001 4280111658
0.080099337 0.037532635 0.34200001 4280374830
0.081210159 0.037532635 0.34200001 4279979559
0.082080275 0.037422892 0.34100002 4279716387
0.083187841 0.037422892 0.34100002 4279915051
0.084295407 0.037422892 0.34100002 4279849772
0.085402973 0.037422892 0.34100002 4279718699
0.086510539 0.037422892 0.34100002 4279652906
0.087875053 0.037532635 0.34200001 4279587113
0.088985875 0.037532635 0.34200001 4279258146
0.09009669 0.037532635 0.34200001 4279192353
0.090940826 0.037422892 0.34100002 4278929179
0.092048392 0.037422892 0.34100002 4278468115
0.09315595 0.037422892 0.34100002 4279126045
0.093987085 0.037313148 0.34 4279389217
0.09509141 0.037313148 0.34 4278928666
0.095912807 0.037203405 0.33900002 4278928666
0.097013876 0.037203405 0.33900002 4278928666
0.097825535 0.037093662 0.33800003 4278797082
0.098923348 0.037093662 0.33800003 4278797082
0.099725246 0.036983915 0.33700001 4278665496
0.10081983 0.036983915 0.33700001 4278993947
0.10161199 0.036874171 0.33600003 4279058970
0.10270333 0.036874171 0.33600003 4278927384
0.10379466 0.036874171 0.33600003 4279124761
0.10488598 0.036874171 0.33600003 4278927382
0.10566189 0.036764424 0.33500001 4278927382
0.10674997 0.036764424 0.33500001 4278927382
0.10783806 0.036764424 0.33500001 4278861076
0.10892613 0.036764424 0.33500001 4279255064
0.11034262 0.036874171 0.33600003 4279057172
0.11143395 0.036874171 0.33600003 4279385367
0.11252528 0.036874171 0.33600003 4279648027
0.11395475 0.036983915 0.33700001 4279582234
0.11504932 0.036983915 0.33700001 4279779100
0.1161439 0.036983915 0.33700001 4279581723
0.11758637 0.037093662 0.33800003 4280039967
0.1186842 0.037093662 0.33800003 4279776281
0.11978202 0.037093662 0.33800003 4280038942
0.12087984 0.037093662 0.33800003 4281289009
0.066426665 0.039095804 0.34600002 4281359931
0.067550473 0.039095804 0.34600002 4281098042
0.068674281 0.039095804 0.34600002 4280966202
0.06979809 0.039095804 0.34600002 4280834616
0.070921898 0.039095804 0.34600002 4280703030
0.072045706 0.039095804 0.34600002 4280637237
0.072958045 0.038982812 0.34500003 4280505651
0.074078605 0.038982812 0.34500003 4280439858
0.075199164 0.038982812 0.34500003 4280176686
0.076319732 0.038982812 0.34500003 4280111406
0.077215821 0.038869817 0.34400001 4280045867
0.078333132 0.038869817 0.34400001 4280111660
0.07921949 0.038756825 0.34300002 4279979561
0.080333553 0.038756825 0.34300002 4279979561
0.081447616 0.038756825 0.34300002 4279713568
0.082320973 0.03864383 0.34200001 4280503084
0.083431788 0.03864383 0.34200001 4279913514
0.084542602 0.03864383 0.34200001 4279979820
0.085653417 0.03864383 0.34200001 4279914797
0.086764239 0.03864383 0.34200001 4279783211
0.087875053 0.03864383 0.34200001 4279915051
0.088985875 0.03864383 0.34200001 4279980844
0.09009669 0.03864383 0.34200001 4279980844
0.091207512 0.03864383 0.34200001 4279717670
0.092048392 0.038530838 0.34100002 4279915049
0.09315595 0.038530838 0.34100002 4279915049
0.094263524 0.038530838 0.34100002 4279651107
0.09509141 0.038417842 0.34 4280177449
0.096195728 0.038417842 0.34 4280112940
0.097013876 0.03830485 0.33900002 4279126045
0.098114952 0.03830485 0.33900002 4278731289
0.099216014 0.03830485 0.33900002 4278862875
0.10002118 0.038191859 0.33800003 4279126047
0.101119 0.038191859 0.33800003 4278994461
0.10191441 0.038078863 0.33700001 4279126047
0.10300899 0.038078863 0.33700001 4278928668
0.10410357 0.038078863 0.33700001 4278862361
0.10488598 0.037965868 0.33600003 4279059738
0.1059773 0.037965868 0.33600003 4278993945
0.10706864 0.037965868 0.33600003 4278796566
0.10815997 0.037965868 0.33600003 4278796566
0.10925129 0.037965868 0.33600003 4278796566
0.11034262 0.037965868 0.33600003 4278992146
0.1117656 0.038078863 0.33700001 4279123732
0.11286017 0.038078863 0.33700001 4278860306
0.11395475 0.038078863 0.33700001 4279123478
0.11539072 0.038191859 0.33800003 4279123478
0.11648855 0.038191859 0.33800003 4279123478
0.11758637 0.038191859 0.33800003 4279254553
0.1186842 0.038191859 0.33800003 4279385369
0.11978202 0.038191859 0.33800003 4279648029
0.12087984 0.038191859 0.33800003 4279582236
0.12197766 0.038191859 0.33800003 4279779102
0.12307549 0.038191859 0.33800003 4279975711
0.12417332 0.038191859 0.33800003 4280500004
0.06979809 0.040219992 0.34600002 4281358907
0.070921898 0.040219992 0.34600002 4280833333
0.072045706 0.040219992 0.34600002 4281031225
0.073169515 0.040219992 0.34600002 4280571444
0.074293323 0.040219992 0.34600002 4280110893
0.075199164 0.040103752 0.34500003 4280045100
0.076319732 0.040103752 0.34500003 4279913514
0.077440284 0.040103752 0.34500003 4279979307
0.078333132 0.039987508 0.34400001 4279650342
0.079450443 0.039987508 0.34400001 4279979307
0.080567755 0.039987508 0.34400001 4278726675
0.081447616 0.039871268 0.34300002 4280896561
0.082561679 0.039871268 0.34300002 4280832049
0.083675742 0.039871268 0.34300002 4280306989
0.084789813 0.039871268 0.34300002 4279121693
0.085903868 0.039871268 0.34300002 4279250201
0.087017938 0.039871268 0.34300002 4279512859
0.088132001 0.039871268 0.34300002 4278986254
0.089246072 0.039871268 0.34300002 4279381525
0.090360135 0.039871268 0.34300002 4279053844
0.091207512 0.03975502 0.34200001 4280042022
0.092318326 0.03975502 0.34200001 4279912231
0.093429133 0.03975502 0.34200001 4280833333
0.094263524 0.03963878 0.34100002 4280241963
0.095371097 0.03963878 0.34100002 4280374319
0.096478663 0.03963878 0.34100002 4280045354
0.097300053 0.039522536 0.34 4279650596
0.098404378 0.039522536 0.34 4280045867
0.099508688 0.039522536 0.34 4280111660
0.10031709 0.039406296 0.33900002 4279980072
0.10141817 0.039406296 0.33900002 4280045865
0.10221682 0.039290052 0.33800003 4279453728
0.10331465 0.039290052 0.33800003 4279257119
0.10441248 0.039290052 0.33800003 4279322912
0.10519814 0.039173808 0.33700001 4279125533
0.10629271 0.039173808 0.33700001 4279322912
0.10738729 0.039173808 0.33700001 4279454498
0.10848186 0.039173808 0.33700001 4279125535
0.10957644 0.039173808 0.33700001 4279257119
0.11099943 0.039290052 0.33800003 4279124761
0.11209726 0.039290052 0.33800003 4278993175
0.11319507 0.039290052 0.33800003 4279124248
0.1142929 0.039290052 0.33800003 4279058455
0.11573211 0.039406296 0.33900002 4278992664
0.11683318 0.039406296 0.33900002 4278861078
0.11793426 0.039406296 0.33900002 4278992662
0.11903533 0.039406296 0.33900002 4278861076
0.1201364 0.039406296 0.33900002 4278991892
0.12123747 0.039406296 0.33900002 4278991894
0.12233854 0.039406296 0.33900002 4279057174
0.12343962 0.039406296 0.33900002 4279254553
0.12454069 0.039406296 0.33900002 4279516955
0.12564176 0.039406296 0.33900002 4279648027
0.12711671 0.039522536 0.34 4279976479
0.12822104 0.039522536 0.34 4279844893
0.12932535 0.039522536 0.34 4279909664
0.13042967 0.039522536 0.34 4279909151
0.13192086 0.03963878 0.34100002 4280105508
0.13302843 0.03963878 0.34100002 4280039715
0.13413599 0.03963878 0.34100002 4281157169
0.070921898 0.041344184 0.34600002 4283987035
0.072045706 0.041344184 0.34600002 4283131726
0.074293323 0.041344184 0.34600002 4279844641
0.075199164 0.041224692 0.34500003 4279977254
0.076319732 0.041224692 0.34500003 4279912231
0.077440284 0.041224692 0.34500003 4279781928
0.078560852 0.041224692 0.34500003 4279583779
0.079450443 0.0411052 0.34400001 4279647777
0.080567755 0.0411052 0.34400001 4279647264
0.081685066 0.0411052 0.34400001 4279581984
0.082802385 0.0411052 0.34400001 4279780647
0.083919697 0.0411052 0.34400001 4279317277
0.085037008 0.0411052 0.34400001 4279578652
0.086154319 0.0411052 0.34400001 4280630057
0.087017938 0.040985707 0.34300002 4280301090
0.088132001 0.040985707 0.34300002 4280827688
0.089246072 0.040985707 0.34300002 4279972379
0.090360135 0.040985707 0.34300002 4280958507
0.091474198 0.040985707 0.34300002 4279774233
0.092588268 0.040985707 0.34300002 4279578139
0.093702324 0.040985707 0.34300002 4279380760
0.094539955 0.040866215 0.34200001 4278986002
0.09565077 0.040866215 0.34200001 4279118101
0.096761592 0.040866215 0.34200001 4279842336
0.097586237 0.040746726 0.34100002 4280633387
0.098693803 0.040746726 0.34100002 4281293114
0.099801362 0.040746726 0.34100002 4279912231
0.10061301 0.04062723 0.34 4280307756
0.10171733 0.04062723 0.34 4280373547
0.10282166 0.04062723 0.34 4280307754
0.10362031 0.040507741 0.33900002 4280307754
0.10472139 0.040507741 0.33900002 4280242731
0.10582246 0.040507741 0.33900002 4279716387
0.10692353 0.040507741 0.33900002 4280176938
0.1080246 0.040507741 0.33900002 4280176938
0.10912567 0.040507741 0.33900002 4279651107
0.11022675 0.040507741 0.33900002 4279914279
0.11132782 0.040507741 0.33900002 4279125533
0.1124289 0.040507741 0.33900002 4279058968
0.11352996 0.040507741 0.33900002 4279453213
0.11463103 0.040507741 0.33900002 4279650592
0.1160735 0.04062723 0.34 4279519008
0.11717782 0.04062723 0.34 4279453213
0.11828214 0.04062723 0.34 4279321627
0.11938646 0.04062723 0.34 4279124248
0.12049079 0.04062723 0.34 4279190041
0.1215951 0.04062723 0.34 4278992662
0.12269942 0.04062723 0.34 4278861078
0.12343962 0.040507741 0.33900002 4278861078
0.12490807 0.04062723 0.34 4279255066
0.12601238 0.04062723 0.34 4278991894
0.12711671 0.04062723 0.34 4278926101
0.12822104 0.04062723 0.34 4279123480
0.12970571 0.040746726 0.34100002 4279057174
0.13081329 0.040746726 0.34100002 4279582748
0.13192086 0.040746726 0.34100002 4279582748
0.13302843 0.040746726 0.34100002 4279516957
0.13413599 0.040746726 0.34100002 4279910947
0.13564017 0.040866215 0.34200001 4279844641
0.13675098 0.040866215 0.34200001 4280303909
0.1378618 0.040866215 0.34200001 4280105760
0.13897261 0.040866215 0.34200001 4279907354
0.077440284 0.042345632 0.34500003 4284842092
0.078560852 0.042345632 0.34500003 4283394644
0.079450443 0.042222891 0.34400001 4282079298
0.080567755 0.042222891 0.34400001 4280830001
0.081685066 0.042222891 0.34400001 4279844643
0.082802385 0.042222891 0.34400001 4279779877
0.083919697 0.042222891 0.34400001 4280832051
0.085037008 0.042222891 0.34400001 4280172838
0.086154319 0.042222891 0.34400001 4280302887
0.087271631 0.042222891 0.34400001 4279052560
0.088388942 0.042222891 0.34400001 4278986254
0.089506261 0.042222891 0.34400001 4279578391
0.090623572 0.042222891 0.34400001 4279774233
0.091740884 0.042222891 0.34400001 4279773465
0.092858203 0.042222891 0.34400001 4280563751
0.093702324 0.04210015 0.34300002 4279050512
0.094816387 0.04210015 0.34300002 4279642649
0.095930457 0.04210015 0.34300002 4280300579
0.09704452 0.04210015 0.34300002 4280301092
0.09815859 0.04210015 0.34300002 4280432678
0.098983228 0.041977406 0.34200001 4279774235
0.10009404 0.041977406 0.34200001 4280038690
0.10120485 0.041977406 0.34200001 4280700717
0.1020165 0.041854668 0.34100002 4279713822
0.10312407 0.041854668 0.34100002 4279253017
0.10392597 0.041731924 0.34 4279384090
0.1050303 0.041731924 0.34 4280832817
0.10613462 0.041731924 0.34 4280899380
0.10723893 0.041731924 0.34 4280570415
0.10834325 0.041731924 0.34 4280833585
0.10944758 0.041731924 0.34 4280373547
0.11055189 0.041731924 0.34 4280374317
0.11165622 0.041731924 0.34 4280440108
0.11276054 0.041731924 0.34 4280374569
0.11386485 0.041731924 0.34 4280177190
0.11496918 0.041731924 0.34 4280111397
0.1164149 0.041854668 0.34100002 4280110373
0.11752246 0.041854668 0.34100002 4279519008
0.11863004 0.041854668 0.34100002 4278598417
0.1197376 0.041854668 0.34100002 4279387935
0.12084518 0.041854668 0.34100002 4279519008
0.1215951 0.041731924 0.34 4279584801
0.12269942 0.041731924 0.34 4280045865
0.12380374 0.041731924 0.34 4279453728
0.12490807 0.041731924 0.34 4279519521
0.12638302 0.041854668 0.34100002 4279124763
0.12749058 0.041854668 0.34100002 4279058968
0.12859815 0.041854668 0.34100002 4279124761
0.12970571 0.041854668 0.34100002 4278861076
0.13081329 0.041854668 0.34100002 4278991892
0.13230772 0.041977406 0.34200001 4279254551
0.13341853 0.041977406 0.34200001 4278991379
0.13452935 0.041977406 0.34200001 4279188760
0.13564017 0.041977406 0.34200001 4279187990
0.13675098 0.041977406 0.34200001 4279385369
0.1378618 0.041977406 0.34200001 4279582748
0.13897261 0.041977406 0.34200001 4279582234
0.14008343 0.041977406 0.34200001 4279779100
0.14119425 0.041977406 0.34200001 4280040737
0.081685066 0.043340582 0.34400001 4285038188
0.082802385 0.043340582 0.34400001 4285432944
0.083919697 0.043340582 0.34400001 4285171055
0.085037008 0.043340582 0.34400001 4283131474
0.086154319 0.043340582 0.34400001 4281486647
0.087271631 0.043340582 0.34400001 4280171301
0.088388942 0.043340582 0.34400001 4279843358
0.089506261 0.043340582 0.34400001 4280172323
0.090623572 0.043340582 0.34400001 4280698667
0.091740884 0.043340582 0.34400001 4280961071
0.092858203 0.043340582 0.34400001 4280368680
0.093975507 0.043340582 0.34400001 4279710236
0.095092818 0.043340582 0.34400001 4279249174
0.09621013 0.043340582 0.34400001 4278920207
0.097327448 0.043340582 0.34400001 4279380758
0.09815859 0.043214593 0.34300002 4279840541
0.099272653 0.043214593 0.34300002 4280236071
0.10038671 0.043214593 0.34300002 4280435758
0.10150078 0.043214593 0.34300002 4280372014
0.10231567 0.043088604 0.34200001 4280042533
0.10342649 0.043088604 0.34200001 4279909151
0.10423165 0.042962614 0.34100002 4279119635
0.10564812 0.043088604 0.34200001 4280172836
0.10644679 0.042962614 0.34100002 4281028915
0.10755435 0.042962614 0.34100002 4280765997
0.10866191 0.042962614 0.34100002 4280173860
0.10976949 0.042962614 0.34100002 4279516443
0.1112022 0.043088604 0.34200001 4279516443
0.11198463 0.042962614 0.34100002 4280109094
0.1130922 0.042962614 0.34100002 4280701231
0.11419976 0.042962614 0.34100002 4281227571
0.11530732 0.042962614 0.34100002 4280767020
0.1164149 0.042962614 0.34100002 4280898606
0.11752246 0.042962614 0.34100002 4280438309
0.11863004 0.042962614 0.34100002 4280768042
0.1197376 0.042962614 0.34100002 4280307491
0.12084518 0.042962614 0.34100002 4280438825
0.12195273 0.042962614 0.34100002 4280175653
0.12306031 0.042962614 0.34100002 4279716385
0.12416787 0.042962614 0.34100002 4279058970
0.12527545 0.042962614 0.34100002 4279257119
0.12638302 0.042962614 0.34100002 4279453728
0.12749058 0.042962614 0.34100002 4279651107
0.12897527 0.043088604 0.34200001 4279519521
0.13008608 0.043088604 0.34200001 4279453728
0.1311969 0.043088604 0.34200001 4279058970
0.13230772 0.043088604 0.34200001 4279386650
0.13341853 0.043088604 0.34200001 4279386650
0.13452935 0.043088604 0.34200001 4279255064
0.13564017 0.043088604 0.34200001 4279123478
0.13675098 0.043088604 0.34200001 4279320859
0.13826491 0.043214593 0.34300002 4278991894
0.13937898 0.043214593 0.34300002 4278991894
0.14049304 0.043214593 0.34300002 4278991381
0.14160711 0.043214593 0.34300002 4278991381
0.14272118 0.043214593 0.34300002 4279320348
0.14383525 0.043214593 0.34300002 4280369186
0.086404771 0.044587512 0.34500003 4284511331
0.08752533 0.044587512 0.34500003 4284577122
0.08864589 0.044587512 0.34500003 4284313950
0.089766458 0.044587512 0.34500003 4283656022
0.090887018 0.044587512 0.34500003 4283657303
0.092007577 0.044587512 0.34500003 4280894510
0.093128145 0.044587512 0.34500003 4280172586
0.093975507 0.04445827 0.34400001 4279909414
0.095092818 0.04445827 0.34400001 4279975205
0.09621013 0.04445827 0.34400001 4279844389
0.097327448 0.04445827 0.34400001 4280172584
0.09844476 0.04445827 0.34400001 4280830514
0.099562079 0.04445827 0.34400001 4279975975
0.10067938 0.04445827 0.34400001 4279121179
0.10179669 0.04445827 0.34400001 4279121695
0.10261484 0.044329032 0.34300002 4279713318
0.10372891 0.044329032 0.34300002 4279775518
0.10453731 0.044199791 0.34200001 4279840541
0.10564812 0.044199791 0.34200001 4280171555
0.10675894 0.044199791 0.34200001 4281159218
0.10786975 0.044199791 0.34200001 4280896813
0.10898057 0.044199791 0.34200001 4281029169
0.11009139 0.044199791 0.34200001 4281423927
0.11152736 0.044329032 0.34300002 4280239653
0.11231302 0.044199791 0.34200001 4280896559
0.11342384 0.044199791 0.34200001 4281291317
0.11453465 0.044199791 0.34200001 4281028145
0.11564547 0.044199791 0.34200001 4281488696
0.11675628 0.044199791 0.34200001 4281225778
0.1178671 0.044199791 0.34200001 4280633641
0.11897792 0.044199791 0.34200001 4280437032
0.12008874 0.044199791 0.34200001 4280634409
0.12084518 0.044070557 0.34100002 4281029165
0.12195273 0.044070557 0.34100002 4281029419
0.12342118 0.044199791 0.34200001 4280438055
0.124532 0.044199791 0.34200001 4280636206
0.12564282 0.044199791 0.34200001 4280570926
0.12675364 0.044199791 0.34200001 4280175655
0.12786445 0.044199791 0.34200001 4280044582
0.12897527 0.044199791 0.34200001 4280176168
0.13008608 0.044199791 0.34200001 4279452445
0.13158052 0.044329032 0.34300002 4279584801
0.13269459 0.044329032 0.34300002 4279453215
0.13380866 0.044329032 0.34300002 4279650594
0.13492273 0.044329032 0.34300002 4279716387
0.13603678 0.044329032 0.34300002 4279584801
0.13715084 0.044329032 0.34300002 4279453215
0.13826491 0.044329032 0.34300002 4279255836
0.13937898 0.044329032 0.34300002 4280176938
0.14049304 0.044329032 0.34300002 4279190043
0.14160711 0.044329032 0.34300002 4279058457
0.14272118 0.044329032 0.34300002 4279320859
0.14383525 0.044329032 0.34300002 4279451162
0.099851504 0.045708455 0.34500003 4279712807
0.10067938 0.045575965 0.34400001 4280042285
0.10179669 0.045575965 0.34400001 4280173869
0.10291401 0.045575965 0.34400001 4280108074
0.10403132 0.045575965 0.34400001 4280107561
0.10514864 0.045575965 0.34400001 4280436526
0.10595704 0.045443479 0.34300002 4280172838
0.10707111 0.045443479 0.34300002 4280107045
0.10818516 0.045443479 0.34300002 4280304676
0.10929923 0.045443479 0.34300002 4280765227
0.1104133 0.045443479 0.34300002 4281423673
0.11152736 0.045443479 0.34300002 4281555261
0.11264143 0.045443479 0.34300002 4280830255
0.11375549 0.045443479 0.34300002 4280961839
0.11486955 0.045443479 0.34300002 4280238116
0.11564547 0.045310989 0.34200001 4280896046
0.11675628 0.045310989 0.34200001 4280896813
0.1178671 0.045310989 0.34200001 4281159985
0.11897792 0.045310989 0.34200001 4281159472
0.12008874 0.045310989 0.34200001 4281357364
0.12119956 0.045310989 0.34200001 4281423927
0.12231036 0.045310989 0.34200001 4281226548
0.12342118 0.045310989 0.34200001 4281159983
0.124532 0.045310989 0.34200001 4280699432
0.12564282 0.045310989 0.34200001 4279779100
0.12712426 0.045443479 0.34300002 4280765995
0.12823834 0.045443479 0.34300002 4281292852
0.12935241 0.045443479 0.34300002 4280700715
0.13046646 0.045443479 0.34300002 4280701999
0.13158052 0.045443479 0.34300002 4280636204
0.13269459 0.045443479 0.34300002 4280175653
0.13380866 0.045443479 0.34300002 4280438825
0.13492273 0.045443479 0.34300002 4280373545
0.13603678 0.045443479 0.34300002 4279912994
0.13715084 0.045443479 0.34300002 4279715617
0.13826491 0.045443479 0.34300002 4279584031
0.13937898 0.045443479 0.34300002 4279584031
0.14049304 0.045443479 0.34300002 4279519010
0.14160711 0.045443479 0.34300002 4279584803
0.14272118 0.045443479 0.34300002 4279320861
0.14383525 0.045443479 0.34300002 4279320859
0.10291401 0.046693653 0.34400001 4280499765
0.10403132 0.046693653 0.34400001 4280500016
0.10514864 0.046693653 0.34400001 4280171821
0.10626595 0.046693653 0.34400001 4280171821
0.10738327 0.046693653 0.34400001 4279777830
0.10850057 0.046693653 0.34400001 4280369963
0.10961788 0.046693653 0.34400001 4280370215
0.11073519 0.046693653 0.34400001 4280238116
0.11185251 0.046693653 0.34400001 4281225013
0.11264143 0.046557918 0.34300002 4281223729
0.11375549 0.046557918 0.34300002 4281224241
0.11486955 0.046557918 0.34300002 4280632104
0.11598361 0.046557918 0.34300002 4280829737
0.11675628 0.04642218 0.34200001 4281290288
0.1178671 0.04642218 0.34200001 4281750839
0.11897792 0.04642218 0.34200001 4281290288
0.12008874 0.04642218 0.34200001 4281356081
0.12119956 0.04642218 0.34200001 4280172577
0.12231036 0.04642218 0.34200001 4280896300
0.12342118 0.04642218 0.34200001 4280896300
0.124532 0.04642218 0.34200001 4280040991
0.12601019 0.046557918 0.34300002 4280764712
0.12712426 0.046557918 0.34300002 4280896298
0.12823834 0.046557918 0.34300002 4280896811
0.12935241 0.046557918 0.34300002 4281160753
0.13046646 0.046557918 0.34300002 4280963887
0.13196413 0.046693653 0.34400001 4281292852
0.13308145 0.046693653 0.34400001 4280435495
0.13419876 0.046693653 0.34400001 4281291058
0.13531607 0.046693653 0.34400001 4281293104
0.13643339 0.046693653 0.34400001 4281161518
0.1375507 0.046693653 0.34400001 4281293364
0.13866802 0.046693653 0.34400001 4280832813
0.13978532 0.046693653 0.34400001 4280767020
0.14090264 0.046693653 0.34400001 4280372264
0.14201996 0.046693653 0.34400001 4280503850
0.14272118 0.046557918 0.34300002 4280240678
0.11486955 0.047672361 0.34300002 4284117077
0.11598361 0.047672361 0.34300002 4283788112
0.11675628 0.047533374 0.34200001 4282735170
0.1178671 0.047533374 0.34200001 4282867269
0.11897792 0.047533374 0.34200001 4282342462
0.12008874 0.047533374 0.34200001 4281684532
0.12119956 0.047533374 0.34200001 4281618739
0.12231036 0.047533374 0.34200001 4281026602
0.12342118 0.047533374 0.34200001 4280697637
0.124532 0.047533374 0.34200001 4281552946
0.12601019 0.047672361 0.34300002 4282211390
0.12712426 0.047672361 0.34300002 4281027116
0.12823834 0.047672361 0.34300002 4281093679
0.12972951 0.047811348 0.34400001 4281225778
0.13084681 0.047811348 0.34400001 4281095473
0.13196413 0.047811348 0.34400001 4280238883
0.13308145 0.047811348 0.34400001 4282146113
0.13419876 0.047811348 0.34400001 4281554489
0.13531607 0.047811348 0.34400001 4281357362
0.13643339 0.047811348 0.34400001 4281489718
0.1375507 0.047811348 0.34400001 4281292852
0.13866802 0.047811348 0.34400001 4281292852
0.13978532 0.047811348 0.34400001 4281490229
0.14090264 0.047811348 0.34400001 4281489716
0.14201996 0.047811348 0.34400001 4281555509
0.13643339 0.048929039 0.34400001 4281620534
0.1375507 0.048929039 0.34400001 4281554741
0.13866802 0.048929039 0.34400001 4281752120
0.13978532 0.048929039 0.34400001 4281817911
0.14090264 0.048929039 0.34400001 4282212156
0.14201996 0.048929039 0.34400001 4283263562
0.13683 0.050192215 0.34500003 4282604351
0.13795055 0.050192215 0.34500003 4282669631
0.13907112 0.050192215 0.34500003 4283656526
0.14019169 0.050192215 0.34500003 4284445018
0.10053154 0.039509822 0.34153789 4294967295
0.10053154 0.039509822 0.34153789 4294901760
0.10053154 0.039509822 0.34203789 4294901760
0.10053154 0.039509822 0.34253788 4294901760
0.10053154 0.039509822 0.3430379 4294901760
0.10053154 0.039509822 0.3435379 4294901760
0.10053154 0.039509822 0.34403789 4294901760
0.10053154 0.039509822 0.34453788 4294901760
0.10053154 0.039509822 0.34503791 4294901760
0.10053154 0.039509822 0.3455379 4294901760
0.10053154 0.039509822 0.34603789 4294901760
0.10053154 0.039509822 0.34653789 4294901760
0.10053154 0.039509822 0.34703788 4294901760
0.10053154 0.039509822 0.3475379 4294901760
0.10053154 0.039509822 0.3480379 4294901760
0.10053154 0.039509822 0.34853789 4294901760
0.10053154 0.039509822 0.34903789 4294901760
0.10053154 0.039509822 0.34953791 4294901760
0.10053154 0.039509822 0.3500379 4294901760
0.10053154 0.039509822 0.3505379 4294901760
0.10053154 0.039509822 0.35103789 4294901760
0.10053154 0.039509822 0.35153788 4294901760
0.10053154 0.039509822 0.35203791 4294901760
0.10053154 0.039509822 0.3525379 4294901760
0.10053154 0.039509822 0.35303789 4294901760
0.10053154 0.039509822 0.35353789 4294901760
0.10053154 0.039509822 0.35403788 4294901760
0.10053154 0.039509822 0.3545379 4294901760
0.10053154 0.039509822 0.3550379 4294901760
0.10053154 0.039509822 0.35553789 4294901760
0.10053154 0.039509822 0.35603788 4294901760
0.10053154 0.039509822 0.35653791 4294901760
0.10053154 0.039509822 0.3570379 4294901760
0.10053154 0.039509822 0.3575379 4294901760
0.10053154 0.039509822 0.35803789 4294901760
0.10053154 0.039509822 0.35853791 4294901760
0.10053154 0.039509822 0.35903791 4294901760
0.10053154 0.039509822 0.3595379 4294901760
0.10053154 0.039509822 0.36003789 4294901760
0.10053154 0.039509822 0.36053789 4294901760
0.10053154 0.039509822 0.36103791 4294901760
0.10053154 0.039509822 0.3615379 4294901760
0.10053154 0.039509822 0.3620379 4294901760
0.10053154 0.039509822 0.36253789 4294901760
0.10053154 0.039509822 0.36303788 4294901760
0.10053154 0.039509822 0.36353791 4294901760
0.10053154 0.039509822 0.3640379 4294901760
0.10053154 0.039509822 0.36453789 4294901760
0.10053154 0.039509822 0.36503789 4294901760
0.10053154 0.039509822 0.36553791 4294901760
0.10053154 0.039509822 0.36603791 4294901760
0.10053154 0.039509822 0.3665379 4294901760
0.10053154 0.039509822 0.36703789 4294901760
0.10053154 0.039509822 0.36753789 4294901760
0.10053154 0.039509822 0.36803791 4294901760
0.10053154 0.039509822 0.3685379 4294901760
0.10053154 0.039509822 0.3690379 4294901760
0.10053154 0.039509822 0.36953789 4294901760
0.10053154 0.039509822 0.37003791 4294901760
0.10053154 0.039509822 0.37053791 4294901760
0.10053154 0.039509822 0.3710379 4294901760
0.10053154 0.039509822 0.37153789 4294901760
0.10053154 0.039509822 0.37203789 4294901760
0.10053154 0.039509822 0.37253791 4294901760
0.10053154 0.039509822 0.3730379 4294901760
0.10053154 0.039509822 0.3735379 4294901760
0.10053154 0.039509822 0.37403789 4294901760
0.10053154 0.039509822 0.37453791 4294901760
0.10053154 0.039509822 0.37503791 4294901760
0.10053154 0.039509822 0.3755379 4294901760
0.10053154 0.039509822 0.3760379 4294901760
0.10053154 0.039509822 0.37653789 4294901760
0.10053154 0.039509822 0.37703791 4294901760
0.10053154 0.039509822 0.37753791 4294901760
0.10053154 0.039509822 0.3780379 4294901760
0.10053154 0.039509822 0.37853789 4294901760
0.10053154 0.039509822 0.37903792 4294901760
0.10053154 0.039509822 0.37953791 4294901760
0.10053154 0.039509822 0.3800379 4294901760
0.10053154 0.039509822 0.3805379 4294901760
0.10053154 0.039509822 0.38103789 4294901760
0.10053154 0.039509822 0.38153791 4294901760
0.10053154 0.039509822 0.38203791 4294901760
0.10053154 0.039509822 0.3825379 4294901760
0.10053154 0.039509822 0.38303789 4294901760
0.10053154 0.039509822 0.38353789 4294901760
0.10053154 0.039509822 0.38403791 4294901760
0.10053154 0.039509822 0.38453791 4294901760
0.10053154 0.039509822 0.3850379 4294901760
0.10053154 0.039509822 0.38553789 4294901760
0.10053154 0.039509822 0.38603789 4294901760
0.10053154 0.039509822 0.38653791 4294901760
0.10053154 0.039509822 0.3870379 4294901760
0.10053154 0.039509822 0.3875379 4294901760
0.10053154 0.039509822 0.38803792 4294901760
0.10053154 0.039509822 0.38853791 4294901760
0.10053154 0.039509822 0.38903791 4294901760
0.10053154 0.039509822 0.3895379 4294901760
0.10053154 0.039509822 0.39003789 4294901760
0.10053154 0.039509822 0.39053792 4294901760
0.10053154 0.039509822 0.39103791 4294901760
0.10053154 0.039509822 0.3915379 4294901760
0.10053154 0.039509822 0.34153789 4278255360
0.10058675 0.039310392 0.34199306 4278255360
0.10064196 0.039110962 0.34244823 4278255360
0.10069717 0.038911533 0.34290341 4278255360
0.10075237 0.038712103 0.34335858 4278255360
0.10080758 0.038512677 0.34381375 4278255360
0.10086279 0.038313247 0.34426892 4278255360
0.10091799 0.038113818 0.34472409 4278255360
0.1009732 0.037914388 0.34517926 4278255360
0.10102841 0.037714958 0.34563443 4278255360
0.10108361 0.037515529 0.3460896 4278255360
0.10113882 0.037316099 0.34654477 4278255360
0.10119403 0.037116669 0.34699994 4278255360
0.10124924 0.036917239 0.34745511 4278255360
0.10130445 0.036717813 0.34791028 4278255360
0.10135966 0.036518384 0.34836546 4278255360
0.10141486 0.036318954 0.34882063 4278255360
0.10147007 0.036119524 0.3492758 4278255360
0.10152528 0.035920095 0.34973097 4278255360
0.10158049 0.035720665 0.35018614 4278255360
0.10163569 0.035521235 0.35064131 4278255360
0.1016909 0.035321809 0.35109648 4278255360
0.1017461 0.03512238 0.35155165 4278255360
0.10180131 0.03492295 0.35200682 4278255360
0.10185652 0.03472352 0.35246199 4278255360
0.10191173 0.034524091 0.35291713 4278255360
0.10196694 0.034324661 0.35337231 4278255360
0.10202215 0.034125231 0.35382748 4278255360
0.10207736 0.033925802 0.35428265 4278255360
0.10213256 0.033726372 0.35473782 4278255360
0.10218777 0.033526942 0.35519299 4278255360
0.10224298 0.033327512 0.35564816 4278255360
0.10229819 0.033128086 0.35610333 4278255360
0.10235339 0.032928657 0.3565585 4278255360
0.1024086 0.032729227 0.35701367 4278255360
0.1024638 0.032529797 0.35746884 4278255360
0.10251901 0.032330368 0.35792401 4278255360
0.10257422 0.032130938 0.35837919 4278255360
0.10262943 0.031931508 0.35883436 4278255360
0.10268464 0.031732082 0.35928953 4278255360
0.10273985 0.031532653 0.3597447 4278255360
0.10279505 0.031333223 0.36019987 4278255360
0.10285026 0.031133793 0.36065504 4278255360
0.10290547 0.030934364 0.36111021 4278255360
0.10296068 0.030734934 0.36156538 4278255360
0.10301588 0.030535504 0.36202055 4278255360
0.10307109 0.030336075 0.36247572 4278255360
0.10312629 0.030136647 0.36293089 4278255360
0.1031815 0.029937217 0.36338606 4278255360
0.10323671 0.029737787 0.36384124 4278255360
0.10329192 0.029538359 0.36429641 4278255360
0.10334713 0.02933893 0.36475158 4278255360
0.10340234 0.0291395 0.36520675 4278255360
0.10345754 0.02894007 0.36566192 4278255360
0.10351275 0.028740641 0.36611709 4278255360
0.10356796 0.028541211 0.36657226 4278255360
0.10362317 0.028341783 0.36702743 4278255360
0.10367838 0.028142354 0.3674826 4278255360
0.10373358 0.027942926 0.36793777 4278255360
0.10378879 0.027743496 0.36839294 4278255360
0.10384399 0.027544066 0.36884812 4278255360
0.1038992 0.027344637 0.36930329 4278255360
0.10395441 0.027145207 0.36975846 4278255360
0.10400962 0.026945777 0.37021363 4278255360
0.10406483 0.026746349 0.3706688 4278255360
0.10412004 0.02654692 0.37112397 4278255360
0.10417524 0.02634749 0.37157914 4278255360
0.10423045 0.02614806 0.37203431 4278255360
0.10428566 0.025948633 0.37248948 4278255360
0.10434087 0.025749203 0.37294465 4278255360
0.10439608 0.025549773 0.37339982 4278255360
0.10445128 0.025350343 0.37385499 4278255360
0.10450649 0.025150914 0.37431017 4278255360
0.10456169 0.024951484 0.37476534 4278255360
0.1046169 0.024752056 0.37522048 4278255360
0.10467211 0.024552627 0.37567568 4278255360
0.10472732 0.024353199 0.37613082 4278255360
0.10478253 0.024153769 0.37658599 4278255360
0.10483773 0.023954339 0.37704116 4278255360
0.10489294 0.02375491 0.37749636 4278255360
0.10494815 0.02355548 0.3779515 4278255360
0.10500336 0.023356052 0.37840667 4278255360
0.10505857 0.023156622 0.37886184 4278255360
0.10511377 0.022957193 0.37931702 4278255360
0.10516898 0.022757765 0.37977219 4278255360
0.10522418 0.022558333 0.38022736 4278255360
0.10527939 0.022358906 0.38068253 4278255360
0.1053346 0.022159476 0.3811377 4278255360
0.10538981 0.021960046 0.38159287 4278255360
0.10544502 0.021760618 0.38204804 4278255360
0.10550023 0.021561189 0.38250321 4278255360
0.10555543 0.021361759 0.38295838 4278255360
0.10561064 0.021162329 0.38341355 4278255360
0.10566585 0.0209629 0.38386872 4278255360
0.10572106 0.020763472 0.38432389 4278255360
0.10577627 0.020564042 0.38477907 4278255360
0.10583147 0.020364612 0.38523424 4278255360
0.10588668 0.020165183 0.38568941 4278255360
0.10594188 0.019965753 0.38614458 4278255360
0.10599709 0.019766325 0.38659975 4278255360
0.1060523 0.019566895 0.38705492 4278255360
