# .PCD v0.7 - Point Cloud Data file format
VERSION 0.7
FIELDS x y z rgb
SIZE 4 4 4 4
TYPE F F F U
COUNT 1 1 1 1
WIDTH 918
HEIGHT 1
VIEWPOINT 0 0 0 1 0 0 0
POINTS 918
DATA ascii
0.080131061 -0.038210694 0.43200001 4279852086
0.081534199 -0.038210694 0.43200001 4279787059
0.083321303 -0.038387597 0.43400002 4279721779
0.085121401 -0.038564496 0.43600002 4279787572
0.086537533 -0.038564496 0.43600002 4279655986
0.088155389 -0.038652945 0.43700001 4279918904
0.078363441 -0.036636677 0.43000001 4280050490
0.081534199 -0.036807083 0.43200001 4279393584
0.083321303 -0.036977485 0.43400002 4278867238
0.088155389 -0.037233088 0.43700001 4279525168
0.078363441 -0.035239566 0.43000001 4278998822
0.079945579 -0.035321519 0.43100002 4278867236
0.081345469 -0.035321519 0.43100002 4278604064
0.082937337 -0.035403471 0.43200001 4278669859
0.084730938 -0.035567377 0.43400002 4278867238
0.086140573 -0.035567377 0.43400002 4278735652
0.01042925 -0.031166535 0.39600003 4284054893
0.011685873 -0.031087831 0.39500001 4283790185
0.012968834 -0.031087831 0.39500001 4283789415
0.014251795 -0.031087831 0.39500001 4284841842
0.057547357 -0.033921152 0.43100002 4285961859
0.058947243 -0.033921152 0.43100002 4286290570
0.060347132 -0.033921152 0.43100002 4283398240
0.074001029 -0.033763744 0.42900002 4278801960
0.075394422 -0.033763744 0.42900002 4278933544
0.076966807 -0.033842448 0.43000001 4278933029
0.078363441 -0.033842448 0.43000001 4278538525
0.079945579 -0.033921152 0.43100002 4278669857
0.081345469 -0.033921152 0.43100002 4278537503
0.082937337 -0.033999857 0.43200001 4278733857
0.084535711 -0.034078561 0.43300003 4278997027
0.085942097 -0.034078561 0.43300003 4278996257
0.0052710702 -0.029804435 0.39500001 4286224259
0.0065540308 -0.029804435 0.39500001 4282342222
0.0078568328 -0.02987989 0.39600003 4282209356
0.0091430414 -0.02987989 0.39600003 4282408013
0.01042925 -0.02987989 0.39600003 4283131736
0.011685873 -0.029804435 0.39500001 4284381803
0.012968834 -0.029804435 0.39500001 4284117353
0.014251795 -0.029804435 0.39500001 4285171321
0.015534755 -0.029804435 0.39500001 4284184426
0.016775141 -0.029728983 0.39400002 4282473294
0.018054854 -0.029728983 0.39400002 4282209869
0.053347688 -0.03252079 0.43100002 4286290570
0.054747578 -0.03252079 0.43100002 4286292107
0.05601719 -0.032445334 0.43000001 4283792484
0.057413835 -0.032445334 0.43000001 4281952077
0.058810472 -0.032445334 0.43000001 4280901440
0.060207114 -0.032445334 0.43000001 4279721014
0.062853888 -0.032369882 0.42900002 4279524916
0.069495343 -0.032218974 0.42700002 4278539554
0.071048245 -0.032294426 0.42800003 4278802728
0.072438389 -0.032294426 0.42800003 4278801958
0.074001029 -0.032369882 0.42900002 4278735650
0.075394422 -0.032369882 0.42900002 4278668574
0.076966807 -0.032445334 0.43000001 4278668574
0.078363441 -0.032445334 0.43000001 4278800160
0.0039780131 -0.028448837 0.39400002 4281879611
0.0052710702 -0.02852104 0.39500001 4282078275
0.0065540308 -0.02852104 0.39500001 4282735951
0.0078568328 -0.028593246 0.39600003 4282670158
0.011685873 -0.02852104 0.39500001 4281156149
0.012968834 -0.02852104 0.39500001 4281682493
0.014251795 -0.02852104 0.39500001 4281945152
0.015534755 -0.02852104 0.39500001 4281287222
0.016817717 -0.02852104 0.39500001 4281155638
0.018054854 -0.028448837 0.39400002 4282537802
0.019334566 -0.028448837 0.39400002 4282143814
0.020614278 -0.028448837 0.39400002 4281881409
0.021893991 -0.028448837 0.39400002 4280239664
0.023173705 -0.028448837 0.39400002 4283990895
0.024453416 -0.028448837 0.39400002 4287147929
0.045595489 -0.030614991 0.42400002 4286224007
0.047083426 -0.030687196 0.42500001 4286355593
0.04857786 -0.030759402 0.42600003 4285961605
0.050078791 -0.030831605 0.42700002 4286686095
0.051586218 -0.030903812 0.42800003 4284581998
0.053100135 -0.030976016 0.42900002 4282149454
0.054493528 -0.030976016 0.42900002 4281033792
0.055886921 -0.030976016 0.42900002 4280507961
0.057146799 -0.030903812 0.42800003 4279130925
0.058536936 -0.030903812 0.42800003 4279262511
0.059927084 -0.030903812 0.42800003 4279000109
0.061173964 -0.030831605 0.42700002 4279197488
0.062560864 -0.030831605 0.42700002 4278802730
0.063648231 -0.030687196 0.42500001 4278868523
0.065028638 -0.030687196 0.42500001 4278539556
0.066409037 -0.030687196 0.42500001 4278671140
0.067948945 -0.030759402 0.42600003 4278407968
0.069495343 -0.030831605 0.42700002 4278210589
0.070882238 -0.030831605 0.42700002 4278406685
0.072438389 -0.030903812 0.42800003 4278603294
0.0026914517 -0.027099732 0.39300001 4282339130
0.0039780131 -0.027168689 0.39400002 4282866508
0.011685873 -0.027237644 0.39500001 4281221429
0.012968834 -0.027237644 0.39500001 4282274884
0.014251795 -0.027237644 0.39500001 4283130191
0.016817717 -0.027237644 0.39500001 4280496936
0.018100677 -0.027237644 0.39500001 4280102948
0.019334566 -0.027168689 0.39400002 4280301610
0.020614278 -0.027168689 0.39400002 4281486138
0.021893991 -0.027168689 0.39400002 4281947200
0.023173705 -0.027168689 0.39400002 4279383840
0.024453416 -0.027168689 0.39400002 4280834627
0.02579844 -0.027237644 0.39500001 4283006566
0.027081402 -0.027237644 0.39500001 4287279002
0.045487951 -0.029168414 0.42300001 4286159751
0.046972644 -0.029237373 0.42400002 4285503104
0.048463825 -0.029306328 0.42500001 4281689673
0.049961511 -0.029375285 0.42600003 4281033280
0.051465686 -0.02944424 0.42700002 4280311352
0.052976359 -0.029513197 0.42800003 4280247096
0.054366503 -0.029513197 0.42800003 4279721262
0.055626374 -0.02944424 0.42700002 4279524396
0.056879755 -0.029375285 0.42600003 4279459886
0.058263399 -0.029375285 0.42600003 4278934312
0.05964705 -0.029375285 0.42600003 4278408482
0.060887434 -0.029306328 0.42500001 4278210075
0.062267836 -0.029306328 0.42500001 4278736933
0.063498475 -0.029237373 0.42400002 4278341405
0.064875633 -0.029237373 0.42400002 4278670370
0.066409037 -0.029306328 0.42500001 4278407198
0.067789435 -0.029306328 0.42500001 4278538271
0.069332592 -0.029375285 0.42600003 4278405917
0.011685873 -0.02595425 0.39500001 4281287735
0.012968834 -0.02595425 0.39500001 4282274884
0.014251795 -0.02595425 0.39500001 4282998605
0.015534755 -0.02595425 0.39500001 4280563751
0.016817717 -0.02595425 0.39500001 4280103202
0.018100677 -0.02595425 0.39500001 4279773983
0.019383637 -0.02595425 0.39500001 4280102950
0.020666597 -0.02595425 0.39500001 4279971364
0.02323252 -0.02595425 0.39500001 4281420856
0.02451548 -0.02595425 0.39500001 4279255334
0.02579844 -0.02595425 0.39500001 4280113723
0.027081402 -0.02595425 0.39500001 4279851834
0.038290534 -0.026611321 0.40500003 4286290824
0.039801557 -0.026742734 0.40700001 4286488203
0.046861857 -0.027794044 0.42300001 4280574272
0.048349794 -0.027859753 0.42400002 4279918906
0.049961511 -0.027991166 0.42600003 4279393330
0.051345158 -0.027991166 0.42600003 4279130923
0.052852582 -0.028056873 0.42700002 4279328300
0.054239478 -0.028056873 0.42700002 4279394347
0.055235557 -0.027859753 0.42400002 4278999589
0.056612715 -0.027859753 0.42400002 4278802210
0.057989862 -0.027859753 0.42400002 4278539808
0.059367016 -0.027859753 0.42400002 4278670624
0.06074417 -0.027859753 0.42400002 4278604831
0.062121328 -0.027859753 0.42400002 4278604318
0.063348711 -0.027794044 0.42300001 4278604318
0.064875633 -0.027859753 0.42400002 4278669341
0.066252783 -0.027859753 0.42400002 4278537755
0.0001371127 -0.024296109 0.38900003 4282865736
0.0014041858 -0.024358567 0.39000002 4282273601
0.002677755 -0.024421025 0.39100003 4282274371
0.0039578201 -0.024483481 0.39200002 4282669642
0.0052443813 -0.02454594 0.39300001 4282209091
0.011685873 -0.024670856 0.39500001 4281682747
0.012968834 -0.024670856 0.39500001 4283130191
0.014287875 -0.024733314 0.39600003 4282406468
0.015574085 -0.024733314 0.39600003 4280432167
0.016860293 -0.024733314 0.39600003 4280365604
0.018146502 -0.024733314 0.39600003 4280036385
0.019383637 -0.024670856 0.39500001 4280167973
0.020666597 -0.024670856 0.39500001 4280102180
0.021949559 -0.024670856 0.39500001 4280234018
0.02323252 -0.024670856 0.39500001 4280826921
0.02451548 -0.024670856 0.39500001 4280632874
0.02579844 -0.024670856 0.39500001 4280045613
0.027081402 -0.024670856 0.39500001 4279327791
0.028364362 -0.024670856 0.39500001 4279459890
0.02972238 -0.024733314 0.39600003 4280246590
0.03100859 -0.024733314 0.39600003 4281757778
0.032294799 -0.024733314 0.39600003 4286030730
0.033665806 -0.024795771 0.39700001 4286622099
0.035043314 -0.024858231 0.39800003 4286489999
0.036518607 -0.024983143 0.40000001 4286489999
0.038101446 -0.02517052 0.40300003 4284056940
0.039605975 -0.025295435 0.40500003 4281492294
0.041224536 -0.025482807 0.40800002 4281100100
0.046751074 -0.026357219 0.42200002 4278934314
0.048349794 -0.026482133 0.42400002 4279066414
0.049844228 -0.026544591 0.42500001 4278737447
0.051345158 -0.02660705 0.42600003 4278606115
0.052728806 -0.02660705 0.42600003 4278540322
0.054112453 -0.02660705 0.42600003 4278474013
0.054975014 -0.026357219 0.42200002 4278210327
0.056345671 -0.026357219 0.42200002 4278604829
0.057716325 -0.026357219 0.42200002 4278473243
0.059086982 -0.026357219 0.42200002 4278669341
0.060457643 -0.026357219 0.42200002 4278669341
0.0026709065 -0.023091417 0.39000002 4282735433
0.0039477237 -0.023150627 0.39100003 4282406470
0.0052310373 -0.023209834 0.39200002 4281616954
0.0065208455 -0.023269042 0.39300001 4281682747
0.0077973106 -0.023269042 0.39300001 4281880126
0.0090968646 -0.023328252 0.39400002 4281551161
0.010376576 -0.023328252 0.39400002 4281484855
0.011685873 -0.02338746 0.39500001 4282142783
0.013001667 -0.02344667 0.39600003 4282603847
0.014287875 -0.02344667 0.39600003 4280761130
0.015613412 -0.023505878 0.39700001 4280497188
0.01690287 -0.023505878 0.39700001 4280694567
0.018192327 -0.023505878 0.39700001 4280102432
0.019432712 -0.02344667 0.39600003 4280957741
0.020718919 -0.02344667 0.39600003 4280562469
0.022005128 -0.02344667 0.39600003 4280234018
0.023291336 -0.02344667 0.39600003 4281155116
0.02451548 -0.02338746 0.39500001 4280696100
0.02579844 -0.02338746 0.39500001 4280040991
0.027081402 -0.02338746 0.39500001 4278931746
0.028364362 -0.02338746 0.39500001 4278669857
0.02972238 -0.02344667 0.39600003 4278999335
0.03100859 -0.02344667 0.39600003 4279591476
0.032294799 -0.02344667 0.39600003 4279787320
0.033665806 -0.023505878 0.39700001 4280115518
0.035043314 -0.023565087 0.39800003 4280443453
0.036427312 -0.023624295 0.39900002 4280114488
0.037912354 -0.023742713 0.40100002 4279590963
0.03941039 -0.023861131 0.40300003 4279263281
0.040921416 -0.023979548 0.40500003 4279000623
0.042028278 -0.023861131 0.40300003 4278869035
0.043444756 -0.023920339 0.40400001 4279000105
0.044756953 -0.023920339 0.40400001 4278736933
0.048349794 -0.025104515 0.42400002 4278606374
0.049844228 -0.025163723 0.42500001 4278738214
0.049657758 -0.024394009 0.41200003 4278342943
0.051119711 -0.024453219 0.41300002 4278342429
0.052588161 -0.024512429 0.41400003 4278735904
0.054453921 -0.024749262 0.41800001 4278998306
0.055945113 -0.024808472 0.41900003 4278866720
0.057306021 -0.024808472 0.41900003 4279260965
0.0039376272 -0.021824267 0.39000002 4285630073
0.006487661 -0.021880228 0.39100003 4282669642
0.0077774702 -0.021936186 0.39200002 4282209859
0.0090737753 -0.021992145 0.39300001 4282011710
0.010376576 -0.022048106 0.39400002 4281748540
0.011685873 -0.022104066 0.39500001 4282274371
0.013001667 -0.022160025 0.39600003 4283327570
0.014323955 -0.022215985 0.39700001 4280892716
0.015613412 -0.022215985 0.39700001 4280694567
0.016945446 -0.022271946 0.39800003 4280826153
0.018238151 -0.022271946 0.39800003 4280957739
0.019481784 -0.022215985 0.39700001 4280891944
0.020718919 -0.022160025 0.39600003 4280562979
0.023291336 -0.022160025 0.39600003 4281813046
0.027149964 -0.022160025 0.39600003 4279126047
0.028436171 -0.022160025 0.39600003 4278930462
0.02972238 -0.022160025 0.39600003 4278472991
0.03100859 -0.022160025 0.39600003 4278933542
0.032294799 -0.022160025 0.39600003 4281696339
0.033581007 -0.022160025 0.39600003 4283274347
0.034955263 -0.022215985 0.39700001 4279326256
0.036336016 -0.022271946 0.39800003 4279459636
0.03781781 -0.022383863 0.40000001 4279132207
0.039214805 -0.022439824 0.40100002 4279395890
0.040719334 -0.022551743 0.40300003 4278804523
0.042028278 -0.022551743 0.40300003 4278607144
0.043337222 -0.022551743 0.40300003 4278671394
0.044756953 -0.022607703 0.40400001 4278539806
0.046183176 -0.022663662 0.40500003 4278408220
0.04773318 -0.022775581 0.40700001 4278408222
0.049416702 -0.022943461 0.41000003 4278868003
0.050995935 -0.02305538 0.41200003 4278933283
0.052461132 -0.02311134 0.41300002 4279129379
0.054193377 -0.023279218 0.41600001 4279326504
0.057169247 -0.023391137 0.41800001 4278200585
0.060027849 -0.023447098 0.41900003 4278331404
0.0039275307 -0.020504406 0.38900003 4287735449
0.0051910039 -0.020504406 0.38900003 4285301878
0.0077576302 -0.020609828 0.39100003 4282473031
0.0090506868 -0.020662537 0.39200002 4282538824
0.010350239 -0.020715248 0.39300001 4281616954
0.011685873 -0.020820668 0.39500001 4282274371
0.0130345 -0.02092609 0.39700001 4282801228
0.014360037 -0.020978801 0.39800003 4281089325
0.019481784 -0.02092609 0.39700001 4281944370
0.027149964 -0.020873381 0.39600003 4278795798
0.028436171 -0.020873381 0.39600003 4278797595
0.02972238 -0.020873381 0.39600003 4278339609
0.03100859 -0.020873381 0.39600003 4278472478
0.032294799 -0.020873381 0.39600003 4278670372
0.033581007 -0.020873381 0.39600003 4279328304
0.034955263 -0.02092609 0.39700001 4279394865
0.036336016 -0.020978801 0.39800003 4278737449
0.037723266 -0.021031512 0.39900002 4279198511
0.039117008 -0.021084221 0.40000001 4278606374
0.040618293 -0.021189643 0.40200001 4278211359
0.041923989 -0.021189643 0.40200001 4278540068
0.043337222 -0.021242354 0.40300003 4278999589
0.044756953 -0.021295063 0.40400001 4278735902
0.046183176 -0.021347774 0.40500003 4278205709
0.04773318 -0.021453194 0.40700001 4278732570
0.049416702 -0.021611327 0.41000003 4279391015
0.050872158 -0.021664038 0.41100001 4279389734
0.052461132 -0.021769458 0.41300002 4278198793
0.005177659 -0.019191043 0.38800001 4281814331
0.0064544762 -0.019240506 0.38900003 4282275904
0.0077377893 -0.019289967 0.39000002 4282275904
0.0090275994 -0.019339429 0.39100003 4281880892
0.010350239 -0.019438351 0.39300001 4282144066
0.01165629 -0.019487813 0.39400002 4282011458
0.0130345 -0.019636197 0.39700001 4282011458
0.014360037 -0.01968566 0.39800003 4280958507
0.01569207 -0.01973512 0.39900002 4282010425
0.017030599 -0.019784581 0.40000001 4282339130
0.018329799 -0.019784581 0.40000001 4282207031
0.019629 -0.019784581 0.40000001 4282602041
0.0209282 -0.019784581 0.40000001 4282536248
0.022227401 -0.019784581 0.40000001 4282273076
0.023291336 -0.019586736 0.39600003 4282273076
0.024577547 -0.019586736 0.39600003 4282800445
0.025863754 -0.019586736 0.39600003 4280171805
0.027149964 -0.019586736 0.39600003 4279452445
0.028436171 -0.019586736 0.39600003 4279124761
0.02972238 -0.019586736 0.39600003 4278797593
0.03100859 -0.019586736 0.39600003 4278995742
0.032294799 -0.019586736 0.39600003 4278800673
0.033581007 -0.019586736 0.39600003 4278867236
0.034955263 -0.019636197 0.39700001 4278604577
0.036336016 -0.01968566 0.39800003 4278671394
0.037723266 -0.01973512 0.39900002 4278210843
0.039117008 -0.019784581 0.40000001 4278474015
0.040517252 -0.019834043 0.40100002 4278671394
0.041923989 -0.019883504 0.40200001 4278999589
0.043337222 -0.019932967 0.40300003 4278999076
0.044756953 -0.019982427 0.40400001 4279261478
0.046183176 -0.020031888 0.40500003 4278204179
0.04929617 -0.020229734 0.40900001 4278267921
0.061388765 -0.020724349 0.41900003 4278199565
0.002650361 -0.01788418 0.38700002 4284908668
0.0039073378 -0.01788418 0.38700002 4282143298
0.005177659 -0.017930392 0.38800001 4280958507
0.0064544762 -0.017976604 0.38900003 4279376901
0.0077377893 -0.018022817 0.39000002 4280494608
0.010323904 -0.018115241 0.39200002 4282011960
0.011626705 -0.018161453 0.39300001 4282209089
0.023291336 -0.018300092 0.39600003 4282863928
0.025929065 -0.018346304 0.39700001 4279975196
0.027218524 -0.018346304 0.39700001 4279189271
0.028436171 -0.018300092 0.39600003 4279190041
0.02972238 -0.018300092 0.39600003 4278994459
0.03100859 -0.018300092 0.39600003 4279126558
0.032294799 -0.018300092 0.39600003 4278998052
0.033581007 -0.018300092 0.39600003 4278800673
0.034955263 -0.018346304 0.39700001 4279129638
0.036336016 -0.018392516 0.39800003 4279261224
0.037723266 -0.018438729 0.39900002 4279129892
0.039117008 -0.018484941 0.40000001 4278800927
0.040517252 -0.018531153 0.40100002 4279129379
0.041923989 -0.018577365 0.40200001 4279260965
0.043337222 -0.018623577 0.40300003 4279260711
0.046297207 -0.018762214 0.40600002 4278201355
0.0583869 -0.01927055 0.41700003 4278199564
0.010297568 -0.01679863 0.39100003 4282143285
0.01159712 -0.016841594 0.39200002 4281551927
0.013100165 -0.017142337 0.39900002 4280630055
0.014432197 -0.017185299 0.40000001 4281879093
0.023291336 -0.017013447 0.39600003 4282995512
0.02463961 -0.017056409 0.39700001 4280696352
0.025929065 -0.017056409 0.39700001 4279844893
0.027218524 -0.017056409 0.39700001 4279124250
0.02850798 -0.017056409 0.39700001 4278928152
0.029797435 -0.017056409 0.39700001 4278797080
0.031086894 -0.017056409 0.39700001 4279323937
0.032376349 -0.017056409 0.39700001 4279194404
0.033665806 -0.017056409 0.39700001 4278997025
0.034955263 -0.017056409 0.39700001 4279457576
0.036336016 -0.017099373 0.39800003 4279457576
0.037723266 -0.017142337 0.39900002 4279261224
0.039117008 -0.017185299 0.40000001 4279129892
0.040517252 -0.017228262 0.40100002 4279457830
0.041923989 -0.017271226 0.40200001 4279457830
0.043444756 -0.017357152 0.40400001 4279457578
0.044867739 -0.017400118 0.40500003 4279456297
0.04773318 -0.017486041 0.40700001 4278992927
0.010297568 -0.015528233 0.39100003 4282076724
0.01159712 -0.015567946 0.39200002 4282011962
0.013100165 -0.015845945 0.39900002 4280827175
0.014432197 -0.015885659 0.40000001 4282207283
0.024701675 -0.015806232 0.39800003 4280302875
0.025994379 -0.015806232 0.39800003 4279648027
0.027287085 -0.015806232 0.39800003 4279190043
0.028579788 -0.015806232 0.39800003 4278862361
0.029797435 -0.015766516 0.39700001 4278928668
0.031086894 -0.015766516 0.39700001 4279060767
0.032376349 -0.015766516 0.39700001 4279260199
0.033665806 -0.015766516 0.39700001 4279260199
0.035043314 -0.015806232 0.39800003 4279654955
0.036336016 -0.015806232 0.39800003 4279326504
0.037723266 -0.015845945 0.39900002 4278931746
0.039214805 -0.015925374 0.40100002 4279194918
0.040618293 -0.015965087 0.40200001 4279523369
0.042028278 -0.016004803 0.40300003 4279654955
0.043444756 -0.016044516 0.40400001 4279523371
0.044867739 -0.016084231 0.40500003 4278203403
0.04773318 -0.016163658 0.40700001 4278201609
0.010297568 -0.014257832 0.39100003 4283786826
0.01159712 -0.014294297 0.39200002 4281813818
0.014432197 -0.014586017 0.40000001 4282799166
0.024763739 -0.014549552 0.39900002 4280238620
0.026059691 -0.014549552 0.39900002 4279517723
0.027355645 -0.014549552 0.39900002 4278862361
0.028579788 -0.014513087 0.39800003 4278862875
0.029872492 -0.014513087 0.39800003 4278535193
0.031165199 -0.014513087 0.39800003 4279390500
0.032457903 -0.014513087 0.39800003 4278997279
0.033750609 -0.014513087 0.39800003 4279523369
0.035043314 -0.014513087 0.39800003 4279392297
0.036427312 -0.014549552 0.39900002 4279260711
0.03781781 -0.014586017 0.40000001 4279194918
0.039214805 -0.014622482 0.40100002 4279392297
0.040719334 -0.014695412 0.40300003 4279589676
0.042132568 -0.014731877 0.40400001 4279523369
0.043552294 -0.014768342 0.40500003 4279588392
0.044867739 -0.014768342 0.40500003 4278202119
0.04773318 -0.014841272 0.40700001 4278726673
0.010323904 -0.01302065 0.39200002 4283983953
0.02358542 -0.013319593 0.40100002 4281418278
0.024825802 -0.013286376 0.40000001 4279779613
0.026125003 -0.013286376 0.40000001 4279190043
0.027424205 -0.013286376 0.40000001 4278796570
0.028651597 -0.013253161 0.39900002 4278665498
0.029947549 -0.013253161 0.39900002 4278929949
0.031243503 -0.013253161 0.39900002 4279193121
0.032539453 -0.013253161 0.39900002 4279260451
0.033835407 -0.013253161 0.39900002 4279523623
0.035131361 -0.013253161 0.39900002 4279392297
0.036518607 -0.013286376 0.40000001 4279260711
0.037912354 -0.013319593 0.40100002 4279063332
0.039312594 -0.013352809 0.40200001 4279589676
0.040719334 -0.013386025 0.40300003 4279392297
0.042132568 -0.01341924 0.40400001 4279523883
0.043552294 -0.013452456 0.40500003 4279387937
0.044978522 -0.013485672 0.40600002 4279188508
0.0090506868 -0.011747002 0.39200002 4282207031
0.022338537 -0.01204667 0.40200001 4283062590
0.023644235 -0.01204667 0.40200001 4280432669
0.024887869 -0.012016703 0.40100002 4279582750
0.026190316 -0.012016703 0.40100002 4279320861
0.027424205 -0.011986735 0.40000001 4279058972
0.028723404 -0.011986735 0.40000001 4278994463
0.030022604 -0.011986735 0.40000001 4279193638
0.031243503 -0.011956769 0.39900002 4279391787
0.032539453 -0.011956769 0.39900002 4278865957
0.03392021 -0.011986735 0.40000001 4279326506
0.035219409 -0.011986735 0.40000001 4279326758
0.036609907 -0.012016703 0.40100002 4279326758
0.038006898 -0.01204667 0.40200001 4279392551
0.03941039 -0.012076637 0.40300003 4279524137
0.040820375 -0.012106603 0.40400001 4279589676
0.042236857 -0.01213657 0.40500003 4279523885
0.044978522 -0.012166537 0.40600002 4279584549
0.0077576302 -0.010446636 0.39100003 4282405183
0.019727146 -0.010740531 0.40200001 4282404408
0.021032842 -0.010740531 0.40200001 4283061822
0.022338537 -0.010740531 0.40200001 4282932031
0.023644235 -0.010740531 0.40200001 4280631329
0.024887869 -0.010713813 0.40100002 4279386141
0.026190316 -0.010713813 0.40100002 4279584803
0.027492767 -0.010713813 0.40100002 4279058972
0.028795214 -0.010713813 0.40100002 4279125535
0.030022604 -0.010687095 0.40000001 4279390504
0.031321805 -0.010687095 0.40000001 4279194408
0.032621007 -0.010687095 0.40000001 4279063336
0.034005009 -0.010713813 0.40100002 4279392299
0.035307456 -0.010713813 0.40100002 4279392551
0.036701199 -0.010740531 0.40200001 4279524137
0.038101446 -0.010767248 0.40300003 4279655209
0.039508179 -0.010793966 0.40400001 4279655209
0.040921416 -0.010820684 0.40500003 4279720748
0.042341143 -0.010847402 0.40600002 4279720750
0.043659832 -0.010847402 0.40600002 4279455014
0.019727146 -0.0094343908 0.40200001 4287342224
0.021032842 -0.0094343908 0.40200001 4280695848
0.022338537 -0.0094343908 0.40200001 4280302366
0.023644235 -0.0094343908 0.40200001 4279975711
0.024949932 -0.0094343908 0.40200001 4279320861
0.026255628 -0.0094343908 0.40200001 4279453217
0.027492767 -0.0094109224 0.40100002 4279585316
0.028795214 -0.0094109224 0.40100002 4278928668
0.030097662 -0.0094109224 0.40100002 4279456293
0.031400111 -0.0094109224 0.40100002 4279456806
0.032702558 -0.0094109224 0.40100002 4279063332
0.034005009 -0.0094109224 0.40100002 4279392299
0.035395507 -0.0094343908 0.40200001 4279523883
0.036792498 -0.0094578601 0.40300003 4279524137
0.03819599 -0.0094813285 0.40400001 4279392037
0.039605975 -0.0095047979 0.40500003 4279917357
0.040921416 -0.0095047979 0.40500003 4280048945
0.042341143 -0.0095282663 0.40600002 4280114225
0.0039275307 -0.0078653991 0.38900003 4282208578
0.024949932 -0.0081282528 0.40200001 4279649826
0.026255628 -0.0081282528 0.40200001 4279255838
0.027561326 -0.0081282528 0.40200001 4279059742
0.028867021 -0.0081282528 0.40200001 4279258148
0.030097662 -0.0081080329 0.40100002 4279325222
0.031400111 -0.0081080329 0.40100002 4279391015
0.032702558 -0.0081080329 0.40100002 4279391785
0.034089811 -0.0081282528 0.40200001 4279720748
0.035395507 -0.0081282528 0.40200001 4279589676
0.036792498 -0.0081484718 0.40300003 4279654955
0.03819599 -0.0081686918 0.40400001 4279983152
0.039605975 -0.0081889117 0.40500003 4280048947
0.027561326 -0.0068221129 0.40200001 4279190306
0.028867021 -0.0068221129 0.40200001 4279388967
0.030172717 -0.0068221129 0.40200001 4279522349
0.031478416 -0.0068221129 0.40200001 4279785521
0.032784112 -0.0068221129 0.40200001 4279720752
0.034089811 -0.0068221129 0.40200001 4279720752
0.035395507 -0.0068221129 0.40200001 4279786545
0.036792498 -0.0068390835 0.40300003 4279588396
0.035126537 -0.021642134 0.40486327 4294967295
0.035126537 -0.021642134 0.40486327 4294901760
0.035119351 -0.02212302 0.40472654 4294901760
0.035112161 -0.022603907 0.4045898 4294901760
0.035104975 -0.023084793 0.40445307 4294901760
0.035097785 -0.023565678 0.40431634 4294901760
0.035090599 -0.024046564 0.40417957 4294901760
0.035083413 -0.024527451 0.40404284 4294901760
0.035076223 -0.025008338 0.40390611 4294901760
0.035069037 -0.025489224 0.40376937 4294901760
0.035061847 -0.025970111 0.40363264 4294901760
0.035054661 -0.026450995 0.40349591 4294901760
0.035047472 -0.026931882 0.40335917 4294901760
0.035040285 -0.027412768 0.40322244 4294901760
0.035033099 -0.027893655 0.40308571 4294901760
0.03502591 -0.028374542 0.40294895 4294901760
0.035018723 -0.028855428 0.40281221 4294901760
0.035011534 -0.029336313 0.40267548 4294901760
0.035004348 -0.029817201 0.40253875 4294901760
0.034997161 -0.030298088 0.40240201 4294901760
0.034989972 -0.030778972 0.40226528 4294901760
0.034982786 -0.031259857 0.40212855 4294901760
0.034975596 -0.031740744 0.40199181 4294901760
0.03496841 -0.03222163 0.40185508 4294901760
0.034961224 -0.032702517 0.40171832 4294901760
0.034954034 -0.033183403 0.40158159 4294901760
0.034946848 -0.03366429 0.40144485 4294901760
0.034939658 -0.034145176 0.40130812 4294901760
0.034932472 -0.034626063 0.40117139 4294901760
0.034925286 -0.03510695 0.40103465 4294901760
0.034918096 -0.035587832 0.40089792 4294901760
0.03491091 -0.036068723 0.40076119 4294901760
0.03490372 -0.036549605 0.40062445 4294901760
0.034896534 -0.037030492 0.40048769 4294901760
0.034889344 -0.037511379 0.40035096 4294901760
0.034882158 -0.037992269 0.40021423 4294901760
0.034874972 -0.038473152 0.40007749 4294901760
0.034867782 -0.038954042 0.39994076 4294901760
0.034860596 -0.039434925 0.39980403 4294901760
0.034853406 -0.039915811 0.39966729 4294901760
0.03484622 -0.040396698 0.39953056 4294901760
0.034839034 -0.040877584 0.39939383 4294901760
0.034831844 -0.041358471 0.39925706 4294901760
0.034824658 -0.041839354 0.39912033 4294901760
0.034817468 -0.042320244 0.3989836 4294901760
0.034810282 -0.042801127 0.39884686 4294901760
0.034803096 -0.043282013 0.39871013 4294901760
0.034795906 -0.0437629 0.3985734 4294901760
0.03478872 -0.044243786 0.39843667 4294901760
0.03478153 -0.044724673 0.39829993 4294901760
0.034774344 -0.04520556 0.3981632 4294901760
0.034767158 -0.045686446 0.39802647 4294901760
0.034759969 -0.046167333 0.3978897 4294901760
0.034752782 -0.046648219 0.39775297 4294901760
0.034745593 -0.047129102 0.39761624 4294901760
0.034738407 -0.047609992 0.3974795 4294901760
0.034731217 -0.048090879 0.39734277 4294901760
0.034724031 -0.048571765 0.39720604 4294901760
0.034716845 -0.049052648 0.39706931 4294901760
0.034709655 -0.049533535 0.39693257 4294901760
0.034702469 -0.050014421 0.39679584 4294901760
0.034695279 -0.050495312 0.39665908 4294901760
0.034688093 -0.050976194 0.39652234 4294901760
0.034680907 -0.051457081 0.39638561 4294901760
0.034673717 -0.051937968 0.39624888 4294901760
0.034666531 -0.05241885 0.39611214 4294901760
0.034659341 -0.052899737 0.39597541 4294901760
0.034652155 -0.053380627 0.39583868 4294901760
0.034644969 -0.053861514 0.39570194 4294901760
0.034637779 -0.0543424 0.39556521 4294901760
0.034630593 -0.054823283 0.39542845 4294901760
0.034623403 -0.05530417 0.39529172 4294901760
0.034616217 -0.055785056 0.39515498 4294901760
0.034609027 -0.056265946 0.39501825 4294901760
0.034601841 -0.056746829 0.39488152 4294901760
0.034594655 -0.057227716 0.39474478 4294901760
0.034587465 -0.057708602 0.39460805 4294901760
0.034580279 -0.058189489 0.39447132 4294901760
0.034573089 -0.058670375 0.39433458 4294901760
0.034565903 -0.059151258 0.39419782 4294901760
0.034558717 -0.059632149 0.39406109 4294901760
0.034551527 -0.060113035 0.39392436 4294901760
0.034544341 -0.060593922 0.39378762 4294901760
0.034537151 -0.061074805 0.39365089 4294901760
0.034529965 -0.061555691 0.39351416 4294901760
0.034522779 -0.062036578 0.39337742 4294901760
0.034515589 -0.062517464 0.39324069 4294901760
0.034508403 -0.062998354 0.39310396 4294901760
0.034501214 -0.063479237 0.39296719 4294901760
0.034494027 -0.06396012 0.39283046 4294901760
0.034486841 -0.06444101 0.39269373 4294901760
0.034479652 -0.064921893 0.392557 4294901760
0.034472466 -0.065402783 0.39242026 4294901760
0.034465276 -0.065883666 0.39228353 4294901760
0.03445809 -0.066364557 0.3921468 4294901760
0.0344509 -0.066845439 0.39201006 4294901760
0.034443714 -0.067326322 0.39187333 4294901760
0.034436528 -0.067807212 0.39173657 4294901760
0.034429338 -0.068288103 0.39159983 4294901760
0.034422152 -0.068768986 0.3914631 4294901760
0.034414962 -0.069249868 0.39132637 4294901760
0.034407776 -0.069730759 0.39118963 4294901760
0.035126537 -0.021642134 0.40486327 4278255360
0.035543822 -0.021723222 0.40512651 4278255360
0.03596111 -0.02180431 0.40538976 4278255360
0.036378395 -0.021885397 0.405653 4278255360
0.036795683 -0.021966485 0.40591624 4278255360
0.037212968 -0.022047574 0.40617949 4278255360
0.037630256 -0.022128662 0.40644273 4278255360
0.038047541 -0.02220975 0.40670598 4278255360
0.038464829 -0.022290837 0.40696922 4278255360
0.038882114 -0.022371925 0.40723246 4278255360
0.039299402 -0.022453014 0.40749571 4278255360
0.039716687 -0.022534102 0.40775895 4278255360
0.040133975 -0.022615191 0.4080222 4278255360
0.04055126 -0.022696279 0.40828544 4278255360
0.040968549 -0.022777366 0.40854868 4278255360
0.041385833 -0.022858454 0.40881193 4278255360
0.041803122 -0.022939542 0.40907517 4278255360
0.042220406 -0.023020631 0.40933838 4278255360
0.042637695 -0.023101719 0.40960163 4278255360
0.043054979 -0.023182806 0.40986487 4278255360
0.043472268 -0.023263894 0.41012812 4278255360
0.043889552 -0.023344982 0.41039136 4278255360
0.044306837 -0.023426071 0.4106546 4278255360
0.044724125 -0.023507159 0.41091785 4278255360
0.045141414 -0.023588246 0.41118109 4278255360
0.045558698 -0.023669334 0.41144434 4278255360
0.045975983 -0.023750423 0.41170758 4278255360
0.046393272 -0.023831511 0.41197082 4278255360
0.04681056 -0.023912599 0.41223407 4278255360
0.047227845 -0.023993686 0.41249731 4278255360
0.047645129 -0.024074774 0.41276056 4278255360
0.048062418 -0.024155863 0.4130238 4278255360
0.048479702 -0.024236951 0.41328704 4278255360
0.048896991 -0.024318039 0.41355029 4278255360
0.049314275 -0.024399128 0.41381353 4278255360
0.049731564 -0.024480214 0.41407678 4278255360
0.050148852 -0.024561303 0.41434002 4278255360
0.050566137 -0.024642391 0.41460326 4278255360
0.050983422 -0.02472348 0.41486651 4278255360
0.051400706 -0.024804566 0.41512975 4278255360
0.051817998 -0.024885654 0.41539299 4278255360
0.052235283 -0.024966743 0.41565624 4278255360
0.052652568 -0.025047831 0.41591948 4278255360
0.053069852 -0.02512892 0.41618273 4278255360
0.053487141 -0.025210008 0.41644597 4278255360
0.053904429 -0.025291095 0.41670921 4278255360
0.054321714 -0.025372183 0.41697246 4278255360
0.054738998 -0.025453271 0.4172357 4278255360
0.055156287 -0.02553436 0.41749895 4278255360
0.055573575 -0.025615448 0.41776219 4278255360
0.05599086 -0.025696535 0.41802543 4278255360
0.056408145 -0.025777623 0.41828865 4278255360
0.056825429 -0.025858711 0.41855189 4278255360
0.057242718 -0.0259398 0.41881514 4278255360
0.057660006 -0.026020888 0.41907838 4278255360
0.058077291 -0.026101977 0.41934162 4278255360
0.058494579 -0.026183063 0.41960487 4278255360
0.058911867 -0.026264152 0.41986811 4278255360
0.059329152 -0.02634524 0.42013136 4278255360
0.059746437 -0.026426328 0.4203946 4278255360
0.060163725 -0.026507417 0.42065784 4278255360
0.060581014 -0.026588503 0.42092109 4278255360
0.060998298 -0.026669592 0.42118433 4278255360
0.061415583 -0.02675068 0.42144758 4278255360
0.061832868 -0.026831768 0.42171082 4278255360
0.062250156 -0.026912857 0.42197406 4278255360
0.062667444 -0.026993945 0.42223731 4278255360
0.063084729 -0.027075032 0.42250055 4278255360
0.063502014 -0.02715612 0.42276379 4278255360
0.063919306 -0.027237209 0.42302704 4278255360
0.06433659 -0.027318297 0.42329028 4278255360
0.064753875 -0.027399383 0.42355353 4278255360
0.065171167 -0.027480472 0.42381677 4278255360
0.065588452 -0.02756156 0.42408001 4278255360
0.066005737 -0.027642649 0.42434326 4278255360
0.066423021 -0.027723737 0.4246065 4278255360
0.066840306 -0.027804825 0.42486975 4278255360
0.067257598 -0.027885912 0.42513299 4278255360
0.067674875 -0.027967 0.42539623 4278255360
0.068092167 -0.028048089 0.42565948 4278255360
0.068509459 -0.028129177 0.42592272 4278255360
0.068926737 -0.028210264 0.42618597 4278255360
0.069344029 -0.028291352 0.42644921 4278255360
0.069761313 -0.02837244 0.42671245 4278255360
0.070178598 -0.028453529 0.42697567 4278255360
0.07059589 -0.028534617 0.42723894 4278255360
0.071013168 -0.028615706 0.42750216 4278255360
0.07143046 -0.028696794 0.4277654 4278255360
0.071847744 -0.028777881 0.42802864 4278255360
0.072265029 -0.028858969 0.42829189 4278255360
0.072682321 -0.028940057 0.42855513 4278255360
0.073099606 -0.029021146 0.42881837 4278255360
0.07351689 -0.029102232 0.42908162 4278255360
0.073934183 -0.029183321 0.42934486 4278255360
0.07435146 -0.029264409 0.42960811 4278255360
0.074768752 -0.029345497 0.42987135 4278255360
0.075186037 -0.029426586 0.43013459 4278255360
0.075603321 -0.029507674 0.43039784 4278255360
0.076020613 -0.029588763 0.43066108 4278255360
0.076437898 -0.029669849 0.43092433 4278255360
0.076855183 -0.029750938 0.43118757 4278255360
0.035126537 -0.021642134 0.40486327 4278190335
0.035153721 -0.021779057 0.40534338 4278190335
0.0351809 -0.021915982 0.4058235 4278190335
0.035208084 -0.022052905 0.40630361 4278190335
0.035235263 -0.022189829 0.40678373 4278190335
0.035262447 -0.022326753 0.40726385 4278190335
0.035289627 -0.022463677 0.40774396 4278190335
0.03531681 -0.0226006 0.40822411 4278190335
0.03534399 -0.022737525 0.40870422 4278190335
0.035371173 -0.022874448 0.40918434 4278190335
0.035398357 -0.023011373 0.40966445 4278190335
0.035425536 -0.023148296 0.41014457 4278190335
0.03545272 -0.023285221 0.41062468 4278190335
0.035479899 -0.023422144 0.4111048 4278190335
0.035507083 -0.023559069 0.41158491 4278190335
0.035534263 -0.023695992 0.41206503 4278190335
0.035561446 -0.023832917 0.41254514 4278190335
0.035588626 -0.02396984 0.41302526 4278190335
0.035615809 -0.024106765 0.41350538 4278190335
0.035642989 -0.024243688 0.41398552 4278190335
0.035670172 -0.024380613 0.41446564 4278190335
0.035697356 -0.024517536 0.41494575 4278190335
0.035724536 -0.024654459 0.41542587 4278190335
0.035751719 -0.024791384 0.41590598 4278190335
0.035778899 -0.024928309 0.4163861 4278190335
0.035806082 -0.025065232 0.41686621 4278190335
0.035833262 -0.025202155 0.41734633 4278190335
0.035860445 -0.02533908 0.41782644 4278190335
0.035887625 -0.025476005 0.41830656 4278190335
0.035914809 -0.025612928 0.41878667 4278190335
0.035941992 -0.025749851 0.41926679 4278190335
0.035969172 -0.025886776 0.41974691 4278190335
0.035996355 -0.026023699 0.42022705 4278190335
0.036023535 -0.026160624 0.42070717 4278190335
0.036050718 -0.026297547 0.42118728 4278190335
0.036077898 -0.026434472 0.4216674 4278190335
0.036105081 -0.026571397 0.42214751 4278190335
0.036132261 -0.02670832 0.42262763 4278190335
0.036159445 -0.026845243 0.42310774 4278190335
0.036186624 -0.026982166 0.42358786 4278190335
0.036213808 -0.027119091 0.42406797 4278190335
0.036240991 -0.027256016 0.42454809 4278190335
0.036268171 -0.027392939 0.4250282 4278190335
0.036295354 -0.027529864 0.42550832 4278190335
0.036322534 -0.027666787 0.42598844 4278190335
0.036349718 -0.027803712 0.42646858 4278190335
0.036376897 -0.027940635 0.4269487 4278190335
0.036404081 -0.028077558 0.42742881 4278190335
0.03643126 -0.028214483 0.42790893 4278190335
0.036458444 -0.028351407 0.42838904 4278190335
0.036485627 -0.028488331 0.42886916 4278190335
0.036512807 -0.028625254 0.42934927 4278190335
0.03653999 -0.028762178 0.42982939 4278190335
0.03656717 -0.028899102 0.4303095 4278190335
0.036594354 -0.029036026 0.43078962 4278190335
0.036621533 -0.029172949 0.43126974 4278190335
0.036648717 -0.029309874 0.43174988 4278190335
0.036675896 -0.029446797 0.43223 4278190335
0.03670308 -0.029583722 0.43271011 4278190335
0.03673026 -0.029720645 0.43319023 4278190335
0.036757443 -0.02985757 0.43367034 4278190335
0.036784627 -0.029994495 0.43415046 4278190335
0.036811806 -0.030131418 0.43463057 4278190335
0.03683899 -0.030268341 0.43511069 4278190335
0.036866169 -0.030405264 0.4355908 4278190335
0.036893353 -0.030542189 0.43607092 4278190335
0.036920533 -0.030679114 0.43655103 4278190335
0.036947716 -0.030816037 0.43703115 4278190335
0.036974896 -0.03095296 0.43751127 4278190335
0.037002079 -0.031089885 0.43799138 4278190335
0.037029259 -0.03122681 0.43847153 4278190335
0.037056442 -0.031363733 0.43895164 4278190335
0.037083626 -0.03150066 0.43943176 4278190335
0.037110806 -0.031637579 0.43991187 4278190335
0.037137989 -0.031774506 0.44039199 4278190335
0.037165169 -0.031911429 0.4408721 4278190335
0.037192352 -0.032048352 0.44135222 4278190335
0.037219532 -0.032185279 0.44183233 4278190335
0.037246715 -0.032322198 0.44231245 4278190335
0.037273895 -0.032459125 0.44279256 4278190335
0.037301078 -0.032596048 0.44327268 4278190335
0.037328262 -0.032732971 0.44375283 4278190335
0.037355442 -0.032869898 0.44423294 4278190335
0.037382625 -0.033006821 0.44471306 4278190335
0.037409805 -0.033143744 0.44519317 4278190335
0.037436988 -0.033280671 0.44567329 4278190335
0.037464168 -0.033417594 0.4461534 4278190335
0.037491351 -0.033554517 0.44663352 4278190335
0.037518531 -0.03369144 0.44711363 4278190335
0.037545715 -0.033828363 0.44759375 4278190335
0.037572898 -0.03396529 0.44807386 4278190335
0.037600078 -0.034102213 0.44855398 4278190335
0.037627261 -0.034239136 0.44903409 4278190335
0.037654441 -0.034376059 0.44951421 4278190335
0.037681624 -0.034512982 0.44999433 4278190335
0.037708804 -0.034649909 0.45047447 4278190335
0.037735987 -0.034786832 0.45095459 4278190335
0.037763167 -0.034923755 0.4514347 4278190335
0.037790351 -0.035060681 0.45191482 4278190335
0.03781753 -0.035197604 0.45239493 4278190335
0.037844714 -0.035334527 0.45287505 4278190335
0.035126537 -0.021642134 0.40486327 4294967295
0.034963448 -0.02082059 0.40198258 4294967295
0.034800354 -0.019999046 0.39910185 4294967295
0.034637265 -0.019177504 0.39622116 4294967295
0.034474175 -0.01835596 0.39334044 4294967295
0.034311082 -0.017534416 0.39045975 4294967295
0.034147993 -0.016712872 0.38757902 4294967295
0.033984903 -0.015891328 0.38469833 4294967295
0.03382181 -0.015069785 0.38181761 4294967295
0.033658721 -0.014248241 0.37893692 4294967295
0.033495631 -0.013426698 0.37605619 4294967295
0.033332538 -0.012605155 0.3731755 4294967295
0.033169448 -0.011783611 0.37029478 4294967295
0.033006359 -0.010962068 0.36741409 4294967295
0.032843266 -0.010140523 0.36453336 4294967295
0.032680176 -0.0093189795 0.36165267 4294967295
0.032517087 -0.0084974365 0.35877198 4294967295
0.032353994 -0.0076758927 0.35589126 4294967295
0.032190904 -0.0068543488 0.35301054 4294967295
0.032027815 -0.0060328059 0.35012984 4294967295
0.031864721 -0.005211262 0.34724915 4294967295
0.031701632 -0.00438972 0.34436843 4294967295
0.031538542 -0.0035681762 0.34148774 4294967295
0.031375449 -0.0027466305 0.33860701 4294967295
0.03121236 -0.0019250885 0.33572632 4294967295
0.03104927 -0.0011035446 0.3328456 4294967295
0.030886179 -0.00028200261 0.32996491 4294967295
0.030723087 0.00053954311 0.32708418 4294967295
0.030559998 0.001361087 0.32420349 4294967295
0.030396907 0.002182629 0.3213228 4294967295
0.030233815 0.0030041747 0.31844208 4294967295
0.030070726 0.0038257167 0.31556135 4294967295
0.029907634 0.0046472605 0.31268066 4294967295
0.029744543 0.0054688044 0.30979994 4294967295
0.029581454 0.0062903482 0.30691925 4294967295
0.029418362 0.0071118902 0.30403852 4294967295
0.029255271 0.007933436 0.30115783 4294967295
0.029092181 0.008754978 0.29827714 4294967295
0.02892909 0.0095765218 0.29539642 4294967295
0.028765999 0.010398064 0.29251572 4294967295
0.028602909 0.01121961 0.289635 4294967295
0.028439818 0.012041152 0.28675431 4294967295
0.028276727 0.012862694 0.28387362 4294967295
0.028113637 0.013684239 0.2809929 4294967295
0.027950546 0.014505781 0.27811217 4294967295
0.027787454 0.015327327 0.27523148 4294967295
0.027624365 0.016148873 0.27235079 4294967295
0.027461274 0.016970415 0.26947007 4294967295
0.027298182 0.017791957 0.26658934 4294967295
0.027135093 0.018613502 0.26370865 4294967295
0.026972001 0.019435044 0.26082796 4294967295
0.02680891 0.020256586 0.25794724 4294967295
0.026645821 0.021078128 0.25506651 4294967295
0.026482731 0.021899674 0.25218582 4294967295
0.026319638 0.02272122 0.24930511 4294967295
0.026156548 0.023542762 0.24642441 4294967295
0.025993457 0.024364308 0.2435437 4294967295
0.025830366 0.02518585 0.24066301 4294967295
0.025667276 0.026007392 0.2377823 4294967295
0.025504187 0.026828934 0.23490159 4294967295
0.025341094 0.027650483 0.23202087 4294967295
0.025178004 0.028472025 0.22914016 4294967295
0.025014913 0.029293567 0.22625947 4294967295
0.024851821 0.030115109 0.22337876 4294967295
0.024688732 0.030936655 0.22049806 4294967295
0.024525642 0.031758197 0.21761735 4294967295
0.024362549 0.032579742 0.21473663 4294967295
0.02419946 0.033401288 0.21185593 4294967295
0.024036368 0.03422283 0.20897523 4294967295
0.023873277 0.035044372 0.20609452 4294967295
0.023710188 0.035865914 0.20321381 4294967295
0.023547098 0.036687456 0.20033312 4294967295
0.023384005 0.037509006 0.1974524 4294967295
0.023220915 0.038330548 0.19457169 4294967295
0.023057824 0.03915209 0.19169098 4294967295
0.022894733 0.039973632 0.18881029 4294967295
0.022731643 0.040795177 0.18592958 4294967295
0.022568554 0.041616715 0.18304887 4294967295
0.022405462 0.042438261 0.18016817 4294967295
0.022242371 0.043259807 0.17728744 4294967295
0.02207928 0.044081353 0.17440675 4294967295
0.021916188 0.044902898 0.17152604 4294967295
0.021753099 0.045724437 0.16864534 4294967295
0.021590009 0.046545982 0.16576463 4294967295
0.021426918 0.047367521 0.16288394 4294967295
0.021263827 0.048189074 0.16000322 4294967295
0.021100735 0.049010612 0.15712251 4294967295
0.020937644 0.049832158 0.1542418 4294967295
0.020774554 0.050653696 0.15136111 4294967295
0.020611465 0.051475242 0.14848039 4294967295
0.020448374 0.052296788 0.14559969 4294967295
0.020285282 0.053118333 0.14271897 4294967295
0.020122191 0.053939879 0.13983828 4294967295
0.0199591 0.054761417 0.13695756 4294967295
0.01979601 0.055582963 0.13407686 4294967295
0.019632921 0.056404501 0.13119614 4294967295
0.019469829 0.057226047 0.12831545 4294967295
0.019306738 0.058047593 0.12543473 4294967295
0.019143647 0.058869138 0.12255403 4294967295
0.018980557 0.059690677 0.11967331 4294967295
0.018817466 0.060512222 0.11679262 4294967295
