# .PCD v0.7 - Point Cloud Data file format
VERSION 0.7
FIELDS x y z rgb
SIZE 4 4 4 4
TYPE F F F U
COUNT 1 1 1 1
WIDTH 1059
HEIGHT 1
VIEWPOINT 0 0 0 1 0 0 0
POINTS 1059
DATA ascii
0.072575562 0.050272021 0.33800003 4278457091
0.07367339 0.050272021 0.33800003 4279251736
0.074771211 0.050272021 0.33800003 4278792468
0.075644568 0.050123286 0.33700001 4278331404
0.076739147 0.050123286 0.33700001 4278196994
0.07783372 0.050123286 0.33700001 4278195716
0.07869409 0.049974553 0.33600003 4278327302
0.079785421 0.049974553 0.33600003 4278725392
0.080876753 0.049974553 0.33600003 4278660369
0.081968077 0.049974553 0.33600003 4278331404
0.082812198 0.049825817 0.33500001 4278462220
0.08390028 0.049825817 0.33500001 4278791953
0.084988363 0.049825817 0.33500001 4278792466
0.085819498 0.049677085 0.33400002 4278858259
0.086644135 0.049528349 0.333 4278857746
0.087725721 0.049528349 0.333 4278988562
0.088540621 0.049379617 0.33200002 4279053842
0.089618966 0.049379617 0.33200002 4278658316
0.090424113 0.049230885 0.33100003 4278197511
0.091222763 0.049082149 0.33000001 4278196226
0.092294604 0.049082149 0.33000001 4278194944
0.093083523 0.048933417 0.32900003 4278196740
0.094152115 0.048933417 0.32900003 4278593293
0.095220707 0.048933417 0.32900003 4278791955
0.096289292 0.048933417 0.32900003 4278595087
0.097357891 0.048933417 0.32900003 4278595855
0.098426484 0.048933417 0.32900003 4278661648
0.099495076 0.048933417 0.32900003 4278728209
0.10056367 0.048933417 0.32900003 4278596623
0.10132334 0.048784681 0.32800001 4278465550
0.10238869 0.048784681 0.32800001 4278531343
0.10345403 0.048784681 0.32800001 4278662929
0.10451937 0.048784681 0.32800001 4278531343
0.10558472 0.048784681 0.32800001 4278794515
0.10665007 0.048784681 0.32800001 4278794515
0.10804382 0.048933417 0.32900003 4278861076
0.10911241 0.048933417 0.32900003 4278992916
0.110181 0.048933417 0.32900003 4278992662
0.11124959 0.048933417 0.32900003 4279058968
0.11265957 0.049082149 0.33000001 4278993175
0.11373141 0.049082149 0.33000001 4278993175
0.040253483 0.053649958 0.35300002 4278788875
0.04140003 0.053649958 0.35300002 4279055127
0.042546574 0.053649958 0.35300002 4279187992
0.043569341 0.053497978 0.35200003 4279122197
0.044585612 0.053345989 0.35100001 4278991381
0.045595393 0.053194009 0.35000002 4279649311
0.046598669 0.053042024 0.34900001 4279123482
0.047595453 0.052890044 0.34800002 4279255068
0.048585739 0.052738059 0.347 4278860310
0.049569536 0.052586075 0.34600002 4279123482
0.050546836 0.052434094 0.34500003 4278794517
0.051667392 0.052434094 0.34500003 4278728724
0.052634943 0.05228211 0.34400001 4278331915
0.053752258 0.05228211 0.34400001 4278461705
0.054710064 0.052130129 0.34300002 4278658062
0.055824131 0.052130129 0.34300002 4278923541
0.056938197 0.052130129 0.34300002 4278595603
0.057883006 0.051978145 0.34200001 4278858775
0.058993824 0.051978145 0.34200001 4279446551
0.060104642 0.051978145 0.34200001 4278458375
0.061036471 0.051826164 0.34100002 4278522632
0.062144034 0.051826164 0.34100002 4278587912
0.063251607 0.051826164 0.34100002 4278522119
0.064170435 0.051674176 0.34 4278718728
0.065274753 0.051674176 0.34 4278718730
0.066379078 0.051674176 0.34 4278587144
0.067284919 0.051522195 0.33900002 4278652935
0.068385988 0.051522195 0.33900002 4278456326
0.069487065 0.051522195 0.33900002 4278193408
0.070379913 0.051370215 0.33800003 4278194948
0.071477741 0.051370215 0.33800003 4278260998
0.072575562 0.051370215 0.33800003 4278523400
0.07367339 0.051370215 0.33800003 4278922769
0.074771211 0.051370215 0.33800003 4278660880
0.075644568 0.05121823 0.33700001 4278194688
0.076739147 0.05121823 0.33700001 4278326021
0.07783372 0.05121823 0.33700001 4278522886
0.078928299 0.05121823 0.33700001 4278719752
0.079785421 0.05106625 0.33600003 4278787853
0.080876753 0.05106625 0.33600003 4278195714
0.081968077 0.05106625 0.33600003 4279251223
0.082812198 0.050914265 0.33500001 4278856465
0.08390028 0.050914265 0.33500001 4278330119
0.084988363 0.050914265 0.33500001 4278726414
0.085819498 0.050762285 0.33400002 4278197248
0.086904332 0.050762285 0.33400002 4278196480
0.087725721 0.050610296 0.333 4278791437
0.088807307 0.050610296 0.333 4278792207
0.089618966 0.050458316 0.33200002 4278923793
0.090424113 0.050306335 0.33100003 4278923793
0.091499202 0.050306335 0.33100003 4278857746
0.092294604 0.050154351 0.33000001 4278726162
0.093366444 0.050154351 0.33000001 4279252252
0.094438292 0.050154351 0.33000001 4278922517
0.095220707 0.05000237 0.32900003 4278394376
0.096289292 0.05000237 0.32900003 4278194944
0.097357891 0.05000237 0.32900003 4278195200
0.098426484 0.05000237 0.32900003 4278195456
0.099495076 0.05000237 0.32900003 4278197508
0.10056367 0.05000237 0.32900003 4278593293
0.10163227 0.05000237 0.32900003 4278397708
0.10270086 0.05000237 0.32900003 4278529808
0.10376944 0.05000237 0.32900003 4278661648
0.10483804 0.05000237 0.32900003 4278530832
0.10590663 0.05000237 0.32900003 4278596623
0.10697523 0.05000237 0.32900003 4278794002
0.10804382 0.05000237 0.32900003 4278728720
0.10911241 0.05000237 0.32900003 4278728720
0.110181 0.05000237 0.32900003 4278795283
0.11124959 0.05000237 0.32900003 4278861076
0.11265957 0.050154351 0.33000001 4278993175
0.11373141 0.050154351 0.33000001 4279387933
0.11480326 0.050154351 0.33000001 4279189271
0.043569341 0.05464166 0.35200003 4279514395
0.044585612 0.054486427 0.35100001 4279186711
0.045595393 0.054331198 0.35000002 4279581982
0.046598669 0.054175962 0.34900001 4279582750
0.047595453 0.054020733 0.34800002 4279582750
0.048585739 0.0538655 0.347 4279451934
0.049569536 0.053710267 0.34600002 4279254555
0.050546836 0.053555038 0.34500003 4279188762
0.051667392 0.053555038 0.34500003 4279057176
0.052634943 0.053399805 0.34400001 4279188762
0.053752258 0.053399805 0.34400001 4279122199
0.054710064 0.053244572 0.34300002 4279516443
0.055824131 0.053244572 0.34300002 4279121431
0.056938197 0.053244572 0.34300002 4278925336
0.057883006 0.053089339 0.34200001 4278793750
0.058993824 0.053089339 0.34200001 4278924566
0.060104642 0.053089339 0.34200001 4279055638
0.061036471 0.05293411 0.34100002 4279120920
0.062144034 0.05293411 0.34100002 4278922771
0.063251607 0.05293411 0.34100002 4279250199
0.064170435 0.052778874 0.34 4279118101
0.065274753 0.052778874 0.34 4278654986
0.066379078 0.052778874 0.34 4278456326
0.067284919 0.052623644 0.33900002 4278718728
0.068385988 0.052623644 0.33900002 4278522119
0.069487065 0.052623644 0.33900002 4278456326
0.070379913 0.052468415 0.33800003 4278522121
0.071477741 0.052468415 0.33800003 4278456326
0.072575562 0.052468415 0.33800003 4278522886
0.07367339 0.052468415 0.33800003 4278856976
0.074771211 0.052468415 0.33800003 4278726673
0.075869031 0.052468415 0.33800003 4278458888
0.076739147 0.052313179 0.33700001 4278654472
0.07783372 0.052313179 0.33700001 4278587912
0.078928299 0.052313179 0.33700001 4278522119
0.079785421 0.05215795 0.33600003 4279116818
0.080876753 0.05215795 0.33600003 4278591757
0.081968077 0.05215795 0.33600003 4278791955
0.082812198 0.052002717 0.33500001 4278857746
0.08390028 0.052002717 0.33500001 4278195456
0.084988363 0.052002717 0.33500001 4278196224
0.085819498 0.051847484 0.33400002 4278922769
0.086904332 0.051847484 0.33400002 4278725390
0.087725721 0.051692251 0.333 4278659084
0.088807307 0.051692251 0.333 4279054609
0.089618966 0.051537022 0.33200002 4278792207
0.090697289 0.051537022 0.33200002 4278726927
0.091499202 0.051381789 0.33100003 4278792720
0.092574291 0.051381789 0.33100003 4278661648
0.09364938 0.051381789 0.33100003 4278596371
0.094438292 0.051226556 0.33000001 4278530578
0.095510133 0.051226556 0.33000001 4278529808
0.096581966 0.051226556 0.33000001 4278792466
0.097653806 0.051226556 0.33000001 4278791953
0.098426484 0.051071327 0.32900003 4278988562
0.099495076 0.051071327 0.32900003 4278988051
0.10056367 0.051071327 0.32900003 4278658316
0.10163227 0.051071327 0.32900003 4278196999
0.10270086 0.051071327 0.32900003 4278195714
0.10376944 0.051071327 0.32900003 4278194432
0.10483804 0.051071327 0.32900003 4279054355
0.10590663 0.051071327 0.32900003 4278661646
0.10697523 0.051071327 0.32900003 4278727439
0.10804382 0.051071327 0.32900003 4278728207
0.10911241 0.051071327 0.32900003 4278794000
0.110181 0.051071327 0.32900003 4278794513
0.11124959 0.051071327 0.32900003 4278860306
0.11265957 0.051226556 0.33000001 4278991892
0.11373141 0.051226556 0.33000001 4279123478
0.11480326 0.051226556 0.33000001 4279189271
0.046598669 0.055309895 0.34900001 4281946685
0.047595453 0.055151418 0.34800002 4279973408
0.048585739 0.054992933 0.347 4279053842
0.049569536 0.054834455 0.34600002 4279581469
0.050546836 0.054675978 0.34500003 4279581469
0.051667392 0.054675978 0.34500003 4279581982
0.052634943 0.054517493 0.34400001 4279516443
0.053752258 0.054517493 0.34400001 4279582236
0.054710064 0.054359011 0.34300002 4279516957
0.055824131 0.054359011 0.34300002 4279320348
0.056938197 0.054359011 0.34300002 4279254555
0.057883006 0.05420053 0.34200001 4278991383
0.058993824 0.05420053 0.34200001 4278991383
0.060104642 0.05420053 0.34200001 4278728211
0.06121546 0.05420053 0.34200001 4278793750
0.062144034 0.054042049 0.34100002 4278596371
0.063251607 0.054042049 0.34100002 4278924566
0.064170435 0.053883567 0.34 4278990359
0.065274753 0.053883567 0.34 4278727189
0.066379078 0.053883567 0.34 4278858261
0.067284919 0.053725086 0.33900002 4279185943
0.068385988 0.053725086 0.33900002 4279316762
0.069487065 0.053725086 0.33900002 4278920722
0.070379913 0.053566609 0.33800003 4278327304
0.071477741 0.053566609 0.33800003 4278391048
0.072575562 0.053566609 0.33800003 4278589193
0.07367339 0.053566609 0.33800003 4278725392
0.074771211 0.053566609 0.33800003 4278462990
0.075869031 0.053566609 0.33800003 4278856465
0.076739147 0.053408124 0.33700001 4278591757
0.07783372 0.053408124 0.33700001 4278786570
0.078928299 0.053408124 0.33700001 4279049742
0.079785421 0.053249646 0.33600003 4279053844
0.080876753 0.053249646 0.33600003 4278659086
0.081968077 0.053249646 0.33600003 4278198024
0.082812198 0.053091161 0.33500001 4278196996
0.08390028 0.053091161 0.33500001 4278526730
0.084988363 0.053091161 0.33500001 4278263304
0.085819498 0.052932683 0.33400002 4279054355
0.086904332 0.052932683 0.33400002 4278857746
0.087989166 0.052932683 0.33400002 4279645209
0.088807307 0.052774198 0.333 4278790672
0.089888893 0.052774198 0.333 4278198021
0.090697289 0.052615721 0.33200002 4278922004
0.091775626 0.052615721 0.33200002 4278195968
0.092853971 0.052615721 0.33200002 4278856717
0.09364938 0.052457239 0.33100003 4278594828
0.094724469 0.052457239 0.33100003 4278726414
0.095510133 0.052298758 0.33000001 4278397449
0.096581966 0.052298758 0.33000001 4278530062
0.097653806 0.052298758 0.33000001 4278661648
0.098725647 0.052298758 0.33000001 4278859027
0.099797487 0.052298758 0.33000001 4278661648
0.10086933 0.052298758 0.33000001 4278859027
0.10194118 0.052298758 0.33000001 4278661648
0.10301302 0.052298758 0.33000001 4278595601
0.10376944 0.052140277 0.32900003 4278987027
0.10483804 0.052140277 0.32900003 4278195458
0.10590663 0.052140277 0.32900003 4278595601
0.10697523 0.052140277 0.32900003 4278727441
0.10804382 0.052140277 0.32900003 4278859025
0.10911241 0.052140277 0.32900003 4278661646
0.110181 0.052140277 0.32900003 4278661646
0.11124959 0.052140277 0.32900003 4278794002
0.11231819 0.052140277 0.32900003 4278925588
0.1158751 0.052298758 0.33000001 4278991379
0.054710064 0.055473458 0.34300002 4279251736
0.055824131 0.055473458 0.34300002 4279450398
0.056938197 0.055473458 0.34300002 4279516703
0.057883006 0.055311725 0.34200001 4279451164
0.058993824 0.055311725 0.34200001 4279386141
0.060104642 0.055311725 0.34200001 4279254555
0.06121546 0.055311725 0.34200001 4279188508
0.062144034 0.055149995 0.34100002 4278991129
0.063251607 0.055149995 0.34100002 4278925336
0.064359173 0.055149995 0.34100002 4278596371
0.065274753 0.054988265 0.34 4278727957
0.066379078 0.054988265 0.34 4278727957
0.067284919 0.054826535 0.33900002 4278596371
0.068385988 0.054826535 0.33900002 4278596371
0.069487065 0.054826535 0.33900002 4278596371
0.070379913 0.054664806 0.33800003 4278727187
0.071477741 0.054664806 0.33800003 4278858261
0.072575562 0.054664806 0.33800003 4278923287
0.07367339 0.054664806 0.33800003 4278726162
0.074771211 0.054664806 0.33800003 4278329867
0.075869031 0.054664806 0.33800003 4278196226
0.076739147 0.054503076 0.33700001 4278195201
0.07783372 0.054503076 0.33700001 4278195202
0.078928299 0.054503076 0.33700001 4278393865
0.079785421 0.054341346 0.33600003 4278987281
0.080876753 0.054341346 0.33600003 4279119637
0.081968077 0.054341346 0.33600003 4278857748
0.082812198 0.054179613 0.33500001 4278857748
0.08390028 0.054179613 0.33500001 4278857748
0.084988363 0.054179613 0.33500001 4278726162
0.085819498 0.054017887 0.33400002 4278198020
0.086904332 0.054017887 0.33400002 4278196225
0.087989166 0.054017887 0.33400002 4278198535
0.089074001 0.054017887 0.33400002 4279054357
0.089888893 0.053856153 0.333 4278658316
0.090970472 0.053856153 0.333 4278196484
0.091775626 0.053694423 0.33200002 4278723341
0.092853971 0.053694423 0.33200002 4278459656
0.093932308 0.053694423 0.33200002 4279381525
0.094724469 0.053532697 0.33100003 4278263558
0.095799558 0.053532697 0.33100003 4278922771
0.096874639 0.053532697 0.33100003 4278198025
0.097949728 0.053532697 0.33100003 4278791955
0.099024817 0.053532697 0.33100003 4278397197
0.099797487 0.053370964 0.33000001 4278397708
0.10086933 0.053370964 0.33000001 4278661394
0.10194118 0.053370964 0.33000001 4278596625
0.10301302 0.053370964 0.33000001 4278728211
0.10408485 0.053370964 0.33000001 4278658832
0.10515669 0.053370964 0.33000001 4278591759
0.10590663 0.053209234 0.32900003 4278792466
0.10697523 0.053209234 0.32900003 4278859027
0.10804382 0.053209234 0.32900003 4278727439
0.10911241 0.053209234 0.32900003 4278924818
0.110181 0.053209234 0.32900003 4278727439
0.11158773 0.053370964 0.33000001 4278727439
0.11300097 0.053532697 0.33100003 4278728209
0.11407606 0.053532697 0.33100003 4278530830
0.11515115 0.053532697 0.33100003 4278859795
0.11622624 0.053532697 0.33100003 4278596623
0.055824131 0.056587897 0.34300002 4282934093
0.056938197 0.056587897 0.34300002 4280435245
0.057883006 0.056422915 0.34200001 4279185689
0.058993824 0.056422915 0.34200001 4278923541
0.060104642 0.056422915 0.34200001 4279384090
0.06121546 0.056422915 0.34200001 4279516189
0.062144034 0.056257937 0.34100002 4279516703
0.063251607 0.056257937 0.34100002 4279450910
0.064359173 0.056257937 0.34100002 4279385117
0.065274753 0.056092955 0.34 4279188508
0.066379078 0.056092955 0.34 4279056922
0.067284919 0.055927977 0.33900002 4278991129
0.068385988 0.055927977 0.33900002 4278727957
0.069487065 0.055927977 0.33900002 4278596371
0.070379913 0.055763002 0.33800003 4278727957
0.071477741 0.055763002 0.33800003 4278596371
0.072575562 0.055763002 0.33800003 4278859543
0.07367339 0.055763002 0.33800003 4278596371
0.074771211 0.055763002 0.33800003 4278793750
0.075644568 0.055598021 0.33700001 4278661394
0.076739147 0.055598021 0.33700001 4278792466
0.07783372 0.055598021 0.33700001 4278922771
0.07869409 0.055433042 0.33600003 4279251736
0.079785421 0.055433042 0.33600003 4279118613
0.080876753 0.055433042 0.33600003 4278196484
0.081724122 0.05526806 0.33500001 4278194944
0.082812198 0.05526806 0.33500001 4278194944
0.08390028 0.05526806 0.33500001 4278329351
0.084988363 0.05526806 0.33500001 4279119637
0.085819498 0.055103082 0.33400002 4279185943
0.086904332 0.055103082 0.33400002 4278923541
0.087989166 0.055103082 0.33400002 4278857748
0.089074001 0.055103082 0.33400002 4278857746
0.089888893 0.0549381 0.333 4278923539
0.090970472 0.0549381 0.333 4279054355
0.092052057 0.0549381 0.333 4278921488
0.092853971 0.054773122 0.33200002 4278920974
0.093932308 0.054773122 0.33200002 4279118613
0.095010646 0.054773122 0.33200002 4278592269
0.096088983 0.054773122 0.33200002 4278922769
0.096874639 0.054608148 0.33100003 4278198278
0.097949728 0.054608148 0.33100003 4278723857
0.099024817 0.054608148 0.33100003 4279118099
0.10009991 0.054608148 0.33100003 4279513625
0.101175 0.054608148 0.33100003 4278395914
0.10225009 0.054608148 0.33100003 4278859027
0.10301302 0.054443166 0.33000001 4278859027
0.10408485 0.054443166 0.33000001 4278329097
0.10515669 0.054443166 0.33000001 4279118101
0.10622853 0.054443166 0.33000001 4278661134
0.10730037 0.054443166 0.33000001 4278727441
0.10804382 0.054278187 0.32900003 4278661646
0.10944406 0.054443166 0.33000001 4278924818
0.11051589 0.054443166 0.33000001 4278924818
0.11158773 0.054443166 0.33000001 4278727439
0.11300097 0.054608148 0.33100003 4278794002
0.11407606 0.054608148 0.33100003 4278728209
0.11515115 0.054608148 0.33100003 4278794002
0.11730133 0.054608148 0.33100003 4279315984
0.055824131 0.05770234 0.34300002 4283853401
0.056938197 0.05770234 0.34300002 4283788121
0.057883006 0.05753411 0.34200001 4283854684
0.058993824 0.05753411 0.34200001 4284249957
0.060104642 0.05753411 0.34200001 4284842094
0.06121546 0.05753411 0.34200001 4283855195
0.062144034 0.057365883 0.34100002 4280960817
0.063251607 0.057365883 0.34100002 4279250201
0.064359173 0.057365883 0.34100002 4279381785
0.065274753 0.057197653 0.34 4279581471
0.066379078 0.057197653 0.34 4279581982
0.067483395 0.057197653 0.34 4279516443
0.068385988 0.057029426 0.33900002 4279648029
0.069487065 0.057029426 0.33900002 4279385371
0.070588134 0.057029426 0.33900002 4279122199
0.071477741 0.056861199 0.33800003 4278924566
0.072575562 0.056861199 0.33800003 4278727187
0.07367339 0.056861199 0.33800003 4278858773
0.074771211 0.056861199 0.33800003 4278858773
0.075644568 0.056692969 0.33700001 4278858773
0.076739147 0.056692969 0.33700001 4278858773
0.07783372 0.056692969 0.33700001 4278859027
0.07869409 0.056524742 0.33600003 4278661648
0.079785421 0.056524742 0.33600003 4278727441
0.080876753 0.056524742 0.33600003 4278858773
0.081724122 0.056356512 0.33500001 4278989847
0.082812198 0.056356512 0.33500001 4278923541
0.08390028 0.056356512 0.33500001 4278988051
0.084988363 0.056356512 0.33500001 4278921488
0.085819498 0.056188285 0.33400002 4278195970
0.086904332 0.056188285 0.33400002 4278195200
0.087989166 0.056188285 0.33400002 4278195969
0.089074001 0.056188285 0.33400002 4278195969
0.089888893 0.056020055 0.333 4278593293
0.090970472 0.056020055 0.333 4279251221
0.092052057 0.056020055 0.333 4278922769
0.093133643 0.056020055 0.333 4278857746
0.093932308 0.055851828 0.33200002 4279055125
0.095010646 0.055851828 0.33200002 4279120918
0.096088983 0.055851828 0.33200002 4278593804
0.097167313 0.055851828 0.33200002 4278988049
0.098245651 0.055851828 0.33200002 4278856465
0.099024817 0.055683602 0.33100003 4278526476
0.10009991 0.055683602 0.33100003 4278854927
0.101175 0.055683602 0.33100003 4278657548
0.10225009 0.055683602 0.33100003 4278792718
0.10332518 0.055683602 0.33100003 4278792718
0.10440026 0.055683602 0.33100003 4278262277
0.10515669 0.055515371 0.33000001 4279315732
0.10622853 0.055515371 0.33000001 4278727441
0.10730037 0.055515371 0.33000001 4278727441
0.10837222 0.055515371 0.33000001 4278727439
0.10944406 0.055515371 0.33000001 4278661646
0.11051589 0.055515371 0.33000001 4278924818
0.11158773 0.055515371 0.33000001 4278727439
0.11300097 0.055683602 0.33100003 4278859025
0.11407606 0.055683602 0.33100003 4278924818
0.11515115 0.055683602 0.33100003 4278924818
0.11622624 0.055683602 0.33100003 4278792718
0.11730133 0.055683602 0.33100003 4279448854
0.055824131 0.058816779 0.34300002 4283721815
0.056938197 0.058816779 0.34300002 4283984989
0.057883006 0.058645301 0.34200001 4284313184
0.058993824 0.058645301 0.34200001 4284248161
0.060104642 0.058645301 0.34200001 4284511846
0.06121546 0.058645301 0.34200001 4284512616
0.062144034 0.058473825 0.34100002 4284775534
0.063251607 0.058473825 0.34100002 4284907120
0.064359173 0.058473825 0.34100002 4285697149
0.065466739 0.058473825 0.34100002 4285566331
0.066379078 0.058302343 0.34 4284053092
0.067483395 0.058302343 0.34 4280895024
0.068385988 0.058130868 0.33900002 4279381525
0.069487065 0.058130868 0.33900002 4279186711
0.070588134 0.058130868 0.33900002 4279515930
0.071477741 0.057959393 0.33800003 4279515930
0.072575562 0.057959393 0.33800003 4279450650
0.07367339 0.057959393 0.33800003 4279187992
0.074771211 0.057959393 0.33800003 4279056406
0.075644568 0.057787914 0.33700001 4279122199
0.076739147 0.057787914 0.33700001 4278924820
0.07783372 0.057787914 0.33700001 4278859027
0.07869409 0.057616439 0.33600003 4278727441
0.079785421 0.057616439 0.33600003 4278859027
0.080636039 0.057444956 0.33500001 4278924566
0.081724122 0.057444956 0.33500001 4278793750
0.082812198 0.057444956 0.33500001 4278793750
0.08390028 0.057444956 0.33500001 4279055638
0.084734663 0.057273481 0.33400002 4278792466
0.085819498 0.057273481 0.33400002 4278792466
0.086904332 0.057273481 0.33400002 4278989845
0.087989166 0.057273481 0.33400002 4279055127
0.089074001 0.057273481 0.33400002 4279317529
0.089888893 0.057102002 0.333 4278921488
0.090970472 0.057102002 0.333 4278263044
0.092052057 0.057102002 0.333 4278193152
0.093133643 0.057102002 0.333 4278196997
0.093932308 0.056930527 0.33200002 4278196224
0.095010646 0.056930527 0.33200002 4278593291
0.096088983 0.056930527 0.33200002 4278791183
0.097167313 0.056930527 0.33200002 4278857746
0.098245651 0.056930527 0.33200002 4278858259
0.099323988 0.056930527 0.33200002 4278792466
0.10040233 0.056930527 0.33200002 4278660367
0.101175 0.056759052 0.33100003 4278923539
0.10225009 0.056759052 0.33100003 4278990099
0.10332518 0.056759052 0.33100003 4279253271
0.10440026 0.056759052 0.33100003 4278590472
0.10547535 0.056759052 0.33100003 4279184658
0.10655044 0.056759052 0.33100003 4278661646
0.10730037 0.056587569 0.33000001 4278595853
0.10837222 0.056587569 0.33000001 4278859027
0.10944406 0.056587569 0.33000001 4278859025
0.11051589 0.056587569 0.33000001 4278859025
0.11192589 0.056759052 0.33100003 4278924818
0.11300097 0.056759052 0.33100003 4278924818
0.11407606 0.056759052 0.33100003 4279055890
0.11515115 0.056759052 0.33100003 4279055890
0.11622624 0.056759052 0.33100003 4279121685
0.11730133 0.056759052 0.33100003 4279581723
0.056938197 0.059931226 0.34300002 4284115803
0.057883006 0.059756495 0.34200001 4284182366
0.058993824 0.059756495 0.34200001 4284248161
0.060104642 0.059756495 0.34200001 4284642919
0.06121546 0.059756495 0.34200001 4284643178
0.062326275 0.059756495 0.34200001 4284906350
0.063251607 0.059581771 0.34100002 4285037936
0.064359173 0.059581771 0.34100002 4285037936
0.065466739 0.059581771 0.34100002 4285103729
0.066574313 0.059581771 0.34100002 4285037936
0.067483395 0.05940704 0.34 4285037936
0.068587713 0.05940704 0.34 4285038706
0.069487065 0.059232317 0.33900002 4284973426
0.070588134 0.059232317 0.33900002 4284842092
0.071477741 0.059057593 0.33800003 4282736203
0.072575562 0.059057593 0.33800003 4279907356
0.07367339 0.059057593 0.33800003 4278987281
0.074771211 0.059057593 0.33800003 4279317016
0.075644568 0.058882862 0.33700001 4279186711
0.076739147 0.058882862 0.33700001 4279187224
0.07783372 0.058882862 0.33700001 4279319324
0.07869409 0.058708139 0.33600003 4279319324
0.079785421 0.058708139 0.33600003 4279122199
0.080636039 0.058533408 0.33500001 4279122199
0.081724122 0.058533408 0.33500001 4278925590
0.082812198 0.058533408 0.33500001 4278859797
0.08390028 0.058533408 0.33500001 4278924820
0.084734663 0.058358684 0.33400002 4278990613
0.085819498 0.058358684 0.33400002 4278990613
0.086904332 0.058358684 0.33400002 4278990613
0.087989166 0.058358684 0.33400002 4278924820
0.089074001 0.058358684 0.33400002 4278858773
0.089888893 0.058183957 0.333 4278661394
0.090970472 0.058183957 0.333 4278858773
0.092052057 0.058183957 0.333 4279055125
0.093133643 0.058183957 0.333 4278791953
0.093932308 0.05800923 0.33200002 4279251221
0.095010646 0.05800923 0.33200002 4279118865
0.096088983 0.05800923 0.33200002 4278196740
0.097167313 0.05800923 0.33200002 4278195457
0.098245651 0.05800923 0.33200002 4278193920
0.099323988 0.05800923 0.33200002 4278196740
0.10040233 0.05800923 0.33200002 4278330121
0.10148066 0.05800923 0.33200002 4279251736
0.102559 0.05800923 0.33200002 4278791437
0.10332518 0.057834506 0.33100003 4278988816
0.10440026 0.057834506 0.33100003 4278196484
0.10547535 0.057834506 0.33100003 4279053842
0.10655044 0.057834506 0.33100003 4278727441
0.10762553 0.057834506 0.33100003 4278859025
0.10870063 0.057834506 0.33100003 4278924818
0.10977571 0.057834506 0.33100003 4278727439
0.1108508 0.057834506 0.33100003 4278924818
0.11192589 0.057834506 0.33100003 4278859025
0.11300097 0.057834506 0.33100003 4278727439
0.11407606 0.057834506 0.33100003 4278990611
0.11515115 0.057834506 0.33100003 4279055890
0.11622624 0.057834506 0.33100003 4279121683
0.058993824 0.06086769 0.34200001 4284313954
0.060104642 0.06086769 0.34200001 4284511079
0.06121546 0.06086769 0.34200001 4284708971
0.062326275 0.06086769 0.34200001 4285037936
0.063437089 0.06086769 0.34200001 4285103729
0.064547911 0.06086769 0.34200001 4285169522
0.065466739 0.060689718 0.34100002 4285169522
0.066574313 0.060689718 0.34100002 4285103729
0.067483395 0.060511738 0.34 4285169522
0.068587713 0.060511738 0.34 4285037936
0.069487065 0.060333766 0.33900002 4284840557
0.070588134 0.060333766 0.33900002 4284380006
0.071477741 0.06015579 0.33800003 4284248420
0.072575562 0.06015579 0.33800003 4283919709
0.07367339 0.06015579 0.33800003 4283788123
0.074549995 0.059977815 0.33700001 4283788121
0.075644568 0.059977815 0.33700001 4280959020
0.076739147 0.059977815 0.33700001 4280367655
0.077602766 0.059799839 0.33600003 4279579166
0.07869409 0.059799839 0.33600003 4279052822
0.079785421 0.059799839 0.33600003 4279184658
0.080636039 0.059621859 0.33500001 4279579416
0.081724122 0.059621859 0.33500001 4279515676
0.082812198 0.059621859 0.33500001 4279516443
0.08390028 0.059621859 0.33500001 4279385371
0.084734663 0.059443887 0.33400002 4279122199
0.085819498 0.059443887 0.33400002 4279385371
0.086904332 0.059443887 0.33400002 4279187992
0.087989166 0.059443887 0.33400002 4279056406
0.089074001 0.059443887 0.33400002 4279056406
0.089888893 0.059265908 0.333 4279187992
0.090970472 0.059265908 0.333 4278924820
0.092052057 0.059265908 0.333 4278990613
0.093133643 0.059265908 0.333 4279056406
0.093932308 0.059087936 0.33200002 4278859027
0.095010646 0.059087936 0.33200002 4279187478
0.096088983 0.059087936 0.33200002 4279187478
0.097167313 0.059087936 0.33200002 4279186965
0.098245651 0.059087936 0.33200002 4279185943
0.099323988 0.059087936 0.33200002 4279185943
0.10040233 0.059087936 0.33200002 4279381785
0.10148066 0.059087936 0.33200002 4278526476
0.102559 0.059087936 0.33200002 4278193920
0.10363734 0.059087936 0.33200002 4278195457
0.10471567 0.059087936 0.33200002 4279382037
0.10547535 0.05890996 0.33100003 4278990099
0.10655044 0.05890996 0.33100003 4278990611
0.10762553 0.05890996 0.33100003 4278727439
0.10870063 0.05890996 0.33100003 4278727439
0.10977571 0.05890996 0.33100003 4278727439
0.1108508 0.05890996 0.33100003 4278859025
0.11192589 0.05890996 0.33100003 4278924818
0.11300097 0.05890996 0.33100003 4278924818
0.11407606 0.05890996 0.33100003 4278990611
0.11515115 0.05890996 0.33100003 4279055892
0.11622624 0.05890996 0.33100003 4279319064
0.079547957 0.060710307 0.33500001 4284052065
0.080636039 0.060710307 0.33500001 4284709995
0.081724122 0.060710307 0.33500001 4284184164
0.082812198 0.060710307 0.33500001 4283130961
0.08390028 0.060710307 0.33500001 4281026612
0.084734663 0.060529083 0.33400002 4279513373
0.085819498 0.060529083 0.33400002 4279382807
0.086904332 0.060529083 0.33400002 4279383320
0.087989166 0.060529083 0.33400002 4279515676
0.089074001 0.060529083 0.33400002 4279647262
0.089888893 0.060347855 0.333 4279647516
0.090970472 0.060347855 0.333 4279384344
0.092052057 0.060347855 0.333 4279187992
0.093133643 0.060347855 0.333 4279319578
0.093932308 0.060166635 0.33200002 4279056406
0.095010646 0.060166635 0.33200002 4279056406
0.096088983 0.060166635 0.33200002 4279122199
0.097167313 0.060166635 0.33200002 4279187992
0.098245651 0.060166635 0.33200002 4279450650
0.099323988 0.060166635 0.33200002 4279319064
0.10040233 0.060166635 0.33200002 4279187478
0.10148066 0.060166635 0.33200002 4279121431
0.102559 0.060166635 0.33200002 4279384090
0.10363734 0.060166635 0.33200002 4279317527
0.10471567 0.060166635 0.33200002 4279120918
0.10579401 0.060166635 0.33200002 4278990099
0.10655044 0.05998541 0.33100003 4278924820
0.10762553 0.05998541 0.33100003 4278990611
0.10870063 0.05998541 0.33100003 4278859023
0.10977571 0.05998541 0.33100003 4278990095
0.1108508 0.05998541 0.33100003 4278859025
0.11192589 0.05998541 0.33100003 4278990611
0.11300097 0.05998541 0.33100003 4278924818
0.11407606 0.05998541 0.33100003 4278990611
0.11515115 0.05998541 0.33100003 4278792466
0.11622624 0.05998541 0.33100003 4278395912
0.089888893 0.06142981 0.333 4282473292
0.090970472 0.06142981 0.333 4281355063
0.092052057 0.06142981 0.333 4279382037
0.093133643 0.06142981 0.333 4278987279
0.093932308 0.061245337 0.33200002 4279184658
0.095010646 0.061245337 0.33200002 4279514647
0.096088983 0.061245337 0.33200002 4279514647
0.097167313 0.061245337 0.33200002 4279515160
0.098245651 0.061245337 0.33200002 4279515160
0.099323988 0.061245337 0.33200002 4279121172
0.10040233 0.061245337 0.33200002 4279319064
0.10148066 0.061245337 0.33200002 4279319064
0.102559 0.061245337 0.33200002 4279450650
0.10363734 0.061245337 0.33200002 4279319064
0.10471567 0.061245337 0.33200002 4279187478
0.10579401 0.061245337 0.33200002 4279253271
0.10655044 0.061060868 0.33100003 4279122199
0.10762553 0.061060868 0.33100003 4279187990
0.10870063 0.061060868 0.33100003 4279319576
0.10977571 0.061060868 0.33100003 4279056402
0.1108508 0.061060868 0.33100003 4279187990
0.11192589 0.061060868 0.33100003 4279385371
0.11300097 0.061060868 0.33100003 4279122199
0.11407606 0.061060868 0.33100003 4279056406
0.11515115 0.061060868 0.33100003 4279053842
0.096088983 0.06232404 0.33200002 4285301360
0.097167313 0.06232404 0.33200002 4283591512
0.098245651 0.06232404 0.33200002 4281551927
0.099323988 0.06232404 0.33200002 4280630309
0.10040233 0.06232404 0.33200002 4279315732
0.10148066 0.06232404 0.33200002 4279184146
0.102559 0.06232404 0.33200002 4279053842
0.10363734 0.06232404 0.33200002 4279712539
0.10471567 0.06232404 0.33200002 4279712539
0.10579401 0.06232404 0.33200002 4279449367
0.10655044 0.062136319 0.33100003 4279384344
0.10762553 0.062136319 0.33100003 4279121685
0.10870063 0.062136319 0.33100003 4279319064
0.10977571 0.062136319 0.33100003 4279319064
0.1108508 0.062136319 0.33100003 4279253271
0.11192589 0.062136319 0.33100003 4279253271
0.11300097 0.062136319 0.33100003 4279581723
0.11407606 0.062136319 0.33100003 4279054096
0.10040233 0.063402742 0.33200002 4285301362
0.10148066 0.063402742 0.33200002 4285762683
0.102559 0.063402742 0.33200002 4285630325
0.10363734 0.063402742 0.33200002 4285432946
0.10471567 0.063402742 0.33200002 4284709223
0.10579401 0.063402742 0.33200002 4283262029
0.10687234 0.063402742 0.33200002 4281025835
0.10762553 0.063211769 0.33100003 4280038940
0.10870063 0.063211769 0.33100003 4279315217
0.10977571 0.063211769 0.33100003 4279052560
0.1108508 0.063211769 0.33100003 4279315732
0.11192589 0.063211769 0.33100003 4279710490
0.11300097 0.063211769 0.33100003 4282603847
0.11407606 0.063211769 0.33100003 4285103468
0.10471567 0.064481445 0.33200002 4285564021
0.10579401 0.064481445 0.33200002 4285432435
0.10687234 0.064481445 0.33200002 4285497458
0.10762553 0.064287223 0.33100003 4285497456
0.10870063 0.064287223 0.33100003 4285695603
0.10977571 0.064287223 0.33100003 4285695603
0.1108508 0.064287223 0.33100003 4285958005
0.11192589 0.064287223 0.33100003 4285563247
0.11300097 0.064287223 0.33100003 4285629042
0.076472238 0.05209782 0.33782339 4294967295
0.076472238 0.05209782 0.33782339 4294901760
0.076534525 0.051603936 0.33777648 4294901760
0.076596819 0.051110055 0.3377296 4294901760
0.076659113 0.050616171 0.33768269 4294901760
0.0767214 0.050122287 0.33763579 4294901760
0.076783687 0.049628403 0.33758891 4294901760
0.076845981 0.049134523 0.337542 4294901760
0.076908275 0.048640639 0.33749509 4294901760
0.076970562 0.048146755 0.33744821 4294901760
0.077032849 0.047652874 0.3374013 4294901760
0.077095143 0.04715899 0.33735442 4294901760
0.077157438 0.046665106 0.33730751 4294901760
0.077219725 0.046171226 0.3372606 4294901760
0.077282012 0.045677342 0.33721372 4294901760
0.077344306 0.045183457 0.33716682 4294901760
0.0774066 0.044689573 0.33711991 4294901760
0.077468887 0.044195693 0.33707303 4294901760
0.077531174 0.043701809 0.33702612 4294901760
0.077593468 0.043207925 0.33697921 4294901760
0.077655762 0.042714044 0.33693233 4294901760
0.077718049 0.04222016 0.33688542 4294901760
0.077780336 0.041726276 0.33683851 4294901760
0.07784263 0.041232392 0.33679163 4294901760
0.077904925 0.040738508 0.33674473 4294901760
0.077967212 0.040244628 0.33669782 4294901760
0.078029498 0.039750744 0.33665094 4294901760
0.078091793 0.039256863 0.33660403 4294901760
0.078154087 0.038762979 0.33655712 4294901760
0.078216374 0.038269095 0.33651024 4294901760
0.078278661 0.037775211 0.33646333 4294901760
0.078340955 0.037281327 0.33641642 4294901760
0.078403249 0.036787447 0.33636954 4294901760
0.078465536 0.036293566 0.33632264 4294901760
0.078527823 0.035799682 0.33627576 4294901760
0.078590117 0.035305798 0.33622885 4294901760
0.078652412 0.034811914 0.33618194 4294901760
0.078714699 0.03431803 0.33613506 4294901760
0.078776985 0.033824146 0.33608815 4294901760
0.07883928 0.033330265 0.33604124 4294901760
0.078901574 0.032836385 0.33599436 4294901760
0.078963861 0.032342501 0.33594745 4294901760
0.079026148 0.031848617 0.33590055 4294901760
0.079088442 0.031354733 0.33585367 4294901760
0.079150736 0.030860851 0.33580676 4294901760
0.079213023 0.030366968 0.33575985 4294901760
0.07927531 0.029873084 0.33571297 4294901760
0.079337604 0.0293792 0.33566606 4294901760
0.079399899 0.028885318 0.33561915 4294901760
0.079462186 0.028391436 0.33557227 4294901760
0.079524472 0.027897552 0.33552536 4294901760
0.079586767 0.027403669 0.33547848 4294901760
0.079649061 0.026909787 0.33543158 4294901760
0.079711348 0.026415905 0.33538467 4294901760
0.079773635 0.025922021 0.33533779 4294901760
0.079835929 0.025428137 0.33529088 4294901760
0.079898223 0.024934255 0.33524397 4294901760
0.07996051 0.024440371 0.33519709 4294901760
0.080022797 0.023946488 0.33515018 4294901760
0.080085091 0.023452606 0.33510327 4294901760
0.080147378 0.022958724 0.33505639 4294901760
0.080209672 0.022464838 0.33500949 4294901760
0.080271959 0.021970956 0.33496258 4294901760
0.080334254 0.021477073 0.3349157 4294901760
0.080396548 0.020983191 0.33486879 4294901760
0.080458835 0.020489309 0.33482188 4294901760
0.080521122 0.019995425 0.334775 4294901760
0.080583416 0.019501541 0.33472809 4294901760
0.08064571 0.019007657 0.33468118 4294901760
0.080707997 0.018513776 0.3346343 4294901760
0.080770284 0.018019892 0.3345874 4294901760
0.080832578 0.017526008 0.33454049 4294901760
0.080894873 0.017032128 0.33449361 4294901760
0.080957159 0.016538244 0.3344467 4294901760
0.081019446 0.01604436 0.33439982 4294901760
0.081081741 0.015550476 0.33435291 4294901760
0.081144035 0.015056595 0.334306 4294901760
0.081206322 0.014562711 0.33425912 4294901760
0.081268609 0.014068831 0.33421221 4294901760
0.081330903 0.013574947 0.3341653 4294901760
0.081393197 0.013081063 0.33411843 4294901760
0.081455484 0.012587178 0.33407152 4294901760
0.081517771 0.012093294 0.33402461 4294901760
0.081580065 0.011599414 0.33397773 4294901760
0.081642359 0.01110553 0.33393082 4294901760
0.081704646 0.01061165 0.33388391 4294901760
0.081766933 0.010117762 0.33383703 4294901760
0.081829228 0.0096238814 0.33379012 4294901760
0.081891522 0.0091299973 0.33374321 4294901760
0.081953809 0.008636117 0.33369634 4294901760
0.082016096 0.0081422329 0.33364943 4294901760
0.08207839 0.0076483488 0.33360255 4294901760
0.082140684 0.0071544647 0.33355564 4294901760
0.082202971 0.0066605806 0.33350873 4294901760
0.082265258 0.0061667003 0.33346185 4294901760
0.082327552 0.0056728162 0.33341494 4294901760
0.082389846 0.0051789358 0.33336803 4294901760
0.082452133 0.0046850517 0.33332115 4294901760
0.08251442 0.0041911677 0.33327425 4294901760
0.082576714 0.0036972836 0.33322734 4294901760
0.082639009 0.0032034032 0.33318046 4294901760
0.082701296 0.0027095191 0.33313355 4294901760
0.076472238 0.05209782 0.33782339 4278255360
0.076947629 0.052170757 0.33768672 4278255360
0.077423029 0.052243695 0.33755004 4278255360
0.07789842 0.052316632 0.33741337 4278255360
0.078373812 0.05238957 0.3372767 4278255360
0.078849211 0.052462507 0.33713999 4278255360
0.079324603 0.052535444 0.33700332 4278255360
0.079799995 0.052608382 0.33686665 4278255360
0.080275394 0.052681319 0.33672997 4278255360
0.080750786 0.052754257 0.3365933 4278255360
0.081226178 0.052827194 0.33645663 4278255360
0.081701577 0.052900128 0.33631995 4278255360
0.082176968 0.052973066 0.33618328 4278255360
0.08265236 0.053046003 0.33604661 4278255360
0.083127759 0.05311894 0.3359099 4278255360
0.083603151 0.053191878 0.33577323 4278255360
0.084078543 0.053264815 0.33563656 4278255360
0.084553942 0.053337753 0.33549988 4278255360
0.085029334 0.05341069 0.33536321 4278255360
0.085504726 0.053483628 0.33522654 4278255360
0.085980125 0.053556565 0.33508986 4278255360
0.086455517 0.053629503 0.33495319 4278255360
0.086930908 0.05370244 0.33481652 4278255360
0.087406307 0.053775378 0.33467981 4278255360
0.087881699 0.053848315 0.33454314 4278255360
0.088357091 0.053921252 0.33440647 4278255360
0.088832483 0.05399419 0.33426979 4278255360
0.089307882 0.054067127 0.33413312 4278255360
0.089783274 0.054140065 0.33399644 4278255360
0.090258673 0.054213002 0.33385977 4278255360
0.090734065 0.054285936 0.3337231 4278255360
0.091209456 0.054358874 0.33358642 4278255360
0.091684848 0.054431811 0.33344972 4278255360
0.092160247 0.054504748 0.33331305 4278255360
0.092635639 0.054577686 0.33317637 4278255360
0.093111038 0.054650623 0.3330397 4278255360
0.09358643 0.054723561 0.33290303 4278255360
0.094061822 0.054796498 0.33276635 4278255360
0.094537213 0.054869436 0.33262968 4278255360
0.095012613 0.054942373 0.33249301 4278255360
0.095488004 0.055015311 0.33235633 4278255360
0.095963404 0.055088248 0.33221963 4278255360
0.096438795 0.055161186 0.33208296 4278255360
0.096914187 0.055234123 0.33194628 4278255360
0.097389579 0.05530706 0.33180961 4278255360
0.097864978 0.055379998 0.33167294 4278255360
0.09834037 0.055452935 0.33153626 4278255360
0.098815769 0.055525873 0.33139959 4278255360
0.099291161 0.05559881 0.33126292 4278255360
0.099766552 0.055671748 0.33112624 4278255360
0.10024194 0.055744685 0.33098954 4278255360
0.10071734 0.055817619 0.33085287 4278255360
0.10119274 0.055890556 0.33071619 4278255360
0.10166813 0.055963494 0.33057952 4278255360
0.10214353 0.056036431 0.33044285 4278255360
0.10261892 0.056109369 0.33030617 4278255360
0.10309431 0.056182306 0.3301695 4278255360
0.10356971 0.056255244 0.33003283 4278255360
0.1040451 0.056328181 0.32989615 4278255360
0.10452049 0.056401119 0.32975948 4278255360
0.10499589 0.056474056 0.32962278 4278255360
0.10547128 0.056546994 0.3294861 4278255360
0.10594667 0.056619931 0.32934943 4278255360
0.10642207 0.056692868 0.32921275 4278255360
0.10689747 0.056765806 0.32907608 4278255360
0.10737286 0.056838743 0.32893941 4278255360
0.10784826 0.056911681 0.32880273 4278255360
0.10832365 0.056984618 0.32866606 4278255360
0.10879904 0.057057556 0.32852939 4278255360
0.10927444 0.057130493 0.32839268 4278255360
0.10974983 0.057203427 0.32825601 4278255360
0.11022523 0.057276364 0.32811934 4278255360
0.11070062 0.057349302 0.32798266 4278255360
0.11117601 0.057422239 0.32784599 4278255360
0.11165141 0.057495177 0.32770932 4278255360
0.1121268 0.057568114 0.32757264 4278255360
0.1126022 0.057641052 0.32743597 4278255360
0.1130776 0.057713989 0.3272993 4278255360
0.11355299 0.057786927 0.32716259 4278255360
0.11402838 0.057859864 0.32702592 4278255360
0.11450377 0.057932802 0.32688925 4278255360
0.11497916 0.058005739 0.32675257 4278255360
0.11545456 0.058078676 0.3266159 4278255360
0.11592996 0.058151614 0.32647923 4278255360
0.11640535 0.058224551 0.32634255 4278255360
0.11688074 0.058297489 0.32620588 4278255360
0.11735614 0.058370426 0.32606921 4278255360
0.11783153 0.058443364 0.3259325 4278255360
0.11830693 0.058516301 0.32579583 4278255360
0.11878233 0.058589235 0.32565916 4278255360
0.11925772 0.058662176 0.32552248 4278255360
0.11973311 0.05873511 0.32538581 4278255360
0.1202085 0.058808047 0.32524914 4278255360
0.12068389 0.058880985 0.32511246 4278255360
0.12115929 0.058953922 0.32497579 4278255360
0.12163469 0.05902686 0.32483912 4278255360
0.12211008 0.059099797 0.32470241 4278255360
0.12258548 0.059172735 0.32456574 4278255360
0.12306087 0.059245672 0.32442906 4278255360
0.12353626 0.05931861 0.32429239 4278255360
0.12401166 0.059391547 0.32415572 4278255360
0.076472238 0.05209782 0.33782339 4278190335
0.076618485 0.052070934 0.33830076 4278190335
0.076764733 0.052044049 0.33877814 4278190335
0.076910973 0.052017163 0.33925551 4278190335
0.07705722 0.051990278 0.33973292 4278190335
0.077203467 0.051963389 0.34021029 4278190335
0.077349715 0.051936503 0.34068766 4278190335
0.077495955 0.051909618 0.34116504 4278190335
0.077642202 0.051882733 0.34164241 4278190335
0.07778845 0.051855847 0.34211978 4278190335
0.077934697 0.051828962 0.34259716 4278190335
0.078080937 0.051802076 0.34307453 4278190335
0.078227185 0.051775191 0.34355193 4278190335
0.078373432 0.051748302 0.34402931 4278190335
0.07851968 0.051721416 0.34450668 4278190335
0.078665927 0.051694531 0.34498405 4278190335
0.078812167 0.051667646 0.34546143 4278190335
0.078958414 0.05164076 0.3459388 4278190335
0.079104662 0.051613875 0.34641618 4278190335
0.079250909 0.051586989 0.34689355 4278190335
0.079397149 0.051560104 0.34737095 4278190335
0.079543397 0.051533215 0.34784833 4278190335
0.079689644 0.051506329 0.3483257 4278190335
0.079835892 0.051479444 0.34880307 4278190335
0.079982132 0.051452558 0.34928045 4278190335
0.080128379 0.051425673 0.34975782 4278190335
0.080274627 0.051398788 0.35023519 4278190335
0.080420874 0.051371902 0.3507126 4278190335
0.080567122 0.051345017 0.35118997 4278190335
0.080713362 0.051318131 0.35166734 4278190335
0.080859609 0.051291242 0.35214472 4278190335
0.081005856 0.051264357 0.35262209 4278190335
0.081152104 0.051237471 0.35309947 4278190335
0.081298344 0.051210586 0.35357684 4278190335
0.081444591 0.051183701 0.35405421 4278190335
0.081590839 0.051156815 0.35453162 4278190335
0.081737086 0.05112993 0.35500899 4278190335
0.081883326 0.051103044 0.35548636 4278190335
0.082029574 0.051076155 0.35596374 4278190335
0.082175821 0.05104927 0.35644111 4278190335
0.082322069 0.051022384 0.35691848 4278190335
0.082468316 0.050995499 0.35739586 4278190335
0.082614556 0.050968613 0.35787323 4278190335
0.082760803 0.050941728 0.35835063 4278190335
0.082907051 0.050914843 0.35882801 4278190335
0.083053298 0.050887957 0.35930538 4278190335
0.083199538 0.050861068 0.35978276 4278190335
0.083345786 0.050834183 0.36026013 4278190335
0.083492033 0.050807297 0.3607375 4278190335
0.083638281 0.050780412 0.36121488 4278190335
0.083784521 0.050753526 0.36169225 4278190335
0.083930768 0.050726641 0.36216965 4278190335
0.084077016 0.050699756 0.36264703 4278190335
0.084223263 0.05067287 0.3631244 4278190335
0.08436951 0.050645985 0.36360177 4278190335
0.08451575 0.050619096 0.36407915 4278190335
0.084661998 0.05059221 0.36455652 4278190335
0.084808245 0.050565325 0.36503389 4278190335
0.084954493 0.050538439 0.3655113 4278190335
0.085100733 0.050511554 0.36598867 4278190335
0.08524698 0.050484668 0.36646605 4278190335
0.085393228 0.050457783 0.36694342 4278190335
0.085539475 0.050430898 0.36742079 4278190335
0.085685715 0.050404008 0.36789817 4278190335
0.085831963 0.050377123 0.36837554 4278190335
0.08597821 0.050350238 0.36885291 4278190335
0.086124457 0.050323352 0.36933032 4278190335
0.086270705 0.050296467 0.36980769 4278190335
0.086416945 0.050269581 0.37028506 4278190335
0.086563192 0.050242696 0.37076244 4278190335
0.08670944 0.050215811 0.37123981 4278190335
0.086855687 0.050188921 0.37171718 4278190335
0.087001935 0.050162036 0.37219456 4278190335
0.087148175 0.050135151 0.37267196 4278190335
0.087294422 0.050108265 0.37314934 4278190335
0.08744067 0.05008138 0.37362671 4278190335
0.08758691 0.050054494 0.37410408 4278190335
0.087733157 0.050027609 0.37458146 4278190335
0.087879404 0.050000723 0.37505883 4278190335
0.088025652 0.049973838 0.3755362 4278190335
0.088171899 0.049946949 0.37601358 4278190335
0.088318139 0.049920063 0.37649095 4278190335
0.088464387 0.049893178 0.37696835 4278190335
0.088610634 0.049866293 0.37744573 4278190335
0.088756882 0.049839407 0.3779231 4278190335
0.088903129 0.049812522 0.37840047 4278190335
0.089049369 0.049785636 0.37887785 4278190335
0.089195617 0.049758751 0.37935522 4278190335
0.089341864 0.049731862 0.3798326 4278190335
0.089488104 0.049704976 0.38031 4278190335
0.089634351 0.049678091 0.38078737 4278190335
0.089780599 0.049651206 0.38126475 4278190335
0.089926846 0.04962432 0.38174212 4278190335
0.090073094 0.049597435 0.38221949 4278190335
0.090219334 0.049570549 0.38269687 4278190335
0.090365581 0.049543664 0.38317424 4278190335
0.090511829 0.049516775 0.38365161 4278190335
0.090658076 0.049489889 0.38412902 4278190335
0.090804324 0.049463004 0.38460639 4278190335
0.090950564 0.049436118 0.38508376 4278190335
0.091096811 0.049409233 0.38556114 4278190335
0.076472238 0.05209782 0.33782339 4294967295
0.07559476 0.052259136 0.33495912 4294967295
0.074717291 0.052420449 0.33209485 4294967295
0.073839813 0.052581765 0.32923061 4294967295
0.072962336 0.052743081 0.32636634 4294967295
0.072084866 0.052904397 0.32350206 4294967295
0.071207389 0.05306571 0.32063779 4294967295
0.070329912 0.053227026 0.31777352 4294967295
0.069452442 0.053388342 0.31490928 4294967295
0.068574965 0.053549659 0.31204501 4294967295
0.067697495 0.053710971 0.30918074 4294967295
0.066820018 0.053872287 0.30631647 4294967295
0.065942541 0.054033604 0.30345219 4294967295
0.065065071 0.05419492 0.30058795 4294967295
0.064187594 0.054356232 0.29772368 4294967295
0.063310117 0.054517549 0.29485941 4294967295
0.062432643 0.054678865 0.29199514 4294967295
0.06155517 0.054840181 0.28913087 4294967295
0.060677692 0.055001494 0.28626662 4294967295
0.059800223 0.05516281 0.28340235 4294967295
0.058922745 0.055324126 0.28053808 4294967295
0.058045272 0.055485442 0.27767381 4294967295
0.057167798 0.055646755 0.27480954 4294967295
0.056290321 0.055808071 0.2719453 4294967295
0.055412848 0.055969387 0.26908103 4294967295
0.054535374 0.0561307 0.26621675 4294967295
0.053657897 0.056292016 0.26335248 4294967295
0.05278042 0.056453332 0.26048821 4294967295
0.05190295 0.056614649 0.25762397 4294967295
0.051025473 0.056775961 0.2547597 4294967295
0.050147995 0.056937277 0.25189543 4294967295
0.049270526 0.057098594 0.24903116 4294967295
0.048393048 0.05725991 0.2461669 4294967295
0.047515575 0.057421222 0.24330263 4294967295
0.046638101 0.057582539 0.24043837 4294967295
0.045760624 0.057743855 0.2375741 4294967295
0.044883151 0.057905171 0.23470983 4294967295
0.044005677 0.058066484 0.23184556 4294967295
0.043128204 0.0582278 0.22898132 4294967295
0.04225073 0.058389116 0.22611704 4294967295
0.041373253 0.058550432 0.22325277 4294967295
0.040495779 0.058711745 0.2203885 4294967295
0.039618306 0.058873061 0.21752425 4294967295
0.038740829 0.059034377 0.21465997 4294967295
0.037863355 0.05919569 0.21179572 4294967295
0.036985882 0.059357006 0.20893145 4294967295
0.036108404 0.059518322 0.20606717 4294967295
0.035230931 0.059679639 0.20320292 4294967295
0.034353457 0.059840955 0.20033865 4294967295
0.03347598 0.060002267 0.19747438 4294967295
