# .PCD v0.7 - Point Cloud Data file format
VERSION 0.7
FIELDS x y z rgb
SIZE 4 4 4 4
TYPE F F F U
COUNT 1 1 1 1
WIDTH 912
HEIGHT 1
VIEWPOINT 0 0 0 1 0 0 0
POINTS 912
DATA ascii
-0.0033912279 -0.027302723 0.55200005 4286357130
-0.0016012264 -0.027352184 0.55300003 4287729791
0.00019527103 -0.027401645 0.55400002 4285221951
0.0019982643 -0.027451105 0.55500001 4286594616
0.003807754 -0.02750057 0.55600005 4286923835
0.0056136432 -0.02750057 0.55600005 4285940279
-0.0069138245 -0.025278157 0.54700005 4286488716
-0.0051465589 -0.025324369 0.54800004 4287406734
-0.0033850842 -0.025463004 0.551 4286281832
-0.0015983309 -0.02550922 0.55200005 4286530619
0.00019527103 -0.025601642 0.55400002 4286988086
0.0019982643 -0.025647854 0.55500001 4289883998
0.003807754 -0.025694069 0.55600005 4287053872
0.0056136432 -0.025694069 0.55600005 4286592303
0.0074328766 -0.025740281 0.55700004 4286921786
-0.012131878 -0.023286082 0.54200006 4287015576
-0.010390596 -0.023329046 0.54300004 4287078541
-0.0086428178 -0.023372008 0.54400003 4285619793
-0.0069011846 -0.023457933 0.546 4286802266
-0.0051371674 -0.023500899 0.54700005 4287061842
-0.0033727973 -0.023586825 0.54900002 4286267961
-0.0015954353 -0.02367275 0.551 4287053879
0.00019491857 -0.023758678 0.55300003 4286133547
0.0019946638 -0.02380164 0.55400002 4285147170
0.003807754 -0.023887567 0.55600005 4286264361
0.0056136432 -0.023887567 0.55600005 4286262571
0.0074328766 -0.023930531 0.55700004 4291593096
0.0092420131 -0.023930531 0.55700004 4286725952
-0.013892295 -0.02152507 0.54200006 4286818197
-0.012131878 -0.02152507 0.54200006 4288327325
-0.010371461 -0.02152507 0.54200006 4284894786
-0.0086269304 -0.021564784 0.54300004 4286725686
-0.0068885451 -0.02164421 0.54500002 4286724914
-0.0051277755 -0.021683924 0.546 4286921266
-0.0033666538 -0.021763355 0.54800004 4287447610
-0.0015925398 -0.021842781 0.55000001 4289758072
0.00019456609 -0.02192221 0.55200005 4287926141
0.0019946638 -0.022001637 0.55400002 4287731336
0.003807754 -0.022081068 0.55600005 4283312159
0.0056237392 -0.022120781 0.55700004 4286000162
0.0074328766 -0.022120781 0.55700004 4286854192
0.0092420131 -0.022120781 0.55700004 4286790452
0.011051151 -0.022120781 0.55700004 4285216045
-0.015623831 -0.019727588 0.54100001 4287015576
-0.013866662 -0.019727588 0.54100001 4286818197
-0.012131878 -0.019764055 0.54200006 4283518274
-0.010371461 -0.019764055 0.54200006 4285283382
-0.008611043 -0.019764055 0.54200006 4286789932
-0.0068759057 -0.019836983 0.54400003 4286722856
-0.005118384 -0.019873448 0.54500002 4287314739
-0.0033605103 -0.01994638 0.54700005 4287118134
-0.0015896444 -0.020019308 0.54900002 4286790457
0.00019456609 -0.020128705 0.55200005 4289825664
0.0019946638 -0.020201633 0.55400002 4287534211
0.003807754 -0.020274565 0.55600005 4282591518
0.0056237392 -0.02031103 0.55700004 4287187516
0.0074462211 -0.020347495 0.55800003 4285869348
0.0092586055 -0.020347495 0.55800003 4286526508
-0.015623831 -0.017969824 0.54100001 4287015576
-0.013866662 -0.017969824 0.54100001 4287278748
-0.012109494 -0.017969824 0.54100001 4283447088
-0.010352325 -0.017969824 0.54100001 4285216045
-0.008611043 -0.018003041 0.54200006 4286066207
-0.0068632662 -0.018036257 0.54300004 4286591268
-0.005108993 -0.018069472 0.54400003 4286787879
-0.0033543666 -0.018135903 0.546 4287906880
-0.0015896444 -0.018235551 0.54900002 4289422945
0.0001942136 -0.018301982 0.551 4286527280
0.0019946638 -0.018401632 0.55400002 4285936168
0.003807754 -0.018468065 0.55600005 4287054647
0.0056237392 -0.01850128 0.55700004 4286396199
0.0074462211 -0.018534495 0.55800003 4286527528
0.009275198 -0.018567711 0.55900002 4285544492
-0.015623831 -0.016212059 0.54100001 4286621072
-0.013866662 -0.016212059 0.54100001 4287869856
-0.012109494 -0.016212059 0.54100001 4284365108
-0.010352325 -0.016212059 0.54100001 4284756005
-0.0085951556 -0.016212059 0.54100001 4285212443
-0.0068506268 -0.016242027 0.54200006 4285672221
-0.005108993 -0.016301962 0.54400003 4286131487
-0.0033543666 -0.016361894 0.546 4286262303
-0.0015867488 -0.016421828 0.54800004 4286985258
0.0001942136 -0.016511729 0.551 4287775542
0.0019946638 -0.01660163 0.55400002 4287579700
0.003807754 -0.016661564 0.55600005 4284686351
0.0056338357 -0.016721496 0.55800003 4284096269
0.0074595655 -0.016751463 0.55900002 4285346082
0.0092917904 -0.016781429 0.56 4283510303
-0.015623831 -0.014454296 0.54100001 4286817168
-0.013866662 -0.014454296 0.54100001 4286880394
-0.01208711 -0.014427579 0.54000002 4284627249
-0.010352325 -0.014454296 0.54100001 4284953125
-0.0085951556 -0.014454296 0.54100001 4284556568
-0.0068506268 -0.014481016 0.54200006 4284556568
-0.005108993 -0.01453445 0.54400003 4285278490
-0.0033543666 -0.014587885 0.546 4285738269
-0.0015867488 -0.014641321 0.54800004 4286262303
0.0001942136 -0.014721474 0.551 4286854440
0.0019946638 -0.014801627 0.55400002 4284752916
0.0038146025 -0.01488178 0.55700004 4283768079
0.0056439321 -0.014935216 0.55900002 4283769110
0.0074729095 -0.014961933 0.56 4284493087
0.0093083829 -0.014988651 0.56100005 4284363044
-0.019350424 -0.012837344 0.54700005 4284578407
-0.017477384 -0.012766938 0.54400003 4287210638
-0.015623831 -0.012696532 0.54100001 4287736982
-0.013866662 -0.012696532 0.54100001 4283917649
-0.01208711 -0.012673063 0.54000002 4284756007
-0.010333189 -0.012673063 0.54000002 4285478183
-0.0085951556 -0.012696532 0.54100001 4283701770
-0.0068506268 -0.012720001 0.54200006 4284491288
-0.005108993 -0.012766938 0.54400003 4284689183
-0.0033543666 -0.012813875 0.546 4284951839
-0.0015896444 -0.012884281 0.54900002 4285542178
0.00019456609 -0.012954687 0.55200005 4285805604
0.0019982643 -0.013025092 0.55500001 4284293911
0.0038214508 -0.013095498 0.55800003 4289105538
0.0056540282 -0.013142435 0.56 4282786844
0.0074862549 -0.013165905 0.56100005 4283770395
0.0093249753 -0.013189374 0.56200004 4283376921
0.011170194 -0.013212842 0.56300002 4286472533
-0.02124295 -0.011120743 0.55000001 4282404662
-0.019350424 -0.011060085 0.54700005 4282141751
-0.017477384 -0.010999426 0.54400003 4282141751
-0.015623831 -0.010938767 0.54100001 4282601017
-0.013841031 -0.010918548 0.54000002 4283186733
-0.01208711 -0.010918548 0.54000002 4284952101
-0.010333189 -0.010918548 0.54000002 4286464565
-0.0085951556 -0.010938767 0.54100001 4286540377
-0.0068506268 -0.010958988 0.54200006 4284964689
-0.005108993 -0.010999426 0.54400003 4283178258
-0.0033543666 -0.011039865 0.546 4283835157
-0.0015896444 -0.011100524 0.54900002 4284887845
0.00019456609 -0.011161183 0.55200005 4284689953
0.0020018651 -0.011242061 0.55600005 4284237624
0.0038282992 -0.011302719 0.55900002 4286878847
0.0056641256 -0.011343159 0.56100005 4287267446
0.0074995994 -0.011363378 0.56200004 4283311391
0.0093415678 -0.011383598 0.56300002 4284166437
0.011190034 -0.011403817 0.56400001 4284034851
-0.021204328 -0.0093167666 0.54900002 4282534697
-0.019279672 -0.0092488844 0.54500002 4282140455
-0.017445255 -0.0092149442 0.54300004 4282337834
-0.015623831 -0.0091810022 0.54100001 4281214478
-0.013841031 -0.0091640325 0.54000002 4284103724
-0.012064727 -0.009147062 0.53900003 4285279008
-0.010333189 -0.0091640325 0.54000002 4285477672
-0.0085951556 -0.0091810022 0.54100001 4286812539
-0.0068506268 -0.0091979736 0.54200006 4286417529
-0.005108993 -0.0092319138 0.54400003 4283772192
-0.0033605103 -0.0092828255 0.54700005 4285151017
-0.0015925398 -0.0093337363 0.55000001 4282323979
0.00019491857 -0.0093846479 0.55300003 4282986022
0.0020054656 -0.0094525302 0.55700004 4282271287
0.0038282992 -0.0094864704 0.55900002 4286552199
0.0056742216 -0.0095373821 0.56200004 4288325526
0.0075129434 -0.0095543526 0.56300002 4282789158
0.0093581602 -0.0095713222 0.56400001 4283376151
0.011190034 -0.0095713222 0.56400001 4285217326
0.013044995 -0.0095882928 0.565 4286070584
-0.017413128 -0.0074369605 0.54200006 4283387955
-0.015594952 -0.0074095177 0.54000002 4282264084
-0.013815399 -0.0073957965 0.53900003 4284364581
-0.012064727 -0.0073957965 0.53900003 4285738791
-0.010314054 -0.0073957965 0.53900003 4288508005
-0.0085792681 -0.0074095177 0.54000002 4285951070
-0.0068506268 -0.0074369605 0.54200006 4282723615
-0.005108993 -0.0074644028 0.54400003 4284690466
-0.0033605103 -0.0075055673 0.54700005 4286793530
-0.0015925398 -0.0075467308 0.55000001 4281735185
0.00019527103 -0.007601616 0.55400002 4281479208
0.0020054656 -0.0076427804 0.55700004 4279838231
0.0038351475 -0.007683944 0.56 4287472529
0.0056742216 -0.0077113868 0.56200004 4287998360
0.0075262878 -0.0077388291 0.56400001 4282331172
0.0093747526 -0.0077525503 0.565 4283901979
0.011209873 -0.0077525503 0.565 4284953125
0.013068085 -0.0077662724 0.56600004 4287316792
0.014906453 -0.0077662724 0.56600004 4286004527
-0.017348872 -0.0056550023 0.54000002 4281216788
-0.015566073 -0.0056445301 0.53900003 4283312922
-0.013789768 -0.0056340583 0.53800005 4284821539
-0.012042344 -0.0056340583 0.53800005 4286001191
-0.010294919 -0.0056340583 0.53800005 4288045396
-0.0085792681 -0.0056550023 0.54000002 4285087539
-0.0068506268 -0.0056759468 0.54200006 4284099874
-0.005108993 -0.0056968913 0.54400003 4285017117
-0.0033605103 -0.0057283081 0.54700005 4285807146
-0.0015954353 -0.0057701967 0.551 4283914826
0.00019527103 -0.0058016134 0.55400002 4284312407
0.0020090658 -0.0058435025 0.55800003 4280758052
0.0038419964 -0.0058749192 0.56100005 4287537811
0.005684318 -0.0058958633 0.56300002 4287669908
0.0075396323 -0.0059168078 0.565 4281410583
0.009391346 -0.0059272805 0.56600004 4284163868
0.011229715 -0.0059272805 0.56600004 4284886560
0.013091173 -0.0059377523 0.56700003 4285606426
0.014932789 -0.0059377523 0.56700003 4289227092
-0.019138169 -0.0039077103 0.54100001 4281085200
-0.017316746 -0.0038932641 0.53900003 4280952849
-0.015537194 -0.0038860412 0.53800005 4284561193
-0.013764136 -0.0038788177 0.537 4285017117
-0.012019959 -0.0038788177 0.537 4286265385
-0.010294919 -0.0038860412 0.53800005 4285215009
-0.0085633807 -0.0038932641 0.53900003 4284756775
-0.0068379869 -0.0039077103 0.54100001 4284033052
-0.005108993 -0.0039293799 0.54400003 4284886560
-0.0033605103 -0.0039510494 0.54700005 4283375376
-0.0015954353 -0.0039799414 0.551 4284707678
0.00019562351 -0.0040088338 0.55500001 4281156403
0.0020126663 -0.0040377267 0.55900002 4283258697
0.0038488447 -0.0040593962 0.56200004 4287339662
0.005704511 -0.0040810653 0.565 4288458139
0.0075529772 -0.0040882886 0.56600004 4282329629
0.0094079375 -0.0040955115 0.56700003 4284689953
0.011249555 -0.0040955115 0.56700003 4285017630
0.013091173 -0.0040955115 0.56700003 4285804834
0.014932789 -0.0040955115 0.56700003 4285937451
-0.019102793 -0.0021459721 0.54000002 4280492298
-0.017284619 -0.0021380242 0.53800005 4281214224
-0.015508313 -0.00213405 0.537 4285018916
-0.013764136 -0.00213405 0.537 4285936420
-0.012019959 -0.00213405 0.537 4286264867
-0.010294919 -0.0021380242 0.53800005 4283701770
-0.0085633807 -0.0021419981 0.53900003 4284560425
-0.0068379869 -0.0021499461 0.54100001 4284099874
-0.005108993 -0.0021618684 0.54400003 4284952355
-0.0033666538 -0.0021777644 0.54800004 4283378202
-0.0015954353 -0.0021896863 0.551 4280495128
0.000195976 -0.0022095565 0.55600005 4287211142
0.0020162668 -0.0022254526 0.56 4282468148
0.0038556932 -0.0022373747 0.56300002 4286614138
0.0057146079 -0.0022492968 0.56600004 4285032278
0.0075663216 -0.0022532707 0.56700003 4283442975
0.00942453 -0.0022572447 0.56800002 4284688156
0.011269395 -0.0022572447 0.56800002 4285280289
0.013114261 -0.0022572447 0.56800002 4284690466
0.014932789 -0.0022532707 0.56700003 4287528303
-0.01906742 -0.00039073202 0.53900003 4280887056
-0.017284619 -0.0003900071 0.53800005 4282526488
-0.015508313 -0.00038928216 0.537 4285542178
-0.013738505 -0.00038855724 0.53600001 4287645239
-0.011997576 -0.00038855724 0.53600001 4287314216
-0.010275782 -0.00038928216 0.537 4286789930
-0.0085633807 -0.00039073202 0.53900003 4284030999
-0.0068379869 -0.00039218183 0.54100001 4284623136
-0.005108993 -0.00039435661 0.54400003 4285676078
-0.0033666538 -0.00039725628 0.54800004 4283247645
-0.0015983309 -0.00040015599 0.55200005 4281215003
0.000195976 -0.00040305566 0.55600005 4282992434
0.0020198673 -0.00040668025 0.56100005 4284178491
0.0038625416 -0.000408855 0.56400001 4281020952
0.0057247039 -0.00041102976 0.56700003 4282328857
0.0075930101 -0.0004124796 0.56900001 4284230944
0.0094577158 -0.00041320454 0.57000005 4285082140
0.011289236 -0.0004124796 0.56900001 4285081629
0.013137349 -0.0004124796 0.56900001 4288257932
-0.022694381 0.0013681068 0.54200006 4281152792
-0.020856716 0.0013630583 0.54000002 4281152538
-0.019032044 0.00135801 0.53800005 4280885777
-0.01725249 0.0013554858 0.537 4284893238
-0.015479434 0.0013529615 0.53600001 4285804832
-0.013738505 0.0013529615 0.53600001 4286853670
-0.011997576 0.0013529615 0.53600001 4287445032
-0.010275782 0.0013554858 0.537 4286918688
-0.0085633807 0.0013605342 0.53900003 4287117612
-0.0068506268 0.0013681068 0.54200006 4288500035
-0.005118384 0.0013756792 0.54500002 4285873457
-0.0033666538 0.0013832519 0.54800004 4282721047
-0.0015983309 0.0013933486 0.55200005 4280950802
0.00019632846 0.0014059695 0.55700004 4281215255
0.0020234678 0.0014185903 0.56200004 4281873687
0.0038693899 0.0014261628 0.565 4281874205
0.0057348004 0.0014337354 0.56800002 4283443743
0.007606355 0.0014387838 0.57000005 4284689953
0.0094743082 0.0014413079 0.57100004 4285081881
0.011309077 0.0014387838 0.57000005 4285544492
-0.017220363 0.0030944804 0.53600001 4284036645
-0.015479434 0.0030944804 0.53600001 4286001184
-0.013738505 0.0030944804 0.53600001 4286263327
-0.012019959 0.0031002534 0.537 4286787874
-0.010294919 0.0031060271 0.53800005 4287379757
-0.0085792681 0.0031175734 0.54000002 4291198586
-0.0068506268 0.0031291202 0.54200006 4287183923
-0.005118384 0.0031464398 0.54500002 4286662457
-0.0033727973 0.0031695331 0.54900002 4282523668
-0.0016012264 0.0031926262 0.55300003 4282860596
0.00019668094 0.0032214927 0.55800003 4281283358
0.0020270683 0.0032503591 0.56300002 4282599468
0.0038762388 0.0032676789 0.56600004 4283453500
0.0057448968 0.0032849987 0.56900001 4285019947
0.0076196995 0.0032965455 0.57100004 4285476898
0.0094908997 0.0033023185 0.57200003 4285606431
-0.024409674 0.004881111 0.54100001 4281286190
-0.022526894 0.0048540439 0.53800005 4280627747
-0.020740844 0.0048450213 0.537 4280430368
-0.018961292 0.0048359991 0.53600001 4282596904
-0.017220363 0.0048359991 0.53600001 4283707682
-0.015479434 0.0048359991 0.53600001 4285345053
-0.013738505 0.0048359991 0.53600001 4285606683
-0.012019959 0.0048450213 0.537 4286262557
-0.010294919 0.0048540439 0.53800005 4286459166
-0.0085792681 0.0048720883 0.54000002 4288038462
-0.0068632662 0.0048991558 0.54300004 4287511602
-0.0051277755 0.0049262228 0.546 4287646014
-0.0033789407 0.0049623125 0.55000001 4281536773
-0.0016041219 0.0049984017 0.55400002 4282005289
0.0001970334 0.0050435136 0.55900002 4283651395
0.0020270683 0.0050796033 0.56300002 4287798403
0.0038830871 0.005115693 0.56700003 4281347611
0.0057549938 0.0051427605 0.57000005 4285280291
0.0076196995 0.0051517827 0.57100004 4286066725
0.0094908997 0.0051608048 0.57200003 4286199340
-0.024319436 0.0066143326 0.53900003 4286619019
-0.022485022 0.0065897889 0.537 4286421640
-0.02070222 0.0065775178 0.53600001 4287342740
-0.018961292 0.0065775178 0.53600001 4284703315
-0.017220363 0.0065775178 0.53600001 4283248676
-0.015479434 0.0065775178 0.53600001 4283900435
-0.013764136 0.0065897889 0.537 4284490775
-0.012042344 0.006602061 0.53800005 4285343513
-0.010314054 0.0066143326 0.53900003 4285606428
-0.0085951556 0.0066388752 0.54100001 4286853670
-0.0068759057 0.0066756899 0.54400003 4287051049
-0.0051371674 0.0067125047 0.54700005 4287252028
-0.0033850842 0.00676159 0.551 4281930508
-0.0016070174 0.0068106758 0.55500001 4282006318
0.0001970334 0.0068597621 0.55900002 4281083415
0.0020306688 0.0069211195 0.56400001 4286272326
0.0038830871 0.0069579342 0.56700003 4283244311
0.0057549938 0.006994749 0.57000005 4286198570
0.0076196995 0.0070070201 0.57100004 4286657579
0.0095074922 0.0070315627 0.57300001 4285478185
-0.022443149 0.008319037 0.53600001 4286356876
-0.02070222 0.008319037 0.53600001 4286291083
-0.018961292 0.008319037 0.53600001 4285099618
-0.017220363 0.008319037 0.53600001 4283381547
-0.015508313 0.0083345566 0.537 4283639323
-0.013764136 0.0083345566 0.537 4283572501
-0.012042344 0.008350078 0.53800005 4283703058
-0.010333189 0.008381119 0.54000002 4284688154
-0.008611043 0.0084121609 0.54200006 4285673248
-0.0068759057 0.0084432019 0.54400003 4286067236
-0.0051465589 0.0085052839 0.54800004 4284622622
-0.0033850842 0.0085518453 0.551 4281143566
-0.0016070174 0.0086139282 0.55500001 4281540375
0.0001970334 0.0086760102 0.55900002 4285481013
0.0020270683 0.0087380931 0.56300002 4286330926
0.0038830871 0.008800175 0.56700003 4288898654
0.0057448968 0.008831216 0.56900001 4287052850
0.007606355 0.0088467374 0.57000005 4287382069
0.0094908997 0.0088777784 0.57200003 4285022775
-0.02070222 0.010060555 0.53600001 4286356876
-0.018996667 0.010079325 0.537 4287668625
-0.01725249 0.010079325 0.537 4283252276
-0.015537194 0.010098096 0.53800005 4283771938
-0.013789768 0.010098096 0.53800005 4283969058
-0.012064727 0.010116865 0.53900003 4284362530
-0.010352325 0.010154404 0.54100001 4284494116
-0.0086269304 0.010191943 0.54300004 4284953638
-0.0068885451 0.010229483 0.54500002 4285545262
-0.0051465589 0.010285792 0.54800004 4284691757
-0.0033912279 0.010360871 0.55200005 4283777850
-0.0016099131 0.01043595 0.55600005 4284428587
0.00019738587 0.010511028 0.56 4285869607
0.0020270683 0.010567337 0.56300002 4286592299
0.0038762388 0.010623647 0.56600004 4287316794
0.0057348004 0.010661186 0.56800002 4287451712
0.0075930101 0.010679956 0.56900001 4290547063
-0.02070222 0.011802074 0.53600001 4286620048
-0.019032044 0.011846112 0.53800005 4286487433
-0.017284619 0.011846112 0.53800005 4284048213
-0.015566073 0.01186813 0.53900003 4284364845
-0.013841031 0.01189015 0.54000002 4285153845
-0.012109494 0.011912168 0.54100001 4284035364
-0.010371461 0.011934187 0.54200006 4284434233
-0.0086428178 0.011978225 0.54400003 4283708464
-0.0069011846 0.012022262 0.546 4283901991
-0.0051559503 0.012088318 0.54900002 4283377952
-0.0033973714 0.012176394 0.55300003 4289306767
-0.0016099131 0.01224245 0.55600005 4283709999
0.0001970334 0.012308506 0.55900002 4286990657
0.0020270683 0.012396581 0.56300002 4287446579
0.0038693899 0.012440618 0.565 4287906612
0.0057247039 0.012484657 0.56700003 4291397239
0.0075796656 0.012506675 0.56800002 4287450940
0.00942453 0.012506675 0.56800002 4287395690
-0.01906742 0.013619397 0.53900003 4286422156
-0.017348872 0.013644664 0.54000002 4287670426
-0.015594952 0.013644664 0.54000002 4284037679
-0.013866662 0.013669931 0.54100001 4284824880
-0.012131878 0.013695201 0.54200006 4283117860
-0.010390596 0.013720469 0.54300004 4287667080
-0.0086587053 0.013771003 0.54500002 4287995280
-0.0069138245 0.01382154 0.54700005 4283249455
-0.0051653418 0.013897343 0.55000001 4284364077
-0.0033973714 0.013973147 0.55300003 4289701525
-0.0016099131 0.014048951 0.55600005 4289179034
0.0001970334 0.014124754 0.55900002 4284496685
0.0020234678 0.014200558 0.56200004 4287445804
0.0038693899 0.014276361 0.565 4288036656
0.0057146079 0.01430163 0.56600004 4287970865
0.0075796656 0.014352165 0.56800002 4289748305
0.00942453 0.014352165 0.56800002 4286531387
-0.019102793 0.015399179 0.54000002 4286685328
-0.017380999 0.015427697 0.54100001 4286751121
-0.015652712 0.015456215 0.54200006 4283252274
-0.013892295 0.015456215 0.54200006 4283839014
-0.012154262 0.015484732 0.54300004 4283313184
-0.010409731 0.015513248 0.54400003 4287863946
-0.0086745927 0.015570281 0.546 4288065438
-0.0069264639 0.015627317 0.54800004 4283519818
-0.0051653418 0.015684349 0.55000001 4284298802
-0.0033973714 0.015769901 0.55300003 4287455837
-0.0016099131 0.015855452 0.55600005 4286992969
0.0001970334 0.015941003 0.55900002 4287052852
0.0020234678 0.016026555 0.56200004 4287840565
0.0038625416 0.016083587 0.56400001 4287906355
0.0057146079 0.016140623 0.56600004 4287905583
0.0075663216 0.016169138 0.56700003 4287050274
0.0094079375 0.016169138 0.56700003 4286726965
-0.019138169 0.017185461 0.54100001 4286422923
-0.017413128 0.017217228 0.54200006 4286488716
-0.015681591 0.017248994 0.54300004 4287533189
-0.013917926 0.017248994 0.54300004 4284038194
-0.012176645 0.017280761 0.54400003 4284362792
-0.010428866 0.017312527 0.54500002 4289635732
-0.0086745927 0.017344292 0.546 4287145359
-0.0069264639 0.017407825 0.54800004 4287671191
-0.0051653418 0.017471356 0.55000001 4283707946
-0.0033973714 0.017566655 0.55300003 4286069816
-0.0016070174 0.017630186 0.55500001 4288499267
0.00019668094 0.017725486 0.55800003 4288631105
0.0020198673 0.017820785 0.56100005 4288037171
0.0038625416 0.017916081 0.56400001 4287643183
0.005704511 0.017947847 0.565 4286131489
0.0075529772 0.017979614 0.56600004 4286395174
0.0094079375 0.01801138 0.56700003 4283904807
-0.017445255 0.019013256 0.54300004 4286817681
-0.015710471 0.019048272 0.54400003 4288457627
-0.013943558 0.019048272 0.54400003 4283579958
-0.012199028 0.019083286 0.54500002 4284362792
-0.010448002 0.019118302 0.546 4284956214
-0.0086904811 0.019153317 0.54700005 4288718485
-0.0069264639 0.019188333 0.54800004 4288586899
-0.0051653418 0.019258361 0.55000001 4285544756
-0.0033912279 0.019328393 0.55200005 4289358426
-0.0016070174 0.019433439 0.55500001 4287578415
0.00019668094 0.019538485 0.55800003 4287314471
0.0020162668 0.019608514 0.56 4286330403
0.0038556932 0.01971356 0.56300002 4285739557
0.005704511 0.01978359 0.565 4285018664
0.0075529772 0.019818606 0.56600004 4284625968
-0.017477384 0.020815782 0.54400003 4287015060
-0.015710471 0.020815782 0.54400003 4287079054
-0.013969189 0.020854047 0.54500002 4282333484
-0.012199028 0.020854047 0.54500002 4284363046
-0.010448002 0.020892311 0.546 4285019949
-0.0086904811 0.020930577 0.54700005 4284754724
-0.0069264639 0.02096884 0.54800004 4285083689
-0.0051653418 0.021045368 0.55000001 4285935400
-0.0033912279 0.021121899 0.55200005 4288434503
-0.0016041219 0.021198425 0.55400002 4289487180
0.00019632846 0.021313218 0.55700004 4286461217
0.0020162668 0.021428011 0.56 4285686099
0.0038556932 0.021542804 0.56300002 4286479213
0.005704511 0.021619331 0.565 4287404424
-0.019279672 0.022624807 0.54500002 4286883220
-0.017509511 0.022624807 0.54500002 4286883220
-0.01573935 0.022624807 0.54500002 4287080086
-0.013969189 0.022624807 0.54500002 4282468668
-0.012221412 0.02266632 0.546 4283903524
-0.010448002 0.02266632 0.546 4284494116
-0.0086904811 0.022707835 0.54700005 4284622622
-0.0069264639 0.022749348 0.54800004 4284886048
-0.0051653418 0.022832373 0.55000001 4285607203
-0.0033850842 0.022873886 0.551 4286132520
-0.0016012264 0.022956915 0.55300003 4286658346
0.00019632846 0.023122968 0.55700004 4288241491
0.0020126663 0.023205994 0.55900002 4287538320
-0.019279672 0.024395566 0.54500002 4287146392
-0.017509511 0.024395566 0.54500002 4287014293
-0.01573935 0.024395566 0.54500002 4287145109
-0.013994819 0.02444033 0.546 4284772708
-0.012221412 0.02444033 0.546 4283904811
-0.010467138 0.024485094 0.54700005 4284166696
-0.0087063685 0.024529856 0.54800004 4284230946
-0.0069264639 0.024529856 0.54800004 4284427810
-0.0051653418 0.02461938 0.55000001 4285216297
-0.0033850842 0.024664141 0.551 4285939250
-0.0016012264 0.024753667 0.55300003 4285019949
-0.017509511 0.026166329 0.54500002 4287212185
-0.015768228 0.026214341 0.546 4287409564
-0.013994819 0.026214341 0.546 4288395176
-0.012243796 0.026262354 0.54700005 4283118641
-0.010467138 0.026262354 0.54700005 4284037427
-0.0087063685 0.026310366 0.54800004 4284628534
-0.0069391034 0.026358377 0.54900002 4284891193
-0.0051559503 0.026358377 0.54900002 4284496946
-0.0033789407 0.026406387 0.55000001 4284630077
-0.013994819 0.02798835 0.546 4287277978
-0.012243796 0.028039614 0.54700005 4288065951
-0.010467138 0.028039614 0.54700005 4287933080
-0.0087063685 0.028090874 0.54800004 4287997588
-0.0069391034 0.028142134 0.54900002 4288457625
-0.0051559503 0.028142134 0.54900002 4288459424
-0.0033789407 0.028193394 0.55000001 4288197022
-0.0022938848 0.0016569383 0.55284458 4294967295
-0.0022938848 0.0016569383 0.55284458 4294901760
-0.0022938848 0.0011636822 0.55276275 4294901760
-0.0022938848 0.00067042594 0.55268091 4294901760
-0.0022938848 0.0001771698 0.55259907 4294901760
-0.0022938848 -0.00031608646 0.55251724 4294901760
-0.0022938848 -0.0008093426 0.5524354 4294901760
-0.0022938848 -0.0013025987 0.5523535 4294901760
-0.0022938848 -0.0017958549 0.55227166 4294901760
-0.0022938848 -0.0022891113 0.55218983 4294901760
-0.0022938848 -0.0027823676 0.55210799 4294901760
-0.0022938848 -0.0032756235 0.55202615 4294901760
-0.0022938848 -0.0037688799 0.55194432 4294901760
-0.0022938848 -0.0042621358 0.55186248 4294901760
-0.0022938848 -0.0047553917 0.55178064 4294901760
-0.0022938848 -0.0052486481 0.5516988 4294901760
-0.0022938848 -0.005741905 0.55161691 4294901760
-0.0022938848 -0.0062351609 0.55153507 4294901760
-0.0022938848 -0.0067284172 0.55145323 4294901760
-0.0022938848 -0.0072216736 0.5513714 4294901760
-0.0022938848 -0.0077149291 0.55128956 4294901760
-0.0022938848 -0.0082081854 0.55120772 4294901760
-0.0022938848 -0.0087014409 0.55112588 4294901760
-0.0022938848 -0.0091946982 0.55104405 4294901760
-0.0022938848 -0.0096879546 0.55096221 4294901760
-0.0022938848 -0.01018121 0.55088037 4294901760
-0.0022938848 -0.010674466 0.55079854 4294901760
-0.0022938848 -0.011167722 0.55071664 4294901760
-0.0022938848 -0.011660979 0.5506348 4294901760
-0.0022938848 -0.012154235 0.55055296 4294901760
-0.0022938848 -0.012647491 0.55047113 4294901760
-0.0022938848 -0.013140748 0.55038929 4294901760
-0.0022938848 -0.013634004 0.55030745 4294901760
-0.0022938848 -0.01412726 0.55022562 4294901760
-0.0022938848 -0.014620516 0.55014378 4294901760
-0.0022938848 -0.015113773 0.55006194 4294901760
-0.0022938848 -0.015607027 0.54998004 4294901760
-0.0022938848 -0.016100286 0.54989821 4294901760
-0.0022938848 -0.01659354 0.54981637 4294901760
-0.0022938848 -0.017086796 0.54973453 4294901760
-0.0022938848 -0.017580053 0.5496527 4294901760
-0.0022938848 -0.018073309 0.54957086 4294901760
-0.0022938848 -0.018566566 0.54948902 4294901760
-0.0022938848 -0.01905982 0.54940718 4294901760
-0.0022938848 -0.019553078 0.54932535 4294901760
-0.0022938848 -0.020046335 0.54924351 4294901760
-0.0022938848 -0.020539589 0.54916167 4294901760
-0.0022938848 -0.021032847 0.54907978 4294901760
-0.0022938848 -0.021526102 0.54899794 4294901760
-0.0022938848 -0.022019358 0.5489161 4294901760
-0.0022938848 -0.022512615 0.54883426 4294901760
-0.0022938848 -0.023005871 0.54875243 4294901760
-0.0022938848 -0.023499127 0.54867059 4294901760
-0.0022938848 -0.023992382 0.54858875 4294901760
-0.0022938848 -0.024485638 0.54850692 4294901760
-0.0022938848 -0.024978897 0.54842508 4294901760
-0.0022938848 -0.025472153 0.54834318 4294901760
-0.0022938848 -0.025965407 0.54826134 4294901760
-0.0022938848 -0.026458664 0.54817951 4294901760
-0.0022938848 -0.02695192 0.54809767 4294901760
-0.0022938848 -0.027445175 0.54801583 4294901760
-0.0022938848 -0.027938435 0.547934 4294901760
-0.0022938848 -0.028431689 0.54785216 4294901760
-0.0022938848 -0.028924946 0.54777032 4294901760
-0.0022938848 -0.029418202 0.54768848 4294901760
-0.0022938848 -0.029911458 0.54760665 4294901760
-0.0022938848 -0.030404713 0.54752481 4294901760
-0.0022938848 -0.030897971 0.54744291 4294901760
-0.0022938848 -0.031391226 0.54736108 4294901760
-0.0022938848 -0.031884484 0.54727924 4294901760
-0.0022938848 -0.032377739 0.5471974 4294901760
-0.0022938848 -0.032870993 0.54711556 4294901760
-0.0022938848 -0.033364251 0.54703373 4294901760
-0.0022938848 -0.033857509 0.54695189 4294901760
-0.0022938848 -0.034350764 0.54687005 4294901760
-0.0022938848 -0.034844019 0.54678822 4294901760
-0.0022938848 -0.035337277 0.54670632 4294901760
-0.0022938848 -0.035830531 0.54662448 4294901760
-0.0022938848 -0.036323786 0.54654264 4294901760
-0.0022938848 -0.036817044 0.54646081 4294901760
-0.0022938848 -0.037310302 0.54637897 4294901760
-0.0022938848 -0.037803557 0.54629713 4294901760
-0.0022938848 -0.038296811 0.5462153 4294901760
-0.0022938848 -0.03879007 0.54613346 4294901760
-0.0022938848 -0.039283324 0.54605162 4294901760
-0.0022938848 -0.039776579 0.54596978 4294901760
-0.0022938848 -0.040269841 0.54588795 4294901760
-0.0022938848 -0.040763095 0.54580605 4294901760
-0.0022938848 -0.04125635 0.54572421 4294901760
-0.0022938848 -0.041749608 0.54564238 4294901760
-0.0022938848 -0.042242862 0.54556054 4294901760
-0.0022938848 -0.042736117 0.5454787 4294901760
-0.0022938848 -0.043229375 0.54539686 4294901760
-0.0022938848 -0.043722633 0.54531503 4294901760
-0.0022938848 -0.044215888 0.54523319 4294901760
-0.0022938848 -0.044709142 0.54515135 4294901760
-0.0022938848 -0.045202401 0.54506946 4294901760
-0.0022938848 -0.045695655 0.54498762 4294901760
-0.0022938848 -0.046188913 0.54490578 4294901760
-0.0022938848 -0.046682168 0.54482394 4294901760
-0.0022938848 -0.047175426 0.54474211 4294901760
-0.0022938848 -0.047668681 0.54466027 4294901760
-0.0022938848 0.0016569383 0.55284458 4278255360
-0.0019573015 0.0015964159 0.55320936 4278255360
-0.0016207182 0.0015358934 0.55357409 4278255360
-0.0012841349 0.001475371 0.55393887 4278255360
-0.00094755157 0.0014148485 0.55430365 4278255360
-0.00061096821 0.001354326 0.55466837 4278255360
-0.00027438509 0.0012938036 0.55503315 4278255360
6.2198378e-05 0.0012332811 0.55539787 4278255360
0.00039878162 0.0011727586 0.55576265 4278255360
0.00073536509 0.0011122362 0.55612743 4278255360
0.0010719483 0.0010517137 0.55649215 4278255360
0.0014085316 0.00099119125 0.55685693 4278255360
0.0017451146 0.00093066884 0.55722171 4278255360
0.0020816978 0.00087014644 0.55758643 4278255360
0.0024182815 0.00080962392 0.55795121 4278255360
0.0027548647 0.00074910145 0.55831593 4278255360
0.003091448 0.00068857905 0.55868071 4278255360
0.0034280312 0.00062805659 0.55904549 4278255360
0.0037646149 0.00056753401 0.55941021 4278255360
0.0041011977 0.00050701166 0.55977499 4278255360
0.0044377814 0.0004464892 0.56013978 4278255360
0.0047743642 0.00038596673 0.5605045 4278255360
0.0051109479 0.00032544427 0.56086928 4278255360
0.0054475311 0.00026492181 0.561234 4278255360
0.0057841139 0.00020439934 0.56159878 4278255360
0.0061206976 0.00014387688 0.56196356 4278255360
0.0064572804 8.3354535e-05 0.56232828 4278255360
0.006793865 2.2831955e-05 0.56269306 4278255360
0.0071304478 -3.7690508e-05 0.56305784 4278255360
0.0074670305 -9.8212855e-05 0.56342256 4278255360
0.0078036143 -0.00015873543 0.56378734 4278255360
0.008140197 -0.0002192579 0.56415212 4278255360
0.0084767807 -0.00027978024 0.56451684 4278255360
0.0088133644 -0.00034030294 0.56488162 4278255360
0.0091499472 -0.00040082517 0.56524634 4278255360
0.00948653 -0.00046134763 0.56561112 4278255360
0.0098231146 -0.00052187033 0.5659759 4278255360
0.010159697 -0.00058239256 0.56634063 4278255360
0.01049628 -0.00064291502 0.56670541 4278255360
0.010832863 -0.00070343749 0.56707019 4278255360
0.011169448 -0.00076395995 0.56743491 4278255360
0.01150603 -0.00082448241 0.56779969 4278255360
0.011842613 -0.00088500488 0.56816441 4278255360
0.012179197 -0.00094552734 0.56852919 4278255360
0.012515781 -0.0010060498 0.56889397 4278255360
0.012852363 -0.0010665723 0.56925869 4278255360
0.013188947 -0.0011270947 0.56962347 4278255360
0.013525531 -0.0011876172 0.56998825 4278255360
0.013862113 -0.0012481397 0.57035297 4278255360
0.014198696 -0.0013086621 0.57071775 4278255360
0.01453528 -0.0013691846 0.57108247 4278255360
0.014871864 -0.001429707 0.57144725 4278255360
0.015208445 -0.0014902293 0.57181203 4278255360
0.015545029 -0.0015507517 0.57217675 4278255360
0.015881615 -0.0016112744 0.57254153 4278255360
0.016218197 -0.0016717969 0.57290632 4278255360
0.01655478 -0.0017323194 0.57327104 4278255360
0.016891362 -0.0017928418 0.57363582 4278255360
0.017227946 -0.0018533641 0.5740006 4278255360
0.01756453 -0.0019138865 0.57436532 4278255360
0.017901113 -0.0019744092 0.5747301 4278255360
0.018237697 -0.0020349317 0.57509482 4278255360
0.018574279 -0.0020954541 0.5754596 4278255360
0.018910863 -0.0021559766 0.57582438 4278255360
0.019247446 -0.0022164988 0.5761891 4278255360
0.019584028 -0.0022770213 0.57655388 4278255360
0.019920614 -0.0023375442 0.57691866 4278255360
0.020257197 -0.0023980667 0.57728338 4278255360
0.020593779 -0.0024585887 0.57764816 4278255360
0.020930363 -0.0025191111 0.57801288 4278255360
0.021266945 -0.0025796336 0.57837766 4278255360
0.021603528 -0.0026401561 0.57874244 4278255360
0.021940114 -0.002700679 0.57910717 4278255360
0.022276696 -0.0027612015 0.57947195 4278255360
0.02261328 -0.0028217235 0.57983673 4278255360
0.022949863 -0.0028822459 0.58020145 4278255360
0.023286445 -0.0029427684 0.58056623 4278255360
0.023623029 -0.0030032909 0.58093095 4278255360
0.023959611 -0.0030638133 0.58129573 4278255360
0.024296196 -0.0031243358 0.58166051 4278255360
0.02463278 -0.0031848582 0.58202523 4278255360
0.024969362 -0.0032453807 0.58239001 4278255360
0.025305945 -0.0033059032 0.58275479 4278255360
0.025642527 -0.0033664256 0.58311951 4278255360
0.025979111 -0.0034269481 0.58348429 4278255360
0.026315697 -0.0034874706 0.58384907 4278255360
0.026652278 -0.003547993 0.58421379 4278255360
0.026988862 -0.0036085155 0.58457857 4278255360
0.027325446 -0.0036690379 0.58494329 4278255360
0.027662028 -0.0037295604 0.58530807 4278255360
0.027998611 -0.0037900829 0.58567286 4278255360
0.028335195 -0.0038506053 0.58603758 4278255360
0.028671779 -0.0039111278 0.58640236 4278255360
0.029008362 -0.0039716503 0.58676714 4278255360
0.029344946 -0.0040321727 0.58713186 4278255360
0.029681526 -0.0040926952 0.58749664 4278255360
0.03001811 -0.0041532177 0.58786136 4278255360
0.030354697 -0.0042137401 0.58822614 4278255360
0.030691277 -0.0042742626 0.58859092 4278255360
0.031027861 -0.004334785 0.58895564 4278255360
0.031364445 -0.0043953075 0.58932042 4278255360
-0.0022938848 0.0016569383 0.55284458 4278190335
-0.0026636303 0.0016018441 0.55317664 4278190335
-0.0030333756 0.0015467498 0.5535087 4278190335
-0.0034031211 0.0014916556 0.5538407 4278190335
-0.0037728664 0.0014365613 0.55417275 4278190335
-0.0041426122 0.0013814671 0.55450481 4278190335
-0.0045123575 0.0013263728 0.55483687 4278190335
-0.0048821028 0.0012712786 0.55516887 4278190335
-0.0052518481 0.0012161843 0.55550092 4278190335
-0.0056215939 0.0011610901 0.55583298 4278190335
-0.0059913397 0.0011059958 0.55616504 4278190335
-0.0063610845 0.0010509016 0.55649704 4278190335
-0.0067308303 0.00099580735 0.55682909 4278190335
-0.0071005756 0.0009407131 0.55716115 4278190335
-0.0074703214 0.00088561885 0.55749321 4278190335
-0.0078400671 0.00083052454 0.55782527 4278190335
-0.0082098115 0.00077543035 0.55815727 4278190335
-0.0085795578 0.0007203361 0.55848932 4278190335
-0.0089493031 0.00066524185 0.55882138 4278190335
-0.0093190484 0.0006101476 0.55915344 4278190335
-0.0096887946 0.00055505335 0.55948544 4278190335
-0.010058539 0.0004999591 0.55981749 4278190335
-0.010428284 0.00044486485 0.56014955 4278190335
-0.010798031 0.0003897706 0.56048161 4278190335
-0.011167776 0.00033467636 0.56081361 4278190335
-0.011537521 0.00027958211 0.56114566 4278190335
-0.011907266 0.00022448786 0.56147772 4278190335
-0.012277013 0.00016939349 0.56180978 4278190335
-0.012646758 0.00011429936 0.56214184 4278190335
-0.013016502 5.9205107e-05 0.56247383 4278190335
-0.013386249 4.1107414e-06 0.56280589 4278190335
-0.013755994 -5.0983392e-05 0.56313795 4278190335
-0.014125739 -0.00010607764 0.56347001 4278190335
-0.014495485 -0.00016117201 0.563802 4278190335
-0.014865231 -0.00021626614 0.56413406 4278190335
-0.015234975 -0.00027136039 0.56446612 4278190335
-0.015604721 -0.00032645464 0.56479818 4278190335
-0.015974466 -0.00038154889 0.56513023 4278190335
-0.016344212 -0.00043664314 0.56546223 4278190335
-0.016713958 -0.00049173739 0.56579429 4278190335
-0.017083704 -0.00054683164 0.56612635 4278190335
-0.017453447 -0.00060192589 0.5664584 4278190335
-0.017823193 -0.00065702014 0.5667904 4278190335
-0.018192939 -0.00071211439 0.56712246 4278190335
-0.018562684 -0.00076720864 0.56745452 4278190335
-0.01893243 -0.00082230289 0.56778657 4278190335
-0.019302176 -0.00087739713 0.56811857 4278190335
-0.019671921 -0.00093249138 0.56845063 4278190335
-0.020041667 -0.00098758563 0.56878269 4278190335
-0.020411413 -0.0010426799 0.56911474 4278190335
-0.020781158 -0.0010977741 0.5694468 4278190335
-0.021150902 -0.0011528684 0.5697788 4278190335
-0.021520648 -0.0012079626 0.57011086 4278190335
-0.021890393 -0.0012630566 0.57044291 4278190335
-0.022260141 -0.0013181514 0.57077497 4278190335
-0.022629885 -0.0013732454 0.57110697 4278190335
-0.022999631 -0.0014283396 0.57143903 4278190335
-0.023369376 -0.0014834339 0.57177109 4278190335
-0.02373912 -0.0015385281 0.57210314 4278190335
-0.024108866 -0.0015936221 0.57243514 4278190335
-0.024478612 -0.0016487169 0.5727672 4278190335
-0.024848359 -0.0017038109 0.57309926 4278190335
-0.025218103 -0.0017589051 0.57343131 4278190335
-0.025587847 -0.0018139994 0.57376337 4278190335
-0.025957594 -0.0018690936 0.57409537 4278190335
-0.026327338 -0.0019241876 0.57442743 4278190335
-0.026697086 -0.0019792824 0.57475948 4278190335
-0.027066831 -0.0020343764 0.57509154 4278190335
-0.027436577 -0.0020894706 0.57542354 4278190335
-0.027806321 -0.0021445649 0.5757556 4278190335
-0.028176066 -0.0021996591 0.57608765 4278190335
-0.028545812 -0.0022547534 0.57641971 4278190335
-0.028915558 -0.0023098476 0.57675171 4278190335
-0.029285304 -0.0023649419 0.57708377 4278190335
-0.029655049 -0.0024200361 0.57741582 4278190335
-0.030024793 -0.0024751304 0.57774788 4278190335
-0.030394539 -0.0025302246 0.57807994 4278190335
-0.030764284 -0.0025853189 0.57841194 4278190335
-0.03113403 -0.0026404131 0.57874399 4278190335
-0.031503774 -0.0026955074 0.57907605 4278190335
-0.031873524 -0.0027506016 0.57940811 4278190335
-0.032243267 -0.0028056959 0.57974011 4278190335
-0.032613009 -0.0028607901 0.58007216 4278190335
-0.032982759 -0.0029158844 0.58040422 4278190335
-0.033352502 -0.0029709786 0.58073628 4278190335
-0.033722248 -0.0030260729 0.58106828 4278190335
-0.034091994 -0.0030811671 0.58140033 4278190335
-0.03446174 -0.0031362614 0.58173239 4278190335
-0.034831483 -0.0031913556 0.58206445 4278190335
-0.035201229 -0.0032464499 0.58239651 4278190335
-0.035570975 -0.0033015441 0.58272851 4278190335
-0.035940722 -0.0033566384 0.58306056 4278190335
-0.036310468 -0.0034117326 0.58339262 4278190335
-0.036680214 -0.0034668269 0.58372468 4278190335
-0.037049957 -0.0035219211 0.58405668 4278190335
-0.037419703 -0.0035770154 0.58438873 4278190335
-0.037789449 -0.0036321096 0.58472079 4278190335
-0.038159195 -0.0036872039 0.58505285 4278190335
-0.038528942 -0.0037422981 0.58538485 4278190335
-0.038898684 -0.0037973924 0.5857169 4278190335
-0.03926843 -0.0038524866 0.58604896 4278190335
-0.0022938848 0.0016569383 0.55284458 4294967295
-0.0015543938 0.0017671268 0.55218047 4294967295
-0.00081490283 0.0018773153 0.55151641 4294967295
-7.541175e-05 0.0019875038 0.5508523 4294967295
0.0006640791 0.0020976923 0.55018824 4294967295
0.0014035702 0.0022078808 0.54952413 4294967295
0.0021430613 0.0023180693 0.54886007 4294967295
0.0028825523 0.0024282578 0.54819596 4294967295
0.0036220429 0.0025384463 0.5475319 4294967295
0.0043615345 0.0026486351 0.54686779 4294967295
0.0051010251 0.0027588236 0.54620373 4294967295
0.0058405157 0.0028690121 0.54553962 4294967295
0.0065800073 0.0029792006 0.54487556 4294967295
0.0073194979 0.0030893891 0.54421145 4294967295
0.0080589894 0.0031995776 0.54354739 4294967295
0.00879848 0.0033097663 0.54288328 4294967295
0.0095379706 0.0034199546 0.54221916 4294967295
0.010277462 0.0035301433 0.54155511 4294967295
0.011016954 0.0036403318 0.54089099 4294967295
0.011756443 0.0037505201 0.54022694 4294967295
0.012495935 0.0038607088 0.53956282 4294967295
0.013235426 0.0039708968 0.53889877 4294967295
0.013974916 0.0040810858 0.53823465 4294967295
0.014714409 0.0041912743 0.5375706 4294967295
0.015453899 0.0043014628 0.53690648 4294967295
0.01619339 0.0044116513 0.53624243 4294967295
0.016932881 0.0045218398 0.53557831 4294967295
0.017672373 0.0046320288 0.53491426 4294967295
0.018411864 0.0047422168 0.53425014 4294967295
0.019151352 0.0048524053 0.53358603 4294967295
0.019890845 0.0049625942 0.53292197 4294967295
0.020630335 0.0050727827 0.53225785 4294967295
0.021369826 0.0051829708 0.5315938 4294967295
0.022109319 0.0052931597 0.53092968 4294967295
0.022848809 0.0054033482 0.53026563 4294967295
0.0235883 0.0055135367 0.52960151 4294967295
0.024327792 0.0056237252 0.52893746 4294967295
0.025067283 0.0057339137 0.52827334 4294967295
0.025806772 0.0058441018 0.52760929 4294967295
0.026546262 0.0059542903 0.52694517 4294967295
0.027285755 0.0060644792 0.52628112 4294967295
0.028025245 0.0061746677 0.525617 4294967295
0.028764736 0.0062848558 0.52495295 4294967295
0.029504228 0.0063950447 0.52428883 4294967295
0.030243717 0.0065052332 0.52362472 4294967295
0.03098321 0.0066154217 0.52296066 4294967295
0.031722702 0.0067256102 0.52229655 4294967295
0.032462191 0.0068357987 0.52163249 4294967295
0.033201683 0.0069459872 0.52096838 4294967295
0.033941176 0.0070561757 0.52030432 4294967295
0.034680665 0.0071663642 0.51964021 4294967295
0.035420153 0.0072765527 0.51897615 4294967295
0.036159646 0.0073867412 0.51831204 4294967295
0.036899135 0.0074969293 0.51764798 4294967295
0.037638631 0.0076071187 0.51698387 4294967295
0.038378119 0.0077173067 0.51631981 4294967295
0.039117612 0.0078274952 0.5156557 4294967295
0.039857101 0.0079376837 0.51499164 4294967295
0.040596589 0.0080478722 0.51432753 4294967295
0.041336082 0.0081580607 0.51366341 4294967295
0.042075574 0.0082682502 0.51299936 4294967295
0.042815067 0.0083784387 0.51233524 4294967295
0.043554556 0.0084886272 0.51167119 4294967295
0.044294048 0.0085988147 0.51100707 4294967295
0.045033537 0.0087090032 0.51034302 4294967295
0.045773029 0.0088191917 0.5096789 4294967295
0.046512522 0.0089293811 0.50901484 4294967295
0.047252014 0.0090395696 0.50835073 4294967295
0.047991503 0.0091497581 0.50768667 4294967295
0.048730992 0.0092599466 0.50702256 4294967295
0.049470484 0.0093701351 0.5063585 4294967295
0.050209973 0.0094803227 0.50569439 4294967295
0.050949469 0.0095905121 0.50503027 4294967295
0.051688958 0.0097007006 0.50436622 4294967295
0.05242845 0.0098108891 0.5037021 4294967295
0.053167939 0.0099210776 0.50303805 4294967295
0.053907428 0.010031265 0.50237393 4294967295
0.05464692 0.010141454 0.50170988 4294967295
0.055386409 0.010251642 0.50104576 4294967295
0.056125905 0.010361832 0.50038171 4294967295
0.056865394 0.01047202 0.49971759 4294967295
0.057604887 0.010582209 0.49905351 4294967295
0.058344375 0.010692397 0.49838942 4294967295
0.059083864 0.010802585 0.49772534 4294967295
0.059823357 0.010912773 0.49706125 4294967295
0.060562849 0.011022963 0.49639717 4294967295
0.061302342 0.011133151 0.49573308 4294967295
0.062041834 0.01124334 0.495069 4294967295
0.062781319 0.011353528 0.49440491 4294967295
0.063520811 0.011463717 0.49374083 4294967295
0.064260304 0.011573905 0.49307674 4294967295
0.064999796 0.011684094 0.49241266 4294967295
0.065739289 0.011794282 0.49174857 4294967295
0.066478774 0.011904471 0.49108446 4294967295
0.067218266 0.012014659 0.49042037 4294967295
0.067957759 0.012124848 0.48975629 4294967295
0.068697251 0.012235036 0.4890922 4294967295
0.069436744 0.012345225 0.48842812 4294967295
0.070176236 0.012455413 0.48776403 4294967295
0.070915721 0.012565602 0.48709995 4294967295
0.071655214 0.01267579 0.48643586 4294967295
