# .PCD v0.7 - Point Cloud Data file format
VERSION 0.7
FIELDS x y z rgb
SIZE 4 4 4 4
TYPE F F F U
COUNT 1 1 1 1
WIDTH 805
HEIGHT 1
VIEWPOINT 0 0 0 1 0 0 0
POINTS 805
DATA ascii
-0.066863276 0.011074119 0.59000003 4282274119
-0.065057032 0.011092889 0.59100002 4282208586
-0.063137464 0.013013108 0.59100002 4281813828
-0.061321478 0.014958594 0.59200001 4282142531
-0.057767108 0.015034398 0.59500003 4281878591
-0.054083169 0.015084933 0.597 4280826925
-0.052231457 0.015110203 0.59800005 4281748286
-0.048427694 0.01513547 0.59900004 4280437039
-0.046482142 0.01513547 0.59900004 4279914029
-0.04461094 0.015160738 0.60000002 4279193384
-0.080940045 0.016568378 0.58100003 4282667845
-0.079052947 0.016568378 0.58100003 4281482804
-0.057767108 0.016967615 0.59500003 4280825903
-0.055928387 0.016996132 0.59600002 4281286704
-0.054083169 0.017024647 0.597 4281352497
-0.05214411 0.017024647 0.597 4281156401
-0.048427694 0.017081684 0.59900004 4279778080
-0.046482142 0.017081684 0.59900004 4279846951
-0.04461094 0.017110201 0.60000002 4279126047
-0.042804345 0.017167235 0.60200006 4279325222
-0.040916905 0.017195752 0.60300004 4279260711
-0.039022967 0.017224267 0.60400003 4279327017
-0.037061173 0.017224267 0.60400003 4279656754
-0.035157491 0.017252784 0.60500002 4279985719
-0.033192452 0.017252784 0.60500002 4279525168
-0.03122741 0.017252784 0.60500002 4279655984
-0.029262368 0.017252784 0.60500002 4280116537
-0.027342446 0.017281301 0.60600001 4280379196
-0.025374157 0.017281301 0.60600001 4280247610
-0.023444494 0.01730982 0.60700005 4280115770
-0.021508332 0.017338336 0.60800004 4280442940
-0.019565674 0.017366853 0.60900003 4280507963
-0.015763396 0.017537955 0.61500001 4282414163
-0.079052947 0.018456105 0.58100003 4280430370
-0.062923804 0.018710235 0.58900005 4282207542
-0.061217893 0.018773766 0.59100002 4282471748
-0.059499003 0.018837299 0.59300005 4281813820
-0.057767108 0.018900832 0.59500003 4280825901
-0.055928387 0.018932598 0.59600002 4280957741
-0.054083169 0.018964363 0.597 4280957739
-0.05214411 0.018964363 0.597 4280891946
-0.050289154 0.018996131 0.59800005 4281945402
-0.048427694 0.019027896 0.59900004 4280172584
-0.046482142 0.019027896 0.59900004 4279583527
-0.04461094 0.019059662 0.60000002 4279126049
-0.042804345 0.019123195 0.60200006 4279390502
-0.040916905 0.01915496 0.60300004 4279260197
-0.039022967 0.019186726 0.60400003 4278602781
-0.037061173 0.019186726 0.60400003 4278669087
-0.035157491 0.019218491 0.60500002 4279130408
-0.033192452 0.019218491 0.60500002 4279064869
-0.03122741 0.019218491 0.60500002 4279064869
-0.029262368 0.019218491 0.60500002 4279328041
-0.027342446 0.019250257 0.60600001 4278999589
-0.025416031 0.019282026 0.60700005 4278933796
-0.023483116 0.019313792 0.60800004 4278933542
-0.021543706 0.019345557 0.60900003 4278934312
-0.0195978 0.019377323 0.61000001 4279131691
-0.017703159 0.019472621 0.61300004 4279459373
-0.015763396 0.019536152 0.61500001 4279590961
-0.013833026 0.019631451 0.61800003 4279590191
-0.011864032 0.019694984 0.62 4279984951
-0.0098661585 0.019726751 0.62100005 4278997804
-0.0078744283 0.019790282 0.62300003 4279523121
-0.062923804 0.020623956 0.58900005 4282403890
-0.061217893 0.020693986 0.59100002 4282406207
-0.059499003 0.020764017 0.59300005 4281024050
-0.05767002 0.020799031 0.59400004 4280496938
-0.055834547 0.020834047 0.59500003 4280364836
-0.053992577 0.020869061 0.59600002 4280957227
-0.05214411 0.020904077 0.597 4280628260
-0.050289154 0.020939093 0.59800005 4281286702
-0.048346847 0.020939093 0.59800005 4279778596
-0.04655974 0.021009123 0.60000002 4279321125
-0.044685289 0.021044137 0.60100001 4279125795
-0.042804345 0.021079155 0.60200006 4279193125
-0.040916905 0.021114169 0.60300004 4279260199
-0.039022967 0.021149185 0.60400003 4279062820
-0.037122533 0.021184199 0.60500002 4279326504
-0.035157491 0.021184199 0.60500002 4279063332
-0.033192452 0.021184199 0.60500002 4279064099
-0.03122741 0.021184199 0.60500002 4278866720
-0.029310735 0.021219213 0.60600001 4278207252
-0.027342446 0.021219213 0.60600001 4279063334
-0.025416031 0.02125423 0.60700005 4278801956
-0.023483116 0.021289244 0.60800004 4279065128
-0.021579081 0.021359274 0.61000001 4278801956
-0.019629927 0.02139429 0.611 4278801956
-0.017732039 0.021499336 0.61400002 4278867236
-0.015789028 0.021569367 0.61600006 4278867236
-0.013833026 0.021639397 0.61800003 4279065128
-0.011883168 0.021744443 0.62100005 4279065128
-0.0098979333 0.021814473 0.62300003 4278540070
-0.0078997072 0.021884501 0.625 4278737451
-0.0059072729 0.022024563 0.62900001 4279328304
-0.0038827101 0.02212961 0.63200003 4279590963
-0.001835764 0.022199638 0.634 4279589426
0.00022417397 0.02226967 0.63600004 4279326256
0.0022971039 0.0223397 0.63800001 4280770883
-0.069976978 0.022346355 0.58400005 4282798914
-0.062923804 0.022537677 0.58900005 4283983694
-0.059499003 0.022690734 0.59300005 4280432428
-0.05767002 0.022728998 0.59400004 4280563501
-0.055834547 0.022767263 0.59500003 4280431143
-0.053992577 0.022805527 0.59600002 4280825641
-0.05214411 0.022843789 0.597 4280694053
-0.050289154 0.022882055 0.59800005 4281024302
-0.048346847 0.022882055 0.59800005 4279647523
-0.04655974 0.022958584 0.60000002 4279124513
-0.044685289 0.022996847 0.60100001 4279257635
-0.042804345 0.023035113 0.60200006 4279390504
-0.040984761 0.023111641 0.60400003 4279325992
-0.039022967 0.023111641 0.60400003 4279391785
-0.037122533 0.023149906 0.60500002 4279654955
-0.035157491 0.023149906 0.60500002 4279326504
-0.033192452 0.023149906 0.60500002 4279129892
-0.031279024 0.023188168 0.60600001 4279129892
-0.029310735 0.023188168 0.60600001 4279391015
-0.027387567 0.023226434 0.60700005 4279258916
-0.025457902 0.023264699 0.60800004 4278204175
-0.02352174 0.023302963 0.60900003 4279191842
-0.021614457 0.02337949 0.611 4279060767
-0.019694183 0.02345602 0.61300004 4279981867
-0.017760918 0.023532547 0.61500001 4278997025
-0.01581466 0.023609078 0.61700004 4279063332
-0.01385541 0.023685604 0.61900002 4279129125
-0.011883168 0.023762135 0.62100005 4278405915
-0.0099138208 0.023876926 0.62400001 4279394095
-0.0079123471 0.023953456 0.62600005 4278670372
-0.0059166648 0.024106514 0.63000005 4278801958
-0.0038827101 0.024183042 0.63200003 4278867751
-0.0018386596 0.024297835 0.63500005 4278999337
0.00022452643 0.024374362 0.63700002 4278801958
0.0023007046 0.024450893 0.63900006 4278999339
0.0043967227 0.024565684 0.64200002 4279524916
0.0065021333 0.024642214 0.64400005 4279982648
-0.061321478 0.024575936 0.59200001 4284445538
-0.059599336 0.024658965 0.59400004 4280695085
-0.057767108 0.024700478 0.59500003 4280958257
-0.055928387 0.02474199 0.59600002 4280496422
-0.053992577 0.02474199 0.59600002 4281023020
-0.05214411 0.024783503 0.597 4281155118
-0.050289154 0.024825018 0.59800005 4280959022
-0.048427694 0.024866531 0.59900004 4279385889
-0.04655974 0.024908045 0.60000002 4279256099
-0.044685289 0.024949558 0.60100001 4279191588
-0.04287545 0.025032585 0.60300004 4279193123
-0.040984761 0.025074098 0.60400003 4279063847
-0.039087575 0.025115611 0.60500002 4279063847
-0.037122533 0.025115611 0.60500002 4279327017
-0.035157491 0.025115611 0.60500002 4279194918
-0.033247314 0.025157124 0.60600001 4278932000
-0.031279024 0.025157124 0.60600001 4278866207
-0.029310735 0.025157124 0.60600001 4278199808
-0.027387567 0.02519864 0.60700005 4280045867
-0.025457902 0.025240153 0.60800004 4278790931
-0.023560364 0.025323179 0.61000001 4278854931
-0.021649834 0.025406206 0.61200005 4278854418
-0.01972631 0.025489232 0.61400002 4279117590
-0.017789798 0.025572261 0.61600006 4278199307
-0.015840292 0.025655286 0.61800003 4279584549
-0.013877793 0.025738312 0.62 4278862109
-0.011902303 0.025821339 0.62200004 4278201095
-0.0099297073 0.02594588 0.625 4278200067
-0.007924987 0.026028907 0.62700003 4278199555
-0.0059166648 0.026153447 0.63000005 4278202125
-0.0038888536 0.026277987 0.63300002 4278665244
-0.0018415551 0.026402527 0.63600004 4279784490
0.00022487891 0.026485553 0.63800001 4280180018
0.0023043051 0.026568582 0.64000005 4279260713
0.0044035711 0.026693121 0.64300001 4278998824
0.0065122293 0.026776148 0.64500004 4279195433
0.008620535 0.026817661 0.64600003 4279126308
-0.07918901 0.02605178 0.58200002 4280759067
-0.063244298 0.026499404 0.59200001 4281813818
-0.059699669 0.026633693 0.59500003 4280892718
-0.057864193 0.026678454 0.59600002 4281024050
-0.055928387 0.026678454 0.59600002 4281023280
-0.054083169 0.026723217 0.597 4281089327
-0.05214411 0.026723217 0.597 4281155888
-0.050289154 0.026767982 0.59800005 4280631340
-0.048427694 0.026812743 0.59900004 4279254816
-0.04655974 0.026857505 0.60000002 4279387685
-0.044759646 0.026947033 0.60200006 4279060515
-0.04287545 0.026991794 0.60300004 4279193123
-0.040984761 0.027036555 0.60400003 4279062818
-0.039087575 0.027081318 0.60500002 4279260711
-0.037122533 0.027081318 0.60500002 4279458603
-0.035157491 0.027081318 0.60500002 4279064099
-0.033247314 0.027126079 0.60600001 4279327271
-0.031279024 0.027126079 0.60600001 4279327271
-0.029310735 0.027126079 0.60600001 4278203919
-0.027387567 0.027170844 0.60700005 4278927386
-0.025499774 0.027260369 0.60900003 4279251482
-0.023560364 0.02730513 0.61000001 4280237866
-0.021649834 0.027394656 0.61200005 4280368682
-0.01972631 0.02748418 0.61400002 4279513371
-0.017789798 0.027573707 0.61600006 4278198533
-0.015865922 0.027707992 0.61900002 4279979307
-0.013900178 0.027797518 0.62100005 4278202380
-0.011921438 0.027887043 0.62300003 4279257121
-0.0099297073 0.027976567 0.625 4279718699
-0.007937626 0.028110856 0.62800002 4279323941
-0.0059260563 0.028245144 0.63100004 4279586859
-0.0038949971 0.028379429 0.634 4279586859
-0.0018415551 0.028468955 0.63600004 4280245043
0.0002252314 0.028603245 0.63900006 4280113457
0.0023079053 0.028692769 0.64100003 4279981617
0.0044104201 0.028827056 0.64400005 4279653674
0.0065122293 0.028871819 0.64500004 4279325992
0.0086338799 0.028961342 0.64700001 4278862623
-0.077564307 0.028038785 0.58400005 4280759067
-0.075667478 0.028038785 0.58400005 4282536761
-0.070456266 0.028230827 0.588 4280825891
-0.068663023 0.028278843 0.58900005 4284905571
-0.063351132 0.028470889 0.59300005 4281747773
-0.061528649 0.0285189 0.59400004 4282274117
-0.059800006 0.028614921 0.59600002 4281812796
-0.056022223 0.028662933 0.597 4281878589
-0.054083169 0.028662933 0.597 4282010175
-0.052231457 0.028710946 0.59800005 4281616439
-0.050289154 0.028710946 0.59800005 4280433959
-0.048427694 0.028758958 0.59900004 4279649320
-0.04655974 0.028806968 0.60000002 4279519271
-0.044759646 0.028902993 0.60200006 4279323687
-0.04287545 0.028951004 0.60300004 4279193125
-0.040984761 0.028999016 0.60400003 4278931748
-0.039087575 0.029047025 0.60500002 4279458605
-0.037122533 0.029047025 0.60500002 4279327789
-0.035157491 0.029047025 0.60500002 4278735652
-0.033247314 0.029095037 0.60600001 4279130410
-0.031279024 0.029095037 0.60600001 4279524398
-0.029359104 0.02914305 0.60700005 4280111406
-0.027432686 0.029191062 0.60800004 4278199558
-0.025499774 0.029239073 0.60900003 4278396175
-0.023598986 0.029335095 0.611 4279843623
-0.021685209 0.02943112 0.61300004 4279973924
-0.019758437 0.029527143 0.61500001 4281225272
-0.017818678 0.029623168 0.61700004 4278199298
-0.015865922 0.029719189 0.61900002 4278728724
-0.013900178 0.029815214 0.62100005 4278397970
-0.011921438 0.029911235 0.62300003 4280045100
-0.0099455956 0.030055271 0.62600005 4278665498
-0.007937626 0.030151293 0.62800002 4279455014
-0.0059260563 0.030295329 0.63100004 4278203666
-0.0038949971 0.030439362 0.634 4278665759
-0.0018444506 0.030583398 0.63700002 4278534941
0.0002252314 0.030679423 0.63900006 4278202632
0.0023115058 0.030823456 0.64200002 4278468632
0.0044104201 0.030919481 0.64400005 4279587883
0.0065223258 0.031015502 0.64600003 4279391017
0.0086338799 0.031063514 0.64700001 4278600734
-0.072366096 0.0301413 0.588 4281087013
-0.068896174 0.030295083 0.59100002 4280562719
-0.063457966 0.030448865 0.59400004 4285169776
-0.061735813 0.030551385 0.59600002 4282537802
-0.059800006 0.030551385 0.59600002 4282010175
-0.057961278 0.030602647 0.597 4283655000
-0.056022223 0.030602647 0.597 4284708712
-0.050373249 0.030705169 0.59900004 4280368934
-0.04850854 0.030756429 0.60000002 4279650090
-0.046637338 0.030807689 0.60100001 4279650857
-0.044759646 0.030858953 0.60200006 4279388967
-0.04287545 0.030910213 0.60300004 4279587883
-0.040984761 0.030961473 0.60400003 4279063336
-0.039087575 0.031012733 0.60500002 4279063847
-0.037122533 0.031012733 0.60500002 4279458605
-0.035157491 0.031012733 0.60500002 4279129640
-0.033192452 0.031012733 0.60500002 4279195433
-0.031279024 0.031063993 0.60600001 4279063847
-0.029359104 0.031115256 0.60700005 4279716902
-0.027432686 0.031166516 0.60800004 4278199815
-0.025499774 0.031217776 0.60900003 4278329869
-0.023598986 0.031320296 0.611 4278789138
-0.021685209 0.03142282 0.61300004 4278985750
-0.019758437 0.03152534 0.61500001 4278854164
-0.017818678 0.031627864 0.61700004 4278924568
-0.015865922 0.031730384 0.61900002 4279781158
-0.013900178 0.031832907 0.62100005 4279254301
-0.011940574 0.031986687 0.62400001 4279321631
-0.0099455956 0.032089207 0.62600005 4279586086
-0.0079502659 0.032242991 0.62900001 4279059742
-0.0059354473 0.032396771 0.63200003 4279454246
-0.003901141 0.032550555 0.63500005 4279454246
-0.0018444506 0.032653075 0.63700002 4279059488
0.00022558388 0.032806858 0.64000005 4278862363
0.0023115058 0.032909378 0.64200002 4278203148
0.0044104201 0.033011902 0.64400005 4279258918
0.0065223258 0.033114422 0.64600003 4279456810
0.0086338799 0.033165682 0.64700001 4278863138
-0.069012746 0.032269809 0.59200001 4280955681
-0.05805837 0.032596871 0.59800005 4287934363
-0.056116067 0.032596871 0.59800005 4284907374
-0.054173764 0.032596871 0.59800005 4281814333
-0.052231457 0.032596871 0.59800005 4282078273
-0.050373249 0.03265138 0.59900004 4280830001
-0.04850854 0.032705892 0.60000002 4279912746
-0.046637338 0.0327604 0.60100001 4279781930
-0.044759646 0.032814912 0.60200006 4279717420
-0.04287545 0.032869421 0.60300004 4279652906
-0.040984761 0.032923929 0.60400003 4279522603
-0.039087575 0.032978438 0.60500002 4279523373
-0.037122533 0.032978438 0.60500002 4279524400
-0.035157491 0.032978438 0.60500002 4279129640
-0.033192452 0.032978438 0.60500002 4279195433
-0.031279024 0.033032946 0.60600001 4278205971
-0.029359104 0.033087462 0.60700005 4279389734
-0.027432686 0.033141971 0.60800004 4279718697
-0.025499774 0.033196479 0.60900003 4280045865
-0.023598986 0.033305496 0.611 4281032247
-0.021685209 0.033414517 0.61300004 4280966202
-0.019790567 0.033578049 0.61600006 4280900411
-0.017847557 0.033687066 0.61800003 4279914029
-0.015891554 0.033796087 0.62 4279256099
-0.013922561 0.033905108 0.62200004 4278202896
-0.011940574 0.034014124 0.62400001 4278200069
-0.0099455956 0.034123145 0.62600005 4278200068
-0.0079502659 0.034286674 0.62900001 4278199554
-0.0059354473 0.034450203 0.63200003 4278200325
-0.003901141 0.034613736 0.63500005 4278203924
-0.0018473462 0.034777261 0.63800001 4278467353
0.00022558388 0.034886286 0.64000005 4279717934
0.0023115058 0.034995303 0.64200002 4278336279
0.0044104201 0.035104323 0.64400005 4279588396
0.0065223258 0.03521334 0.64600003 4279851055
0.0086338799 0.035267852 0.64700001 4284913530
-0.070935562 0.034193277 0.59200001 4281021987
-0.04850854 0.034655351 0.60000002 4280568116
-0.046637338 0.034713108 0.60100001 4279582248
-0.04287545 0.034828629 0.60300004 4280375096
-0.040984761 0.034886386 0.60400003 4280047412
-0.039022967 0.034886386 0.60400003 4279653424
-0.037122533 0.034944147 0.60500002 4279457328
-0.035157491 0.034944147 0.60500002 4279457326
-0.033192452 0.034944147 0.60500002 4279523119
-0.031279024 0.035001904 0.60600001 4279523119
-0.029359104 0.035059664 0.60700005 4279457580
-0.027432686 0.035117425 0.60800004 4279391787
-0.025541645 0.035232939 0.61000001 4279456810
-0.023637611 0.03534846 0.61200005 4279719467
-0.021720584 0.035463978 0.61400002 4279456295
-0.019790567 0.035579495 0.61600006 4279390502
-0.017847557 0.035695013 0.61800003 4279456808
-0.015891554 0.035810526 0.62 4279588394
-0.013922561 0.035926048 0.62200004 4279391017
-0.011940574 0.036041565 0.62400001 4279719467
-0.0099455956 0.036157083 0.62600005 4279653674
-0.0079502659 0.036330357 0.62900001 4279587883
-0.0059354473 0.036503635 0.63200003 4279653676
-0.003901141 0.036676913 0.63500005 4279522090
-0.0018473462 0.036850188 0.63800001 4279718699
0.00022558388 0.036965709 0.64000005 4280047410
0.0023151063 0.037138984 0.64300001 4279850031
0.0044104201 0.037196744 0.64400005 4279587629
0.0065223258 0.037312262 0.64600003 4279125031
0.0086338799 0.037370019 0.64700001 4287411101
-0.040984761 0.036848843 0.60400003 4285371005
-0.039022967 0.036848843 0.60400003 4283529826
-0.037122533 0.036909852 0.60500002 4281819976
-0.035157491 0.036909852 0.60500002 4281030462
-0.033192452 0.036909852 0.60500002 4281096768
-0.031279024 0.036970858 0.60600001 4280176436
-0.029359104 0.03703187 0.60700005 4279847986
-0.027432686 0.037092876 0.60800004 4280506686
-0.025541645 0.03721489 0.61000001 4279915059
-0.023637611 0.037336908 0.61200005 4279915313
-0.021720584 0.037458923 0.61400002 4279783725
-0.019790567 0.037580941 0.61600006 4280113203
-0.017847557 0.037702955 0.61800003 4279389480
-0.015891554 0.03782497 0.62 4279850285
-0.013922561 0.037946988 0.62200004 4279587113
-0.011940574 0.038069002 0.62400001 4279850031
-0.0099614831 0.03825203 0.62700003 4279587631
-0.0079629058 0.038435053 0.63000005 4279719217
-0.0059354473 0.038557068 0.63200003 4279389998
-0.003901141 0.038740095 0.63500005 4279784238
-0.0018473462 0.038923115 0.63800001 4279783727
0.00022558388 0.039045133 0.64000005 4279717934
0.0023151063 0.039228156 0.64300001 4279454508
0.0044104201 0.039289165 0.64400005 4278928168
0.0065223258 0.03941118 0.64600003 4286029194
-0.029359104 0.039004076 0.60700005 4287409816
-0.025541645 0.039196845 0.61000001 4287344793
-0.023637611 0.039325364 0.61200005 4287476379
-0.021720584 0.039453875 0.61400002 4287213720
-0.017847557 0.039710905 0.61800003 4285963653
-0.015891554 0.039839417 0.62 4285371516
-0.013922561 0.039967932 0.62200004 4285305723
-0.011940574 0.040096447 0.62400001 4285897347
-0.0099614831 0.040289219 0.62700003 4285963653
-0.0079629058 0.040481992 0.63000005 4286292618
-0.0059448387 0.040674761 0.63300002 4286884242
-0.003901141 0.040803276 0.63500005 4287082134
-0.0018473462 0.040996045 0.63800001 4287213722
0.00022593634 0.041188817 0.64100003 4287082136
0.0023115058 0.041253075 0.64200002 4287081623
0.0044104201 0.04138159 0.64400005 4286752404
-0.0079755448 0.04259643 0.63100004 4286949013
-0.0059448387 0.042731442 0.63300002 4287278232
-0.003901141 0.042866457 0.63500005 4287212439
-0.028896945 0.027806282 0.61234224 4294967295
-0.028896945 0.027806282 0.61234224 4294901760
-0.028836889 0.027310215 0.61235982 4294901760
-0.028776834 0.026814146 0.61237746 4294901760
-0.028716778 0.026318077 0.61239505 4294901760
-0.028656723 0.02582201 0.61241263 4294901760
-0.028596668 0.025325943 0.61243027 4294901760
-0.028536612 0.024829874 0.61244786 4294901760
-0.028476557 0.024333805 0.61246544 4294901760
-0.028416501 0.023837738 0.61248308 4294901760
-0.028356446 0.023341671 0.61250067 4294901760
-0.028296391 0.022845602 0.61251825 4294901760
-0.028236335 0.022349533 0.61253589 4294901760
-0.02817628 0.021853466 0.61255348 4294901760
-0.028116224 0.021357398 0.61257106 4294901760
-0.028056169 0.02086133 0.6125887 4294901760
-0.027996114 0.020365261 0.61260629 4294901760
-0.027936058 0.019869193 0.61262387 4294901760
-0.027876003 0.019373126 0.61264151 4294901760
-0.027815947 0.018877057 0.6126591 4294901760
-0.027755892 0.018380988 0.61267668 4294901760
-0.027695836 0.017884921 0.61269432 4294901760
-0.027635781 0.017388854 0.61271191 4294901760
-0.027575726 0.016892785 0.61272949 4294901760
-0.02751567 0.016396716 0.61274713 4294901760
-0.027455617 0.015900649 0.61276472 4294901760
-0.027395561 0.015404581 0.6127823 4294901760
-0.027335506 0.014908514 0.61279994 4294901760
-0.027275451 0.014412444 0.61281753 4294901760
-0.027215395 0.013916377 0.61283511 4294901760
-0.02715534 0.013420309 0.61285275 4294901760
-0.027095284 0.01292424 0.61287034 4294901760
-0.027035229 0.012428173 0.61288792 4294901760
-0.026975174 0.011932105 0.61290556 4294901760
-0.026915118 0.011436036 0.61292315 4294901760
-0.026855063 0.010939969 0.61294073 4294901760
-0.026795007 0.010443902 0.61295837 4294901760
-0.026734952 0.0099478327 0.61297596 4294901760
-0.026674896 0.0094517637 0.61299354 4294901760
-0.026614841 0.0089556966 0.61301118 4294901760
-0.026554786 0.0084596295 0.61302876 4294901760
-0.02649473 0.0079635605 0.61304635 4294901760
-0.026434675 0.0074674934 0.61306399 4294901760
-0.026374619 0.0069714244 0.61308157 4294901760
-0.026314564 0.0064753555 0.61309916 4294901760
-0.026254509 0.0059792884 0.6131168 4294901760
-0.026194453 0.0054832213 0.61313438 4294901760
-0.026134398 0.0049871523 0.61315197 4294901760
-0.026074342 0.0044910852 0.61316961 4294901760
-0.026014287 0.0039950162 0.61318719 4294901760
-0.025954232 0.0034989472 0.61320478 4294901760
-0.025894176 0.0030028801 0.61322236 4294901760
-0.025834121 0.002506813 0.61324 4294901760
-0.025774065 0.0020107459 0.61325759 4294901760
-0.02571401 0.001514677 0.61327517 4294901760
-0.025653955 0.0010186061 0.61329281 4294901760
-0.025593899 0.00052253902 0.6133104 4294901760
-0.025533844 2.6471913e-05 0.61332798 4294901760
-0.025473788 -0.00046959519 0.61334562 4294901760
-0.025413733 -0.00096566416 0.61336321 4294901760
-0.025353678 -0.0014617313 0.61338079 4294901760
-0.025293622 -0.0019578021 0.61339843 4294901760
-0.025233567 -0.0024538692 0.61341602 4294901760
-0.025173511 -0.0029499363 0.6134336 4294901760
-0.025113456 -0.0034460053 0.61345124 4294901760
-0.025053401 -0.0039420724 0.61346883 4294901760
-0.024993345 -0.0044381395 0.61348641 4294901760
-0.02493329 -0.0049342103 0.61350405 4294901760
-0.024873234 -0.0054302774 0.61352164 4294901760
-0.024813179 -0.0059263445 0.61353922 4294901760
-0.024753124 -0.0064224117 0.61355686 4294901760
-0.024693068 -0.0069184788 0.61357445 4294901760
-0.024633013 -0.0074145459 0.61359203 4294901760
-0.024572957 -0.0079106167 0.61360967 4294901760
-0.024512902 -0.0084066875 0.61362725 4294901760
-0.024452846 -0.0089027546 0.61364484 4294901760
-0.024392791 -0.0093988217 0.61366248 4294901760
-0.024332736 -0.0098948888 0.61368006 4294901760
-0.02427268 -0.010390956 0.61369765 4294901760
-0.024212627 -0.010887023 0.61371529 4294901760
-0.024152569 -0.011383094 0.61373287 4294901760
-0.024092514 -0.011879161 0.61375046 4294901760
-0.024032459 -0.012375228 0.6137681 4294901760
-0.023972405 -0.012871295 0.61378568 4294901760
-0.02391235 -0.013367366 0.61380327 4294901760
-0.023852294 -0.013863433 0.61382091 4294901760
-0.023792237 -0.014359504 0.61383849 4294901760
-0.023732184 -0.014855571 0.61385608 4294901760
-0.023672128 -0.015351638 0.61387372 4294901760
-0.023612073 -0.015847705 0.6138913 4294901760
-0.023552017 -0.016343772 0.61390889 4294901760
-0.023491962 -0.01683984 0.61392653 4294901760
-0.023431906 -0.01733591 0.61394411 4294901760
-0.023371851 -0.017831977 0.6139617 4294901760
-0.023311796 -0.018328045 0.61397934 4294901760
-0.02325174 -0.018824112 0.61399692 4294901760
-0.023191685 -0.019320183 0.61401451 4294901760
-0.023131629 -0.01981625 0.61403215 4294901760
-0.023071574 -0.02031232 0.61404973 4294901760
-0.023011519 -0.020808388 0.61406732 4294901760
-0.022951463 -0.021304455 0.61408496 4294901760
-0.022891408 -0.021800522 0.61410254 4294901760
-0.028896945 0.027806282 0.61234224 4278255360
-0.028498311 0.027865047 0.61263829 4278255360
-0.028099678 0.027923811 0.61293429 4278255360
-0.027701044 0.027982576 0.61323035 4278255360
-0.02730241 0.02804134 0.6135264 4278255360
-0.026903778 0.028100105 0.6138224 4278255360
-0.026505144 0.02815887 0.61411846 4278255360
-0.02610651 0.028217634 0.61441451 4278255360
-0.025707878 0.028276399 0.61471051 4278255360
-0.025309244 0.028335163 0.61500657 4278255360
-0.02491061 0.028393928 0.61530262 4278255360
-0.024511976 0.028452693 0.61559862 4278255360
-0.024113344 0.028511457 0.61589468 4278255360
-0.02371471 0.02857022 0.61619073 4278255360
-0.023316076 0.028628984 0.61648679 4278255360
-0.022917442 0.028687749 0.61678278 4278255360
-0.02251881 0.028746514 0.61707884 4278255360
-0.022120176 0.028805278 0.6173749 4278255360
-0.021721542 0.028864043 0.61767089 4278255360
-0.02132291 0.028922807 0.61796695 4278255360
-0.020924276 0.028981572 0.61826301 4278255360
-0.020525642 0.029040337 0.618559 4278255360
-0.02012701 0.029099101 0.61885506 4278255360
-0.019728376 0.029157866 0.61915112 4278255360
-0.019329742 0.02921663 0.61944711 4278255360
-0.018931109 0.029275395 0.61974317 4278255360
-0.018532475 0.02933416 0.62003922 4278255360
-0.018133841 0.029392924 0.62033522 4278255360
-0.017735209 0.029451689 0.62063128 4278255360
-0.017336575 0.029510453 0.62092733 4278255360
-0.016937941 0.029569218 0.62122333 4278255360
-0.016539307 0.029627983 0.62151939 4278255360
-0.016140675 0.029686747 0.62181544 4278255360
-0.015742041 0.029745512 0.62211144 4278255360
-0.015343407 0.029804276 0.6224075 4278255360
-0.014944774 0.029863041 0.62270355 4278255360
-0.01454614 0.029921805 0.62299955 4278255360
-0.014147507 0.02998057 0.62329561 4278255360
-0.013748874 0.030039333 0.62359166 4278255360
-0.013350241 0.030098097 0.62388772 4278255360
-0.012951607 0.030156862 0.62418371 4278255360
-0.012552973 0.030215627 0.62447977 4278255360
-0.012154341 0.030274391 0.62477583 4278255360
-0.011755707 0.030333156 0.62507182 4278255360
-0.011357073 0.03039192 0.62536788 4278255360
-0.010958441 0.030450685 0.62566394 4278255360
-0.010559807 0.03050945 0.62595993 4278255360
-0.010161173 0.030568214 0.62625599 4278255360
-0.0097625405 0.030626979 0.62655205 4278255360
-0.0093639046 0.030685743 0.62684804 4278255360
-0.0089652725 0.030744508 0.6271441 4278255360
-0.0085666403 0.030803273 0.62744015 4278255360
-0.0081680063 0.030862037 0.62773615 4278255360
-0.0077693742 0.030920802 0.62803221 4278255360
-0.0073707383 0.030979566 0.62832826 4278255360
-0.0069721043 0.031038331 0.62862426 4278255360
-0.0065734722 0.031097095 0.62892032 4278255360
-0.0061748382 0.03115586 0.62921637 4278255360
-0.005776206 0.031214625 0.62951237 4278255360
-0.005377572 0.031273387 0.62980843 4278255360
-0.0049789362 0.031332154 0.63010448 4278255360
-0.004580304 0.031390917 0.63040054 4278255360
-0.00418167 0.031449683 0.63069654 4278255360
-0.0037830379 0.031508446 0.63099259 4278255360
-0.0033844057 0.031567212 0.63128865 4278255360
-0.0029857717 0.031625975 0.63158464 4278255360
-0.0025871359 0.031684741 0.6318807 4278255360
-0.0021885037 0.031743504 0.63217676 4278255360
-0.0017898697 0.031802271 0.63247275 4278255360
-0.0013912376 0.031861033 0.63276881 4278255360
-0.0009926036 0.0319198 0.63306487 4278255360
-0.00059397146 0.031978562 0.63336086 4278255360
-0.0001953356 0.032037329 0.63365692 4278255360
0.0002032984 0.032096092 0.63395298 4278255360
0.00060193054 0.032154858 0.63424897 4278255360
0.0010005627 0.032213621 0.63454503 4278255360
0.0013991967 0.032272384 0.63484108 4278255360
0.0017978288 0.03233115 0.63513708 4278255360
0.0021964628 0.032389913 0.63543314 4278255360
0.0025950987 0.032448679 0.63572919 4278255360
0.0029937308 0.032507442 0.63602519 4278255360
0.003392363 0.032566208 0.63632125 4278255360
0.0037909988 0.032624971 0.6366173 4278255360
0.004189631 0.032683738 0.6369133 4278255360
0.0045882631 0.0327425 0.63720936 4278255360
0.004986899 0.032801267 0.63750541 4278255360
0.0053855311 0.032860029 0.63780141 4278255360
0.005784167 0.032918796 0.63809747 4278255360
0.0061827991 0.032977559 0.63839352 4278255360
0.0065814313 0.033036325 0.63868952 4278255360
0.0069800634 0.033095088 0.63898557 4278255360
0.0073786993 0.033153854 0.63928163 4278255360
0.0077773314 0.033212617 0.63957769 4278255360
0.0081759673 0.033271383 0.63987368 4278255360
0.0085745994 0.033330146 0.64016974 4278255360
0.0089732315 0.033388913 0.6404658 4278255360
0.0093718637 0.033447675 0.64076179 4278255360
0.0097704995 0.033506442 0.64105785 4278255360
0.010169135 0.033565205 0.64135391 4278255360
0.010567768 0.033623971 0.6416499 4278255360
0.0109664 0.033682734 0.64194596 4278255360
-0.028896945 0.027806282 0.61234224 4278190335
-0.029122978 0.027794739 0.61278808 4278190335
-0.029349012 0.027783195 0.61323392 4278190335
-0.029575046 0.027771652 0.61367977 4278190335
-0.02980108 0.027760107 0.61412561 4278190335
-0.030027114 0.027748564 0.61457145 4278190335
-0.030253148 0.02773702 0.61501729 4278190335
-0.030479182 0.027725477 0.61546314 4278190335
-0.030705217 0.027713932 0.61590898 4278190335
-0.030931251 0.027702389 0.61635482 4278190335
-0.031157285 0.027690846 0.61680067 4278190335
-0.031383317 0.027679302 0.61724651 4278190335
-0.031609353 0.027667759 0.61769235 4278190335
-0.031835385 0.027656214 0.61813819 4278190335
-0.03206142 0.027644671 0.61858404 4278190335
-0.032287456 0.027633127 0.61902988 4278190335
-0.032513488 0.027621584 0.61947572 4278190335
-0.032739524 0.027610039 0.61992157 4278190335
-0.032965556 0.027598497 0.62036741 4278190335
-0.033191592 0.027586952 0.62081325 4278190335
-0.033417623 0.027575409 0.62125909 4278190335
-0.033643659 0.027563866 0.62170494 4278190335
-0.033869691 0.027552322 0.62215078 4278190335
-0.034095727 0.027540779 0.62259662 4278190335
-0.034321759 0.027529234 0.62304246 4278190335
-0.034547795 0.027517691 0.62348831 4278190335
-0.034773827 0.027506147 0.62393415 4278190335
-0.034999862 0.027494604 0.62437999 4278190335
-0.035225898 0.027483059 0.62482584 4278190335
-0.03545193 0.027471516 0.62527168 4278190335
-0.035677966 0.027459972 0.62571752 4278190335
-0.035903998 0.027448429 0.62616336 4278190335
-0.036130033 0.027436886 0.62660921 4278190335
-0.036356065 0.027425341 0.62705505 4278190335
-0.036582101 0.027413798 0.62750089 4278190335
-0.036808133 0.027402254 0.62794673 4278190335
-0.037034169 0.027390711 0.62839258 4278190335
-0.037260201 0.027379166 0.62883842 4278190335
-0.037486237 0.027367624 0.62928426 4278190335
-0.037712269 0.027356079 0.62973011 4278190335
-0.037938304 0.027344536 0.63017595 4278190335
-0.03816434 0.027332993 0.63062179 4278190335
-0.038390372 0.027321449 0.63106763 4278190335
-0.038616404 0.027309906 0.63151348 4278190335
-0.03884244 0.027298361 0.63195932 4278190335
-0.039068475 0.027286818 0.63240516 4278190335
-0.039294507 0.027275274 0.632851 4278190335
-0.039520543 0.027263731 0.63329685 4278190335
-0.039746575 0.027252186 0.63374269 4278190335
-0.039972611 0.027240643 0.63418853 4278190335
-0.040198643 0.0272291 0.63463438 4278190335
-0.040424678 0.027217556 0.63508016 4278190335
-0.04065071 0.027206013 0.635526 4278190335
-0.040876746 0.027194468 0.63597184 4278190335
-0.041102782 0.027182925 0.63641769 4278190335
-0.041328814 0.027171381 0.63686353 4278190335
-0.041554846 0.027159838 0.63730937 4278190335
-0.041780882 0.027148293 0.63775522 4278190335
-0.042006917 0.027136751 0.63820106 4278190335
-0.042232949 0.027125206 0.6386469 4278190335
-0.042458985 0.027113663 0.63909274 4278190335
-0.042685017 0.02710212 0.63953859 4278190335
-0.042911053 0.027090576 0.63998443 4278190335
-0.043137085 0.027079033 0.64043027 4278190335
-0.04336312 0.027067488 0.64087611 4278190335
-0.043589152 0.027055945 0.64132196 4278190335
-0.043815188 0.027044401 0.6417678 4278190335
-0.044041224 0.027032858 0.64221364 4278190335
-0.044267256 0.027021313 0.64265949 4278190335
-0.044493288 0.02700977 0.64310533 4278190335
-0.044719324 0.026998226 0.64355117 4278190335
-0.044945359 0.026986683 0.64399701 4278190335
-0.045171391 0.02697514 0.64444286 4278190335
-0.045397423 0.026963595 0.6448887 4278190335
-0.045623459 0.026952052 0.64533454 4278190335
-0.045849495 0.026940508 0.64578038 4278190335
-0.046075527 0.026928965 0.64622623 4278190335
-0.046301559 0.02691742 0.64667207 4278190335
-0.046527594 0.026905878 0.64711791 4278190335
-0.04675363 0.026894333 0.64756376 4278190335
-0.046979666 0.02688279 0.6480096 4278190335
-0.047205698 0.026871247 0.64845544 4278190335
-0.04743173 0.026859703 0.64890128 4278190335
-0.047657765 0.02684816 0.64934713 4278190335
-0.047883801 0.026836615 0.64979297 4278190335
-0.048109833 0.026825072 0.65023881 4278190335
-0.048335865 0.026813528 0.65068465 4278190335
-0.048561901 0.026801985 0.6511305 4278190335
-0.048787937 0.02679044 0.65157634 4278190335
-0.049013969 0.026778897 0.65202218 4278190335
-0.049240001 0.026767354 0.65246803 4278190335
-0.049466036 0.02675581 0.65291387 4278190335
-0.049692072 0.026744267 0.65335971 4278190335
-0.049918108 0.026732722 0.65380555 4278190335
-0.05014414 0.026721179 0.6542514 4278190335
-0.050370172 0.026709635 0.65469724 4278190335
-0.050596207 0.026698092 0.65514308 4278190335
-0.050822243 0.026686547 0.65558892 4278190335
-0.051048275 0.026675005 0.65603477 4278190335
-0.051274307 0.02666346 0.65648061 4278190335
-0.051500343 0.026651917 0.65692645 4278190335
-0.028896945 0.027806282 0.61234224 4294967295
-0.027540741 0.027875545 0.60966718 4294967295
-0.026184537 0.027944805 0.60699213 4294967295
-0.024828333 0.028014068 0.60431707 4294967295
-0.02347213 0.02808333 0.60164201 4294967295
-0.022115925 0.028152592 0.59896696 4294967295
-0.02075972 0.028221853 0.5962919 4294967295
-0.019403517 0.028291116 0.59361684 4294967295
-0.018047314 0.028360378 0.59094179 4294967295
-0.016691109 0.028429639 0.58826673 4294967295
-0.015334906 0.028498901 0.58559167 4294967295
-0.013978702 0.028568164 0.58291662 4294967295
-0.012622498 0.028637426 0.58024156 4294967295
-0.011266295 0.028706687 0.5775665 4294967295
-0.0099100899 0.028775949 0.57489145 4294967295
-0.0085538868 0.028845211 0.57221639 4294967295
-0.0071976837 0.028914474 0.56954139 4294967295
-0.0058414787 0.028983735 0.56686634 4294967295
-0.0044852737 0.029052997 0.56419128 4294967295
-0.0031290725 0.029122259 0.56151623 4294967295
-0.0017728675 0.02919152 0.55884117 4294967295
-0.00041666441 0.029260783 0.55616611 4294967295
0.00093954057 0.029330045 0.55349106 4294967295
0.0022957455 0.029399307 0.550816 4294967295
0.0036519486 0.029468568 0.54814094 4294967295
0.0050081518 0.029537831 0.54546589 4294967295
0.0063643549 0.029607093 0.54279083 4294967295
0.0077205617 0.029676355 0.54011577 4294967295
0.0090767648 0.029745616 0.53744072 4294967295
0.010432964 0.029814878 0.53476566 4294967295
0.011789171 0.029884141 0.5320906 4294967295
0.013145374 0.029953402 0.52941555 4294967295
0.014501577 0.030022664 0.52674049 4294967295
0.015857784 0.030091926 0.52406543 4294967295
0.017213987 0.030161187 0.52139038 4294967295
0.01857019 0.03023045 0.51871532 4294967295
0.019926397 0.030299712 0.51604027 4294967295
0.0212826 0.030368974 0.51336521 4294967295
0.0226388 0.030438235 0.51069015 4294967295
0.023995003 0.030507497 0.5080151 4294967295
0.02535121 0.03057676 0.50534004 4294967295
0.026707413 0.030646022 0.50266504 4294967295
0.028063616 0.030715283 0.49998996 4294967295
0.029419823 0.030784545 0.4973149 4294967295
0.030776026 0.030853808 0.49463984 4294967295
0.032132231 0.030923069 0.49196479 4294967295
0.033488438 0.030992331 0.48928973 4294967295
0.034844637 0.031061593 0.4866147 4294967295
0.036200844 0.031130854 0.48393965 4294967295
0.037557051 0.031200117 0.48126459 4294967295
0.03891325 0.031269379 0.47858953 4294967295
0.040269449 0.03133864 0.47591448 4294967295
0.041625656 0.031407904 0.47323942 4294967295
0.042981856 0.031477164 0.47056437 4294967295
0.04433807 0.031546429 0.46788931 4294967295
0.045694269 0.031615689 0.46521425 4294967295
0.047050476 0.03168495 0.4625392 4294967295
0.048406675 0.031754211 0.45986414 4294967295
0.049762875 0.031823475 0.45718908 4294967295
0.051119082 0.031892736 0.45451403 4294967295
0.052475289 0.031962 0.45183897 4294967295
0.053831495 0.03203126 0.44916391 4294967295
0.055187695 0.032100521 0.44648886 4294967295
0.056543902 0.032169785 0.4438138 4294967295
0.057900101 0.032239046 0.44113874 4294967295
0.059256308 0.032308307 0.43846372 4294967295
0.060612515 0.032377571 0.43578863 4294967295
0.061968721 0.032446831 0.43311357 4294967295
0.063324921 0.032516092 0.43043852 4294967295
0.06468112 0.032585356 0.42776349 4294967295
0.066037327 0.032654617 0.42508844 4294967295
0.067393526 0.032723881 0.42241338 4294967295
0.068749741 0.032793142 0.41973832 4294967295
0.07010594 0.032862402 0.41706327 4294967295
0.071462147 0.032931667 0.41438821 4294967295
0.072818346 0.033000927 0.41171315 4294967295
0.074174546 0.033070188 0.40903813 4294967295
0.075530753 0.033139452 0.40636307 4294967295
0.076886952 0.033208713 0.40368801 4294967295
0.078243166 0.033277974 0.40101296 4294967295
0.079599366 0.033347238 0.3983379 4294967295
0.080955572 0.033416498 0.39566284 4294967295
0.082311772 0.033485763 0.39298779 4294967295
0.083667971 0.033555023 0.39031273 4294967295
0.085024178 0.033624284 0.38763767 4294967295
0.086380385 0.033693548 0.38496262 4294967295
0.087736592 0.033762809 0.38228756 4294967295
0.089092791 0.033832069 0.37961251 4294967295
0.090448998 0.033901334 0.37693745 4294967295
0.091805197 0.033970594 0.37426239 4294967295
0.093161404 0.034039855 0.37158734 4294967295
0.094517611 0.034109119 0.36891228 4294967295
0.095873818 0.03417838 0.36623722 4294967295
0.097230017 0.034247644 0.36356217 4294967295
0.098586217 0.034316905 0.36088714 4294967295
0.099942416 0.034386165 0.35821208 4294967295
0.10129863 0.034455426 0.35553703 4294967295
0.10265483 0.03452469 0.35286197 4294967295
0.10401104 0.034593951 0.35018691 4294967295
0.10536724 0.034663215 0.34751186 4294967295
0.10672344 0.034732476 0.3448368 4294967295
