# .PCD v0.7 - Point Cloud Data file format
VERSION 0.7
FIELDS x y z rgb
SIZE 4 4 4 4
TYPE F F F U
COUNT 1 1 1 1
WIDTH 836
HEIGHT 1
VIEWPOINT 0 0 0 1 0 0 0
POINTS 836
DATA ascii
-0.020906946 0.041816399 0.59100002 4279125535
-0.018987376 0.041816399 0.59100002 4279126560
-0.017067809 0.041816399 0.59100002 4278931234
-0.015122608 0.041745644 0.59000003 4278536478
-0.01316152 0.041604131 0.588 4279520814
-0.020836197 0.043588612 0.58900005 4279190304
-0.018923122 0.043588612 0.58900005 4278862877
-0.01701005 0.043588612 0.58900005 4278600986
-0.015045713 0.043440599 0.58700001 4278469913
-0.01309437 0.043292593 0.58500004 4278535454
-0.020765444 0.045347821 0.58700001 4279058718
-0.018858867 0.045347821 0.58700001 4279125533
-0.016923411 0.04527057 0.58600003 4278797082
-0.014994451 0.045193318 0.58500004 4278797082
-0.013049603 0.045038808 0.583 4278862875
-0.011079475 0.044729795 0.57900006 4278862875
-0.0091035562 0.044266272 0.57300001 4278928670
-0.007204534 0.044034515 0.57000005 4278797084
-0.0053249979 0.043802753 0.56700003 4278201867
-0.0034772374 0.043725502 0.56600004 4279058718
-0.0016359726 0.043648243 0.565 4278862625
0.00019879578 0.043570992 0.56400001 4278665246
0.0020270683 0.043493737 0.56300002 4278928416
-0.020730069 0.047174543 0.58600003 4279124765
-0.01882674 0.047174543 0.58600003 4278993949
-0.016894532 0.04709404 0.58500004 4278797082
-0.014943186 0.046933033 0.583 4278731289
-0.012982452 0.046691529 0.58000004 4278731287
-0.011041204 0.046450019 0.57700002 4278928666
-0.0090876687 0.046047505 0.57200003 4278993945
-0.0071918936 0.045805998 0.56900001 4279125531
-0.0053249979 0.045644995 0.56700003 4278199557
-0.0034710935 0.045483984 0.565 4278925849
-0.0016330772 0.045403484 0.56400001 4278796316
0.00019879578 0.045403484 0.56400001 4278927902
0.0020270683 0.045322981 0.56300002 4278862363
0.0038488447 0.045242481 0.56200004 4278862363
0.0056641256 0.045161977 0.56100005 4278862363
0.010991629 0.044598456 0.55400002 4278862363
0.012791022 0.044598456 0.55400002 4278665498
-0.020694694 0.048994765 0.58500004 4278993695
-0.018794613 0.048994765 0.58500004 4278993949
-0.016836772 0.048827261 0.583 4279059740
-0.014891924 0.048659757 0.58100003 4278928154
-0.012960069 0.048492257 0.57900006 4278993947
-0.011002934 0.048157249 0.57500005 4279125535
-0.0090717813 0.047822241 0.57100004 4278993949
-0.0071918936 0.047654737 0.56900001 4278993949
-0.0053249979 0.047487233 0.56700003 4278196736
-0.0034710935 0.047319729 0.565 4279254814
-0.0016330772 0.047235977 0.56400001 4278398992
0.0001984433 0.047152225 0.56300002 4278198020
0.0020234678 0.047068477 0.56200004 4278197253
0.0038419964 0.046984725 0.56100005 4278198020
0.0056641256 0.046984725 0.56100005 4278397195
0.0074595655 0.046817217 0.55900002 4279055638
0.0092586055 0.046733469 0.55800003 4279517473
0.01103131 0.046565969 0.55600005 4279255068
0.01281411 0.046482213 0.55500001 4279058457
0.014643088 0.046565969 0.55600005 4278862361
0.016448978 0.046565969 0.55600005 4278862361
0.018254867 0.046565969 0.55600005 4278796568
0.020024672 0.046482213 0.55500001 4278665496
-0.020694694 0.05089549 0.58500004 4278927902
-0.018762486 0.050808489 0.58400005 4278928670
-0.016807893 0.050634485 0.58200002 4278731289
-0.014866293 0.050460488 0.58000004 4278928668
-0.012915301 0.050199483 0.57700002 4278862877
-0.010983797 0.049938478 0.574 4278862877
-0.0090717813 0.04967748 0.57100004 4278928670
-0.0071792542 0.049416475 0.56800002 4279125535
-0.0053156065 0.049242474 0.56600004 4278196992
-0.0034710935 0.04915547 0.565 4279189021
-0.0016330772 0.04906847 0.56400001 4278460683
0.0001984433 0.048981469 0.56300002 4279049744
0.0020234678 0.048894472 0.56200004 4278786572
0.0038419964 0.048807472 0.56100005 4278786572
0.0056540282 0.048720468 0.56 4278655756
0.0074595655 0.048633467 0.55900002 4278523916
0.0092586055 0.048546467 0.55800003 4278458636
0.011051151 0.048459467 0.55700004 4278656269
0.012837199 0.048372466 0.55600005 4278197250
0.014669425 0.048459467 0.55700004 4278200067
0.016448978 0.048372466 0.55600005 4278197504
0.018254867 0.048372466 0.55600005 4278199043
0.020024672 0.048285462 0.55500001 4278464785
0.021787986 0.048198462 0.55400002 4279320861
0.023544803 0.048111461 0.55300003 4279124252
0.025295125 0.048024464 0.55200005 4279058972
0.026989875 0.04785046 0.55000001 4278862361
0.028723955 0.047763459 0.54900002 4278664982
0.03045154 0.047676459 0.54800004 4278665494
0.032172631 0.047589459 0.54700005 4278600214
0.033887222 0.047502454 0.546 4278337044
0.035595316 0.047415454 0.54500002 4278666009
0.037365481 0.047415454 0.54500002 4278797595
0.03906383 0.047328454 0.54400003 4278600216
0.040830743 0.047328454 0.54400003 4279127332
0.042597659 0.047328454 0.54400003 4278798367
0.044364568 0.047328454 0.54400003 4279587883
0.046131484 0.047328454 0.54400003 4279456043
0.047898397 0.047328454 0.54400003 4279390252
-0.020659318 0.05270597 0.58400005 4279059488
-0.018730355 0.052615717 0.583 4278862623
-0.016807893 0.052525468 0.58200002 4278797084
-0.014840662 0.052254722 0.57900006 4278797084
-0.012915301 0.052074216 0.57700002 4278928670
-0.010964662 0.051713217 0.57300001 4278862877
-0.0090558939 0.05144247 0.57000005 4278797084
-0.0071792542 0.051261969 0.56800002 4279388707
-0.0053156065 0.051081471 0.56600004 4278199301
-0.0034710935 0.050991215 0.565 4279320094
-0.0016301817 0.050810717 0.56300002 4278197511
0.0001984433 0.050810717 0.56300002 4280169506
0.0020234678 0.050720468 0.56200004 4278721549
0.0038419964 0.050630223 0.56100005 4280498473
0.0056540282 0.050539967 0.56 4279379992
0.0074595655 0.050449718 0.55900002 4280301094
0.009275198 0.050449718 0.55900002 4279774750
0.011051151 0.05026922 0.55700004 4279314199
0.012860288 0.05026922 0.55700004 4278195457
0.014669425 0.05026922 0.55700004 4279319064
0.016448978 0.050178971 0.55600005 4279057174
0.018254867 0.050178971 0.55600005 4279780897
0.020024672 0.050088719 0.55500001 4279517727
0.021787986 0.04999847 0.55400002 4279451934
0.023544803 0.049908221 0.55300003 4279320348
0.025295125 0.049817972 0.55200005 4278727957
0.027038947 0.049727716 0.551 4278200329
0.028723955 0.049547222 0.54900002 4278198530
0.03045154 0.049456973 0.54800004 4278196736
0.032172631 0.049366724 0.54700005 4278200331
0.033887222 0.049276467 0.546 4278530580
0.035660628 0.049276467 0.546 4279189021
0.037365481 0.049186219 0.54500002 4279321631
0.039135639 0.049186219 0.54500002 4278927386
0.0409058 0.049186219 0.54500002 4278664984
0.042675961 0.049186219 0.54500002 4278797084
0.044446122 0.049186219 0.54500002 4278666011
0.046216283 0.049186219 0.54500002 4278271253
0.047986444 0.049186219 0.54500002 4278732574
0.049847897 0.049276467 0.546 4279061539
0.05162131 0.049276467 0.546 4279257894
0.053394716 0.049276467 0.546 4279191336
-0.020659318 0.054603446 0.58400005 4278993695
-0.018730355 0.054509941 0.583 4278796830
-0.016779013 0.054322947 0.58100003 4278665757
-0.014840662 0.054135952 0.57900006 4278797597
-0.012892918 0.053855453 0.57600003 4278797597
-0.010964662 0.053574953 0.57300001 4278797597
-0.0090558939 0.053294457 0.57000005 4278862877
-0.0071792542 0.053107459 0.56800002 4278202892
-0.0053156065 0.052920461 0.56600004 4278198536
-0.0034649502 0.052733462 0.56400001 4279320094
-0.0016301817 0.052639961 0.56300002 4278262790
0.00019809084 0.052546464 0.56200004 4278656267
0.0020234678 0.052546464 0.56200004 4279708957
0.0038419964 0.052452967 0.56100005 4280235299
0.0056540282 0.052359466 0.56 4278984719
0.0074595655 0.052265964 0.55900002 4278524168
0.009275198 0.052265964 0.55900002 4280104485
0.011070991 0.052172467 0.55800003 4278722830
0.012860288 0.05207897 0.55700004 4278262790
0.014669425 0.05207897 0.55700004 4279319064
0.016478563 0.05207897 0.55700004 4278199045
0.018254867 0.051985472 0.55600005 4278330121
0.020024672 0.051891968 0.55500001 4279253017
0.021827314 0.051891968 0.55500001 4278266890
0.02358738 0.05179847 0.55400002 4278267660
0.025295125 0.051611476 0.55200005 4279056922
0.027038947 0.051517971 0.551 4278596371
0.028776275 0.051424474 0.55000001 4279386141
0.030507108 0.051330976 0.54900002 4279188762
0.032231446 0.051237479 0.54800004 4278991896
0.033949289 0.051143982 0.54700005 4279386654
0.035725944 0.051143982 0.54700005 4278925590
0.037434038 0.051050477 0.546 4279385887
0.039207447 0.051050477 0.546 4278464785
0.040980853 0.051050477 0.546 4278197764
0.042754266 0.051050477 0.546 4278196993
0.044527672 0.051050477 0.546 4279254816
0.046301086 0.051050477 0.546 4278731037
0.048074491 0.051050477 0.546 4278468632
0.0499392 0.051143982 0.54700005 4278666011
0.05162131 0.051050477 0.546 4278666011
0.053492513 0.051143982 0.54700005 4279191588
0.055370212 0.051237479 0.54800004 4278399773
-0.020694694 0.056597669 0.58500004 4278862109
-0.018762486 0.056500919 0.58400005 4278993695
-0.016807893 0.05630742 0.58200002 4278862623
-0.014866293 0.056113929 0.58000004 4278862623
-0.012915301 0.05582368 0.57700002 4278797343
-0.010964662 0.055436686 0.57300001 4278731550
-0.0090558939 0.055146448 0.57000005 4278797084
-0.0071792542 0.054952946 0.56800002 4278928156
-0.0053156065 0.054759454 0.56600004 4279713316
-0.0034710935 0.054662701 0.565 4279254303
-0.0016301817 0.054469205 0.56300002 4278195968
0.00019809084 0.05437246 0.56200004 4278919439
0.0020198673 0.054275714 0.56100005 4278852365
0.0038419964 0.054275714 0.56100005 4278786318
0.0056540282 0.054178961 0.56 4278851597
0.0074595655 0.054082215 0.55900002 4278917390
0.009275198 0.054082215 0.55900002 4278458377
0.011070991 0.053985465 0.55800003 4278458890
0.012883376 0.053985465 0.55800003 4278196997
0.014669425 0.05388872 0.55700004 4279516703
0.016478563 0.05388872 0.55700004 4278657548
0.018254867 0.053791974 0.55600005 4278853646
0.020060755 0.053791974 0.55600005 4279250969
0.021827314 0.053695221 0.55500001 4279647775
0.02358738 0.053598475 0.55400002 4278200329
0.025340948 0.053501725 0.55300003 4278398224
0.027088022 0.053404979 0.55200005 4279648289
0.028828595 0.053308226 0.551 4278398222
0.030562676 0.05321148 0.55000001 4278924566
0.032290261 0.053114735 0.54900002 4278727957
0.034011353 0.053017985 0.54800004 4278925849
0.035791256 0.053017985 0.54800004 4278728470
0.037571162 0.053017985 0.54800004 4279189275
0.039351065 0.053017985 0.54800004 4278861080
0.041130971 0.053017985 0.54800004 4279123998
0.042910878 0.053017985 0.54800004 4279254814
0.04469078 0.053017985 0.54800004 4278198278
0.046470687 0.053017985 0.54800004 4279058207
0.04825059 0.053017985 0.54800004 4278862363
0.050030496 0.053017985 0.54800004 4278731291
0.051715858 0.052921239 0.54700005 4278797084
0.053688098 0.053114735 0.54900002 4278665498
0.055471253 0.053114735 0.54900002 4279058470
-0.020730069 0.058598388 0.58600003 4278992925
-0.018794613 0.058498394 0.58500004 4278927902
-0.016836772 0.058298394 0.583 4278796316
-0.014891924 0.058098402 0.58100003 4278796316
-0.012937685 0.057798408 0.57800001 4278731037
-0.010964662 0.057298422 0.57300001 4278665244
-0.0090558939 0.056998435 0.57000005 4278731291
-0.0071792542 0.056798436 0.56800002 4278533398
-0.0053156065 0.056598444 0.56600004 4278662677
-0.0034710935 0.056498442 0.565 4279189793
-0.0016330772 0.056398448 0.56400001 4279058207
0.00019809084 0.056198455 0.56200004 4279583781
0.0020198673 0.056098457 0.56100005 4279582498
0.0038419964 0.056098457 0.56100005 4279778850
0.0056540282 0.055998456 0.56 4279382555
0.0074595655 0.055898461 0.55900002 4278394378
0.009275198 0.055898461 0.55900002 4278393865
0.011070991 0.055798467 0.55800003 4278590476
0.012883376 0.055798467 0.55800003 4279448861
0.014669425 0.055698469 0.55700004 4279055640
0.016478563 0.055698469 0.55700004 4279579164
0.018254867 0.055598475 0.55600005 4279381273
0.020060755 0.055598475 0.55600005 4280305194
0.021827314 0.055498473 0.55500001 4279253017
0.02358738 0.055398475 0.55400002 4279056406
0.025340948 0.055298481 0.55300003 4278530832
0.027088022 0.055198483 0.55200005 4278199045
0.028828595 0.055098481 0.551 4279385119
0.030618245 0.055098481 0.551 4278199046
0.032349076 0.054998487 0.55000001 4278198533
0.034073416 0.054898489 0.54900002 4278397710
0.035856567 0.054898489 0.54900002 4279516705
0.037639722 0.054898489 0.54900002 4278924568
0.039422873 0.054898489 0.54900002 4278726673
0.041206025 0.054898489 0.54900002 4279123228
0.042989179 0.054898489 0.54900002 4279584549
0.044772331 0.054898489 0.54900002 4278397970
0.046555486 0.054898489 0.54900002 4278860826
0.048338637 0.054898489 0.54900002 4278993949
0.050121788 0.054898489 0.54900002 4278928156
0.051810402 0.054798495 0.54800004 4278665498
0.053785887 0.054998487 0.55000001 4278533912
0.055673331 0.055098481 0.551 4279320355
0.057462979 0.055098481 0.551 4285371518
-0.016923411 0.060502362 0.58600003 4279451680
-0.014968819 0.060295872 0.58400005 4279715367
-0.013004836 0.059986129 0.58100003 4279781930
-0.010983797 0.059263404 0.574 4279255586
-0.0090717813 0.058953669 0.57100004 4279124513
-0.0071792542 0.058643926 0.56800002 4279124513
-0.0053249979 0.058540683 0.56700003 4279190306
-0.0034710935 0.058334187 0.565 4279058720
-0.0016330772 0.05823094 0.56400001 4278992925
0.00019809084 0.058024451 0.56200004 4278992925
0.0020198673 0.057921205 0.56100005 4279190304
0.0038419964 0.057921205 0.56100005 4278927132
0.0056540282 0.057817955 0.56 4278992925
0.0074595655 0.057714708 0.55900002 4279058718
0.0092586055 0.057611465 0.55800003 4279123998
0.011070991 0.057611465 0.55800003 4279189791
0.012860288 0.057508219 0.55700004 4279385889
0.014669425 0.057508219 0.55700004 4279714854
0.016478563 0.057508219 0.55700004 4279516705
0.018254867 0.057404973 0.55600005 4278726675
0.020060755 0.057404973 0.55600005 4278330634
0.021827314 0.057301722 0.55500001 4278196992
0.02358738 0.057198476 0.55400002 4278196480
0.025340948 0.057095233 0.55300003 4278199561
0.027137095 0.057095233 0.55300003 4278857748
0.028880918 0.056991987 0.55200005 4279253019
0.030618245 0.056888737 0.551 4279779875
0.032349076 0.05678549 0.55000001 4279385117
0.034135479 0.05678549 0.55000001 4279187738
0.035921879 0.05678549 0.55000001 4278924566
0.037708282 0.05678549 0.55000001 4279187738
0.039494682 0.05678549 0.55000001 4278200329
0.041281082 0.05678549 0.55000001 4278991129
0.043067485 0.05678549 0.55000001 4279846438
0.044853885 0.05678549 0.55000001 4279056922
0.046640288 0.05678549 0.55000001 4279190558
0.048426684 0.05678549 0.55000001 4278796568
0.050213084 0.05678549 0.55000001 4278928154
0.052094031 0.056888737 0.551 4278928154
0.053981476 0.056991987 0.55200005 4278862361
0.055774376 0.056991987 0.55200005 4279715365
-0.0090876687 0.060915399 0.57200003 4279713320
-0.0071918936 0.060595911 0.56900001 4279121695
-0.0053249979 0.060382921 0.56700003 4279517223
-0.0034772374 0.060276426 0.56600004 4279451943
-0.0016359726 0.060169928 0.565 4279321125
0.0001984433 0.059956938 0.56300002 4279584551
0.0020198673 0.059743952 0.56100005 4279321377
0.0038419964 0.059743952 0.56100005 4279190304
0.0056540282 0.05963745 0.56 4279058718
0.0074595655 0.059530959 0.55900002 4278992925
0.0092586055 0.059424464 0.55800003 4279190304
0.011070991 0.059424464 0.55800003 4279058718
0.012860288 0.059317969 0.55700004 4279190304
0.014669425 0.059317969 0.55700004 4279058718
0.016448978 0.059211474 0.55600005 4278862109
0.018254867 0.059211474 0.55600005 4278795546
0.020024672 0.059104975 0.55500001 4278927132
0.021827314 0.059104975 0.55500001 4279256097
0.02358738 0.05899848 0.55400002 4278992412
0.025340948 0.058891986 0.55300003 4278991642
0.027137095 0.058891986 0.55300003 4279320607
0.028880918 0.058785491 0.55200005 4279517473
0.030618245 0.058678992 0.551 4279055638
0.032407895 0.058678992 0.551 4278660882
0.034135479 0.058572497 0.55000001 4278197764
0.035921879 0.058572497 0.55000001 4278196224
0.037708282 0.058572497 0.55000001 4278196224
0.039494682 0.058572497 0.55000001 4278594835
0.041281082 0.058572497 0.55000001 4279385119
0.043145787 0.058678992 0.551 4279187738
0.044935435 0.058678992 0.551 4278859543
0.046725087 0.058678992 0.551 4279190043
0.048514735 0.058678992 0.551 4278993177
0.050304379 0.058678992 0.551 4278993177
0.052188579 0.058785491 0.55200005 4278993177
0.054079268 0.058891986 0.55300003 4279124763
0.055875413 0.058891986 0.55300003 4279188258
-0.0071918936 0.06244465 0.56900001 4284776815
-0.0053343894 0.062334906 0.56800002 4285237366
-0.0034833809 0.062225163 0.56700003 4285039987
-0.0016359726 0.062005669 0.565 4284645997
0.0001984433 0.061786182 0.56300002 4283199064
0.0020234678 0.061676439 0.56200004 4281620802
0.0038419964 0.061566696 0.56100005 4280107563
0.0056540282 0.061456949 0.56 4278990881
0.0074595655 0.061347205 0.55900002 4279254053
0.0092586055 0.061237462 0.55800003 4279451432
0.011070991 0.061237462 0.55800003 4279714602
0.012860288 0.061127719 0.55700004 4279650092
0.014669425 0.061127719 0.55700004 4279650603
0.016448978 0.061017975 0.55600005 4279256099
0.018254867 0.061017975 0.55600005 4279190306
0.020024672 0.060908224 0.55500001 4279256099
0.021827314 0.060908224 0.55500001 4279124513
0.02358738 0.060798481 0.55400002 4279058720
0.025340948 0.060688738 0.55300003 4278992927
0.027137095 0.060688738 0.55300003 4278927132
0.028880918 0.060578994 0.55200005 4278927132
0.030618245 0.060469247 0.551 4278795546
0.032407895 0.060469247 0.551 4279058718
0.034135479 0.060359504 0.55000001 4279123228
0.035921879 0.060359504 0.55000001 4279254814
0.037708282 0.060359504 0.55000001 4279189023
0.039494682 0.060359504 0.55000001 4279452195
0.041356135 0.060469247 0.551 4279517475
0.043145787 0.060469247 0.551 4279780647
0.044935435 0.060469247 0.551 4279058205
0.046725087 0.060469247 0.551 4279058459
0.048602786 0.060578994 0.55200005 4279124763
0.050395682 0.060578994 0.55200005 4279190556
0.052188579 0.060578994 0.55200005 4279190556
-0.0053437809 0.064293385 0.56900001 4284776301
-0.0034833809 0.064067401 0.56700003 4284842094
-0.0016388684 0.063954413 0.56600004 4284710508
0.00019950073 0.063954413 0.56600004 4284776301
0.0020378698 0.063954413 0.56600004 4284776299
0.0038762388 0.063954413 0.56600004 4284907885
0.0057146079 0.063954413 0.56600004 4285236850
0.0075529772 0.063954413 0.56600004 4285434229
0.012860288 0.062937468 0.55700004 4284646258
0.014643088 0.062824473 0.55600005 4282014538
0.016448978 0.062824473 0.55600005 4279779373
0.018254867 0.062824473 0.55600005 4279121443
0.020024672 0.062711477 0.55500001 4279253799
0.021827314 0.062711477 0.55500001 4279385385
0.02358738 0.062598482 0.55400002 4279648809
0.025340948 0.062485494 0.55300003 4279714602
0.027137095 0.062485494 0.55300003 4279386148
0.028880918 0.062372498 0.55200005 4279583527
0.030618245 0.062259503 0.551 4279321379
0.032407895 0.062259503 0.551 4279518758
0.034135479 0.062146507 0.55000001 4279781930
0.035921879 0.062146507 0.55000001 4279255586
0.037708282 0.062146507 0.55000001 4279255332
0.039494682 0.062146507 0.55000001 4279321125
0.041281082 0.062146507 0.55000001 4279255586
0.043145787 0.062259503 0.551 4279124000
0.044935435 0.062259503 0.551 4279189793
0.046725087 0.062259503 0.551 4278795546
0.048602786 0.062372498 0.55200005 4279190304
0.050395682 0.062372498 0.55200005 4279190304
0.052188579 0.062372498 0.55200005 4279256097
0.025340948 0.064282246 0.55300003 4284973942
0.027088022 0.064166002 0.55200005 4284382575
0.028880918 0.064166002 0.55200005 4283856744
0.030618245 0.064049758 0.551 4282606927
0.032407895 0.064049758 0.551 4280764208
0.034135479 0.063933514 0.55000001 4281685312
0.035921879 0.063933514 0.55000001 4281488446
0.037708282 0.063933514 0.55000001 4280568629
0.039494682 0.063933514 0.55000001 4279779373
0.041281082 0.063933514 0.55000001 4279319592
0.043145787 0.064049758 0.551 4279056420
0.044853885 0.063933514 0.55000001 4278991140
0.046725087 0.064049758 0.551 4278925347
0.048602786 0.064166002 0.55200005 4278924834
0.016201936 0.054235697 0.55945885 4294967295
0.016201936 0.054235697 0.55945885 4294901760
0.016234364 0.053736847 0.55944902 4294901760
0.016266793 0.053237997 0.55943918 4294901760
0.016299222 0.052739147 0.55942935 4294901760
0.016331648 0.052240297 0.55941945 4294901760
0.016364077 0.051741447 0.55940962 4294901760
0.016396506 0.051242597 0.55939978 4294901760
0.016428934 0.050743744 0.55938995 4294901760
0.016461363 0.050244894 0.55938011 4294901760
0.016493792 0.049746044 0.55937028 4294901760
0.016526219 0.049247194 0.55936044 4294901760
0.016558647 0.048748344 0.55935061 4294901760
0.016591076 0.048249494 0.55934072 4294901760
0.016623504 0.047750644 0.55933088 4294901760
0.016655933 0.047251794 0.55932105 4294901760
0.016688362 0.046752945 0.55931121 4294901760
0.01672079 0.046254095 0.55930138 4294901760
0.016753217 0.045755245 0.55929154 4294901760
0.016785646 0.045256391 0.55928171 4294901760
0.016818075 0.044757545 0.55927187 4294901760
0.016850503 0.044258691 0.55926198 4294901760
0.016882932 0.043759845 0.55925214 4294901760
0.01691536 0.043260992 0.55924231 4294901760
0.016947789 0.042762142 0.55923247 4294901760
0.016980216 0.042263292 0.55922264 4294901760
0.017012645 0.041764442 0.5592128 4294901760
0.017045073 0.041265592 0.55920297 4294901760
0.017077502 0.040766742 0.55919307 4294901760
0.017109931 0.040267892 0.55918324 4294901760
0.017142359 0.039769042 0.55917341 4294901760
0.017174788 0.039270192 0.55916357 4294901760
0.017207215 0.038771339 0.55915374 4294901760
0.017239643 0.038272493 0.5591439 4294901760
0.017272072 0.037773639 0.55913407 4294901760
0.017304501 0.037274789 0.55912423 4294901760
0.017336929 0.036775939 0.55911434 4294901760
0.017369358 0.036277089 0.5591045 4294901760
0.017401785 0.035778239 0.55909467 4294901760
0.017434213 0.035279389 0.55908483 4294901760
0.017466642 0.03478054 0.559075 4294901760
0.017499071 0.034281686 0.55906516 4294901760
0.017531499 0.03378284 0.55905533 4294901760
0.017563928 0.03328399 0.55904549 4294901760
0.017596357 0.03278514 0.5590356 4294901760
0.017628783 0.032286286 0.55902576 4294901760
0.017661212 0.03178744 0.55901593 4294901760
0.017693641 0.031288587 0.55900609 4294901760
0.017726069 0.030789739 0.55899626 4294901760
0.017758498 0.030290889 0.55898643 4294901760
0.017790927 0.029792037 0.55897659 4294901760
0.017823353 0.029293187 0.55896676 4294901760
0.017855782 0.028794337 0.55895686 4294901760
0.017888211 0.028295487 0.55894703 4294901760
0.017920639 0.027796637 0.55893719 4294901760
0.017953068 0.027297786 0.55892736 4294901760
0.017985497 0.026798936 0.55891752 4294901760
0.018017925 0.026300086 0.55890769 4294901760
0.018050352 0.025801236 0.55889785 4294901760
0.018082781 0.025302386 0.55888796 4294901760
0.018115209 0.024803536 0.55887812 4294901760
0.018147638 0.024304684 0.55886829 4294901760
0.018180067 0.023805834 0.55885845 4294901760
0.018212495 0.023306984 0.55884862 4294901760
0.018244922 0.022808135 0.55883878 4294901760
0.018277351 0.022309285 0.55882895 4294901760
0.018309779 0.021810435 0.55881912 4294901760
0.018342208 0.021311581 0.55880922 4294901760
0.018374637 0.020812731 0.55879939 4294901760
0.018407065 0.020313881 0.55878955 4294901760
0.018439494 0.019815035 0.55877972 4294901760
0.018471923 0.019316185 0.55876988 4294901760
0.01850435 0.018817335 0.55876005 4294901760
0.018536778 0.018318482 0.55875021 4294901760
0.018569207 0.017819632 0.55874038 4294901760
0.018601635 0.017320782 0.55873048 4294901760
0.018634064 0.016821932 0.55872065 4294901760
0.018666493 0.016323082 0.55871081 4294901760
0.01869892 0.015824232 0.55870098 4294901760
0.018731348 0.015325382 0.55869114 4294901760
0.018763777 0.014826529 0.55868131 4294901760
0.018796206 0.014327679 0.55867147 4294901760
0.018828634 0.013828829 0.55866158 4294901760
0.018861063 0.013329983 0.55865175 4294901760
0.018893491 0.012831133 0.55864191 4294901760
0.018925918 0.012332283 0.55863208 4294901760
0.018958347 0.011833429 0.55862224 4294901760
0.018990776 0.011334579 0.55861241 4294901760
0.019023204 0.01083573 0.55860257 4294901760
0.019055633 0.01033688 0.55859274 4294901760
0.019088062 0.0098380297 0.55858284 4294901760
0.019120488 0.0093391798 0.55857301 4294901760
0.019152917 0.0088403262 0.55856317 4294901760
0.019185346 0.0083414763 0.55855334 4294901760
0.019217774 0.0078426264 0.5585435 4294901760
0.019250203 0.0073437802 0.55853367 4294901760
0.019282632 0.0068449304 0.55852383 4294901760
0.01931506 0.0063460805 0.558514 4294901760
0.019347489 0.0058472268 0.5585041 4294901760
0.019379916 0.0053483769 0.55849427 4294901760
0.019412344 0.004849527 0.55848444 4294901760
0.019444773 0.0043506771 0.5584746 4294901760
0.016201936 0.054235697 0.55945885 4278255360
0.016648626 0.054269116 0.55923671 4278255360
0.017095318 0.05430254 0.55901456 4278255360
0.017542008 0.054335959 0.55879241 4278255360
0.017988699 0.054369379 0.55857027 4278255360
0.018435391 0.054402802 0.55834812 4278255360
0.018882081 0.054436222 0.55812597 4278255360
0.019328771 0.054469641 0.55790383 4278255360
0.019775463 0.054503065 0.55768168 4278255360
0.020222154 0.054536484 0.55745953 4278255360
0.020668846 0.054569907 0.55723739 4278255360
0.021115536 0.054603327 0.55701518 4278255360
0.021562226 0.054636747 0.55679303 4278255360
0.022008916 0.05467017 0.55657089 4278255360
0.022455608 0.05470359 0.55634874 4278255360
0.022902299 0.054737009 0.55612659 4278255360
0.023348989 0.054770432 0.55590445 4278255360
0.023795681 0.054803852 0.5556823 4278255360
0.024242371 0.054837272 0.55546016 4278255360
0.024689063 0.054870695 0.55523801 4278255360
0.025135754 0.054904114 0.55501586 4278255360
0.025582444 0.054937534 0.55479372 4278255360
0.026029136 0.054970957 0.55457157 4278255360
0.026475826 0.055004377 0.55434942 4278255360
0.026922517 0.055037796 0.55412728 4278255360
0.027369209 0.05507122 0.55390513 4278255360
0.027815897 0.055104639 0.55368298 4278255360
0.028262589 0.055138059 0.55346084 4278255360
0.028709281 0.055171482 0.55323869 4278255360
0.02915597 0.055204902 0.55301654 4278255360
0.029602662 0.055238321 0.55279434 4278255360
0.030049354 0.055271745 0.55257219 4278255360
0.030496042 0.055305164 0.55235004 4278255360
0.030942734 0.055338588 0.5521279 4278255360
0.031389426 0.055372007 0.55190575 4278255360
0.031836115 0.055405427 0.5516836 4278255360
0.032282807 0.05543885 0.55146146 4278255360
0.032729499 0.05547227 0.55123931 4278255360
0.033176191 0.055505689 0.55101717 4278255360
0.03362288 0.055539113 0.55079502 4278255360
0.034069572 0.055572532 0.55057287 4278255360
0.03451626 0.055605952 0.55035073 4278255360
0.034962952 0.055639375 0.55012858 4278255360
0.035409644 0.055672795 0.54990643 4278255360
0.035856336 0.055706214 0.54968429 4278255360
0.036303025 0.055739637 0.54946214 4278255360
0.036749717 0.055773057 0.54923999 4278255360
0.037196405 0.055806477 0.54901785 4278255360
0.037643097 0.0558399 0.5487957 4278255360
0.038089789 0.05587332 0.54857355 4278255360
0.038536482 0.055906743 0.54835141 4278255360
0.03898317 0.055940162 0.5481292 4278255360
0.039429858 0.055973582 0.54790705 4278255360
0.03987655 0.056007005 0.54768491 4278255360
0.040323243 0.056040425 0.54746276 4278255360
0.040769935 0.056073844 0.54724061 4278255360
0.041216627 0.056107268 0.54701847 4278255360
0.041663315 0.056140687 0.54679632 4278255360
0.042110004 0.056174107 0.54657418 4278255360
0.042556696 0.05620753 0.54635203 4278255360
0.043003388 0.05624095 0.54612988 4278255360
0.04345008 0.056274369 0.54590774 4278255360
0.043896772 0.056307793 0.54568559 4278255360
0.04434346 0.056341212 0.54546344 4278255360
0.044790149 0.056374632 0.5452413 4278255360
0.045236841 0.056408055 0.54501915 4278255360
0.045683533 0.056441475 0.544797 4278255360
0.046130225 0.056474894 0.54457486 4278255360
0.046576917 0.056508318 0.54435271 4278255360
0.047023606 0.056541737 0.54413056 4278255360
0.047470298 0.056575157 0.54390836 4278255360
0.047916986 0.05660858 0.54368621 4278255360
0.048363682 0.056642 0.54346406 4278255360
0.04881037 0.056675423 0.54324192 4278255360
0.049257062 0.056708843 0.54301977 4278255360
0.049703751 0.056742262 0.54279763 4278255360
0.050150443 0.056775685 0.54257548 4278255360
0.050597131 0.056809105 0.54235333 4278255360
0.051043823 0.056842525 0.54213119 4278255360
0.051490515 0.056875948 0.54190904 4278255360
0.051937208 0.056909367 0.54168689 4278255360
0.052383896 0.056942787 0.54146475 4278255360
0.052830588 0.05697621 0.5412426 4278255360
0.053277276 0.05700963 0.54102045 4278255360
0.053723969 0.057043049 0.54079831 4278255360
0.054170661 0.057076473 0.54057616 4278255360
0.054617353 0.057109892 0.54035401 4278255360
0.055064041 0.057143312 0.54013187 4278255360
0.055510733 0.057176735 0.53990972 4278255360
0.055957422 0.057210155 0.53968757 4278255360
0.056404114 0.057243578 0.53946543 4278255360
0.056850806 0.057276998 0.53924322 4278255360
0.057297498 0.057310417 0.53902107 4278255360
0.057744186 0.057343841 0.53879893 4278255360
0.058190878 0.05737726 0.53857678 4278255360
0.058637571 0.05741068 0.53835464 4278255360
0.059084259 0.057444103 0.53813249 4278255360
0.059530951 0.057477523 0.53791034 4278255360
0.059977643 0.057510942 0.5376882 4278255360
0.060424332 0.057544366 0.53746605 4278255360
0.060871024 0.057577785 0.5372439 4278255360
0.016201936 0.054235697 0.55945885 4278190335
0.016381491 0.054238163 0.5599255 4278190335
0.016561044 0.054240625 0.56039214 4278190335
0.0167406 0.054243091 0.56085879 4278190335
0.016920153 0.054245558 0.56132543 4278190335
0.017099708 0.05424802 0.56179208 4278190335
0.017279262 0.054250486 0.56225872 4278190335
0.017458817 0.054252952 0.56272537 4278190335
0.01763837 0.054255415 0.56319201 4278190335
0.017817926 0.054257881 0.5636586 4278190335
0.017997481 0.054260347 0.56412524 4278190335
0.018177034 0.054262809 0.56459188 4278190335
0.01835659 0.054265276 0.56505853 4278190335
0.018536143 0.054267742 0.56552517 4278190335
0.018715698 0.054270204 0.56599182 4278190335
0.018895254 0.05427267 0.56645846 4278190335
0.019074807 0.054275136 0.56692511 4278190335
0.01925436 0.054277599 0.56739175 4278190335
0.019433916 0.054280065 0.5678584 4278190335
0.019613471 0.054282531 0.56832504 4278190335
0.019793024 0.054284994 0.56879169 4278190335
0.01997258 0.05428746 0.56925833 4278190335
0.020152133 0.054289926 0.56972498 4278190335
0.020331688 0.054292388 0.57019162 4278190335
0.020511243 0.054294854 0.57065827 4278190335
0.020690797 0.054297321 0.57112491 4278190335
0.02087035 0.054299783 0.5715915 4278190335
0.021049906 0.054302249 0.57205814 4278190335
0.021229461 0.054304715 0.57252479 4278190335
0.021409014 0.054307178 0.57299143 4278190335
0.02158857 0.054309644 0.57345808 4278190335
0.021768123 0.05431211 0.57392472 4278190335
0.021947678 0.054314572 0.57439137 4278190335
0.022127233 0.054317039 0.57485801 4278190335
0.022306787 0.054319505 0.57532465 4278190335
0.02248634 0.054321967 0.5757913 4278190335
0.022665896 0.054324433 0.57625794 4278190335
0.022845451 0.054326899 0.57672459 4278190335
0.023025004 0.054329362 0.57719123 4278190335
0.023204559 0.054331828 0.57765788 4278190335
0.023384113 0.054334294 0.57812452 4278190335
0.023563668 0.054336756 0.57859117 4278190335
0.023743223 0.054339223 0.57905775 4278190335
0.023922777 0.054341689 0.5795244 4278190335
0.02410233 0.054344151 0.57999104 4278190335
0.024281885 0.054346617 0.58045769 4278190335
0.024461441 0.054349083 0.58092433 4278190335
0.024640996 0.054351546 0.58139098 4278190335
0.024820549 0.054354012 0.58185762 4278190335
0.025000103 0.054356478 0.58232427 4278190335
0.025179658 0.054358944 0.58279091 4278190335
0.025359213 0.054361407 0.58325756 4278190335
0.025538767 0.054363873 0.5837242 4278190335
0.02571832 0.054366339 0.58419085 4278190335
0.025897875 0.054368801 0.58465749 4278190335
0.026077431 0.054371268 0.58512414 4278190335
0.026256986 0.054373734 0.58559078 4278190335
0.026436539 0.054376196 0.58605742 4278190335
0.026616093 0.054378662 0.58652401 4278190335
0.026795648 0.054381128 0.58699065 4278190335
0.026975203 0.054383591 0.5874573 4278190335
0.027154759 0.054386057 0.58792394 4278190335
0.027334312 0.054388523 0.58839059 4278190335
0.027513865 0.054390986 0.58885723 4278190335
0.027693421 0.054393452 0.58932388 4278190335
0.027872974 0.054395918 0.58979052 4278190335
0.028052529 0.05439838 0.59025717 4278190335
0.028232083 0.054400846 0.59072381 4278190335
0.028411638 0.054403313 0.59119046 4278190335
0.028591193 0.054405775 0.5916571 4278190335
0.028770747 0.054408241 0.59212375 4278190335
0.0289503 0.054410707 0.59259039 4278190335
0.029129855 0.05441317 0.59305704 4278190335
0.029309411 0.054415636 0.59352368 4278190335
0.029488966 0.054418102 0.59399033 4278190335
0.029668519 0.054420564 0.59445691 4278190335
0.029848073 0.05442303 0.59492356 4278190335
0.030027628 0.054425497 0.5953902 4278190335
0.030207183 0.054427959 0.59585685 4278190335
0.030386738 0.054430425 0.59632349 4278190335
0.030566292 0.054432891 0.59679013 4278190335
0.030745845 0.054435354 0.59725678 4278190335
0.030925401 0.05443782 0.59772342 4278190335
0.031104956 0.054440286 0.59819007 4278190335
0.031284511 0.054442748 0.59865671 4278190335
0.031464063 0.054445215 0.59912336 4278190335
0.031643618 0.054447681 0.59959 4278190335
0.031823173 0.054450143 0.60005665 4278190335
0.032002725 0.054452609 0.60052329 4278190335
0.032182284 0.054455075 0.60098994 4278190335
0.032361835 0.054457538 0.60145658 4278190335
0.032541391 0.054460004 0.60192323 4278190335
0.032720946 0.05446247 0.60238981 4278190335
0.032900497 0.054464933 0.60285646 4278190335
0.033080056 0.054467399 0.6033231 4278190335
0.033259608 0.054469865 0.60378975 4278190335
0.033439163 0.054472327 0.60425639 4278190335
0.033618718 0.054474793 0.60472304 4278190335
0.03379827 0.05447726 0.60518968 4278190335
0.033977829 0.054479722 0.60565633 4278190335
0.03415738 0.054482188 0.60612297 4278190335
0.016201936 0.054235697 0.55945885 4294967295
0.015124609 0.054220907 0.55665898 4294967295
0.014047283 0.054206118 0.55385917 4294967295
0.012969956 0.054191329 0.55105931 4294967295
0.01189263 0.054176539 0.54825944 4294967295
0.010815302 0.05416175 0.54545963 4294967295
0.0097379759 0.05414696 0.54265976 4294967295
0.0086606499 0.054132171 0.53985989 4294967295
0.0075833229 0.054117382 0.53706008 4294967295
0.006505996 0.054102592 0.53426021 4294967295
0.005428669 0.054087803 0.53146034 4294967295
0.004351343 0.054073013 0.52866054 4294967295
0.003274017 0.054058224 0.52586067 4294967295
0.0021966901 0.054043431 0.5230608 4294967295
0.0011193631 0.054028641 0.52026099 4294967295
4.2036176e-05 0.054013852 0.51746112 4294967295
-0.0010352898 0.053999063 0.51466131 4294967295
-0.0021126177 0.053984273 0.51186144 4294967295
-0.0031899437 0.053969484 0.50906157 4294967295
-0.0042672697 0.053954694 0.50626177 4294967295
-0.0053445976 0.053939905 0.5034619 4294967295
-0.0064219218 0.053925116 0.50066203 4294967295
-0.0074992497 0.053910326 0.49786219 4294967295
-0.0085765775 0.053895537 0.49506235 4294967295
-0.0096539017 0.053880747 0.49226248 4294967295
-0.01073123 0.053865958 0.48946264 4294967295
-0.011808556 0.053851169 0.48666281 4294967295
-0.012885883 0.053836379 0.48386294 4294967295
-0.013963209 0.05382159 0.4810631 4294967295
-0.015040535 0.0538068 0.47826326 4294967295
-0.016117863 0.053792011 0.47546339 4294967295
-0.017195191 0.053777222 0.47266355 4294967295
-0.018272515 0.053762432 0.46986371 4294967295
-0.019349843 0.053747643 0.46706387 4294967295
-0.020427171 0.053732853 0.46426404 4294967295
-0.021504495 0.053718064 0.46146417 4294967295
-0.022581823 0.053703275 0.45866433 4294967295
-0.023659151 0.053688485 0.45586449 4294967295
-0.024736475 0.053673692 0.45306462 4294967295
-0.025813799 0.053658903 0.45026478 4294967295
-0.026891131 0.053644113 0.44746494 4294967295
-0.027968455 0.053629324 0.44466507 4294967295
-0.029045779 0.053614534 0.44186524 4294967295
-0.030123111 0.053599745 0.4390654 4294967295
-0.031200435 0.053584956 0.43626553 4294967295
-0.032277759 0.053570166 0.43346569 4294967295
-0.033355091 0.053555377 0.43066585 4294967295
-0.034432415 0.053540587 0.42786598 4294967295
-0.035509739 0.053525798 0.42506614 4294967295
-0.036587071 0.053511009 0.4222663 4294967295
-0.037664395 0.053496219 0.41946644 4294967295
-0.038741719 0.05348143 0.41666663 4294967295
-0.039819047 0.05346664 0.41386676 4294967295
-0.040896371 0.053451851 0.41106692 4294967295
-0.041973703 0.053437062 0.40826705 4294967295
-0.04305103 0.053422272 0.40546721 4294967295
-0.044128355 0.053407483 0.40266734 4294967295
-0.045205679 0.053392693 0.39986753 4294967295
-0.046283007 0.053377904 0.39706767 4294967295
-0.047360331 0.053363115 0.39426783 4294967295
-0.048437662 0.053348325 0.39146796 4294967295
-0.049514987 0.053333536 0.38866812 4294967295
-0.050592318 0.053318746 0.38586825 4294967295
-0.051669642 0.053303953 0.38306844 4294967295
-0.052746966 0.053289164 0.38026857 4294967295
-0.053824291 0.053274374 0.37746873 4294967295
-0.054901622 0.053259585 0.3746689 4294967295
-0.055978946 0.053244796 0.37186903 4294967295
-0.057056278 0.053230006 0.36906919 4294967295
-0.058133602 0.053215217 0.36626935 4294967295
-0.059210926 0.053200427 0.36346948 4294967295
-0.06028825 0.053185638 0.36066964 4294967295
-0.061365582 0.053170849 0.3578698 4294967295
-0.062442906 0.053156059 0.35506994 4294967295
-0.063520238 0.05314127 0.3522701 4294967295
-0.064597562 0.05312648 0.34947026 4294967295
-0.065674886 0.053111691 0.34667039 4294967295
-0.06675221 0.053096902 0.34387058 4294967295
-0.067829534 0.053082112 0.34107071 4294967295
-0.068906866 0.053067323 0.33827084 4294967295
-0.069984198 0.053052533 0.335471 4294967295
-0.071061522 0.053037744 0.33267117 4294967295
-0.072138846 0.053022955 0.3298713 4294967295
-0.07321617 0.053008165 0.32707149 4294967295
-0.074293494 0.052993376 0.32427162 4294967295
-0.075370826 0.052978586 0.32147175 4294967295
-0.076448157 0.052963797 0.31867191 4294967295
-0.077525482 0.052949008 0.31587207 4294967295
-0.078602806 0.052934214 0.31307223 4294967295
-0.07968013 0.052919425 0.3102724 4294967295
-0.080757454 0.052904636 0.30747253 4294967295
-0.081834786 0.052889846 0.30467269 4294967295
-0.082912117 0.052875057 0.30187282 4294967295
-0.083989441 0.052860267 0.29907298 4294967295
-0.085066766 0.052845478 0.29627314 4294967295
-0.08614409 0.052830689 0.2934733 4294967295
-0.087221414 0.052815899 0.29067343 4294967295
-0.088298745 0.05280111 0.2878736 4294967295
-0.089376077 0.05278632 0.28507373 4294967295
-0.090453401 0.052771531 0.28227389 4294967295
-0.091530725 0.052756742 0.27947405 4294967295
