# .PCD v0.7 - Point Cloud Data file format
VERSION 0.7
FIELDS x y z rgb
SIZE 4 4 4 4
TYPE F F F U
COUNT 1 1 1 1
WIDTH 1055
HEIGHT 1
VIEWPOINT 0 0 0 1 0 0 0
POINTS 1055
DATA ascii
0.018521456 0.03884957 0.354 4278596371
0.019615682 0.038739827 0.35300002 4278720779
0.020762227 0.038739827 0.35300002 4279970846
0.021846708 0.038630083 0.35200003 4279050514
0.022990003 0.038630083 0.35200003 4279312916
0.02406474 0.038520336 0.35100001 4279510041
0.02513298 0.038410597 0.35000002 4279510811
0.02626978 0.038410597 0.35000002 4279774237
0.027328275 0.038300849 0.34900001 4280037409
0.028461827 0.038300849 0.34900001 4278851851
0.029510582 0.038191106 0.34800002 4278983437
0.030552836 0.038081359 0.347 4278456839
0.031679891 0.038081359 0.347 4278851597
0.032806948 0.038081359 0.347 4278722832
0.033836212 0.037971616 0.34600002 4279253019
0.034960024 0.037971616 0.34600002 4278991383
0.035979543 0.037861872 0.34500003 4278991383
0.037100103 0.037861872 0.34500003 4279188762
0.03810988 0.037752125 0.34400001 4279319578
0.03911316 0.037642382 0.34300002 4279516957
0.040109944 0.037532635 0.34200001 4279187224
0.041100234 0.037422892 0.34100002 4279318299
0.042084023 0.037313148 0.34 4278461966
0.04306132 0.037203405 0.33900002 4278197509
0.044032123 0.037093662 0.33800003 4278195712
0.045129947 0.037093662 0.33800003 4278196481
0.046090998 0.036983915 0.33700001 4278197253
0.047185577 0.036983915 0.33700001 4278462218
0.04813689 0.036874171 0.33600003 4278923539
0.049081706 0.036764424 0.33500001 4279386141
0.050169785 0.036764424 0.33500001 4279517725
0.051104859 0.036654681 0.33400002 4279386650
0.052189693 0.036654681 0.33400002 4278991892
0.053274523 0.036654681 0.33400002 4278730003
0.0541966 0.036544934 0.333 4278795796
0.055278186 0.036544934 0.333 4278664210
0.056359768 0.036544934 0.333 4278795796
0.057441354 0.036544934 0.333 4278927384
0.058698688 0.036654681 0.33400002 4278927382
0.059783522 0.036654681 0.33400002 4278993175
0.060868353 0.036654681 0.33400002 4278730003
0.062138673 0.036764424 0.33500001 4279255834
0.063226752 0.036764424 0.33500001 4279190041
0.064506821 0.036874171 0.33600003 4279189273
0.065598145 0.036874171 0.33600003 4279386650
0.066689476 0.036874171 0.33600003 4278795283
0.067579068 0.036764424 0.33500001 4280506414
0.068667151 0.036764424 0.33500001 4279718697
0.069755234 0.036764424 0.33500001 4279258144
0.070843317 0.036764424 0.33500001 4279388703
0.071716674 0.036654681 0.33400002 4278796566
0.0013249754 0.041581668 0.36800003 4281290036
0.0025202399 0.041581668 0.36800003 4279320861
0.0037155047 0.041581668 0.36800003 4278928152
0.004897425 0.041468672 0.36700001 4278731287
0.006089441 0.041468672 0.36700001 4278797082
0.007281458 0.041468672 0.36700001 4278665496
0.008450387 0.041355681 0.36600003 4278402324
0.009402127 0.040338736 0.35700002 4278797084
0.010532078 0.040225741 0.35600001 4278665498
0.011688367 0.040225741 0.35600001 4278468117
0.012844655 0.040225741 0.35600001 4278599189
0.013961616 0.040112749 0.35500002 4278664982
0.015114657 0.040112749 0.35500002 4278394376
0.016267698 0.040112749 0.35500002 4279118613
0.017371666 0.039999753 0.354 4278860058
0.018521456 0.039999753 0.354 4278595089
0.019615682 0.039886761 0.35300002 4278720777
0.020762227 0.039886761 0.35300002 4279314197
0.021846708 0.03977377 0.35200003 4279314967
0.022990003 0.03977377 0.35200003 4278525451
0.02406474 0.039660774 0.35100001 4279775520
0.02513298 0.039547779 0.35000002 4278524683
0.02626978 0.039547779 0.35000002 4279380760
0.027328275 0.039434783 0.34900001 4278196486
0.028461827 0.039434783 0.34900001 4278327304
0.029510582 0.039321791 0.34800002 4278590476
0.030640885 0.039321791 0.34800002 4279445783
0.031679891 0.039208796 0.347 4278589963
0.032806948 0.039208796 0.347 4278262794
0.033836212 0.039095804 0.34600002 4278925336
0.034960024 0.039095804 0.34600002 4278729492
0.035979543 0.038982812 0.34500003 4278662929
0.037100103 0.038982812 0.34500003 4278200072
0.03810988 0.038869817 0.34400001 4278858773
0.03911316 0.038756825 0.34300002 4278860310
0.040109944 0.03864383 0.34200001 4278663701
0.041100234 0.038530838 0.34100002 4278860056
0.042084023 0.038417842 0.34 4278795033
0.043188341 0.038417842 0.34 4278861080
0.044162393 0.03830485 0.33900002 4279255068
0.045129947 0.038191859 0.33800003 4279649313
0.046227768 0.038191859 0.33800003 4279977508
0.047185577 0.038078863 0.33700001 4280305192
0.04813689 0.037965868 0.33600003 4279384090
0.049228221 0.037965868 0.33600003 4278396427
0.050169785 0.037852872 0.33500001 4278197250
0.051257867 0.037852872 0.33500001 4278195456
0.052189693 0.03773988 0.33400002 4278195456
0.053274523 0.03773988 0.33400002 4278195968
0.054359358 0.03773988 0.33400002 4278198277
0.055444192 0.03773988 0.33400002 4278726673
0.056529019 0.03773988 0.33400002 4279121945
0.057613853 0.03773988 0.33400002 4278992412
0.058698688 0.03773988 0.33400002 4278663447
0.059783522 0.03773988 0.33400002 4278664212
0.060868353 0.03773988 0.33400002 4278730005
0.062138673 0.037852872 0.33500001 4278927382
0.063226752 0.037852872 0.33500001 4278993175
0.064314827 0.037852872 0.33500001 4278730003
0.06540291 0.037852872 0.33500001 4278795796
0.066490993 0.037852872 0.33500001 4279058968
0.067579068 0.037852872 0.33500001 4278928152
0.068667151 0.037852872 0.33500001 4278797080
0.069547012 0.03773988 0.33400002 4278665494
0.070631847 0.03773988 0.33400002 4278797080
0.071501955 0.037626885 0.333 4278862875
0.072583541 0.037626885 0.333 4278925851
0.00012971072 0.042777337 0.36800003 4279639819
0.0013249754 0.042777337 0.36800003 4281422390
0.0025202399 0.042777337 0.36800003 4279320861
0.003705408 0.042661093 0.36700001 4278401810
0.004897425 0.042661093 0.36700001 4278928668
0.006089441 0.042661093 0.36700001 4278862875
0.007261618 0.042544849 0.36600003 4278731289
0.0084272977 0.042428605 0.36500001 4278665496
0.009402127 0.041498665 0.35700002 4278665496
0.010532078 0.041382421 0.35600001 4278402324
0.011688367 0.041382421 0.35600001 4278468117
0.012844655 0.041382421 0.35600001 4278270740
0.013961616 0.041266181 0.35500002 4278927902
0.015114657 0.041266181 0.35500002 4278195718
0.016267698 0.041266181 0.35500002 4278195971
0.017371666 0.041149933 0.354 4278727959
0.018521456 0.041149933 0.354 4278331663
0.019615682 0.041033693 0.35300002 4278720265
0.020762227 0.041033693 0.35300002 4278522632
0.021846708 0.040917452 0.35200003 4278654986
0.02292469 0.040801208 0.35100001 4278590474
0.02406474 0.040801208 0.35100001 4279379990
0.02513298 0.040684965 0.35000002 4278458377
0.02626978 0.040684965 0.35000002 4279511578
0.027328275 0.040568721 0.34900001 4278393097
0.028461827 0.040568721 0.34900001 4278984721
0.029510582 0.04045248 0.34800002 4279578139
0.030640885 0.04045248 0.34800002 4278196999
0.031679891 0.040336236 0.347 4278458377
0.032806948 0.040336236 0.347 4278789650
0.033836212 0.040219992 0.34600002 4278859543
0.034960024 0.040219992 0.34600002 4278727957
0.035979543 0.040103752 0.34500003 4278198537
0.037100103 0.040103752 0.34500003 4278393865
0.03810988 0.039987508 0.34400001 4278262281
0.03911316 0.039871268 0.34300002 4278792214
0.040227227 0.039871268 0.34300002 4278199303
0.041220758 0.03975502 0.34200001 4278462988
0.0422078 0.03963878 0.34100002 4278199301
0.043188341 0.039522536 0.34 4278532115
0.044292662 0.039522536 0.34 4279124252
0.045263465 0.039406296 0.33900002 4278333966
0.046227768 0.039290052 0.33800003 4279452447
0.047325596 0.039290052 0.33800003 4279255068
0.048280153 0.039173808 0.33700001 4279255068
0.049228221 0.039057568 0.33600003 4279386652
0.050319545 0.039057568 0.33600003 4279254553
0.051257867 0.038941324 0.33500001 4279451164
0.052345946 0.038941324 0.33500001 4279450910
0.053274523 0.03882508 0.33400002 4279121433
0.054359358 0.03882508 0.33400002 4279713057
0.055444192 0.03882508 0.33400002 4278790931
0.056529019 0.03882508 0.33400002 4278527246
0.057613853 0.03882508 0.33400002 4278196740
0.058698688 0.03882508 0.33400002 4278195973
0.059783522 0.03882508 0.33400002 4278194176
0.060868353 0.03882508 0.33400002 4278197510
0.062138673 0.038941324 0.33500001 4278596625
0.063226752 0.038941324 0.33500001 4278729492
0.064314827 0.038941324 0.33500001 4278664212
0.06540291 0.038941324 0.33500001 4278730005
0.066490993 0.038941324 0.33500001 4278927384
0.067377344 0.03882508 0.33400002 4278927384
0.068462178 0.03882508 0.33400002 4278795798
0.069547012 0.03882508 0.33400002 4278795798
0.07042037 0.038708836 0.333 4278796568
0.071501955 0.038708836 0.333 4278928154
0.072583541 0.038708836 0.333 4279058970
-0.001065554 0.043973006 0.36800003 4281217308
0.00012971072 0.043973006 0.36800003 4280362256
0.0013249754 0.043973006 0.36800003 4281554743
0.0025133914 0.04385351 0.36700001 4279190045
0.003705408 0.04385351 0.36700001 4278796570
0.004897425 0.04385351 0.36700001 4278797084
0.006072849 0.043734021 0.36600003 4278731289
0.0072417771 0.043614529 0.36500001 4278665496
0.0083811209 0.043375544 0.36300001 4278533910
0.009402127 0.042658594 0.35700002 4278468117
0.010532078 0.042539101 0.35600001 4278468117
0.011688367 0.042539101 0.35600001 4278533910
0.012844655 0.042539101 0.35600001 4278533396
0.013961616 0.042419609 0.35500002 4278795798
0.015114657 0.042419609 0.35500002 4278857748
0.016267698 0.042419609 0.35500002 4279120920
0.017371666 0.042300116 0.354 4278860056
0.018521456 0.042300116 0.354 4278595601
0.019615682 0.042180628 0.35300002 4278851851
0.020762227 0.042180628 0.35300002 4278916877
0.021846708 0.042061135 0.35200003 4278785291
0.02292469 0.041941643 0.35100001 4278916877
0.02406474 0.041941643 0.35100001 4278785804
0.02513298 0.04182215 0.35000002 4278720011
0.02626978 0.04182215 0.35000002 4278654218
0.027328275 0.041702658 0.34900001 4278720011
0.028461827 0.041702658 0.34900001 4278720779
0.029510582 0.041583166 0.34800002 4278459658
0.030640885 0.041583166 0.34800002 4279446551
0.031679891 0.041463673 0.347 4278589961
0.032806948 0.041463673 0.347 4279053074
0.033836212 0.041344184 0.34600002 4278924820
0.034960024 0.041344184 0.34600002 4278197763
0.035979543 0.041224692 0.34500003 4278524683
0.037100103 0.041224692 0.34500003 4278654732
0.03810988 0.0411052 0.34400001 4278786318
0.03911316 0.040985707 0.34300002 4279448348
0.040227227 0.040985707 0.34300002 4279120920
0.041220758 0.040866215 0.34200001 4279056152
0.0422078 0.040746726 0.34100002 4278989845
0.04331537 0.040746726 0.34100002 4278989847
0.044292662 0.04062723 0.34 4278266122
0.045263465 0.040507741 0.33900002 4279516703
0.046364535 0.040507741 0.33900002 4278200074
0.047325596 0.040388249 0.33800003 4278728211
0.048280153 0.040268756 0.33700001 4278926103
0.049374733 0.040268756 0.33700001 4279058455
0.050319545 0.040149264 0.33600003 4278992662
0.051410876 0.040149264 0.33600003 4278992662
0.052345946 0.040029772 0.33500001 4278795285
0.053434025 0.040029772 0.33500001 4278795285
0.054522108 0.040029772 0.33500001 4278663699
0.055444192 0.039910283 0.33400002 4278991896
0.056529019 0.039910283 0.33400002 4278926103
0.057613853 0.039910283 0.33400002 4279451164
0.058698688 0.039910283 0.33400002 4279121945
0.059783522 0.039910283 0.33400002 4279779361
0.060868353 0.039910283 0.33400002 4279384090
0.061953187 0.039910283 0.33400002 4278592269
0.063038021 0.039910283 0.33400002 4279122199
0.064122848 0.039910283 0.33400002 4278598419
0.065207683 0.039910283 0.33400002 4278730005
0.066292517 0.039910283 0.33400002 4278730005
0.067377344 0.039910283 0.33400002 4278795798
0.068257198 0.039790787 0.333 4278730005
0.069338784 0.039790787 0.333 4278730005
0.07042037 0.039790787 0.333 4278730005
0.071501955 0.039790787 0.333 4278532626
0.072365575 0.039671298 0.33200002 4278729492
0.073443912 0.039671298 0.33200002 4279123482
0.00012971072 0.045168675 0.36800003 4280428049
0.0013213749 0.045045931 0.36700001 4281159985
0.0025133914 0.045045931 0.36700001 4279255066
0.003705408 0.045045931 0.36700001 4278993177
0.0048840805 0.044923194 0.36600003 4278796568
0.006072849 0.044923194 0.36600003 4278533910
0.0072417771 0.044800449 0.36500001 4278533910
0.008334944 0.044309489 0.36100003 4278468117
0.009402127 0.043818522 0.35700002 4278468117
0.010532078 0.043695781 0.35600001 4278468117
0.011688367 0.043695781 0.35600001 4278402324
0.012844655 0.043695781 0.35600001 4278467603
0.013961616 0.043573041 0.35500002 4278201350
0.015114657 0.043573041 0.35500002 4278198787
0.016267698 0.043573041 0.35500002 4278266124
0.017371666 0.0434503 0.354 4278794263
0.018521456 0.0434503 0.354 4278925849
0.019615682 0.043327559 0.35300002 4279052822
0.020762227 0.043327559 0.35300002 4278195718
0.021846708 0.043204818 0.35200003 4278720011
0.02292469 0.043082077 0.35100001 4278851597
0.02406474 0.043082077 0.35100001 4278917390
0.02513298 0.042959336 0.35000002 4278851084
0.026194721 0.042836595 0.34900001 4278785291
0.027328275 0.042836595 0.34900001 4278785291
0.028380277 0.042713854 0.34800002 4278785291
0.029510582 0.042713854 0.34800002 4278720011
0.030552836 0.04259111 0.347 4278654472
0.031679891 0.04259111 0.347 4278720265
0.032806948 0.04259111 0.347 4278527498
0.033836212 0.042468373 0.34600002 4278990611
0.034960024 0.042468373 0.34600002 4278791955
0.035979543 0.042345632 0.34500003 4278524683
0.037100103 0.042345632 0.34500003 4278523146
0.03810988 0.042222891 0.34400001 4278588939
0.03911316 0.04210015 0.34300002 4279316762
0.040227227 0.04210015 0.34300002 4278397197
0.041220758 0.041977406 0.34200001 4279385371
0.042331576 0.041977406 0.34200001 4278661394
0.04331537 0.041854668 0.34100002 4279120920
0.044292662 0.041731924 0.34 4279515678
0.045396984 0.041731924 0.34 4279188762
0.046364535 0.041609187 0.33900002 4278924820
0.047465611 0.041609187 0.33900002 4279185941
0.048423421 0.041486446 0.33800003 4278199045
0.049374733 0.041363701 0.33700001 4278660880
0.050469305 0.041363701 0.33700001 4278595087
0.051410876 0.041240964 0.33600003 4278200072
0.052502207 0.041240964 0.33600003 4279121945
0.053434025 0.041118219 0.33500001 4278200329
0.054522108 0.041118219 0.33500001 4278596371
0.055610187 0.041118219 0.33500001 4279189021
0.056698266 0.041118219 0.33500001 4278794263
0.057613853 0.040995482 0.33400002 4278991896
0.058698688 0.040995482 0.33400002 4278795287
0.059783522 0.040995482 0.33400002 4278729494
0.060868353 0.040995482 0.33400002 4278860310
0.061953187 0.040995482 0.33400002 4278196742
0.063038021 0.040995482 0.33400002 4279252506
0.064122848 0.040995482 0.33400002 4278728722
0.065207683 0.040995482 0.33400002 4278992664
0.066292517 0.040995482 0.33400002 4278664212
0.067175612 0.040872738 0.333 4278598419
0.068257198 0.040872738 0.333 4278597906
0.069338784 0.040872738 0.333 4278597906
0.07042037 0.040872738 0.333 4278663699
0.071287237 0.040750001 0.33200002 4278532113
0.072365575 0.040750001 0.33200002 4278794263
0.073443912 0.040750001 0.33200002 4278728470
0.0036953117 0.046112366 0.36600003 4278730003
0.0048840805 0.046112366 0.36600003 4278795796
0.006072849 0.046112366 0.36600003 4278664980
0.0072417771 0.045986373 0.36500001 4278533394
0.0082887672 0.045230437 0.35900003 4278599187
0.009402127 0.044978455 0.35700002 4278533394
0.010532078 0.044852462 0.35600001 4278467603
0.011688367 0.044852462 0.35600001 4278336017
0.012844655 0.044852462 0.35600001 4278664982
0.013961616 0.044726476 0.35500002 4278467603
0.015114657 0.044726476 0.35500002 4278530578
0.016267698 0.044726476 0.35500002 4278595601
0.017371666 0.044600483 0.354 4278795033
0.018521456 0.044600483 0.354 4278795287
0.019615682 0.044474494 0.35300002 4278795033
0.020762227 0.044474494 0.35300002 4279123228
0.021846708 0.044348504 0.35200003 4279187992
0.02292469 0.044222515 0.35100001 4279253271
0.02399618 0.044096526 0.35000002 4279581469
0.02513298 0.044096526 0.35000002 4279251482
0.026194721 0.043970533 0.34900001 4278460173
0.027328275 0.043970533 0.34900001 4278458890
0.028380277 0.043844543 0.34800002 4278654472
0.029510582 0.043844543 0.34800002 4278720011
0.030552836 0.04371855 0.347 4278719498
0.031679891 0.04371855 0.347 4278851084
0.032712407 0.043592565 0.34600002 4279777567
0.033836212 0.043592565 0.34600002 4279187224
0.034858983 0.043466575 0.34500003 4279186711
0.035979543 0.043466575 0.34500003 4278856465
0.036992565 0.043340582 0.34400001 4278656267
0.03810988 0.043340582 0.34400001 4279314967
0.03911316 0.043214593 0.34300002 4279187224
0.040227227 0.043214593 0.34300002 4278727187
0.041220758 0.043088604 0.34200001 4278198789
0.042331576 0.043088604 0.34200001 4278726675
0.04331537 0.042962614 0.34100002 4279187226
0.044292662 0.042836621 0.34 4278198276
0.045396984 0.042836621 0.34 4279186965
0.046364535 0.042710632 0.33900002 4278331656
0.047465611 0.042710632 0.33900002 4279450650
0.048423421 0.042584646 0.33800003 4278198531
0.049521249 0.042584646 0.33800003 4278592523
0.050469305 0.042458653 0.33700001 4278921488
0.051410876 0.042332664 0.33600003 4278593806
0.052502207 0.042332664 0.33600003 4278462220
0.053593531 0.042332664 0.33600003 4279186711
0.054522108 0.042206671 0.33500001 4278725390
0.055610187 0.042206671 0.33500001 4279318047
0.056698266 0.042206671 0.33500001 4278198023
0.057786349 0.042206671 0.33500001 4278199561
0.058874432 0.042206671 0.33500001 4278529810
0.059783522 0.042080685 0.33400002 4278597654
0.060868353 0.042080685 0.33400002 4278860056
0.061953187 0.042080685 0.33400002 4278195456
0.063038021 0.042080685 0.33400002 4278858007
0.064122848 0.042080685 0.33400002 4278991896
0.065207683 0.042080685 0.33400002 4278794517
0.066094033 0.041954692 0.333 4278729492
0.067175612 0.041954692 0.333 4278730005
0.068257198 0.041954692 0.333 4278795796
0.069338784 0.041954692 0.333 4278598417
0.0702089 0.041828703 0.33200002 4278598417
0.071287237 0.041828703 0.33200002 4278466833
0.072365575 0.041828703 0.33200002 4278662677
0.073443912 0.041828703 0.33200002 4278728472
0.006072849 0.047301535 0.36600003 4278991892
0.007261618 0.047301535 0.36600003 4278795283
0.0082656788 0.046267621 0.35800001 4278664210
0.009402127 0.046138383 0.35700002 4278532624
0.010532078 0.046009142 0.35600001 4278532626
0.011688367 0.046009142 0.35600001 4278598419
0.012844655 0.046009142 0.35600001 4278532626
0.013961616 0.045879904 0.35500002 4278598419
0.015114657 0.045879904 0.35500002 4278532628
0.016267698 0.045879904 0.35500002 4278992666
0.017371666 0.045750663 0.354 4278795800
0.018521456 0.045750663 0.354 4279058972
0.019615682 0.045621425 0.35300002 4278795800
0.020762227 0.045621425 0.35300002 4278795800
0.021846708 0.045492187 0.35200003 4278598419
0.02292469 0.045362946 0.35100001 4278795798
0.02399618 0.045233708 0.35000002 4278598419
0.02513298 0.045233708 0.35000002 4278730005
0.026194721 0.045104466 0.34900001 4278729494
0.027328275 0.045104466 0.34900001 4278860056
0.028380277 0.044975229 0.34800002 4279056152
0.029510582 0.044975229 0.34800002 4278924568
0.030552836 0.044845987 0.347 4279515678
0.031679891 0.044845987 0.347 4279186713
0.032712407 0.044716749 0.34600002 4278923287
0.033836212 0.044716749 0.34600002 4278197765
0.034858983 0.044587512 0.34500003 4278195457
0.035979543 0.044587512 0.34500003 4278196228
0.036992565 0.04445827 0.34400001 4278195457
0.03810988 0.04445827 0.34400001 4278328583
0.03911316 0.044329032 0.34300002 4278659086
0.040109944 0.044199791 0.34200001 4279317529
0.041220758 0.044199791 0.34200001 4279319324
0.0422078 0.044070557 0.34100002 4278990359
0.04331537 0.044070557 0.34100002 4278991642
0.044292662 0.043941315 0.34 4279189021
0.045396984 0.043941315 0.34 4278991129
0.046364535 0.043812077 0.33900002 4279582496
0.047465611 0.043812077 0.33900002 4279057176
0.048423421 0.04368284 0.33800003 4278991383
0.049521249 0.04368284 0.33800003 4279581469
0.050469305 0.043553598 0.33700001 4278725392
0.051563885 0.043553598 0.33700001 4279251736
0.052502207 0.04342436 0.33600003 4278198791
0.053593531 0.04342436 0.33600003 4279581469
0.054522108 0.043295119 0.33500001 4278593804
0.055610187 0.043295119 0.33500001 4279053590
0.056698266 0.043295119 0.33500001 4278658832
0.057786349 0.043295119 0.33500001 4278265357
0.058874432 0.043295119 0.33500001 4278791955
0.059783522 0.043165881 0.33400002 4278794517
0.060868353 0.043165881 0.33400002 4278728724
0.061953187 0.043165881 0.33400002 4278198281
0.063038021 0.043165881 0.33400002 4279120920
0.064122848 0.043165881 0.33400002 4278795287
0.065207683 0.043165881 0.33400002 4278663701
0.066094033 0.04303664 0.333 4278664212
0.067175612 0.04303664 0.333 4278664212
0.068257198 0.04303664 0.333 4278532624
0.069130562 0.042907402 0.33200002 4278466831
0.0702089 0.042907402 0.33200002 4278532626
0.071287237 0.042907402 0.33200002 4278795285
0.072365575 0.042907402 0.33200002 4278727957
0.073443912 0.042907402 0.33200002 4279056924
0.0093757901 0.047165822 0.35600001 4278990611
0.010532078 0.047165822 0.35600001 4278794002
0.011688367 0.047165822 0.35600001 4278728722
0.012808575 0.047033336 0.35500002 4278728722
0.013961616 0.047033336 0.35500002 4278926101
0.015114657 0.047033336 0.35500002 4278991894
0.016267698 0.047033336 0.35500002 4278926101
0.017420739 0.047033336 0.35500002 4278993179
0.018521456 0.046900846 0.354 4278795800
0.019615682 0.04676836 0.35300002 4278795800
0.020762227 0.04676836 0.35300002 4278795800
0.021846708 0.046635874 0.35200003 4278927384
0.02292469 0.046503384 0.35100001 4278664212
0.02399618 0.046370897 0.35000002 4278664212
0.02513298 0.046370897 0.35000002 4278664212
0.026194721 0.046238404 0.34900001 4278730005
0.027328275 0.046238404 0.34900001 4278795798
0.028380277 0.046105918 0.34800002 4278532626
0.029510582 0.046105918 0.34800002 4278664212
0.030552836 0.045973428 0.347 4278730005
0.031679891 0.045973428 0.347 4278730005
0.032712407 0.045840941 0.34600002 4278730007
0.033738423 0.045708455 0.34500003 4278860826
0.034858983 0.045708455 0.34500003 4278925851
0.035875253 0.045575965 0.34400001 4278991131
0.036992565 0.045575965 0.34400001 4279056154
0.037999097 0.045443479 0.34300002 4278989593
0.03911316 0.045443479 0.34300002 4279054103
0.040109944 0.045310989 0.34200001 4278461453
0.041220758 0.045310989 0.34200001 4278196226
0.0422078 0.045178503 0.34100002 4278194944
0.043188341 0.045046009 0.34 4278195969
0.044292662 0.045046009 0.34 4278196996
0.045263465 0.044913523 0.33900002 4278265611
0.046364535 0.044913523 0.33900002 4279120918
0.047325596 0.044781037 0.33800003 4279055638
0.048423421 0.044781037 0.33800003 4279582496
0.049374733 0.044648547 0.33700001 4279057176
0.050469305 0.044648547 0.33700001 4278859797
0.051563885 0.044648547 0.33700001 4278925590
0.052502207 0.044516061 0.33600003 4278925590
0.053593531 0.044516061 0.33600003 4279121685
0.054522108 0.044383571 0.33500001 4279253017
0.055610187 0.044383571 0.33500001 4279318810
0.056698266 0.044383571 0.33500001 4278198019
0.057786349 0.044383571 0.33500001 4278264587
0.058698688 0.044251084 0.33400002 4278528013
0.059783522 0.044251084 0.33400002 4278925590
0.060868353 0.044251084 0.33400002 4278728211
0.061953187 0.044251084 0.33400002 4278197513
0.063038021 0.044251084 0.33400002 4279187224
0.064122848 0.044251084 0.33400002 4278729240
0.065012448 0.044118594 0.333 4278729494
0.066094033 0.044118594 0.333 4278598419
0.067175612 0.044118594 0.333 4278598419
0.068257198 0.044118594 0.333 4278466831
0.069130562 0.043986108 0.33200002 4278730003
0.0702089 0.043986108 0.33200002 4278729490
0.071287237 0.043986108 0.33200002 4278465550
0.072365575 0.043986108 0.33200002 4278794517
0.073222697 0.043853618 0.33100003 4278991896
0.074297786 0.043853618 0.33100003 4279120666
0.010532078 0.048322503 0.35600001 4278723080
0.011655536 0.048186764 0.35500002 4278658054
0.013961616 0.048186764 0.35500002 4279055379
0.015114657 0.048186764 0.35500002 4279122199
0.016267698 0.048186764 0.35500002 4279319324
0.017420739 0.048186764 0.35500002 4279386402
0.018521456 0.048051026 0.354 4279124000
0.019615682 0.047915291 0.35300002 4279189793
0.020762227 0.047915291 0.35300002 4279189793
0.021846708 0.047779553 0.35200003 4279058205
0.02292469 0.047643814 0.35100001 4279123998
0.02399618 0.04750808 0.35000002 4278860826
0.02513298 0.04750808 0.35000002 4278795033
0.026194721 0.047372341 0.34900001 4278663960
0.027328275 0.047372341 0.34900001 4278795800
0.028380277 0.047236603 0.34800002 4278664214
0.029510582 0.047236603 0.34800002 4278598421
0.030552836 0.047100864 0.347 4278532628
0.031588595 0.04696513 0.34600002 4278795798
0.032712407 0.04696513 0.34600002 4278664212
0.033738423 0.046829391 0.34500003 4278664214
0.034858983 0.046829391 0.34500003 4278730007
0.035875253 0.046693653 0.34400001 4278532628
0.036885031 0.046557918 0.34300002 4278664214
0.037999097 0.046557918 0.34300002 4278598421
0.038999125 0.04642218 0.34200001 4278663701
0.040109944 0.04642218 0.34200001 4278860310
0.041100234 0.046286441 0.34100002 4278860310
0.042084023 0.046150703 0.34 4278794517
0.043188341 0.046150703 0.34 4279318810
0.044162393 0.046014968 0.33900002 4279976740
0.045263465 0.046014968 0.33900002 4279515424
0.046364535 0.046014968 0.33900002 4279251482
0.047325596 0.04587923 0.33800003 4278460685
0.048423421 0.04587923 0.33800003 4278195457
0.049374733 0.045743492 0.33700001 4278195200
0.050469305 0.045743492 0.33700001 4278195714
0.051410876 0.045607757 0.33600003 4278197764
0.052502207 0.045607757 0.33600003 4278528013
0.053593531 0.045607757 0.33600003 4278989845
0.054522108 0.045472018 0.33500001 4279187224
0.055610187 0.045472018 0.33500001 4279121945
0.056698266 0.045472018 0.33500001 4278793750
0.057786349 0.045472018 0.33500001 4278925336
0.058698688 0.04533628 0.33400002 4278990359
0.059783522 0.04533628 0.33400002 4278860310
0.060868353 0.04533628 0.33400002 4278794517
0.061953187 0.04533628 0.33400002 4278263306
0.063038021 0.04533628 0.33400002 4279318812
0.064122848 0.04533628 0.33400002 4278860310
0.065012448 0.045200542 0.333 4278729492
0.066094033 0.045200542 0.333 4278663699
0.067175612 0.045200542 0.333 4278730005
0.068257198 0.045200542 0.333 4278664212
0.069130562 0.045064807 0.33200002 4278597906
0.0702089 0.045064807 0.33200002 4278794513
0.071287237 0.045064807 0.33200002 4278728720
0.072365575 0.045064807 0.33200002 4278860308
0.073222697 0.044929069 0.33100003 4278991896
0.074297786 0.044929069 0.33100003 4278594324
0.02292469 0.048784252 0.35100001 4279516705
0.02399618 0.048645265 0.35000002 4279451682
0.02513298 0.048645265 0.35000002 4278991644
0.026194721 0.048506279 0.34900001 4279189791
0.027328275 0.048506279 0.34900001 4278795033
0.028380277 0.048367295 0.34800002 4278927386
0.029510582 0.048367295 0.34800002 4278795287
0.030552836 0.048228305 0.347 4278795287
0.031588595 0.048089322 0.34600002 4278729494
0.032712407 0.048089322 0.34600002 4278730005
0.033738423 0.047950335 0.34500003 4278664212
0.034757942 0.047811348 0.34400001 4278664212
0.035875253 0.047811348 0.34400001 4278730005
0.036885031 0.047672361 0.34300002 4278664212
0.037888311 0.047533374 0.34200001 4278598419
0.038999125 0.047533374 0.34200001 4278532626
0.039992664 0.047394387 0.34100002 4278598419
0.041100234 0.047394387 0.34100002 4278730005
0.042084023 0.047255401 0.34 4278664212
0.04306132 0.047116414 0.33900002 4278730005
0.044162393 0.047116414 0.33900002 4278532626
0.045129947 0.046977431 0.33800003 4278729492
0.046227768 0.046977431 0.33800003 4278795285
0.047325596 0.046977431 0.33800003 4279189273
0.048280153 0.04683844 0.33700001 4278925590
0.049374733 0.04683844 0.33700001 4279187992
0.050319545 0.046699457 0.33600003 4279516443
0.051410876 0.046699457 0.33600003 4279318297
0.052502207 0.046699457 0.33600003 4278988562
0.053434025 0.046560466 0.33500001 4278197507
0.054522108 0.046560466 0.33500001 4278195457
0.055610187 0.046560466 0.33500001 4278194432
0.056698266 0.046560466 0.33500001 4278195200
0.057613853 0.046421483 0.33400002 4278195200
0.058698688 0.046421483 0.33400002 4278198281
0.059783522 0.046421483 0.33400002 4279251736
0.060868353 0.046421483 0.33400002 4278857748
0.061953187 0.046421483 0.33400002 4278196740
0.063038021 0.046421483 0.33400002 4278990359
0.064122848 0.046421483 0.33400002 4278860310
0.065207683 0.046421483 0.33400002 4278795287
0.066094033 0.046282496 0.333 4278597906
0.067175612 0.046282496 0.333 4278597906
0.068257198 0.046282496 0.333 4278730005
0.069338784 0.046282496 0.333 4278730005
0.0702089 0.046143509 0.33200002 4278663699
0.071287237 0.046143509 0.33200002 4278663699
0.072365575 0.046143509 0.33200002 4278794004
0.073443912 0.046143509 0.33200002 4278991383
0.074297786 0.046004526 0.33100003 4279776031
0.027249973 0.049497984 0.34800002 4278924314
0.028380277 0.049497984 0.34800002 4279121693
0.029425781 0.049355745 0.347 4279450658
0.030552836 0.049355745 0.347 4279320096
0.031588595 0.049213514 0.34600002 4279189021
0.032712407 0.049213514 0.34600002 4279123228
0.033738423 0.049071278 0.34500003 4278991642
0.034757942 0.048929039 0.34400001 4278926101
0.035770968 0.048786808 0.34300002 4278729492
0.036885031 0.048786808 0.34300002 4278795285
0.037888311 0.048644569 0.34200001 4278729492
0.038885094 0.048502333 0.34100002 4278663699
0.039992664 0.048502333 0.34100002 4278663699
0.040979702 0.048360098 0.34 4278729492
0.042084023 0.048360098 0.34 4278795285
0.04306132 0.048217863 0.33900002 4278729492
0.044032123 0.048075628 0.33800003 4278664212
0.045129947 0.048075628 0.33800003 4278664212
0.046227768 0.048075628 0.33800003 4278795798
0.047185577 0.047933392 0.33700001 4278730005
0.048280153 0.047933392 0.33700001 4278664212
0.049374733 0.047933392 0.33700001 4278664212
0.050319545 0.047791157 0.33600003 4278729492
0.051410876 0.047791157 0.33600003 4278991894
0.052345946 0.047648918 0.33500001 4278728722
0.053434025 0.047648918 0.33500001 4278926101
0.054522108 0.047648918 0.33500001 4278991381
0.055610187 0.047648918 0.33500001 4279056406
0.056529019 0.047506686 0.33400002 4279187478
0.057613853 0.047506686 0.33400002 4279843873
0.058698688 0.047506686 0.33400002 4279514395
0.059783522 0.047506686 0.33400002 4278854927
0.060868353 0.047506686 0.33400002 4278591755
0.061953187 0.047506686 0.33400002 4279252506
0.063038021 0.047506686 0.33400002 4278925336
0.064122848 0.047506686 0.33400002 4278795287
0.065207683 0.047506686 0.33400002 4278729494
0.066094033 0.047364447 0.333 4278663699
0.067175612 0.047364447 0.333 4278795285
0.068257198 0.047364447 0.333 4278664212
0.069338784 0.047364447 0.333 4278664212
0.0702089 0.047222216 0.33200002 4278664212
0.071287237 0.047222216 0.33200002 4278597906
0.072365575 0.047222216 0.33200002 4278728211
0.073443912 0.047222216 0.33200002 4278924566
0.074297786 0.04707998 0.33100003 4284841840
0.033640627 0.050046727 0.34400001 4279712287
0.034656905 0.049901247 0.34300002 4279450912
0.035770968 0.049901247 0.34300002 4279320096
0.036777493 0.04975576 0.34200001 4279254555
0.037888311 0.04975576 0.34200001 4279254553
0.038885094 0.049610276 0.34100002 4279320346
0.039992664 0.049610276 0.34100002 4279320346
0.040979702 0.049464788 0.34 4279320346
0.041960247 0.049319305 0.33900002 4279123480
0.04306132 0.049319305 0.33900002 4278991896
0.044032123 0.049173824 0.33800003 4278991896
0.045129947 0.049173824 0.33800003 4279058459
0.046090998 0.049028337 0.33700001 4278861080
0.047185577 0.049028337 0.33700001 4278730007
0.048280153 0.049028337 0.33700001 4278664214
0.049228221 0.048882853 0.33600003 4278664212
0.050319545 0.048882853 0.33600003 4278664212
0.051410876 0.048882853 0.33600003 4278598419
0.052345946 0.048737366 0.33500001 4278598419
0.053434025 0.048737366 0.33500001 4278730005
0.054522108 0.048737366 0.33500001 4278664212
0.055610187 0.048737366 0.33500001 4278795285
0.056529019 0.048591882 0.33400002 4278861078
0.057613853 0.048591882 0.33400002 4278991381
0.058698688 0.048591882 0.33400002 4279254553
0.059783522 0.048591882 0.33400002 4279056404
0.060868353 0.048591882 0.33400002 4279122197
0.061953187 0.048591882 0.33400002 4278990611
0.063038021 0.048591882 0.33400002 4278926101
0.064122848 0.048591882 0.33400002 4278664214
0.065207683 0.048591882 0.33400002 4278795798
0.066292517 0.048591882 0.33400002 4278664212
0.067377344 0.048591882 0.33400002 4278664212
0.068257198 0.048446395 0.333 4278598419
0.069338784 0.048446395 0.333 4278598419
0.07042037 0.048446395 0.333 4278663699
0.071287237 0.048300914 0.33200002 4278531343
0.072365575 0.048300914 0.33200002 4278859027
0.073443912 0.048300914 0.33200002 4278987029
0.034656905 0.05101569 0.34300002 4284513127
0.035770968 0.05101569 0.34300002 4284316262
0.036777493 0.050866954 0.34200001 4283132760
0.037888311 0.050866954 0.34200001 4281093175
0.038885094 0.050718222 0.34100002 4280369450
0.039875381 0.050569486 0.34 4279251223
0.040979702 0.050569486 0.34 4279120666
0.041960247 0.050420754 0.33900002 4279450398
0.042934295 0.050272021 0.33800003 4279581984
0.044032123 0.050272021 0.33800003 4279713570
0.044996426 0.050123286 0.33700001 4279450912
0.046090998 0.050123286 0.33700001 4279582496
0.047185577 0.050123286 0.33700001 4279451680
0.048280153 0.050123286 0.33700001 4279451680
0.049228221 0.049974553 0.33600003 4279320348
0.050319545 0.049974553 0.33600003 4279386654
0.051410876 0.049974553 0.33600003 4279190045
0.052345946 0.049825817 0.33500001 4279190045
0.053434025 0.049825817 0.33500001 4279255838
0.054522108 0.049825817 0.33500001 4279124250
0.055610187 0.049825817 0.33500001 4278992664
0.056529019 0.049677085 0.33400002 4278992666
0.057613853 0.049677085 0.33400002 4278991896
0.058698688 0.049677085 0.33400002 4278991896
0.059783522 0.049677085 0.33400002 4278926101
0.060868353 0.049677085 0.33400002 4279123480
0.061953187 0.049677085 0.33400002 4279057174
0.063038021 0.049677085 0.33400002 4278991894
0.064122848 0.049677085 0.33400002 4278662929
0.065207683 0.049677085 0.33400002 4278728722
0.066292517 0.049677085 0.33400002 4278794515
0.067377344 0.049677085 0.33400002 4278728722
0.068462178 0.049677085 0.33400002 4278794515
0.069338784 0.049528349 0.333 4278662929
0.07042037 0.049528349 0.333 4278728722
0.071501955 0.049528349 0.333 4278859795
0.072365575 0.049379617 0.33200002 4279185689
0.073443912 0.049379617 0.33200002 4282210634
0.044032123 0.051370215 0.33800003 4284711020
0.044996426 0.05121823 0.33700001 4283658332
0.046090998 0.05121823 0.33700001 4282474058
0.047185577 0.05121823 0.33700001 4281750335
0.04813689 0.05106625 0.33600003 4280302889
0.049228221 0.05106625 0.33600003 4280171301
0.050319545 0.05106625 0.33600003 4279514141
0.051257867 0.050914265 0.33500001 4278923541
0.052345946 0.050914265 0.33500001 4279318812
0.053434025 0.050914265 0.33500001 4279581469
0.054522108 0.050914265 0.33500001 4279713055
0.055610187 0.050914265 0.33500001 4279713568
0.056529019 0.050762285 0.33400002 4279647777
0.057613853 0.050762285 0.33400002 4279516705
0.058698688 0.050762285 0.33400002 4279385887
0.059783522 0.050762285 0.33400002 4279386141
0.060868353 0.050762285 0.33400002 4279386141
0.061953187 0.050762285 0.33400002 4279582748
0.063038021 0.050762285 0.33400002 4279451932
0.064122848 0.050762285 0.33400002 4279451932
0.065207683 0.050762285 0.33400002 4279517725
0.066292517 0.050762285 0.33400002 4279254553
0.067377344 0.050762285 0.33400002 4279386139
0.068462178 0.050762285 0.33400002 4279320346
0.069547012 0.050762285 0.33400002 4279057174
0.07042037 0.050610296 0.333 4278794004
0.071501955 0.050610296 0.333 4279056152
0.050319545 0.05215795 0.33600003 4285697403
0.051257867 0.052002717 0.33500001 4285697915
0.052345946 0.052002717 0.33500001 4286026880
0.053434025 0.052002717 0.33500001 4286158468
0.054522108 0.052002717 0.33500001 4285895296
0.055610187 0.052002717 0.33500001 4285434231
0.056529019 0.051847484 0.33400002 4284249957
0.057613853 0.051847484 0.33400002 4283131476
0.058698688 0.051847484 0.33400002 4281815614
0.059783522 0.051847484 0.33400002 4280171305
0.060868353 0.051847484 0.33400002 4279711522
0.062138673 0.052002717 0.33500001 4279514393
0.063038021 0.051847484 0.33400002 4278922256
0.064314827 0.052002717 0.33500001 4279514393
0.06540291 0.052002717 0.33500001 4279711772
0.066292517 0.051847484 0.33400002 4279514906
0.067377344 0.051847484 0.33400002 4279449113
0.068462178 0.051847484 0.33400002 4279449113
0.069547012 0.051847484 0.33400002 4278462218
0.07042037 0.051692251 0.333 4279185689
0.071501955 0.051692251 0.333 4281947714
0.058874432 0.053091161 0.33500001 4285170546
0.059962511 0.053091161 0.33500001 4285038960
0.06105059 0.053091161 0.33500001 4284775788
0.062138673 0.053091161 0.33500001 4284775534
0.040246788 0.042277828 0.34399393 4294967295
0.040246788 0.042277828 0.34399393 4294901760
0.040295564 0.041781075 0.3440232 4294901760
0.040344339 0.041284319 0.34405246 4294901760
0.040393114 0.040787566 0.34408173 4294901760
0.040441889 0.04029081 0.344111 4294901760
0.040490665 0.039794058 0.34414026 4294901760
0.04053944 0.039297305 0.34416953 4294901760
0.040588215 0.038800549 0.34419879 4294901760
0.04063699 0.038303796 0.34422806 4294901760
0.040685765 0.03780704 0.34425732 4294901760
0.040734541 0.037310287 0.34428659 4294901760
0.040783316 0.036813535 0.34431586 4294901760
0.040832091 0.036316782 0.34434512 4294901760
0.04088087 0.035820026 0.34437439 4294901760
0.040929645 0.035323273 0.34440365 4294901760
0.040978421 0.034826517 0.34443292 4294901760
0.041027196 0.034329765 0.34446219 4294901760
0.041075971 0.033833012 0.34449145 4294901760
0.041124746 0.033336256 0.34452072 4294901760
0.041173521 0.032839503 0.34454998 4294901760
0.041222297 0.032342747 0.34457925 4294901760
0.041271072 0.031845994 0.34460852 4294901760
0.041319847 0.031349242 0.34463778 4294901760
0.041368622 0.030852485 0.34466705 4294901760
0.041417398 0.030355733 0.34469631 4294901760
0.041466173 0.029858978 0.34472555 4294901760
0.041514948 0.029362224 0.34475482 4294901760
0.041563723 0.02886547 0.34478408 4294901760
0.041612498 0.028368715 0.34481335 4294901760
0.041661274 0.027871963 0.34484261 4294901760
0.041710049 0.027375208 0.34487188 4294901760
0.041758824 0.026878454 0.34490114 4294901760
0.041807599 0.026381701 0.34493041 4294901760
0.041856375 0.025884947 0.34495968 4294901760
0.04190515 0.025388192 0.34498894 4294901760
0.041953925 0.02489144 0.34501821 4294901760
0.0420027 0.024394684 0.34504747 4294901760
0.042051479 0.023897931 0.34507674 4294901760
0.042100251 0.023401177 0.34510601 4294901760
0.04214903 0.022904424 0.34513527 4294901760
0.042197805 0.022407668 0.34516454 4294901760
0.04224658 0.021910915 0.3451938 4294901760
0.042295355 0.021414161 0.34522307 4294901760
0.042344131 0.020917406 0.34525234 4294901760
0.042392906 0.020420654 0.3452816 4294901760
0.042441681 0.019923899 0.34531087 4294901760
0.042490456 0.019427145 0.34534013 4294901760
0.042539231 0.01893039 0.3453694 4294901760
0.042588007 0.018433638 0.34539866 4294901760
0.042636782 0.017936883 0.34542793 4294901760
0.042685557 0.017440129 0.3454572 4294901760
0.042734332 0.016943375 0.34548646 4294901760
0.042783108 0.016446622 0.34551573 4294901760
0.042831883 0.015949868 0.34554499 4294901760
0.042880658 0.015453111 0.34557426 4294901760
0.042929433 0.014956359 0.34560353 4294901760
0.042978209 0.014459604 0.34563279 4294901760
0.043026984 0.013962852 0.34566206 4294901760
0.043075759 0.013466097 0.34569132 4294901760
0.043124534 0.012969345 0.34572059 4294901760
0.043173309 0.012472589 0.34574986 4294901760
0.043222085 0.011975834 0.34577912 4294901760
0.043270864 0.011479082 0.34580839 4294901760
0.043319635 0.010982327 0.34583765 4294901760
0.043368414 0.010485575 0.34586692 4294901760
0.043417189 0.009988822 0.34589618 4294901760
0.043465964 0.0094920658 0.34592545 4294901760
0.04351474 0.0089953095 0.34595472 4294901760
0.043563515 0.0084985569 0.34598398 4294901760
0.04361229 0.0080018044 0.34601325 4294901760
0.043661065 0.0075050518 0.34604251 4294901760
0.043709841 0.0070082955 0.34607178 4294901760
0.043758616 0.0065115392 0.34610105 4294901760
0.043807391 0.0060147867 0.34613031 4294901760
0.043856166 0.0055180341 0.34615958 4294901760
0.043904942 0.0050212815 0.34618884 4294901760
0.043953717 0.0045245253 0.34621808 4294901760
0.044002492 0.0040277727 0.34624735 4294901760
0.044051267 0.0035310201 0.34627661 4294901760
0.044100042 0.0030342638 0.34630588 4294901760
0.044148818 0.0025375076 0.34633514 4294901760
0.044197593 0.002040755 0.34636441 4294901760
0.044246368 0.0015440024 0.34639367 4294901760
0.044295143 0.0010472499 0.34642294 4294901760
0.044343919 0.0005504936 0.34645221 4294901760
0.044392694 5.3737313e-05 0.34648147 4294901760
0.044441469 -0.00044301525 0.34651074 4294901760
0.044490248 -0.00093976781 0.34654 4294901760
0.044539019 -0.0014365204 0.34656927 4294901760
0.044587798 -0.0019332767 0.34659854 4294901760
0.044636574 -0.0024300292 0.3466278 4294901760
0.044685349 -0.0029267855 0.34665707 4294901760
0.044734124 -0.0034235381 0.34668633 4294901760
0.044782899 -0.0039202906 0.3467156 4294901760
0.044831675 -0.0044170469 0.34674487 4294901760
0.04488045 -0.0049137995 0.34677413 4294901760
0.044929225 -0.005410552 0.3468034 4294901760
0.044978 -0.0059073083 0.34683266 4294901760
0.045026775 -0.0064040609 0.34686193 4294901760
0.045075551 -0.0069008172 0.34689119 4294901760
0.045124326 -0.0073975697 0.34692046 4294901760
0.040246788 0.042277828 0.34399393 4278255360
0.040688235 0.042307451 0.34376103 4278255360
0.041129682 0.042337075 0.34352812 4278255360
0.041571129 0.042366698 0.34329519 4278255360
0.042012572 0.042396322 0.34306228 4278255360
0.042454019 0.042425945 0.34282938 4278255360
0.042895466 0.042455569 0.34259647 4278255360
0.043336913 0.042485192 0.34236357 4278255360
0.04377836 0.042514816 0.34213063 4278255360
0.044219807 0.042544439 0.34189773 4278255360
0.044661254 0.042574063 0.34166482 4278255360
0.045102701 0.042603686 0.34143192 4278255360
0.045544144 0.04263331 0.34119901 4278255360
0.045985591 0.042662933 0.34096611 4278255360
0.046427038 0.042692557 0.34073317 4278255360
0.046868484 0.04272218 0.34050027 4278255360
0.047309931 0.042751804 0.34026736 4278255360
0.047751378 0.042781424 0.34003446 4278255360
0.048192825 0.042811047 0.33980155 4278255360
0.048634268 0.042840671 0.33956861 4278255360
0.049075715 0.042870294 0.33933571 4278255360
0.049517162 0.042899918 0.3391028 4278255360
0.049958609 0.042929541 0.3388699 4278255360
0.050400056 0.042959165 0.33863699 4278255360
0.050841503 0.042988788 0.33840406 4278255360
0.05128295 0.043018412 0.33817115 4278255360
0.051724397 0.043048035 0.33793825 4278255360
0.052165844 0.043077659 0.33770534 4278255360
0.052607287 0.043107282 0.33747244 4278255360
0.053048734 0.043136906 0.3372395 4278255360
0.053490181 0.043166529 0.3370066 4278255360
0.053931627 0.043196153 0.33677369 4278255360
0.054373074 0.043225776 0.33654079 4278255360
0.054814521 0.0432554 0.33630788 4278255360
0.055255964 0.043285023 0.33607498 4278255360
0.055697411 0.043314647 0.33584204 4278255360
0.056138858 0.04334427 0.33560914 4278255360
0.056580305 0.043373894 0.33537623 4278255360
0.057021752 0.043403517 0.33514333 4278255360
0.057463199 0.043433141 0.33491042 4278255360
0.057904646 0.043462764 0.33467749 4278255360
0.058346093 0.043492388 0.33444458 4278255360
0.05878754 0.043522011 0.33421168 4278255360
0.059228987 0.043551635 0.33397877 4278255360
0.059670433 0.043581259 0.33374587 4278255360
0.060111877 0.043610882 0.33351293 4278255360
0.060553323 0.043640506 0.33328003 4278255360
0.06099477 0.043670129 0.33304712 4278255360
0.061436214 0.043699753 0.33281422 4278255360
0.06187766 0.043729376 0.33258131 4278255360
0.062319107 0.043758996 0.33234841 4278255360
0.062760554 0.043788619 0.33211547 4278255360
0.063202001 0.043818243 0.33188257 4278255360
0.063643448 0.043847866 0.33164966 4278255360
0.064084895 0.04387749 0.33141676 4278255360
0.064526342 0.043907113 0.33118385 4278255360
0.064967789 0.043936737 0.33095092 4278255360
0.065409236 0.04396636 0.33071801 4278255360
0.065850683 0.043995984 0.33048511 4278255360
0.066292122 0.044025607 0.3302522 4278255360
0.066733576 0.044055231 0.3300193 4278255360
0.067175016 0.044084854 0.32978636 4278255360
0.067616463 0.044114478 0.32955346 4278255360
0.06805791 0.044144101 0.32932055 4278255360
0.068499357 0.044173725 0.32908764 4278255360
0.068940803 0.044203348 0.32885474 4278255360
0.06938225 0.044232972 0.3286218 4278255360
0.069823697 0.044262595 0.3283889 4278255360
0.070265144 0.044292219 0.32815599 4278255360
0.070706591 0.044321842 0.32792309 4278255360
0.071148038 0.044351466 0.32769018 4278255360
0.071589485 0.04438109 0.32745725 4278255360
0.072030932 0.044410713 0.32722434 4278255360
0.072472379 0.044440337 0.32699144 4278255360
0.072913826 0.04446996 0.32675853 4278255360
0.073355272 0.044499584 0.32652563 4278255360
0.073796719 0.044529207 0.32629272 4278255360
0.074238166 0.044558831 0.32605979 4278255360
0.074679613 0.044588454 0.32582688 4278255360
0.07512106 0.044618078 0.32559398 4278255360
0.075562507 0.044647701 0.32536107 4278255360
0.076003946 0.044677325 0.32512817 4278255360
0.076445393 0.044706948 0.32489523 4278255360
0.07688684 0.044736572 0.32466233 4278255360
0.077328287 0.044766191 0.32442942 4278255360
0.077769734 0.044795819 0.32419652 4278255360
0.078211181 0.044825438 0.32396361 4278255360
0.078652628 0.044855062 0.32373068 4278255360
0.079094075 0.044884685 0.32349777 4278255360
0.079535514 0.044914309 0.32326487 4278255360
0.079976961 0.044943932 0.32303196 4278255360
0.080418408 0.044973556 0.32279906 4278255360
0.080859855 0.045003179 0.32256615 4278255360
0.081301302 0.045032803 0.32233322 4278255360
0.081742749 0.045062426 0.32210031 4278255360
0.082184196 0.04509205 0.32186741 4278255360
0.082625642 0.045121673 0.3216345 4278255360
0.083067089 0.045151297 0.3214016 4278255360
0.083508536 0.045180921 0.32116866 4278255360
0.083949983 0.045210544 0.32093576 4278255360
0.08439143 0.045240168 0.32070285 4278255360
0.040246788 0.042277828 0.34399393 4278190335
0.040463723 0.042325519 0.34444189 4278190335
0.040680654 0.04237321 0.34488985 4278190335
0.040897589 0.042420901 0.34533781 4278190335
0.04111452 0.042468593 0.34578577 4278190335
0.041331455 0.04251628 0.34623373 4278190335
0.04154839 0.042563971 0.34668168 4278190335
0.041765321 0.042611662 0.34712964 4278190335
0.041982256 0.042659353 0.3475776 4278190335
0.042199187 0.042707045 0.34802556 4278190335
0.042416122 0.042754736 0.34847349 4278190335
0.042633057 0.042802427 0.34892145 4278190335
0.042849988 0.042850118 0.34936941 4278190335
0.043066923 0.042897806 0.34981737 4278190335
0.043283854 0.042945497 0.35026532 4278190335
0.043500789 0.042993188 0.35071328 4278190335
0.043717723 0.043040879 0.35116124 4278190335
0.043934654 0.04308857 0.3516092 4278190335
0.044151589 0.043136261 0.35205716 4278190335
0.04436852 0.043183953 0.35250512 4278190335
0.044585455 0.043231644 0.35295308 4278190335
0.04480239 0.043279331 0.35340104 4278190335
0.045019321 0.043327022 0.35384899 4278190335
0.045236256 0.043374714 0.35429695 4278190335
0.045453187 0.043422405 0.35474491 4278190335
0.045670122 0.043470096 0.35519287 4278190335
0.045887053 0.043517787 0.35564083 4278190335
0.046103988 0.043565478 0.35608879 4278190335
0.046320923 0.043613169 0.35653675 4278190335
0.046537854 0.043660857 0.3569847 4278190335
0.046754789 0.043708548 0.35743266 4278190335
0.046971723 0.043756239 0.35788059 4278190335
0.047188655 0.04380393 0.35832855 4278190335
0.047405589 0.043851621 0.35877651 4278190335
0.04762252 0.043899313 0.35922447 4278190335
0.047839455 0.043947004 0.35967243 4278190335
0.04805639 0.043994695 0.36012039 4278190335
0.048273321 0.044042386 0.36056834 4278190335
0.048490256 0.044090074 0.3610163 4278190335
0.048707187 0.044137765 0.36146426 4278190335
0.048924122 0.044185456 0.36191222 4278190335
0.049141057 0.044233147 0.36236018 4278190335
0.049357988 0.044280838 0.36280814 4278190335
0.049574923 0.044328529 0.3632561 4278190335
0.049791858 0.044376221 0.36370406 4278190335
0.050008789 0.044423912 0.36415201 4278190335
0.050225724 0.044471599 0.36459997 4278190335
0.050442655 0.04451929 0.36504793 4278190335
0.050659589 0.044566981 0.36549589 4278190335
0.050876521 0.044614673 0.36594385 4278190335
