# .PCD v0.7 - Point Cloud Data file format
VERSION 0.7
FIELDS x y z rgb
SIZE 4 4 4 4
TYPE F F F U
COUNT 1 1 1 1
WIDTH 1074
HEIGHT 1
VIEWPOINT 0 0 0 1 0 0 0
POINTS 1074
DATA ascii
0.039212037 0.070196345 0.30100003 4280372266
0.040189687 0.070196345 0.30100003 4279650596
0.041030563 0.069963135 0.30000001 4279716900
0.042004965 0.069963135 0.30000001 4279651105
0.042836104 0.069729924 0.29900002 4279650592
0.043660741 0.069496706 0.29800001 4279585312
0.044329122 0.069030285 0.296 4279585312
0.045137525 0.068797082 0.29500002 4279650594
0.045939427 0.068563864 0.294 4280502573
0.046734836 0.06833066 0.29300001 4279247123
0.047523748 0.06809745 0.29200003 4279114769
0.048306163 0.067864239 0.29100001 4278916877
0.049082082 0.067631029 0.29000002 4279048717
0.050024007 0.067631029 0.29000002 4278852361
0.05079018 0.067397818 0.289 4279644443
0.051549863 0.067164607 0.28800002 4279840028
0.052485283 0.067164607 0.28800002 4278392582
0.053235218 0.066931397 0.287 4279649059
0.053978663 0.066698186 0.28600001 4279650596
0.054715607 0.066464975 0.28500003 4278924566
0.055641286 0.066464975 0.28500003 4278198534
0.056368485 0.066231765 0.28400001 4278529296
0.057089191 0.065998554 0.28300002 4279781158
0.058008377 0.065998554 0.28300002 4279716135
0.058719333 0.065765344 0.28200001 4280504881
0.059423801 0.065532133 0.28100002 4279053842
0.040189687 0.071174324 0.30100003 4279318297
0.041167334 0.071174324 0.30100003 4280241448
0.042004965 0.070937857 0.30000001 4279715615
0.042979367 0.070937857 0.30000001 4279847201
0.043807257 0.070701405 0.29900002 4279519006
0.044329122 0.069992021 0.296 4279651105
0.045137525 0.069755562 0.29500002 4279716898
0.045939427 0.069519103 0.294 4279651105
0.046734836 0.069282643 0.29300001 4279847203
0.047523748 0.069046184 0.29200003 4280567596
0.048306163 0.068809725 0.29100001 4278983951
0.049082082 0.068573266 0.29000002 4279180816
0.050024007 0.068573266 0.29000002 4278982924
0.05079018 0.0683368 0.289 4278982924
0.051549863 0.068100348 0.28800002 4278851597
0.052485283 0.068100348 0.28800002 4279576604
0.053235218 0.067863882 0.287 4279847205
0.053978663 0.06762743 0.28600001 4279057176
0.054715607 0.067390971 0.28500003 4278986000
0.055641286 0.067390971 0.28500003 4278853133
0.056368485 0.067154504 0.28400001 4278984721
0.057089191 0.066918053 0.28300002 4278658064
0.057803396 0.066681586 0.28200001 4279584549
0.058511112 0.066445127 0.28100002 4279519010
0.059423801 0.066445127 0.28100002 4279715104
0.060121763 0.066208668 0.28 4280371750
0.060813237 0.065972209 0.27900001 4279053842
0.061498217 0.065735757 0.27800003 4278527500
0.062401161 0.065735757 0.27800003 4279844895
0.063076392 0.065499291 0.27700001 4279649311
0.063976087 0.065499291 0.27700001 4279584799
0.064875782 0.065499291 0.27700001 4279453726
0.065538026 0.065262832 0.27600002 4278862359
0.040189687 0.072152302 0.30100003 4278982152
0.041167334 0.072152302 0.30100003 4278720777
0.042144984 0.072152302 0.30100003 4280304676
0.042979367 0.071912594 0.30000001 4279977506
0.043953769 0.071912594 0.30000001 4279584801
0.044928163 0.071912594 0.30000001 4279585314
0.045902565 0.071912594 0.30000001 4279520291
0.045939427 0.070474342 0.294 4279388705
0.046734836 0.070234634 0.29300001 4279716898
0.047523748 0.069994926 0.29200003 4279782178
0.048306163 0.069755211 0.29100001 4279912483
0.049082082 0.069515511 0.29000002 4279712285
0.050024007 0.069515511 0.29000002 4278720779
0.05079018 0.069275796 0.289 4279180562
0.051549863 0.069036089 0.28800002 4279245842
0.052303042 0.068796374 0.287 4279905823
0.053235218 0.068796374 0.287 4279912998
0.053978663 0.068556674 0.28600001 4279847203
0.054715607 0.068316966 0.28500003 4279050512
0.055446051 0.068077251 0.28400001 4279115023
0.056368485 0.068077251 0.28400001 4279312402
0.057089191 0.067837551 0.28300002 4278853133
0.057803396 0.067597836 0.28200001 4279779875
0.058511112 0.067358129 0.28100002 4278200329
0.059423801 0.067358129 0.28100002 4279253017
0.060121763 0.067118414 0.28 4279517473
0.060813237 0.066878714 0.27900001 4279781158
0.061498217 0.066639006 0.27800003 4280109610
0.062401161 0.066639006 0.27800003 4279448602
0.063076392 0.066399291 0.27700001 4278723595
0.063976087 0.066399291 0.27700001 4279712026
0.064641573 0.066159591 0.27600002 4279648541
0.065538026 0.066159591 0.27600002 4279387935
0.066193767 0.065919876 0.27500001 4279519521
0.067086965 0.065919876 0.27500001 4279125533
0.067980163 0.065919876 0.27500001 4278862873
0.068622917 0.065680169 0.27400002 4278797334
0.071472548 0.064241916 0.26800001 4279783975
0.07207308 0.064002208 0.26700002 4283663197
0.07294029 0.064002208 0.26700002 4286556806
0.073531076 0.063762493 0.266 4281097272
0.074395046 0.063762493 0.266 4280965682
0.038234387 0.073130287 0.30100003 4279178250
0.039212037 0.073130287 0.30100003 4278915078
0.040189687 0.073130287 0.30100003 4278915848
0.041167334 0.073130287 0.30100003 4278916107
0.042144984 0.073130287 0.30100003 4278522886
0.042979367 0.072887324 0.30000001 4278195205
0.043953769 0.072887324 0.30000001 4279844895
0.044928163 0.072887324 0.30000001 4279846688
0.04574956 0.072644368 0.29900002 4279586082
0.046720713 0.072644368 0.29900002 4279520291
0.046894338 0.071429573 0.294 4279716900
0.047523748 0.070943668 0.29200003 4279716898
0.048306163 0.070700705 0.29100001 4279651105
0.049082082 0.070457749 0.29000002 4279585314
0.050024007 0.070457749 0.29000002 4279649826
0.05079018 0.070214786 0.289 4279646494
0.051549863 0.069971837 0.28800002 4279115537
0.052303042 0.069728874 0.287 4279577371
0.053235218 0.069728874 0.287 4279715619
0.053978663 0.069485918 0.28600001 4280176170
0.054715607 0.069242962 0.28500003 4279116816
0.055446051 0.068999998 0.28400001 4279378193
0.056368485 0.068999998 0.28400001 4279443988
0.057089191 0.06875705 0.28300002 4279115535
0.057803396 0.068514086 0.28200001 4279382807
0.058511112 0.06827113 0.28100002 4279909151
0.059212323 0.068028167 0.28 4280436778
0.060121763 0.068028167 0.28 4278858259
0.060813237 0.067785211 0.27900001 4279781928
0.061498217 0.067542255 0.27800003 4279518756
0.062401161 0.067542255 0.27800003 4279584549
0.063076392 0.067299299 0.27700001 4279714852
0.063976087 0.067299299 0.27700001 4278987027
0.064641573 0.067056343 0.27600002 4278328583
0.065538026 0.067056343 0.27600002 4279449113
0.066193767 0.06681338 0.27500001 4279320348
0.067086965 0.06681338 0.27500001 4279256347
0.067732967 0.066570424 0.27400002 4279387933
0.068622917 0.066570424 0.27400002 4279059990
0.069005474 0.066084512 0.27200001 4278928918
0.069888934 0.066084512 0.27200001 4278929433
0.070602082 0.065112673 0.26800001 4278205969
0.071472548 0.065112673 0.26800001 4279258144
0.07207308 0.064869724 0.26700002 4280178219
0.07294029 0.064869724 0.26700002 4281492028
0.073531076 0.064626761 0.266 4285898624
0.074395046 0.064626761 0.266 4287083152
0.074976087 0.064383805 0.26500002 4280965686
0.075550631 0.064140841 0.264 4280965684
0.076408103 0.064140841 0.264 4281096755
0.038107362 0.073862053 0.30000001 4279376145
0.039212037 0.074108265 0.30100003 4279244559
0.040189687 0.074108265 0.30100003 4279178766
0.041167334 0.074108265 0.30100003 4279178766
0.042004965 0.073862053 0.30000001 4279047695
0.042979367 0.073862053 0.30000001 4278982670
0.043953769 0.073862053 0.30000001 4278917644
0.044928163 0.073862053 0.30000001 4278459140
0.04574956 0.073615849 0.29900002 4279977508
0.046564456 0.073369637 0.29800001 4279781412
0.047053844 0.072631024 0.29500002 4279912996
0.047686499 0.072138608 0.29300001 4279651107
0.048472166 0.071892403 0.29200003 4279651107
0.049082082 0.071399987 0.29000002 4279585314
0.050024007 0.071399987 0.29000002 4279716900
0.05079018 0.071153775 0.289 4279782180
0.051549863 0.07090757 0.28800002 4279846438
0.052303042 0.070661359 0.287 4280043047
0.053235218 0.070661359 0.287 4278397962
0.053978663 0.070415162 0.28600001 4278923793
0.054715607 0.070168957 0.28500003 4280632104
0.055446051 0.069922745 0.28400001 4279248402
0.056170009 0.069676541 0.28300002 4278983951
0.057089191 0.069676541 0.28300002 4279312914
0.057803396 0.069430329 0.28200001 4280434725
0.058511112 0.069184124 0.28100002 4280238883
0.059212323 0.068937913 0.28 4280109094
0.060121763 0.068937913 0.28 4279385117
0.060813237 0.068691708 0.27900001 4280043047
0.061498217 0.068445504 0.27800003 4279188508
0.062401161 0.068445504 0.27800003 4279121945
0.063076392 0.068199299 0.27700001 4279780645
0.063745126 0.067953095 0.27600002 4279715106
0.064641573 0.067953095 0.27600002 4279780129
0.065300561 0.067706883 0.27500001 4279317014
0.066193767 0.067706883 0.27500001 4278657802
0.06684301 0.067460679 0.27400002 4279515676
0.067485765 0.067214467 0.273 4279320346
0.068372466 0.067214467 0.273 4279059220
0.069005474 0.066968262 0.27200001 4279190806
0.069631994 0.066722058 0.27100003 4279256599
0.070252009 0.066475846 0.27000001 4278994197
0.070602082 0.065983437 0.26800001 4278863125
0.071472548 0.065983437 0.26800001 4278928918
0.07207308 0.065737233 0.26700002 4279127580
0.07294029 0.065737233 0.26700002 4279587361
0.073531076 0.065491021 0.266 4280046635
0.074395046 0.065491021 0.266 4281625669
0.074976087 0.065244816 0.26500002 4287150744
0.075550631 0.064998604 0.264 4285176438
0.076408103 0.064998604 0.264 4280307493
0.076972902 0.0647524 0.26300001 4281162032
0.038107362 0.074836783 0.30000001 4279508244
0.039081763 0.074836783 0.30000001 4279508244
0.040056165 0.074836783 0.30000001 4279442451
0.041030563 0.074836783 0.30000001 4279310865
0.042004965 0.074836783 0.30000001 4279179279
0.042979367 0.074836783 0.30000001 4279113486
0.043953769 0.074836783 0.30000001 4279113486
0.044778407 0.07458733 0.29900002 4279179279
0.04574956 0.07458733 0.29900002 4278917644
0.046564456 0.07433787 0.29800001 4279248404
0.047053844 0.073589511 0.29500002 4280108326
0.047686499 0.073090598 0.29300001 4279649826
0.048472166 0.072841145 0.29200003 4279519523
0.049082082 0.072342232 0.29000002 4279651109
0.049851507 0.072092772 0.289 4279651107
0.05079018 0.072092772 0.289 4279914277
0.051549863 0.071843319 0.28800002 4279585314
0.052303042 0.071593858 0.287 4279716900
0.053049732 0.071344405 0.28600001 4280307754
0.053978663 0.071344405 0.28600001 4279713309
0.054715607 0.071094953 0.28500003 4278460937
0.055446051 0.070845492 0.28400001 4279841822
0.056170009 0.070596039 0.28300002 4280960303
0.057089191 0.070596039 0.28300002 4280039969
0.057803396 0.070346579 0.28200001 4280173606
0.058511112 0.070097126 0.28100002 4278923793
0.059212323 0.069847666 0.28 4279780127
0.060121763 0.069847666 0.28 4279319578
0.060813237 0.069598213 0.27900001 4279449115
0.061498217 0.06934876 0.27800003 4279646494
0.062401161 0.06934876 0.27800003 4280304676
0.063076392 0.0690993 0.27700001 4278397708
0.063745126 0.068849847 0.27600002 4279452445
0.064641573 0.068849847 0.27600002 4279321629
0.065300561 0.068600386 0.27500001 4279255834
0.065953061 0.068350933 0.27400002 4279649309
0.06684301 0.068350933 0.27400002 4279514393
0.067485765 0.068101473 0.273 4278461707
0.068122022 0.06785202 0.27200001 4278528263
0.068751782 0.067602567 0.27100003 4279452184
0.069631994 0.067602567 0.27100003 4279190293
0.06999182 0.067103654 0.26900002 4279190293
0.070865527 0.067103654 0.26900002 4278993427
0.071472548 0.066854194 0.26800001 4278928404
0.07207308 0.066604741 0.26700002 4278797845
0.07294029 0.066604741 0.26700002 4278468880
0.073531076 0.066355281 0.266 4279192605
0.074395046 0.066355281 0.266 4279718695
0.074976087 0.066105828 0.26500002 4279717668
0.075550631 0.065856367 0.264 4283269209
0.076408103 0.065856367 0.264 4287938977
0.076972902 0.065606914 0.26300001 4283793248
0.077827126 0.065606914 0.26300001 4280503588
0.038107362 0.075811513 0.30000001 4280034590
0.039081763 0.075811513 0.30000001 4279968797
0.040056165 0.075811513 0.30000001 4279968795
0.041030563 0.075811513 0.30000001 4279771416
0.042004965 0.075811513 0.30000001 4279837209
0.042979367 0.075811513 0.30000001 4279903002
0.043953769 0.075811513 0.30000001 4279837209
0.044778407 0.075558811 0.29900002 4279837209
0.04574956 0.075558811 0.29900002 4279772188
0.046564456 0.075306103 0.29800001 4279772188
0.047213346 0.074800692 0.296 4279774237
0.047523748 0.07378988 0.29200003 4279841824
0.048306163 0.073537171 0.29100001 4279648543
0.049082082 0.07328447 0.29000002 4279715619
0.049851507 0.073031753 0.289 4279782178
0.050614439 0.072779052 0.28800002 4279716898
0.051549863 0.072779052 0.28800002 4279520289
0.052303042 0.072526343 0.287 4279783461
0.053049732 0.072273642 0.28600001 4279717670
0.053978663 0.072273642 0.28600001 4279848486
0.054715607 0.07202094 0.28500003 4280373034
0.055446051 0.071768232 0.28400001 4279713309
0.056170009 0.07151553 0.28300002 4278262790
0.057089191 0.07151553 0.28300002 4279710236
0.057803396 0.071262822 0.28200001 4279779875
0.058511112 0.07101012 0.28100002 4280372266
0.059212323 0.070757411 0.28 4278397708
0.060121763 0.070757411 0.28 4278923539
0.060813237 0.07050471 0.27900001 4280042022
0.061498217 0.070252009 0.27800003 4279318297
0.06217669 0.0699993 0.27700001 4279977506
0.063076392 0.0699993 0.27700001 4280109094
0.063745126 0.069746599 0.27600002 4278991383
0.064641573 0.069746599 0.27600002 4279255836
0.065300561 0.06949389 0.27500001 4279058970
0.065953061 0.069241188 0.27400002 4279387933
0.066599056 0.068988472 0.273 4279190043
0.067485765 0.068988472 0.273 4279715617
0.068122022 0.068735771 0.27200001 4279711772
0.068751782 0.06848307 0.27100003 4278197765
0.069375046 0.068230361 0.27000001 4278593806
0.06999182 0.067977659 0.26900002 4279451164
0.070865527 0.067977659 0.26900002 4279123732
0.071472548 0.067724951 0.26800001 4279256601
0.07207308 0.067472249 0.26700002 4279059992
0.07294029 0.067472249 0.26700002 4278863127
0.073531076 0.06721954 0.266 4278928920
0.074395046 0.06721954 0.266 4279192605
0.074976087 0.066966839 0.26500002 4279257885
0.075550631 0.06671413 0.264 4279981094
0.076408103 0.06671413 0.264 4280636206
0.077265568 0.06671413 0.264 4284451432
0.077827126 0.066461429 0.26300001 4288398760
0.07868135 0.066461429 0.26300001 4282346574
0.079535574 0.066461429 0.26300001 4280571176
0.080389798 0.066461429 0.26300001 4280965934
0.081244029 0.066461429 0.26300001 4281358134
0.049082082 0.074226707 0.29000002 4279906073
0.049851507 0.07397075 0.289 4279713820
0.050614439 0.0737148 0.28800002 4279715102
0.051549863 0.0737148 0.28800002 4279651105
0.052303042 0.073458843 0.287 4279586082
0.053049732 0.073202886 0.28600001 4279651105
0.053978663 0.073202886 0.28600001 4279716898
0.054715607 0.072946936 0.28500003 4279716898
0.055446051 0.072690979 0.28400001 4279979557
0.056170009 0.072435029 0.28300002 4280371752
0.056887455 0.072179072 0.28200001 4279710750
0.057803396 0.072179072 0.28200001 4278328583
0.058511112 0.071923122 0.28100002 4279514395
0.059212323 0.071667165 0.28 4279715106
0.059907045 0.071411207 0.27900001 4279846692
0.060813237 0.071411207 0.27900001 4279780897
0.061498217 0.071155258 0.27800003 4278792720
0.06217669 0.0708993 0.27700001 4279517723
0.063076392 0.0708993 0.27700001 4279715102
0.063745126 0.07064335 0.27600002 4278200072
0.064407364 0.070387393 0.27500001 4278792720
0.065300561 0.070387393 0.27500001 4279189275
0.065953061 0.070131443 0.27400002 4278861078
0.066599056 0.069875479 0.273 4279058970
0.067238562 0.069619529 0.27200001 4279124763
0.068122022 0.069619529 0.27200001 4279124250
0.068751782 0.069363579 0.27100003 4279452445
0.069375046 0.069107622 0.27000001 4278593804
0.06999182 0.068851672 0.26900002 4278198791
0.070602082 0.068595715 0.26800001 4278397195
0.071472548 0.068595715 0.26800001 4279648541
0.07207308 0.068339765 0.26700002 4278665234
0.07294029 0.068339765 0.26700002 4278797334
0.073531076 0.0680838 0.266 4278863127
0.074395046 0.0680838 0.266 4278863127
0.074976087 0.067827851 0.26500002 4278994713
0.075836807 0.067827851 0.26500002 4279192090
0.076408103 0.067571893 0.264 4279848736
0.077265568 0.067571893 0.264 4280703534
0.077827126 0.067315944 0.26300001 4281755202
0.07868135 0.067315944 0.26300001 4286623380
0.079535574 0.067315944 0.26300001 4287149715
0.080389798 0.067315944 0.26300001 4281030964
0.081244029 0.067315944 0.26300001 4280702510
0.081786096 0.067059994 0.26200002 4280702510
0.082637064 0.067059994 0.26200002 4281882675
0.050614439 0.074650541 0.28800002 4280038942
0.051370867 0.074391335 0.287 4280108580
0.052303042 0.074391335 0.287 4279978278
0.053049732 0.074132137 0.28600001 4280110377
0.053789929 0.073872931 0.28500003 4279913768
0.054715607 0.073872931 0.28500003 4279848486
0.055446051 0.073613726 0.28400001 4279980072
0.056170009 0.073354527 0.28300002 4280044582
0.057089191 0.073354527 0.28300002 4280044582
0.057803396 0.073095322 0.28200001 4280370469
0.058511112 0.072836116 0.28100002 4279580186
0.059212323 0.07257691 0.28 4279118353
0.059907045 0.072317712 0.27900001 4279909151
0.060813237 0.072317712 0.27900001 4279649313
0.061498217 0.072058514 0.27800003 4279912485
0.06217669 0.071799301 0.27700001 4278331654
0.063076392 0.071799301 0.27700001 4278265863
0.063745126 0.071540102 0.27600002 4280108580
0.064407364 0.071280897 0.27500001 4278989845
0.065300561 0.071280897 0.27500001 4279450398
0.065953061 0.071021698 0.27400002 4278462736
0.066599056 0.070762493 0.273 4279254555
0.067238562 0.070503287 0.27200001 4279123480
0.068122022 0.070503287 0.27200001 4279321629
0.068751782 0.070244089 0.27100003 4279255836
0.069375046 0.069984883 0.27000001 4279255836
0.06999182 0.069725685 0.26900002 4279451934
0.070602082 0.069466472 0.26800001 4280107045
0.071472548 0.069466472 0.26800001 4278395914
0.07207308 0.069207273 0.26700002 4278330632
0.07294029 0.069207273 0.26700002 4279385369
0.073531076 0.068948068 0.266 4278795796
0.074395046 0.068948068 0.266 4279190808
0.074976087 0.068688869 0.26500002 4279388957
0.075836807 0.068688869 0.26500002 4278928404
0.076408103 0.068429656 0.264 4279126037
0.077265568 0.068429656 0.264 4279455002
0.07812304 0.068429656 0.264 4279519773
0.07868135 0.068170458 0.26300001 4280045352
0.079535574 0.068170458 0.26300001 4285569913
0.080389798 0.068170458 0.26300001 4286819212
0.081244029 0.068170458 0.26300001 4281688124
0.081786096 0.06791126 0.26200002 4280308006
0.082637064 0.06791126 0.26200002 4280045604
0.08348804 0.06791126 0.26200002 4281030192
0.052120801 0.075061373 0.28600001 4281289786
0.053049732 0.075061373 0.28600001 4280239653
0.053789929 0.074798919 0.28500003 4280109864
0.054715607 0.074798919 0.28500003 4279914281
0.055446051 0.074536465 0.28400001 4279914281
0.056170009 0.074274018 0.28300002 4280111658
0.057089191 0.074274018 0.28300002 4279914531
0.057803396 0.074011557 0.28200001 4279979811
0.058511112 0.07374911 0.28100002 4279913764
0.059212323 0.073486656 0.28 4280174373
0.059907045 0.073224202 0.27900001 4279513623
0.060813237 0.073224202 0.27900001 4278395914
0.061498217 0.072961755 0.27800003 4280239401
0.06217669 0.072699301 0.27700001 4279977508
0.06284868 0.072436847 0.27600002 4279911715
0.063745126 0.072436847 0.27600002 4279846690
0.064407364 0.072174393 0.27500001 4279320346
0.065300561 0.072174393 0.27500001 4278197769
0.065953061 0.071911946 0.27400002 4279579936
0.066599056 0.071649484 0.273 4279448854
0.067238562 0.071387038 0.27200001 4278330886
0.067871571 0.071124591 0.27100003 4279320607
0.068751782 0.071124591 0.27100003 4278991896
0.069375046 0.070862129 0.27000001 4279190043
0.06999182 0.070599683 0.26900002 4279321629
0.070865527 0.070599683 0.26900002 4279255836
0.071472548 0.070337228 0.26800001 4278991896
0.07207308 0.070074782 0.26700002 4279778848
0.07294029 0.070074782 0.26700002 4278196992
0.073531076 0.06981232 0.266 4278329351
0.074395046 0.06981232 0.266 4278792720
0.074976087 0.069549873 0.26500002 4278730003
0.075836807 0.069549873 0.26500002 4278993175
0.076408103 0.069287419 0.264 4279256599
0.077265568 0.069287419 0.264 4279059990
0.07812304 0.069287419 0.264 4279323164
0.07868135 0.069024965 0.26300001 4279454496
0.079535574 0.069024965 0.26300001 4280636969
0.080389798 0.069024965 0.26300001 4283924824
0.080935121 0.068762518 0.26200002 4287477406
0.081786096 0.068762518 0.26200002 4279781930
0.082637064 0.068762518 0.26200002 4279586596
0.08348804 0.068762518 0.26200002 4279586334
0.084017113 0.068500064 0.26100001 4280897833
0.052120801 0.075990617 0.28600001 4287143312
0.053049732 0.075990617 0.28600001 4287274898
0.053789929 0.075724915 0.28500003 4282340677
0.054715607 0.075724915 0.28500003 4280700204
0.055446051 0.075459212 0.28400001 4280438057
0.056170009 0.075193517 0.28300002 4280241959
0.057089191 0.075193517 0.28300002 4279913248
0.057803396 0.074927807 0.28200001 4280111397
0.058511112 0.074662112 0.28100002 4279979557
0.059212323 0.074396402 0.28 4280176166
0.059907045 0.074130706 0.27900001 4279847203
0.060813237 0.074130706 0.27900001 4280437032
0.061498217 0.073865011 0.27800003 4279053844
0.06217669 0.073599301 0.27700001 4278329351
0.06284868 0.073333606 0.27600002 4279909151
0.063745126 0.073333606 0.27600002 4280109862
0.064407364 0.073067896 0.27500001 4279780897
0.065063111 0.072802201 0.27400002 4280174373
0.065953061 0.072802201 0.27400002 4279976740
0.066599056 0.072536491 0.273 4278198024
0.067238562 0.072270796 0.27200001 4279843873
0.067871571 0.072005101 0.27100003 4278265609
0.068751782 0.072005101 0.27100003 4279712285
0.069375046 0.07173939 0.27000001 4278199044
0.06999182 0.071473695 0.26900002 4279255068
0.070865527 0.071473695 0.26900002 4279190043
0.071472548 0.071207985 0.26800001 4279190043
0.07207308 0.07094229 0.26700002 4279320859
0.07294029 0.07094229 0.26700002 4279320346
0.073531076 0.070676588 0.266 4279647516
0.074395046 0.070676588 0.266 4278592523
0.075259015 0.070676588 0.266 4278396427
0.075836807 0.070410885 0.26500002 4279254555
0.076697528 0.070410885 0.26500002 4279059222
0.077265568 0.070145182 0.264 4278994199
0.07812304 0.070145182 0.264 4278993945
0.078980513 0.070145182 0.264 4279059738
0.079535574 0.06987948 0.26300001 4279323162
0.080389798 0.06987948 0.26300001 4279520025
0.080935121 0.069613785 0.26200002 4279650594
0.081786096 0.069613785 0.26200002 4281427266
0.082637064 0.069613785 0.26200002 4279258144
0.083169378 0.069348082 0.26100001 4279126810
0.084017113 0.069348082 0.26100001 4279585566
0.08486484 0.069348082 0.26100001 4280963887
0.054715607 0.076650918 0.28500003 4286617990
0.055446051 0.076381959 0.28400001 4281750333
0.056170009 0.076113015 0.28300002 4280436260
0.057089191 0.076113015 0.28300002 4280371750
0.057803396 0.075844057 0.28200001 4280044582
0.058511112 0.075575113 0.28100002 4279782180
0.059212323 0.075306155 0.28 4279782180
0.059907045 0.075037211 0.27900001 4280045350
0.06059527 0.07476826 0.27800003 4279913764
0.061498217 0.07476826 0.27800003 4279650594
0.06217669 0.074499309 0.27700001 4280306473
0.06284868 0.074230358 0.27600002 4279645209
0.063514166 0.073961407 0.27500001 4278592775
0.064407364 0.073961407 0.27500001 4279909405
0.065063111 0.073692456 0.27400002 4279976992
0.065953061 0.073692456 0.27400002 4280042783
0.066599056 0.073423505 0.273 4279121685
0.067238562 0.073154554 0.27200001 4280832303
0.067871571 0.07288561 0.27100003 4278462988
0.068751782 0.07288561 0.27100003 4279581723
0.069375046 0.072616652 0.27000001 4279187478
0.06999182 0.072347708 0.26900002 4279121172
0.070865527 0.072347708 0.26900002 4279386139
0.071472548 0.07207875 0.26800001 4278728209
0.072343014 0.07207875 0.26800001 4279255066
0.07294029 0.071809806 0.26700002 4279190043
0.073807508 0.071809806 0.26700002 4279190556
0.074395046 0.071540847 0.266 4279124250
0.075259015 0.071540847 0.266 4278659084
0.075836807 0.071271904 0.26500002 4279317529
0.076697528 0.071271904 0.26500002 4279058968
0.077558242 0.071271904 0.26500002 4278994713
0.07812304 0.071002945 0.264 4279192092
0.078980513 0.071002945 0.264 4278797334
0.079535574 0.070734002 0.26300001 4278797332
0.080389798 0.070734002 0.26300001 4278863125
0.080935121 0.070465051 0.26200002 4279454750
0.081786096 0.070465051 0.26200002 4279388187
0.082637064 0.070465051 0.26200002 4279323164
0.083169378 0.0701961 0.26100001 4279257885
0.084017113 0.0701961 0.26100001 4279519773
0.08486484 0.0701961 0.26100001 4279650076
0.085712567 0.0701961 0.26100001 4281419562
0.057089191 0.077032506 0.28300002 4282011710
0.057803396 0.076760307 0.28200001 4281028399
0.058511112 0.076488107 0.28100002 4280109092
0.059423801 0.076488107 0.28100002 4280044582
0.060336486 0.076488107 0.28100002 4279782178
0.061249174 0.076488107 0.28100002 4279782178
0.062161867 0.076488107 0.28100002 4279782180
0.06217669 0.075399309 0.27700001 4279716385
0.06284868 0.07512711 0.27600002 4279781408
0.063514166 0.07485491 0.27500001 4280238879
0.064407364 0.07485491 0.27500001 4279383061
0.065063111 0.074582711 0.27400002 4278394628
0.065712355 0.074310511 0.273 4279842842
0.066599056 0.074310511 0.273 4279582746
0.067238562 0.074038312 0.27200001 4279648539
0.067871571 0.073766112 0.27100003 4279582748
0.068751782 0.073766112 0.27100003 4278726927
0.069375046 0.073493913 0.27000001 4278462472
0.06999182 0.073221713 0.26900002 4278922510
0.070865527 0.073221713 0.26900002 4278330119
0.071472548 0.072949514 0.26800001 4279251482
0.072343014 0.072949514 0.26800001 4278725908
0.07294029 0.072677314 0.26700002 4279123228
0.073807508 0.072677314 0.26700002 4278993947
0.074395046 0.072405107 0.266 4278993947
0.075259015 0.072405107 0.266 4278856463
0.075836807 0.072132915 0.26500002 4279250453
0.076697528 0.072132915 0.26500002 4279124248
0.077558242 0.072132915 0.26500002 4278928152
0.07812304 0.071860708 0.264 4278599187
0.078980513 0.071860708 0.264 4278796820
0.079535574 0.071588516 0.26300001 4278994199
0.080389798 0.071588516 0.26300001 4278796820
0.080935121 0.071316317 0.26200002 4278994199
0.081786096 0.071316317 0.26200002 4279388957
0.082321651 0.07104411 0.26100001 4279257369
0.083169378 0.07104411 0.26100001 4278994197
0.084017113 0.07104411 0.26100001 4279190806
0.08486484 0.07104411 0.26100001 4279190293
0.085712567 0.07104411 0.26100001 4280762913
0.06284868 0.076023869 0.27600002 4279913764
0.063514166 0.075748414 0.27500001 4279847201
0.064407364 0.075748414 0.27500001 4279978276
0.065063111 0.075472966 0.27400002 4280700202
0.065712355 0.075197518 0.273 4278527752
0.066599056 0.075197518 0.273 4278460421
0.067238562 0.07492207 0.27200001 4279580440
0.067871571 0.074646622 0.27100003 4279648539
0.068751782 0.074646622 0.27100003 4279780125
0.069375046 0.074371174 0.27000001 4279779100
0.06999182 0.074095726 0.26900002 4280108065
0.070865527 0.074095726 0.26900002 4278790670
0.071472548 0.073820271 0.26800001 4279711772
0.072343014 0.073820271 0.26800001 4278922771
0.07294029 0.07354483 0.26700002 4279516189
0.073807508 0.07354483 0.26700002 4279190554
0.074395046 0.073269375 0.266 4278927382
0.075259015 0.073269375 0.266 4278593291
0.076122984 0.073269375 0.266 4279449115
0.076697528 0.072993927 0.26500002 4279058455
0.077558242 0.072993927 0.26500002 4279058968
0.07812304 0.072718471 0.264 4279124761
0.078980513 0.072718471 0.264 4279124761
0.079535574 0.072443031 0.26300001 4279124761
0.080389798 0.072443031 0.26300001 4279190808
0.080935121 0.072167583 0.26200002 4279190808
0.081786096 0.072167583 0.26200002 4279190808
0.082637064 0.072167583 0.26200002 4278665234
0.083169378 0.071892127 0.26100001 4279059992
0.084017113 0.071892127 0.26100001 4279256601
0.08486484 0.071892127 0.26100001 4279124502
0.085712567 0.071892127 0.26100001 4279778069
0.06262096 0.07664191 0.27500001 4280175655
0.063514166 0.07664191 0.27500001 4280241959
0.064173155 0.076363213 0.27400002 4279912994
0.065063111 0.076363213 0.27400002 4279978276
0.065712355 0.076084509 0.273 4279978276
0.066355109 0.075805821 0.27200001 4280765227
0.067238562 0.075805821 0.27200001 4278988051
0.067871571 0.075527124 0.27100003 4278724107
0.068498082 0.07524842 0.27000001 4280172577
0.069375046 0.07524842 0.27000001 4279648793
0.06999182 0.074969731 0.26900002 4279780379
0.070865527 0.074969731 0.26900002 4279712539
0.071472548 0.074691027 0.26800001 4279448084
0.072343014 0.074691027 0.26800001 4279118353
0.07294029 0.074412331 0.26700002 4279515676
0.073807508 0.074412331 0.26700002 4279190041
0.074674726 0.074412331 0.26700002 4279124248
0.075259015 0.074133627 0.266 4278659084
0.076122984 0.074133627 0.266 4279449113
0.076986954 0.074133627 0.266 4279190554
0.077558242 0.073854931 0.26500002 4279190808
0.078418963 0.073854931 0.26500002 4279256088
0.078980513 0.073576234 0.264 4279321881
0.079837985 0.073576234 0.264 4279321881
0.080389798 0.073297538 0.26300001 4279190295
0.081244029 0.073297538 0.26300001 4279059222
0.081786096 0.073018841 0.26200002 4279388187
0.082637064 0.073018841 0.26200002 4279059222
0.083169378 0.072740138 0.26100001 4278993429
0.084017113 0.072740138 0.26100001 4279256601
0.08486484 0.072740138 0.26100001 4278992916
0.085712567 0.072740138 0.26100001 4279712535
0.06262096 0.077535413 0.27500001 4281028399
0.063514166 0.077535413 0.27500001 4280306473
0.064173155 0.077253468 0.27400002 4280043301
0.065063111 0.077253468 0.27400002 4279977506
0.065712355 0.076971523 0.273 4279978276
0.066355109 0.076689579 0.27200001 4280110375
0.067238562 0.076689579 0.27200001 4279715619
0.067871571 0.076407634 0.27100003 4280239912
0.068498082 0.076125681 0.27000001 4279185941
0.069375046 0.076125681 0.27000001 4278263556
0.06999182 0.075843737 0.26900002 4280107297
0.070865527 0.075843737 0.26900002 4279516955
0.071472548 0.075561784 0.26800001 4279582748
0.072343014 0.075561784 0.26800001 4279582236
0.07294029 0.075279839 0.26700002 4279582234
0.073807508 0.075279839 0.26700002 4279189271
0.074674726 0.075279839 0.26700002 4279320344
0.075259015 0.074997894 0.266 4278592269
0.076122984 0.074997894 0.266 4279515676
0.076986954 0.074997894 0.266 4279058455
0.077558242 0.07471595 0.26500002 4279124502
0.078418963 0.07471595 0.26500002 4279190295
0.078980513 0.074433997 0.264 4279124502
0.079837985 0.074433997 0.264 4279190295
0.080389798 0.074152052 0.26300001 4279124502
0.081244029 0.074152052 0.26300001 4279058709
0.081786096 0.073870108 0.26200002 4279585053
0.082637064 0.073870108 0.26200002 4279650846
0.083169378 0.073588155 0.26100001 4279386904
0.084017113 0.073588155 0.26100001 4278992662
0.08486484 0.073588155 0.26100001 4278991892
0.085712567 0.073588155 0.26100001 4279186963
0.063514166 0.078428917 0.27500001 4281749812
0.064173155 0.078143731 0.27400002 4281027116
0.064825647 0.07785853 0.273 4280306471
0.065712355 0.07785853 0.273 4280176168
0.066355109 0.077573337 0.27200001 4279519008
0.066991366 0.077288143 0.27100003 4279584801
0.067871571 0.077288143 0.27100003 4280044582
0.068498082 0.077002943 0.27000001 4279649826
0.069118105 0.076717749 0.26900002 4279779361
0.06999182 0.076717749 0.26900002 4278922769
0.070602082 0.076432548 0.26800001 4278461707
0.071472548 0.076432548 0.26800001 4279054355
0.072343014 0.076432548 0.26800001 4279385367
0.07294029 0.076147355 0.26700002 4279516953
0.073807508 0.076147355 0.26700002 4279517723
0.074674726 0.076147355 0.26700002 4279187988
0.075541943 0.076147355 0.26700002 4278659084
0.076122984 0.075862154 0.266 4279581982
0.076986954 0.075862154 0.266 4279190041
0.077850915 0.075862154 0.266 4279190041
0.078418963 0.075576961 0.26500002 4279256347
0.079279691 0.075576961 0.26500002 4279124761
0.079837985 0.07529176 0.264 4279124761
0.080695465 0.07529176 0.264 4279124761
0.081244029 0.075006567 0.26300001 4279321881
0.082098253 0.075006567 0.26300001 4279519260
0.082637064 0.074721374 0.26200002 4280175905
0.08348804 0.074721374 0.26200002 4279781147
0.084017113 0.074436173 0.26100001 4279648793
0.08486484 0.074436173 0.26100001 4278925586
0.064825647 0.078745537 0.273 4280894762
0.065712355 0.078745537 0.273 4281028399
0.066355109 0.078457095 0.27200001 4280503850
0.066991366 0.078168653 0.27100003 4279912483
0.067621119 0.077880204 0.27000001 4279912996
0.068498082 0.077880204 0.27000001 4279912998
0.069118105 0.077591762 0.26900002 4279847203
0.06999182 0.077591762 0.26900002 4279781410
0.070602082 0.077303305 0.26800001 4279911201
0.071472548 0.077303305 0.26800001 4278396166
0.072343014 0.077303305 0.26800001 4278855179
0.07294029 0.077014871 0.26700002 4279646744
0.073807508 0.077014871 0.26700002 4279320344
0.074674726 0.077014871 0.26700002 4279055890
0.075541943 0.077014871 0.26700002 4278790924
0.076122984 0.076726414 0.266 4279582234
0.076986954 0.076726414 0.266 4279321627
0.077850915 0.076726414 0.266 4279190554
0.078418963 0.076437972 0.26500002 4279125531
0.079279691 0.076437972 0.26500002 4279059738
0.079837985 0.076149523 0.264 4278993175
0.080695465 0.076149523 0.264 4279321627
0.081244029 0.075861081 0.26300001 4279321111
0.082098253 0.075861081 0.26300001 4279978528
0.082637064 0.07557264 0.26200002 4279912735
0.08348804 0.07557264 0.26200002 4279715356
0.084339023 0.07557264 0.26200002 4279648793
0.08486484 0.07528419 0.26100001 4279516693
0.066991366 0.079049148 0.27100003 4280829737
0.067621119 0.07875745 0.27000001 4280569129
0.068498082 0.07875745 0.27000001 4280240162
0.069118105 0.07846576 0.26900002 4280109344
0.069731623 0.078174062 0.26800001 4279846942
0.070602082 0.078174062 0.26800001 4279715356
0.071472548 0.078174062 0.26800001 4279715102
0.07207308 0.077882372 0.26700002 4279909918
0.07294029 0.077882372 0.26700002 4278593545
0.073807508 0.077882372 0.26700002 4278526982
0.074674726 0.077882372 0.26700002 4278789388
0.075541943 0.077882372 0.26700002 4279251221
0.076409161 0.077882372 0.26700002 4279582748
0.076986954 0.077590674 0.266 4279321111
0.077850915 0.077590674 0.266 4279190808
0.078714885 0.077590674 0.266 4279124761
0.079279691 0.077298984 0.26500002 4279190554
0.080140412 0.077298984 0.26500002 4278927382
0.080695465 0.077007286 0.264 4279124761
0.081552938 0.077007286 0.264 4279650076
0.082098253 0.076715589 0.26300001 4279977758
0.08295247 0.076715589 0.26300001 4280109090
0.08348804 0.076423898 0.26200002 4279911197
0.084339023 0.076423898 0.26200002 4279714072
0.085189998 0.076423898 0.26200002 4279516693
0.086040974 0.076423898 0.26200002 4279186963
0.067621119 0.079634711 0.27000001 4283326285
0.06824439 0.079339772 0.26900002 4281025835
0.069118105 0.079339772 0.26900002 4280700200
0.069731623 0.079044826 0.26800001 4280174369
0.070602082 0.079044826 0.26800001 4279978528
0.071205862 0.07874988 0.26700002 4279978528
0.07207308 0.07874988 0.26700002 4279780895
0.07294029 0.07874988 0.26700002 4279649311
0.073807508 0.07874988 0.26700002 4279582234
0.074674726 0.07874988 0.26700002 4279712539
0.075541943 0.07874988 0.26700002 4279713820
0.076409161 0.07874988 0.26700002 4279386904
0.076986954 0.078454934 0.266 4279321109
0.077850915 0.078454934 0.266 4279190293
0.078714885 0.078454934 0.266 4279256088
0.079279691 0.078159995 0.26500002 4279321881
0.080140412 0.078159995 0.26500002 4279190295
0.080695465 0.077865049 0.264 4278992662
0.081552938 0.077865049 0.264 4279453467
0.082098253 0.077570111 0.26300001 4280043551
0.08295247 0.077570111 0.26300001 4280042783
0.08348804 0.077275164 0.26200002 4279911197
0.084339023 0.077275164 0.26200002 4279844891
0.085189998 0.077275164 0.26200002 4279516439
0.086040974 0.077275164 0.26200002 4279121683
0.068861157 0.079915583 0.26800001 4283919707
0.069731623 0.079915583 0.26800001 4281025837
0.070338644 0.079617396 0.26700002 4280569131
0.071205862 0.079617396 0.26700002 4280240164
0.07207308 0.079617396 0.26700002 4279846690
0.07294029 0.079617396 0.26700002 4279715104
0.073807508 0.079617396 0.26700002 4279846690
0.074674726 0.079617396 0.26700002 4279715106
0.075541943 0.079617396 0.26700002 4279452445
0.076122984 0.079319201 0.266 4279584029
0.076986954 0.079319201 0.266 4279190293
0.077850915 0.079319201 0.266 4279453465
0.078714885 0.079319201 0.266 4279452695
0.079578854 0.079319201 0.266 4279452695
0.080140412 0.079021007 0.26500002 4279190293
0.081001133 0.079021007 0.26500002 4279190293
0.081552938 0.078722812 0.264 4279519260
0.082098253 0.078424625 0.26300001 4279715869
0.08295247 0.078424625 0.26300001 4279846690
0.083806694 0.078424625 0.26300001 4280043299
0.084339023 0.078126438 0.26200002 4280043299
0.085189998 0.078126438 0.26200002 4279648541
0.086040974 0.078126438 0.26200002 4279582236
0.068861157 0.080786347 0.26800001 4286351738
0.069731623 0.080786347 0.26800001 4286154359
0.070338644 0.080484904 0.26700002 4284313952
0.071205862 0.080484904 0.26700002 4281090858
0.07207308 0.080484904 0.26700002 4280831018
0.07294029 0.080484904 0.26700002 4280371750
0.073531076 0.080183461 0.266 4280109864
0.074395046 0.080183461 0.266 4279846692
0.075259015 0.080183461 0.266 4279649826
0.076122984 0.080183461 0.266 4279255836
0.076986954 0.080183461 0.266 4279321627
0.077850915 0.080183461 0.266 4279256088
0.078714885 0.080183461 0.266 4279452697
0.079578854 0.080183461 0.266 4279452697
0.080140412 0.079882026 0.26500002 4279190293
0.081001133 0.079882026 0.26500002 4279388185
0.081552938 0.079580575 0.264 4279519519
0.08241041 0.079580575 0.264 4279716385
0.08295247 0.07927914 0.26300001 4279584029
0.083806694 0.07927914 0.26300001 4279715617
0.084339023 0.078977704 0.26200002 4280043299
0.085189998 0.078977704 0.26200002 4279845920
0.086040974 0.078977704 0.26200002 4279449367
0.070338644 0.081352413 0.26700002 4285825907
0.071205862 0.081352413 0.26700002 4285299563
0.071803145 0.081047714 0.266 4285563501
0.072667107 0.081047714 0.266 4281617202
0.073531076 0.081047714 0.266 4280436262
0.074395046 0.081047714 0.266 4280371752
0.075259015 0.081047714 0.266 4279715104
0.076122984 0.081047714 0.266 4279847203
0.076986954 0.081047714 0.266 4279715617
0.077850915 0.081047714 0.266 4279649822
0.078714885 0.081047714 0.266 4279452443
0.079279691 0.08074303 0.26500002 4279453213
0.080140412 0.08074303 0.26500002 4279058968
0.081001133 0.08074303 0.26500002 4279256347
0.081552938 0.080438331 0.264 4279585314
0.08241041 0.080438331 0.264 4279716900
0.08295247 0.080133647 0.26300001 4279781410
0.083806694 0.080133647 0.26300001 4279451932
0.084660918 0.080133647 0.26300001 4279911199
0.085515149 0.080133647 0.26300001 4279713307
0.086040974 0.079828963 0.26200002 4279974428
0.070338644 0.082219921 0.26700002 4286022775
0.070939176 0.081911981 0.266 4285891187
0.071803145 0.081911981 0.266 4285562220
0.072667107 0.081911981 0.266 4285430634
0.073531076 0.081911981 0.266 4285167975
0.074395046 0.081911981 0.266 4283918160
0.075259015 0.081911981 0.266 4281026089
0.076122984 0.081911981 0.266 4280567846
0.076986954 0.081911981 0.266 4280305444
0.077850915 0.081911981 0.266 4279911713
0.078714885 0.081911981 0.266 4279780895
0.079279691 0.081604041 0.26500002 4279649309
0.080140412 0.081604041 0.26500002 4279452445
0.081001133 0.081604041 0.26500002 4279649824
0.081552938 0.081296101 0.264 4280110377
0.08241041 0.081296101 0.264 4280176168
0.083267875 0.081296101 0.264 4280174369
0.083806694 0.080988161 0.26300001 4279779611
0.084660918 0.080988161 0.26300001 4279844893
0.085515149 0.080988161 0.26300001 4279318549
0.086369373 0.080988161 0.26300001 4280827173
0.070939176 0.082776241 0.266 4285759603
0.071803145 0.082776241 0.266 4285824624
0.072667107 0.082776241 0.266 4285693038
0.073531076 0.082776241 0.266 4285496429
0.074395046 0.082776241 0.266 4285430636
0.075259015 0.082776241 0.266 4284970083
0.076122984 0.082776241 0.266 4284181594
0.076986954 0.082776241 0.266 4280630307
0.077850915 0.082776241 0.266 4281026087
0.078418963 0.08246506 0.26500002 4280633639
0.079279691 0.08246506 0.26500002 4280240164
0.080140412 0.08246506 0.26500002 4280109092
0.081001133 0.08246506 0.26500002 4280569643
0.081552938 0.082153864 0.264 4280372264
0.08241041 0.082153864 0.264 4280437543
0.083267875 0.082153864 0.264 4280173856
0.084125347 0.082153864 0.264 4279779098
0.084660918 0.081842676 0.26300001 4279252756
0.085515149 0.081842676 0.26300001 4279712026
0.086697772 0.082153864 0.264 4285035612
0.071803145 0.083640508 0.266 4285824624
0.072667107 0.083640508 0.266 4285627245
0.073531076 0.083640508 0.266 4285561452
0.074395046 0.083640508 0.266 4285561452
0.075259015 0.083640508 0.266 4285495657
0.076122984 0.083640508 0.266 4285364071
0.076986954 0.083640508 0.266 4284904803
0.077850915 0.083640508 0.266 4285365608
0.078418963 0.083326072 0.26500002 4282471482
0.079279691 0.083326072 0.26500002 4282077494
0.080140412 0.083326072 0.26500002 4280567846
0.081001133 0.083326072 0.26500002 4280502823
0.081552938 0.083011627 0.264 4280502823
0.08241041 0.083011627 0.264 4280568616
0.083267875 0.083011627 0.264 4279976479
0.084125347 0.083011627 0.264 4279318549
0.08498282 0.083011627 0.264 4279711002
0.085840292 0.083011627 0.264 4282735170
0.086697772 0.083011627 0.264 4285495144
0.075259015 0.084504768 0.266 4285429866
0.076122984 0.084504768 0.266 4285429351
0.076986954 0.084504768 0.266 4285495144
0.077558242 0.084187083 0.26500002 4285495144
0.078418963 0.084187083 0.26500002 4285166946
0.079279691 0.084187083 0.26500002 4285430118
0.080140412 0.084187083 0.26500002 4283654990
0.080695465 0.08386939 0.264 4282010679
0.081552938 0.08386939 0.264 4281419825
0.08241041 0.08386939 0.264 4280432928
0.083267875 0.08386939 0.264 4280498975
0.084125347 0.08386939 0.264 4280893731
0.08498282 0.08386939 0.264 4285036382
0.085840292 0.08386939 0.264 4285035360
0.086697772 0.08386939 0.264 4285495146
0.076986954 0.085369021 0.266 4285560169
0.077558242 0.085048094 0.26500002 4285625960
0.078418963 0.085048094 0.26500002 4285429605
0.079279691 0.085048094 0.26500002 4285298019
0.080140412 0.085048094 0.26500002 4285297767
0.080695465 0.084727146 0.264 4285100901
0.081552938 0.084727146 0.264 4285101669
0.08241041 0.084727146 0.264 4284641372
0.083267875 0.084727146 0.264 4284641370
0.084125347 0.084727146 0.264 4285035358
0.08498282 0.084727146 0.264 4285364325
0.085840292 0.084727146 0.264 4285364325
0.086697772 0.084727146 0.264 4285692525
0.078418963 0.085909106 0.26500002 4285362788
0.079279691 0.085909106 0.26500002 4285625960
0.080140412 0.085909106 0.26500002 4285560167
0.080695465 0.085584916 0.264 4285297767
0.081552938 0.085584916 0.264 4285166694
0.08241041 0.085584916 0.264 4285100899
0.083267875 0.085584916 0.264 4285429351
0.084125347 0.085584916 0.264 4285231972
0.08498282 0.085584916 0.264 4285364071
0.085840292 0.085584916 0.264 4285561450
0.086697772 0.085584916 0.264 4285692523
0.059375782 0.06864316 0.28202596 4294967295
0.059375782 0.06864316 0.28202596 4294901760
0.059375782 0.06864316 0.28252596 4294901760
0.059375782 0.06864316 0.28302595 4294901760
0.059375782 0.06864316 0.28352597 4294901760
0.059375782 0.06864316 0.28402597 4294901760
0.059375782 0.06864316 0.28452596 4294901760
0.059375782 0.06864316 0.28502595 4294901760
0.059375782 0.06864316 0.28552598 4294901760
0.059375782 0.06864316 0.28602597 4294901760
0.059375782 0.06864316 0.28652596 4294901760
0.059375782 0.06864316 0.28702596 4294901760
0.059375782 0.06864316 0.28752595 4294901760
0.059375782 0.06864316 0.28802598 4294901760
0.059375782 0.06864316 0.28852597 4294901760
0.059375782 0.06864316 0.28902596 4294901760
0.059375782 0.06864316 0.28952596 4294901760
0.059375782 0.06864316 0.29002595 4294901760
0.059375782 0.06864316 0.29052597 4294901760
0.059375782 0.06864316 0.29102597 4294901760
0.059375782 0.06864316 0.29152596 4294901760
0.059375782 0.06864316 0.29202595 4294901760
0.059375782 0.06864316 0.29252598 4294901760
0.059375782 0.06864316 0.29302597 4294901760
0.059375782 0.06864316 0.29352596 4294901760
0.059375782 0.06864316 0.29402596 4294901760
0.059375782 0.06864316 0.29452598 4294901760
0.059375782 0.06864316 0.29502597 4294901760
0.059375782 0.06864316 0.29552597 4294901760
0.059375782 0.06864316 0.29602596 4294901760
0.059375782 0.06864316 0.29652596 4294901760
0.059375782 0.06864316 0.29702598 4294901760
0.059375782 0.06864316 0.29752597 4294901760
0.059375782 0.06864316 0.29802597 4294901760
0.059375782 0.06864316 0.29852596 4294901760
0.059375782 0.06864316 0.29902595 4294901760
0.059375782 0.06864316 0.29952598 4294901760
0.059375782 0.06864316 0.30002597 4294901760
0.059375782 0.06864316 0.30052596 4294901760
0.059375782 0.06864316 0.30102596 4294901760
0.059375782 0.06864316 0.30152598 4294901760
0.059375782 0.06864316 0.30202597 4294901760
0.059375782 0.06864316 0.30252597 4294901760
0.059375782 0.06864316 0.30302596 4294901760
0.059375782 0.06864316 0.30352598 4294901760
0.059375782 0.06864316 0.30402598 4294901760
0.059375782 0.06864316 0.30452597 4294901760
0.059375782 0.06864316 0.30502596 4294901760
0.059375782 0.06864316 0.30552596 4294901760
0.059375782 0.06864316 0.30602598 4294901760
0.059375782 0.06864316 0.30652598 4294901760
0.059375782 0.06864316 0.30702597 4294901760
0.059375782 0.06864316 0.30752596 4294901760
0.059375782 0.06864316 0.30802596 4294901760
0.059375782 0.06864316 0.30852598 4294901760
0.059375782 0.06864316 0.30902597 4294901760
0.059375782 0.06864316 0.30952597 4294901760
0.059375782 0.06864316 0.31002596 4294901760
0.059375782 0.06864316 0.31052595 4294901760
0.059375782 0.06864316 0.31102598 4294901760
0.059375782 0.06864316 0.31152597 4294901760
0.059375782 0.06864316 0.31202596 4294901760
0.059375782 0.06864316 0.31252596 4294901760
0.059375782 0.06864316 0.31302598 4294901760
0.059375782 0.06864316 0.31352597 4294901760
0.059375782 0.06864316 0.31402597 4294901760
0.059375782 0.06864316 0.31452596 4294901760
0.059375782 0.06864316 0.31502599 4294901760
0.059375782 0.06864316 0.31552598 4294901760
0.059375782 0.06864316 0.31602597 4294901760
0.059375782 0.06864316 0.31652597 4294901760
0.059375782 0.06864316 0.31702596 4294901760
0.059375782 0.06864316 0.31752598 4294901760
0.059375782 0.06864316 0.31802598 4294901760
0.059375782 0.06864316 0.31852597 4294901760
0.059375782 0.06864316 0.31902596 4294901760
0.059375782 0.06864316 0.31952596 4294901760
0.059375782 0.06864316 0.32002598 4294901760
0.059375782 0.06864316 0.32052597 4294901760
0.059375782 0.06864316 0.32102597 4294901760
0.059375782 0.06864316 0.32152596 4294901760
0.059375782 0.06864316 0.32202598 4294901760
0.059375782 0.06864316 0.32252598 4294901760
0.059375782 0.06864316 0.32302597 4294901760
0.059375782 0.06864316 0.32352597 4294901760
0.059375782 0.06864316 0.32402596 4294901760
0.059375782 0.06864316 0.32452598 4294901760
0.059375782 0.06864316 0.32502598 4294901760
0.059375782 0.06864316 0.32552597 4294901760
0.059375782 0.06864316 0.32602596 4294901760
0.059375782 0.06864316 0.32652599 4294901760
0.059375782 0.06864316 0.32702598 4294901760
0.059375782 0.06864316 0.32752597 4294901760
0.059375782 0.06864316 0.32802597 4294901760
0.059375782 0.06864316 0.32852596 4294901760
0.059375782 0.06864316 0.32902598 4294901760
0.059375782 0.06864316 0.32952598 4294901760
0.059375782 0.06864316 0.33002597 4294901760
0.059375782 0.06864316 0.33052596 4294901760
0.059375782 0.06864316 0.33102599 4294901760
0.059375782 0.06864316 0.33152598 4294901760
0.059375782 0.06864316 0.33202597 4294901760
0.059375782 0.06864316 0.28202596 4278255360
0.05972781 0.068657503 0.28238073 4278255360
0.060079843 0.068671852 0.28273553 4278255360
0.060431872 0.068686195 0.28309029 4278255360
0.0607839 0.068700537 0.28344509 4278255360
0.061135933 0.068714879 0.28379986 4278255360
0.061487962 0.068729229 0.28415465 4278255360
0.06183999 0.068743572 0.28450942 4278255360
0.062192023 0.068757914 0.28486422 4278255360
0.062544055 0.068772264 0.28521898 4278255360
0.06289608 0.068786606 0.28557378 4278255360
0.063248113 0.068800949 0.28592855 4278255360
0.063600145 0.068815291 0.28628331 4278255360
0.06395217 0.068829641 0.28663811 4278255360
0.064304203 0.068843983 0.28699288 4278255360
0.064656235 0.068858325 0.28734767 4278255360
0.06500826 0.068872668 0.28770244 4278255360
0.065360293 0.068887018 0.28805724 4278255360
0.065712325 0.06890136 0.288412 4278255360
0.06606435 0.068915702 0.2887668 4278255360
0.066416383 0.068930052 0.28912157 4278255360
0.066768415 0.068944395 0.28947634 4278255360
0.06712044 0.068958737 0.28983113 4278255360
0.067472473 0.068973079 0.2901859 4278255360
0.067824505 0.068987429 0.2905407 4278255360
