# .PCD v0.7 - Point Cloud Data file format
VERSION 0.7
FIELDS x y z rgb
SIZE 4 4 4 4
TYPE F F F U
COUNT 1 1 1 1
WIDTH 864
HEIGHT 1
VIEWPOINT 0 0 0 1 0 0 0
POINTS 864
DATA ascii
0.40518203 -0.031952098 0.64600003 4278717964
0.40098566 -0.029853178 0.64600003 4278652422
0.40433177 -0.029945603 0.648 4278784010
0.40706369 -0.029991817 0.64900005 4278652424
0.40012234 -0.027840184 0.648 4278652424
0.40284783 -0.02788315 0.64900005 4278652424
0.40620369 -0.027969075 0.65100002 4278652422
0.40957257 -0.028055003 0.65300006 4278652422
0.41295445 -0.028140929 0.65500003 4278652935
0.41571558 -0.028183891 0.65600002 4278587144
0.41975719 -0.028312782 0.65900004 4278587144
0.39924613 -0.025814196 0.65000004 4278717447
0.4019748 -0.02585391 0.65100002 4278849033
0.40470996 -0.025893623 0.65200001 4278718217
0.4080756 -0.025973054 0.65400004 4278915594
0.4114542 -0.026052481 0.65600002 4278849031
0.41484585 -0.026131911 0.65800005 4278784010
0.41761672 -0.026171625 0.65900004 4278586891
0.42103109 -0.026251052 0.66100001 4278652937
0.4225378 -0.026211338 0.66000003 4278914824
0.40047458 -0.023775207 0.65200001 4278783240
0.40382722 -0.023848139 0.65400004 4278783240
0.40657213 -0.023884604 0.65500003 4278652424
0.40994748 -0.023957532 0.65700001 4278586629
0.41333586 -0.024030464 0.65900004 4278914054
0.41610679 -0.024066929 0.66000003 4278849033
0.41888416 -0.024103392 0.66100001 4278783240
0.42166808 -0.024139859 0.66200006 4278849033
0.40506214 -0.021789657 0.65600002 4278783240
0.40719286 -0.021789657 0.65600002 4278783240
0.41119546 -0.021889307 0.65900004 4278784008
0.41396308 -0.021922521 0.66000003 4278718215
0.41673723 -0.021955736 0.66100001 4278914824
0.4195179 -0.021988954 0.66200006 4278652424
0.42230505 -0.022022169 0.66300005 4278586631
0.40629712 -0.019718181 0.65800005 4278718217
0.41091722 -0.019838048 0.66200006 4278718215
0.41244337 -0.01980808 0.66100001 4278651652
0.41521752 -0.019838048 0.66200006 4278586629
0.41736773 -0.019838048 0.66200006 4278586629
0.42015159 -0.019868016 0.66300005 4278587144
0.42230505 -0.019868016 0.66300005 4278455558
0.40753204 -0.017633708 0.66000003 4278784010
0.41091722 -0.017687144 0.66200006 4278717445
0.41306737 -0.017687144 0.66200006 4279045640
0.41521752 -0.017687144 0.66200006 4278784008
0.41799819 -0.017713862 0.66300005 4278718730
0.42015159 -0.017713862 0.66300005 4278456075
0.41091722 -0.015536238 0.66200006 4278783238
0.41306737 -0.015536238 0.66200006 4278848263
0.41521752 -0.015536238 0.66200006 4278915596
0.41799819 -0.015559706 0.66300005 4278718217
-0.057767108 0.015034398 0.59500003 4281353015
-0.052231457 0.015110203 0.59800005 4281221429
-0.048427694 0.01513547 0.59900004 4282737228
-0.046482142 0.01513547 0.59900004 4280503346
-0.04461094 0.015160738 0.60000002 4278733603
-0.042662136 0.015160738 0.60000002 4279326254
-0.040781192 0.015186005 0.60100001 4280114488
-0.038893756 0.015211275 0.60200006 4281954896
-0.036999814 0.015236542 0.60300004 4280573502
-0.03509938 0.015261809 0.60400003 4281165639
-0.03313759 0.015261809 0.60400003 4282678365
-0.03122741 0.015287077 0.60500002 4283533674
-0.029262368 0.015287077 0.60500002 4284979836
-0.027342446 0.015312345 0.60600001 4285899655
-0.057767108 0.016967615 0.59500003 4280827186
-0.055928387 0.016996132 0.59600002 4281286192
-0.054083169 0.017024647 0.597 4280891948
-0.05214411 0.017024647 0.597 4281353267
-0.050289154 0.017053166 0.59800005 4280761128
-0.048346847 0.017053166 0.59800005 4281157169
-0.046482142 0.017081684 0.59900004 4280436010
-0.044536591 0.017081684 0.59900004 4279323426
-0.042662136 0.017110201 0.60000002 4279193123
-0.040781192 0.017138716 0.60100001 4278998054
-0.038893756 0.017167235 0.60200006 4279721779
-0.036999814 0.017195752 0.60300004 4279721779
-0.03509938 0.017224267 0.60400003 4279854648
-0.03313759 0.017224267 0.60400003 4279525681
-0.03122741 0.017252784 0.60500002 4279459890
-0.029262368 0.017252784 0.60500002 4279197234
-0.027342446 0.017281301 0.60600001 4279591222
-0.025416031 0.01730982 0.60700005 4279788342
-0.023444494 0.01730982 0.60700005 4280116024
-0.021508332 0.017338336 0.60800004 4280114486
-0.019533547 0.017338336 0.60800004 4279785521
-0.017558761 0.017338336 0.60800004 4280508479
-0.015609607 0.017366853 0.60900003 4281824339
-0.013631575 0.017366853 0.60900003 4283466597
-0.011653542 0.017366853 0.60900003 4285702278
-0.0096755074 0.017366853 0.60900003 4286886039
-0.0076974751 0.017366853 0.60900003 4286818962
-0.05767002 0.018869067 0.59400004 4280169256
-0.055834547 0.018900832 0.59500003 4280826155
-0.053992577 0.018932598 0.59600002 4279641367
-0.052056767 0.018932598 0.59600002 4280957227
-0.050205056 0.018964363 0.597 4280365604
-0.048346847 0.018996131 0.59800005 4281420595
-0.046404541 0.018996131 0.59800005 4280238629
-0.044536591 0.019027896 0.59900004 4279387935
-0.042662136 0.019059662 0.60000002 4279126047
-0.040781192 0.019091427 0.60100001 4279062048
-0.038893756 0.019123195 0.60200006 4279129125
-0.036999814 0.01915496 0.60300004 4279064617
-0.03509938 0.019186726 0.60400003 4279328302
-0.03313759 0.019186726 0.60400003 4279065128
-0.03122741 0.019218491 0.60500002 4278867749
-0.029262368 0.019218491 0.60500002 4278867749
-0.027342446 0.019250257 0.60600001 4278801958
-0.025416031 0.019282026 0.60700005 4278933544
-0.023444494 0.019282026 0.60700005 4278867751
-0.021508332 0.019313792 0.60800004 4279262509
-0.019565674 0.019345557 0.60900003 4279394095
-0.017587641 0.019345557 0.60900003 4278671144
-0.015609607 0.019345557 0.60900003 4279394867
-0.013653958 0.019377323 0.61000001 4279459890
-0.011672677 0.019377323 0.61000001 4280051514
-0.0096913949 0.019377323 0.61000001 4280050744
-0.007722754 0.019409088 0.611 4279589428
-0.0057476172 0.019440856 0.61200005 4280770360
-0.0037659833 0.019472621 0.61300004 4283203164
-0.0017778536 0.019504387 0.61400002 4286030728
-0.057572935 0.020764017 0.59300005 4280234534
-0.05574071 0.020799031 0.59400004 4280562469
-0.053901989 0.020834047 0.59500003 4280299297
-0.052056767 0.020869061 0.59600002 4280825641
-0.050120961 0.020869061 0.59600002 4280431397
-0.048265994 0.020904077 0.597 4280762665
-0.046404541 0.020939093 0.59800005 4280042274
-0.044536591 0.020974107 0.59900004 4279321629
-0.042662136 0.021009123 0.60000002 4279257631
-0.040781192 0.021044137 0.60100001 4278996509
-0.038893756 0.021079155 0.60200006 4279193888
-0.036999814 0.021114169 0.60300004 4279129640
-0.03509938 0.021149185 0.60400003 4279130410
-0.033192452 0.021184199 0.60500002 4278998822
-0.03122741 0.021184199 0.60500002 4278933029
-0.029262368 0.021184199 0.60500002 4279393834
-0.027342446 0.021219213 0.60600001 4278204939
-0.025416031 0.02125423 0.60700005 4278538786
-0.023483116 0.021289244 0.60800004 4278670370
-0.021508332 0.021289244 0.60800004 4279197484
-0.019565674 0.02132426 0.60900003 4278736933
-0.01761652 0.021359274 0.61000001 4278736933
-0.015660869 0.02139429 0.611 4278736933
-0.013676342 0.02139429 0.611 4278671140
-0.011710948 0.021429306 0.61200005 4278801956
-0.0097231707 0.021429306 0.61200005 4279065128
-0.0077480334 0.02146432 0.61300004 4278933542
-0.0057663997 0.021499336 0.61400002 4279064617
-0.00377827 0.02153435 0.61500001 4279196203
-0.0017865401 0.021604382 0.61700004 4278604068
0.00021782942 0.021639397 0.61800003 4279721525
-0.057572935 0.022690734 0.59300005 4280366374
-0.05574071 0.022728998 0.59400004 4280694569
-0.053901989 0.022767263 0.59500003 4280234018
-0.051969424 0.022767263 0.59500003 4280759848
-0.050120961 0.022805527 0.59600002 4281089327
-0.048185147 0.022805527 0.59600002 4280434213
-0.046326939 0.022843789 0.597 4279713055
-0.044536591 0.02292032 0.59900004 4279519521
-0.042662136 0.022958584 0.60000002 4279322910
-0.040781192 0.022996847 0.60100001 4279193375
-0.038958363 0.023073377 0.60300004 4279260197
-0.036999814 0.023073377 0.60300004 4279195431
-0.03509938 0.023111641 0.60400003 4279261224
-0.033192452 0.023149906 0.60500002 4279129638
-0.03122741 0.023149906 0.60500002 4278866466
-0.029310735 0.023188168 0.60600001 4279194918
-0.027342446 0.023188168 0.60600001 4279390502
-0.025416031 0.023226434 0.60700005 4278667294
-0.023483116 0.023264699 0.60800004 4278204434
-0.021543706 0.023302963 0.60900003 4279060769
-0.0195978 0.023341225 0.61000001 4279521318
-0.017645398 0.02337949 0.611 4279588394
-0.015686503 0.023417756 0.61200005 4279062820
-0.013721109 0.02345602 0.61300004 4278734369
-0.011730083 0.02345602 0.61300004 4278998054
-0.0097549455 0.023494285 0.61400002 4278800673
-0.0077733123 0.023532547 0.61500001 4279655982
-0.0057945745 0.023609078 0.61700004 4278867490
-0.0038028443 0.023685604 0.61900002 4278604831
-0.0017952266 0.023723869 0.62 4278670370
0.00021923933 0.023800399 0.62200004 4278933544
-0.064616717 0.02436837 0.58700001 4281021733
-0.057572935 0.024617452 0.59300005 4280959024
-0.05574071 0.024658965 0.59400004 4280958509
-0.053901989 0.024700478 0.59500003 4280234018
-0.051969424 0.024700478 0.59500003 4281089327
-0.050120961 0.02474199 0.59600002 4281287474
-0.048185147 0.02474199 0.59600002 4279514393
-0.046326939 0.024783503 0.597 4279714852
-0.044462238 0.024825018 0.59800005 4279520293
-0.042662136 0.024908045 0.60000002 4279191840
-0.040781192 0.024949558 0.60100001 4279062050
-0.038958363 0.025032585 0.60300004 4279129127
-0.037061173 0.025074098 0.60400003 4278669857
-0.03509938 0.025074098 0.60400003 4279196455
-0.033192452 0.025115611 0.60500002 4279064099
-0.03122741 0.025115611 0.60500002 4279195172
-0.029310735 0.025157124 0.60600001 4280246324
-0.027342446 0.025157124 0.60600001 4279059488
-0.025416031 0.02519864 0.60700005 4278199047
-0.023483116 0.025240153 0.60800004 4278527250
-0.021579081 0.025323179 0.61000001 4278526996
-0.019629927 0.025364691 0.611 4278657812
-0.01767428 0.025406206 0.61200005 4278723859
-0.015712133 0.025447719 0.61300004 4278792214
-0.013743492 0.025489232 0.61400002 4278928670
-0.011768354 0.025530744 0.61500001 4278202634
-0.0098026078 0.025613774 0.61700004 4278202377
-0.0078112311 0.025655286 0.61800003 4278200321
-0.0058227489 0.025738312 0.62 4278200577
-0.003821275 0.025821339 0.62200004 4278862361
-0.0018068088 0.025904365 0.62400001 4279389732
0.00022064922 0.025987394 0.62600005 4279916846
0.0022610992 0.02607042 0.62800002 4279522601
-0.059499003 0.026544169 0.59300005 4281353269
-0.05767002 0.026588932 0.59400004 4281155636
-0.05574071 0.026588932 0.59400004 4280695337
-0.053901989 0.026633693 0.59500003 4280958509
-0.051969424 0.026633693 0.59500003 4281023532
-0.050120961 0.026678454 0.59600002 4281090608
-0.048185147 0.026678454 0.59600002 4279318299
-0.046326939 0.026723217 0.597 4279649572
-0.044462238 0.026767982 0.59800005 4279520293
-0.042662136 0.026857505 0.60000002 4279192353
-0.040781192 0.026902268 0.60100001 4279194406
-0.038958363 0.026991794 0.60300004 4279194406
-0.037061173 0.027036555 0.60400003 4279458603
-0.03509938 0.027036555 0.60400003 4279130408
-0.033192452 0.027081318 0.60500002 4278735650
-0.03122741 0.027081318 0.60500002 4278933283
-0.029310735 0.027126079 0.60600001 4280442420
-0.027387567 0.027170844 0.60700005 4280638774
-0.025457902 0.027215606 0.60800004 4278197765
-0.02352174 0.027260369 0.60900003 4279250971
-0.021579081 0.02730513 0.61000001 4279514145
-0.019662056 0.027394656 0.61200005 4280172075
-0.017703159 0.027439419 0.61300004 4279777315
-0.015737765 0.02748418 0.61400002 4279910695
-0.013788261 0.027573707 0.61600006 4278994461
-0.011806626 0.02761847 0.61700004 4279454498
-0.0098343827 0.027707992 0.61900002 4278270738
-0.0078491503 0.027797518 0.62100005 4279783977
-0.0058509237 0.027887043 0.62300003 4279783979
-0.0038397054 0.027976567 0.625 4279652393
-0.0018183909 0.028110856 0.62800002 4279586600
0.00022205913 0.028200382 0.63000005 4280244530
0.0022791016 0.028334668 0.63300002 4280244530
0.0043487838 0.028424194 0.63500005 4278203409
-0.063137464 0.028374864 0.59100002 4281353015
-0.048185147 0.028614921 0.59600002 4279450398
-0.046326939 0.028662933 0.597 4280044330
-0.044536591 0.028758958 0.59900004 4279191842
-0.042662136 0.028806968 0.60000002 4279587881
-0.040849052 0.028902993 0.60200006 4279062818
-0.038958363 0.028951004 0.60300004 4279260711
-0.037061173 0.028999016 0.60400003 4279260711
-0.03509938 0.028999016 0.60400003 4279919154
-0.033192452 0.029047025 0.60500002 4278866466
-0.03122741 0.029047025 0.60500002 4279063845
-0.029310735 0.029095037 0.60600001 4278533398
-0.027387567 0.02914305 0.60700005 4280110895
-0.025457902 0.029191062 0.60800004 4278856726
-0.02352174 0.029239073 0.60900003 4279448863
-0.021614457 0.029335095 0.611 4278856213
-0.019662056 0.029383108 0.61200005 4278527248
-0.017732039 0.029479131 0.61400002 4280435756
-0.015763396 0.029527143 0.61500001 4280766518
-0.013810643 0.029623168 0.61700004 4278266636
-0.011844897 0.029719189 0.61900002 4278661394
-0.0098661585 0.029815214 0.62100005 4279980844
-0.0078744283 0.029911235 0.62300003 4278928670
-0.0058697066 0.030007258 0.625 4278797082
-0.003858136 0.030151293 0.62800002 4278862875
-0.0018270776 0.030295329 0.63100004 4278203917
0.000223469 0.030439362 0.634 4278797082
0.0022899031 0.030535387 0.63600004 4279916848
0.0043761777 0.030679423 0.63900006 4278206229
0.0064718435 0.030775445 0.64100003 4279129127
-0.068663023 0.030192563 0.58900005 4280758815
-0.048265994 0.030602647 0.597 4279911979
-0.046404541 0.030653909 0.59800005 4279584810
-0.044536591 0.030705169 0.59900004 4279127078
-0.042662136 0.030756429 0.60000002 4279193638
-0.040849052 0.030858953 0.60200006 4279129127
-0.038958363 0.030910213 0.60300004 4279194920
-0.037061173 0.030961473 0.60400003 4279458603
-0.03509938 0.030961473 0.60400003 4279129638
-0.033192452 0.031012733 0.60500002 4279063845
-0.03122741 0.031012733 0.60500002 4279063845
-0.029310735 0.031063993 0.60600001 4278468117
-0.027387567 0.031115256 0.60700005 4280308785
-0.025457902 0.031166516 0.60800004 4278593554
-0.023560364 0.031269036 0.61000001 4278657812
-0.021614457 0.031320296 0.611 4278920470
-0.019694183 0.03142282 0.61300004 4278854677
-0.017760918 0.03152534 0.61500001 4278461457
-0.015789028 0.031576604 0.61600006 4280833335
-0.013833026 0.031679124 0.61800003 4278267406
-0.011864032 0.031781644 0.62 4280569645
-0.0098820459 0.031884167 0.62200004 4278993179
-0.0078870682 0.031986687 0.62400001 4278203405
-0.00588849 0.032140467 0.62700003 4280244528
-0.0038704232 0.032294251 0.63000005 4278664982
-0.0018328686 0.032448031 0.63300002 4278927386
0.00022417397 0.032601815 0.63600004 4278466581
0.0023007046 0.032755598 0.63900006 4279784238
0.0043898746 0.032858118 0.64100003 4279587629
0.0064920364 0.032960638 0.64300001 4279522601
-0.050120961 0.032487851 0.59600002 4280304174
-0.048265994 0.032542359 0.597 4280175151
-0.046404541 0.032596871 0.59800005 4279847982
-0.044536591 0.03265138 0.59900004 4279323174
-0.042733241 0.0327604 0.60100001 4279258918
-0.040849052 0.032814912 0.60200006 4279260201
-0.038958363 0.032869421 0.60300004 4279392301
-0.037061173 0.032923929 0.60400003 4279523885
-0.03509938 0.032923929 0.60400003 4279063845
-0.033192452 0.032978438 0.60500002 4279063845
-0.03122741 0.032978438 0.60500002 4279063845
-0.029310735 0.033032946 0.60600001 4278272534
-0.027387567 0.033087462 0.60700005 4279521318
-0.025457902 0.033141971 0.60800004 4279586861
-0.023560364 0.033250988 0.61000001 4280178485
-0.021614457 0.033305496 0.611 4280046131
-0.019694183 0.033414517 0.61300004 4280374326
-0.017760918 0.033523537 0.61500001 4280045615
-0.01581466 0.033632558 0.61700004 4279453478
-0.01385541 0.033741575 0.61900002 4279124000
-0.011883168 0.033850599 0.62100005 4278200842
-0.0098979333 0.033959616 0.62300003 4278199814
-0.0079123471 0.034123145 0.62600005 4278199557
-0.0059072729 0.034286674 0.62900001 4278199556
-0.0038827101 0.034450203 0.63200003 4278202896
-0.0018386596 0.034613736 0.63500005 4278993695
0.00022487891 0.034777261 0.63800001 4280111660
0.0023079053 0.034940794 0.64100003 4279520293
0.0044035711 0.035049811 0.64300001 4279652393
-0.046404541 0.034539834 0.59800005 4280371250
-0.04461094 0.034655351 0.60000002 4279584301
-0.042733241 0.034713108 0.60100001 4280243512
-0.040849052 0.034770872 0.60200006 4279851062
-0.038958363 0.034828629 0.60300004 4279654707
-0.037061173 0.034886386 0.60400003 4279391787
-0.03509938 0.034886386 0.60400003 4279391787
-0.033192452 0.034944147 0.60500002 4279260713
-0.03122741 0.034944147 0.60500002 4279194920
-0.029310735 0.035001904 0.60600001 4279589680
-0.027387567 0.035059664 0.60700005 4279260715
-0.025457902 0.035117425 0.60800004 4279194408
-0.023560364 0.035232939 0.61000001 4279325994
-0.021649834 0.03534846 0.61200005 4279260201
-0.019694183 0.035406217 0.61300004 4279325740
-0.017760918 0.035521735 0.61500001 4279457326
-0.01581466 0.035637252 0.61700004 4279325994
-0.01385541 0.03575277 0.61900002 4278733087
-0.011883168 0.035868291 0.62100005 4279587883
-0.0099138208 0.036041565 0.62400001 4279653676
-0.0079123471 0.036157083 0.62600005 4279522090
-0.0059166648 0.036388122 0.63000005 4279522090
-0.0038888536 0.036561396 0.63300002 4279982387
-0.0018415551 0.036734674 0.63600004 4279718445
0.0002252314 0.036907952 0.63900006 4279784238
0.0023115058 0.037081227 0.64200002 4279850801
0.0044104201 0.037196744 0.64400005 4279587629
-0.037061173 0.036848843 0.60400003 4282083148
-0.035157491 0.036909852 0.60500002 4281490495
-0.033192452 0.036909852 0.60500002 4280833594
-0.031279024 0.036970858 0.60600001 4280110641
-0.029310735 0.036970858 0.60600001 4279322922
-0.027387567 0.03703187 0.60700005 4279717680
-0.025457902 0.037092876 0.60800004 4280112953
-0.023560364 0.03721489 0.61000001 4279783988
-0.021649834 0.037336908 0.61200005 4279455793
-0.01972631 0.037458923 0.61400002 4279587377
-0.017760918 0.037519932 0.61500001 4279456304
-0.015840292 0.037702955 0.61800003 4279785523
-0.013877793 0.03782497 0.62 4279588144
-0.011902303 0.037946988 0.62200004 4279522351
-0.0099138208 0.038069002 0.62400001 4279588142
-0.007924987 0.03825203 0.62700003 4279588142
-0.0059166648 0.038435053 0.63000005 4279522349
-0.0038949971 0.038679082 0.634 4279916594
-0.0018444506 0.038862109 0.63700002 4279719217
0.00022558388 0.039045133 0.64000005 4279456045
0.0023115058 0.039167147 0.64200002 4279455791
-0.015840292 0.039710905 0.61800003 4285108346
-0.013877793 0.039839417 0.62 4284910965
-0.011902303 0.039967932 0.62200004 4285174137
-0.0099297073 0.040160701 0.625 4284977272
-0.0059260563 0.040546246 0.63100004 4286424204
-0.0038949971 0.040739015 0.634 4286687376
0.16329239 0.10789815 0.32000002 4280494626
0.16433178 0.10789815 0.32000002 4280626212
0.16537112 0.10789815 0.32000002 4280626212
0.16276008 0.10927829 0.32100001 4280165661
0.16380268 0.10927829 0.32100001 4280231967
0.16433178 0.10893786 0.32000002 4280231967
0.16537112 0.10893786 0.32000002 4280165661
0.16641048 0.10893786 0.32000002 4280428833
0.16744985 0.10893786 0.32000002 4280363040
0.16796267 0.10859743 0.31900001 4280626212
0.16276008 0.11032125 0.32100001 4279836180
0.16380268 0.11032125 0.32100001 4279836696
0.1648453 0.11032125 0.32100001 4279836696
0.16537112 0.10997758 0.32000002 4280297247
0.16641048 0.10997758 0.32000002 4280230684
0.16744985 0.10997758 0.32000002 4280559649
0.1684892 0.10997758 0.32000002 4280494626
0.16899879 0.10963389 0.31900001 4280428833
0.16272505 0.11205807 0.32300001 4280034329
0.16326714 0.11171115 0.32200003 4279902743
0.16380268 0.11136422 0.32100001 4279836950
0.1648453 0.11136422 0.32100001 4279639571
0.16588791 0.11136422 0.32100001 4279836696
0.16641048 0.11101729 0.32000002 4279705112
0.16744985 0.11101729 0.32000002 4280099098
0.1684892 0.11101729 0.32000002 4279837209
0.16952857 0.11101729 0.32000002 4280231967
0.16272505 0.11310753 0.32300001 4279638801
0.16326714 0.11275735 0.32200003 4279770387
0.16431297 0.11275735 0.32200003 4279704594
0.1648453 0.11240717 0.32100001 4279770387
0.16588791 0.11240717 0.32100001 4280033559
0.16641048 0.112057 0.32000002 4279967512
0.16744985 0.112057 0.32000002 4279770133
0.1684892 0.112057 0.32000002 4279770135
0.16952857 0.112057 0.32000002 4280099098
0.17056793 0.112057 0.32000002 4280099098
0.17107101 0.11170682 0.31900001 4280427293
0.16326714 0.11380357 0.32200003 4279704594
0.16431297 0.11380357 0.32200003 4280098582
0.16535884 0.11380357 0.32200003 4279966996
0.16588791 0.11345013 0.32100001 4279835156
0.1669305 0.11345013 0.32100001 4279704340
0.16744985 0.11309671 0.32000002 4279835928
0.1684892 0.11309671 0.32000002 4279966744
0.16952857 0.11309671 0.32000002 4280164121
0.17056793 0.11309671 0.32000002 4280295707
0.17107101 0.11274328 0.31900001 4279835926
0.16431297 0.11484978 0.32200003 4280296731
0.16535884 0.11484978 0.32200003 4280296477
0.16588791 0.1144931 0.32100001 4280691237
0.1669305 0.1144931 0.32100001 4280099100
0.16797312 0.1144931 0.32100001 4279770135
0.1684892 0.11413643 0.32000002 4279835928
0.16952857 0.11413643 0.32000002 4280229657
0.17056793 0.11413643 0.32000002 4280163864
0.17107101 0.11377975 0.31900001 4280033559
0.16588791 0.11553606 0.32100001 4280758313
0.1669305 0.11553606 0.32100001 4280430118
0.16797312 0.11553606 0.32100001 4279639579
0.1684892 0.11517614 0.32000002 4280099617
0.16952857 0.11517614 0.32000002 4279835928
0.17056793 0.11517614 0.32000002 4280033307
0.1716073 0.11517614 0.32000002 4279902489
0.050000951 0.033005744 0.57480049 4294967295
0.050000951 0.033005744 0.57480049 4294901760
0.050002702 0.032505892 0.57478839 4294901760
0.050004449 0.03200604 0.57477635 4294901760
0.0500062 0.031506192 0.57476425 4294901760
0.050007951 0.03100634 0.57475221 4294901760
0.050009701 0.030506488 0.57474011 4294901760
0.050011449 0.030006636 0.57472807 4294901760
0.050013199 0.029506786 0.57471597 4294901760
0.05001495 0.029006936 0.57470393 4294901760
0.050016701 0.028507084 0.57469183 4294901760
0.050018448 0.028007232 0.57467979 4294901760
0.050020199 0.027507382 0.57466769 4294901760
0.05002195 0.02700753 0.57465565 4294901760
0.050023701 0.026507679 0.57464355 4294901760
0.050025448 0.026007827 0.57463151 4294901760
0.050027199 0.025507975 0.57461941 4294901760
0.05002895 0.025008125 0.57460737 4294901760
0.050030701 0.024508273 0.57459527 4294901760
0.050032448 0.024008423 0.57458317 4294901760
0.050034199 0.023508571 0.57457113 4294901760
0.05003595 0.023008719 0.57455903 4294901760
0.050037701 0.022508869 0.57454699 4294901760
0.050039448 0.022009019 0.57453489 4294901760
0.050041199 0.021509167 0.57452285 4294901760
0.05004295 0.021009315 0.57451075 4294901760
0.050044701 0.020509463 0.57449871 4294901760
0.050046448 0.020009613 0.57448661 4294901760
0.050048199 0.019509761 0.57447457 4294901760
0.050049949 0.019009911 0.57446247 4294901760
0.050051697 0.018510059 0.57445043 4294901760
0.050053447 0.018010207 0.57443833 4294901760
0.050055198 0.017510356 0.57442629 4294901760
0.050056949 0.017010506 0.57441419 4294901760
0.050058696 0.016510654 0.57440215 4294901760
0.050060447 0.016010802 0.57439005 4294901760
0.050062198 0.015510952 0.57437795 4294901760
0.050063949 0.0150111 0.57436591 4294901760
0.050065696 0.014511248 0.57435381 4294901760
0.050067447 0.014011398 0.57434177 4294901760
0.050069198 0.013511548 0.57432967 4294901760
0.050070949 0.013011696 0.57431763 4294901760
0.050072696 0.012511844 0.57430553 4294901760
0.050074447 0.012011994 0.57429349 4294901760
0.050076198 0.011512142 0.57428139 4294901760
0.050077949 0.011012292 0.57426935 4294901760
0.050079696 0.01051244 0.57425725 4294901760
0.050081447 0.010012588 0.57424521 4294901760
0.050083198 0.0095127374 0.57423311 4294901760
0.050084949 0.0090128854 0.57422107 4294901760
0.050086696 0.0085130334 0.57420897 4294901760
0.050088447 0.0080131833 0.57419693 4294901760
0.050090197 0.0075133331 0.57418483 4294901760
0.050091945 0.0070134811 0.57417274 4294901760
0.050093696 0.006513631 0.5741607 4294901760
0.050095446 0.0060137771 0.5741486 4294901760
0.050097197 0.005513927 0.57413656 4294901760
0.050098944 0.005014075 0.57412446 4294901760
0.050100695 0.0045142248 0.57411242 4294901760
0.050102446 0.0040143747 0.57410032 4294901760
0.050104197 0.0035145227 0.57408828 4294901760
0.050105944 0.0030146707 0.57407618 4294901760
0.050107695 0.0025148187 0.57406414 4294901760
0.050109446 0.0020149685 0.57405204 4294901760
0.050111197 0.0015151165 0.57404 4294901760
0.050112944 0.0010152683 0.5740279 4294901760
0.050114695 0.00051541626 0.57401586 4294901760
0.050116446 1.5564263e-05 0.57400376 4294901760
0.050118197 -0.00048428774 0.57399166 4294901760
0.050119944 -0.00098413974 0.57397962 4294901760
0.050121695 -0.001483988 0.57396752 4294901760
0.050123446 -0.00198384 0.57395548 4294901760
0.050125197 -0.002483692 0.57394338 4294901760
0.050126944 -0.002983544 0.57393134 4294901760
0.050128695 -0.003483396 0.57391924 4294901760
0.050130446 -0.003983248 0.5739072 4294901760
0.050132193 -0.0044830963 0.5738951 4294901760
0.050133944 -0.0049829483 0.57388306 4294901760
0.050135694 -0.0054828003 0.57387096 4294901760
0.050137445 -0.0059826486 0.57385892 4294901760
0.050139192 -0.0064825043 0.57384682 4294901760
0.050140943 -0.0069823526 0.57383478 4294901760
0.050142694 -0.0074822046 0.57382268 4294901760
0.050144445 -0.0079820566 0.57381064 4294901760
0.050146192 -0.0084819049 0.57379854 4294901760
0.050147943 -0.0089817569 0.57378644 4294901760
0.050149694 -0.0094816089 0.5737744 4294901760
0.050151445 -0.0099814609 0.5737623 4294901760
0.050153192 -0.010481313 0.57375026 4294901760
0.050154943 -0.010981161 0.57373816 4294901760
0.050156694 -0.011481013 0.57372612 4294901760
0.050158445 -0.011980865 0.57371402 4294901760
0.050160192 -0.012480717 0.57370198 4294901760
0.050161943 -0.012980569 0.57368988 4294901760
0.050163694 -0.013480421 0.57367784 4294901760
0.050165445 -0.013980269 0.57366574 4294901760
0.050167192 -0.014480121 0.5736537 4294901760
0.050168943 -0.014979973 0.5736416 4294901760
0.050170694 -0.015479825 0.57362956 4294901760
0.050172444 -0.015979677 0.57361746 4294901760
0.050174192 -0.016479526 0.57360542 4294901760
0.050175942 -0.016979378 0.57359332 4294901760
0.050000951 0.033005744 0.57480049 4278255360
0.050487582 0.033010218 0.57468569 4278255360
0.050974209 0.033014696 0.57457095 4278255360
0.05146084 0.03301917 0.57445616 4278255360
0.051947467 0.033023644 0.57434142 4278255360
0.052434098 0.033028122 0.57422662 4278255360
0.052920725 0.033032596 0.57411188 4278255360
0.053407356 0.033037074 0.57399708 4278255360
0.053893983 0.033041548 0.57388234 4278255360
0.054380614 0.033046022 0.57376754 4278255360
0.054867242 0.0330505 0.5736528 4278255360
0.055353872 0.033054974 0.57353801 4278255360
0.0558405 0.033059448 0.57342327 4278255360
0.056327131 0.033063926 0.57330847 4278255360
0.056813758 0.0330684 0.57319373 4278255360
0.057300389 0.033072874 0.57307893 4278255360
0.057787016 0.033077352 0.57296419 4278255360
0.058273647 0.033081826 0.57284939 4278255360
0.058760278 0.0330863 0.57273465 4278255360
0.059246905 0.033090778 0.57261986 4278255360
0.059733532 0.033095252 0.57250512 4278255360
0.060220163 0.03309973 0.57239032 4278255360
0.060706794 0.033104204 0.57227558 4278255360
0.061193421 0.033108678 0.57216078 4278255360
0.061680049 0.033113156 0.57204604 4278255360
0.06216668 0.03311763 0.57193124 4278255360
0.062653311 0.033122104 0.57181644 4278255360
0.063139938 0.033126581 0.57170171 4278255360
0.063626565 0.033131056 0.57158691 4278255360
0.0641132 0.03313553 0.57147217 4278255360
0.064599827 0.033140007 0.57135737 4278255360
0.065086454 0.033144481 0.57124263 4278255360
0.065573081 0.033148959 0.57112783 4278255360
0.066059716 0.033153433 0.57101309 4278255360
0.066546343 0.033157907 0.57089829 4278255360
0.06703297 0.033162385 0.57078356 4278255360
0.067519605 0.033166859 0.57066876 4278255360
0.068006232 0.033171333 0.57055402 4278255360
0.06849286 0.033175811 0.57043922 4278255360
0.068979487 0.033180285 0.57032448 4278255360
0.069466114 0.033184759 0.57020968 4278255360
0.069952749 0.033189237 0.57009494 4278255360
0.070439376 0.033193711 0.56998014 4278255360
0.070926003 0.033198185 0.56986541 4278255360
0.071412638 0.033202663 0.56975061 4278255360
0.071899265 0.033207137 0.56963587 4278255360
0.072385892 0.033211615 0.56952107 4278255360
0.072872519 0.033216089 0.56940633 4278255360
0.073359147 0.033220563 0.56929153 4278255360
0.073845781 0.033225041 0.56917679 4278255360
0.074332409 0.033229515 0.56906199 4278255360
0.074819036 0.033233989 0.5689472 4278255360
0.07530567 0.033238467 0.56883246 4278255360
0.075792298 0.033242941 0.56871766 4278255360
0.076278925 0.033247415 0.56860292 4278255360
0.076765552 0.033251893 0.56848812 4278255360
0.077252179 0.033256367 0.56837338 4278255360
0.077738814 0.033260845 0.56825858 4278255360
0.078225441 0.033265319 0.56814384 4278255360
0.078712068 0.033269793 0.56802905 4278255360
0.079198703 0.033274271 0.56791431 4278255360
0.07968533 0.033278745 0.56779951 4278255360
0.080171958 0.033283219 0.56768477 4278255360
0.080658585 0.033287697 0.56756997 4278255360
0.081145212 0.033292171 0.56745523 4278255360
0.081631839 0.033296645 0.56734043 4278255360
0.082118481 0.033301122 0.56722569 4278255360
0.082605109 0.033305597 0.5671109 4278255360
0.083091736 0.033310071 0.56699616 4278255360
0.083578363 0.033314548 0.56688136 4278255360
0.08406499 0.033319023 0.56676662 4278255360
0.084551618 0.0333235 0.56665182 4278255360
0.085038252 0.033327974 0.56653708 4278255360
0.085524879 0.033332448 0.56642228 4278255360
0.086011514 0.033336926 0.56630754 4278255360
0.086498141 0.0333414 0.56619275 4278255360
0.086984769 0.033345874 0.56607795 4278255360
0.087471396 0.033350352 0.56596321 4278255360
0.087958023 0.033354826 0.56584841 4278255360
0.08844465 0.0333593 0.56573367 4278255360
0.088931285 0.033363778 0.56561887 4278255360
0.089417912 0.033368252 0.56550413 4278255360
0.089904547 0.03337273 0.56538934 4278255360
0.090391174 0.033377204 0.5652746 4278255360
0.090877801 0.033381678 0.5651598 4278255360
0.091364428 0.033386156 0.56504506 4278255360
0.091851056 0.03339063 0.56493026 4278255360
0.092337683 0.033395104 0.56481552 4278255360
0.092824318 0.033399582 0.56470072 4278255360
0.093310945 0.033404056 0.56458598 4278255360
0.093797572 0.03340853 0.56447119 4278255360
0.094284207 0.033413008 0.56435645 4278255360
0.094770834 0.033417482 0.56424165 4278255360
0.095257461 0.033421956 0.56412691 4278255360
0.095744088 0.033426434 0.56401211 4278255360
0.096230716 0.033430908 0.56389737 4278255360
0.09671735 0.033435386 0.56378257 4278255360
0.097203985 0.03343986 0.56366783 4278255360
0.097690612 0.033444334 0.56355304 4278255360
0.098177239 0.033448812 0.5634383 4278255360
0.098663867 0.033453286 0.5633235 4278255360
0.050000951 0.033005744 0.57480049 4278190335
0.0497794 0.032994147 0.5752486 4278190335
0.049557853 0.032982551 0.57569665 4278190335
0.049336303 0.032970954 0.57614475 4278190335
0.049114756 0.032959357 0.57659286 4278190335
0.048893206 0.03294776 0.57704091 4278190335
0.048671659 0.03293616 0.57748902 4278190335
0.048450109 0.032924563 0.57793713 4278190335
0.048228562 0.032912966 0.57838517 4278190335
0.048007011 0.032901369 0.57883328 4278190335
0.047785465 0.032889772 0.57928133 4278190335
0.047563914 0.032878175 0.57972944 4278190335
0.047342367 0.032866579 0.58017755 4278190335
0.047120817 0.032854982 0.58062559 4278190335
0.04689927 0.032843385 0.5810737 4278190335
0.04667772 0.032831788 0.58152181 4278190335
0.046456173 0.032820191 0.58196986 4278190335
0.046234623 0.032808591 0.58241796 4278190335
0.046013072 0.032796994 0.58286607 4278190335
0.045791525 0.032785397 0.58331412 4278190335
0.045569975 0.0327738 0.58376223 4278190335
0.045348428 0.032762203 0.58421034 4278190335
0.045126878 0.032750607 0.58465838 4278190335
0.044905331 0.03273901 0.58510649 4278190335
0.044683781 0.032727413 0.5855546 4278190335
0.044462234 0.032715816 0.58600265 4278190335
0.044240683 0.032704219 0.58645076 4278190335
0.044019137 0.032692622 0.58689886 4278190335
0.043797586 0.032681022 0.58734691 4278190335
0.043576039 0.032669425 0.58779502 4278190335
0.043354489 0.032657828 0.58824313 4278190335
0.043132938 0.032646231 0.58869117 4278190335
0.042911392 0.032634635 0.58913928 4278190335
0.042689841 0.032623038 0.58958733 4278190335
0.042468295 0.032611441 0.59003544 4278190335
0.042246744 0.032599844 0.59048355 4278190335
0.042025197 0.032588247 0.59093159 4278190335
0.041803647 0.03257665 0.5913797 4278190335
0.0415821 0.032565054 0.59182781 4278190335
0.04136055 0.032553453 0.59227586 4278190335
0.041139003 0.032541856 0.59272397 4278190335
0.040917452 0.032530259 0.59317207 4278190335
0.040695906 0.032518663 0.59362012 4278190335
0.040474355 0.032507066 0.59406823 4278190335
0.040252808 0.032495469 0.59451634 4278190335
0.040031258 0.032483872 0.59496439 4278190335
0.039809711 0.032472275 0.59541249 4278190335
0.039588161 0.032460678 0.5958606 4278190335
0.03936661 0.032449082 0.59630865 4278190335
0.039145064 0.032437485 0.59675676 4278190335
0.038923517 0.032425888 0.5972048 4278190335
0.038701966 0.032414287 0.59765291 4278190335
0.038480416 0.032402691 0.59810102 4278190335
0.038258869 0.032391094 0.59854907 4278190335
0.038037319 0.032379497 0.59899718 4278190335
0.037815772 0.0323679 0.59944528 4278190335
0.037594222 0.032356303 0.59989333 4278190335
0.037372675 0.032344706 0.60034144 4278190335
0.037151124 0.03233311 0.60078955 4278190335
0.036929578 0.032321513 0.6012376 4278190335
0.036708027 0.032309916 0.6016857 4278190335
0.036486477 0.032298319 0.60213381 4278190335
0.03626493 0.032286718 0.60258186 4278190335
0.036043383 0.032275122 0.60302997 4278190335
0.035821833 0.032263525 0.60347807 4278190335
0.035600286 0.032251928 0.60392612 4278190335
0.035378736 0.032240331 0.60437423 4278190335
0.035157189 0.032228734 0.60482234 4278190335
0.034935638 0.032217138 0.60527039 4278190335
0.034714088 0.032205541 0.60571849 4278190335
0.034492541 0.032193944 0.6061666 4278190335
0.034270994 0.032182347 0.60661465 4278190335
0.034049444 0.03217075 0.60706276 4278190335
0.033827893 0.03215915 0.60751081 4278190335
0.033606343 0.032147553 0.60795891 4278190335
0.033384796 0.032135956 0.60840702 4278190335
0.033163249 0.032124359 0.60885507 4278190335
0.032941699 0.032112762 0.60930318 4278190335
0.032720152 0.032101166 0.60975128 4278190335
0.032498602 0.032089569 0.61019933 4278190335
0.032277055 0.032077972 0.61064744 4278190335
0.032055505 0.032066375 0.61109555 4278190335
0.031833954 0.032054778 0.6115436 4278190335
0.031612407 0.032043181 0.6119917 4278190335
0.031390861 0.032031581 0.61243981 4278190335
0.03116931 0.032019984 0.61288786 4278190335
0.030947762 0.032008387 0.61333597 4278190335
0.030726213 0.03199679 0.61378407 4278190335
0.030504664 0.031985193 0.61423212 4278190335
0.030283116 0.031973597 0.61468023 4278190335
0.030061567 0.031962 0.61512828 4278190335
0.029840017 0.031950403 0.61557639 4278190335
0.029618468 0.031938806 0.61602449 4278190335
0.02939692 0.031927209 0.61647254 4278190335
0.029175371 0.031915613 0.61692065 4278190335
0.028953822 0.031904012 0.61736876 4278190335
0.028732274 0.031892415 0.61781681 4278190335
0.028510725 0.031880818 0.61826491 4278190335
0.028289177 0.031869221 0.61871302 4278190335
0.028067628 0.031857625 0.61916107 4278190335
0.027846079 0.031846028 0.61960918 4278190335
0.050000951 0.033005744 0.57480049 4294967295
0.051330242 0.033075329 0.57211196 4294967295
0.052659534 0.03314491 0.56942344 4294967295
0.053988829 0.033214495 0.56673491 4294967295
0.055318121 0.033284076 0.56404638 4294967295
0.056647412 0.03335366 0.56135792 4294967295
0.057976704 0.033423241 0.55866939 4294967295
0.059305996 0.033492826 0.55598086 4294967295
0.060635291 0.033562407 0.55329233 4294967295
0.061964583 0.033631992 0.55060381 4294967295
0.063293874 0.033701576 0.54791528 4294967295
0.06462317 0.033771157 0.54522675 4294967295
0.065952457 0.033840742 0.54253823 4294967295
0.067281753 0.033910323 0.53984976 4294967295
0.068611041 0.033979908 0.53716123 4294967295
0.069940336 0.034049489 0.5344727 4294967295
0.071269631 0.034119073 0.53178418 4294967295
0.072598919 0.034188654 0.52909565 4294967295
0.073928215 0.034258239 0.52640712 4294967295
0.075257502 0.03432782 0.5237186 4294967295
0.076586798 0.034397405 0.52103007 4294967295
0.077916086 0.034466989 0.5183416 4294967295
0.079245381 0.03453657 0.51565307 4294967295
0.080574676 0.034606155 0.51296455 4294967295
0.081903964 0.034675736 0.51027602 4294967295
0.08323326 0.034745321 0.50758749 4294967295
0.084562555 0.034814902 0.50489897 4294967295
0.085891843 0.034884486 0.50221044 4294967295
0.087221138 0.034954067 0.49952194 4294967295
0.088550434 0.035023652 0.49683341 4294967295
0.089879721 0.035093233 0.49414489 4294967295
0.091209009 0.035162818 0.49145639 4294967295
0.092538305 0.035232402 0.48876786 4294967295
0.0938676 0.035301983 0.48607934 4294967295
0.095196888 0.035371568 0.48339081 4294967295
0.096526183 0.035441149 0.48070228 4294967295
0.097855479 0.035510734 0.47801375 4294967295
0.099184766 0.035580315 0.47532526 4294967295
0.10051405 0.035649899 0.47263673 4294967295
0.10184335 0.03571948 0.46994823 4294967295
0.10317264 0.035789065 0.46725971 4294967295
0.10450193 0.03585865 0.46457118 4294967295
0.10583123 0.035928231 0.46188265 4294967295
0.10716052 0.035997815 0.45919412 4294967295
0.10848981 0.036067396 0.4565056 4294967295
0.10981911 0.036136981 0.4538171 4294967295
0.1111484 0.036206562 0.45112857 4294967295
0.11247769 0.036276147 0.44844007 4294967295
0.11380699 0.036345728 0.44575155 4294967295
0.11513628 0.036415312 0.44306302 4294967295
0.11646557 0.036484897 0.44037449 4294967295
0.11779486 0.036554478 0.43768597 4294967295
0.11912415 0.036624063 0.43499744 4294967295
0.12045344 0.036693644 0.43230894 4294967295
0.12178274 0.036763228 0.42962041 4294967295
0.12311203 0.036832809 0.42693189 4294967295
0.12444133 0.036902394 0.42424339 4294967295
0.12577061 0.036971975 0.42155486 4294967295
0.1270999 0.03704156 0.41886634 4294967295
0.1284292 0.037111141 0.41617781 4294967295
0.12975849 0.037180725 0.41348928 4294967295
0.13108778 0.03725031 0.41080076 4294967295
0.13241708 0.037319891 0.40811226 4294967295
0.13374637 0.037389476 0.40542373 4294967295
0.13507566 0.037459057 0.40273523 4294967295
0.13640496 0.037528642 0.40004671 4294967295
0.13773425 0.037598222 0.39735818 4294967295
0.13906354 0.037667807 0.39466965 4294967295
0.14039284 0.037737388 0.39198112 4294967295
0.14172211 0.037806973 0.3892926 4294967295
0.14305142 0.037876554 0.3866041 4294967295
0.1443807 0.037946139 0.38391557 4294967295
0.14571001 0.038015723 0.38122705 4294967295
0.14703929 0.038085304 0.37853855 4294967295
0.1483686 0.038154889 0.37585002 4294967295
0.14969787 0.03822447 0.37316149 4294967295
0.15102717 0.038294055 0.37047297 4294967295
0.15235646 0.038363636 0.36778444 4294967295
0.15368575 0.03843322 0.36509594 4294967295
0.15501505 0.038502805 0.36240742 4294967295
0.15634434 0.038572386 0.35971889 4294967295
0.15767363 0.038641967 0.35703039 4294967295
0.15900293 0.038711552 0.35434186 4294967295
0.16033222 0.038781136 0.35165334 4294967295
0.16166151 0.038850717 0.34896481 4294967295
0.16299081 0.038920302 0.34627628 4294967295
0.1643201 0.038989883 0.34358776 4294967295
0.16564938 0.039059468 0.34089926 4294967295
0.16697869 0.039129049 0.33821073 4294967295
0.16830796 0.039198633 0.33552223 4294967295
0.16963726 0.039268218 0.33283371 4294967295
0.17096657 0.039337799 0.33014518 4294967295
0.17229584 0.039407384 0.32745665 4294967295
0.17362514 0.039476965 0.32476813 4294967295
0.17495443 0.039546549 0.32207963 4294967295
0.17628372 0.03961613 0.3193911 4294967295
0.17761302 0.039685715 0.31670257 4294967295
0.17894231 0.039755296 0.31401405 4294967295
0.18027161 0.039824881 0.31132552 4294967295
0.1816009 0.039894462 0.30863702 4294967295
0.18293019 0.039964046 0.3059485 4294967295
