# .PCD v0.7 - Point Cloud Data file format
VERSION 0.7
FIELDS x y z rgb
SIZE 4 4 4 4
TYPE F F F U
COUNT 1 1 1 1
WIDTH 1051
HEIGHT 1
VIEWPOINT 0 0 0 1 0 0 0
POINTS 1051
DATA ascii
0.032308999 0.04924012 0.38100001 4281550907
0.033546485 0.04924012 0.38100001 4282534724
0.034692679 0.049110882 0.38000003 4280560932
0.035926919 0.049110882 0.38000003 4278651652
0.037063368 0.04898164 0.37900001 4279769360
0.038193323 0.048852403 0.37800002 4279637254
0.039316773 0.048723161 0.377 4279702534
0.040433735 0.048593923 0.37600002 4280227079
0.041544203 0.048464689 0.37500003 4282720020
0.042648166 0.048335448 0.37400001 4285014037
0.043745644 0.04820621 0.37300003 4285341203
0.044957146 0.04820621 0.37300003 4286064156
0.046168651 0.04820621 0.37300003 4286197028
0.047253128 0.048076969 0.37200001 4285670166
0.048461385 0.048076969 0.37200001 4285275410
0.049669642 0.048076969 0.37200001 4284881168
0.050877895 0.048076969 0.37200001 4284421900
0.0039679166 0.052067891 0.39300001 4286879111
0.0052443813 0.052067891 0.39300001 4283777850
0.0065042535 0.051935405 0.39200002 4285017382
0.0077774702 0.051935405 0.39200002 4286270014
0.0090506868 0.051935405 0.39200002 4283967520
0.010297568 0.051802915 0.39100003 4282914319
0.011567537 0.051802915 0.39100003 4282061322
0.012837506 0.051802915 0.39100003 4281273605
0.014107473 0.051802915 0.39100003 4287272072
0.015377442 0.051802915 0.39100003 4286090365
0.016689988 0.051935405 0.39200002 4285959038
0.01791738 0.051802915 0.39100003 4286419843
0.019138277 0.051670425 0.39000002 4287075463
0.020300355 0.051405448 0.38800001 4279704594
0.021505011 0.051272962 0.38700002 4279113486
0.022703171 0.051140472 0.38600001 4279508244
0.023894835 0.051007986 0.38500002 4280560932
0.025145316 0.051007986 0.38500002 4281483317
0.026327236 0.050875496 0.384 4281877044
0.027574468 0.050875496 0.384 4281809448
0.028746644 0.050743006 0.38300002 4283391818
0.029912326 0.05061052 0.38200003 4283852631
0.031153062 0.05061052 0.38200003 4284248159
0.032308999 0.05047803 0.38100001 4288919460
0.033546485 0.05047803 0.38100001 4280298784
0.034692679 0.050345544 0.38000003 4278784262
0.035832375 0.050213054 0.37900001 4278850568
0.037063368 0.050213054 0.37900001 4279309836
0.038193323 0.050080568 0.37800002 4279571207
0.039316773 0.049948078 0.377 4279702280
0.040433735 0.049815591 0.37600002 4279767557
0.041544203 0.049683105 0.37500003 4281473037
0.042648166 0.049550612 0.37400001 4284621076
0.043745644 0.049418125 0.37300003 4284882451
0.044836614 0.049285635 0.37200001 4285144340
0.046044871 0.049285635 0.37200001 4284749582
0.047253128 0.049285635 0.37200001 4284947215
0.048461385 0.049285635 0.37200001 4284815629
0.049669642 0.049285635 0.37200001 4284553486
0.050877895 0.049285635 0.37200001 4283896585
0.051946141 0.049153149 0.37100002 4283176460
0.053151149 0.049153149 0.37100002 4283046670
0.0026846034 0.053209048 0.39200002 4286091907
0.0039679166 0.053344782 0.39300001 4286873201
0.0052310373 0.053209048 0.39200002 4285417533
0.0065042535 0.053209048 0.39200002 4286134832
0.0077774702 0.053209048 0.39200002 4286004016
0.0090275994 0.053073313 0.39100003 4284031771
0.010297568 0.053073313 0.39100003 4282782733
0.011567537 0.053073313 0.39100003 4282061324
0.012837506 0.053073313 0.39100003 4281207298
0.014107473 0.053073313 0.39100003 4287002988
0.015377442 0.053073313 0.39100003 4285556828
0.016647412 0.053073313 0.39100003 4283774509
0.017871555 0.052937571 0.39000002 4283838505
0.019089203 0.052801836 0.38900003 4283906102
0.020248035 0.052530363 0.38700002 4279503108
0.021505011 0.052530363 0.38700002 4279179279
0.022703171 0.052394621 0.38600001 4278981900
0.023894835 0.052258886 0.38500002 4281614903
0.025080003 0.052123148 0.384 4279838233
0.026327236 0.052123148 0.384 4287202905
0.02750266 0.05198741 0.38300002 4289900670
0.028746644 0.05198741 0.38300002 4281545501
0.029912326 0.051851675 0.38200003 4281547564
0.031153062 0.051851675 0.38200003 4282469951
0.032308999 0.051715937 0.38100001 4282534972
0.033546485 0.051715937 0.38100001 4283324488
0.034692679 0.051580202 0.38000003 4280758561
0.035832375 0.05144446 0.37900001 4278390017
0.037063368 0.05144446 0.37900001 4279113227
0.038193323 0.051308725 0.37800002 4279637002
0.039316773 0.051172987 0.377 4279505414
0.040433735 0.051037248 0.37600002 4279570694
0.041433416 0.050765775 0.37400001 4280422405
0.042534135 0.050630037 0.37300003 4283833358
0.043745644 0.050630037 0.37300003 4284686099
0.044836614 0.050494298 0.37200001 4285014037
0.046044871 0.050494298 0.37200001 4284815888
0.047253128 0.050494298 0.37200001 4284882451
0.048461385 0.050494298 0.37200001 4283962378
0.049669642 0.050494298 0.37200001 4283438087
0.050877895 0.050494298 0.37200001 4283110151
0.051946141 0.050358564 0.37100002 4282520588
0.053151149 0.050358564 0.37100002 4282521873
0.0014077864 0.054343715 0.39100003 4286223493
0.0026846034 0.054482698 0.39200002 4286748295
0.0039578201 0.054482698 0.39200002 4285153591
0.0052310373 0.054482698 0.39200002 4285872430
0.0065042535 0.054482698 0.39200002 4285804582
0.0077576302 0.054343715 0.39100003 4285474847
0.0090275994 0.054343715 0.39100003 4285016097
0.010297568 0.054343715 0.39100003 4283110928
0.011567537 0.054343715 0.39100003 4282258188
0.012837506 0.054343715 0.39100003 4282258190
0.014071392 0.054204725 0.39000002 4283506969
0.015338113 0.054204725 0.39000002 4284097823
0.016604833 0.054204725 0.39000002 4284491038
0.01782573 0.054065742 0.38900003 4284425245
0.01904013 0.053926751 0.38800001 4284165417
0.020248035 0.053787768 0.38700002 4279894784
0.021449441 0.053648777 0.38600001 4279113227
0.022644356 0.053509794 0.38500002 4280231967
0.02383277 0.053370804 0.384 4281679663
0.025080003 0.053370804 0.384 4281152542
0.026258677 0.05323182 0.38300002 4282727195
0.02750266 0.05323182 0.38300002 4282332176
0.028671589 0.053092834 0.38200003 4283453487
0.029912326 0.053092834 0.38200003 4281283101
0.031153062 0.053092834 0.38200003 4283391055
0.032308999 0.052953847 0.38100001 4280100122
0.033546485 0.052953847 0.38100001 4282666562
0.034692679 0.05281486 0.38000003 4279244813
0.035832375 0.052675873 0.37900001 4278783238
0.037063368 0.052675873 0.37900001 4279309836
0.038193323 0.052536886 0.37800002 4279637002
0.039316773 0.052397899 0.377 4279439623
0.040433735 0.052258916 0.37600002 4279504901
0.041433416 0.051980942 0.37400001 4280621069
0.042534135 0.051841956 0.37300003 4282980364
0.043628361 0.051702969 0.37200001 4284030226
0.044836614 0.051702969 0.37200001 4284948501
0.046044871 0.051702969 0.37200001 4284948501
0.047253128 0.051702969 0.37200001 4283964431
0.048461385 0.051702969 0.37200001 4283372807
0.049536124 0.051563982 0.37100002 4282848008
0.050741129 0.051563982 0.37100002 4282454281
0.051946141 0.051563982 0.37100002 4282390289
0.053151149 0.051563982 0.37100002 4282326293
0.0014077864 0.055614114 0.39100003 4286551175
0.002677755 0.055614114 0.39100003 4284308303
0.0039477237 0.055614114 0.39100003 4285476137
0.0052176928 0.055614114 0.39100003 4285540131
0.006487661 0.055614114 0.39100003 4289359459
0.0077576302 0.055614114 0.39100003 4287319104
0.00900451 0.055471878 0.39000002 4284752412
0.010271231 0.055471878 0.39000002 4283109645
0.011537951 0.055471878 0.39000002 4282454797
0.012804672 0.055471878 0.39000002 4282323981
0.014071392 0.055471878 0.39000002 4283900185
0.015338113 0.055471878 0.39000002 4284424730
0.016562259 0.055329643 0.38900003 4284555546
0.01782573 0.055329643 0.38900003 4284620826
0.01904013 0.055187404 0.38800001 4284426788
0.020248035 0.055045173 0.38700002 4280288512
0.021449441 0.054902934 0.38600001 4280889897
0.022644356 0.054760698 0.38500002 4280693542
0.02383277 0.054618463 0.384 4280495641
0.025014691 0.054476228 0.38300002 4281085977
0.026258677 0.054476228 0.38300002 4281874203
0.027430853 0.054333996 0.38200003 4281413906
0.028671589 0.054333996 0.38200003 4280690183
0.029912326 0.054333996 0.38200003 4280558604
0.031071508 0.054191757 0.38100001 4281942837
0.032308999 0.054191757 0.38100001 4279573008
0.033546485 0.054191757 0.38100001 4281876794
0.034692679 0.054049522 0.38000003 4278587144
0.035832375 0.053907286 0.37900001 4280560934
0.037063368 0.053907286 0.37900001 4279442451
0.038193323 0.053765051 0.37800002 4279374602
0.039316773 0.053622812 0.377 4279505416
0.040433735 0.05348058 0.37600002 4279636489
0.041544203 0.053338345 0.37500003 4280819218
0.042534135 0.053053875 0.37300003 4283047184
0.043745644 0.053053875 0.37300003 4283438862
0.044836614 0.052911635 0.37200001 4283570188
0.046044871 0.052911635 0.37200001 4283307530
0.047253128 0.052911635 0.37200001 4282913801
0.048461385 0.052911635 0.37200001 4282914571
0.049669642 0.052911635 0.37200001 4282520842
0.050877895 0.052911635 0.37200001 4282455819
0.051946141 0.052769404 0.37100002 4282326291
0.053151149 0.052769404 0.37100002 4282590746
0.0014077864 0.056884512 0.39100003 4287536014
0.002677755 0.056884512 0.39100003 4283579696
0.0039477237 0.056884512 0.39100003 4285671971
0.0052176928 0.056884512 0.39100003 4285275928
0.006487661 0.056884512 0.39100003 4286266155
0.0077377893 0.056739025 0.39000002 4285079830
0.00900451 0.056739025 0.39000002 4284751896
0.010271231 0.056739025 0.39000002 4283569423
0.011537951 0.056739025 0.39000002 4282454797
0.012804672 0.056739025 0.39000002 4282520590
0.014071392 0.056739025 0.39000002 4283767827
0.015298785 0.056593541 0.38900003 4284358167
0.016562259 0.056593541 0.38900003 4284488470
0.017779905 0.056448054 0.38800001 4284685849
0.018991059 0.05630257 0.38700002 4283636759
0.020195713 0.056157082 0.38600001 4280879876
0.021393875 0.056011602 0.38500002 4282467900
0.022644356 0.056011602 0.38500002 4280429600
0.02383277 0.055866115 0.384 4281153573
0.025014691 0.055720631 0.38300002 4281086747
0.026258677 0.055720631 0.38300002 4281545238
0.027430853 0.055575147 0.38200003 4281018894
0.028671589 0.055575147 0.38200003 4281545238
0.029912326 0.055575147 0.38200003 4281216534
0.031071508 0.05542966 0.38100001 4282140216
0.032308999 0.05542966 0.38100001 4279836950
0.033546485 0.05542966 0.38100001 4282140736
0.034692679 0.05528418 0.38000003 4278718477
0.035926919 0.05528418 0.38000003 4280956975
0.037063368 0.055138692 0.37900001 4280428833
0.038193323 0.054993208 0.37800002 4279571979
0.039316773 0.054847721 0.377 4279505416
0.040433735 0.054702237 0.37600002 4279636487
0.041544203 0.054556757 0.37500003 4280557071
0.042648166 0.05441127 0.37400001 4283507221
0.043745644 0.054265786 0.37300003 4283702034
0.044836614 0.054120298 0.37200001 4283373069
0.046044871 0.054120298 0.37200001 4283176973
0.047253128 0.054120298 0.37200001 4282717705
0.048461385 0.054120298 0.37200001 4282586121
0.049669642 0.054120298 0.37200001 4282390026
0.050877895 0.054120298 0.37200001 4282522641
0.052086156 0.054120298 0.37200001 4282526236
0.00013781765 0.058154915 0.39100003 4286355079
0.0014077864 0.058154915 0.39100003 4287731338
0.002677755 0.058154915 0.39100003 4283511337
0.0039477237 0.058154915 0.39100003 4285671969
0.0052043479 0.058006175 0.39000002 4285736992
0.0064710681 0.058006175 0.39000002 4285079062
0.0077377893 0.058006175 0.39000002 4285408797
0.00900451 0.058006175 0.39000002 4284226320
0.010244895 0.057857446 0.38900003 4283701261
0.011508367 0.057857446 0.38900003 4283045387
0.01277184 0.057857446 0.38900003 4282913803
0.014035312 0.057857446 0.38900003 4283570448
0.015298785 0.057857446 0.38900003 4284227351
0.016562259 0.057857446 0.38900003 4284291861
0.017779905 0.057708707 0.38800001 4284357654
0.018991059 0.057559978 0.38700002 4283767829
0.020195713 0.057411239 0.38600001 4281601802
0.021393875 0.05726251 0.38500002 4281085218
0.022585537 0.05711377 0.384 4279309066
0.02383277 0.05711377 0.384 4281482538
0.025014691 0.056965042 0.38300002 4281416743
0.026258677 0.056965042 0.38300002 4281479960
0.027430853 0.05681631 0.38200003 4282268961
0.028671589 0.05681631 0.38200003 4281479960
0.029912326 0.05681631 0.38200003 4282336816
0.031071508 0.056667574 0.38100001 4282140216
0.032308999 0.056667574 0.38100001 4280428063
0.033546485 0.056667574 0.38100001 4280493856
0.034692679 0.056518842 0.38000003 4280363555
0.035926919 0.056518842 0.38000003 4278981902
0.037063368 0.056370106 0.37900001 4279045642
0.038193323 0.056221373 0.37800002 4279440393
0.039316773 0.056072637 0.377 4279636489
0.040433735 0.055923905 0.37600002 4279965452
0.041544203 0.055775173 0.37500003 4280622351
0.042648166 0.055626437 0.37400001 4283441428
0.043745644 0.055477705 0.37300003 4283702034
0.044957146 0.055477705 0.37300003 4282782985
0.046044871 0.055328969 0.37200001 4283311126
0.047253128 0.055328969 0.37200001 4282522125
0.048461385 0.055328969 0.37200001 4282522125
0.049669642 0.055328969 0.37200001 4282522641
0.050877895 0.055328969 0.37200001 4282654740
0.052086156 0.055328969 0.37200001 4282195473
0.00013781765 0.059425309 0.39100003 4286354566
0.0014077864 0.059425309 0.39100003 4287732623
0.002677755 0.059425309 0.39100003 4283182631
0.0039376272 0.059273325 0.39000002 4285147170
0.0052043479 0.059273325 0.39000002 4285145884
0.0064710681 0.059273325 0.39000002 4284817687
0.0077179489 0.059121341 0.38900003 4284094736
0.0089814216 0.059121341 0.38900003 4284029456
0.010244895 0.059121341 0.38900003 4283964433
0.011508367 0.059121341 0.38900003 4283373069
0.01277184 0.059121341 0.38900003 4283110667
0.014035312 0.059121341 0.38900003 4283570448
0.015298785 0.059121341 0.38900003 4284293657
0.016519681 0.058969356 0.38800001 4284424732
0.017779905 0.058969356 0.38800001 4284425759
0.018991059 0.058817375 0.38700002 4284559144
0.020195713 0.058665391 0.38600001 4282983196
0.021393875 0.05851341 0.38500002 4279571727
0.022585537 0.058361422 0.384 4279308812
0.02383277 0.058361422 0.384 4279639569
0.025014691 0.058209442 0.38300002 4281680433
0.026258677 0.058209442 0.38300002 4280889888
0.027430853 0.058057461 0.38200003 4280757784
0.028671589 0.058057461 0.38200003 4281877035
0.029912326 0.058057461 0.38200003 4282139953
0.031071508 0.057905477 0.38100001 4281218601
0.032308999 0.057905477 0.38100001 4281086245
0.033546485 0.057905477 0.38100001 4279113225
0.034692679 0.057753496 0.38000003 4280955177
0.035926919 0.057753496 0.38000003 4281285679
0.037063368 0.057601511 0.37900001 4279244043
0.038193323 0.057449531 0.37800002 4279702795
0.039316773 0.057297543 0.377 4279702795
0.040433735 0.057145562 0.37600002 4280360464
0.041544203 0.056993581 0.37500003 4280885777
0.042648166 0.056841597 0.37400001 4284098329
0.043745644 0.056689616 0.37300003 4283110151
0.044957146 0.056689616 0.37300003 4281931531
0.046168651 0.056689616 0.37300003 4281145867
0.047380153 0.056689616 0.37300003 4281540625
0.048591658 0.056689616 0.37300003 4281868306
0.049803168 0.056689616 0.37300003 4281997326
0.051014666 0.056689616 0.37300003 4281799947
0.052086156 0.056537632 0.37200001 4282130195
0.00013781765 0.060695712 0.39100003 4286420359
0.0014077864 0.060695712 0.39100003 4287011213
0.002677755 0.060695712 0.39100003 4282662197
0.0039376272 0.060540475 0.39000002 4284558628
0.0052043479 0.060540475 0.39000002 4284492322
0.0064544762 0.060385246 0.38900003 4284294173
0.0077179489 0.060385246 0.38900003 4283767829
0.0089814216 0.060385246 0.38900003 4284030487
0.010244895 0.060385246 0.38900003 4284491036
0.011508367 0.060385246 0.38900003 4283766800
0.01277184 0.060385246 0.38900003 4283701520
0.013999231 0.060230009 0.38800001 4283569934
0.015259456 0.060230009 0.38800001 4283504657
0.016519681 0.060230009 0.38800001 4283179805
0.017734082 0.06007478 0.38700002 4282984739
0.018991059 0.06007478 0.38700002 4282988080
0.020195713 0.059919547 0.38600001 4283187514
0.021393875 0.059764318 0.38500002 4279835156
0.022644356 0.059764318 0.38500002 4279506193
0.02383277 0.059609082 0.384 4279243021
0.025014691 0.059453852 0.38300002 4278585859
0.026258677 0.059453852 0.38300002 4281942322
0.02750266 0.059453852 0.38300002 4282929471
0.028671589 0.059298623 0.38200003 4281482538
0.029912326 0.059298623 0.38200003 4281679663
0.031153062 0.059298623 0.38200003 4280428315
0.032308999 0.059143387 0.38100001 4280429087
0.033546485 0.059143387 0.38100001 4281219114
0.034783974 0.059143387 0.38100001 4280561184
0.035926919 0.058988158 0.38000003 4279374859
0.037063368 0.058832921 0.37900001 4279965454
0.038193323 0.058677692 0.37800002 4281213722
0.039316773 0.058522459 0.377 4280227854
0.040433735 0.058367226 0.37600002 4280426509
0.041544203 0.058211997 0.37500003 4281542421
0.042648166 0.058056764 0.37400001 4283768851
0.04386292 0.058056764 0.37400001 4282979335
0.044957146 0.057901535 0.37300003 4281211660
0.046168651 0.057901535 0.37300003 4281214228
0.047380153 0.057901535 0.37300003 4281017363
0.048591658 0.057901535 0.37300003 4281016849
0.049803168 0.057901535 0.37300003 4281406474
0.051014666 0.057901535 0.37300003 4281669133
0.00013781765 0.061966106 0.39100003 4286420359
0.0014077864 0.061966106 0.39100003 4286222210
0.002677755 0.061966106 0.39100003 4286549632
0.0039376272 0.061807621 0.39000002 4283181602
0.0052043479 0.061807621 0.39000002 4283837220
0.0064544762 0.061649144 0.38900003 4284230694
0.0077179489 0.061649144 0.38900003 4283375383
0.0089814216 0.061649144 0.38900003 4283834905
0.010218557 0.061490659 0.38800001 4284426011
0.011478783 0.061490659 0.38800001 4284292628
0.012739007 0.061490659 0.38800001 4284029456
0.013999231 0.061490659 0.38800001 4283637013
0.015259456 0.061490659 0.38800001 4288839800
0.016477104 0.061332181 0.38700002 4286681216
0.017734082 0.061332181 0.38700002 4286418558
0.018941985 0.061173696 0.38600001 4286090878
0.020195713 0.061173696 0.38600001 4286025085
0.021393875 0.061015218 0.38500002 4287010697
0.022644356 0.061015218 0.38500002 4279179281
0.02383277 0.060856733 0.384 4279243538
0.025080003 0.060856733 0.384 4279243538
0.026258677 0.060698256 0.38300002 4279177745
0.02750266 0.060698256 0.38300002 4279243789
0.028746644 0.060698256 0.38300002 4279639832
0.029912326 0.060539775 0.38200003 4278850316
0.031153062 0.060539775 0.38200003 4278455045
0.032393802 0.060539775 0.38200003 4279046412
0.033546485 0.060381293 0.38100001 4280626212
0.034783974 0.060381293 0.38100001 4279179279
0.035926919 0.060222812 0.38000003 4279898891
0.037063368 0.060064331 0.37900001 4281474068
0.038193323 0.059905849 0.37800002 4282590231
0.039316773 0.059747368 0.377 4281409039
0.040433735 0.059588887 0.37600002 4281280531
0.041544203 0.059430409 0.37500003 4282132500
0.042762201 0.059430409 0.37500003 4283703056
0.04386292 0.059271924 0.37400001 4282651399
0.045077674 0.059271924 0.37400001 4281411603
0.046168651 0.059113447 0.37300003 4281149460
0.047380153 0.059113447 0.37300003 4281149460
0.048721932 0.059271924 0.37400001 4280754189
0.049936686 0.059271924 0.37400001 4281799947
0.051151432 0.059271924 0.37400001 4282524442
0.0014077864 0.063236505 0.39100003 4286551945
0.002677755 0.063236505 0.39100003 4286485382
0.0039376272 0.063074775 0.39000002 4286416763
0.0052043479 0.063074775 0.39000002 4282859063
0.0064544762 0.062913045 0.38900003 4283050532
0.0077179489 0.062913045 0.38900003 4283048989
0.0089814216 0.062913045 0.38900003 4283310874
0.010218557 0.062751316 0.38800001 4284033052
0.011478783 0.062751316 0.38800001 4284687386
0.012739007 0.062751316 0.38800001 4284095249
0.013999231 0.062751316 0.38800001 4283964179
0.015220128 0.062589586 0.38700002 4285414966
0.016477104 0.062589586 0.38700002 4286484349
0.017734082 0.062589586 0.38700002 4286090876
0.018941985 0.062427852 0.38600001 4286091648
0.020195713 0.062427852 0.38600001 4286223234
0.021393875 0.062266126 0.38500002 4286288257
0.022644356 0.062266126 0.38500002 4286485636
0.02383277 0.062104393 0.384 4279375894
0.025080003 0.062104393 0.384 4279506710
0.026327236 0.062104393 0.384 4279309331
0.02750266 0.061942663 0.38300002 4279441940
0.028746644 0.061942663 0.38300002 4280825389
0.02999063 0.061942663 0.38300002 4279377430
0.031153062 0.061780937 0.38200003 4282865484
0.032393802 0.061780937 0.38200003 4281614390
0.033546485 0.061619204 0.38100001 4279308555
0.034783974 0.061619204 0.38100001 4279373832
0.035926919 0.061457474 0.38000003 4282587153
0.037063368 0.06129574 0.37900001 4286599492
0.038193323 0.061134014 0.37800002 4284757029
0.039316773 0.060972281 0.377 4283113747
0.040433735 0.060810551 0.37600002 4282460182
0.041544203 0.060648825 0.37500003 4283311380
0.042762201 0.060648825 0.37500003 4283833874
0.04386292 0.060487092 0.37400001 4282586633
0.045077674 0.060487092 0.37400001 4281346064
0.046292424 0.060487092 0.37400001 4281214738
0.047507178 0.060487092 0.37400001 4281017872
0.048721932 0.060487092 0.37400001 4281540623
0.049936686 0.060487092 0.37400001 4282259469
0.051151432 0.060487092 0.37400001 4282392082
0.002677755 0.064506903 0.39100003 4286420359
0.0039376272 0.064341925 0.39000002 4286551429
0.0051910039 0.064176947 0.38900003 4286946185
0.0064544762 0.064176947 0.38900003 4285493601
0.0077179489 0.064176947 0.38900003 4284896583
0.0089583332 0.064011961 0.38800001 4282656539
0.010218557 0.064011961 0.38800001 4286143307
0.011478783 0.064011961 0.38800001 4284885535
0.012739007 0.064011961 0.38800001 4284555287
0.013963151 0.063846983 0.38700002 4284292115
0.015220128 0.063846983 0.38700002 4283766030
0.016477104 0.063846983 0.38700002 4287335033
0.017688256 0.063682005 0.38600001 4286418556
0.018941985 0.063682005 0.38600001 4286222464
0.020195713 0.063682005 0.38600001 4286222464
0.021393875 0.063517027 0.38500002 4286090878
0.022644356 0.063517027 0.38500002 4286222464
0.023894835 0.063517027 0.38500002 4286813834
0.025080003 0.063352041 0.384 4280957489
0.026327236 0.063352041 0.384 4279046933
0.027574468 0.063352041 0.384 4280034339
0.028746644 0.06318707 0.38300002 4282403657
0.02999063 0.06318707 0.38300002 4279310616
0.031234615 0.06318707 0.38300002 4279112722
0.032393802 0.063022092 0.38200003 4279440400
0.033546485 0.062857106 0.38100001 4280094473
0.034783974 0.062857106 0.38100001 4282588697
0.035926919 0.062692128 0.38000003 4284817689
0.037063368 0.06252715 0.37900001 4285145625
0.038193323 0.062362172 0.37800002 4284817685
0.039316773 0.06219719 0.377 4285677098
0.040541269 0.06219719 0.377 4284098327
0.041654985 0.062032212 0.37600002 4284555798
0.042762201 0.061867233 0.37500003 4282913290
0.04386292 0.061702251 0.37400001 4282326543
0.045077674 0.061702251 0.37400001 4281411603
0.046292424 0.061702251 0.37400001 4281280531
0.047507178 0.061702251 0.37400001 4281542419
0.048721932 0.061702251 0.37400001 4282457875
0.049936686 0.061702251 0.37400001 4282588688
0.051151432 0.061702251 0.37400001 4282392852
0.0051910039 0.065440848 0.38900003 4286288773
0.0064544762 0.065440848 0.38900003 4286551175
0.0077179489 0.065440848 0.38900003 4282797381
0.0089583332 0.065272614 0.38800001 4282393887
0.010218557 0.065272614 0.38800001 4281932303
0.011478783 0.065272614 0.38800001 4284360988
0.012706175 0.065104388 0.38700002 4284753177
0.013963151 0.065104388 0.38700002 4284751894
0.015220128 0.065104388 0.38700002 4284751894
0.016434528 0.064936161 0.38600001 4283375901
0.017688256 0.064936161 0.38600001 4287663487
0.018941985 0.064936161 0.38600001 4286156156
0.020195713 0.064936161 0.38600001 4286287744
0.021393875 0.064767934 0.38500002 4286353537
0.022644356 0.064767934 0.38500002 4286353537
0.023894835 0.064767934 0.38500002 4286288257
0.025145316 0.064767934 0.38500002 4286288257
0.026395798 0.064767934 0.38500002 4287011215
0.027574468 0.0645997 0.384 4285168241
0.028821699 0.0645997 0.384 4283127891
0.02999063 0.064431474 0.38300002 4282602061
0.031234615 0.064431474 0.38300002 4283982940
0.032393802 0.064263247 0.38200003 4280426520
0.033634536 0.064263247 0.38200003 4283834653
0.034783974 0.06409502 0.38100001 4284752412
0.035926919 0.063926794 0.38000003 4285079062
0.037063368 0.06375856 0.37900001 4285210646
0.038193323 0.063590333 0.37800002 4285407512
0.039421067 0.063590333 0.37800002 4285670938
0.040541269 0.063422106 0.377 4285014291
0.041654985 0.06325388 0.37600002 4284750865
0.042762201 0.063085653 0.37500003 4282981391
0.043980204 0.063085653 0.37500003 4282000914
0.045198202 0.063085653 0.37500003 4281214992
0.046292424 0.062917419 0.37400001 4281214992
0.047634203 0.063085653 0.37500003 4281999631
0.048852205 0.063085653 0.37500003 4282587405
0.050070208 0.063085653 0.37500003 4282457361
0.051288206 0.063085653 0.37500003 4282065683
0.0064544762 0.066704743 0.38900003 4286222980
0.0077179489 0.066704743 0.38900003 4286814347
0.0089583332 0.066533267 0.38800001 4282331437
0.010218557 0.066533267 0.38800001 4282721315
0.011478783 0.066533267 0.38800001 4284166183
0.012706175 0.066361792 0.38700002 4284425757
0.013963151 0.066361792 0.38700002 4284883480
0.015220128 0.066361792 0.38700002 4284817687
0.016434528 0.06619031 0.38600001 4284948505
0.017688256 0.06619031 0.38600001 4285214761
0.018941985 0.06619031 0.38600001 4286615421
0.020195713 0.06619031 0.38600001 4286090363
0.021393875 0.066018835 0.38500002 4286353537
0.022644356 0.066018835 0.38500002 4286353537
0.023894835 0.066018835 0.38500002 4286353537
0.025145316 0.066018835 0.38500002 4286419330
0.026395798 0.066018835 0.38500002 4286288257
0.027646277 0.066018835 0.38500002 4286222464
0.028821699 0.065847352 0.384 4286288257
0.030068934 0.065847352 0.384 4286288003
0.031234615 0.065675877 0.38300002 4286024831
0.032393802 0.065504402 0.38200003 4284903522
0.033634536 0.065504402 0.38200003 4284359966
0.034783974 0.065332919 0.38100001 4284686103
0.035926919 0.065161444 0.38000003 4284882710
0.037063368 0.064989969 0.37900001 4285736990
0.038193323 0.064818494 0.37800002 4285735961
0.039316773 0.064647011 0.377 4285538582
0.040541269 0.064647011 0.377 4285341203
0.041654985 0.064475536 0.37600002 4284356364
0.042762201 0.064304061 0.37500003 4282590996
0.043980204 0.064304061 0.37500003 4281542160
0.045198202 0.064304061 0.37500003 4281214478
0.046416204 0.064304061 0.37500003 4281346064
0.047634203 0.064304061 0.37500003 4282785297
0.048852205 0.064304061 0.37500003 4282915086
0.050070208 0.064304061 0.37500003 4282655508
0.051288206 0.064304061 0.37500003 4281540109
0.0064544762 0.067968652 0.38900003 4286420359
0.0077179489 0.067968652 0.38900003 4286354566
0.0089583332 0.067793921 0.38800001 4287733906
0.010218557 0.067793921 0.38800001 4282069545
0.011449198 0.067619197 0.38700002 4283179290
0.012706175 0.067619197 0.38700002 4283967774
0.013963151 0.067619197 0.38700002 4284818970
0.015180798 0.067444466 0.38600001 4285080089
0.016434528 0.067444466 0.38600001 4285079832
0.017688256 0.067444466 0.38600001 4285210648
0.018941985 0.067444466 0.38600001 4284561195
0.020143393 0.067269742 0.38500002 4287598205
0.021393875 0.067269742 0.38500002 4286156156
0.022644356 0.067269742 0.38500002 4286090365
0.023894835 0.067269742 0.38500002 4286287744
0.025145316 0.067269742 0.38500002 4286353537
0.026395798 0.067269742 0.38500002 4286090878
0.027646277 0.067269742 0.38500002 4286222464
0.028896756 0.067269742 0.38500002 4286288257
0.030068934 0.067095011 0.384 4286222464
0.031234615 0.066920288 0.38300002 4286288257
0.032393802 0.066745564 0.38200003 4286419843
0.033546485 0.066570833 0.38100001 4283708975
0.034783974 0.066570833 0.38100001 4284490523
0.035926919 0.06639611 0.38000003 4285276443
0.037063368 0.066221379 0.37900001 4285538330
0.038193323 0.066046655 0.37800002 4285866520
0.039316773 0.065871924 0.377 4285669141
0.040541269 0.065871924 0.377 4285078547
0.041654985 0.065697201 0.37600002 4283767054
0.042876232 0.065697201 0.37600002 4282067221
0.043980204 0.065522477 0.37500003 4281411087
0.045198202 0.065522477 0.37500003 4281148685
0.046416204 0.065522477 0.37500003 4281411087
0.047634203 0.065522477 0.37500003 4283046672
0.048852205 0.065522477 0.37500003 4282915086
0.050070208 0.065522477 0.37500003 4281999890
0.051288206 0.065522477 0.37500003 4281016077
0.0064544762 0.069232553 0.38900003 4286354566
0.0077179489 0.069232553 0.38900003 4286354566
0.0089583332 0.069054574 0.38800001 4286419589
0.010218557 0.069054574 0.38800001 4287273355
0.011449198 0.068876602 0.38700002 4283707178
0.012706175 0.068876602 0.38700002 4283771425
0.013927069 0.068698622 0.38600001 4284295195
0.015180798 0.068698622 0.38600001 4285015066
0.016434528 0.068698622 0.38600001 4285539613
0.017642433 0.06852065 0.38500002 4285276441
0.018892914 0.06852065 0.38500002 4285014039
0.020143393 0.06852065 0.38500002 4284160788
0.021393875 0.06852065 0.38500002 4287861379
0.022644356 0.06852065 0.38500002 4286352249
0.023894835 0.06852065 0.38500002 4286221181
0.025145316 0.06852065 0.38500002 4286286974
0.026395798 0.06852065 0.38500002 4286222464
0.027646277 0.06852065 0.38500002 4286222464
0.028896756 0.06852065 0.38500002 4286090878
0.030068934 0.068342671 0.384 4286090878
0.031234615 0.068164699 0.38300002 4286090878
0.032393802 0.067986719 0.38200003 4286287744
0.033546485 0.067808747 0.38100001 4287664773
0.034692679 0.067630768 0.38000003 4283706147
0.035832375 0.067452788 0.37900001 4285932063
0.037063368 0.067452788 0.37900001 4285866266
0.038193323 0.067274816 0.37800002 4285734934
0.039316773 0.067096837 0.377 4285866777
0.040541269 0.067096837 0.377 4284685072
0.041654985 0.066918865 0.37600002 4283700491
0.042876232 0.066918865 0.37600002 4282392334
0.044097483 0.066918865 0.37600002 4281868556
0.045198202 0.066740893 0.37500003 4281540363
0.046416204 0.066740893 0.37500003 4282721301
0.047634203 0.066740893 0.37500003 4283373841
0.048852205 0.066740893 0.37500003 4283046159
0.050070208 0.066740893 0.37500003 4281738517
0.0064544762 0.070496447 0.38900003 4286551947
0.007698108 0.070315219 0.38800001 4286420361
0.0089583332 0.070315219 0.38800001 4286551177
0.010218557 0.070315219 0.38800001 4286485382
0.011449198 0.070133999 0.38700002 4286611058
0.012706175 0.070133999 0.38700002 4283115555
0.013927069 0.069952771 0.38600001 4284099874
0.015180798 0.069952771 0.38600001 4284427040
0.016391952 0.069771551 0.38500002 4285738019
0.017642433 0.069771551 0.38500002 4285474590
0.018892914 0.069771551 0.38500002 4285802272
0.020143393 0.069771551 0.38500002 4285670686
0.021393875 0.069771551 0.38500002 4285014046
0.022644356 0.069771551 0.38500002 4286071615
0.023894835 0.069771551 0.38500002 4287729793
0.025145316 0.069771551 0.38500002 4286811517
0.026395798 0.069771551 0.38500002 4286155388
0.027646277 0.069771551 0.38500002 4286221181
0.028896756 0.069771551 0.38500002 4286221179
0.030068934 0.069590323 0.384 4286024570
0.031234615 0.069409102 0.38300002 4285958777
0.032393802 0.069227874 0.38200003 4286286972
0.033546485 0.069046646 0.38100001 4287727995
0.034692679 0.068865426 0.38000003 4285284918
0.035832375 0.068684198 0.37900001 4285604893
0.036965575 0.068502977 0.37800002 4285998111
0.038193323 0.068502977 0.37800002 4285997852
0.039316773 0.06832175 0.377 4287447095
0.040433735 0.068140522 0.37600002 4285871406
0.041654985 0.068140522 0.37600002 4285014039
0.042876232 0.068140522 0.37600002 4284619279
0.044097483 0.068140522 0.37600002 4284095245
0.04531873 0.068140522 0.37600002 4283308298
0.046539977 0.068140522 0.37600002 4283242507
0.047634203 0.067959301 0.37500003 4283438862
0.048852205 0.067959301 0.37500003 4283046670
0.050203726 0.068140522 0.37600002 4281016079
0.007698108 0.071575873 0.38800001 4286420359
0.0089583332 0.071575873 0.38800001 4286551945
0.010192221 0.071391404 0.38700002 4286420359
0.011449198 0.071391404 0.38700002 4286550916
0.012673343 0.071206927 0.38600001 4283452994
0.013927069 0.071206927 0.38600001 4284099624
0.01514147 0.071022458 0.38500002 4285020722
0.016391952 0.071022458 0.38500002 4284425497
0.017642433 0.071022458 0.38500002 4285474845
0.018843841 0.070837982 0.384 4285342232
0.020091072 0.070837982 0.384 4285670686
0.021338305 0.070837982 0.384 4286393639
0.022585537 0.070837982 0.384 4285736994
0.02383277 0.070837982 0.384 4285081377
0.025145316 0.071022458 0.38500002 4284818459
0.026395798 0.071022458 0.38500002 4285547838
0.027646277 0.071022458 0.38500002 4286143057
0.028821699 0.070837982 0.384 4286736475
0.030068934 0.070837982 0.384 4286341717
0.031234615 0.070653506 0.38300002 4286406738
0.032393802 0.070469037 0.38200003 4285022511
0.033546485 0.07028456 0.38100001 4286202420
0.034601379 0.069915608 0.37900001 4286133545
0.035832375 0.069915608 0.37900001 4285669398
0.036965575 0.069731139 0.37800002 4285998106
0.038092278 0.069546662 0.377 4286064156
0.039316773 0.069546662 0.377 4288698956
0.040433735 0.069362193 0.37600002 4286726454
0.041654985 0.069362193 0.37600002 4285800732
0.042876232 0.069362193 0.37600002 4285078031
0.044097483 0.069362193 0.37600002 4284553740
0.04531873 0.069362193 0.37600002 4283964946
0.046539977 0.069362193 0.37600002 4283373839
0.047761224 0.069362193 0.37600002 4283045389
0.048982475 0.069362193 0.37600002 4282718737
0.050203726 0.069362193 0.37600002 4280424974
0.007698108 0.072836526 0.38800001 4286354566
0.0089352448 0.072648801 0.38700002 4286354566
0.010192221 0.072648801 0.38700002 4286354566
0.011419613 0.072461076 0.38600001 4286354566
0.012673343 0.072461076 0.38600001 4287470994
0.01389099 0.072273359 0.38500002 4283969837
0.01514147 0.072273359 0.38500002 4284033317
0.016391952 0.072273359 0.38500002 4285476902
0.017596608 0.072085634 0.384 4285671967
0.018843841 0.072085634 0.384 4287777343
0.020091072 0.072085634 0.384 4287382585
0.021338305 0.072085634 0.384 4286130465
0.022585537 0.072085634 0.384 4285805352
0.02383277 0.072085634 0.384 4288898136
0.025080003 0.072085634 0.384 4285935139
0.026327236 0.072085634 0.384 4285868065
0.027574468 0.072085634 0.384 4285735711
0.028821699 0.072085634 0.384 4285868065
0.02999063 0.071897909 0.38300002 4286197543
0.031153062 0.071710192 0.38200003 4286131748
0.032308999 0.071522467 0.38100001 4286065955
0.033458438 0.071334742 0.38000003 4285802270
0.034601379 0.071147017 0.37900001 4285538582
0.035737831 0.0709593 0.37800002 4285734932
0.036867782 0.070771568 0.377 4285997334
0.038092278 0.070771568 0.377 4285998106
0.039212488 0.07058385 0.37600002 4288960588
0.040433735 0.07058385 0.37600002 4284946193
0.041654985 0.07058385 0.37600002 4285208595
0.042876232 0.07058385 0.37600002 4284815377
0.044097483 0.07058385 0.37600002 4284224523
0.04531873 0.07058385 0.37600002 4283570188
0.046539977 0.07058385 0.37600002 4283242766
0.047761224 0.07058385 0.37600002 4282520590
0.048982475 0.07058385 0.37600002 4282523670
0.050203726 0.07058385 0.37600002 4279439108
0.0089352448 0.073906206 0.38700002 4286485384
0.010192221 0.073906206 0.38700002 4286682763
0.011419613 0.073715232 0.38600001 4286682761
0.01264051 0.073524266 0.38500002 4286353796
0.01389099 0.073524266 0.38500002 4286411371
0.01514147 0.073524266 0.38500002 4285416767
0.016349375 0.073333286 0.384 4285409826
0.017596608 0.073333286 0.384 4285736479
0.018794768 0.07314232 0.38300002 4286458914
0.020038752 0.07314232 0.38300002 4286129949
0.021282736 0.07314232 0.38300002 4285603351
0.022526722 0.07314232 0.38300002 4289225043
0.023770707 0.07314232 0.38300002 4287119665
0.025014691 0.07314232 0.38300002 4286658344
0.026327236 0.073333286 0.384 4286197282
0.027574468 0.073333286 0.384 4285999649
0.028746644 0.07314232 0.38300002 4286196260
0.02999063 0.07314232 0.38300002 4286196260
0.031153062 0.072951347 0.38200003 4286196260
0.032308999 0.072760373 0.38100001 4285868065
0.033458438 0.072569408 0.38000003 4285343263
0.034601379 0.072378427 0.37900001 4284883482
0.035737831 0.072187461 0.37800002 4285013269
0.036867782 0.071996488 0.377 4285209363
0.038092278 0.071996488 0.377 4285669396
0.039212488 0.071805514 0.37600002 4285472017
0.040433735 0.071805514 0.37600002 4285340949
0.041654985 0.071805514 0.37600002 4284749582
0.042876232 0.071805514 0.37600002 4284158987
0.044097483 0.071805514 0.37600002 4283764999
0.04531873 0.071805514 0.37600002 4282913288
0.046539977 0.071805514 0.37600002 4282717707
0.047761224 0.071805514 0.37600002 4282457877
0.048982475 0.071805514 0.37600002 4282196760
0.050203726 0.071805514 0.37600002 4279702795
0.010165884 0.074969381 0.38600001 4286485384
0.011419613 0.074969381 0.38600001 4286551177
0.01264051 0.074775167 0.38500002 4286419591
0.01389099 0.074775167 0.38500002 4286943877
0.015102142 0.074580938 0.384 4284567364
0.016349375 0.074580938 0.384 4285738789
0.017550783 0.074386723 0.38300002 4285474590
0.018794768 0.074386723 0.38300002 4285801500
0.020038752 0.074386723 0.38300002 4285800730
0.021282736 0.074386723 0.38300002 4285537558
0.022526722 0.074386723 0.38300002 4285275156
0.023770707 0.074386723 0.38300002 4285210646
0.025014691 0.074386723 0.38300002 4285145880
0.026258677 0.074386723 0.38300002 4284556570
0.02750266 0.074386723 0.38300002 4285082660
0.028746644 0.074386723 0.38300002 4284885283
0.029912326 0.074192502 0.38200003 4284622111
0.031153062 0.074192502 0.38200003 4283639841
0.032308999 0.07399828 0.38100001 4284564286
0.033458438 0.073804058 0.38000003 4286609262
0.034510083 0.073415615 0.37800002 4283252787
0.035737831 0.073415615 0.37800002 4284425243
0.036867782 0.073221393 0.377 4284882712
0.037991241 0.073027171 0.37600002 4285079060
0.039212488 0.073027171 0.37600002 4284881168
0.040433735 0.073027171 0.37600002 4284618509
0.041654985 0.073027171 0.37600002 4284027401
0.042876232 0.073027171 0.37600002 4283765771
0.044097483 0.073027171 0.37600002 4283108870
0.04531873 0.073027171 0.37600002 4282586121
0.046539977 0.073027171 0.37600002 4282455565
0.047761224 0.073027171 0.37600002 4282261783
0.048982475 0.073027171 0.37600002 4282262812
0.050203726 0.073027171 0.37600002 4278979844
0.011390029 0.076026075 0.38500002 4286682763
0.012607677 0.075828597 0.384 4286485384
0.013854909 0.075828597 0.384 4286747525
0.015102142 0.075828597 0.384 4283911749
0.016306799 0.075631134 0.38300002 4284819742
0.017550783 0.075631134 0.38300002 4286200108
0.018794768 0.075631134 0.38300002 4285540381
0.020038752 0.075631134 0.38300002 4285145623
0.021282736 0.075631134 0.38300002 4284750097
0.022526722 0.075631134 0.38300002 4284422161
0.023770707 0.075631134 0.38300002 4283831823
0.025014691 0.075631134 0.38300002 4286336070
0.026258677 0.075631134 0.38300002 4287272070
0.02750266 0.075631134 0.38300002 4287075461
0.028746644 0.075631134 0.38300002 4287338633
0.029912326 0.075433664 0.38200003 4287075463
0.031071508 0.075236186 0.38100001 4286747523
0.032308999 0.075236186 0.38100001 4285958009
0.033458438 0.075038724 0.38000003 4287272072
0.034510083 0.074643783 0.37800002 4281282856
0.035737831 0.074643783 0.37800002 4284630329
0.036867782 0.074446306 0.377 4283702806
0.037991241 0.074248835 0.37600002 4284423701
0.039212488 0.074248835 0.37600002 4284357908
0.040433735 0.074248835 0.37600002 4284029456
0.041654985 0.074248835 0.37600002 4283635468
0.042876232 0.074248835 0.37600002 4283044104
0.044097483 0.074248835 0.37600002 4282716424
0.04531873 0.074248835 0.37600002 4282324233
0.046539977 0.074248835 0.37600002 4282391057
0.047761224 0.074248835 0.37600002 4282196760
0.048982475 0.074248835 0.37600002 4281277716
0.050203726 0.074248835 0.37600002 4279111176
0.012607677 0.077076249 0.384 4286485384
0.013854909 0.077076249 0.384 4286419078
0.015062814 0.076875538 0.38300002 4285165413
0.016306799 0.076875538 0.38300002 4284953384
0.017550783 0.076875538 0.38300002 4284490777
0.018794768 0.076875538 0.38300002 4285015838
0.020038752 0.076875538 0.38300002 4284357908
0.021282736 0.076875538 0.38300002 4284160788
0.022526722 0.076875538 0.38300002 4283766802
0.023770707 0.076875538 0.38300002 4283110930
0.025014691 0.076875538 0.38300002 4282126350
0.026258677 0.076875538 0.38300002 4287138174
0.02750266 0.076875538 0.38300002 4287008898
0.028746644 0.076875538 0.38300002 4286550144
0.029912326 0.076674819 0.38200003 4286681730
0.031153062 0.076674819 0.38200003 4286747523
0.032308999 0.076474093 0.38100001 4286747523
0.033458438 0.076273374 0.38000003 4287138174
0.034510083 0.075871937 0.37800002 4281740580
0.035643287 0.075671218 0.377 4282129682
0.036867782 0.075671218 0.377 4283508253
0.037991241 0.0754705 0.37600002 4283768599
0.039212488 0.0754705 0.37600002 4283768599
0.040433735 0.0754705 0.37600002 4283439634
0.041654985 0.0754705 0.37600002 4283045389
0.042876232 0.0754705 0.37600002 4282520842
0.044097483 0.0754705 0.37600002 4282587151
0.04531873 0.0754705 0.37600002 4282457875
0.046539977 0.0754705 0.37600002 4282656026
0.047761224 0.0754705 0.37600002 4282724133
0.048982475 0.0754705 0.37600002 4279897862
0.050203726 0.0754705 0.37600002 4279243273
0.012607677 0.078323908 0.384 4286550662
0.013818828 0.078119941 0.38300002 4286484869
0.015062814 0.078119941 0.38300002 4287667859
0.016306799 0.078119941 0.38300002 4284497462
0.017550783 0.078119941 0.38300002 4284362017
0.018794768 0.078119941 0.38300002 4284491550
0.020038752 0.078119941 0.38300002 4283899413
0.021282736 0.078119941 0.38300002 4283637526
0.022526722 0.078119941 0.38300002 4283112213
0.023770707 0.078119941 0.38300002 4282718741
0.025014691 0.078119941 0.38300002 4283114012
0.026258677 0.078119941 0.38300002 4282260246
0.02750266 0.078119941 0.38300002 4281603601
0.028746644 0.078119941 0.38300002 4281669912
0.029912326 0.077915974 0.38200003 4281341208
0.031153062 0.077915974 0.38200003 4281670945
0.032308999 0.077712007 0.38100001 4281407255
0.033458438 0.07750804 0.38000003 4281932053
0.034601379 0.077304065 0.37900001 4282261018
0.035737831 0.077100098 0.37800002 4282456852
0.036867782 0.076896131 0.377 4282127115
0.037991241 0.076692164 0.37600002 4285220154
0.039212488 0.076692164 0.37600002 4282983192
0.040433735 0.076692164 0.37600002 4282850323
0.041654985 0.076692164 0.37600002 4282587151
0.042876232 0.076692164 0.37600002 4282719250
0.044097483 0.076692164 0.37600002 4283114008
0.04531873 0.076692164 0.37600002 4282590231
0.046539977 0.076692164 0.37600002 4282130965
0.047761224 0.076692164 0.37600002 4279832069
0.048982475 0.076692164 0.37600002 4279504903
0.050203726 0.076692164 0.37600002 4279046664
0.012574845 0.079364344 0.38300002 4286616455
0.013818828 0.079364344 0.38300002 4286813834
0.015062814 0.079364344 0.38300002 4286748041
0.016306799 0.079364344 0.38300002 4286348658
0.017550783 0.079364344 0.38300002 4283447088
0.018794768 0.079364344 0.38300002 4283771429
0.020038752 0.079364344 0.38300002 4283639841
0.021282736 0.079364344 0.38300002 4283508255
0.022526722 0.079364344 0.38300002 4283047706
0.023770707 0.079364344 0.38300002 4283048989
0.025014691 0.079364344 0.38300002 4283115809
0.026258677 0.079364344 0.38300002 4282721567
0.02750266 0.079364344 0.38300002 4283050534
0.028746644 0.079364344 0.38300002 4282656037
0.02999063 0.079364344 0.38300002 4282986287
0.031153062 0.079157129 0.38200003 4283449151
0.032308999 0.078949906 0.38100001 4284569169
0.033458438 0.078742698 0.38000003 4284108364
0.034601379 0.078535475 0.37900001 4283582274
0.035737831 0.078328259 0.37800002 4282726193
0.036867782 0.078121036 0.377 4282725678
0.037991241 0.077913821 0.37600002 4282133025
0.039212488 0.077913821 0.37600002 4282396195
0.040433735 0.077913821 0.37600002 4281539859
0.041654985 0.077913821 0.37600002 4281933334
0.042876232 0.077913821 0.37600002 4281800978
0.044097483 0.077913821 0.37600002 4281670162
0.04531873 0.077913821 0.37600002 4281014544
0.046539977 0.077913821 0.37600002 4280358413
0.047761224 0.077913821 0.37600002 4279900176
0.048982475 0.077913821 0.37600002 4279703824
0.050203726 0.077913821 0.37600002 4279244813
0.013818828 0.080608755 0.38300002 4286485384
0.015062814 0.080608755 0.38300002 4286551177
0.016306799 0.080608755 0.38300002 4286353796
0.017550783 0.080608755 0.38300002 4286418046
0.018794768 0.080608755 0.38300002 4283252022
0.020038752 0.080608755 0.38300002 4283052330
0.021282736 0.080608755 0.38300002 4282853155
0.022526722 0.080608755 0.38300002 4283116327
0.023770707 0.080608755 0.38300002 4283051817
0.025014691 0.080608755 0.38300002 4282328353
0.026258677 0.080608755 0.38300002 4282661172
0.02750266 0.080608755 0.38300002 4286610808
0.028746644 0.080608755 0.38300002 4287141002
0.02999063 0.080608755 0.38300002 4286812550
0.031234615 0.080608755 0.38300002 4286680966
0.032393802 0.080398291 0.38200003 4286615171
0.033546485 0.08018782 0.38100001 4287207308
0.037991241 0.079135485 0.37600002 4281151270
0.013818828 0.081853166 0.38300002 4286485384
0.015062814 0.081853166 0.38300002 4286682763
0.016306799 0.081853166 0.38300002 4286551177
0.017550783 0.081853166 0.38300002 4286485382
0.018794768 0.081853166 0.38300002 4286878857
0.020038752 0.081853166 0.38300002 4287536273
0.021282736 0.081853166 0.38300002 4286614140
0.022526722 0.081853166 0.38300002 4286153076
0.023770707 0.081853166 0.38300002 4286417279
0.025014691 0.081853166 0.38300002 4287141515
0.026258677 0.081853166 0.38300002 4286419078
0.02750266 0.081853166 0.38300002 4286353285
0.028746644 0.081853166 0.38300002 4286419078
0.02999063 0.081853166 0.38300002 4286419078
0.031234615 0.081853166 0.38300002 4286549894
0.032393802 0.081639446 0.38200003 4286549894
0.033634536 0.081639446 0.38200003 4286287492
0.013818828 0.08309757 0.38300002 4286550664
0.015062814 0.08309757 0.38300002 4286616457
0.016306799 0.08309757 0.38300002 4286682763
0.017550783 0.08309757 0.38300002 4286551177
0.018794768 0.08309757 0.38300002 4286551175
0.020038752 0.08309757 0.38300002 4286551175
0.021282736 0.08309757 0.38300002 4286682761
0.022526722 0.08309757 0.38300002 4286551175
0.023770707 0.08309757 0.38300002 4286551175
0.025014691 0.08309757 0.38300002 4286485382
0.026258677 0.08309757 0.38300002 4286353796
0.02750266 0.08309757 0.38300002 4286485382
0.028746644 0.08309757 0.38300002 4286682761
0.02999063 0.08309757 0.38300002 4286419589
0.031234615 0.08309757 0.38300002 4286616455
0.032478601 0.08309757 0.38300002 4286353283
0.025092348 0.055449624 0.38281322 4294967295
0.025092348 0.055449624 0.38281322 4294901760
0.025092348 0.055449624 0.38331321 4294901760
0.025092348 0.055449624 0.3838132 4294901760
0.025092348 0.055449624 0.38431323 4294901760
0.025092348 0.055449624 0.38481322 4294901760
0.025092348 0.055449624 0.38531321 4294901760
0.025092348 0.055449624 0.38581321 4294901760
0.025092348 0.055449624 0.38631323 4294901760
0.025092348 0.055449624 0.38681322 4294901760
0.025092348 0.055449624 0.38731322 4294901760
0.025092348 0.055449624 0.38781321 4294901760
0.025092348 0.055449624 0.3883132 4294901760
0.025092348 0.055449624 0.38881323 4294901760
0.025092348 0.055449624 0.38931322 4294901760
0.025092348 0.055449624 0.38981321 4294901760
0.025092348 0.055449624 0.39031321 4294901760
0.025092348 0.055449624 0.39081323 4294901760
0.025092348 0.055449624 0.39131323 4294901760
0.025092348 0.055449624 0.39181322 4294901760
0.025092348 0.055449624 0.39231321 4294901760
0.025092348 0.055449624 0.39281321 4294901760
0.025092348 0.055449624 0.39331323 4294901760
0.025092348 0.055449624 0.39381322 4294901760
0.025092348 0.055449624 0.39431322 4294901760
0.025092348 0.055449624 0.39481321 4294901760
0.025092348 0.055449624 0.3953132 4294901760
0.025092348 0.055449624 0.39581323 4294901760
0.025092348 0.055449624 0.39631322 4294901760
0.025092348 0.055449624 0.39681321 4294901760
0.025092348 0.055449624 0.39731321 4294901760
0.025092348 0.055449624 0.39781323 4294901760
0.025092348 0.055449624 0.39831322 4294901760
0.025092348 0.055449624 0.39881322 4294901760
0.025092348 0.055449624 0.39931321 4294901760
0.025092348 0.055449624 0.39981323 4294901760
0.025092348 0.055449624 0.40031323 4294901760
0.025092348 0.055449624 0.40081322 4294901760
0.025092348 0.055449624 0.40131322 4294901760
0.025092348 0.055449624 0.40181321 4294901760
0.025092348 0.055449624 0.40231323 4294901760
0.025092348 0.055449624 0.40281323 4294901760
0.025092348 0.055449624 0.40331322 4294901760
0.025092348 0.055449624 0.40381321 4294901760
0.025092348 0.055449624 0.40431321 4294901760
0.025092348 0.055449624 0.40481323 4294901760
0.025092348 0.055449624 0.40531322 4294901760
0.025092348 0.055449624 0.40581322 4294901760
0.025092348 0.055449624 0.40631321 4294901760
0.025092348 0.055449624 0.40681323 4294901760
0.025092348 0.055449624 0.40731323 4294901760
