# .PCD v0.7 - Point Cloud Data file format
VERSION 0.7
FIELDS x y z rgb
SIZE 4 4 4 4
TYPE F F F U
COUNT 1 1 1 1
WIDTH 796
HEIGHT 1
VIEWPOINT 0 0 0 1 0 0 0
POINTS 796
DATA ascii
-0.0058521037 0.03426405 0.46300003 4278665498
-0.0043388871 0.034190048 0.46200001 4278533910
-0.0028383103 0.034190048 0.46200001 4278665496
-0.0013377335 0.034190048 0.46200001 4278533910
0.00016284335 0.034190048 0.46200001 4278665496
0.0016634201 0.034190048 0.46200001 4278731289
0.0031639969 0.034190048 0.46200001 4278731802
0.0046645734 0.034190048 0.46200001 4278600216
0.0061651506 0.034190048 0.46200001 4278600218
0.0076657268 0.034190048 0.46200001 4278929183
0.009166304 0.034190048 0.46200001 4278731550
-0.0058394638 0.035691131 0.46200001 4278665496
-0.0043388871 0.035691131 0.46200001 4278665496
-0.0028383103 0.035691131 0.46200001 4278198272
-0.0013377335 0.035691131 0.46200001 4279187740
0.00016284335 0.035691131 0.46200001 4278794265
0.0016634201 0.035691131 0.46200001 4278796570
0.0031639969 0.035691131 0.46200001 4278665498
0.0046645734 0.035691131 0.46200001 4278533912
0.0061651506 0.035691131 0.46200001 4278665498
0.0076657268 0.035691131 0.46200001 4278665498
0.0091464641 0.03561388 0.46100003 4278665498
0.010643793 0.03561388 0.46100003 4278731291
-0.0058394638 0.037192214 0.46200001 4278993945
-0.0043388871 0.037192214 0.46200001 4278928152
-0.0028383103 0.037192214 0.46200001 4279321629
-0.0013377335 0.037192214 0.46200001 4279188510
0.00016284335 0.037192214 0.46200001 4279123998
0.0016634201 0.037192214 0.46200001 4278664984
0.0031639969 0.037192214 0.46200001 4279256351
0.0046544774 0.037111714 0.46100003 4279058970
0.0061518066 0.037111714 0.46100003 4278730005
0.0076491348 0.037111714 0.46100003 4278927384
0.0091464641 0.037111714 0.46100003 4278795798
0.010643793 0.037111714 0.46100003 4278599189
-0.0073400401 0.038693301 0.46200001 4278928152
-0.0058394638 0.038693301 0.46200001 4278928154
-0.0043388871 0.038693301 0.46200001 4278862363
-0.0028383103 0.038693301 0.46200001 4278197760
-0.0013377335 0.038693301 0.46200001 4278196480
0.00016284335 0.038693301 0.46200001 4279188762
0.0016634201 0.038693301 0.46200001 4278331404
0.0031571484 0.038609549 0.46100003 4278459658
0.0046544774 0.038609549 0.46100003 4278524683
0.0061518066 0.038609549 0.46100003 4278196486
0.0076491348 0.038609549 0.46100003 4278262790
0.0091464641 0.038609549 0.46100003 4278197254
0.010643793 0.038609549 0.46100003 4278198537
0.012114785 0.038525797 0.46000001 4278264841
0.013608865 0.038525797 0.46000001 4278660880
0.015070114 0.038442045 0.45900002 4279056152
0.016560946 0.038442045 0.45900002 4279124763
0.018051779 0.038442045 0.45900002 4278730005
0.019542612 0.038442045 0.45900002 4278928152
-0.0073400401 0.040194385 0.46200001 4278665496
-0.0058394638 0.040194385 0.46200001 4278731291
-0.0043388871 0.040194385 0.46200001 4278928156
-0.0028383103 0.040194385 0.46200001 4278200328
-0.0013377335 0.040194385 0.46200001 4280172836
0.00016284335 0.040194385 0.46200001 4279188762
0.0016634201 0.040194385 0.46200001 4278195201
0.0031571484 0.040107384 0.46100003 4278785804
0.0046544774 0.040107384 0.46100003 4278917390
0.0061518066 0.040107384 0.46100003 4278785804
0.0076491348 0.040107384 0.46100003 4278720779
0.0091464641 0.040107384 0.46100003 4278786572
0.010620704 0.040020384 0.46000001 4278654732
0.012114785 0.040020384 0.46000001 4278654732
0.013608865 0.040020384 0.46000001 4278654986
0.015070114 0.039933383 0.45900002 4278655756
0.016560946 0.039933383 0.45900002 4278196225
0.018051779 0.039933383 0.45900002 4278660367
0.019542612 0.039933383 0.45900002 4278196480
0.020987622 0.039846383 0.45800003 4278196480
0.022426134 0.039759383 0.45700002 4278198019
0.023858149 0.039672382 0.45600003 4278331404
0.025339238 0.039672382 0.45600003 4279187738
0.026761509 0.039585378 0.45500001 4278859027
0.028177287 0.039498381 0.45400003 4278728724
0.029651878 0.039498381 0.45400003 4278861080
0.031057913 0.039411377 0.45300001 4278795798
0.032457449 0.039324377 0.45200002 4278599187
0.033925544 0.039324377 0.45200002 4278467601
0.035315339 0.03923738 0.45100003 4278599189
0.036698632 0.039150376 0.45000002 4278336531
0.038075436 0.039063375 0.44900003 4278468630
0.039533786 0.039063375 0.44900003 4278402837
0.040900841 0.038976375 0.44800001 4278337044
0.042355947 0.038976375 0.44800001 4278600216
0.043811049 0.038976375 0.44800001 4278666009
0.045266159 0.038976375 0.44800001 4278205971
0.04682555 0.039063375 0.44900003 4278667292
0.048391439 0.039150376 0.45000002 4278864671
0.049853042 0.039150376 0.45000002 4278864671
0.051428676 0.03923738 0.45100003 4279127845
0.052893527 0.03923738 0.45100003 4279127845
0.056070771 0.039411377 0.45300001 4279189793
-0.0073400401 0.041695476 0.46200001 4278797084
-0.0058394638 0.041695476 0.46200001 4279059742
-0.0043388871 0.041695476 0.46200001 4279059740
-0.0028383103 0.041695476 0.46200001 4278198272
-0.0013377335 0.041695476 0.46200001 4279253017
0.00016284335 0.041695476 0.46200001 4279386654
0.0016598196 0.041605227 0.46100003 4278590474
0.0031571484 0.041605227 0.46100003 4280497960
0.0046544774 0.041605227 0.46100003 4278984721
0.0061518066 0.041605227 0.46100003 4279511065
0.0076491348 0.041605227 0.46100003 4279313686
0.0091266232 0.041514974 0.46000001 4279313686
0.010620704 0.041514974 0.46000001 4280169506
0.012114785 0.041514974 0.46000001 4278985232
0.013608865 0.041514974 0.46000001 4278984721
0.015070114 0.041424725 0.45900002 4278589963
0.016560946 0.041424725 0.45900002 4278196999
0.018051779 0.041424725 0.45900002 4279450398
0.019500036 0.041334476 0.45800003 4279121945
0.020987622 0.041334476 0.45800003 4279385117
0.022426134 0.041244224 0.45700002 4279516189
0.023910468 0.041244224 0.45700002 4279647775
0.025339238 0.041153975 0.45600003 4279253017
0.026761509 0.041063726 0.45500001 4279187226
0.028239351 0.041063726 0.45500001 4279055640
0.029651878 0.040973477 0.45400003 4278200331
0.031057913 0.040883224 0.45300001 4278196224
0.032529257 0.040883224 0.45300001 4278196224
0.033925544 0.040792976 0.45200002 4278197248
0.035315339 0.040702727 0.45100003 4278199303
0.036780186 0.040702727 0.45100003 4278661396
0.038160235 0.040612474 0.45000002 4278859543
0.039533786 0.040522225 0.44900003 4278597654
0.040992137 0.040522225 0.44900003 4278663701
0.042450495 0.040522225 0.44900003 4278993179
0.043908846 0.040522225 0.44900003 4278598419
0.0453672 0.040522225 0.44900003 4278599189
0.04692984 0.040612474 0.45000002 4278533910
0.048391439 0.040612474 0.45000002 4278863386
0.049963828 0.040702727 0.45100003 4278468628
0.051428676 0.040702727 0.45100003 4278535191
0.053010803 0.040792976 0.45200002 4278600984
0.054599427 0.040883224 0.45300001 4278666779
0.056070771 0.040883224 0.45300001 4278798365
0.057542115 0.040883224 0.45300001 4279322662
0.059143737 0.040973477 0.45400003 4282675287
-0.0088597536 0.04329006 0.46300003 4278533912
-0.0073400401 0.043196559 0.46200001 4278731289
-0.0058394638 0.043196559 0.46200001 4278731289
-0.0043388871 0.043196559 0.46200001 4278795800
-0.0028383103 0.043196559 0.46200001 4278199047
-0.0013377335 0.043196559 0.46200001 4279582496
0.00016284335 0.043196559 0.46200001 4279452193
0.0016598196 0.043103062 0.46100003 4278655756
0.0031571484 0.043103062 0.46100003 4280366374
0.0046544774 0.043103062 0.46100003 4279248404
0.0061518066 0.043103062 0.46100003 4278328072
0.0076325419 0.043009561 0.46000001 4278458888
0.0091266232 0.043009561 0.46000001 4279117590
0.010620704 0.043009561 0.46000001 4278327304
0.012114785 0.043009561 0.46000001 4278194948
0.013608865 0.043009561 0.46000001 4279446555
0.015070114 0.042916063 0.45900002 4278590476
0.016560946 0.042916063 0.45900002 4278922006
0.018051779 0.042916063 0.45900002 4279254301
0.019500036 0.042822566 0.45800003 4278727187
0.020987622 0.042822566 0.45800003 4278264841
0.022426134 0.042729065 0.45700002 4278197248
0.023910468 0.042729065 0.45700002 4279055638
0.025339238 0.042635567 0.45600003 4278199301
0.026820328 0.042635567 0.45600003 4278793750
0.028239351 0.042542066 0.45500001 4278926103
0.029651878 0.042448569 0.45400003 4279320861
0.031126473 0.042448569 0.45400003 4279451934
0.032529257 0.042355068 0.45300001 4278991383
0.033925544 0.042261571 0.45200002 4279057176
0.03539364 0.042261571 0.45200002 4278991383
0.036780186 0.04216807 0.45100003 4278924566
0.038245037 0.04216807 0.45100003 4279056154
0.039621834 0.042074572 0.45000002 4278266124
0.041083433 0.042074572 0.45000002 4278198533
0.042545035 0.042074572 0.45000002 4278198019
0.044006635 0.042074572 0.45000002 4278195456
0.045468237 0.042074572 0.45000002 4278196480
0.04703413 0.04216807 0.45100003 4278198275
0.048498977 0.04216807 0.45100003 4278795796
0.050074611 0.042261571 0.45200002 4278468115
0.051542707 0.042261571 0.45200002 4278533908
0.053010803 0.042261571 0.45200002 4278533908
0.054599427 0.042355068 0.45300001 4278402322
0.056070771 0.042355068 0.45300001 4278731289
0.057542115 0.042355068 0.45300001 4279125795
0.059143737 0.042448569 0.45400003 4278598939
0.06061833 0.042448569 0.45400003 4285699716
-0.010385961 0.044891141 0.46400002 4278533912
-0.0088597536 0.044794392 0.46300003 4278797084
-0.007355928 0.044794392 0.46300003 4278533912
-0.0058394638 0.044697642 0.46200001 4278731291
-0.0043388871 0.044697642 0.46200001 4279058718
-0.0028383103 0.044697642 0.46200001 4278198022
-0.0013377335 0.044697642 0.46200001 4279516191
0.00016284335 0.044697642 0.46200001 4279780645
0.0016598196 0.044600897 0.46100003 4278787853
0.0031571484 0.044600897 0.46100003 4278655756
0.0046544774 0.044600897 0.46100003 4278654732
0.0061518066 0.044600897 0.46100003 4278523916
0.0076325419 0.044504147 0.46000001 4278523916
0.0091266232 0.044504147 0.46000001 4278523916
0.010620704 0.044504147 0.46000001 4278720525
0.012114785 0.044504147 0.46000001 4279511065
0.013579281 0.044407401 0.45900002 4280039717
0.015070114 0.044407401 0.45900002 4278854418
0.016560946 0.044407401 0.45900002 4279251484
0.018051779 0.044407401 0.45900002 4279320609
0.019500036 0.044310652 0.45800003 4278198024
0.020987622 0.044310652 0.45800003 4278459656
0.022426134 0.044213902 0.45700002 4278590472
0.023910468 0.044213902 0.45700002 4278329351
0.025339238 0.044117156 0.45600003 4279187738
0.026820328 0.044117156 0.45600003 4278727189
0.028239351 0.044020407 0.45500001 4279187226
0.02971719 0.044020407 0.45500001 4279121433
0.031126473 0.043923661 0.45400003 4278199303
0.032529257 0.043826912 0.45300001 4278859545
0.034000598 0.043826912 0.45300001 4278991896
0.03539364 0.043730162 0.45200002 4278860310
0.036861736 0.043730162 0.45200002 4278663701
0.038245037 0.043633416 0.45100003 4278795287
0.039709885 0.043633416 0.45100003 4278861080
0.041174732 0.043633416 0.45100003 4278992666
0.042639583 0.043633416 0.45100003 4278991896
0.044104431 0.043633416 0.45100003 4278926103
0.045569282 0.043633416 0.45100003 4278991896
0.04703413 0.043633416 0.45100003 4279385117
0.048606511 0.043730162 0.45200002 4278202126
0.050074611 0.043730162 0.45200002 4278468117
0.051542707 0.043730162 0.45200002 4278204945
0.053128082 0.043826912 0.45300001 4278468117
0.054599427 0.043826912 0.45300001 4278665496
0.056070771 0.043826912 0.45300001 4278533910
0.05766914 0.043923661 0.45400003 4278731291
0.059143737 0.043923661 0.45400003 4278993949
-0.011969929 0.046698716 0.46700001 4278797084
-0.010408346 0.046498723 0.46500003 4278731291
-0.0088788886 0.046398722 0.46400002 4278665498
-0.007355928 0.046298727 0.46300003 4278731291
-0.0058521037 0.046298727 0.46300003 4278665498
-0.0043388871 0.046198729 0.46200001 4278267919
-0.0028383103 0.046198729 0.46200001 4278199817
-0.0013377335 0.046198729 0.46200001 4279713568
0.00016249088 0.046098731 0.46100003 4279254555
0.0016598196 0.046098731 0.46100003 4278922256
0.0031571484 0.046098731 0.46100003 4278196484
0.0046544774 0.046098731 0.46100003 4278524683
0.0061384616 0.045998733 0.46000001 4278589709
0.0076325419 0.045998733 0.46000001 4278720525
0.0091266232 0.045998733 0.46000001 4278720525
0.010620704 0.045998733 0.46000001 4278851597
0.012114785 0.045998733 0.46000001 4278785804
0.013579281 0.045898739 0.45900002 4278786318
0.015070114 0.045898739 0.45900002 4278786572
0.016560946 0.045898739 0.45900002 4279843873
0.018051779 0.045898739 0.45900002 4279189021
0.019500036 0.045798741 0.45800003 4278458888
0.020987622 0.045798741 0.45800003 4278720779
0.022426134 0.045698743 0.45700002 4278327302
0.023910468 0.045698743 0.45700002 4278921488
0.025339238 0.045598745 0.45600003 4279384092
0.026820328 0.045598745 0.45600003 4278198787
0.028239351 0.045498747 0.45500001 4278660369
0.02971719 0.045498747 0.45500001 4279055640
0.031126473 0.045398753 0.45400003 4278727189
0.032601066 0.045398753 0.45400003 4279450398
0.034000598 0.045298751 0.45300001 4278660369
0.035471946 0.045298751 0.45300001 4278199561
0.036861736 0.045198757 0.45200002 4278199303
0.038329836 0.045198757 0.45200002 4278198275
0.039797932 0.045198757 0.45200002 4278198018
0.041266028 0.045198757 0.45200002 4278727957
0.042734127 0.045198757 0.45200002 4278200842
0.044202223 0.045198757 0.45200002 4278860310
0.045670319 0.045198757 0.45200002 4278663701
0.047138415 0.045198757 0.45200002 4278992666
0.048606511 0.045198757 0.45200002 4278464785
0.050185394 0.045298751 0.45300001 4278664212
0.051656738 0.045298751 0.45300001 4278862359
0.053128082 0.045298751 0.45300001 4278664980
0.054599427 0.045298751 0.45300001 4278599189
0.056070771 0.045298751 0.45300001 4278599191
0.057542115 0.045298751 0.45300001 4278795800
0.05901346 0.045298751 0.45300001 4278795800
0.060484808 0.045298751 0.45300001 4281884749
-0.011969929 0.048216045 0.46700001 4278862109
-0.010408346 0.048009556 0.46500003 4278664984
-0.0088788886 0.047906306 0.46400002 4278796570
-0.007355928 0.047803063 0.46300003 4278928156
-0.0058521037 0.047803063 0.46300003 4278664984
-0.0043388871 0.047699813 0.46200001 4278861080
-0.0028383103 0.047699813 0.46200001 4278860056
-0.0013377335 0.047699813 0.46200001 4279188508
0.00016249088 0.047596566 0.46100003 4279189275
0.0016598196 0.047596566 0.46100003 4278992664
0.0031571484 0.047596566 0.46100003 4279255066
0.0046443804 0.04749332 0.46000001 4278991383
0.0061384616 0.04749332 0.46000001 4278991129
0.0076325419 0.04749332 0.46000001 4279582498
0.0091266232 0.04749332 0.46000001 4279186972
0.010620704 0.04749332 0.46000001 4279514141
0.012088448 0.047390074 0.45900002 4278987029
0.013579281 0.047390074 0.45900002 4278656269
0.015070114 0.047390074 0.45900002 4278393097
0.016560946 0.047390074 0.45900002 4279712033
0.018051779 0.047390074 0.45900002 4278198536
0.019500036 0.047286831 0.45800003 4279447578
0.020987622 0.047286831 0.45800003 4279775518
0.022426134 0.047183581 0.45700002 4280039969
0.023910468 0.047183581 0.45700002 4279383322
0.025339238 0.047080338 0.45600003 4279581982
0.026820328 0.047080338 0.45600003 4279253017
0.028239351 0.046977088 0.45500001 4279121685
0.02971719 0.046977088 0.45500001 4278266122
0.031126473 0.046873845 0.45400003 4278529808
0.032601066 0.046873845 0.45400003 4279385119
0.034000598 0.046770595 0.45300001 4278331917
0.035471946 0.046770595 0.45300001 4278265611
0.03694329 0.046770595 0.45300001 4279186459
0.038329836 0.046667352 0.45200002 4278199820
0.039797932 0.046667352 0.45200002 4279187226
0.041266028 0.046667352 0.45200002 4278792468
0.042734127 0.046667352 0.45200002 4279647264
0.044202223 0.046667352 0.45200002 4278200074
0.045670319 0.046667352 0.45200002 4278861080
0.047242705 0.046770595 0.45300001 4278727957
0.048714045 0.046770595 0.45300001 4278596371
0.050185394 0.046770595 0.45300001 4278795798
0.051656738 0.046770595 0.45300001 4278796568
0.053128082 0.046770595 0.45300001 4278664982
0.054599427 0.046770595 0.45300001 4278796568
0.056070771 0.046770595 0.45300001 4278599189
0.057542115 0.046770595 0.45300001 4278598421
0.05901346 0.046770595 0.45300001 4279124765
0.060484808 0.046770595 0.45300001 4280108592
-0.011969929 0.049733374 0.46700001 4279583781
-0.010408346 0.049520388 0.46500003 4279518758
-0.0088788886 0.04941389 0.46400002 4279058720
-0.007355928 0.049307395 0.46300003 4278795548
-0.0058521037 0.049307395 0.46300003 4279190304
-0.0043388871 0.0492009 0.46200001 4278927132
-0.0028383103 0.0492009 0.46200001 4278992925
-0.0013377335 0.0492009 0.46200001 4278992925
0.00016249088 0.049094405 0.46100003 4278927132
0.0016598196 0.049094405 0.46100003 4278729753
0.0031571484 0.049094405 0.46100003 4278795800
0.0046443804 0.048987906 0.46000001 4278992664
0.0061384616 0.048987906 0.46000001 4278992664
0.0076325419 0.048987906 0.46000001 4278795800
0.0091266232 0.048987906 0.46000001 4278795800
0.010597616 0.048881412 0.45900002 4279058459
0.012088448 0.048881412 0.45900002 4278992666
0.013579281 0.048881412 0.45900002 4278991896
0.015070114 0.048881412 0.45900002 4279123228
0.016560946 0.048881412 0.45900002 4279385887
0.018051779 0.048881412 0.45900002 4279188508
0.019500036 0.04877492 0.45800003 4279187226
0.020987622 0.04877492 0.45800003 4279186713
0.022426134 0.048668422 0.45700002 4279054357
0.023910468 0.048668422 0.45700002 4278198020
0.025339238 0.048561927 0.45600003 4278196736
0.026820328 0.048561927 0.45600003 4278195968
0.028239351 0.048455428 0.45500001 4278195968
0.02971719 0.048455428 0.45500001 4278330634
0.031126473 0.048348937 0.45400003 4278660367
0.032601066 0.048348937 0.45400003 4279516189
0.034075655 0.048348937 0.45400003 4278925336
0.035471946 0.048242439 0.45300001 4278925336
0.03694329 0.048242439 0.45300001 4278991129
0.038414635 0.048242439 0.45300001 4279254301
0.039885979 0.048242439 0.45300001 4279320094
0.041357324 0.048242439 0.45300001 4278859543
0.042828668 0.048242439 0.45300001 4278200074
0.044300012 0.048242439 0.45300001 4278726673
0.04577136 0.048242439 0.45300001 4278991896
0.047242705 0.048242439 0.45300001 4278201099
0.048714045 0.048242439 0.45300001 4279517727
0.050185394 0.048242439 0.45300001 4278927384
0.051656738 0.048242439 0.45300001 4278664982
0.053128082 0.048242439 0.45300001 4278664982
0.054599427 0.048242439 0.45300001 4278664982
0.056070771 0.048242439 0.45300001 4278664982
0.057542115 0.048242439 0.45300001 4278796570
0.05901346 0.048242439 0.45300001 4279387937
0.060484808 0.048242439 0.45300001 4279647525
-0.010408346 0.051031221 0.46500003 4280963387
-0.0088788886 0.050921474 0.46400002 4279778346
-0.007355928 0.05081173 0.46300003 4279186974
-0.0058521037 0.05081173 0.46300003 4279121695
-0.0043388871 0.050701983 0.46200001 4279648809
-0.0028383103 0.050701983 0.46200001 4279648809
-0.001334838 0.05059224 0.46100003 4279451428
0.00016249088 0.05059224 0.46100003 4279451428
0.0016598196 0.05059224 0.46100003 4279583781
0.0031502999 0.050482493 0.46000001 4279321379
0.0046443804 0.050482493 0.46000001 4279058205
0.0061384616 0.050482493 0.46000001 4278992412
0.0076325419 0.050482493 0.46000001 4278992412
0.0091266232 0.050482493 0.46000001 4278992925
0.010597616 0.05037275 0.45900002 4278795546
0.012088448 0.05037275 0.45900002 4278927132
0.013579281 0.05037275 0.45900002 4278795800
0.015070114 0.05037275 0.45900002 4278730007
0.016560946 0.05037275 0.45900002 4278664214
0.018051779 0.05037275 0.45900002 4278992666
0.019500036 0.050263006 0.45800003 4278992666
0.020987622 0.050263006 0.45800003 4278861080
0.022426134 0.050153259 0.45700002 4278861080
0.023910468 0.050153259 0.45700002 4278991896
0.025339238 0.050043516 0.45600003 4278860310
0.026820328 0.050043516 0.45600003 4278925590
0.028239351 0.049933773 0.45500001 4279056922
0.02971719 0.049933773 0.45500001 4279450910
0.031126473 0.049824029 0.45400003 4278924566
0.032601066 0.049824029 0.45400003 4279450396
0.034075655 0.049824029 0.45400003 4278529296
0.035471946 0.049714282 0.45300001 4278198535
0.03694329 0.049714282 0.45300001 4278197764
0.038414635 0.049714282 0.45300001 4278195200
0.039885979 0.049714282 0.45300001 4278197765
0.041357324 0.049714282 0.45300001 4278396943
0.042828668 0.049714282 0.45300001 4278792468
0.044300012 0.049714282 0.45300001 4279318812
0.04577136 0.049714282 0.45300001 4279056152
0.047242705 0.049714282 0.45300001 4278199046
0.048714045 0.049714282 0.45300001 4279188508
0.050185394 0.049714282 0.45300001 4278730007
0.051656738 0.049714282 0.45300001 4278730007
0.053128082 0.049714282 0.45300001 4278664984
0.054599427 0.049714282 0.45300001 4278796568
0.056070771 0.049714282 0.45300001 4278796568
0.057542115 0.049714282 0.45300001 4278796570
0.05901346 0.049714282 0.45300001 4279124765
0.060484808 0.049714282 0.45300001 4283725408
-0.007355928 0.052316062 0.46300003 4284776813
-0.0058521037 0.052316062 0.46300003 4284382055
-0.0043388871 0.052203067 0.46200001 4284776813
-0.0028383103 0.052203067 0.46200001 4284711790
-0.001334838 0.052090075 0.46100003 4283593309
0.00016249088 0.052090075 0.46100003 4281882691
0.0016598196 0.052090075 0.46100003 4280172586
0.0031502999 0.051977079 0.46000001 4279054875
0.0046443804 0.051977079 0.46000001 4279056672
0.0061384616 0.051977079 0.46000001 4279451430
0.0076325419 0.051977079 0.46000001 4279386150
0.0091067832 0.051864088 0.45900002 4279451943
0.010597616 0.051864088 0.45900002 4279321125
0.012088448 0.051864088 0.45900002 4279255332
0.013579281 0.051864088 0.45900002 4279452711
0.015070114 0.051864088 0.45900002 4278992927
0.016560946 0.051864088 0.45900002 4278927132
0.018051779 0.051864088 0.45900002 4278993179
0.019500036 0.051751096 0.45800003 4278927386
0.020987622 0.051751096 0.45800003 4278663960
0.022426134 0.0516381 0.45700002 4278729753
0.023910468 0.0516381 0.45700002 4278663960
0.025339238 0.051525109 0.45600003 4278664214
0.026820328 0.051525109 0.45600003 4278664214
0.028239351 0.051412113 0.45500001 4278927386
0.02971719 0.051412113 0.45500001 4278730007
0.031126473 0.051299121 0.45400003 4278730007
0.032601066 0.051299121 0.45400003 4278861080
0.034075655 0.051299121 0.45400003 4278729494
0.035471946 0.051186126 0.45300001 4278795287
0.03694329 0.051186126 0.45300001 4278729240
0.038414635 0.051186126 0.45300001 4279255586
0.039885979 0.051186126 0.45300001 4278663449
0.041357324 0.051186126 0.45300001 4279320609
0.042828668 0.051186126 0.45300001 4279319326
0.044300012 0.051186126 0.45300001 4278858775
0.04577136 0.051186126 0.45300001 4278595089
0.047242705 0.051186126 0.45300001 4279187226
0.048714045 0.051186126 0.45300001 4279123228
0.050185394 0.051186126 0.45300001 4278729753
0.051656738 0.051186126 0.45300001 4278927386
0.053128082 0.051186126 0.45300001 4278795800
0.054599427 0.051186126 0.45300001 4279058972
0.056070771 0.051186126 0.45300001 4278927386
0.057542115 0.051186126 0.45300001 4278861080
0.05901346 0.051186126 0.45300001 4278925338
0.060484808 0.051186126 0.45300001 4285041016
-0.001334838 0.05358791 0.46100003 4284447334
0.00016249088 0.05358791 0.46100003 4284381541
0.0016598196 0.05358791 0.46100003 4284249955
0.0031502999 0.053471666 0.46000001 4284381543
0.0046443804 0.053471666 0.46000001 4284644713
0.0061384616 0.053471666 0.46000001 4284907885
0.0076325419 0.053471666 0.46000001 4285171571
0.0091067832 0.053355426 0.45900002 4284580206
0.010597616 0.053355426 0.45900002 4283001174
0.012088448 0.053355426 0.45900002 4281093690
0.013579281 0.053355426 0.45900002 4279253799
0.015070114 0.053355426 0.45900002 4278924834
0.016560946 0.053355426 0.45900002 4279187488
0.018051779 0.053355426 0.45900002 4279845416
0.019500036 0.053239185 0.45800003 4279583527
0.020987622 0.053239185 0.45800003 4279649320
0.022426134 0.053122938 0.45700002 4279583527
0.023910468 0.053122938 0.45700002 4279452965
0.025339238 0.053006697 0.45600003 4279518756
0.026820328 0.053006697 0.45600003 4279452447
0.028239351 0.052890453 0.45500001 4279386654
0.02971719 0.052890453 0.45500001 4279189275
0.031126473 0.052774213 0.45400003 4278861080
0.032601066 0.052774213 0.45400003 4278795287
0.034000598 0.052657969 0.45300001 4278729494
0.035471946 0.052657969 0.45300001 4278927386
0.03694329 0.052657969 0.45300001 4278663960
0.038414635 0.052657969 0.45300001 4278729753
0.039885979 0.052657969 0.45300001 4278992927
0.041357324 0.052657969 0.45300001 4278663962
0.042828668 0.052657969 0.45300001 4278992412
0.044300012 0.052657969 0.45300001 4278992412
0.04577136 0.052657969 0.45300001 4279058205
0.047242705 0.052657969 0.45300001 4279123998
0.048714045 0.052657969 0.45300001 4278992666
0.050185394 0.052657969 0.45300001 4278992666
0.051656738 0.052657969 0.45300001 4278927386
0.053128082 0.052657969 0.45300001 4278927386
0.054599427 0.052657969 0.45300001 4278927386
0.056070771 0.052657969 0.45300001 4279058972
0.057542115 0.052657969 0.45300001 4279320607
0.05901346 0.052657969 0.45300001 4281160766
0.0016598196 0.055085748 0.46100003 4284447334
0.0031502999 0.054966252 0.46000001 4284381541
0.0046443804 0.054966252 0.46000001 4284381541
0.0061384616 0.054966252 0.46000001 4284644713
0.0076325419 0.054966252 0.46000001 4284776301
0.0091067832 0.054846764 0.45900002 4285105264
0.010597616 0.054846764 0.45900002 4285302643
0.012088448 0.054846764 0.45900002 4285631610
0.013579281 0.054846764 0.45900002 4285105526
0.015070114 0.054846764 0.45900002 4285040503
0.016560946 0.054846764 0.45900002 4285369981
0.018051779 0.054846764 0.45900002 4285698946
0.019500036 0.054727271 0.45800003 4285106296
0.020987622 0.054727271 0.45800003 4284382573
0.022426134 0.054607779 0.45700002 4282081868
0.023910468 0.054607779 0.45700002 4280503096
0.025339238 0.05448829 0.45600003 4279384615
0.026820328 0.05448829 0.45600003 4278924316
0.028239351 0.054368794 0.45500001 4279055386
0.02971719 0.054368794 0.45500001 4279121433
0.031126473 0.054249305 0.45400003 4279187486
0.032601066 0.054249305 0.45400003 4278925084
0.034000598 0.054129809 0.45300001 4279385635
0.035471946 0.054129809 0.45300001 4279319842
0.03694329 0.054129809 0.45300001 4279517475
0.038414635 0.054129809 0.45300001 4279319842
0.039885979 0.054129809 0.45300001 4279386148
0.041357324 0.054129809 0.45300001 4279451941
0.042828668 0.054129809 0.45300001 4279517475
0.044300012 0.054129809 0.45300001 4279451682
0.04577136 0.054129809 0.45300001 4279452195
0.047242705 0.054129809 0.45300001 4279452965
0.048714045 0.054129809 0.45300001 4279452965
0.050185394 0.054129809 0.45300001 4279321379
0.051656738 0.054129809 0.45300001 4279321377
0.053128082 0.054129809 0.45300001 4279255584
0.054599427 0.054129809 0.45300001 4279256097
0.056194548 0.054249305 0.45400003 4279189791
0.05766914 0.054249305 0.45400003 4280173619
0.059143737 0.054249305 0.45400003 4285567362
0.019500036 0.056215361 0.45800003 4285368184
0.020987622 0.056215361 0.45800003 4285170805
0.022475207 0.056215361 0.45800003 4285105526
0.02396279 0.056215361 0.45800003 4284382573
0.025450375 0.056215361 0.45800003 4283790436
0.026820328 0.055969879 0.45600003 4283855459
0.028239351 0.055847134 0.45500001 4283658850
0.02971719 0.055847134 0.45500001 4283658850
0.031126473 0.055724397 0.45400003 4283593311
0.032601066 0.055724397 0.45400003 4281685314
0.034000598 0.055601653 0.45300001 4282671439
0.035471946 0.055601653 0.45300001 4284251241
0.03694329 0.055601653 0.45300001 4284843376
0.038414635 0.055601653 0.45300001 4284843376
0.039885979 0.055601653 0.45300001 4284383340
0.041357324 0.055601653 0.45300001 4284317293
0.042828668 0.055601653 0.45300001 4283528801
0.044300012 0.055601653 0.45300001 4282476111
0.04577136 0.055601653 0.45300001 4281884235
0.047242705 0.055601653 0.45300001 4281160512
0.048714045 0.055601653 0.45300001 4280634168
0.050185394 0.055601653 0.45300001 4279976238
0.051656738 0.055601653 0.45300001 4280042031
0.053128082 0.055601653 0.45300001 4279779113
0.054719958 0.055724397 0.45400003 4281357632
0.056194548 0.055724397 0.45400003 4284646260
0.024272181 0.046476569 0.45678478 4294967295
0.024272181 0.046476569 0.45678478 4294901760
0.024272181 0.046476569 0.45728478 4294901760
0.024272181 0.046476569 0.45778477 4294901760
0.024272181 0.046476569 0.4582848 4294901760
0.024272181 0.046476569 0.45878479 4294901760
0.024272181 0.046476569 0.45928478 4294901760
0.024272181 0.046476569 0.45978478 4294901760
0.024272181 0.046476569 0.4602848 4294901760
0.024272181 0.046476569 0.46078479 4294901760
0.024272181 0.046476569 0.46128479 4294901760
0.024272181 0.046476569 0.46178478 4294901760
0.024272181 0.046476569 0.46228477 4294901760
0.024272181 0.046476569 0.4627848 4294901760
0.024272181 0.046476569 0.46328479 4294901760
0.024272181 0.046476569 0.46378478 4294901760
0.024272181 0.046476569 0.46428478 4294901760
0.024272181 0.046476569 0.4647848 4294901760
0.024272181 0.046476569 0.46528479 4294901760
0.024272181 0.046476569 0.46578479 4294901760
0.024272181 0.046476569 0.46628478 4294901760
0.024272181 0.046476569 0.46678478 4294901760
0.024272181 0.046476569 0.4672848 4294901760
0.024272181 0.046476569 0.46778479 4294901760
0.024272181 0.046476569 0.46828479 4294901760
0.024272181 0.046476569 0.46878478 4294901760
0.024272181 0.046476569 0.46928477 4294901760
0.024272181 0.046476569 0.4697848 4294901760
0.024272181 0.046476569 0.47028479 4294901760
0.024272181 0.046476569 0.47078478 4294901760
0.024272181 0.046476569 0.47128478 4294901760
0.024272181 0.046476569 0.4717848 4294901760
0.024272181 0.046476569 0.47228479 4294901760
0.024272181 0.046476569 0.47278479 4294901760
0.024272181 0.046476569 0.47328478 4294901760
0.024272181 0.046476569 0.4737848 4294901760
0.024272181 0.046476569 0.4742848 4294901760
0.024272181 0.046476569 0.47478479 4294901760
0.024272181 0.046476569 0.47528479 4294901760
0.024272181 0.046476569 0.47578478 4294901760
0.024272181 0.046476569 0.4762848 4294901760
0.024272181 0.046476569 0.4767848 4294901760
0.024272181 0.046476569 0.47728479 4294901760
0.024272181 0.046476569 0.47778478 4294901760
0.024272181 0.046476569 0.47828478 4294901760
0.024272181 0.046476569 0.4787848 4294901760
0.024272181 0.046476569 0.47928479 4294901760
0.024272181 0.046476569 0.47978479 4294901760
0.024272181 0.046476569 0.48028478 4294901760
0.024272181 0.046476569 0.4807848 4294901760
0.024272181 0.046476569 0.4812848 4294901760
0.024272181 0.046476569 0.48178479 4294901760
0.024272181 0.046476569 0.48228478 4294901760
0.024272181 0.046476569 0.48278478 4294901760
0.024272181 0.046476569 0.4832848 4294901760
0.024272181 0.046476569 0.48378479 4294901760
0.024272181 0.046476569 0.48428479 4294901760
0.024272181 0.046476569 0.48478478 4294901760
0.024272181 0.046476569 0.48528481 4294901760
0.024272181 0.046476569 0.4857848 4294901760
0.024272181 0.046476569 0.48628479 4294901760
0.024272181 0.046476569 0.48678479 4294901760
0.024272181 0.046476569 0.48728478 4294901760
0.024272181 0.046476569 0.4877848 4294901760
0.024272181 0.046476569 0.4882848 4294901760
0.024272181 0.046476569 0.48878479 4294901760
0.024272181 0.046476569 0.48928478 4294901760
0.024272181 0.046476569 0.48978481 4294901760
0.024272181 0.046476569 0.4902848 4294901760
0.024272181 0.046476569 0.49078479 4294901760
0.024272181 0.046476569 0.49128479 4294901760
0.024272181 0.046476569 0.49178478 4294901760
0.024272181 0.046476569 0.4922848 4294901760
0.024272181 0.046476569 0.4927848 4294901760
0.024272181 0.046476569 0.49328479 4294901760
0.024272181 0.046476569 0.49378479 4294901760
0.024272181 0.046476569 0.49428481 4294901760
0.024272181 0.046476569 0.4947848 4294901760
0.024272181 0.046476569 0.4952848 4294901760
0.024272181 0.046476569 0.49578479 4294901760
0.024272181 0.046476569 0.49628478 4294901760
0.024272181 0.046476569 0.49678481 4294901760
0.024272181 0.046476569 0.4972848 4294901760
0.024272181 0.046476569 0.49778479 4294901760
0.024272181 0.046476569 0.49828479 4294901760
0.024272181 0.046476569 0.49878478 4294901760
0.024272181 0.046476569 0.4992848 4294901760
0.024272181 0.046476569 0.4997848 4294901760
0.024272181 0.046476569 0.50028479 4294901760
0.024272181 0.046476569 0.50078481 4294901760
0.024272181 0.046476569 0.50128478 4294901760
0.024272181 0.046476569 0.5017848 4294901760
0.024272181 0.046476569 0.50228482 4294901760
0.024272181 0.046476569 0.50278479 4294901760
0.024272181 0.046476569 0.50328481 4294901760
0.024272181 0.046476569 0.50378478 4294901760
0.024272181 0.046476569 0.5042848 4294901760
0.024272181 0.046476569 0.50478482 4294901760
0.024272181 0.046476569 0.50528479 4294901760
0.024272181 0.046476569 0.50578481 4294901760
0.024272181 0.046476569 0.50628477 4294901760
0.024272181 0.046476569 0.5067848 4294901760
0.024272181 0.046476569 0.45678478 4278255360
0.024377137 0.046508234 0.45727262 4278255360
0.024482092 0.046539903 0.45776045 4278255360
0.024587048 0.046571568 0.45824829 4278255360
0.024692005 0.046603236 0.45873612 4278255360
0.024796961 0.046634901 0.45922396 4278255360
0.024901915 0.04666657 0.45971179 4278255360
0.025006872 0.046698235 0.46019962 4278255360
0.025111828 0.046729904 0.46068746 4278255360
0.025216784 0.046761569 0.46117529 4278255360
0.025321739 0.046793237 0.46166313 4278255360
0.025426695 0.046824902 0.46215096 4278255360
0.025531651 0.046856571 0.4626388 4278255360
0.025636606 0.046888236 0.46312663 4278255360
0.025741562 0.046919905 0.46361446 4278255360
0.025846519 0.04695157 0.4641023 4278255360
0.025951475 0.046983238 0.46459013 4278255360
0.026056429 0.047014903 0.46507797 4278255360
0.026161386 0.047046572 0.4655658 4278255360
0.026266342 0.047078237 0.46605363 4278255360
0.026371296 0.047109906 0.46654147 4278255360
0.026476253 0.047141571 0.4670293 4278255360
0.026581209 0.047173239 0.46751714 4278255360
0.026686165 0.047204904 0.46800497 4278255360
0.02679112 0.047236573 0.46849281 4278255360
0.026896076 0.047268238 0.46898061 4278255360
0.027001033 0.047299907 0.46946844 4278255360
0.027105987 0.047331572 0.46995628 4278255360
0.027210943 0.04736324 0.47044411 4278255360
0.0273159 0.047394905 0.47093195 4278255360
0.027420856 0.047426574 0.47141978 4278255360
0.027525811 0.047458239 0.47190762 4278255360
0.027630767 0.047489908 0.47239545 4278255360
0.027735723 0.047521573 0.47288328 4278255360
0.027840678 0.047553241 0.47337112 4278255360
0.027945634 0.047584906 0.47385895 4278255360
0.02805059 0.047616575 0.47434679 4278255360
0.028155547 0.04764824 0.47483462 4278255360
0.028260501 0.047679909 0.47532246 4278255360
0.028365457 0.047711574 0.47581029 4278255360
0.028470414 0.047743242 0.47629812 4278255360
0.028575368 0.047774907 0.47678596 4278255360
0.028680325 0.047806576 0.47727379 4278255360
0.028785281 0.047838241 0.47776163 4278255360
0.028890237 0.04786991 0.47824946 4278255360
0.028995192 0.047901575 0.47873729 4278255360
0.029100148 0.047933243 0.47922513 4278255360
0.029205104 0.047964908 0.47971296 4278255360
0.029310059 0.047996573 0.4802008 4278255360
0.029415015 0.048028242 0.48068863 4278255360
0.029519971 0.048059911 0.48117647 4278255360
0.029624928 0.048091576 0.4816643 4278255360
0.029729882 0.04812324 0.48215213 4278255360
0.029834839 0.048154909 0.48263997 4278255360
0.029939795 0.048186574 0.4831278 4278255360
0.030044751 0.048218243 0.48361564 4278255360
0.030149706 0.048249908 0.48410347 4278255360
0.030254662 0.048281576 0.48459131 4278255360
0.030359618 0.048313241 0.48507914 4278255360
0.030464573 0.04834491 0.48556697 4278255360
0.030569529 0.048376575 0.48605481 4278255360
0.030674485 0.048408244 0.48654264 4278255360
0.030779442 0.048439909 0.48703048 4278255360
0.030884396 0.048471577 0.48751831 4278255360
0.030989353 0.048503242 0.48800614 4278255360
0.031094309 0.048534911 0.48849398 4278255360
0.031199265 0.048566576 0.48898181 4278255360
0.031304222 0.048598245 0.48946965 4278255360
0.031409174 0.04862991 0.48995748 4278255360
0.031514131 0.048661578 0.49044532 4278255360
0.031619087 0.048693243 0.49093315 4278255360
0.031724043 0.048724912 0.49142098 4278255360
0.031829 0.048756577 0.49190882 4278255360
0.031933956 0.048788246 0.49239665 4278255360
0.032038912 0.048819911 0.49288446 4278255360
0.032143869 0.048851579 0.49337232 4278255360
0.032248821 0.048883244 0.49386013 4278255360
0.032353777 0.048914913 0.49434796 4278255360
0.032458734 0.048946578 0.49483579 4278255360
0.03256369 0.048978247 0.49532366 4278255360
0.032668646 0.049009912 0.49581146 4278255360
0.032773603 0.04904158 0.4962993 4278255360
0.032878555 0.049073245 0.49678713 4278255360
0.032983512 0.049104914 0.49727497 4278255360
0.033088468 0.049136579 0.4977628 4278255360
0.033193424 0.049168248 0.49825063 4278255360
0.033298381 0.049199913 0.49873847 4278255360
0.033403337 0.049231581 0.4992263 4278255360
0.033508293 0.049263246 0.49971414 4278255360
0.03361325 0.049294915 0.500202 4278255360
0.033718202 0.04932658 0.5006898 4278255360
0.033823159 0.049358249 0.50117767 4278255360
0.033928115 0.049389914 0.50166547 4278255360
0.034033071 0.049421582 0.50215334 4278255360
0.034138028 0.049453247 0.50264114 4278255360
0.034242984 0.049484916 0.50312901 4278255360
0.034347937 0.049516581 0.50361681 4278255360
0.034452893 0.04954825 0.50410467 4278255360
0.034557849 0.049579915 0.50459248 4278255360
0.034662805 0.049611583 0.50508034 4278255360
0.034767762 0.049643248 0.50556815 4278255360
