# .PCD v0.7 - Point Cloud Data file format
VERSION 0.7
FIELDS x y z rgb
SIZE 4 4 4 4
TYPE F F F U
COUNT 1 1 1 1
WIDTH 681
HEIGHT 1
VIEWPOINT 0 0 0 1 0 0 0
POINTS 681
DATA ascii
0.082100414 -0.03706269 0.43500003 4279130923
0.083705276 -0.037147891 0.43600002 4278999337
0.085316636 -0.037233088 0.43700001 4278999337
0.086934499 -0.037318293 0.43800002 4279130410
0.064397037 -0.035239566 0.43000001 4282017618
0.065640673 -0.035157613 0.42900002 4280704063
0.067034066 -0.035157613 0.42900002 4280639297
0.068427451 -0.035157613 0.42900002 4279589176
0.056277737 -0.033999857 0.43200001 4286093191
0.057680875 -0.033999857 0.43200001 4286356876
0.058947243 -0.033921152 0.43100002 4285897349
0.060347132 -0.033921152 0.43100002 4282675289
0.061603755 -0.033842448 0.43000001 4281163842
0.062853888 -0.033763744 0.42900002 4280443451
0.064247273 -0.033763744 0.42900002 4279720498
0.065640673 -0.033763744 0.42900002 4279524146
0.067034066 -0.033763744 0.42900002 4279590709
0.068427451 -0.033763744 0.42900002 4279130925
0.069820851 -0.033763744 0.42900002 4279459890
0.071380243 -0.033842448 0.43000001 4278999339
0.072776876 -0.033842448 0.43000001 4278999339
0.074346021 -0.033921152 0.43100002 4278736935
0.075921655 -0.033999857 0.43200001 4278671142
0.077324793 -0.033999857 0.43200001 4278539808
0.078910165 -0.034078561 0.43300003 4278408222
0.080316551 -0.034078561 0.43300003 4278406687
0.081722945 -0.034078561 0.43300003 4278669089
0.083129324 -0.034078561 0.43300003 4278733085
0.084535711 -0.034078561 0.43300003 4279194406
0.086140573 -0.034157261 0.43400002 4278865441
0.053471465 -0.032596242 0.43200001 4286553742
0.054874599 -0.032596242 0.43200001 4286226060
0.056277737 -0.032596242 0.43200001 4282937691
0.057547357 -0.03252079 0.43100002 4281625163
0.058810472 -0.032445334 0.43000001 4281033794
0.060207114 -0.032445334 0.43000001 4280114740
0.061460495 -0.032369882 0.42900002 4279523887
0.062707379 -0.032294426 0.42800003 4278934316
0.064097516 -0.032294426 0.42800003 4279000109
0.065487668 -0.032294426 0.42800003 4278868523
0.066877812 -0.032294426 0.42800003 4278802728
0.068267949 -0.032294426 0.42800003 4278736933
0.069820851 -0.032369882 0.42900002 4278802726
0.071214244 -0.032369882 0.42900002 4278867749
0.072776876 -0.032445334 0.43000001 4278867236
0.074346021 -0.03252079 0.43100002 4278472478
0.075921655 -0.032596242 0.43200001 4278209306
0.077324793 -0.032596242 0.43200001 4278406685
0.078910165 -0.032671697 0.43300003 4278866466
0.080316551 -0.032671697 0.43300003 4278201347
0.081722945 -0.032671697 0.43300003 4278203148
0.083321303 -0.032747153 0.43400002 4278203409
0.084730938 -0.032747153 0.43400002 4278995492
0.086140573 -0.032747153 0.43400002 4278799396
0.087550201 -0.032747153 0.43400002 4279390763
0.052068327 -0.031192631 0.43200001 4284121451
0.053471465 -0.031192631 0.43200001 4281491526
0.054747578 -0.031120427 0.43100002 4280770881
0.056147467 -0.031120427 0.43100002 4279786291
0.057280317 -0.030976016 0.42900002 4279130410
0.058673706 -0.030976016 0.42900002 4279459373
0.059927084 -0.030903812 0.42800003 4279723312
0.061173964 -0.030831605 0.42700002 4278868773
0.062560864 -0.030831605 0.42700002 4278408482
0.063947752 -0.030831605 0.42700002 4278671654
0.065334655 -0.030831605 0.42700002 4278540068
0.066721551 -0.030831605 0.42700002 4278736933
0.068108447 -0.030831605 0.42700002 4278407968
0.069658101 -0.030903812 0.42800003 4278342175
0.071214244 -0.030976016 0.42900002 4278538271
0.072776876 -0.031048222 0.43000001 4278603294
0.074346021 -0.031120427 0.43100002 4278865439
0.075921655 -0.031192631 0.43200001 4278206482
0.077503785 -0.031264838 0.43300003 4278200064
0.078910165 -0.031264838 0.43300003 4278862363
0.080502041 -0.031337041 0.43400002 4279125795
0.081911676 -0.031337041 0.43400002 4279125795
0.083321303 -0.031337041 0.43400002 4279125281
0.084730938 -0.031337041 0.43400002 4279323687
0.086140573 -0.031337041 0.43400002 4279127078
0.051947802 -0.029720064 0.43100002 4280377406
0.053347688 -0.029720064 0.43100002 4279655732
0.054747578 -0.029720064 0.43100002 4279130925
0.05601719 -0.029651107 0.43000001 4279130923
0.057013273 -0.02944424 0.42700002 4279789621
0.058400165 -0.02944424 0.42700002 4278869033
0.05964705 -0.029375285 0.42600003 4278605861
0.061030701 -0.029375285 0.42600003 4278671654
0.062267836 -0.029306328 0.42500001 4278539554
0.063648231 -0.029306328 0.42500001 4278802210
0.06518165 -0.029375285 0.42600003 4278472732
0.066565298 -0.029375285 0.42600003 4278406685
0.068108447 -0.02944424 0.42700002 4278604064
0.069495343 -0.02944424 0.42700002 4278867236
0.071048245 -0.029513197 0.42800003 4279260199
0.072776876 -0.029651107 0.43000001 4278202373
0.074346021 -0.029720064 0.43100002 4278203919
0.075921655 -0.029789019 0.43200001 4279520293
0.077503785 -0.029857976 0.43300003 4279191842
0.078910165 -0.029857976 0.43300003 4279060769
0.080502041 -0.029926931 0.43400002 4278204433
0.081911676 -0.029926931 0.43400002 4278665498
0.08351329 -0.029995888 0.43500003 4279126562
0.084926173 -0.029995888 0.43500003 4279257894
0.086339056 -0.029995888 0.43500003 4279521068
0.051947802 -0.028319702 0.43100002 4279328300
0.053347688 -0.028319702 0.43100002 4279262507
0.054620549 -0.028253993 0.43000001 4279000105
0.055886921 -0.028188288 0.42900002 4278802980
0.056746233 -0.02792546 0.42500001 4278671394
0.057989862 -0.027859753 0.42400002 4278539808
0.059367016 -0.027859753 0.42400002 4278671394
0.06074417 -0.027859753 0.42400002 4278342429
0.062121328 -0.027859753 0.42400002 4278472732
0.063498475 -0.027859753 0.42400002 4278669341
0.064875633 -0.027859753 0.42400002 4278734621
0.066409037 -0.02792546 0.42500001 4278733853
0.067948945 -0.027991166 0.42600003 4278203402
0.069495343 -0.028056873 0.42700002 4278201606
0.071048245 -0.028122582 0.42800003 4279717672
0.072607629 -0.028188288 0.42900002 4279191842
0.074346021 -0.028319702 0.43100002 4279257635
0.075921655 -0.028385408 0.43200001 4278797084
0.077503785 -0.028451117 0.43300003 4278203919
0.079092406 -0.028516822 0.43400002 4278598421
0.080502041 -0.028516822 0.43400002 4279124765
0.082100414 -0.02858253 0.43500003 4278203148
0.08351329 -0.02858253 0.43500003 4279323941
0.084926173 -0.02858253 0.43500003 4279521320
0.086339056 -0.02858253 0.43500003 4279255332
0.02579844 -0.024670856 0.39500001 4279716135
0.027081402 -0.024670856 0.39500001 4279130410
0.028364362 -0.024670856 0.39500001 4279262511
0.051491037 -0.025982469 0.41600001 4278474013
0.052842207 -0.025982469 0.41600001 4278671392
0.054323651 -0.026044929 0.41700003 4278408220
0.056212153 -0.02629476 0.42100003 4278539036
0.057579558 -0.02629476 0.42100003 4278604829
0.059086982 -0.026357219 0.42200002 4278538525
0.060457643 -0.026357219 0.42200002 4278669341
0.0618283 -0.026357219 0.42200002 4279260711
0.063198954 -0.026357219 0.42200002 4278404122
0.06472262 -0.026419675 0.42300001 4278200577
0.066252783 -0.026482133 0.42400002 4279258148
0.067789435 -0.026544591 0.42500001 4279652393
0.069332592 -0.02660705 0.42600003 4279323428
0.071048245 -0.026731966 0.42800003 4278203151
0.072607629 -0.026794422 0.42900002 4278796570
0.074346021 -0.026919339 0.43100002 4278203663
0.075921655 -0.026981795 0.43200001 4278597908
0.077503785 -0.027044255 0.43300003 4279124252
0.079092406 -0.027106712 0.43400002 4279716389
0.08068753 -0.027169172 0.43500003 4279716389
0.082100414 -0.027169172 0.43500003 4279650855
0.08351329 -0.027169172 0.43500003 4279390504
0.084926173 -0.027169172 0.43500003 4279455012
0.02972238 -0.02344667 0.39600003 4278802728
0.03100859 -0.02344667 0.39600003 4279065130
0.032294799 -0.02344667 0.39600003 4279195435
0.035043314 -0.023565087 0.39800003 4279522349
0.03781781 -0.023683503 0.40000001 4279787059
0.03901922 -0.023624295 0.39900002 4279524400
0.040416211 -0.023683503 0.40000001 4279262509
0.04953723 -0.024334799 0.41100001 4278474013
0.051243488 -0.024512429 0.41400003 4278474013
0.052715182 -0.024571637 0.41500002 4278473243
0.054193377 -0.024630845 0.41600001 4279196453
0.055945113 -0.024808472 0.41900003 4278998304
0.057306021 -0.024808472 0.41900003 4279063070
0.058806948 -0.02486768 0.42000002 4279521570
0.060171112 -0.02486768 0.42000002 4278202378
0.061681788 -0.02492689 0.42100003 4279323428
0.063049197 -0.02492689 0.42100003 4280244276
0.064569615 -0.024986098 0.42200002 4279652393
0.066096522 -0.025045305 0.42300001 4278402839
0.067629933 -0.025104515 0.42400002 4278205203
0.069332592 -0.025222933 0.42600003 4278862877
0.070882238 -0.025282141 0.42700002 4278533398
0.072607629 -0.025400558 0.42900002 4278203405
0.074173518 -0.025459766 0.43000001 4279585316
0.075921655 -0.025578184 0.43200001 4279913768
0.077503785 -0.025637394 0.43300003 4279190045
0.079092406 -0.025696602 0.43400002 4278201611
0.08068753 -0.025755811 0.43500003 4279650344
0.082289152 -0.025815019 0.43600002 4280045361
0.083705276 -0.025815019 0.43600002 4281687620
0.033665806 -0.022215985 0.39700001 4283405933
0.035043314 -0.022271946 0.39800003 4279458353
0.036427312 -0.022327904 0.39900002 4279525683
0.037723266 -0.022327904 0.39900002 4278737962
0.03901922 -0.022327904 0.39900002 4279001902
0.040416211 -0.022383863 0.40000001 4279067179
0.041819703 -0.022439824 0.40100002 4278606628
0.043229684 -0.022495782 0.40200001 4278671908
0.04464617 -0.022551743 0.40300003 4278408736
0.046183176 -0.022663662 0.40500003 4278670624
0.04773318 -0.022775581 0.40700001 4278539038
0.049416702 -0.022943461 0.41000003 4278999074
0.050995935 -0.02305538 0.41200003 4278867488
0.052588161 -0.023167299 0.41400003 4278998304
0.054063104 -0.023223259 0.41500002 4279063584
0.05567807 -0.023335177 0.41700003 4278204174
0.057169247 -0.023391137 0.41800001 4278200585
0.058526915 -0.023391137 0.41800001 4278658836
0.060027849 -0.023447098 0.41900003 4278594324
0.061535276 -0.023503058 0.42000002 4279849258
0.062899433 -0.023503058 0.42000002 4278729240
0.064416602 -0.023559017 0.42100003 4278662677
0.065940268 -0.023614977 0.42200002 4279914797
0.067629933 -0.023726895 0.42400002 4279322914
0.069169834 -0.023782855 0.42500001 4278202892
0.070882238 -0.023894774 0.42700002 4279257121
0.072607629 -0.024006695 0.42900002 4279915051
0.074173518 -0.024062652 0.43000001 4278199812
0.075921655 -0.024174573 0.43200001 4279189023
0.077503785 -0.024230532 0.43300003 4279912492
0.079092406 -0.024286492 0.43400002 4280373813
0.08068753 -0.024342453 0.43500003 4281688392
0.082289152 -0.024398411 0.43600002 4284845172
0.032376349 -0.02092609 0.39700001 4278999076
0.033665806 -0.02092609 0.39700001 4279327787
0.035043314 -0.020978801 0.39800003 4279001136
0.036427312 -0.021031512 0.39900002 4278540583
0.037723266 -0.021031512 0.39900002 4278935593
0.039117008 -0.021084221 0.40000001 4278211870
0.040416211 -0.021084221 0.40000001 4278343454
0.041819703 -0.021136932 0.40100002 4278408734
0.043229684 -0.021189643 0.40200001 4278604831
0.044756953 -0.021295063 0.40400001 4278802210
0.046183176 -0.021347774 0.40500003 4278206993
0.04773318 -0.021453194 0.40700001 4278667031
0.04929617 -0.021558616 0.40900001 4279391267
0.050872158 -0.021664038 0.41100001 4279061019
0.052461132 -0.021769458 0.41300002 4278198273
0.053932834 -0.021822169 0.41400003 4278527246
0.055544548 -0.02192759 0.41600001 4278854931
0.057032481 -0.021980301 0.41700003 4278789652
0.0583869 -0.021980301 0.41700003 4280039719
0.059884582 -0.022033012 0.41800001 4280699698
0.061388765 -0.022085723 0.41900003 4279254301
0.062899433 -0.022138434 0.42000002 4278857494
0.064416602 -0.022191145 0.42100003 4280108842
0.065940268 -0.022243854 0.42200002 4279255584
0.067470424 -0.022296565 0.42300001 4280309809
0.069169834 -0.022401985 0.42500001 4278598421
0.070882238 -0.022507407 0.42700002 4278531861
0.072607629 -0.022612827 0.42900002 4280505651
0.074173518 -0.022665538 0.43000001 4280375348
0.07574591 -0.022718249 0.43100002 4280638520
0.077503785 -0.022823671 0.43300003 4281358655
0.032376349 -0.019636197 0.39700001 4278866207
0.033665806 -0.019636197 0.39700001 4278933283
0.035043314 -0.01968566 0.39800003 4278474013
0.036427312 -0.01973512 0.39900002 4278737185
0.037723266 -0.01973512 0.39900002 4278604829
0.039117008 -0.019784581 0.40000001 4278604829
0.040517252 -0.019834043 0.40100002 4278802208
0.041923989 -0.019883504 0.40200001 4278999076
0.043337222 -0.019932967 0.40300003 4279393834
0.044756953 -0.019982427 0.40400001 4279195431
0.046183176 -0.020031888 0.40500003 4278731289
0.04773318 -0.020130811 0.40700001 4280244012
0.04929617 -0.020229734 0.40900001 4278266636
0.050748382 -0.020279195 0.41000003 4278789902
0.052334111 -0.020378118 0.41200003 4278789134
0.053802561 -0.020427579 0.41300002 4280565545
0.05541103 -0.020526502 0.41500002 4281026612
0.056895711 -0.020575963 0.41600001 4279973922
0.0583869 -0.020625426 0.41700003 4278790418
0.059884582 -0.020674886 0.41800001 4281227321
0.061388765 -0.020724349 0.41900003 4278200331
0.062899433 -0.020773809 0.42000002 4280106791
0.064416602 -0.020823272 0.42100003 4281096505
0.065940268 -0.020872733 0.42200002 4278464785
0.067470424 -0.020922193 0.42300001 4279913514
0.069007084 -0.020971656 0.42400002 4281164094
0.070882238 -0.02112004 0.42700002 4280441141
0.072438389 -0.021169502 0.42800003 4280638520
0.074173518 -0.021268424 0.43000001 4281359679
0.07574591 -0.021317886 0.43100002 4285634688
0.032376349 -0.018346304 0.39700001 4278865953
0.033750609 -0.018392516 0.39800003 4278800927
0.035043314 -0.018392516 0.39800003 4279328041
0.036427312 -0.018438729 0.39900002 4278999076
0.03781781 -0.018484941 0.40000001 4278933283
0.039117008 -0.018484941 0.40000001 4278866720
0.040517252 -0.018531153 0.40100002 4279261478
0.041923989 -0.018577365 0.40200001 4279261478
0.043337222 -0.018623577 0.40300003 4279261478
0.044756953 -0.01866979 0.40400001 4279523623
0.046183176 -0.018716002 0.40500003 4278201863
0.04773318 -0.018808426 0.40700001 4280965684
0.04929617 -0.018900851 0.40900001 4279053074
0.050748382 -0.018947065 0.41000003 4279446551
0.052334111 -0.019039489 0.41200003 4280829485
0.053802561 -0.019085702 0.41300002 4280039969
0.055277511 -0.019131914 0.41400003 4278790420
0.056895711 -0.019224338 0.41600001 4280172325
0.0583869 -0.01927055 0.41700003 4278199047
0.059884582 -0.019316763 0.41800001 4280306989
0.061242249 -0.019316763 0.41800001 4279450912
0.062749669 -0.019362975 0.41900003 4279779623
0.064263597 -0.019409187 0.42000002 4281031227
0.065784015 -0.019455401 0.42100003 4280703032
0.067310922 -0.019501612 0.42200002 4280637750
0.069007084 -0.019594038 0.42400002 4280440371
0.032457903 -0.017099373 0.39800003 4279194404
0.033750609 -0.017099373 0.39800003 4278865953
0.035131361 -0.017142337 0.39900002 4279130408
0.036427312 -0.017142337 0.39900002 4279064615
0.03781781 -0.017185299 0.40000001 4279261224
0.039214805 -0.017228262 0.40100002 4279195172
0.040618293 -0.017271226 0.40200001 4279326758
0.042028278 -0.01731419 0.40300003 4279524137
0.043444756 -0.017357152 0.40400001 4279326758
0.044867739 -0.017400118 0.40500003 4279718695
0.046297207 -0.01744308 0.40600002 4281031479
0.04773318 -0.017486041 0.40700001 4278794517
0.049175646 -0.017529005 0.40800002 4280830768
0.050748382 -0.017614933 0.41000003 4281093940
0.052207083 -0.017657895 0.41100001 4280433959
0.053802561 -0.017743822 0.41300002 4278788621
0.055277511 -0.017786786 0.41400003 4279248406
0.056758944 -0.017829748 0.41500002 4278986004
0.058246881 -0.017872712 0.41600001 4280437553
0.059741318 -0.017915675 0.41700003 4280702262
0.061242249 -0.017958637 0.41800001 4280506936
0.062749669 -0.018001603 0.41900003 4280177971
0.064263597 -0.018044565 0.42000002 4280638522
0.065784015 -0.018087529 0.42100003 4280309557
0.067310922 -0.018130491 0.42200002 4282937691
0.031243503 -0.015845945 0.39900002 4279390500
0.032539453 -0.015845945 0.39900002 4279063072
0.033835407 -0.015845945 0.39900002 4278866207
0.035131361 -0.015845945 0.39900002 4279261478
0.036518607 -0.015885659 0.40000001 4279195685
0.037912354 -0.015925374 0.40100002 4279129892
0.039312594 -0.015965087 0.40200001 4279064099
0.040719334 -0.016004803 0.40300003 4279260965
0.042028278 -0.016004803 0.40300003 4279392551
0.043444756 -0.016044516 0.40400001 4279457578
0.044867739 -0.016084231 0.40500003 4278203148
0.046297207 -0.016123945 0.40600002 4280374317
0.04773318 -0.016163658 0.40700001 4278465039
0.049175646 -0.016203372 0.40800002 4279118613
0.050748382 -0.016282801 0.41000003 4279117588
0.052207083 -0.016322514 0.41100001 4279116818
0.053672288 -0.016362229 0.41200003 4278787853
0.055277511 -0.016441658 0.41400003 4280237864
0.056758944 -0.016481372 0.41500002 4281292862
0.058246881 -0.016521085 0.41600001 4280310071
0.059741318 -0.0165608 0.41700003 4280178996
0.061242249 -0.016600514 0.41800001 4280244789
0.062749669 -0.016640229 0.41900003 4280375096
0.030022604 -0.014586017 0.40000001 4278995742
0.031321805 -0.014586017 0.40000001 4279325474
0.032539453 -0.014549552 0.39900002 4279457830
0.03392021 -0.014586017 0.40000001 4279260965
0.035219409 -0.014586017 0.40000001 4279326756
0.036609907 -0.014622482 0.40100002 4279326756
0.037912354 -0.014622482 0.40100002 4279195683
0.039312594 -0.014658947 0.40200001 4279195685
0.040719334 -0.014695412 0.40300003 4279261478
0.042132568 -0.014731877 0.40400001 4279524650
0.043552294 -0.014768342 0.40500003 4279654185
0.044867739 -0.014768342 0.40500003 4278202121
0.046297207 -0.014804807 0.40600002 4280373547
0.04773318 -0.014841272 0.40700001 4278198787
0.049175646 -0.014877737 0.40800002 4278918926
0.050624602 -0.014914203 0.40900001 4279380760
0.052207083 -0.014987133 0.41100001 4280899128
0.053672288 -0.015023598 0.41200003 4280702514
0.055143986 -0.015060063 0.41300002 4280309037
0.056622177 -0.015096528 0.41400003 4280113203
0.058246881 -0.015169458 0.41600001 4280113203
0.059741318 -0.015205923 0.41700003 4280506166
0.030097662 -0.013319593 0.40100002 4279127328
0.031321805 -0.013286376 0.40000001 4279128095
0.032621007 -0.013286376 0.40000001 4279194658
0.03392021 -0.013286376 0.40000001 4279194920
0.035307456 -0.013319593 0.40100002 4279129125
0.036609907 -0.013319593 0.40100002 4279195685
0.038006898 -0.013352809 0.40200001 4279129892
0.03941039 -0.013386025 0.40300003 4279195685
0.040820375 -0.01341924 0.40400001 4279261224
0.042132568 -0.01341924 0.40400001 4279261224
0.043552294 -0.013452456 0.40500003 4278664982
0.044978522 -0.013485672 0.40600002 4279649059
0.046297207 -0.013485672 0.40600002 4280570928
0.04773318 -0.013518888 0.40700001 4280702001
0.049175646 -0.013552104 0.40800002 4280505135
0.050624602 -0.01358532 0.40900001 4280440625
0.052080061 -0.013618536 0.41000003 4280376116
0.053542014 -0.013651752 0.41100001 4280573495
0.055010468 -0.013684968 0.41200003 4280505399
0.056622177 -0.013751401 0.41400003 4282544216
0.030097662 -0.012016703 0.40100002 4279456547
0.031400111 -0.012016703 0.40100002 4279457060
0.032702558 -0.012016703 0.40100002 4279195172
0.034005009 -0.012016703 0.40100002 4279523883
0.035307456 -0.012016703 0.40100002 4279392297
0.036701199 -0.01204667 0.40200001 4279260711
0.038101446 -0.012076637 0.40300003 4279261224
0.03941039 -0.012076637 0.40300003 4279327017
0.040820375 -0.012106603 0.40400001 4279590189
0.042236857 -0.01213657 0.40500003 4279458603
0.043552294 -0.01213657 0.40500003 4279783463
0.044978522 -0.012166537 0.40600002 4279913768
0.046297207 -0.012166537 0.40600002 4280112944
0.04773318 -0.012196504 0.40700001 4280245041
0.049175646 -0.012226471 0.40800002 4280376116
0.050624602 -0.012256437 0.40900001 4280310323
0.052080061 -0.012286405 0.41000003 4280963897
0.053542014 -0.012316371 0.41100001 4285699966
0.055010468 -0.012346338 0.41200003 4286950550
0.030172717 -0.010740531 0.40200001 4279193121
0.031400111 -0.010713813 0.40100002 4279786541
0.032702558 -0.010713813 0.40100002 4279194918
0.034005009 -0.010713813 0.40100002 4279326504
0.035395507 -0.010740531 0.40200001 4279523883
0.036701199 -0.010740531 0.40200001 4279194918
0.038101446 -0.010767248 0.40300003 4279392297
0.039508179 -0.010793966 0.40400001 4279392297
0.040820375 -0.010793966 0.40400001 4279523883
0.042236857 -0.010820684 0.40500003 4280116022
0.043659832 -0.010847402 0.40600002 4279060515
0.044978522 -0.010847402 0.40600002 4280310069
0.046297207 -0.010847402 0.40600002 4280244530
0.04773318 -0.01087412 0.40700001 4280506164
0.049055114 -0.01087412 0.40700001 4283726689
0.050500829 -0.010900837 0.40800002 4287147414
0.051953036 -0.010927555 0.40900001 4286949013
0.028867021 -0.0094343908 0.40200001 4279258144
0.030172717 -0.0094343908 0.40200001 4279325220
0.031478416 -0.0094343908 0.40200001 4279325220
0.032784112 -0.0094343908 0.40200001 4279392299
0.034089811 -0.0094343908 0.40200001 4279326504
0.035395507 -0.0094343908 0.40200001 4279655723
0.036792498 -0.0094578601 0.40300003 4279392551
0.038101446 -0.0094578601 0.40300003 4279457830
0.039508179 -0.0094813285 0.40400001 4279655209
0.040921416 -0.0095047979 0.40500003 4279654955
0.042236857 -0.0095047979 0.40500003 4279786541
0.043659832 -0.0095282663 0.40600002 4279650855
0.044978522 -0.0095282663 0.40600002 4281360192
0.046297207 -0.0095282663 0.40600002 4286226825
0.04773318 -0.0095517347 0.40700001 4287213209
0.049055114 -0.0095517347 0.40700001 4286818451
0.050500829 -0.0095752031 0.40800002 4286752658
0.028867021 -0.0081282528 0.40200001 4279323424
0.030172717 -0.0081282528 0.40200001 4279391013
0.031478416 -0.0081282528 0.40200001 4279456806
0.032784112 -0.0081282528 0.40200001 4279721264
0.034089811 -0.0081282528 0.40200001 4279523885
0.035395507 -0.0081282528 0.40200001 4279523883
0.036792498 -0.0081484718 0.40300003 4279655209
0.038101446 -0.0081484718 0.40300003 4280180016
0.039508179 -0.0081686918 0.40400001 4279653672
0.040820375 -0.0081686918 0.40400001 4280440373
0.043659832 -0.0082091307 0.40600002 4287344025
0.044978522 -0.0082091307 0.40600002 4286884244
0.027629888 -0.0068390835 0.40300003 4279650596
0.028867021 -0.0068221129 0.40200001 4279454498
0.030172717 -0.0068221129 0.40200001 4279588394
0.031478416 -0.0068221129 0.40200001 4279522601
0.032784112 -0.0068221129 0.40200001 4279720750
0.034089811 -0.0068221129 0.40200001 4280115508
0.035395507 -0.0068221129 0.40200001 4280114738
0.036792498 -0.0068390835 0.40300003 4279718186
0.038101446 -0.0068390835 0.40300003 4281622597
0.039508179 -0.0068560536 0.40400001 4285963651
0.027561326 -0.005515974 0.40200001 4285107831
0.028867021 -0.005515974 0.40200001 4281292348
0.030172717 -0.005515974 0.40200001 4279650857
0.031478416 -0.005515974 0.40200001 4279914799
0.032784112 -0.005515974 0.40200001 4279717420
0.034089811 -0.005515974 0.40200001 4281229122
0.035395507 -0.005515974 0.40200001 4285107829
0.054952525 -0.02141 0.41585755 4294967295
0.054952525 -0.02141 0.41585755 4294901760
0.054952525 -0.02141 0.41635755 4294901760
0.054952525 -0.02141 0.41685754 4294901760
0.054952525 -0.02141 0.41735756 4294901760
0.054952525 -0.02141 0.41785756 4294901760
0.054952525 -0.02141 0.41835755 4294901760
0.054952525 -0.02141 0.41885754 4294901760
0.054952525 -0.02141 0.41935757 4294901760
0.054952525 -0.02141 0.41985756 4294901760
0.054952525 -0.02141 0.42035756 4294901760
0.054952525 -0.02141 0.42085755 4294901760
0.054952525 -0.02141 0.42135754 4294901760
0.054952525 -0.02141 0.42185757 4294901760
0.054952525 -0.02141 0.42235756 4294901760
0.054952525 -0.02141 0.42285755 4294901760
0.054952525 -0.02141 0.42335755 4294901760
0.054952525 -0.02141 0.42385757 4294901760
0.054952525 -0.02141 0.42435756 4294901760
0.054952525 -0.02141 0.42485756 4294901760
0.054952525 -0.02141 0.42535755 4294901760
0.054952525 -0.02141 0.42585754 4294901760
0.054952525 -0.02141 0.42635757 4294901760
0.054952525 -0.02141 0.42685756 4294901760
0.054952525 -0.02141 0.42735755 4294901760
0.054952525 -0.02141 0.42785755 4294901760
0.054952525 -0.02141 0.42835754 4294901760
0.054952525 -0.02141 0.42885756 4294901760
0.054952525 -0.02141 0.42935756 4294901760
0.054952525 -0.02141 0.42985755 4294901760
0.054952525 -0.02141 0.43035755 4294901760
0.054952525 -0.02141 0.43085757 4294901760
0.054952525 -0.02141 0.43135756 4294901760
0.054952525 -0.02141 0.43185756 4294901760
0.054952525 -0.02141 0.43235755 4294901760
0.054952525 -0.02141 0.43285757 4294901760
0.054952525 -0.02141 0.43335757 4294901760
0.054952525 -0.02141 0.43385756 4294901760
0.054952525 -0.02141 0.43435755 4294901760
0.054952525 -0.02141 0.43485755 4294901760
0.054952525 -0.02141 0.43535757 4294901760
0.054952525 -0.02141 0.43585756 4294901760
0.054952525 -0.02141 0.43635756 4294901760
0.054952525 -0.02141 0.43685755 4294901760
0.054952525 -0.02141 0.43735754 4294901760
0.054952525 -0.02141 0.43785757 4294901760
0.054952525 -0.02141 0.43835756 4294901760
0.054952525 -0.02141 0.43885756 4294901760
0.054952525 -0.02141 0.43935755 4294901760
0.054952525 -0.02141 0.43985757 4294901760
0.054952525 -0.02141 0.44035757 4294901760
0.054952525 -0.02141 0.44085756 4294901760
0.054952525 -0.02141 0.44135755 4294901760
0.054952525 -0.02141 0.44185755 4294901760
0.054952525 -0.02141 0.44235757 4294901760
0.054952525 -0.02141 0.44285756 4294901760
0.054952525 -0.02141 0.44335756 4294901760
0.054952525 -0.02141 0.44385755 4294901760
0.054952525 -0.02141 0.44435757 4294901760
0.054952525 -0.02141 0.44485757 4294901760
0.054952525 -0.02141 0.44535756 4294901760
0.054952525 -0.02141 0.44585755 4294901760
0.054952525 -0.02141 0.44635755 4294901760
0.054952525 -0.02141 0.44685757 4294901760
0.054952525 -0.02141 0.44735757 4294901760
0.054952525 -0.02141 0.44785756 4294901760
0.054952525 -0.02141 0.44835755 4294901760
0.054952525 -0.02141 0.44885758 4294901760
0.054952525 -0.02141 0.44935757 4294901760
0.054952525 -0.02141 0.44985756 4294901760
0.054952525 -0.02141 0.45035756 4294901760
0.054952525 -0.02141 0.45085755 4294901760
0.054952525 -0.02141 0.45135757 4294901760
0.054952525 -0.02141 0.45185757 4294901760
0.054952525 -0.02141 0.45235756 4294901760
0.054952525 -0.02141 0.45285755 4294901760
0.054952525 -0.02141 0.45335758 4294901760
0.054952525 -0.02141 0.45385757 4294901760
0.054952525 -0.02141 0.45435756 4294901760
0.054952525 -0.02141 0.45485756 4294901760
0.054952525 -0.02141 0.45535755 4294901760
0.054952525 -0.02141 0.45585757 4294901760
0.054952525 -0.02141 0.45635757 4294901760
0.054952525 -0.02141 0.45685756 4294901760
0.054952525 -0.02141 0.45735756 4294901760
0.054952525 -0.02141 0.45785755 4294901760
0.054952525 -0.02141 0.45835757 4294901760
0.054952525 -0.02141 0.45885757 4294901760
0.054952525 -0.02141 0.45935756 4294901760
0.054952525 -0.02141 0.45985755 4294901760
0.054952525 -0.02141 0.46035755 4294901760
0.054952525 -0.02141 0.46085757 4294901760
0.054952525 -0.02141 0.46135756 4294901760
0.054952525 -0.02141 0.46185756 4294901760
0.054952525 -0.02141 0.46235758 4294901760
0.054952525 -0.02141 0.46285757 4294901760
0.054952525 -0.02141 0.46335757 4294901760
0.054952525 -0.02141 0.46385756 4294901760
0.054952525 -0.02141 0.46435755 4294901760
0.054952525 -0.02141 0.46485758 4294901760
0.054952525 -0.02141 0.46535757 4294901760
0.054952525 -0.02141 0.46585757 4294901760
0.054952525 -0.02141 0.41585755 4278255360
0.054663133 -0.02131773 0.41625473 4278255360
0.054373741 -0.02122546 0.41665187 4278255360
0.054084346 -0.02113319 0.41704905 4278255360
0.053794954 -0.02104092 0.4174462 4278255360
0.053505562 -0.02094865 0.41784337 4278255360
0.053216171 -0.02085638 0.41824052 4278255360
0.052926779 -0.020764111 0.41863769 4278255360
0.052637387 -0.020671841 0.41903487 4278255360
0.052347992 -0.020579571 0.41943201 4278255360
0.0520586 -0.020487301 0.41982919 4278255360
0.051769208 -0.020395031 0.42022634 4278255360
0.051479816 -0.020302761 0.42062351 4278255360
0.051190425 -0.020210491 0.42102066 4278255360
0.050901033 -0.020118222 0.42141783 4278255360
0.050611638 -0.02002595 0.42181501 4278255360
0.050322246 -0.01993368 0.42221215 4278255360
0.050032854 -0.01984141 0.42260933 4278255360
0.049743462 -0.01974914 0.42300647 4278255360
0.049454071 -0.019656871 0.42340365 4278255360
0.049164679 -0.019564601 0.4238008 4278255360
0.048875287 -0.019472331 0.42419797 4278255360
0.048585892 -0.019380061 0.42459515 4278255360
0.0482965 -0.019287791 0.42499229 4278255360
0.048007108 -0.019195521 0.42538947 4278255360
0.047717717 -0.019103251 0.42578661 4278255360
0.047428325 -0.019010982 0.42618379 4278255360
0.047138929 -0.018918712 0.42658094 4278255360
0.046849538 -0.018826442 0.42697811 4278255360
0.046560146 -0.018734172 0.42737529 4278255360
0.046270754 -0.018641902 0.42777243 4278255360
0.045981362 -0.018549632 0.42816961 4278255360
0.045691967 -0.018457362 0.42856675 4278255360
0.045402575 -0.018365093 0.42896393 4278255360
0.045113184 -0.018272823 0.42936108 4278255360
0.044823792 -0.018180553 0.42975825 4278255360
0.0445344 -0.018088283 0.43015543 4278255360
0.044245008 -0.017996013 0.43055257 4278255360
0.043955617 -0.017903743 0.43094975 4278255360
0.043666221 -0.017811473 0.43134689 4278255360
0.043376829 -0.017719204 0.43174407 4278255360
0.043087438 -0.017626934 0.43214121 4278255360
0.042798046 -0.017534664 0.43253839 4278255360
0.042508654 -0.017442394 0.43293554 4278255360
0.042219259 -0.017350122 0.43333271 4278255360
0.041929871 -0.017257854 0.43372989 4278255360
0.041640475 -0.017165583 0.43412703 4278255360
0.041351084 -0.017073313 0.43452421 4278255360
0.041061692 -0.016981043 0.43492135 4278255360
0.040772296 -0.016888773 0.43531853 4278255360
0.040482908 -0.016796503 0.43571568 4278255360
0.040193513 -0.016704233 0.43611285 4278255360
0.039904121 -0.016611964 0.43651003 4278255360
0.03961473 -0.016519694 0.43690717 4278255360
0.039325334 -0.016427424 0.43730435 4278255360
0.039035946 -0.016335154 0.43770149 4278255360
0.038746551 -0.016242884 0.43809867 4278255360
0.038457163 -0.016150614 0.43849581 4278255360
0.038167767 -0.016058344 0.43889299 4278255360
0.037878376 -0.015966075 0.43929017 4278255360
0.037588984 -0.015873805 0.43968731 4278255360
0.037299588 -0.015781535 0.44008449 4278255360
0.0370102 -0.015689265 0.44048163 4278255360
0.036720805 -0.015596995 0.44087881 4278255360
0.036431413 -0.015504725 0.44127595 4278255360
0.036142021 -0.015412455 0.44167313 4278255360
0.035852626 -0.015320185 0.44207031 4278255360
0.035563238 -0.015227915 0.44246745 4278255360
0.035273843 -0.015135645 0.44286463 4278255360
0.034984455 -0.015043375 0.44326177 4278255360
0.034695059 -0.014951105 0.44365895 4278255360
0.034405667 -0.014858835 0.44405609 4278255360
0.034116276 -0.014766565 0.44445327 4278255360
0.03382688 -0.014674295 0.44485044 4278255360
0.033537492 -0.014582025 0.44524759 4278255360
0.033248097 -0.014489756 0.44564477 4278255360
0.032958705 -0.014397486 0.44604191 4278255360
0.032669313 -0.014305216 0.44643909 4278255360
0.032379922 -0.014212946 0.44683623 4278255360
0.03209053 -0.014120676 0.44723341 4278255360
0.031801134 -0.014028406 0.44763058 4278255360
0.031511743 -0.013936136 0.44802773 4278255360
0.031222351 -0.013843866 0.44842491 4278255360
0.030932959 -0.013751596 0.44882205 4278255360
0.030643567 -0.013659326 0.44921923 4278255360
0.030354174 -0.013567057 0.44961637 4278255360
0.030064782 -0.013474787 0.45001355 4278255360
0.029775389 -0.013382517 0.45041072 4278255360
0.029485997 -0.013290247 0.45080787 4278255360
0.029196605 -0.013197977 0.45120504 4278255360
0.028907213 -0.013105707 0.45160219 4278255360
0.02861782 -0.013013436 0.45199937 4278255360
0.028328426 -0.012921167 0.45239651 4278255360
0.028039034 -0.012828897 0.45279369 4278255360
0.027749643 -0.012736627 0.45319086 4278255360
0.027460251 -0.012644357 0.45358801 4278255360
0.027170859 -0.012552087 0.45398518 4278255360
0.026881466 -0.012459817 0.45438233 4278255360
0.026592072 -0.012367547 0.45477951 4278255360
0.02630268 -0.012275278 0.45517665 4278255360
0.026013289 -0.012183008 0.45557383 4278255360
