# .PCD v0.7 - Point Cloud Data file format
VERSION 0.7
FIELDS x y z rgb
SIZE 4 4 4 4
TYPE F F F U
COUNT 1 1 1 1
WIDTH 905
HEIGHT 1
VIEWPOINT 0 0 0 1 0 0 0
POINTS 905
DATA ascii
-0.0016041219 -0.027401645 0.55400002 4287406738
0.00019562351 -0.027451105 0.55500001 4285359708
0.0020018651 -0.02750057 0.55600005 4285480761
0.003807754 -0.02750057 0.55600005 4285611836
-0.012310945 -0.025416793 0.55000001 4287212185
-0.010486274 -0.025324369 0.54800004 4286949013
-0.0051653418 -0.025416793 0.55000001 4286488716
-0.0033912279 -0.02550922 0.55200005 4287078541
-0.0016012264 -0.02555543 0.55300003 4286537813
0.00019527103 -0.025601642 0.55400002 4286333242
0.0019982643 -0.025647854 0.55500001 4287120444
0.003807754 -0.025694069 0.55600005 4286922293
0.0056237392 -0.025740281 0.55700004 4287251003
0.0074328766 -0.025740281 0.55700004 4286593330
-0.014097346 -0.023629786 0.55000001 4287212185
-0.01226618 -0.023543861 0.54800004 4287277978
-0.010467138 -0.023500899 0.54700005 4287146646
-0.0086745927 -0.023457933 0.546 4288326807
-0.0069011846 -0.023457933 0.546 4288061323
-0.0051465589 -0.023543861 0.54800004 4287003240
-0.0033789407 -0.023629786 0.55000001 4286932053
-0.0015983309 -0.023715714 0.55200005 4286923065
0.00019491857 -0.023758678 0.55300003 4287514430
0.0019982643 -0.023844603 0.55500001 4286724912
0.003807754 -0.023887567 0.55600005 4286328866
0.0056237392 -0.023930531 0.55700004 4288105027
0.0074328766 -0.023930531 0.55700004 4290277481
0.0092586055 -0.023973493 0.55800003 4287186755
-0.014046083 -0.021763355 0.54800004 4287277978
-0.012243796 -0.021723639 0.54700005 4287014547
-0.010428866 -0.02164421 0.54500002 4283914569
-0.0086587053 -0.02164421 0.54500002 4286136123
-0.0068885451 -0.02164421 0.54500002 4286923583
-0.0051371674 -0.021723639 0.54700005 4287448635
-0.0033727973 -0.021803068 0.54900002 4287646014
-0.0015925398 -0.021842781 0.55000001 4285675564
0.00019456609 -0.02192221 0.55200005 4288775027
0.0019946638 -0.022001637 0.55400002 4287463026
0.003807754 -0.022081068 0.55600005 4284493603
0.0056237392 -0.022120781 0.55700004 4286657579
0.0074462211 -0.022160495 0.55800003 4287380534
0.0092586055 -0.022160495 0.55800003 4287448382
0.011070991 -0.022160495 0.55800003 4285938482
-0.01579711 -0.01994638 0.54700005 4287147416
-0.013994819 -0.019909913 0.546 4287081623
-0.012199028 -0.019873448 0.54500002 4287535240
-0.010409731 -0.019836983 0.54400003 4284891706
-0.0086269304 -0.01980052 0.54300004 4286987827
-0.0068759057 -0.019836983 0.54400003 4286987311
-0.005118384 -0.019873448 0.54500002 4287249198
-0.0033605103 -0.01994638 0.54700005 4287249198
-0.0015896444 -0.020019308 0.54900002 4286331446
0.00019456609 -0.020128705 0.55200005 4289105025
0.0019946638 -0.020201633 0.55400002 4286418558
0.003807754 -0.020274565 0.55600005 4282200869
0.0056237392 -0.02031103 0.55700004 4285213213
0.0074462211 -0.020347495 0.55800003 4286591786
0.0092586055 -0.020347495 0.55800003 4287313969
0.011070991 -0.020347495 0.55800003 4286529077
-0.01573935 -0.018102689 0.54500002 4287146646
-0.013943558 -0.018069472 0.54400003 4287146644
-0.012154262 -0.018036257 0.54300004 4283384373
-0.010371461 -0.018003041 0.54200006 4285611062
-0.008611043 -0.018003041 0.54200006 4286264358
-0.0068632662 -0.018036257 0.54300004 4286460452
-0.005108993 -0.018069472 0.54400003 4286393119
-0.0033543666 -0.018135903 0.546 4291724407
-0.0015867488 -0.018202337 0.54800004 4286595383
0.0001942136 -0.018301982 0.551 4286529336
0.0019946638 -0.018401632 0.55400002 4287852901
0.003807754 -0.018468065 0.55600005 4285545262
0.0056237392 -0.01850128 0.55700004 4288238657
0.0074462211 -0.018534495 0.55800003 4286659114
0.009275198 -0.018567711 0.55900002 4286066984
0.011070991 -0.018534495 0.55800003 4285416250
-0.015681591 -0.016271995 0.54300004 4286883220
-0.013892295 -0.016242027 0.54200006 4287343258
-0.012131878 -0.016242027 0.54200006 4283117610
-0.010371461 -0.016242027 0.54200006 4285019179
-0.008611043 -0.016242027 0.54200006 4285803807
-0.0068506268 -0.016242027 0.54200006 4285803037
-0.005108993 -0.016301962 0.54400003 4285801752
-0.0033482232 -0.016331928 0.54500002 4286262303
-0.0015867488 -0.016421828 0.54800004 4289026381
0.0001942136 -0.016511729 0.551 4287250229
0.0019910636 -0.016571663 0.55300003 4287314993
0.003807754 -0.016661564 0.55600005 4286197795
0.0056338357 -0.016721496 0.55800003 4285476639
0.0074595655 -0.016751463 0.55900002 4285542945
0.0092917904 -0.016781429 0.56 4284099620
-0.015652712 -0.014481016 0.54200006 4286883222
-0.013892295 -0.014481016 0.54200006 4287869602
-0.012109494 -0.014454296 0.54100001 4284563001
-0.010352325 -0.014454296 0.54100001 4284492322
-0.0085951556 -0.014454296 0.54100001 4284686871
-0.0068506268 -0.014481016 0.54200006 4285015064
-0.0050996016 -0.014507732 0.54300004 4285342486
-0.0033482232 -0.014561167 0.54500002 4286526245
-0.0015867488 -0.014641321 0.54800004 4287182378
0.0001942136 -0.014721474 0.551 4287972405
0.0019946638 -0.014801627 0.55400002 4285803035
0.003807754 -0.014855064 0.55600005 4284818455
0.0056338357 -0.014908498 0.55800003 4284031769
0.0074729095 -0.014961933 0.56 4284624419
0.0092917904 -0.014961933 0.56 4285021492
-0.017445255 -0.012743469 0.54300004 4287015058
-0.015652712 -0.012720001 0.54200006 4286686093
-0.013866662 -0.012696532 0.54100001 4286683783
-0.012109494 -0.012696532 0.54100001 4284691761
-0.010352325 -0.012696532 0.54100001 4284952871
-0.0085951556 -0.012696532 0.54100001 4284161810
-0.0068506268 -0.012720001 0.54200006 4284161812
-0.0050996016 -0.012743469 0.54300004 4284226835
-0.0033482232 -0.012790406 0.54500002 4285279006
-0.0015867488 -0.012860812 0.54800004 4286000414
0.0001942136 -0.012931217 0.551 4286000414
0.0019946638 -0.013001624 0.55400002 4284949273
0.0038146025 -0.013072031 0.55700004 4284953902
0.0056439321 -0.013118966 0.55900002 4283375901
0.0074862549 -0.013165905 0.56100005 4283374870
0.0093249753 -0.013189374 0.56200004 4283967772
0.011170194 -0.013212842 0.56300002 4286735444
-0.019350424 -0.011060085 0.54700005 4282404669
-0.017445255 -0.010979207 0.54300004 4282338878
-0.015652712 -0.010958988 0.54200006 4281615921
-0.013866662 -0.010938767 0.54100001 4282598707
-0.01208711 -0.010918548 0.54000002 4285217839
-0.010333189 -0.010918548 0.54000002 4285806635
-0.0085951556 -0.010938767 0.54100001 4283308048
-0.0068506268 -0.010958988 0.54200006 4282784530
-0.0050996016 -0.010979207 0.54300004 4284098075
-0.0033543666 -0.011039865 0.546 4284755744
-0.0015867488 -0.011080305 0.54800004 4285477922
0.00019456609 -0.011161183 0.55200005 4285543715
0.0019982643 -0.011221841 0.55500001 4283112211
0.0038214508 -0.0112825 0.55800003 4287926657
0.0056540282 -0.011322939 0.56 4287792506
0.0074995994 -0.011363378 0.56200004 4283376669
0.0093415678 -0.011383598 0.56300002 4284297253
0.011190034 -0.011403817 0.56400001 4283771938
-0.019315047 -0.009265855 0.546 4282271789
-0.017445255 -0.0092149442 0.54300004 4282337584
-0.015623831 -0.0091810022 0.54100001 4282533425
-0.013841031 -0.0091640325 0.54000002 4283317551
-0.01208711 -0.0091640325 0.54000002 4285016347
-0.010333189 -0.0091640325 0.54000002 4286002729
-0.0085951556 -0.0091810022 0.54100001 4288321667
-0.0068506268 -0.0091979736 0.54200006 4287930504
-0.005108993 -0.0092319138 0.54400003 4283179801
-0.0033543666 -0.009265855 0.546 4284098329
-0.0015896444 -0.0093167666 0.54900002 4285611568
0.00019456609 -0.0093676783 0.55200005 4282520328
0.0020018651 -0.0094355596 0.55600005 4283122233
0.0038282992 -0.0094864704 0.55900002 4286615935
0.0056641256 -0.0095204115 0.56100005 4288259733
0.0075129434 -0.0095543526 0.56300002 4282394400
0.0093581602 -0.0095713222 0.56400001 4283640093
0.011209873 -0.0095882928 0.565 4284758572
0.013068085 -0.0096052643 0.56600004 4285482043
-0.017413128 -0.0074369605 0.54200006 4284046912
-0.015594952 -0.0074095177 0.54000002 4281345042
-0.013815399 -0.0073957965 0.53900003 4284234026
-0.012064727 -0.0073957965 0.53900003 4285738787
-0.010314054 -0.0073957965 0.53900003 4285412390
-0.0085792681 -0.0074095177 0.54000002 4287600256
-0.0068506268 -0.0074369605 0.54200006 4285229657
-0.005108993 -0.0074644028 0.54400003 4284297253
-0.0033543666 -0.0074918452 0.546 4285412906
-0.0015896444 -0.0075330096 0.54900002 4282850323
0.00019491857 -0.0075878948 0.55300003 4282463021
0.0020018651 -0.0076290593 0.55600005 4280957487
0.0038351475 -0.007683944 0.56 4287078543
0.0056742216 -0.0077113868 0.56200004 4287735701
0.0075262878 -0.0077388291 0.56400001 4281674527
0.0093747526 -0.0077525503 0.565 4283968288
0.011229715 -0.0077662724 0.56600004 4284493857
0.013068085 -0.0077662724 0.56600004 4287514175
-0.015566073 -0.0056445301 0.53900003 4282131730
-0.013789768 -0.0056340583 0.53800005 4284757029
-0.012042344 -0.0056340583 0.53800005 4285344029
-0.010294919 -0.0056340583 0.53800005 4289361515
-0.0085792681 -0.0056550023 0.54000002 4284169263
-0.0068379869 -0.0056654741 0.54100001 4283574046
-0.005108993 -0.0056968913 0.54400003 4284886562
-0.0033543666 -0.0057178354 0.546 4286859836
-0.0015925398 -0.0057597244 0.55000001 4280685318
0.00019527103 -0.0058016134 0.55400002 4280494876
0.0020054656 -0.0058330302 0.55700004 4279968031
0.0038419964 -0.0058749192 0.56100005 4287340178
0.005684318 -0.0058958633 0.56300002 4287210640
0.0075396323 -0.0059168078 0.565 4281149208
0.009391346 -0.0059272805 0.56600004 4284493603
0.011249555 -0.0059377523 0.56700003 4284820767
0.013091173 -0.0059377523 0.56700003 4287053620
0.014959126 -0.0059482246 0.56800002 4288173900
-0.017316746 -0.0038932641 0.53900003 4281150734
-0.015537194 -0.0038860412 0.53800005 4284431657
-0.013764136 -0.0038788177 0.537 4285018914
-0.012019959 -0.0038788177 0.537 4286461994
-0.010294919 -0.0038860412 0.53800005 4285608484
-0.0085633807 -0.0038932641 0.53900003 4285216556
-0.0068379869 -0.0039077103 0.54100001 4284492833
-0.005108993 -0.0039293799 0.54400003 4284556568
-0.0033605103 -0.0039510494 0.54700005 4284689183
-0.0015925398 -0.0039727185 0.55000001 4285627497
0.00019527103 -0.0040016109 0.55400002 4281879609
0.0020090658 -0.0040305033 0.55800003 4282865224
0.0038488447 -0.0040593962 0.56200004 4285498487
0.0056944145 -0.004073842 0.56400001 4287736471
0.0075529772 -0.0040882886 0.56600004 4281543966
0.0094079375 -0.0040955115 0.56700003 4284098075
0.011269395 -0.0041027348 0.56800002 4284952351
0.013114261 -0.0041027348 0.56800002 4285738017
0.014959126 -0.0041027348 0.56800002 4287053624
-0.017284619 -0.0021380242 0.53800005 4281017359
-0.015508313 -0.00213405 0.537 4285152814
-0.013738505 -0.0021300761 0.53600001 4285543461
-0.011997576 -0.0021300761 0.53600001 4286660143
-0.010275782 -0.00213405 0.537 4283964429
-0.0085633807 -0.0021419981 0.53900003 4284493603
-0.0068379869 -0.0021499461 0.54100001 4284033052
-0.005108993 -0.0021618684 0.54400003 4284951324
-0.0033605103 -0.0021737905 0.54700005 4284428575
-0.0015954353 -0.0021896863 0.551 4281551159
0.00019562351 -0.0022055823 0.55500001 4286817429
0.0020126663 -0.0022214786 0.55900002 4281286706
0.0038556932 -0.0022373747 0.56300002 4286024572
0.005704511 -0.0022453226 0.565 4288260248
0.0075663216 -0.0022532707 0.56700003 4282460191
0.0094411224 -0.0022612188 0.56900001 4284229148
0.011289236 -0.0022612188 0.56900001 4285017630
0.013137349 -0.0022612188 0.56900001 4285280291
-0.019032044 -0.0003900071 0.53800005 4280821517
-0.01725249 -0.00038928216 0.537 4281147148
-0.015479434 -0.00038855724 0.53600001 4285543976
-0.013738505 -0.00038855724 0.53600001 4286133545
-0.011997576 -0.00038855724 0.53600001 4286593069
-0.010275782 -0.00038928216 0.537 4284818455
-0.0085474933 -0.0003900071 0.53800005 4284231458
-0.0068379869 -0.00039218183 0.54100001 4284099358
-0.005108993 -0.00039435661 0.54400003 4285150502
-0.0033605103 -0.00039653137 0.54700005 4283115545
-0.0015954353 -0.00039943101 0.551 4281216804
0.000195976 -0.00040305566 0.55600005 4286547834
0.0020162668 -0.0004059553 0.56 4286218333
0.0038625416 -0.000408855 0.56400001 4281942054
0.0057247039 -0.00041102976 0.56700003 4283188018
0.0075930101 -0.0004124796 0.56900001 4283639839
0.0094577158 -0.00041320454 0.57000005 4284885533
0.011309077 -0.00041320454 0.57000005 4285148703
0.013160438 -0.00041320454 0.57000005 4284302136
-0.018996667 0.0013554858 0.537 4281083665
-0.017220363 0.0013529615 0.53600001 4283381284
-0.015450555 0.0013504374 0.53500003 4285937449
-0.013712874 0.0013504374 0.53500003 4286789932
-0.011997576 0.0013529615 0.53600001 4287511343
-0.010275782 0.0013554858 0.537 4287247655
-0.0085474933 0.00135801 0.53800005 4287513140
-0.0068379869 0.0013655825 0.54100001 4286200362
-0.005108993 0.001373155 0.54400003 4286005813
-0.0033666538 0.0013832519 0.54800004 4283115805
-0.0015983309 0.0013933486 0.55200005 4281083417
0.00019632846 0.0014059695 0.55700004 4282334252
0.0020198673 0.0014160662 0.56100005 4281676308
0.0038693899 0.0014261628 0.565 4282269215
0.0057348004 0.0014337354 0.56800002 4282656278
0.007606355 0.0014387838 0.57000005 4284492320
0.0094908997 0.0014438322 0.57200003 4285475615
0.011328917 0.0014413079 0.57100004 4284621591
-0.018961292 0.0030944804 0.53600001 4281346324
-0.017220363 0.0030944804 0.53600001 4284234538
-0.015450555 0.0030887071 0.53500003 4285805602
-0.013712874 0.0030887071 0.53500003 4286526499
-0.011997576 0.0030944804 0.53600001 4287116069
-0.010275782 0.0031002534 0.537 4287181095
-0.0085633807 0.0031118002 0.53900003 4289289301
-0.0068379869 0.0031233467 0.54100001 4287446579
-0.005118384 0.0031464398 0.54500002 4287188286
-0.0033666538 0.0031637598 0.54800004 4282194443
-0.0016012264 0.0031926262 0.55300003 4280821528
0.00019668094 0.0032214927 0.55800003 4282006827
0.0020234678 0.0032445858 0.56200004 4283914047
0.0038762388 0.0032676789 0.56600004 4282860846
0.0057448968 0.0032849987 0.56900001 4283837724
0.0076330439 0.0033023185 0.57200003 4284951837
0.0095074922 0.0033080918 0.57300001 4285869857
-0.024319436 0.0048630661 0.53900003 4281154091
-0.017188234 0.0048269765 0.53500003 4284234538
-0.015450555 0.0048269765 0.53500003 4285805602
-0.013738505 0.0048359991 0.53600001 4285934875
-0.011997576 0.0048359991 0.53600001 4286393119
-0.010294919 0.0048540439 0.53800005 4287182380
-0.0085633807 0.0048630661 0.53900003 4288960338
-0.0068506268 0.0048901336 0.54200006 4288039747
-0.005118384 0.0049172002 0.54500002 4287448889
-0.0033727973 0.0049532899 0.54900002 4282785295
-0.0016041219 0.0049984017 0.55400002 4279966987
0.0001970334 0.0050435136 0.55900002 4283587653
0.0020270683 0.0050796033 0.56300002 4283522373
0.0038830871 0.005115693 0.56700003 4284967512
0.0057549938 0.0051427605 0.57000005 4284229400
0.0076330439 0.0051608048 0.57200003 4285674018
-0.024274318 0.006602061 0.53800005 4287276431
-0.022443149 0.0065775178 0.53600001 4287670676
-0.020663599 0.0065652463 0.53500003 4284972395
-0.018925916 0.0065652463 0.53500003 4282993213
-0.017188234 0.0065652463 0.53500003 4283249446
-0.015479434 0.0065775178 0.53600001 4284754460
-0.013738505 0.0065775178 0.53600001 4284752662
-0.012019959 0.0065897889 0.537 4285540381
-0.010294919 0.006602061 0.53800005 4286131748
-0.0085792681 0.0066266037 0.54000002 4286984747
-0.0068632662 0.0066634184 0.54300004 4287379757
-0.0051277755 0.0067002326 0.546 4287252278
-0.0033789407 0.0067493184 0.55000001 4281533952
-0.0016070174 0.0068106758 0.55500001 4280426003
0.0001970334 0.0068597621 0.55900002 4281546019
0.0020306688 0.0069211195 0.56400001 4286147931
0.0038899356 0.0069702053 0.56800002 4282460445
0.0057650902 0.0070070201 0.57100004 4285936936
0.0076330439 0.0070192916 0.57200003 4286330151
-0.022401279 0.0083035165 0.53500003 4286684810
-0.020663599 0.0083035165 0.53500003 4286553224
-0.018925916 0.0083035165 0.53500003 4286022775
-0.017220363 0.008319037 0.53600001 4282724649
-0.015479434 0.008319037 0.53600001 4283573014
-0.013764136 0.0083345566 0.537 4283899667
-0.012042344 0.008350078 0.53800005 4284621591
-0.010314054 0.0083655985 0.53900003 4285409824
-0.0085951556 0.0083966395 0.54100001 4286000416
-0.0068759057 0.0084432019 0.54400003 4286393889
-0.0051371674 0.0084897634 0.54700005 4286134828
-0.0033850842 0.0085518453 0.551 4281733129
-0.0016070174 0.0086139282 0.55500001 4281872679
0.00019738587 0.0086915307 0.56 4283381547
0.0020306688 0.0087536136 0.56400001 4286793532
0.0038899356 0.0088156955 0.56800002 4287977554
0.0057549938 0.0088467374 0.57000005 4286723372
0.0076330439 0.0088777784 0.57200003 4287249200
-0.020663599 0.010041786 0.53500003 4286553996
-0.018961292 0.010060555 0.53600001 4287734420
-0.01725249 0.010079325 0.537 4282922287
-0.015508313 0.010079325 0.537 4283770909
-0.013789768 0.010098096 0.53800005 4284033565
-0.012064727 0.010116865 0.53900003 4284558880
-0.010352325 0.010154404 0.54100001 4284624160
-0.0086269304 0.010191943 0.54300004 4285346597
-0.0068885451 0.010229483 0.54500002 4285740840
-0.0051465589 0.010285792 0.54800004 4284559398
-0.0033912279 0.010360871 0.55200005 4282920744
-0.0016099131 0.01043595 0.55600005 4283575846
0.00019738587 0.010511028 0.56 4286070582
0.0020306688 0.010586107 0.56400001 4286790700
0.0038830871 0.010642417 0.56700003 4290607469
0.0057448968 0.010679956 0.56900001 4286592299
0.0076196995 0.010717495 0.57100004 4287053881
-0.020663599 0.011780055 0.53500003 4286553742
-0.018996667 0.011824093 0.537 4287079318
-0.017284619 0.011846112 0.53800005 4282730818
-0.015537194 0.011846112 0.53800005 4284562224
-0.013815399 0.01186813 0.53900003 4284166435
-0.01208711 0.01189015 0.54000002 4284429091
-0.010371461 0.011934187 0.54200006 4283902493
-0.0086428178 0.011978225 0.54400003 4284559657
-0.0069011846 0.012022262 0.546 4284164638
-0.0051559503 0.012088318 0.54900002 4283574300
-0.0033973714 0.012176394 0.55300003 4289568654
-0.0016099131 0.01224245 0.55600005 4283642153
0.00019738587 0.012330525 0.56 4286070068
0.0020270683 0.012396581 0.56300002 4287644980
0.0038762388 0.012462638 0.56600004 4287248682
0.0057348004 0.012506675 0.56800002 4294957764
0.007606355 0.012550713 0.57000005 4291010442
0.0094577158 0.012550713 0.57000005 4288976265
-0.019032044 0.013594129 0.53800005 4286356363
-0.017316746 0.013619397 0.53900003 4287144336
-0.015594952 0.013644664 0.54000002 4284497462
-0.013866662 0.013669931 0.54100001 4284496685
-0.012131878 0.013695201 0.54200006 4283510049
-0.010390596 0.013720469 0.54300004 4288585872
-0.0086587053 0.013771003 0.54500002 4288386186
-0.0069138245 0.01382154 0.54700005 4283312674
-0.0051653418 0.013897343 0.55000001 4284362792
-0.0033973714 0.013973147 0.55300003 4289437581
-0.0016099131 0.014048951 0.55600005 4288259215
0.00019738587 0.014150022 0.56 4284892988
0.0020270683 0.014225826 0.56300002 4287116842
0.0038693899 0.014276361 0.565 4287970865
0.0057348004 0.014352165 0.56800002 4287773747
0.0075930101 0.014377433 0.56900001 4287971899
0.0094411224 0.014377433 0.56900001 4285807410
-0.019032044 0.015342146 0.53800005 4286356876
-0.017380999 0.015427697 0.54100001 4286686095
-0.015623831 0.015427697 0.54100001 4283185200
-0.013892295 0.015456215 0.54200006 4284101673
-0.012154262 0.015484732 0.54300004 4282787614
-0.010409731 0.015513248 0.54400003 4288191887
-0.0086587053 0.015541765 0.54500002 4287801494
-0.0069138245 0.0155988 0.54700005 4283451711
-0.0051653418 0.015684349 0.55000001 4283968806
-0.0033973714 0.015769901 0.55300003 4288905593
-0.0016099131 0.015855452 0.55600005 4289963925
0.0001970334 0.015941003 0.55900002 4285676848
0.0020234678 0.016026555 0.56200004 4287248176
0.0038693899 0.016112104 0.565 4287773232
0.0057247039 0.016169138 0.56700003 4287970863
0.0075796656 0.016197655 0.56800002 4287707691
0.0094411224 0.016226172 0.56900001 4287381815
-0.017445255 0.017248994 0.54300004 4286685328
-0.015681591 0.017248994 0.54300004 4286545265
-0.013917926 0.017248994 0.54300004 4283444774
-0.012176645 0.017280761 0.54400003 4285152308
-0.010428866 0.017312527 0.54500002 4289438353
-0.0086745927 0.017344292 0.546 4287276431
-0.0069264639 0.017407825 0.54800004 4286090361
-0.0051653418 0.017471356 0.55000001 4283575333
-0.0033973714 0.017566655 0.55300003 4285610549
-0.0016099131 0.017661953 0.55600005 4286593073
0.0001970334 0.017757252 0.55900002 4287973693
0.0020234678 0.01785255 0.56200004 4290537305
0.0038625416 0.017916081 0.56400001 4287773484
0.0057146079 0.017979614 0.56600004 4287510827
0.0075663216 0.01801138 0.56700003 4286656288
-0.017477384 0.019048272 0.54400003 4286685841
-0.015710471 0.019048272 0.54400003 4288523420
-0.013943558 0.019048272 0.54400003 4282922026
-0.012199028 0.019083286 0.54500002 4284692011
-0.010448002 0.019118302 0.546 4286601809
-0.0086904811 0.019153317 0.54700005 4287736723
-0.0069264639 0.019188333 0.54800004 4287802262
-0.0051653418 0.019258361 0.55000001 4287064409
-0.0033973714 0.019363409 0.55300003 4285280554
-0.0016070174 0.019433439 0.55500001 4287380786
0.00019668094 0.019538485 0.55800003 4287643183
0.0020198673 0.01964353 0.56100005 4287906612
0.0038556932 0.01971356 0.56300002 4285999131
0.005704511 0.01978359 0.565 4285936938
0.0075529772 0.019818606 0.56600004 4285740842
-0.0193858 0.02096884 0.54800004 4286751634
-0.017541638 0.020892311 0.546 4286751634
-0.015768228 0.020892311 0.546 4287736471
-0.013994819 0.020892311 0.546 4282070312
-0.012221412 0.020892311 0.546 4284429609
-0.010448002 0.020892311 0.546 4285152048
-0.0086904811 0.020930577 0.54700005 4283901991
-0.0069391034 0.021007104 0.54900002 4284165933
-0.0051653418 0.021045368 0.55000001 4285937201
-0.0033912279 0.021121899 0.55200005 4291527553
-0.0016070174 0.02123669 0.55500001 4289025611
0.00019632846 0.021313218 0.55700004 4287248428
0.0020162668 0.021428011 0.56 4284755492
0.0038556932 0.021542804 0.56300002 4284101673
0.005704511 0.021619331 0.565 4283580217
-0.019421173 0.02279086 0.54900002 4286620048
-0.017573766 0.022707835 0.54700005 4286949013
-0.01579711 0.022707835 0.54700005 4287014293
-0.014020452 0.022707835 0.54700005 4282797633
-0.012243796 0.022707835 0.54700005 4284297769
-0.010467138 0.022707835 0.54700005 4285019949
-0.0087063685 0.022749348 0.54800004 4284885796
-0.0069391034 0.02279086 0.54900002 4285148455
-0.0051653418 0.022832373 0.55000001 4286066984
-0.0033912279 0.022915402 0.55200005 4286921266
-0.0016041219 0.022998428 0.55400002 4287117362
0.000195976 0.023081455 0.55600005 4285803555
0.0020162668 0.023247506 0.56 4288655258
-0.019421173 0.024574617 0.54900002 4287146392
-0.017605893 0.024529856 0.54800004 4286883220
-0.01579711 0.024485094 0.54700005 4287014808
-0.014020452 0.024485094 0.54700005 4285234802
-0.012243796 0.024485094 0.54700005 4284166187
-0.010486274 0.024529856 0.54800004 4284493864
-0.0087063685 0.024529856 0.54800004 4284097564
-0.0069391034 0.024574617 0.54900002 4284359450
-0.0051653418 0.02461938 0.55000001 4285476900
-0.0033850842 0.024664141 0.551 4285739559
-0.0016012264 0.024753667 0.55300003 4286266418
0.00019527103 0.024798431 0.55400002 4286074695
-0.019421173 0.026358377 0.54900002 4287080086
-0.017605893 0.026310366 0.54800004 4287080086
-0.015825989 0.026310366 0.54800004 4287211672
-0.014046083 0.026310366 0.54800004 4287604887
-0.01226618 0.026310366 0.54800004 4284366653
-0.010486274 0.026310366 0.54800004 4284299315
-0.0087063685 0.026310366 0.54800004 4284625966
-0.0069391034 0.026358377 0.54900002 4285086515
-0.0051653418 0.026406387 0.55000001 4285415220
-0.0033850842 0.026454398 0.551 4285020462
-0.0016012264 0.026550423 0.55300003 4284634442
-0.01763802 0.028142134 0.54900002 4287408281
-0.015825989 0.028090874 0.54800004 4287343258
-0.014046083 0.028090874 0.54800004 4287474844
-0.01226618 0.028090874 0.54800004 4286614910
-0.010486274 0.028090874 0.54800004 4283321410
-0.0087222559 0.028142134 0.54900002 4283713858
-0.0069517428 0.028193394 0.55000001 4284371018
-0.0051653418 0.028193394 0.55000001 4285492068
-0.0033850842 0.028244654 0.551 4287929235
-0.0069517428 0.029980399 0.55000001 4287475098
-0.0051653418 0.029980399 0.55000001 4287539867
-0.00085017085 -0.00036254153 0.55431026 4294967295
-0.00085017085 -0.00036254153 0.55431026 4294901760
-0.00085017085 -0.0008538703 0.55421758 4294901760
-0.00085017085 -0.0013451991 0.55412483 4294901760
-0.00085017085 -0.0018365278 0.55403215 4294901760
-0.00085017085 -0.0023278566 0.5539394 4294901760
-0.00085017085 -0.0028191856 0.55384672 4294901760
-0.00085017085 -0.0033105141 0.55375397 4294901760
-0.00085017085 -0.0038018432 0.55366129 4294901760
-0.00085017085 -0.0042931717 0.55356854 4294901760
-0.00085017085 -0.0047845007 0.55347586 4294901760
-0.00085017085 -0.0052758297 0.55338311 4294901760
-0.00085017085 -0.0057671582 0.55329043 4294901760
-0.00085017085 -0.0062584868 0.55319768 4294901760
-0.00085017085 -0.0067498158 0.553105 4294901760
-0.00085017085 -0.0072411448 0.55301225 4294901760
-0.00085017085 -0.0077324738 0.55291957 4294901760
-0.00085017085 -0.0082238019 0.55282682 4294901760
-0.00085017085 -0.0087151313 0.55273414 4294901760
-0.00085017085 -0.0092064599 0.55264139 4294901760
-0.00085017085 -0.0096977884 0.55254871 4294901760
-0.00085017085 -0.010189118 0.55245596 4294901760
-0.00085017085 -0.010680446 0.55236328 4294901760
-0.00085017085 -0.011171775 0.55227053 4294901760
-0.00085017085 -0.011663104 0.55217785 4294901760
-0.00085017085 -0.012154432 0.5520851 4294901760
-0.00085017085 -0.012645761 0.55199242 4294901760
-0.00085017085 -0.01313709 0.55189967 4294901760
-0.00085017085 -0.013628419 0.55180699 4294901760
-0.00085017085 -0.014119748 0.55171424 4294901760
-0.00085017085 -0.014611077 0.55162156 4294901760
-0.00085017085 -0.015102406 0.55152881 4294901760
-0.00085017085 -0.015593735 0.55143613 4294901760
-0.00085017085 -0.016085062 0.55134338 4294901760
-0.00085017085 -0.016576393 0.5512507 4294901760
-0.00085017085 -0.017067721 0.55115795 4294901760
-0.00085017085 -0.01755905 0.55106527 4294901760
-0.00085017085 -0.018050378 0.55097252 4294901760
-0.00085017085 -0.018541707 0.55087984 4294901760
-0.00085017085 -0.019033035 0.55078709 4294901760
-0.00085017085 -0.019524364 0.55069441 4294901760
-0.00085017085 -0.020015694 0.55060166 4294901760
-0.00085017085 -0.020507023 0.55050898 4294901760
-0.00085017085 -0.020998351 0.55041623 4294901760
-0.00085017085 -0.02148968 0.55032355 4294901760
-0.00085017085 -0.021981008 0.5502308 4294901760
-0.00085017085 -0.022472337 0.55013812 4294901760
-0.00085017085 -0.022963667 0.55004537 4294901760
-0.00085017085 -0.023454996 0.54995269 4294901760
-0.00085017085 -0.023946323 0.54985994 4294901760
-0.00085017085 -0.024437653 0.54976726 4294901760
-0.00085017085 -0.024928981 0.54967451 4294901760
-0.00085017085 -0.02542031 0.54958183 4294901760
-0.00085017085 -0.025911639 0.54948914 4294901760
-0.00085017085 -0.026402967 0.5493964 4294901760
-0.00085017085 -0.026894297 0.54930371 4294901760
-0.00085017085 -0.027385626 0.54921097 4294901760
-0.00085017085 -0.027876955 0.54911828 4294901760
-0.00085017085 -0.028368283 0.54902554 4294901760
-0.00085017085 -0.028859612 0.54893285 4294901760
-0.00085017085 -0.02935094 0.54884011 4294901760
-0.00085017085 -0.029842271 0.54874742 4294901760
-0.00085017085 -0.030333599 0.54865468 4294901760
-0.00085017085 -0.030824928 0.54856199 4294901760
-0.00085017085 -0.031316258 0.54846925 4294901760
-0.00085017085 -0.031807583 0.54837656 4294901760
-0.00085017085 -0.032298911 0.54828382 4294901760
-0.00085017085 -0.032790244 0.54819113 4294901760
-0.00085017085 -0.033281572 0.54809839 4294901760
-0.00085017085 -0.033772901 0.5480057 4294901760
-0.00085017085 -0.034264229 0.54791296 4294901760
-0.00085017085 -0.034755558 0.54782027 4294901760
-0.00085017085 -0.035246886 0.54772753 4294901760
-0.00085017085 -0.035738215 0.54763484 4294901760
-0.00085017085 -0.036229543 0.5475421 4294901760
-0.00085017085 -0.036720872 0.54744941 4294901760
-0.00085017085 -0.0372122 0.54735667 4294901760
-0.00085017085 -0.037703529 0.54726398 4294901760
-0.00085017085 -0.038194858 0.54717124 4294901760
-0.00085017085 -0.038686186 0.54707855 4294901760
-0.00085017085 -0.039177518 0.54698581 4294901760
-0.00085017085 -0.039668847 0.54689312 4294901760
-0.00085017085 -0.040160175 0.54680037 4294901760
-0.00085017085 -0.040651504 0.54670769 4294901760
-0.00085017085 -0.041142832 0.54661494 4294901760
-0.00085017085 -0.041634161 0.54652226 4294901760
-0.00085017085 -0.04212549 0.54642951 4294901760
-0.00085017085 -0.042616818 0.54633683 4294901760
-0.00085017085 -0.043108147 0.54624408 4294901760
-0.00085017085 -0.043599475 0.5461514 4294901760
-0.00085017085 -0.044090804 0.54605865 4294901760
-0.00085017085 -0.044582132 0.54596597 4294901760
-0.00085017085 -0.045073465 0.54587322 4294901760
-0.00085017085 -0.045564793 0.54578054 4294901760
-0.00085017085 -0.046056122 0.54568779 4294901760
-0.00085017085 -0.04654745 0.54559511 4294901760
-0.00085017085 -0.047038775 0.54550236 4294901760
-0.00085017085 -0.047530103 0.54540968 4294901760
-0.00085017085 -0.048021436 0.54531693 4294901760
-0.00085017085 -0.048512764 0.54522425 4294901760
-0.00085017085 -0.049004093 0.5451315 4294901760
-0.00085017085 -0.049495421 0.54503882 4294901760
-0.00085017085 -0.00036254153 0.55431026 4278255360
-0.00054580055 -0.00043609855 0.55470008 4278255360
-0.0002414303 -0.00050965557 0.55508989 4278255360
6.2939944e-05 -0.00058321259 0.55547971 4278255360
0.00036731025 -0.00065676955 0.55586946 4278255360
0.00067168055 -0.00073032663 0.55625927 4278255360
0.00097605074 -0.00080388359 0.55664909 4278255360
0.0012804212 -0.00087744062 0.5570389 4278255360
0.0015847913 -0.00095099758 0.55742872 4278255360
0.0018891618 -0.0010245547 0.55781853 4278255360
0.002193532 -0.0010981117 0.55820835 4278255360
0.0024979021 -0.0011716686 0.5585981 4278255360
0.0028022723 -0.0012452257 0.55898792 4278255360
0.0031066425 -0.0013187826 0.55937773 4278255360
0.0034110132 -0.0013923397 0.55976754 4278255360
0.0037153834 -0.0014658967 0.56015736 4278255360
0.0040197535 -0.0015394536 0.56054717 4278255360
0.0043241242 -0.0016130108 0.56093693 4278255360
0.0046284944 -0.0016865678 0.56132674 4278255360
0.0049328646 -0.0017601247 0.56171656 4278255360
0.0052372348 -0.0018336818 0.56210637 4278255360
0.0055416049 -0.0019072387 0.56249619 4278255360
0.0058459751 -0.0019807958 0.562886 4278255360
0.0061503458 -0.0020543528 0.56327581 4278255360
0.0064547155 -0.0021279098 0.56366557 4278255360
0.0067590862 -0.0022014668 0.56405538 4278255360
0.0070634559 -0.0022750236 0.5644452 4278255360
0.007367827 -0.0023485809 0.56483501 4278255360
0.0076721972 -0.0024221379 0.56522483 4278255360
0.0079765674 -0.0024956949 0.56561464 4278255360
0.0082809376 -0.0025692519 0.5660044 4278255360
0.0085853077 -0.0026428089 0.56639421 4278255360
0.0088896779 -0.0027163657 0.56678402 4278255360
0.0091940491 -0.002789923 0.56717384 4278255360
0.0094984192 -0.00286348 0.56756365 4278255360
0.0098027885 -0.0029370368 0.56795347 4278255360
0.01010716 -0.0030105941 0.56834328 4278255360
0.01041153 -0.0030841511 0.56873304 4278255360
0.0107159 -0.0031577079 0.56912285 4278255360
0.011020269 -0.0032312649 0.56951267 4278255360
0.01132464 -0.0033048221 0.56990248 4278255360
0.011629011 -0.0033783789 0.57029229 4278255360
0.011933381 -0.0034519359 0.57068211 4278255360
0.012237752 -0.0035254932 0.57107192 4278255360
0.012542121 -0.00359905 0.57146168 4278255360
0.012846491 -0.003672607 0.57185149 4278255360
0.013150862 -0.003746164 0.57224131 4278255360
0.013455233 -0.0038197211 0.57263112 4278255360
0.013759602 -0.0038932781 0.57302094 4278255360
0.014063973 -0.0039668353 0.57341075 4278255360
0.014368343 -0.0040403921 0.57380056 4278255360
0.014672713 -0.0041139489 0.57419032 4278255360
0.014977083 -0.0041875057 0.57458013 4278255360
0.015281454 -0.0042610629 0.57496995 4278255360
0.015585825 -0.0043346202 0.57535976 4278255360
0.015890194 -0.0044081775 0.57574958 4278255360
0.016194565 -0.0044817342 0.57613939 4278255360
0.016498934 -0.004555291 0.57652915 4278255360
0.016803306 -0.0046288483 0.57691896 4278255360
0.017107675 -0.0047024051 0.57730877 4278255360
0.017412046 -0.0047759623 0.57769859 4278255360
0.017716417 -0.0048495196 0.5780884 4278255360
0.018020786 -0.0049230764 0.57847822 4278255360
0.018325157 -0.0049966332 0.57886803 4278255360
0.018629527 -0.0050701899 0.57925779 4278255360
0.018933896 -0.0051437472 0.5796476 4278255360
0.019238269 -0.0052173045 0.58003742 4278255360
0.019542638 -0.0052908612 0.58042723 4278255360
0.019847009 -0.0053644185 0.58081704 4278255360
0.020151379 -0.0054379753 0.58120686 4278255360
0.020455748 -0.0055115321 0.58159661 4278255360
0.020760119 -0.0055850893 0.58198643 4278255360
0.02106449 -0.0056586466 0.58237624 4278255360
0.021368859 -0.0057322034 0.58276606 4278255360
0.02167323 -0.0058057606 0.58315587 4278255360
0.0219776 -0.0058793174 0.58354568 4278255360
0.022281971 -0.0059528742 0.5839355 4278255360
0.02258634 -0.0060264315 0.58432525 4278255360
0.022890709 -0.0060999882 0.58471507 4278255360
0.023195082 -0.0061735455 0.58510488 4278255360
0.023499452 -0.0062471027 0.5854947 4278255360
0.023803823 -0.0063206595 0.58588451 4278255360
0.024108192 -0.0063942163 0.58627433 4278255360
0.024412561 -0.0064677736 0.58666414 4278255360
0.024716932 -0.0065413304 0.58705389 4278255360
0.025021303 -0.0066148876 0.58744371 4278255360
0.025325675 -0.0066884449 0.58783352 4278255360
0.025630044 -0.0067620017 0.58822334 4278255360
0.025934413 -0.0068355585 0.58861315 4278255360
0.026238784 -0.0069091152 0.58900297 4278255360
0.026543153 -0.0069826725 0.58939278 4278255360
0.026847525 -0.0070562297 0.58978254 4278255360
0.027151896 -0.0071297865 0.59017235 4278255360
0.027456265 -0.0072033438 0.59056216 4278255360
0.027760636 -0.0072769006 0.59095198 4278255360
0.028065005 -0.0073504574 0.59134179 4278255360
0.028369375 -0.0074240146 0.59173161 4278255360
0.028673748 -0.0074975719 0.59212136 4278255360
0.028978117 -0.0075711287 0.59251118 4278255360
0.029282488 -0.0076446859 0.59290099 4278255360
0.029586857 -0.0077182427 0.59329081 4278255360
-0.00085017085 -0.00036254153 0.55431026 4278190335
-0.0012468555 -0.00041898072 0.55460936 4278190335
-0.0016435401 -0.00047541992 0.55490845 4278190335
-0.0020402248 -0.00053185911 0.55520755 4278190335
-0.0024369094 -0.00058829831 0.55550665 4278190335
-0.0028335943 -0.00064473751 0.55580574 4278190335
-0.0032302788 -0.0007011767 0.55610484 4278190335
-0.0036269636 -0.0007576159 0.55640393 4278190335
-0.0040236479 -0.00081405509 0.55670297 4278190335
-0.0044203331 -0.00087049435 0.55700207 4278190335
-0.0048170178 -0.00092693354 0.55730116 4278190335
-0.0052137021 -0.0009833728 0.55760026 4278190335
-0.0056103868 -0.0010398119 0.55789936 4278190335
-0.0060070716 -0.0010962512 0.55819845 4278190335
-0.0064037563 -0.0011526903 0.55849755 4278190335
-0.0068004411 -0.0012091296 0.55879664 4278190335
-0.0071971253 -0.0012655687 0.55909574 4278190335
-0.0075938101 -0.001322008 0.55939484 4278190335
-0.0079904953 -0.0013784472 0.55969393 4278190335
-0.00838718 -0.0014348864 0.55999303 4278190335
-0.0087838648 -0.0014913256 0.56029212 4278190335
-0.0091805486 -0.0015477648 0.56059122 4278190335
-0.0095772333 -0.0016042039 0.56089026 4278190335
-0.0099739181 -0.0016606431 0.56118935 4278190335
-0.010370603 -0.0017170823 0.56148845 4278190335
-0.010767288 -0.0017735215 0.56178755 4278190335
-0.011163972 -0.0018299607 0.56208664 4278190335
-0.011560657 -0.0018864 0.56238574 4278190335
-0.011957342 -0.0019428391 0.56268483 4278190335
-0.012354026 -0.0019992783 0.56298393 4278190335
-0.012750711 -0.0020557176 0.56328303 4278190335
-0.013147396 -0.0021121567 0.56358212 4278190335
-0.01354408 -0.0021685958 0.56388122 4278190335
-0.013940766 -0.0022250353 0.56418031 4278190335
-0.014337449 -0.0022814744 0.56447941 4278190335
-0.014734134 -0.0023379135 0.56477851 4278190335
-0.01513082 -0.0023943528 0.56507754 4278190335
-0.015527504 -0.0024507919 0.56537664 4278190335
-0.015924189 -0.0025072312 0.56567574 4278190335
-0.016320873 -0.0025636703 0.56597483 4278190335
-0.016717559 -0.0026201096 0.56627393 4278190335
-0.017114243 -0.0026765487 0.56657302 4278190335
-0.017510926 -0.002732988 0.56687212 4278190335
-0.017907612 -0.0027894273 0.56717122 4278190335
-0.018304296 -0.0028458664 0.56747031 4278190335
-0.01870098 -0.0029023055 0.56776941 4278190335
-0.019097665 -0.0029587448 0.5680685 4278190335
-0.019494351 -0.0030151838 0.5683676 4278190335
-0.019891035 -0.0030716232 0.5686667 4278190335
-0.02028772 -0.0031280625 0.56896579 4278190335
-0.020684404 -0.0031845015 0.56926489 4278190335
-0.021081088 -0.0032409406 0.56956393 4278190335
-0.021477774 -0.0032973799 0.56986302 4278190335
-0.021874458 -0.003353819 0.57016212 4278190335
-0.022271143 -0.0034102586 0.57046121 4278190335
-0.022667829 -0.0034666976 0.57076031 4278190335
-0.023064513 -0.0035231367 0.57105941 4278190335
-0.023461197 -0.0035795758 0.5713585 4278190335
-0.02385788 -0.0036360151 0.5716576 4278190335
-0.024254566 -0.0036924542 0.57195669 4278190335
-0.024651252 -0.0037488937 0.57225579 4278190335
-0.025047936 -0.0038053328 0.57255489 4278190335
-0.025444621 -0.0038617719 0.57285398 4278190335
-0.025841305 -0.003918211 0.57315308 4278190335
-0.026237989 -0.0039746501 0.57345212 4278190335
-0.026634673 -0.0040310891 0.57375121 4278190335
-0.02703136 -0.0040875291 0.57405031 4278190335
-0.027428044 -0.0041439682 0.5743494 4278190335
-0.027824728 -0.0042004073 0.5746485 4278190335
-0.028221413 -0.0042568464 0.5749476 4278190335
-0.028618097 -0.0043132855 0.57524669 4278190335
-0.029014781 -0.0043697245 0.57554579 4278190335
-0.029411469 -0.0044261641 0.57584488 4278190335
-0.029808152 -0.0044826032 0.57614398 4278190335
-0.030204836 -0.0045390422 0.57644308 4278190335
-0.03060152 -0.0045954818 0.57674217 4278190335
-0.030998206 -0.0046519209 0.57704127 4278190335
-0.031394891 -0.0047083599 0.57734036 4278190335
-0.031791575 -0.004764799 0.57763946 4278190335
-0.032188259 -0.0048212386 0.5779385 4278190335
-0.032584947 -0.0048776777 0.57823759 4278190335
-0.03298163 -0.0049341167 0.57853669 4278190335
-0.033378314 -0.0049905558 0.57883579 4278190335
-0.033774998 -0.0050469949 0.57913488 4278190335
-0.034171682 -0.0051034344 0.57943398 4278190335
-0.034568369 -0.0051598735 0.57973307 4278190335
-0.034965053 -0.0052163131 0.58003217 4278190335
-0.035361737 -0.0052727521 0.58033127 4278190335
-0.035758421 -0.0053291912 0.58063036 4278190335
-0.036155105 -0.0053856303 0.58092946 4278190335
-0.036551788 -0.0054420694 0.58122855 4278190335
-0.036948476 -0.0054985089 0.58152765 4278190335
-0.03734516 -0.005554948 0.58182675 4278190335
-0.037741844 -0.0056113871 0.58212578 4278190335
-0.038138531 -0.0056678262 0.58242488 4278190335
-0.038535215 -0.0057242657 0.58272398 4278190335
-0.038931899 -0.0057807048 0.58302307 4278190335
-0.039328586 -0.0058371443 0.58332217 4278190335
-0.03972527 -0.0058935834 0.58362126 4278190335
-0.040121954 -0.0059500225 0.58392036 4278190335
-0.040518638 -0.0060064616 0.58421946 4278190335
-0.00085017085 -0.00036254153 0.55431026 4294967295
-5.680148e-05 -0.00024966314 0.55371207 4294967295
0.00073656789 -0.00013678471 0.55311388 4294967295
0.0015299374 -2.3906294e-05 0.55251569 4294967295
0.0023233066 8.8972098e-05 0.55191755 4294967295
0.0031166761 0.00020185055 0.55131936 4294967295
0.0039100456 0.00031472894 0.55072117 4294967295
0.0047034151 0.00042760733 0.55012298 4294967295
0.0054967841 0.00054048572 0.54952478 4294967295
0.0062901541 0.00065336423 0.54892659 4294967295
0.0070835231 0.00076624262 0.5483284 4294967295
0.0078768926 0.00087912101 0.54773027 4294967295
0.0086702621 0.0009919994 0.54713207 4294967295
0.0094636315 0.0011048778 0.54653388 4294967295
0.010257001 0.0012177562 0.54593569 4294967295
0.011050371 0.0013306347 0.5453375 4294967295
0.011843739 0.001443513 0.54473931 4294967295
0.012637109 0.0015563915 0.54414111 4294967295
0.013430479 0.00166927 0.54354298 4294967295
0.014223848 0.0017821481 0.54294479 4294967295
0.015017217 0.0018950268 0.5423466 4294967295
0.015810587 0.0020079049 0.5417484 4294967295
0.016603956 0.0021207836 0.54115021 4294967295
0.017397325 0.0022336619 0.54055202 4294967295
0.018190695 0.0023465403 0.53995383 4294967295
0.018984064 0.0024594187 0.5393557 4294967295
0.019777434 0.0025722971 0.5387575 4294967295
0.020570803 0.0026851757 0.53815931 4294967295
0.021364173 0.0027980539 0.53756112 4294967295
0.022157541 0.0029109323 0.53696293 4294967295
0.022950912 0.0030238109 0.53636473 4294967295
0.023744281 0.0031366893 0.5357666 4294967295
0.024537649 0.0032495675 0.53516841 4294967295
0.02533102 0.0033624461 0.53457022 4294967295
0.02612439 0.0034753245 0.53397202 4294967295
0.026917757 0.0035882029 0.53337383 4294967295
0.027711129 0.0037010815 0.53277564 4294967295
0.028504498 0.0038139597 0.53217745 4294967295
0.029297866 0.0039268378 0.53157926 4294967295
0.030091235 0.0040397164 0.53098112 4294967295
0.030884605 0.0041525951 0.53038293 4294967295
0.031677976 0.0042654732 0.52978474 4294967295
0.032471344 0.0043783514 0.52918655 4294967295
0.033264715 0.00449123 0.52858835 4294967295
0.034058083 0.0046041086 0.52799016 4294967295
0.03485145 0.0047169868 0.52739203 4294967295
0.035644822 0.0048298654 0.52679384 4294967295
0.036438193 0.0049427436 0.52619565 4294967295
0.037231561 0.0050556222 0.52559745 4294967295
0.038024932 0.0051685008 0.52499926 4294967295
0.0388183 0.005281379 0.52440107 4294967295
0.039611667 0.0053942571 0.52380288 4294967295
0.040405039 0.0055071358 0.52320474 4294967295
0.041198406 0.0056200139 0.52260655 4294967295
0.041991778 0.005732893 0.52200836 4294967295
0.042785149 0.0058457712 0.52141017 4294967295
0.043578517 0.0059586493 0.52081198 4294967295
0.044371884 0.006071528 0.52021378 4294967295
0.045165252 0.0061844061 0.51961559 4294967295
0.045958623 0.0062972843 0.51901746 4294967295
0.046751995 0.0064101634 0.51841927 4294967295
0.047545366 0.0065230415 0.51782107 4294967295
0.048338734 0.0066359201 0.51722288 4294967295
0.049132101 0.0067487983 0.51662469 4294967295
0.049925469 0.0068616765 0.5160265 4294967295
0.05071884 0.0069745551 0.5154283 4294967295
0.051512212 0.0070874337 0.51483017 4294967295
0.052305583 0.0072003123 0.51423198 4294967295
0.053098951 0.0073131905 0.51363379 4294967295
0.053892318 0.0074260687 0.5130356 4294967295
0.054685686 0.0075389473 0.5124374 4294967295
0.055479057 0.0076518254 0.51183921 4294967295
0.056272428 0.0077647045 0.51124102 4294967295
0.057065796 0.0078775827 0.51064289 4294967295
0.057859167 0.0079904608 0.51004469 4294967295
0.058652535 0.008103339 0.5094465 4294967295
0.059445903 0.0082162172 0.50884831 4294967295
0.060239274 0.0083290963 0.50825012 4294967295
0.061032642 0.0084419744 0.50765193 4294967295
0.061826013 0.0085548535 0.50705373 4294967295
0.062619381 0.0086677317 0.5064556 4294967295
0.063412748 0.0087806098 0.50585741 4294967295
0.064206123 0.008893488 0.50525922 4294967295
0.064999491 0.0090063661 0.50466102 4294967295
0.065792859 0.0091192443 0.50406283 4294967295
0.066586234 0.0092321234 0.50346464 4294967295
0.067379601 0.0093450015 0.50286645 4294967295
0.068172969 0.0094578806 0.50226831 4294967295
0.068966337 0.0095707588 0.50167012 4294967295
0.069759704 0.0096836369 0.50107193 4294967295
0.070553072 0.0097965151 0.50047374 4294967295
0.071346447 0.0099093942 0.49987555 4294967295
0.072139814 0.010022272 0.49927738 4294967295
0.072933182 0.010135151 0.49867919 4294967295
0.073726557 0.010248029 0.498081 4294967295
0.074519925 0.010360908 0.49748284 4294967295
0.075313292 0.010473786 0.49688464 4294967295
0.076106668 0.010586665 0.49628645 4294967295
0.076900035 0.010699543 0.49568826 4294967295
0.077693403 0.010812421 0.4950901 4294967295
0.07848677 0.010925299 0.4944919 4294967295
