# .PCD v0.7 - Point Cloud Data file format
VERSION 0.7
FIELDS x y z rgb
SIZE 4 4 4 4
TYPE F F F U
COUNT 1 1 1 1
WIDTH 1056
HEIGHT 1
VIEWPOINT 0 0 0 1 0 0 0
POINTS 1056
DATA ascii
0.033949621 0.037965868 0.33600003 4280756255
0.040722482 0.037174914 0.32900003 4282456848
0.041791074 0.037174914 0.32900003 4281344529
0.04285967 0.037174914 0.32900003 4280951054
0.043928262 0.037174914 0.32900003 4281610263
0.04499685 0.037174914 0.32900003 4281938715
0.046065446 0.037174914 0.32900003 4283440915
0.047134038 0.037174914 0.32900003 4284095765
0.048056118 0.037061919 0.32800001 4282849291
0.0092967805 0.041033693 0.35300002 4285692525
0.023790497 0.040336236 0.347 4280295707
0.024773939 0.040103752 0.34500003 4282337597
0.025819439 0.039987508 0.34400001 4283852115
0.026858451 0.039871268 0.34300002 4283852369
0.02789096 0.03975502 0.34200001 4283654475
0.028916979 0.03963878 0.34100002 4293787628
0.029936496 0.039522536 0.34 4282600254
0.03094952 0.039406296 0.33900002 4280230168
0.031956051 0.039290052 0.33800003 4279178766
0.033053875 0.039290052 0.33800003 4282731070
0.033949621 0.039057568 0.33600003 4282008117
0.035145234 0.039173808 0.33700001 4280097040
0.040722482 0.038243867 0.32900003 4282323463
0.041791074 0.038243867 0.32900003 4281870873
0.04285967 0.038243867 0.32900003 4280556298
0.043928262 0.038243867 0.32900003 4281149460
0.04499685 0.038243867 0.32900003 4280885773
0.046065446 0.038243867 0.32900003 4283178770
0.046990775 0.038127623 0.32800001 4283964692
0.048056118 0.038127623 0.32800001 4283111180
0.049121458 0.038127623 0.32800001 4282522125
0.023721937 0.041344184 0.34600002 4282731840
0.024773939 0.041224692 0.34500003 4283653453
0.025744384 0.040985707 0.34300002 4282204456
0.026780145 0.040866215 0.34200001 4284243255
0.027809409 0.040746726 0.34100002 4285952326
0.028832177 0.04062723 0.34 4284242235
0.029936496 0.04062723 0.34 4283454793
0.03094952 0.040507741 0.33900002 4280230166
0.031956051 0.040388249 0.33800003 4282206011
0.033053875 0.040388249 0.33800003 4278981641
0.034050658 0.040268756 0.33700001 4282206777
0.035145234 0.040268756 0.33700001 4280099350
0.037516706 0.039312821 0.32900003 4282258440
0.040722482 0.039312821 0.32900003 4282717194
0.041791074 0.039312821 0.32900003 4281803797
0.04285967 0.039312821 0.32900003 4280555528
0.043928262 0.039312821 0.32900003 4280623118
0.04499685 0.039312821 0.32900003 4280819984
0.046065446 0.039312821 0.32900003 4282719502
0.046990775 0.039193328 0.32800001 4284031253
0.049121458 0.039193328 0.32800001 4282718991
0.017273521 0.043204818 0.35200003 4288057991
0.018416816 0.043204818 0.35200003 4287602832
0.022663439 0.04259111 0.347 4282268209
0.023721937 0.042468373 0.34600002 4283062086
0.024702128 0.042222891 0.34400001 4282205746
0.025744384 0.04210015 0.34300002 4282006039
0.026780145 0.041977406 0.34200001 4288780653
0.027809409 0.041854668 0.34100002 4292855958
0.028832177 0.041731924 0.34 4285686074
0.029848449 0.041609187 0.33900002 4282797115
0.03094952 0.041609187 0.33900002 4280099352
0.031956051 0.041486446 0.33800003 4282140216
0.033053875 0.041486446 0.33800003 4279047945
0.034050658 0.041363701 0.33700001 4278652422
0.035145234 0.041363701 0.33700001 4281810740
0.037516706 0.040381778 0.32900003 4282062605
0.040722482 0.040381778 0.32900003 4282913549
0.041791074 0.040381778 0.32900003 4281738006
0.04285967 0.040381778 0.32900003 4280357895
0.043928262 0.040381778 0.32900003 4280161800
0.04499685 0.040381778 0.32900003 4280622351
0.046065446 0.040381778 0.32900003 4282523408
0.046990775 0.040259033 0.32800001 4283834390
0.049121458 0.040259033 0.32800001 4282980625
0.018364497 0.044222515 0.35100001 4287472529
0.019504545 0.044222515 0.35100001 4287209105
0.020585777 0.044096526 0.35000002 4287734936
0.021598449 0.043844543 0.34800002 4282336314
0.022663439 0.04371855 0.347 4283454793
0.023653379 0.043466575 0.34500003 4282602302
0.024702128 0.043340582 0.34400001 4281152540
0.025669327 0.043088604 0.34200001 4282532383
0.026701842 0.042962614 0.34100002 4282400281
0.027727855 0.042836621 0.34 4282661402
0.028832177 0.042836621 0.34 4283451690
0.029848449 0.042710632 0.33900002 4282139183
0.03094952 0.042710632 0.33900002 4281811251
0.031956051 0.042584646 0.33800003 4280495393
0.033053875 0.042584646 0.33800003 4280627495
0.034050658 0.042458653 0.33700001 4281087017
0.035145234 0.042458653 0.33700001 4281154093
0.036132276 0.042332664 0.33600003 4280031245
0.037223604 0.042332664 0.33600003 4281936414
0.037516706 0.041450735 0.32900003 4282064402
0.038585298 0.041450735 0.32900003 4282851606
0.040722482 0.041450735 0.32900003 4282848010
0.041791074 0.041450735 0.32900003 4281605136
0.04285967 0.041450735 0.32900003 4280423175
0.043928262 0.041450735 0.32900003 4280227595
0.04499685 0.041450735 0.32900003 4280622353
0.045925427 0.041324742 0.32800001 4282590231
0.046990775 0.041324742 0.32800001 4284031769
0.048056118 0.041324742 0.32800001 4284096019
0.049121458 0.041324742 0.32800001 4283046159
0.017273521 0.045492187 0.35200003 4287730309
0.018364497 0.045362946 0.35100001 4287274639
0.019448977 0.045233708 0.35000002 4287209107
0.02052696 0.045104466 0.34900001 4287011728
0.021598449 0.044975229 0.34800002 4282404160
0.022663439 0.044845987 0.347 4281612589
0.023653379 0.044587512 0.34500003 4283390535
0.024630321 0.044329032 0.34300002 4281942056
0.025669327 0.044199791 0.34200001 4281874970
0.026701842 0.044070557 0.34100002 4281808664
0.027727855 0.043941315 0.34 4281083658
0.028832177 0.043941315 0.34 4280557314
0.029848449 0.043812077 0.33900002 4281941552
0.03094952 0.043812077 0.33900002 4281942837
0.031956051 0.04368284 0.33800003 4279836950
0.033053875 0.04368284 0.33800003 4280099098
0.034050658 0.043553598 0.33700001 4278322688
0.035145234 0.043553598 0.33700001 4280559903
0.03623981 0.043553598 0.33700001 4279899661
0.037223604 0.04342436 0.33600003 4281345560
0.037516706 0.042519685 0.32900003 4281999379
0.038585298 0.042519685 0.32900003 4282588947
0.040722482 0.042519685 0.32900003 4282979083
0.041791074 0.042519685 0.32900003 4282196760
0.04285967 0.042519685 0.32900003 4280817163
0.043928262 0.042519685 0.32900003 4280424458
0.04499685 0.042519685 0.32900003 4280885009
0.045925427 0.042390443 0.32800001 4282195473
0.046990775 0.042390443 0.32800001 4284031253
0.048056118 0.042390443 0.32800001 4284686103
0.011557038 0.046635874 0.35200003 4285888109
0.017224448 0.046503384 0.35100001 4286413166
0.018364497 0.046503384 0.35100001 4287142029
0.019448977 0.046370897 0.35000002 4287209105
0.02052696 0.046238404 0.34900001 4287209105
0.021598449 0.046105918 0.34800002 4284049498
0.022663439 0.045973428 0.347 4279507985
0.023653379 0.045708455 0.34500003 4280560669
0.024630321 0.045443479 0.34300002 4282008621
0.025669327 0.045310989 0.34200001 4282598693
0.026701842 0.045178503 0.34100002 4282138142
0.027727855 0.045046009 0.34 4283715374
0.028832177 0.045046009 0.34 4283057959
0.029848449 0.044913523 0.33900002 4282600504
0.03094952 0.044913523 0.33900002 4279968532
0.031956051 0.044781037 0.33800003 4282008117
0.033053875 0.044781037 0.33800003 4280626466
0.034151699 0.044781037 0.33800003 4279243789
0.035145234 0.044648547 0.33700001 4279309582
0.03623981 0.044648547 0.33700001 4279175940
0.036558896 0.043721128 0.33000001 4281477148
0.037516706 0.043588642 0.32900003 4281999379
0.038468018 0.043456152 0.32800001 4281996810
0.040722482 0.043588642 0.32900003 4283109897
0.041791074 0.043588642 0.32900003 4282195988
0.04285967 0.043588642 0.32900003 4280685318
0.043928262 0.043588642 0.32900003 4280358665
0.04486008 0.043456152 0.32800001 4281280021
0.045925427 0.043456152 0.32800001 4282587916
0.046990775 0.043456152 0.32800001 4284688156
0.048056118 0.043456152 0.32800001 4284948505
0.049121458 0.043456152 0.32800001 4284095249
0.011557038 0.047779553 0.35200003 4287139973
0.018364497 0.047643814 0.35100001 4287799699
0.019448977 0.04750808 0.35000002 4287406484
0.02052696 0.047372341 0.34900001 4287274898
0.021598449 0.047236603 0.34800002 4287405201
0.022663439 0.047100864 0.347 4280494626
0.023653379 0.046829391 0.34500003 4281942585
0.024630321 0.046557918 0.34300002 4283587914
0.025669327 0.04642218 0.34200001 4281481503
0.026701842 0.046286441 0.34100002 4282467623
0.027727855 0.046150703 0.34 4282664486
0.028832177 0.046150703 0.34 4282928176
0.029848449 0.046014968 0.33900002 4283390020
0.03094952 0.046014968 0.33900002 4280560921
0.031956051 0.04587923 0.33800003 4281547818
0.033053875 0.04587923 0.33800003 4279507983
0.034151699 0.04587923 0.33800003 4279243789
0.035145234 0.045743492 0.33700001 4279177996
0.03623981 0.045743492 0.33700001 4280361495
0.03733439 0.045743492 0.33700001 4281543968
0.037402671 0.044521853 0.32800001 4281604623
0.038468018 0.044521853 0.32800001 4281865224
0.042729393 0.044521853 0.32800001 4281667332
0.04379474 0.044521853 0.32800001 4281996297
0.04486008 0.044521853 0.32800001 4284561708
0.045925427 0.044521853 0.32800001 4285411877
0.046990775 0.044521853 0.32800001 4288436300
0.048056118 0.044521853 0.32800001 4287119413
0.018364497 0.048784252 0.35100001 4287995793
0.019448977 0.048645265 0.35000002 4287275668
0.02052696 0.048506279 0.34900001 4287406484
0.021598449 0.048367295 0.34800002 4288392098
0.022663439 0.048228305 0.347 4280101153
0.023653379 0.047950335 0.34500003 4282535746
0.024702128 0.047811348 0.34400001 4281482286
0.025669327 0.047533374 0.34200001 4283916618
0.026701842 0.047394387 0.34100002 4284048204
0.027809409 0.047394387 0.34100002 4283258436
0.028832177 0.047255401 0.34 4283654477
0.029936496 0.047255401 0.34 4279901453
0.03094952 0.047116414 0.33900002 4281678634
0.032050595 0.047116414 0.33900002 4282600506
0.033053875 0.046977431 0.33800003 4279244041
0.034151699 0.046977431 0.33800003 4279309582
0.035145234 0.04683844 0.33700001 4279177996
0.03733439 0.04683844 0.33700001 4280359179
0.037402671 0.045587562 0.32800001 4281012999
0.038468018 0.045587562 0.32800001 4282523154
0.041664049 0.045587562 0.32800001 4285999651
0.042729393 0.045587562 0.32800001 4285867295
0.04379474 0.045587562 0.32800001 4285998109
0.04486008 0.045587562 0.32800001 4285801500
0.045925427 0.045587562 0.32800001 4285537812
0.046990775 0.045587562 0.32800001 4285669398
0.047909606 0.045448579 0.32700002 4285669396
0.018312177 0.049782455 0.35000002 4288978062
0.019448977 0.049782455 0.35000002 4287209105
0.02052696 0.049640216 0.34900001 4287274898
0.021598449 0.049497984 0.34800002 4287274898
0.022663439 0.049355745 0.347 4281945154
0.023653379 0.049071278 0.34500003 4280494628
0.024702128 0.048929039 0.34400001 4282599484
0.025744384 0.048786808 0.34300002 4279704590
0.026780145 0.048644569 0.34200001 4283783756
0.027809409 0.048502333 0.34100002 4283587912
0.028832177 0.048360098 0.34 4284312405
0.029936496 0.048360098 0.34 4281415978
0.03094952 0.048217863 0.33900002 4282732605
0.032050595 0.048217863 0.33900002 4280100118
0.033053875 0.048075628 0.33800003 4279309836
0.034151699 0.048075628 0.33800003 4279308812
0.035249524 0.048075628 0.33800003 4278979847
0.03623981 0.047933392 0.33700001 4281413411
0.03728864 0.046511035 0.32700002 4280882697
0.038350739 0.046511035 0.32700002 4283180571
0.039412834 0.046511035 0.32700002 4286000164
0.040474929 0.046511035 0.32700002 4286853418
0.041537024 0.046511035 0.32700002 4286065696
0.042599123 0.046511035 0.32700002 4287119667
0.043661222 0.046511035 0.32700002 4286195483
0.044723313 0.046511035 0.32700002 4285865748
0.045785412 0.046511035 0.32700002 4285733651
0.046847511 0.046511035 0.32700002 4285602578
0.047909606 0.046511035 0.32700002 4285405972
0.018312177 0.050919637 0.35000002 4287524190
0.019448977 0.050919637 0.35000002 4287405453
0.02052696 0.05077415 0.34900001 4287472018
0.021598449 0.05062867 0.34800002 4287407254
0.022663439 0.050483182 0.347 4287998875
0.023721937 0.050337698 0.34600002 4280034075
0.024702128 0.050046727 0.34400001 4279640082
0.025744384 0.049901247 0.34300002 4280429087
0.026780145 0.04975576 0.34200001 4279309582
0.02789096 0.04975576 0.34200001 4282007345
0.028916979 0.049610276 0.34100002 4284245331
0.029936496 0.049464788 0.34 4283521867
0.031040816 0.049464788 0.34 4280165911
0.032050595 0.049319305 0.33900002 4279374605
0.033151668 0.049319305 0.33900002 4279112205
0.034151699 0.049173824 0.33800003 4279177998
0.035249524 0.049173824 0.33800003 4279835156
0.03623981 0.049028337 0.33700001 4281477921
0.03728864 0.047573492 0.32700002 4281014796
0.038350739 0.047573492 0.32700002 4283441690
0.039412834 0.047573492 0.32700002 4286327328
0.040474929 0.047573492 0.32700002 4286852132
0.041537024 0.047573492 0.32700002 4287975231
0.042599123 0.047573492 0.32700002 4286132770
0.043661222 0.047573492 0.32700002 4286194967
0.044723313 0.047573492 0.32700002 4285800209
0.045785412 0.047573492 0.32700002 4285405967
0.01494435 0.052205559 0.35100001 4285210650
0.016084399 0.052205559 0.35100001 4285080091
0.017175376 0.052056827 0.35000002 4285014298
0.019448977 0.052056827 0.35000002 4287601803
0.02052696 0.051908091 0.34900001 4287340945
0.021598449 0.051759358 0.34800002 4287274898
0.022663439 0.051610623 0.347 4287340691
0.023721937 0.05146189 0.34600002 4284050528
0.024773939 0.051313158 0.34500003 4281549110
0.025819439 0.051164422 0.34400001 4279640600
0.026858451 0.05101569 0.34300002 4282403906
0.02789096 0.050866954 0.34200001 4279769363
0.028916979 0.050718222 0.34100002 4279703313
0.030024547 0.050718222 0.34100002 4279769363
0.031040816 0.050569486 0.34 4282402623
0.032050595 0.050420754 0.33900002 4283389772
0.033151668 0.050420754 0.33900002 4279046410
0.034151699 0.050272021 0.33800003 4279308555
0.035249524 0.050272021 0.33800003 4281018657
0.036347348 0.050272021 0.33800003 4281477412
0.03733439 0.050123286 0.33700001 4281347109
0.03728864 0.048635948 0.32700002 4281344279
0.038233455 0.048487213 0.32600001 4283901981
0.039292302 0.048487213 0.32600001 4286327069
0.040351149 0.048487213 0.32600001 4286063381
0.041409999 0.048487213 0.32600001 4291199340
0.042599123 0.048635948 0.32700002 4285932822
0.043661222 0.048635948 0.32700002 4285669139
0.044723313 0.048635948 0.32700002 4285471760
0.01494435 0.053345989 0.35100001 4285407516
0.016038576 0.053194009 0.35000002 4285341721
0.017175376 0.053194009 0.35000002 4285210648
0.018312177 0.053194009 0.35000002 4285343004
0.019393407 0.053042024 0.34900001 4288189059
0.02052696 0.053042024 0.34900001 4287405451
0.021598449 0.052890044 0.34800002 4287406738
0.022663439 0.052738059 0.347 4287472531
0.023721937 0.052586075 0.34600002 4287932828
0.024773939 0.052434094 0.34500003 4282273347
0.025819439 0.05228211 0.34400001 4280100381
0.026858451 0.052130129 0.34300002 4282929480
0.02789096 0.051978145 0.34200001 4279046410
0.029001778 0.051978145 0.34200001 4284638815
0.030024547 0.051826164 0.34100002 4283586897
0.031040816 0.051674176 0.34 4283587664
0.032145139 0.051674176 0.34 4281416493
0.033151668 0.051522195 0.33900002 4279573008
0.03425274 0.051522195 0.33900002 4280491030
0.035249524 0.051370215 0.33800003 4281870884
0.036347348 0.051370215 0.33800003 4282860859
0.037174605 0.049546417 0.32600001 4288978577
0.038233455 0.049546417 0.32600001 4284164638
0.039292302 0.049546417 0.32600001 4286195737
0.040351149 0.049546417 0.32600001 4286194967
0.041409999 0.049546417 0.32600001 4285997588
0.04246885 0.049546417 0.32600001 4286063381
0.043661222 0.049698401 0.32700002 4285472787
0.044723313 0.049698401 0.32700002 4285209617
0.013764974 0.054331198 0.35000002 4286131237
0.014901774 0.054331198 0.35000002 4286394922
0.016038576 0.054331198 0.35000002 4285342234
0.017175376 0.054331198 0.35000002 4285407514
0.018312177 0.054331198 0.35000002 4285407514
0.019393407 0.054175962 0.34900001 4283901214
0.02052696 0.054175962 0.34900001 4288979347
0.021598449 0.054020733 0.34800002 4287340432
0.022663439 0.0538655 0.347 4287472277
0.023721937 0.053710267 0.34600002 4287340691
0.024773939 0.053555038 0.34500003 4287735449
0.025819439 0.053399805 0.34400001 4283918172
0.026858451 0.053244572 0.34300002 4279706395
0.027972514 0.053244572 0.34300002 4280493858
0.029001778 0.053089339 0.34200001 4280887589
0.030024547 0.05293411 0.34100002 4281874482
0.031132113 0.05293411 0.34100002 4278979844
0.032145139 0.052778874 0.34 4280493081
0.033151668 0.052623644 0.33900002 4280162063
0.035249524 0.052468415 0.33800003 4282328607
0.036347348 0.052468415 0.33800003 4285560171
0.037174605 0.050605629 0.32600001 4287263334
0.039292302 0.050605629 0.32600001 4286064154
0.040351149 0.050605629 0.32600001 4285669396
0.041409999 0.050605629 0.32600001 4285537555
0.04246885 0.050605629 0.32600001 4285603605
0.011491373 0.05546838 0.35000002 4284825911
0.012628173 0.05546838 0.35000002 4286854188
0.013764974 0.05546838 0.35000002 4288172358
0.014901774 0.05546838 0.35000002 4288302917
0.016038576 0.05546838 0.35000002 4285933340
0.017175376 0.05546838 0.35000002 4285670684
0.018259855 0.055309895 0.34900001 4285670684
0.019393407 0.055309895 0.34900001 4285540385
0.02052696 0.055309895 0.34900001 4287586135
0.021598449 0.055151418 0.34800002 4287537039
0.022663439 0.054992933 0.347 4287406223
0.023721937 0.054834455 0.34600002 4287340691
0.024773939 0.054675978 0.34500003 4287472277
0.025819439 0.054517493 0.34400001 4287340945
0.026936755 0.054517493 0.34400001 4287998621
0.027972514 0.054359011 0.34300002 4284575337
0.029001778 0.05420053 0.34200001 4279506193
0.030024547 0.054042049 0.34100002 4280882706
0.031132113 0.054042049 0.34100002 4281080085
0.032145139 0.053883567 0.34 4282523418
0.033151668 0.053725086 0.33900002 4283245596
0.03425274 0.053725086 0.33900002 4283441692
0.035249524 0.053566609 0.33800003 4283245596
0.036347348 0.053566609 0.33800003 4287534731
0.038542997 0.053566609 0.33800003 4284559396
0.013764974 0.05660557 0.35000002 4287053620
0.014901774 0.05660557 0.35000002 4286129949
0.015992749 0.056443837 0.34900001 4286130719
0.017126303 0.056443837 0.34900001 4285868317
0.018259855 0.056443837 0.34900001 4285802524
0.019393407 0.056443837 0.34900001 4285802272
0.020468144 0.056282107 0.34800002 4285736740
0.021598449 0.056282107 0.34800002 4288714376
0.022663439 0.056120373 0.347 4287339146
0.023721937 0.055958647 0.34600002 4287537557
0.024773939 0.055796918 0.34500003 4287538070
0.025819439 0.055635184 0.34400001 4287406484
0.026936755 0.055635184 0.34400001 4287340691
0.027972514 0.055473458 0.34300002 4287734420
0.029001778 0.055311725 0.34200001 4282596404
0.030024547 0.055149995 0.34100002 4284556577
0.031040816 0.054988265 0.34 4284622622
0.032145139 0.054988265 0.34 4284884252
0.033151668 0.054826535 0.33900002 4285475619
0.034151699 0.054664806 0.33800003 4284886048
0.035249524 0.054664806 0.33800003 4283638809
0.012628173 0.057742752 0.35000002 4286065696
0.013725644 0.05757777 0.34900001 4285670938
0.014859198 0.05757777 0.34900001 4285933340
0.015992749 0.05757777 0.34900001 4286130465
0.017126303 0.05757777 0.34900001 4286459432
0.018207535 0.057412792 0.34800002 4285933088
0.01933784 0.057412792 0.34800002 4286327076
0.020468144 0.057412792 0.34800002 4286392869
0.023721937 0.057082832 0.34600002 4287339660
0.024773939 0.056917857 0.34500003 4287537809
0.025819439 0.056752875 0.34400001 4287603604
0.026858451 0.056587897 0.34300002 4287472531
0.027972514 0.056587897 0.34300002 4287602834
0.029001778 0.056422915 0.34200001 4283252787
0.030024547 0.056257937 0.34100002 4285343006
0.031040816 0.056092955 0.34 4285408797
0.032050595 0.055927977 0.33900002 4285539615
0.033151668 0.055927977 0.33900002 4285736992
0.034151699 0.055763002 0.33800003 4285015068
0.035145234 0.055598021 0.33700001 4283505938
0.036132276 0.055433042 0.33600003 4288386438
0.036669683 0.054608148 0.33100003 4284036395
0.039533362 0.054113206 0.32800001 4284163870
0.040598705 0.054113206 0.32800001 4284427042
0.041537024 0.053948227 0.32700002 4284032030
0.017077232 0.058543481 0.34800002 4287249981
0.018207535 0.058543481 0.34800002 4286395697
0.01933784 0.058543481 0.34800002 4286262051
0.020409327 0.058375251 0.347 4286458660
0.021536384 0.058375251 0.347 4286787625
0.022598127 0.058207024 0.34600002 4286131235
0.023653379 0.058038797 0.34500003 4287131744
0.024773939 0.058038797 0.34500003 4287995532
0.025819439 0.057870567 0.34400001 4287537039
0.026858451 0.05770234 0.34300002 4287340430
0.02789096 0.05753411 0.34200001 4287471244
0.028916979 0.057365883 0.34100002 4284766280
0.029936496 0.057197653 0.34 4285539100
0.031040816 0.057197653 0.34 4285669916
0.032050595 0.057029426 0.33900002 4285538332
0.033053875 0.056861199 0.33800003 4286131237
0.034050658 0.056692969 0.33700001 4286265133
0.035040949 0.056524742 0.33600003 4283964694
0.036024738 0.056356512 0.33500001 4285348662
0.036780465 0.055851828 0.33200002 4284754470
0.037630737 0.055515371 0.33000001 4283770659
0.040598705 0.055178914 0.32800001 4282725680
0.041664049 0.055178914 0.32800001 4283771427
0.042729393 0.055178914 0.32800001 4283639071
0.020350512 0.059331212 0.34600002 4286263075
0.02147432 0.059331212 0.34600002 4286590500
0.022532815 0.059159737 0.34500003 4287840565
0.023653379 0.059159737 0.34500003 4286590500
0.024702128 0.058988255 0.34400001 4286595129
0.025744384 0.058816779 0.34300002 4288716686
0.026780145 0.058645301 0.34200001 4287733643
0.02789096 0.058645301 0.34200001 4287404424
0.028916979 0.058473825 0.34100002 4285422925
0.029936496 0.058302343 0.34 4285801500
0.03094952 0.058130868 0.33900002 4285998109
0.031956051 0.057959393 0.33800003 4286063904
0.032956082 0.057787914 0.33700001 4286393121
0.033949621 0.057616439 0.33600003 4286592040
0.034936655 0.057444956 0.33500001 4285935141
0.0359172 0.057273481 0.33400002 4285082662
0.036780465 0.056930527 0.33200002 4284492068
0.037744772 0.056759052 0.33100003 4282856748
0.04379474 0.056244615 0.32800001 4283508766
0.047909606 0.05607314 0.32700002 4283378467
0.048971701 0.05607314 0.32700002 4283247395
0.012556012 0.060804859 0.34800002 4284559146
0.021412257 0.060280677 0.34500003 4286458912
0.022532815 0.060280677 0.34500003 4287116069
0.023584817 0.06010595 0.34400001 4286852384
0.024630321 0.059931226 0.34300002 4286852132
0.025669327 0.059756495 0.34200001 4286459432
0.026780145 0.059756495 0.34200001 4286529590
0.027809409 0.059581771 0.34100002 4287849561
0.028832177 0.05940704 0.34 4285609004
0.029848449 0.059232317 0.33900002 4285670168
0.030858226 0.059057593 0.33800003 4286129692
0.031861506 0.058882862 0.33700001 4286655266
0.032956082 0.058882862 0.33700001 4286590241
0.033949621 0.058708139 0.33600003 4286524705
0.034936655 0.058533408 0.33500001 4285999903
0.0359172 0.058358684 0.33400002 4284558115
0.036780465 0.05800923 0.33200002 4283444006
0.04499685 0.057485051 0.32900003 4283641124
0.011425707 0.061935548 0.34800002 4286681218
0.012556012 0.061935548 0.34800002 4284037429
0.013686316 0.061935548 0.34800002 4284430901
0.014774044 0.061757568 0.347 4284232491
0.015901102 0.061757568 0.347 4283574561
0.021412257 0.061401621 0.34500003 4287116842
0.022467503 0.061223641 0.34400001 4286656034
0.023516256 0.061045669 0.34300002 4286786850
0.024558511 0.06086769 0.34200001 4286852130
0.025669327 0.06086769 0.34200001 4286917153
0.026701842 0.060689718 0.34100002 4286720544
0.027727855 0.060511738 0.34 4286589473
0.028747378 0.060333766 0.33900002 4287381817
0.029848449 0.060333766 0.33900002 4287777854
0.030858226 0.06015579 0.33800003 4287054129
0.031861506 0.059977815 0.33700001 4287907898
0.03285829 0.059799839 0.33600003 4286722086
0.033848576 0.059621859 0.33500001 4285935139
0.034936655 0.059621859 0.33500001 4284885533
0.0359172 0.059443887 0.33400002 4282923059
0.045133617 0.058731984 0.33000001 4283575592
0.016979085 0.062703781 0.34600002 4283378727
0.018102894 0.062703781 0.34600002 4282983969
0.019171134 0.06252256 0.34500003 4283115293
0.020291695 0.06252256 0.34500003 4283574561
0.022402192 0.062160108 0.34300002 4286394920
0.023447696 0.06197888 0.34200001 4286655782
0.024558511 0.06197888 0.34200001 4286918438
0.025594272 0.06179766 0.34100002 4286983716
0.026623536 0.061616432 0.34 4286917153
0.027646303 0.061435208 0.33900002 4286785567
0.028747378 0.061435208 0.33900002 4286325786
0.029760402 0.061253987 0.33800003 4286853667
0.030766927 0.061072759 0.33700001 4286393373
0.031766962 0.060891535 0.33600003 4286196764
0.03285829 0.060891535 0.33600003 4285342486
0.033848576 0.060710307 0.33500001 4283507483
0.034936655 0.060710307 0.33500001 4285357913
0.043120213 0.05998541 0.33100003 4283901981
0.044195306 0.05998541 0.33100003 4283444258
0.019171134 0.0636435 0.34500003 4283708462
0.020232879 0.063459024 0.34400001 4283378467
0.022402192 0.063274555 0.34300002 4285547836
0.023447696 0.063090079 0.34200001 4285215273
0.024486704 0.062905602 0.34100002 4285803814
0.025519213 0.062721126 0.34 4286524450
0.026545232 0.062536657 0.33900002 4286983716
0.027646303 0.062536657 0.33900002 4287641646
0.028662577 0.062352184 0.33800003 4287115302
0.029672351 0.062167708 0.33700001 4286195485
0.030766927 0.062167708 0.33700001 4285471508
0.031766962 0.061983235 0.33600003 4284948244
0.032760497 0.061798759 0.33500001 4283701261
0.042172145 0.061245337 0.33200002 4283967774
0.043250486 0.061245337 0.33200002 4283902495
0.021288127 0.06438899 0.34300002 4284233524
0.023379136 0.064013548 0.34100002 4285154878
0.024414893 0.063825816 0.34 4285289029
0.025519213 0.063825816 0.34 4286464567
0.026545232 0.063638099 0.33900002 4286393891
0.027564751 0.063450381 0.33800003 4286851614
0.028577777 0.063262649 0.33700001 4286655005
0.029672351 0.063262649 0.33700001 4291200378
0.030675631 0.063074932 0.33600003 4286197030
0.031766962 0.063074932 0.33600003 4285014039
0.032760497 0.062887207 0.33500001 4283766284
0.033848576 0.062887207 0.33500001 4288384643
0.039171703 0.062699482 0.33400002 4283385920
0.040256534 0.062699482 0.33400002 4283310106
0.041341364 0.062699482 0.33400002 4283967522
0.042426195 0.062699482 0.33400002 4283706147
0.043511029 0.062699482 0.33400002 4283445290
0.021288127 0.065503433 0.34300002 4288653725
0.023379136 0.065121494 0.34100002 4283313706
0.024414893 0.064930514 0.34 4282261531
0.025444157 0.064739548 0.33900002 4286270529
0.026466928 0.064548574 0.33800003 4286132772
0.027483199 0.064357601 0.33700001 4286786591
0.028577777 0.064357601 0.33700001 4289024066
0.029584303 0.064166635 0.33600003 4287051049
0.030675631 0.064166635 0.33600003 4286194713
0.031672414 0.063975655 0.33500001 4285669914
0.032760497 0.063975655 0.33500001 4284750869
0.033848576 0.063975655 0.33500001 4283438350
0.034936655 0.063975655 0.33500001 4283440665
0.039171703 0.063784689 0.33400002 4283244315
0.040256534 0.063784689 0.33400002 4283835936
0.041341364 0.063784689 0.33400002 4283771427
0.042426195 0.063784689 0.33400002 4283053875
0.024414893 0.066035211 0.34 4284176208
0.025444157 0.065840989 0.33900002 4286534735
0.026466928 0.065646768 0.33800003 4285608234
0.027483199 0.065452546 0.33700001 4286590241
0.028492976 0.065258324 0.33600003 4286984229
0.029584303 0.065258324 0.33600003 4286128920
0.030584333 0.065064102 0.33500001 4285998104
0.031672414 0.065064102 0.33500001 4285539100
0.032760497 0.065064102 0.33500001 4284619281
0.033848576 0.065064102 0.33500001 4284095249
0.034936655 0.065064102 0.33500001 4283307276
0.0382009 0.065064102 0.33500001 4283309594
0.039288979 0.065064102 0.33500001 4283572764
0.040377058 0.065064102 0.33500001 4283771940
0.041465141 0.065064102 0.33500001 4283707692
0.025369102 0.066744968 0.33800003 4288054911
0.026388623 0.066547498 0.33700001 4284755755
0.027483199 0.066547498 0.33700001 4285802272
0.028492976 0.066350028 0.33600003 4285538328
0.029496254 0.066152558 0.33500001 4285077777
0.030584333 0.066152558 0.33500001 4285209363
0.031672414 0.066152558 0.33500001 4284749584
0.032760497 0.066152558 0.33500001 4284093964
0.033848576 0.066152558 0.33500001 4283373069
0.0382009 0.066152558 0.33500001 4283374874
0.039288979 0.066152558 0.33500001 4283967524
0.040377058 0.066152558 0.33500001 4283445292
0.041465141 0.066152558 0.33500001 4287069303
0.025294045 0.067642443 0.33700001 4289047968
0.026388623 0.067642443 0.33700001 4283053098
0.027401647 0.067441724 0.33600003 4285410857
0.028492976 0.067441724 0.33600003 4285278756
0.029496254 0.067240998 0.33500001 4285015068
0.030584333 0.067240998 0.33500001 4284554517
0.031672414 0.067240998 0.33500001 4283898386
0.032662705 0.067040287 0.33400002 4283438862
0.0382009 0.067240998 0.33500001 4283441694
0.039288979 0.067240998 0.33500001 4283706149
0.040377058 0.067240998 0.33500001 4284176206
0.027401647 0.068533428 0.33600003 4284361765
0.028408175 0.068329453 0.33500001 4284755494
0.029496254 0.068329453 0.33500001 4284425759
0.030584333 0.068329453 0.33500001 4284031001
0.031577874 0.068125486 0.33400002 4283702806
0.032662705 0.068125486 0.33400002 4283242514
0.033747539 0.068125486 0.33400002 4283046418
0.034936655 0.068329453 0.33500001 4282981139
0.0382009 0.068329453 0.33500001 4283049502
0.039288979 0.068329453 0.33500001 4283182631
0.029408207 0.069210686 0.33400002 4284165933
0.030493038 0.069210686 0.33400002 4283770405
0.031577874 0.069210686 0.33400002 4283375901
0.032662705 0.069210686 0.33400002 4283375387
0.034936655 0.069417901 0.33500001 4283179292
0.036024738 0.069417901 0.33500001 4283180575
0.037112817 0.069417901 0.33500001 4283312674
0.0382009 0.069417901 0.33500001 4282788645
0.039288979 0.069417901 0.33500001 4287005307
0.028323375 0.070295885 0.33400002 4287141254
0.029408207 0.070295885 0.33400002 4283580217
0.030493038 0.070295885 0.33400002 4283379758
0.031577874 0.070295885 0.33400002 4284168245
0.032662705 0.070295885 0.33400002 4283378215
0.033747539 0.070295885 0.33400002 4283575594
0.034936655 0.070506349 0.33500001 4283378215
0.036024738 0.070506349 0.33500001 4283445290
0.037112817 0.070506349 0.33500001 4282919459
0.025819439 0.014280612 0.34400001 4287401601
0.027972514 0.014239099 0.34300002 4285752408
0.021412257 0.015443066 0.34500003 4286552199
0.022532815 0.015443066 0.34500003 4287405453
0.023653379 0.015443066 0.34500003 4286998625
0.024702128 0.015398303 0.34400001 4286468170
0.025819439 0.015398303 0.34400001 4286137910
0.026858451 0.015353541 0.34300002 4286532155
0.027972514 0.015353541 0.34300002 4286466362
0.029086581 0.015353541 0.34300002 4286335289
0.030200643 0.015353541 0.34300002 4285482043
0.020291695 0.016564008 0.34500003 4286617992
0.021412257 0.016564008 0.34500003 4287134061
0.022532815 0.016564008 0.34500003 4285085742
0.023584817 0.016515994 0.34400001 4286132520
0.024702128 0.016515994 0.34400001 4286263334
0.025819439 0.016515994 0.34400001 4286131487
0.026858451 0.016467985 0.34300002 4285671449
0.027972514 0.016467985 0.34300002 4285540635
0.029001778 0.016419971 0.34200001 4285607455
0.030112594 0.016419971 0.34200001 4285476387
0.031132113 0.01637196 0.34100002 4286201656
0.032239683 0.01637196 0.34100002 4285356367
0.020291695 0.017684948 0.34500003 4286416759
0.021412257 0.017684948 0.34500003 4286002733
0.022467503 0.017633686 0.34400001 4285738789
0.023584817 0.017633686 0.34400001 4291992722
0.024702128 0.017633686 0.34400001 4285408795
0.025744384 0.017582426 0.34300002 4285999131
0.026858451 0.017582426 0.34300002 4285276178
0.02789096 0.017531164 0.34200001 4285210898
0.029001778 0.017531164 0.34200001 4285145877
0.030112594 0.017531164 0.34200001 4284553747
0.031132113 0.017479904 0.34100002 4290939264
0.032239683 0.017479904 0.34100002 4285415734
0.033249456 0.017428642 0.34 4285614142
0.034353778 0.017428642 0.34 4287401344
0.019115565 0.018751377 0.34400001 4287930770
0.020232879 0.018751377 0.34400001 4284763198
0.02135019 0.018751377 0.34400001 4286857268
0.022467503 0.018751377 0.34400001 4287384384
0.023584817 0.018751377 0.34400001 4286527535
0.024630321 0.018696867 0.34300002 4285802524
0.025744384 0.018696867 0.34300002 4285605145
0.026858451 0.018696867 0.34300002 4285276180
0.02789096 0.018642357 0.34200001 4284948501
0.029001778 0.018642357 0.34200001 4284751894
0.030024547 0.018587848 0.34100002 4284883482
0.031132113 0.018587848 0.34100002 4286000682
0.032145139 0.018533338 0.34 4285804584
0.033249456 0.018533338 0.34 4286662459
0.03425274 0.018478828 0.33900002 4286138943
0.035353813 0.018478828 0.33900002 4286339148
0.017945932 0.01981131 0.34300002 4286749578
0.019115565 0.019869069 0.34400001 4286873969
0.020232879 0.019869069 0.34400001 4284954154
0.02135019 0.019869069 0.34400001 4286066986
0.022467503 0.019869069 0.34400001 4285935400
0.023516256 0.01981131 0.34300002 4286000162
0.024630321 0.01981131 0.34300002 4285539611
0.025744384 0.01981131 0.34300002 4285079830
0.026780145 0.019753549 0.34200001 4284685329
0.02789096 0.019753549 0.34200001 4284292626
0.028916979 0.019695792 0.34100002 4284227351
0.030024547 0.019695792 0.34100002 4283900185
0.031040816 0.019638032 0.34 4284032030
0.032145139 0.019638032 0.34 4285475365
0.033151668 0.019580273 0.33900002 4285869605
0.03425274 0.019580273 0.33900002 4286330156
0.035249524 0.019522516 0.33800003 4286265133
0.03623981 0.019464755 0.33700001 4286270529
0.03733439 0.019464755 0.33700001 4286011471
0.017998252 0.020986758 0.34400001 4286683783
0.019115565 0.020986758 0.34400001 4286147420
0.020232879 0.020986758 0.34400001 4285084711
0.02135019 0.020986758 0.34400001 4287975749
0.022402192 0.020925751 0.34300002 4286067236
0.023516256 0.020925751 0.34300002 4285343002
0.024630321 0.020925751 0.34300002 4285212443
0.025669327 0.020864742 0.34200001 4284226318
0.026780145 0.020864742 0.34200001 4284161040
0.027809409 0.020803735 0.34100002 4282651660
0.028916979 0.020803735 0.34100002 4286210394
0.029936496 0.020742726 0.34 4287732619
0.031040816 0.020742726 0.34 4287798666
0.032050595 0.020681718 0.33900002 4287862152
0.033053875 0.020620711 0.33800003 4285358163
0.034151699 0.020620711 0.33800003 4284229663
0.035145234 0.020559702 0.33700001 4285607975
0.036132276 0.020498695 0.33600003 4285803810
0.037223604 0.020498695 0.33600003 4286198568
0.038086869 0.020376679 0.33400002 4286070836
0.039171703 0.020376679 0.33400002 4286600008
0.040136002 0.020315669 0.333 4286804067
0.041217584 0.020315669 0.333 4287860866
0.017998252 0.022104451 0.34400001 4286946185
0.019115565 0.022104451 0.34400001 4286408793
0.020232879 0.022104451 0.34400001 4284887591
0.021288127 0.022040194 0.34300002 4285147933
0.022402192 0.022040194 0.34300002 4284751892
0.023516256 0.022040194 0.34300002 4284555285
0.024630321 0.022040194 0.34300002 4284292115
0.025669327 0.021975936 0.34200001 4283701774
0.026780145 0.021975936 0.34200001 4283767827
0.027809409 0.021911681 0.34100002 4286937197
0.028832177 0.021847421 0.34 4287142283
0.029936496 0.021847421 0.34 4286945674
0.03094952 0.021783166 0.33900002 4286946185
0.031956051 0.02171891 0.33800003 4286946185
0.033053875 0.02171891 0.33800003 4286945672
0.034050658 0.021654651 0.33700001 4287142281
0.035040949 0.021590395 0.33600003 4286677880
0.036132276 0.021590395 0.33600003 4284427040
0.037112817 0.021526137 0.33500001 4285803810
0.038086869 0.02146188 0.33400002 4286000416
0.03905442 0.021397622 0.333 4285999903
0.040136002 0.021397622 0.333 4285804584
0.041093811 0.021333367 0.33200002 4286728512
0.042045124 0.021269109 0.33100003 4286336322
0.042989939 0.021204852 0.33000001 4286007871
0.04406178 0.021204852 0.33000001 4285944906
0.017998252 0.023222141 0.34400001 4287732621
0.019115565 0.023222141 0.34400001 4285745467
0.020232879 0.023222141 0.34400001 4284953636
0.02135019 0.023222141 0.34400001 4285215011
0.022402192 0.023154637 0.34300002 4284359704
0.023516256 0.023154637 0.34300002 4283899415
0.024630321 0.023154637 0.34300002 4284030999
0.025669327 0.023087129 0.34200001 4284227351
0.026780145 0.023087129 0.34200001 4285279269
0.027809409 0.023019623 0.34100002 4288709495
0.028832177 0.022952117 0.34 4287469188
0.029848449 0.022884611 0.33900002 4286946183
0.03094952 0.022884611 0.33900002 4286814597
0.031956051 0.022817105 0.33800003 4286880392
0.032956082 0.022749599 0.33700001 4286946185
0.033949621 0.022682093 0.33600003 4286880392
0.035040949 0.022682093 0.33600003 4287209357
0.036024738 0.022614585 0.33500001 4287995793
0.037002034 0.022547081 0.33400002 4284897353
0.037972834 0.022479573 0.333 4285803037
0.03905442 0.022479573 0.333 4287184177
0.040015474 0.022412067 0.33200002 4287515452
0.040970035 0.022344561 0.33100003 4286923313
0.042045124 0.022344561 0.33100003 4286792497
0.042989939 0.022277055 0.33000001 4286661426
0.04406178 0.022277055 0.33000001 4286267184
0.04499685 0.022209549 0.32900003 4285280291
0.018050574 0.024410589 0.34500003 4284102702
0.019171134 0.024410589 0.34500003 4283967774
0.020232879 0.024339832 0.34400001 4283769364
0.02135019 0.024339832 0.34400001 4283307276
0.022467503 0.024339832 0.34400001 4283834905
0.023516256 0.024269078 0.34300002 4283901466
0.024630321 0.024269078 0.34300002 4284032282
0.025669327 0.024198322 0.34200001 4285869607
0.026780145 0.024198322 0.34200001 4286329901
0.027809409 0.024127567 0.34100002 4286133549
0.028832177 0.024056811 0.34 4285871660
0.029848449 0.023986056 0.33900002 4286009670
0.030858226 0.023915302 0.33800003 4288185466
0.031861506 0.023844546 0.33700001 4287471244
0.03285829 0.023773791 0.33600003 4286946185
0.033949621 0.023773791 0.33600003 4286748806
0.034936655 0.023703035 0.33500001 4286748808
0.0359172 0.023632281 0.33400002 4287141765
0.036891248 0.023561524 0.333 4286804065
0.037972834 0.023561524 0.333 4286131487
0.03893714 0.02349077 0.33200002 4286328350
0.040015474 0.02349077 0.33200002 4286393114
0.040970035 0.023420015 0.33100003 4286129942
0.041918095 0.023349259 0.33000001 4285866770
0.042989939 0.023349259 0.33000001 4286064408
0.043928262 0.023278505 0.32900003 4285670166
0.04499685 0.023278505 0.32900003 4286066209
0.017028159 0.025679536 0.347 4284889136
0.018102894 0.025605533 0.34600002 4283833622
0.019171134 0.025531529 0.34500003 4285546545
0.020291695 0.025531529 0.34500003 4284886562
0.021412257 0.025531529 0.34500003 4283637524
0.022467503 0.025457524 0.34400001 4283967261
0.023584817 0.025457524 0.34400001 4283836188
0.024630321 0.025383521 0.34300002 4283967261
0.025744384 0.025383521 0.34300002 4284163357
0.026780145 0.025309514 0.34200001 4284688929
0.027809409 0.025235511 0.34100002 4285280293
0.028832177 0.025161505 0.34 4285674279
0.029848449 0.025087502 0.33900002 4286067754
0.030858226 0.025013499 0.33800003 4286200110
0.031861506 0.024939492 0.33700001 4284494898
0.03285829 0.024865489 0.33600003 4287921782
0.033848576 0.024791483 0.33500001 4287010693
0.03483237 0.02471748 0.33400002 4286748293
0.035809662 0.024643475 0.333 4287396715
0.036891248 0.024643475 0.333 4285542691
0.037858803 0.02456947 0.33200002 4286722338
0.03893714 0.02456947 0.33200002 4287974456
0.03989495 0.024495468 0.33100003 4285998356
0.040970035 0.024495468 0.33100003 4286194965
0.041918095 0.024421461 0.33000001 4285668623
0.04285967 0.024347458 0.32900003 4285537553
0.043928262 0.024347458 0.32900003 4285012236
0.04499685 0.024347458 0.32900003 4285144594
0.045925427 0.024273453 0.32800001 4284621330
0.046990775 0.024273453 0.32800001 4283965456
0.014859198 0.026961481 0.34900001 4288257680
0.015992749 0.026961481 0.34900001 4284827708
0.017077232 0.02688423 0.34800002 4284885535
0.018155213 0.026806975 0.347 4285740844
0.019226702 0.026729722 0.34600002 4285017119
0.020350512 0.026729722 0.34600002 4284886046
0.02147432 0.026729722 0.34600002 4283637526
0.022532815 0.02665247 0.34500003 4283375124
0.023653379 0.02665247 0.34500003 4283178004
0.024702128 0.026575215 0.34400001 4283309590
0.025744384 0.026497962 0.34300002 4283246881
0.026858451 0.026497962 0.34300002 4285091911
0.02789096 0.026420707 0.34200001 4284763718
0.028832177 0.0262662 0.34 4285420878
0.029848449 0.026188947 0.33900002 4283968806
0.030858226 0.026111694 0.33800003 4285412392
0.031766962 0.025957188 0.33600003 4288504923
0.032760497 0.025879933 0.33500001 4286928459
0.033747539 0.025802679 0.33400002 4284562226
0.03472808 0.025725424 0.333 4288711810
0.035809662 0.025725424 0.333 4286266416
0.036780465 0.025648173 0.33200002 4286458657
0.037744772 0.02557092 0.33100003 4285671451
0.038819861 0.02557092 0.33100003 4288766035
0.03989495 0.02557092 0.33100003 4285866002
0.040846258 0.025493665 0.33000001 4285865489
0.041918095 0.025493665 0.33000001 4285405967
0.04285967 0.025416413 0.32900003 4285143052
0.043928262 0.025416413 0.32900003 4284618250
0.04499685 0.025416413 0.32900003 4284619279
0.045925427 0.025339158 0.32800001 4283767052
0.046990775 0.025339158 0.32800001 4283635981
0.014901774 0.028175922 0.35000002 4285479730
0.015992749 0.028095419 0.34900001 4285344801
0.017126303 0.028095419 0.34900001 4285344801
0.018207535 0.028014917 0.34800002 4285015836
0.01933784 0.028014917 0.34800002 4284228628
0.020409327 0.027934413 0.347 4283308811
0.021536384 0.027934413 0.347 4283178258
0.022598127 0.027853912 0.34600002 4283178258
0.023721937 0.027853912 0.34600002 4283048735
0.024773939 0.02777341 0.34500003 4284368708
0.025819439 0.027692905 0.34400001 4286614140
0.026858451 0.027612403 0.34300002 4287273353
0.02789096 0.0275319 0.34200001 4288194457
0.028916979 0.027451398 0.34100002 4287733904
0.029848449 0.027290393 0.33900002 4286680703
0.030766927 0.027129387 0.33700001 4285493606
0.031766962 0.027048886 0.33600003 4284295972
0.032662705 0.026887881 0.33400002 4286662207
0.033646494 0.026807375 0.333 4286664774
0.03472808 0.026807375 0.333 4285410855
0.035702128 0.026726874 0.33200002 4286326817
0.036669683 0.026646372 0.33100003 4286457887
0.037744772 0.026646372 0.33100003 4288236095
0.038819861 0.026646372 0.33100003 4285803037
0.039774418 0.026565868 0.33000001 4286129690
0.040846258 0.026565868 0.33000001 4285406224
0.041918095 0.026565868 0.33000001 4284815629
0.04285967 0.026485367 0.32900003 4284552716
0.043928262 0.026485367 0.32900003 4284027401
0.04499685 0.026485367 0.32900003 4283897357
0.045925427 0.026404863 0.32800001 4283570702
0.046990775 0.026404863 0.32800001 4283308046
0.01384363 0.029480612 0.35200003 4284627499
0.01494435 0.029396858 0.35100001 4286462512
0.016038576 0.029313108 0.35000002 4286066982
0.017126303 0.029229354 0.34900001 4284818455
0.018259855 0.029229354 0.34900001 4284096530
0.01933784 0.029145604 0.34800002 4283046924
0.020468144 0.029145604 0.34800002 4282849807
0.021598449 0.029145604 0.34800002 4283047702
0.022663439 0.02906185 0.347 4282456600
0.023721937 0.0289781 0.34600002 4286746244
0.024845745 0.0289781 0.34600002 4286814347
0.025894497 0.02889435 0.34500003 4286946187
0.026936755 0.028810596 0.34400001 4287340945
0.027972514 0.028726846 0.34300002 4287209359
0.028916979 0.028559342 0.34100002 4287275152
0.029848449 0.028391838 0.33900002 4287275152
0.030766927 0.028224334 0.33700001 4286946187
0.031672414 0.02805683 0.33500001 4288061071
0.032662705 0.02797308 0.33400002 4283779131
0.033646494 0.027889326 0.333 4285476389
0.034623791 0.027805576 0.33200002 4285868063
0.035594594 0.027721826 0.33100003 4286261533
0.036669683 0.027721826 0.33100003 4286327069
0.037744772 0.027721826 0.33100003 4285932311
0.038702577 0.027638072 0.33000001 4285800982
0.039774418 0.027638072 0.33000001 4285341973
0.040846258 0.027638072 0.33000001 4284881168
0.041791074 0.027554322 0.32900003 4284224523
0.04285967 0.027554322 0.32900003 4283895815
0.043928262 0.027554322 0.32900003 4283306249
0.04499685 0.027554322 0.32900003 4283110669
0.010502495 0.030885298 0.35500002 4288253057
0.011622703 0.030798296 0.354 4285219386
0.012772494 0.030798296 0.354 4286198570
0.01384363 0.030624295 0.35200003 4286067236
0.01494435 0.030537292 0.35100001 4285477152
0.016084399 0.030537292 0.35100001 4284949525
0.017175376 0.030450294 0.35000002 4284096528
0.018312177 0.030450294 0.35000002 4283045641
0.019393407 0.030363292 0.34900001 4282784014
0.02052696 0.030363292 0.34900001 4282718737
0.021598449 0.030276291 0.34800002 4282133541
0.022728752 0.030276291 0.34800002 4287798162
0.023790497 0.030189289 0.347 4286749324
0.024917552 0.030189289 0.347 4286880910
0.025969554 0.030102288 0.34600002 4287407254
0.02701506 0.03001529 0.34500003 4287144082
0.028054066 0.029928287 0.34400001 4287210129
0.029001778 0.029754285 0.34200001 4287144336
0.030112594 0.029754285 0.34200001 4286880910
0.031223409 0.029754285 0.34200001 4287143566
0.031577874 0.029058279 0.33400002 4287011467
0.032564908 0.028971277 0.333 4287208074
0.033545457 0.028884279 0.33200002 4285551433
0.034519505 0.028797278 0.33100003 4285608234
0.035594594 0.028797278 0.33100003 4285474070
0.036669683 0.028797278 0.33100003 4285670166
0.037630737 0.028710276 0.33000001 4285209617
0.038702577 0.028710276 0.33000001 4285078031
0.039774418 0.028710276 0.33000001 4284750865
0.040722482 0.028623275 0.32900003 4284028173
0.041791074 0.028623275 0.32900003 4283568905
0.008219501 0.032128979 0.35600001 4287339148
0.0093757901 0.032128979 0.35600001 4285620824
0.010502495 0.03203873 0.35500002 4286068274
0.011655536 0.03203873 0.35500002 4285935916
0.012772494 0.031948481 0.354 4286460454
0.013882958 0.031858232 0.35300002 4285934623
0.014986928 0.031767983 0.35200003 4285147420
0.016084399 0.03167773 0.35100001 4284423697
0.017224448 0.03167773 0.35100001 4283177227
0.018312177 0.031587481 0.35000002 4282849291
0.019448977 0.031587481 0.35000002 4282653459
0.02052696 0.031497229 0.34900001 4283116840
0.021660512 0.031497229 0.34900001 4287340430
0.022728752 0.03140698 0.34800002 4286946187
0.023859059 0.03140698 0.34800002 4286814347
0.024917552 0.031316731 0.347 4287143312
0.026044609 0.031316731 0.347 4287144082
0.027093364 0.03122648 0.34600002 4287144082
0.02813562 0.031136231 0.34500003 4287078289
0.029256182 0.031136231 0.34500003 4287078543
0.030376742 0.031136231 0.34500003 4287012750
0.0314973 0.031136231 0.34500003 4286881164
0.032617863 0.031136231 0.34500003 4286946187
0.032467119 0.029962981 0.33200002 4286682761
0.033545457 0.029962981 0.33200002 4287076488
0.034519505 0.029872732 0.33100003 4284372804
0.035594594 0.029872732 0.33100003 4284818968
0.036558896 0.029782481 0.33000001 4284817685
0.037630737 0.029782481 0.33000001 4284750865
0.038702577 0.029782481 0.33000001 4284487695
0.03965389 0.029692233 0.32900003 4284094736
0.040722482 0.029692233 0.32900003 4283437835
0.0070632128 0.033285659 0.35600001 4286945933
0.008219501 0.033285659 0.35600001 4286802270
0.0093757901 0.033285659 0.35600001 4286068526
0.010502495 0.033192161 0.35500002 4285672996
0.011622703 0.03309866 0.354 4289292379
0.012772494 0.03309866 0.354 4287382839
0.013882958 0.033005163 0.35300002 4286132002
0.014986928 0.032911666 0.35200003 4284818457
0.016130224 0.032911666 0.35200003 4283504655
0.017224448 0.032818165 0.35100001 4282717967
0.018364497 0.032818165 0.35100001 4282652944
0.019448977 0.032724667 0.35000002 4281208843
0.020585777 0.032724667 0.35000002 4288322448
0.021660512 0.032631166 0.34900001 4286880392
0.022794064 0.032631166 0.34900001 4286946185
0.023859059 0.032537669 0.34800002 4286880394
0.024989363 0.032537669 0.34800002 4287143566
0.026044609 0.032444168 0.347 4287143566
0.027093364 0.032350671 0.34600002 4287209359
0.02821717 0.032350671 0.34600002 4287144336
0.029340981 0.032350671 0.34600002 4287144336
0.030464789 0.032350671 0.34600002 4286881164
0.031588595 0.032350671 0.34600002 4287012750
0.032712407 0.032350671 0.34600002 4287144336
0.033836212 0.032350671 0.34600002 4286420613
0.033444416 0.030948186 0.33100003 4287601803
0.034519505 0.030948186 0.33100003 4283186215
0.035487056 0.030854685 0.33000001 4284097814
0.036558896 0.030854685 0.33000001 4284359704
0.037630737 0.030854685 0.33000001 4284359191
0.038585298 0.030761188 0.32900003 4284161812
0.03965389 0.030761188 0.32900003 4283504655
0.040722482 0.030761188 0.32900003 4283242255
0.0070632128 0.034442339 0.35600001 4287735188
0.008219501 0.034442339 0.35600001 4285411879
0.0093494533 0.034345593 0.35500002 4286591786
0.010502495 0.034345593 0.35500002 4290279276
0.011622703 0.034248844 0.354 4285738019
0.012772494 0.034248844 0.354 4288632652
0.013882958 0.034152094 0.35300002 4285211416
