# .PCD v0.7 - Point Cloud Data file format
VERSION 0.7
FIELDS x y z rgb
SIZE 4 4 4 4
TYPE F F F U
COUNT 1 1 1 1
WIDTH 1023
HEIGHT 1
VIEWPOINT 0 0 0 1 0 0 0
POINTS 1023
DATA ascii
0.11248914 -0.0072463737 0.42700002 4279061539
0.11387604 -0.0072463737 0.42700002 4279193123
0.11526294 -0.0072463737 0.42700002 4279587881
0.11664983 -0.0072463737 0.42700002 4279193636
0.11831316 -0.0072633442 0.42800003 4279062050
0.11970331 -0.0072633442 0.42800003 4278995744
0.12109346 -0.0072633442 0.42800003 4279583781
0.037439633 -0.0054336465 0.39600003 4280232991
0.038628045 -0.0054199249 0.39500001 4280167711
0.080240592 -0.005639466 0.41100001 4285632640
0.08157552 -0.005639466 0.41100001 4286093445
0.083112173 -0.0056531876 0.41200003 4285961859
0.084450357 -0.0056531876 0.41200003 4283792232
0.085996754 -0.0056669088 0.41300002 4281292612
0.087761126 -0.0056943516 0.41500002 4280635704
0.089323759 -0.0057080728 0.41600001 4280307250
0.090674929 -0.0057080728 0.41600001 4279914799
0.092247322 -0.0057217944 0.41700003 4279914799
0.093826197 -0.0057355152 0.41800001 4279455014
0.095411584 -0.0057492368 0.41900003 4279586600
0.097003452 -0.005762958 0.42000002 4279258146
0.098601818 -0.0057766796 0.42100003 4279258146
0.10020669 -0.0057904008 0.42200002 4279127330
0.10181805 -0.005804122 0.42300001 4279193123
0.10319195 -0.005804122 0.42300001 4279258914
0.10456585 -0.005804122 0.42300001 4279061535
0.1061902 -0.0058178436 0.42400002 4278996255
0.10782105 -0.0058315648 0.42500001 4278996257
0.10920145 -0.0058315648 0.42500001 4278996255
0.11084206 -0.0058452864 0.42600003 4278864669
0.1122257 -0.0058452864 0.42600003 4278930462
0.11360936 -0.0058452864 0.42600003 4278733083
0.11526294 -0.0058590076 0.42700002 4278733083
0.11664983 -0.0058590076 0.42700002 4278667290
0.11803672 -0.0058590076 0.42700002 4278864669
0.11942363 -0.0058590076 0.42700002 4278798363
0.12109346 -0.0058727288 0.42800003 4279848234
0.1224836 -0.0058727288 0.42800003 4283332447
0.036153425 -0.0041470015 0.39600003 4280234016
0.037345089 -0.0041365293 0.39500001 4279904026
0.038530257 -0.0041260575 0.39400002 4279707160
0.039809968 -0.0041260575 0.39400002 4280035871
0.044700753 -0.004105113 0.39200002 4280504633
0.071352296 -0.0042517241 0.40600002 4285698948
0.072670989 -0.0042517241 0.40600002 4285830534
0.074171908 -0.0042621959 0.40700001 4285830532
0.07549385 -0.0042621959 0.40700001 4285897095
0.07700453 -0.0042726686 0.40800002 4284449903
0.078521691 -0.0042831404 0.40900001 4282279247
0.080045357 -0.0042936131 0.41000003 4280700727
0.08157552 -0.0043040849 0.41100001 4279715113
0.082910441 -0.0043040849 0.41100001 4280308787
0.084450357 -0.0043145572 0.41200003 4279456043
0.085996754 -0.0043250294 0.41300002 4279192871
0.087549657 -0.0043355017 0.41400003 4279390504
0.089109041 -0.004345974 0.41500002 4279193638
0.090674929 -0.0043564462 0.41600001 4279062050
0.0920261 -0.0043564462 0.41600001 4279127843
0.093601733 -0.0043669185 0.41700003 4278996257
0.095183864 -0.0043773907 0.41800001 4279062048
0.096772492 -0.004387863 0.41900003 4279062302
0.098367609 -0.0043983352 0.42000002 4278930716
0.099969231 -0.0044088075 0.42100003 4278733853
0.10157734 -0.0044192798 0.42200002 4278602521
0.102948 -0.0044192798 0.42200002 4278602521
0.10456585 -0.0044297515 0.42300001 4278470935
0.10593975 -0.0044297515 0.42300001 4278733337
0.10756736 -0.0044402243 0.42400002 4278667544
0.10894451 -0.0044402243 0.42400002 4278404372
0.11058186 -0.0044506961 0.42500001 4278535958
0.11196226 -0.0044506961 0.42500001 4278469652
0.11360936 -0.0044611688 0.42600003 4278601238
0.11499301 -0.0044611688 0.42600003 4278667031
0.11664983 -0.0044716406 0.42700002 4278732824
0.11803672 -0.0044716406 0.42700002 4278995742
0.11942363 -0.0044716406 0.42700002 4279192353
0.12109346 -0.0044821128 0.42800003 4279518504
0.1224836 -0.0044821128 0.42800003 4285108860
0.036062125 -0.0028531342 0.39500001 4279904537
0.037345089 -0.0028531342 0.39500001 4279838233
0.038530257 -0.0028459111 0.39400002 4279509268
0.039708927 -0.0028386877 0.39300001 4279837979
0.040985391 -0.0028386877 0.39300001 4279837979
0.042261854 -0.0028386877 0.39300001 4279642651
0.044700753 -0.0028314649 0.39200002 4279452711
0.045973971 -0.0028314649 0.39200002 4279454508
0.047247186 -0.0028314649 0.39200002 4280243512
0.048520405 -0.0028314649 0.39200002 4285898892
0.063961327 -0.002896473 0.40100002 4285830534
0.065263778 -0.002896473 0.40100002 4285764741
0.066732228 -0.0029036959 0.40200001 4285830534
0.068207167 -0.0029109193 0.40300003 4286226062
0.069688611 -0.0029181424 0.40400001 4285239678
0.071176551 -0.0029253655 0.40500003 4282608212
0.072670989 -0.0029325886 0.40600002 4280833596
0.073989674 -0.0029325886 0.40600002 4280505401
0.07549385 -0.0029398117 0.40700001 4279782959
0.07700453 -0.0029470348 0.40800002 4279585580
0.078329705 -0.0029470348 0.40800002 4279521838
0.079850122 -0.0029542579 0.40900001 4279192871
0.081377044 -0.002961481 0.41000003 4279193125
0.082910441 -0.0029687041 0.41100001 4279127330
0.084245376 -0.0029687041 0.41100001 4279062050
0.085788533 -0.0029759274 0.41200003 4278930464
0.087338179 -0.0029831503 0.41300002 4278997279
0.08889433 -0.0029903736 0.41400003 4278932000
0.09045697 -0.0029975967 0.41500002 4278931486
0.0920261 -0.0030048196 0.41600001 4278931486
0.093601733 -0.003012043 0.41700003 4278864923
0.094956152 -0.003012043 0.41700003 4278535958
0.096541531 -0.0030192661 0.41800001 4278601751
0.0981334 -0.0030264892 0.41900003 4278535958
0.099731773 -0.0030337123 0.42000002 4278601497
0.10133664 -0.0030409356 0.42100003 4278206739
0.10270405 -0.0030409356 0.42100003 4278469652
0.10431866 -0.0030481585 0.42200002 4278601238
0.10568931 -0.0030481585 0.42200002 4278797593
0.10731366 -0.0030553816 0.42300001 4278994459
0.10894451 -0.0030626049 0.42400002 4278994459
0.11032167 -0.0030626049 0.42400002 4279126045
0.11196226 -0.0030698278 0.42500001 4279256347
0.11334267 -0.0030698278 0.42500001 4279585314
0.11499301 -0.0030770511 0.42600003 4279388957
0.11637665 -0.0030770511 0.42600003 4279388957
0.11803672 -0.0030842742 0.42700002 4279388705
0.11942363 -0.0030842742 0.42700002 4279454498
0.12081052 -0.0030842742 0.42700002 4279649572
0.1224836 -0.0030914973 0.42800003 4285831554
0.036062125 -0.0015697388 0.39500001 4279707158
0.037250545 -0.0015657649 0.39400002 4279904026
0.038530257 -0.0015657649 0.39400002 4279706647
0.039708927 -0.0015617908 0.39300001 4280101405
0.040985391 -0.0015617908 0.39300001 4279706647
0.04215432 -0.0015578169 0.39200002 4279837979
0.043427538 -0.0015578169 0.39200002 4279444502
0.044700753 -0.0015578169 0.39200002 4279056924
0.045973971 -0.0015578169 0.39200002 4279389221
0.047247186 -0.0015578169 0.39200002 4279456297
0.048520405 -0.0015578169 0.39200002 4279455791
0.049920641 -0.0015617908 0.39300001 4283201379
0.055306535 -0.0015697388 0.39500001 4285895814
0.056589499 -0.0015697388 0.39500001 4285895814
0.05930518 -0.0015737129 0.39600003 4285764741
0.062346369 -0.001585635 0.39900002 4286094476
0.063801818 -0.001589609 0.40000001 4284383856
0.065263778 -0.001593583 0.40100002 4281424452
0.066732228 -0.001597557 0.40200001 4279519791
0.068207167 -0.0016015311 0.40300003 4280112442
0.069516115 -0.0016015311 0.40300003 4279915313
0.071176551 -0.0016094792 0.40500003 4279257894
0.072491996 -0.0016094792 0.40500003 4279127332
0.073989674 -0.0016134531 0.40600002 4279061539
0.07549385 -0.0016174271 0.40700001 4279127845
0.076815784 -0.0016174271 0.40700001 4278931236
0.078329705 -0.0016214012 0.40800002 4278997027
0.079850122 -0.0016253751 0.40900001 4278865955
0.081377044 -0.0016293493 0.41000003 4278800160
0.082708716 -0.0016293493 0.41000003 4278865953
0.084245376 -0.0016333233 0.41100001 4278800160
0.085788533 -0.0016372973 0.41200003 4278471195
0.087338179 -0.0016412713 0.41300002 4278734621
0.08889433 -0.0016452454 0.41400003 4278405142
0.090239003 -0.0016452454 0.41400003 4278535958
0.091804892 -0.0016492193 0.41500002 4278667031
0.09337727 -0.0016531934 0.41600001 4278732824
0.094956152 -0.0016571674 0.41700003 4278798617
0.096541531 -0.0016611414 0.41800001 4278798617
0.097899191 -0.0016611414 0.41800001 4278666777
0.099494316 -0.0016651155 0.41900003 4278929181
0.10109594 -0.0016690894 0.42000002 4278994461
0.10270405 -0.0016730635 0.42100003 4278994459
0.10407146 -0.0016730635 0.42100003 4279125531
0.10568931 -0.0016770376 0.42200002 4279848484
0.10705996 -0.0016770376 0.42200002 4278333962
0.10868756 -0.0016810115 0.42300001 4278198528
0.11006147 -0.0016810115 0.42300001 4278398476
0.11169882 -0.0016849856 0.42400002 4279911715
0.11307598 -0.0016849856 0.42400002 4278595341
0.11472306 -0.0016889595 0.42500001 4279257117
0.11637665 -0.0016929336 0.42600003 4279454496
0.1177603 -0.0016929336 0.42600003 4279322914
0.11942363 -0.0016969076 0.42700002 4279256867
0.12081052 -0.0016969076 0.42700002 4279516453
0.12219742 -0.0016969076 0.42700002 4286093445
0.036062125 -0.00028634348 0.39500001 4280036123
0.037250545 -0.00028561856 0.39400002 4279772440
0.038530257 -0.00028561856 0.39400002 4279640854
0.039708927 -0.00028489364 0.39300001 4279904026
0.040985391 -0.00028489364 0.39300001 4279706647
0.04215432 -0.00028416872 0.39200002 4279706647
0.043427538 -0.00028416872 0.39200002 4279838746
0.044700753 -0.00028416872 0.39200002 4279184660
0.045973971 -0.00028416872 0.39200002 4279190045
0.047367714 -0.00028489364 0.39300001 4278667292
0.048644178 -0.00028489364 0.39300001 4279127843
0.049920641 -0.00028489364 0.39300001 4279127845
0.051327381 -0.00028561856 0.39400002 4279784240
0.052607097 -0.00028561856 0.39400002 4282675548
0.053886805 -0.00028561856 0.39400002 4285174399
0.055306535 -0.00028634348 0.39500001 4285766276
0.056589499 -0.00028634348 0.39500001 4284582002
0.057872459 -0.00028634348 0.39500001 4282938461
0.05930518 -0.00028706843 0.39600003 4280898108
0.060744397 -0.00028779331 0.39700001 4279782963
0.062190115 -0.00028851826 0.39800003 4279914547
0.063642316 -0.00028924318 0.39900002 4279782959
0.06510102 -0.00028996807 0.40000001 4279454762
0.066566229 -0.00029069302 0.40100002 4279192871
0.06803792 -0.00029141793 0.40200001 4279127845
0.069516115 -0.00029214285 0.40300003 4278931236
0.071000807 -0.00029286777 0.40400001 4279062820
0.072491996 -0.00029359269 0.40500003 4278931232
0.073807433 -0.00029359269 0.40500003 4279062818
0.07530836 -0.00029431761 0.40600002 4278932000
0.076815784 -0.00029504253 0.40700001 4278668574
0.078329705 -0.00029576744 0.40800002 4278734367
0.079654895 -0.00029576744 0.40800002 4278339609
0.081178561 -0.00029649236 0.40900001 4278536474
0.082708716 -0.00029721731 0.41000003 4278206995
0.084245376 -0.0002979422 0.41100001 4278733337
0.085580304 -0.0002979422 0.41100001 4278667031
0.08712671 -0.00029866715 0.41200003 4278995996
0.088679604 -0.00029939206 0.41300002 4279126812
0.090239003 -0.00030011698 0.41400003 4279191838
0.091804892 -0.0003008419 0.41500002 4279126045
0.093152806 -0.0003008419 0.41500002 4279191838
0.09472844 -0.00030156682 0.41600001 4279126045
0.096310571 -0.00030229174 0.41700003 4278994459
0.097899191 -0.00030301666 0.41800001 4279388705
0.099494316 -0.00030374157 0.41900003 4278795033
0.10085523 -0.00030374157 0.41900003 4278199815
0.10246009 -0.00030446649 0.42000002 4278198786
0.10407146 -0.00030519141 0.42100003 4278464785
0.10543887 -0.00030519141 0.42100003 4279056406
0.10705996 -0.00030591633 0.42200002 4279977508
0.10843062 -0.00030591633 0.42200002 4279846690
0.11006147 -0.00030664125 0.42300001 4279781410
0.11143538 -0.00030664125 0.42300001 4280306471
0.11307598 -0.00030736616 0.42400002 4279912485
0.11445314 -0.00030736616 0.42400002 4279256867
0.11610346 -0.00030809108 0.42500001 4279388453
0.1177603 -0.00030881603 0.42600003 4279520039
0.11914395 -0.00030881603 0.42600003 4279322660
0.12081052 -0.00030954092 0.42700002 4282935640
0.036153425 0.00099957618 0.39600003 4280101918
0.037345089 0.00099705195 0.39500001 4279772440
0.038530257 0.00099452771 0.39400002 4279838233
0.039809968 0.00099452771 0.39400002 4280232989
0.043427538 0.00098947936 0.39200002 4280233504
0.044814784 0.00099200348 0.39300001 4279906332
0.046091251 0.00099200348 0.39300001 4279055125
0.047367714 0.00099200348 0.39300001 4278666009
0.048644178 0.00099200348 0.39300001 4278601499
0.05004767 0.00099452771 0.39400002 4278799646
0.051327381 0.00099452771 0.39400002 4279194404
0.052607097 0.00099452771 0.39400002 4279193384
0.053886805 0.00099452771 0.39400002 4279258666
0.055306535 0.00099705195 0.39500001 4279521838
0.056589499 0.00099705195 0.39500001 4279456043
0.057872459 0.00099705195 0.39500001 4279390504
0.05930518 0.00099957618 0.39600003 4279390504
0.060744397 0.0010021003 0.39700001 4278996259
0.062190115 0.0010046245 0.39800003 4278930464
0.063642316 0.0010071486 0.39900002 4278996257
0.06510102 0.0010096728 0.40000001 4279456808
0.066400222 0.0010096728 0.40000001 4279391785
0.067868672 0.001012197 0.40100002 4279194406
0.069343619 0.0010147212 0.40200001 4279260711
0.070825063 0.0010172453 0.40300003 4278931746
0.072313003 0.0010197696 0.40400001 4278602781
0.073807433 0.0010222938 0.40500003 4278206995
0.07530836 0.0010248179 0.40600002 4278339609
0.076627053 0.0010248179 0.40600002 4278536474
0.078137718 0.001027342 0.40700001 4278733853
0.079654895 0.0010298663 0.40800002 4278799646
0.081178561 0.0010323904 0.40900001 4278733337
0.082506984 0.0010323904 0.40900001 4278864923
0.084040403 0.0010349146 0.41000003 4278929949
0.085580304 0.0010374389 0.41100001 4278929949
0.08712671 0.0010399631 0.41200003 4278797593
0.088679604 0.0010424872 0.41300002 4279126045
0.090021029 0.0010424872 0.41300002 4279520289
0.091583677 0.0010450114 0.41400003 4278928152
0.093152806 0.0010475356 0.41500002 4278268173
0.09472844 0.0010500597 0.41600001 4278198529
0.096310571 0.0010525839 0.41700003 4278267406
0.097664982 0.0010525839 0.41700003 4280109610
0.099256858 0.0010551082 0.41800001 4280307502
0.10085523 0.0010576323 0.41900003 4279649059
0.10246009 0.0010601565 0.42000002 4279583779
0.10382425 0.0010601565 0.42000002 4279649572
0.10543887 0.0010626807 0.42100003 4279452193
0.10705996 0.0010652049 0.42200002 4279452447
0.10843062 0.0010652049 0.42200002 4278202378
0.11006147 0.001067729 0.42300001 4279584033
0.11143538 0.001067729 0.42300001 4278529808
0.11307598 0.0010702532 0.42400002 4279846438
0.11445314 0.0010702532 0.42400002 4279783213
0.11610346 0.0010727773 0.42500001 4279257383
0.11748386 0.0010727773 0.42500001 4279585832
0.11914395 0.0010753016 0.42600003 4279058207
0.036153425 0.0022862207 0.39600003 4280167709
0.037439633 0.0022862207 0.39600003 4279838233
0.038628045 0.0022804472 0.39500001 4280101405
0.044928819 0.0022746741 0.39400002 4279775516
0.046208534 0.0022746741 0.39400002 4279055125
0.047488246 0.0022746741 0.39400002 4278796568
0.048767958 0.0022746741 0.39400002 4278600216
0.05004767 0.0022746741 0.39400002 4278535704
0.051327381 0.0022746741 0.39400002 4278931232
0.052607097 0.0022746741 0.39400002 4281431368
0.053886805 0.0022746741 0.39400002 4282811738
0.055306535 0.0022804472 0.39500001 4279917361
0.056589499 0.0022804472 0.39500001 4279194406
0.057872459 0.0022804472 0.39500001 4279062820
0.05930518 0.0022862207 0.39600003 4278997027
0.060744397 0.0022919939 0.39700001 4278931748
0.062033854 0.0022919939 0.39700001 4278931748
0.063482814 0.0022977672 0.39800003 4278668574
0.06493827 0.0023035405 0.39900002 4278734367
0.066400222 0.0023093137 0.40000001 4278339095
0.067868672 0.002315087 0.40100002 4278602267
0.069343619 0.0023208603 0.40200001 4278470681
0.070825063 0.0023266335 0.40300003 4278602267
0.072313003 0.0023324068 0.40400001 4278536474
0.073807433 0.0023381801 0.40500003 4278864669
0.075122878 0.0023381801 0.40500003 4279061535
0.076627053 0.0023439534 0.40600002 4278929949
0.078137718 0.0023497266 0.40700001 4278798363
0.07945966 0.0023497266 0.40700001 4278732570
0.080980077 0.0023554999 0.40800002 4278798363
0.082506984 0.0023612732 0.40900001 4278863386
0.084040403 0.0023670467 0.41000003 4279060765
0.085372083 0.0023670467 0.41000003 4278796566
0.086915232 0.0023728197 0.41100001 4278199552
0.088464886 0.0023785932 0.41200003 4278199297
0.090021029 0.0023843665 0.41300002 4278727441
0.091583677 0.0023901397 0.41400003 4280109094
0.093152806 0.002395913 0.41500002 4279912485
0.09472844 0.0024016863 0.41600001 4279715365
0.09607961 0.0024016863 0.41600001 4278991644
0.097664982 0.0024074595 0.41700003 4279583779
0.099256858 0.0024132328 0.41800001 4279715365
0.10085523 0.0024190061 0.41900003 4278662677
0.10246009 0.0024247793 0.42000002 4278333714
0.10382425 0.0024247793 0.42000002 4278991644
0.10543887 0.0024305528 0.42100003 4278859545
0.10705996 0.0024363259 0.42200002 4278529810
0.10843062 0.0024363259 0.42200002 4278529808
0.10980128 0.0024363259 0.42200002 4279714852
0.11143538 0.0024420992 0.42300001 4278199557
0.11280929 0.0024420992 0.42300001 4279715365
0.11445314 0.0024478727 0.42400002 4279454246
0.11583027 0.0024478727 0.42400002 4279585832
0.11748386 0.0024536457 0.42500001 4279584810
0.11914395 0.0024594192 0.42600003 4284318578
0.034955263 0.0035818873 0.39700001 4279773467
0.036244716 0.0035818873 0.39700001 4280167711
0.037534177 0.0035818873 0.39700001 4279904026
0.038725842 0.0035728649 0.39600003 4280429598
0.04504285 0.0035638425 0.39500001 4279315732
0.046325814 0.0035638425 0.39500001 4279317527
0.04760877 0.0035638425 0.39500001 4278730005
0.048891731 0.0035638425 0.39500001 4278468117
0.050174691 0.0035638425 0.39500001 4278337814
0.051457655 0.0035638425 0.39500001 4278667290
0.052740615 0.0035638425 0.39500001 4278602781
0.054023571 0.0035638425 0.39500001 4278931232
0.055306535 0.0035638425 0.39500001 4278470935
0.056589499 0.0035638425 0.39500001 4278734621
0.057872459 0.0035638425 0.39500001 4278668828
0.05930518 0.0035728649 0.39600003 4278339609
0.060591388 0.0035728649 0.39600003 4278405402
0.062033854 0.0035818873 0.39700001 4278207254
0.063482814 0.0035909098 0.39800003 4278799646
0.06493827 0.0035999322 0.39900002 4278799646
0.066400222 0.0036089544 0.40000001 4278733083
0.067699425 0.0036089544 0.40000001 4278798363
0.069171123 0.003617977 0.40100002 4278732570
0.070649318 0.0036269992 0.40200001 4278995742
0.07213401 0.0036360216 0.40300003 4278929179
0.073625192 0.0036450441 0.40400001 4278863386
0.075122878 0.0036540665 0.40500003 4279126045
0.076627053 0.0036630889 0.40600002 4278797080
0.078137718 0.0036721111 0.40700001 4279190304
0.07945966 0.0036721111 0.40700001 4278202639
0.080980077 0.0036811335 0.40800002 4278198530
0.082506984 0.0036901559 0.40900001 4278198023
0.083835423 0.0036901559 0.40900001 4278529548
0.085372083 0.0036991783 0.41000003 4279847205
0.086915232 0.0037082008 0.41100001 4279649824
0.088464886 0.0037172232 0.41200003 4279846690
0.090021029 0.0037262456 0.41300002 4279649311
0.091583677 0.003735268 0.41400003 4278267658
0.092928343 0.003735268 0.41400003 4278199811
0.094500728 0.0037442902 0.41500002 4278531093
0.09607961 0.0037533126 0.41600001 4279912231
0.097664982 0.0037623351 0.41700003 4278529810
0.099256858 0.0037713575 0.41800001 4278200591
0.10085523 0.0037803799 0.41900003 4278331663
0.10246009 0.0037894021 0.42000002 4279450658
0.10382425 0.0037894021 0.42000002 4278200331
0.10543887 0.0037984247 0.42100003 4279846438
0.10705996 0.0038074469 0.42200002 4279517473
0.10843062 0.0038074469 0.42200002 4279714852
0.10980128 0.0038074469 0.42200002 4278398222
0.11143538 0.0038164693 0.42300001 4279649059
0.11280929 0.0038164693 0.42300001 4279781928
0.11418319 0.0038164693 0.42300001 4279914027
0.11583027 0.0038254918 0.42400002 4279781928
0.035043314 0.0048840526 0.39800003 4280298784
0.036336016 0.0048840526 0.39800003 4280232991
0.037628721 0.0048840526 0.39800003 4280298012
0.038823631 0.004871781 0.39700001 4280561184
0.040113091 0.004871781 0.39700001 4281548847
0.045156885 0.0048595094 0.39600003 4278987279
0.046443094 0.0048595094 0.39600003 4279318297
0.047729302 0.0048595094 0.39600003 4278926103
0.048891731 0.0048472378 0.39500001 4278400527
0.050174691 0.0048472378 0.39500001 4278533910
0.051457655 0.0048472378 0.39500001 4278797595
0.052740615 0.0048472378 0.39500001 4278733085
0.054023571 0.0048472378 0.39500001 4278601497
0.055306535 0.0048472378 0.39500001 4278601497
0.056589499 0.0048472378 0.39500001 4278601497
0.057872459 0.0048472378 0.39500001 4278733083
0.05930518 0.0048595094 0.39600003 4278930462
0.060591388 0.0048595094 0.39600003 4278996255
0.062033854 0.004871781 0.39700001 4278864669
0.063482814 0.0048840526 0.39800003 4278864669
0.06493827 0.0048963241 0.39900002 4278798363
0.066234224 0.0048963241 0.39900002 4278203662
0.067699425 0.0049085952 0.40000001 4278531861
0.069171123 0.0049208668 0.40100002 4278993947
0.070649318 0.0049331384 0.40200001 4279257119
0.07213401 0.0049454099 0.40300003 4278530830
0.073625192 0.0049576815 0.40400001 4278198784
0.075122878 0.0049699531 0.40500003 4278196224
0.076627053 0.0049822242 0.40600002 4278328583
0.077945739 0.0049822242 0.40600002 4278787601
0.07945966 0.0049944958 0.40700001 4278655502
0.080980077 0.0050067673 0.40800002 4278721549
0.08230526 0.0050067673 0.40800002 4278918928
0.083835423 0.0050190389 0.40900001 4280239912
0.085372083 0.0050313105 0.41000003 4280109864
0.086915232 0.0050435816 0.41100001 4278330632
0.08825016 0.0050435816 0.41100001 4278263558
0.089803062 0.0050558536 0.41200003 4279318551
0.091362454 0.0050681247 0.41300002 4279977506
0.092928343 0.0050803963 0.41400003 4278464785
0.094500728 0.0050926679 0.41500002 4278859545
0.09607961 0.005104939 0.41600001 4279254303
0.097664982 0.005117211 0.41700003 4279846440
0.099256858 0.0051294821 0.41800001 4279451682
0.10085523 0.0051417537 0.41900003 4280240426
0.10246009 0.0051540253 0.42000002 4279911461
0.10382425 0.0051540253 0.42000002 4278858775
0.10543887 0.0051662968 0.42100003 4278198018
0.10705996 0.0051785684 0.42200002 4278397710
0.10843062 0.0051785684 0.42200002 4280306221
0.10980128 0.0051785684 0.42200002 4279977254
0.11143538 0.0051908395 0.42300001 4280110123
0.11280929 0.0051908395 0.42300001 4279912744
0.11418319 0.0051908395 0.42300001 4280568627
0.035131361 0.0061927158 0.39900002 4280430368
0.036427312 0.0061927158 0.39900002 4280430368
0.037723266 0.0061927158 0.39900002 4280298012
0.038921427 0.0061771953 0.39800003 4280429598
0.045270916 0.0061616744 0.39700001 4279711772
0.046560373 0.0061616744 0.39700001 4279187224
0.047729302 0.0061461544 0.39600003 4278991642
0.049015511 0.0061461544 0.39600003 4278597908
0.050301719 0.0061461544 0.39600003 4278468117
0.051457655 0.0061306334 0.39500001 4278862875
0.052740615 0.0061306334 0.39500001 4278863388
0.054023571 0.0061306334 0.39500001 4278798365
0.055306535 0.0061306334 0.39500001 4278995744
0.056589499 0.0061306334 0.39500001 4278995744
0.057872459 0.0061306334 0.39500001 4278929951
0.05930518 0.0061461544 0.39600003 4278798365
0.060744397 0.0061616744 0.39700001 4278798363
0.062033854 0.0061616744 0.39700001 4278798363
0.063482814 0.0061771953 0.39800003 4278798363
0.06493827 0.0061927158 0.39900002 4278929179
0.066234224 0.0061927158 0.39900002 4279716387
0.067699425 0.0062082363 0.40000001 4279847203
0.069171123 0.0062237573 0.40100002 4279650594
0.070649318 0.0062392773 0.40200001 4278197760
0.07213401 0.0062547983 0.40300003 4278721547
0.073625192 0.0062703188 0.40400001 4278852365
0.075122878 0.0062858397 0.40500003 4278983951
0.076438315 0.0062858397 0.40500003 4278786572
0.077945739 0.0063013597 0.40600002 4280170276
0.07945966 0.0063168802 0.40700001 4279578139
0.080781594 0.0063168802 0.40700001 4279840541
0.08230526 0.0063324012 0.40800002 4278195715
0.083835423 0.0063479217 0.40900001 4279582496
0.085372083 0.0063634426 0.41000003 4278267660
0.086703762 0.0063634426 0.41000003 4278918924
0.08825016 0.0063789627 0.41100001 4278722830
0.089803062 0.0063944836 0.41200003 4279318299
0.091362454 0.0064100041 0.41300002 4278200331
0.092928343 0.0064255251 0.41400003 4279649572
0.094500728 0.0064410456 0.41500002 4279912744
0.09607961 0.0064565656 0.41600001 4279781158
0.097664982 0.0064720865 0.41700003 4278201099
0.099256858 0.006487607 0.41800001 4278199563
0.10085523 0.006503128 0.41900003 4278200331
0.10246009 0.006518648 0.42000002 4280437805
0.10407146 0.006534169 0.42100003 4280306219
0.10543887 0.006534169 0.42100003 4279912744
0.10705996 0.0065496895 0.42200002 4279912744
0.10843062 0.0065496895 0.42200002 4280371498
0.11006147 0.0065652099 0.42300001 4280107815
0.11143538 0.0065652099 0.42300001 4283528027
0.03781781 0.007507877 0.40000001 4280495391
0.045384951 0.0074703381 0.39800003 4279514906
0.046560373 0.0074515683 0.39700001 4279319324
0.04784983 0.0074515683 0.39700001 4278991642
0.049139284 0.0074515683 0.39700001 4278663447
0.050301719 0.0074327989 0.39600003 4278928156
0.051587928 0.0074327989 0.39600003 4279125533
0.052740615 0.007414029 0.39500001 4278994461
0.054023571 0.007414029 0.39500001 4278995744
0.055306535 0.007414029 0.39500001 4279061537
0.056589499 0.007414029 0.39500001 4278929951
0.057872459 0.007414029 0.39500001 4278798365
0.05930518 0.0074327989 0.39600003 4279060767
0.060744397 0.0074515683 0.39700001 4279126560
0.062033854 0.0074515683 0.39700001 4279258146
0.063482814 0.0074703381 0.39800003 4279126558
0.06493827 0.0074891075 0.39900002 4278797080
0.066234224 0.0074891075 0.39900002 4278197762
0.067699425 0.007507877 0.40000001 4279582496
0.069171123 0.0075266473 0.40100002 4280108326
0.070649318 0.0075454167 0.40200001 4278657550
0.07213401 0.0075641866 0.40300003 4278984721
0.073625192 0.007582956 0.40400001 4279642397
0.075122878 0.0076017259 0.40500003 4279379992
0.076438315 0.0076017259 0.40500003 4279708957
0.077945739 0.0076204957 0.40600002 4278525453
0.07945966 0.0076392652 0.40700001 4280302375
0.080781594 0.0076392652 0.40700001 4280631340
0.08230526 0.007658035 0.40800002 4278196999
0.083835423 0.0076768044 0.40900001 4279451682
0.085163854 0.0076768044 0.40900001 4278529810
0.086703762 0.0076955743 0.41000003 4279052308
0.08825016 0.0077143437 0.41100001 4280631852
0.089803062 0.0077331141 0.41200003 4279581984
0.091362454 0.0077518835 0.41300002 4278397710
0.092928343 0.0077706533 0.41400003 4278199817
0.094500728 0.0077894228 0.41500002 4279516451
0.096310571 0.0078269625 0.41700003 4280503600
0.097664982 0.0078269625 0.41700003 4279978026
0.099256858 0.0078457315 0.41800001 4279912746
0.10085523 0.0078645013 0.41900003 4279912746
0.10246009 0.0078832712 0.42000002 4280175916
0.10407146 0.0079020411 0.42100003 4279649572
0.10543887 0.0079020411 0.42100003 4280108588
0.11006147 0.0079395799 0.42300001 4285830019
0.036609907 0.0088295368 0.40100002 4279904026
0.03781781 0.0088075176 0.40000001 4280100122
0.039117008 0.0088075176 0.40000001 4281613872
0.045384951 0.0087634809 0.39800003 4279514906
0.046677656 0.0087634809 0.39800003 4279187738
0.047970362 0.0087634809 0.39800003 4278663701
0.049139284 0.0087414617 0.39700001 4278664214
0.050428741 0.0087414617 0.39700001 4278928156
0.051587928 0.0087194433 0.39600003 4279059742
0.05287414 0.0087194433 0.39600003 4278862875
0.054023571 0.0086974241 0.39500001 4279126560
0.055306535 0.0086974241 0.39500001 4278666779
0.056589499 0.0086974241 0.39500001 4278995744
0.058018975 0.0087194433 0.39600003 4279060767
0.05930518 0.0087194433 0.39600003 4279192353
0.060744397 0.0087414617 0.39700001 4279060767
0.062190115 0.0087634809 0.39800003 4279126560
0.063482814 0.0087634809 0.39800003 4279126560
0.06493827 0.0087854993 0.39900002 4279652391
0.066400222 0.0088075176 0.40000001 4278199046
0.067699425 0.0088075176 0.40000001 4279779875
0.069171123 0.0088295368 0.40100002 4278198020
0.070649318 0.0088515552 0.40200001 4280104996
0.07213401 0.0088735744 0.40300003 4280894512
0.073625192 0.0088955928 0.40400001 4279117588
0.075122878 0.008917612 0.40500003 4279051027
0.076438315 0.008917612 0.40500003 4279577371
0.077945739 0.0089396304 0.40600002 4278853648
0.079264425 0.0089396304 0.40600002 4278524683
0.080781594 0.0089616496 0.40700001 4278656267
0.08230526 0.0089836689 0.40800002 4279908129
0.08363045 0.0089836689 0.40800002 4279055640
0.085163854 0.0090056872 0.40900001 4278198019
0.086703762 0.0090277065 0.41000003 4278790931
0.08825016 0.0090497248 0.41100001 4281028147
0.089585088 0.0090497248 0.41100001 4280437805
0.091362454 0.0090937624 0.41300002 4279912231
0.092928343 0.0091157816 0.41400003 4279912744
0.09472844 0.0091598183 0.41600001 4280044330
0.096310571 0.0091818376 0.41700003 4279912744
0.097899191 0.0092038559 0.41800001 4279912744
0.099256858 0.0092038559 0.41800001 4279976488
0.10085523 0.0092258751 0.41900003 4281423936
0.10246009 0.0092478935 0.42000002 4284974962
0.10407146 0.0092699127 0.42100003 4286422410
0.10543887 0.0092699127 0.42100003 4285895042
0.036609907 0.010132426 0.40100002 4285432948
0.037912354 0.010132426 0.40100002 4280297760
0.039214805 0.010132426 0.40100002 4281483056
0.044313814 0.010107159 0.40000001 4278854668
0.045498982 0.010081891 0.39900002 4279646746
0.046794936 0.010081891 0.39900002 4279187478
0.047970362 0.010056623 0.39800003 4278663701
0.049263064 0.010056623 0.39800003 4278664214
0.050428741 0.010031355 0.39700001 4278862877
0.051718198 0.010031355 0.39700001 4278928670
0.05287414 0.010006087 0.39600003 4278994461
0.054160345 0.010006087 0.39600003 4279323426
0.055446554 0.010006087 0.39600003 4279060767
0.056732766 0.010006087 0.39600003 4279126560
0.058018975 0.010006087 0.39600003 4278929181
0.059454937 0.010031355 0.39700001 4279192353
0.060744397 0.010031355 0.39700001 4279192355
0.062190115 0.010056623 0.39800003 4279126560
0.063642316 0.010081891 0.39900002 4279126560
0.06493827 0.010081891 0.39900002 4278993179
0.066400222 0.010107159 0.40000001 4279188508
0.067868672 0.010132426 0.40100002 4279583779
0.069171123 0.010132426 0.40100002 4278196997
0.070649318 0.010157694 0.40200001 4279051025
0.07213401 0.010182963 0.40300003 4278655756
0.073625192 0.01020823 0.40400001 4278589963
0.074937381 0.01020823 0.40400001 4278721295
0.076438315 0.010233498 0.40500003 4278852111
0.077945739 0.010258766 0.40600002 4278589709
0.079264425 0.010258766 0.40600002 4278919441
0.080781594 0.010284034 0.40700001 4279579934
0.082103528 0.010284034 0.40700001 4280042535
0.08363045 0.010309302 0.40800002 4279714852
0.085163854 0.010334569 0.40900001 4279780645
0.086492293 0.010334569 0.40900001 4279846438
0.088035442 0.010359838 0.41000003 4279781158
0.089585088 0.010385105 0.41100001 4279912744
0.091141239 0.010410374 0.41200003 4280044330
0.092928343 0.010460909 0.41400003 4280373295
0.09472844 0.010511445 0.41600001 4279977256
0.096310571 0.010536713 0.41700003 4282541902
0.097899191 0.01056198 0.41800001 4285371003
0.099256858 0.01056198 0.41800001 4285896066
0.10085523 0.010587249 0.41900003 4285566331
0.10246009 0.010612517 0.42000002 4286092161
0.044313814 0.0114068 0.40000001 4279579416
0.045613013 0.0114068 0.40000001 4279319064
0.046794936 0.011378283 0.39900002 4279451164
0.048090886 0.011378283 0.39900002 4278729494
0.04938684 0.011378283 0.39900002 4278730007
0.050555769 0.011349767 0.39800003 4278797084
0.051718198 0.011321248 0.39700001 4278994463
0.053007659 0.011321248 0.39700001 4279257635
0.054297112 0.011321248 0.39700001 4279323941
0.055446554 0.011292732 0.39600003 4278731804
0.056732766 0.011292732 0.39600003 4279126562
0.058165487 0.011321248 0.39700001 4279060767
0.059454937 0.011321248 0.39700001 4279192353
0.060897406 0.011349767 0.39800003 4279126560
0.062190115 0.011349767 0.39800003 4279060767
0.063642316 0.011378283 0.39900002 4279126047
0.06510102 0.0114068 0.40000001 4278727957
0.066400222 0.0114068 0.40000001 4278200843
0.067868672 0.011435317 0.40100002 4279978278
0.069171123 0.011435317 0.40100002 4278853646
0.070649318 0.011463834 0.40200001 4278589963
0.07213401 0.011492351 0.40300003 4278523916
0.073625192 0.011520868 0.40400001 4279050773
0.074937381 0.011520868 0.40400001 4280040489
0.076438315 0.011549385 0.40500003 4280502832
0.077753752 0.011549385 0.40500003 4279846438
0.079264425 0.011577902 0.40600002 4279781158
0.080583118 0.011577902 0.40600002 4279782182
0.082103528 0.011606419 0.40700001 4279519523
0.08342547 0.011606419 0.40700001 4279519523
0.084955633 0.011634936 0.40800002 4279716902
0.086280823 0.011634936 0.40800002 4279979561
0.087820716 0.011663453 0.40900001 4279714852
0.089367121 0.01169197 0.41000003 4280633905
0.090920024 0.011720487 0.41100001 4284120168
0.04312215 0.012738207 0.40100002 4280368934
0.044424601 0.012738207 0.40100002 4279449113
0.045613013 0.012706441 0.40000001 4278727957
0.046912216 0.012706441 0.40000001 4278794263
0.048211414 0.012706441 0.40000001 4278664214
0.04938684 0.012674675 0.39900002 4278796570
0.050682791 0.012674675 0.39900002 4278994461
0.051848475 0.01264291 0.39800003 4278994461
0.05314118 0.01264291 0.39800003 4279258146
0.054297112 0.012611143 0.39700001 4279126560
0.055586569 0.012611143 0.39700001 4278666779
0.056876026 0.012611143 0.39700001 4279061537
0.058165487 0.012611143 0.39700001 4278929951
0.059604701 0.01264291 0.39800003 4279127330
0.060897406 0.01264291 0.39800003 4278995744
0.062346369 0.012674675 0.39900002 4279060767
0.063642316 0.012674675 0.39900002 4279388705
0.06510102 0.012706441 0.40000001 4278596371
0.066400222 0.012706441 0.40000001 4279978278
0.067868672 0.012738207 0.40100002 4279781412
0.069343619 0.012769973 0.40200001 4280109094
0.070649318 0.012769973 0.40200001 4280239401
0.07213401 0.012801739 0.40300003 4279977256
0.073625192 0.012833506 0.40400001 4279912233
0.074937381 0.012833506 0.40400001 4279650344
0.076438315 0.012865272 0.40500003 4279781930
0.077753752 0.012865272 0.40500003 4279585062
0.079069197 0.012865272 0.40500003 4279716648
0.080583118 0.012897038 0.40600002 4279650855
0.081901804 0.012897038 0.40600002 4279453476
0.083220489 0.012897038 0.40600002 4280042795
0.084747404 0.012928803 0.40700001 4282542417
0.086069345 0.012928803 0.40700001 4285567101
0.087605998 0.01296057 0.40800002 4285961089
0.088931188 0.01296057 0.40800002 4285565817
0.090698808 0.013024103 0.41000003 4285631610
0.044424601 0.014041097 0.40100002 4279318299
0.045727048 0.014041097 0.40100002 4279319324
0.046912216 0.014006081 0.40000001 4279056922
0.048211414 0.014006081 0.40000001 4278729494
0.04938684 0.013971067 0.39900002 4279059742
0.050682791 0.013971067 0.39900002 4279060767
0.051978745 0.013971067 0.39900002 4279192353
0.05314118 0.013936052 0.39800003 4279258146
0.054433882 0.013936052 0.39800003 4279060767
0.055726588 0.013936052 0.39800003 4279258146
0.057019293 0.013936052 0.39800003 4279060767
0.058312003 0.013936052 0.39800003 4279060767
0.059604701 0.013936052 0.39800003 4279060767
0.061050415 0.013971067 0.39900002 4279126560
0.062346369 0.013971067 0.39900002 4279192353
0.063801818 0.014006081 0.40000001 4278729753
0.06510102 0.014006081 0.40000001 4279123230
0.066566229 0.014041097 0.40100002 4279452447
0.067868672 0.014041097 0.40100002 4279650596
0.069343619 0.014076112 0.40200001 4279584803
0.070649318 0.014076112 0.40200001 4279979561
0.07213401 0.014111128 0.40300003 4279584549
0.073442951 0.014111128 0.40300003 4279848234
0.074937381 0.014146143 0.40400001 4279452963
0.076249577 0.014146143 0.40400001 4279584297
0.077753752 0.014181159 0.40500003 4280963385
0.079069197 0.014181159 0.40500003 4283397213
0.080384642 0.014181159 0.40500003 4285896066
0.081700079 0.014181159 0.40500003 4285896066
0.083220489 0.014216173 0.40600002 4285303157
0.084539182 0.014216173 0.40600002 4285434743
0.085857876 0.014216173 0.40600002 4285631608
0.08739128 0.014251187 0.40700001 4285631608
0.088713214 0.014251187 0.40700001 4285631610
0.045727048 0.015343987 0.40100002 4279187738
0.047029499 0.015343987 0.40100002 4279057176
0.048211414 0.015305722 0.40000001 4278795285
0.049510613 0.015305722 0.40000001 4278993947
0.050682791 0.015267458 0.39900002 4278929181
0.051978745 0.015267458 0.39900002 4278666009
0.053274699 0.015267458 0.39900002 4279193123
0.054570649 0.015267458 0.39900002 4279258916
0.055866603 0.015267458 0.39900002 4279192351
0.057019293 0.015229194 0.39800003 4279192351
0.058458511 0.015267458 0.39900002 4279126560
0.059754461 0.015267458 0.39900002 4279323939
0.061050415 0.015267458 0.39900002 4279323939
0.062346369 0.015267458 0.39900002 4279455012
0.063801818 0.015305722 0.40000001 4279783465
0.06510102 0.015305722 0.40000001 4279585062
0.066566229 0.015343987 0.40100002 4279716648
0.067868672 0.015343987 0.40100002 4279650855
0.069343619 0.015382251 0.40200001 4279649574
0.070649318 0.015382251 0.40200001 4279846440
0.07213401 0.015420516 0.40300003 4281884226
0.073442951 0.015420516 0.40300003 4284646762
0.074937381 0.015458779 0.40400001 4285632892
0.076249577 0.015458779 0.40400001 4285631870
0.077561766 0.015458779 0.40400001 4285303677
0.078873962 0.015458779 0.40400001 4285369468
0.080384642 0.015497045 0.40500003 4285697149
0.081700079 0.015497045 0.40500003 4285631356
0.083015516 0.015497045 0.40500003 4285631356
0.084330961 0.015497045 0.40500003 4285697149
0.085646406 0.015497045 0.40500003 4285697149
0.087176561 0.015535308 0.40600002 4285566077
0.088495247 0.015535308 0.40600002 4285565817
0.045727048 0.016646877 0.40100002 4279317016
0.047029499 0.016646877 0.40100002 4279581982
0.048211414 0.016605362 0.40000001 4278927386
0.049510613 0.016605362 0.40000001 4278928156
0.050809812 0.016605362 0.40000001 4279126049
0.052109014 0.016605362 0.40000001 4279521320
0.053274699 0.01656385 0.39900002 4279521318
0.054570649 0.01656385 0.39900002 4279127330
0.055866603 0.01656385 0.39900002 4279061537
0.057162557 0.01656385 0.39900002 4278929951
0.058458511 0.01656385 0.39900002 4279521318
0.059754461 0.01656385 0.39900002 4279060767
0.061050415 0.01656385 0.39900002 4279783465
0.062502623 0.016605362 0.40000001 4279716902
0.063801818 0.016605362 0.40000001 4279058720
0.065263778 0.016646877 0.40100002 4280241459
0.066566229 0.016646877 0.40100002 4283198812
0.067868672 0.016646877 0.40100002 4285436798
0.069343619 0.01668839 0.40200001 4285567614
0.070825063 0.016729904 0.40300003 4285369981
0.07213401 0.016729904 0.40300003 4285369722
0.073625192 0.016771417 0.40400001 4285369722
0.074937381 0.016771417 0.40400001 4285501308
0.076249577 0.016771417 0.40400001 4285632640
0.077561766 0.016771417 0.40400001 4285631870
0.078873962 0.016771417 0.40400001 4285566077
0.080186158 0.016771417 0.40400001 4285697149
0.081498347 0.016771417 0.40400001 4285762942
0.082810536 0.016771417 0.40400001 4285565563
0.084122732 0.016771417 0.40400001 4285697149
0.085646406 0.01681293 0.40500003 4285565563
0.086961843 0.01681293 0.40500003 4285631356
0.088495247 0.016854443 0.40600002 4285697403
0.048211414 0.017905002 0.40000001 4278924314
0.049510613 0.017905002 0.40000001 4279386402
0.050809812 0.017905002 0.40000001 4279125283
0.052109014 0.017905002 0.40000001 4279585834
0.053408217 0.017905002 0.40000001 4279652393
0.054707415 0.017905002 0.40000001 4279455014
0.055866603 0.017860241 0.39900002 4279257381
0.057162557 0.017860241 0.39900002 4279520039
0.058458511 0.017860241 0.39900002 4279714854
0.059754461 0.017860241 0.39900002 4280963899
0.06120342 0.017905002 0.40000001 4283924072
0.062502623 0.017905002 0.40000001 4285568384
0.063801818 0.017905002 0.40000001 4285699200
0.065263778 0.017949766 0.40100002 4285435515
0.066566229 0.017949766 0.40100002 4285697663
0.06803792 0.017994529 0.40200001 4285631870
0.069343619 0.017994529 0.40200001 4285566077
0.070825063 0.018039292 0.40300003 4285500284
0.07213401 0.018039292 0.40300003 4285435261
0.073625192 0.018084053 0.40400001 4285501054
0.074937381 0.018084053 0.40400001 4285566847
0.076249577 0.018084053 0.40400001 4285501054
0.077561766 0.018084053 0.40400001 4285762942
0.078873962 0.018084053 0.40400001 4285631356
0.080186158 0.018084053 0.40400001 4285762942
0.081498347 0.018084053 0.40400001 4285631356
0.082810536 0.018084053 0.40400001 4285762942
0.084122732 0.018084053 0.40400001 4285697149
0.085434929 0.018084053 0.40400001 4285697149
0.086961843 0.018128816 0.40500003 4285697149
0.052109014 0.019204644 0.40000001 4281160766
0.053408217 0.019204644 0.40000001 4281029178
0.054707415 0.019204644 0.40000001 4283726691
0.059904218 0.019204644 0.40000001 4285435261
0.077561766 0.019396693 0.40400001 4285828735
0.078873962 0.019396693 0.40400001 4285631356
0.080186158 0.019396693 0.40400001 4285697149
0.081498347 0.019396693 0.40400001 4285631356
0.082810536 0.019396693 0.40400001 4285631356
0.084122732 0.019396693 0.40400001 4285631356
0.085434929 0.019396693 0.40400001 4285631356
0.076331295 0.0050763977 0.40704685 4294967295
0.076331295 0.0050763977 0.40704685 4294901760
0.076331295 0.0050763977 0.40754685 4294901760
0.076331295 0.0050763977 0.40804684 4294901760
0.076331295 0.0050763977 0.40854686 4294901760
0.076331295 0.0050763977 0.40904686 4294901760
0.076331295 0.0050763977 0.40954685 4294901760
0.076331295 0.0050763977 0.41004685 4294901760
0.076331295 0.0050763977 0.41054687 4294901760
0.076331295 0.0050763977 0.41104686 4294901760
0.076331295 0.0050763977 0.41154686 4294901760
0.076331295 0.0050763977 0.41204685 4294901760
0.076331295 0.0050763977 0.41254684 4294901760
0.076331295 0.0050763977 0.41304687 4294901760
0.076331295 0.0050763977 0.41354686 4294901760
0.076331295 0.0050763977 0.41404685 4294901760
0.076331295 0.0050763977 0.41454685 4294901760
0.076331295 0.0050763977 0.41504687 4294901760
0.076331295 0.0050763977 0.41554686 4294901760
0.076331295 0.0050763977 0.41604686 4294901760
0.076331295 0.0050763977 0.41654685 4294901760
0.076331295 0.0050763977 0.41704684 4294901760
0.076331295 0.0050763977 0.41754687 4294901760
0.076331295 0.0050763977 0.41804686 4294901760
0.076331295 0.0050763977 0.41854686 4294901760
0.076331295 0.0050763977 0.41904685 4294901760
0.076331295 0.0050763977 0.41954684 4294901760
0.076331295 0.0050763977 0.42004687 4294901760
0.076331295 0.0050763977 0.42054686 4294901760
0.076331295 0.0050763977 0.42104685 4294901760
0.076331295 0.0050763977 0.42154685 4294901760
0.076331295 0.0050763977 0.42204687 4294901760
0.076331295 0.0050763977 0.42254686 4294901760
0.076331295 0.0050763977 0.42304686 4294901760
0.076331295 0.0050763977 0.42354685 4294901760
0.076331295 0.0050763977 0.42404687 4294901760
0.076331295 0.0050763977 0.42454687 4294901760
0.076331295 0.0050763977 0.42504686 4294901760
0.076331295 0.0050763977 0.42554685 4294901760
0.076331295 0.0050763977 0.42604685 4294901760
0.076331295 0.0050763977 0.42654687 4294901760
0.076331295 0.0050763977 0.42704687 4294901760
0.076331295 0.0050763977 0.42754686 4294901760
0.076331295 0.0050763977 0.42804685 4294901760
0.076331295 0.0050763977 0.42854685 4294901760
0.076331295 0.0050763977 0.42904687 4294901760
0.076331295 0.0050763977 0.42954686 4294901760
0.076331295 0.0050763977 0.43004686 4294901760
0.076331295 0.0050763977 0.43054685 4294901760
0.076331295 0.0050763977 0.43104687 4294901760
0.076331295 0.0050763977 0.43154687 4294901760
0.076331295 0.0050763977 0.43204686 4294901760
0.076331295 0.0050763977 0.43254685 4294901760
0.076331295 0.0050763977 0.43304685 4294901760
0.076331295 0.0050763977 0.43354687 4294901760
0.076331295 0.0050763977 0.43404686 4294901760
0.076331295 0.0050763977 0.43454686 4294901760
0.076331295 0.0050763977 0.43504685 4294901760
0.076331295 0.0050763977 0.43554688 4294901760
0.076331295 0.0050763977 0.43604687 4294901760
0.076331295 0.0050763977 0.43654686 4294901760
0.076331295 0.0050763977 0.43704686 4294901760
0.076331295 0.0050763977 0.43754685 4294901760
0.076331295 0.0050763977 0.43804687 4294901760
0.076331295 0.0050763977 0.43854687 4294901760
0.076331295 0.0050763977 0.43904686 4294901760
0.076331295 0.0050763977 0.43954685 4294901760
0.076331295 0.0050763977 0.44004688 4294901760
0.076331295 0.0050763977 0.44054687 4294901760
0.076331295 0.0050763977 0.44104686 4294901760
0.076331295 0.0050763977 0.44154686 4294901760
0.076331295 0.0050763977 0.44204685 4294901760
0.076331295 0.0050763977 0.44254687 4294901760
0.076331295 0.0050763977 0.44304687 4294901760
0.076331295 0.0050763977 0.44354686 4294901760
0.076331295 0.0050763977 0.44404685 4294901760
0.076331295 0.0050763977 0.44454688 4294901760
0.076331295 0.0050763977 0.44504687 4294901760
0.076331295 0.0050763977 0.44554687 4294901760
0.076331295 0.0050763977 0.44604686 4294901760
0.076331295 0.0050763977 0.44654685 4294901760
0.076331295 0.0050763977 0.44704688 4294901760
0.076331295 0.0050763977 0.44754687 4294901760
0.076331295 0.0050763977 0.44804686 4294901760
0.076331295 0.0050763977 0.44854686 4294901760
0.076331295 0.0050763977 0.44904685 4294901760
0.076331295 0.0050763977 0.44954687 4294901760
0.076331295 0.0050763977 0.45004687 4294901760
0.076331295 0.0050763977 0.45054686 4294901760
0.076331295 0.0050763977 0.45104685 4294901760
0.076331295 0.0050763977 0.45154685 4294901760
0.076331295 0.0050763977 0.45204687 4294901760
0.076331295 0.0050763977 0.45254686 4294901760
0.076331295 0.0050763977 0.45304686 4294901760
0.076331295 0.0050763977 0.45354688 4294901760
0.076331295 0.0050763977 0.45404688 4294901760
0.076331295 0.0050763977 0.45454687 4294901760
0.076331295 0.0050763977 0.45504686 4294901760
0.076331295 0.0050763977 0.45554686 4294901760
0.076331295 0.0050763977 0.45604688 4294901760
0.076331295 0.0050763977 0.45654687 4294901760
0.076331295 0.0050763977 0.45704687 4294901760
0.076331295 0.0050763977 0.40704685 4278255360
0.076108225 0.0051707649 0.40748426 4278255360
0.075885147 0.0052651316 0.40792167 4278255360
0.075662076 0.0053594988 0.40835911 4278255360
0.075438999 0.0054538655 0.40879652 4278255360
0.075215928 0.0055482327 0.40923393 4278255360
0.07499285 0.0056425994 0.40967137 4278255360
0.07476978 0.0057369666 0.41010877 4278255360
0.074546702 0.0058313333 0.41054618 4278255360
0.074323632 0.0059257005 0.41098359 4278255360
0.074100554 0.0060200673 0.411421 4278255360
0.073877484 0.0061144345 0.41185844 4278255360
0.073654413 0.0062088012 0.41229585 4278255360
0.073431335 0.0063031684 0.41273326 4278255360
0.073208265 0.0063975351 0.4131707 4278255360
0.072985187 0.0064919023 0.4136081 4278255360
0.072762117 0.006586269 0.41404551 4278255360
0.072539039 0.0066806362 0.41448292 4278255360
0.072315969 0.0067750029 0.41492033 4278255360
0.072092891 0.0068693701 0.41535777 4278255360
0.07186982 0.0069637373 0.41579518 4278255360
0.07164675 0.007058104 0.41623259 4278255360
0.071423672 0.0071524708 0.41667002 4278255360
0.071200602 0.007246838 0.41710743 4278255360
0.070977524 0.0073412051 0.41754484 4278255360
0.070754454 0.0074355719 0.41798225 4278255360
0.070531376 0.0075299386 0.41841966 4278255360
0.070308305 0.0076243058 0.4188571 4278255360
0.070085227 0.007718673 0.41929451 4278255360
0.069862157 0.0078130402 0.41973191 4278255360
0.069639079 0.0079074074 0.42016935 4278255360
0.069416009 0.0080017736 0.42060676 4278255360
0.069192939 0.0080961408 0.42104417 4278255360
0.068969861 0.008190508 0.42148158 4278255360
0.06874679 0.0082848743 0.42191899 4278255360
0.068523712 0.0083792415 0.42235643 4278255360
0.068300642 0.0084736086 0.42279384 4278255360
0.068077564 0.0085679758 0.42323124 4278255360
0.067854494 0.0086623421 0.42366868 4278255360
0.067631423 0.0087567093 0.42410609 4278255360
0.067408346 0.0088510765 0.4245435 4278255360
0.067185268 0.0089454427 0.42498091 4278255360
0.066962197 0.0090398099 0.42541832 4278255360
0.066739127 0.0091341771 0.42585576 4278255360
0.066516049 0.0092285443 0.42629316 4278255360
0.066292979 0.0093229115 0.42673057 4278255360
0.066069901 0.0094172787 0.42716801 4278255360
0.065846831 0.009511645 0.42760542 4278255360
0.065623753 0.0096060121 0.42804283 4278255360
0.065400682 0.0097003793 0.42848024 4278255360
0.065177605 0.0097947456 0.42891765 4278255360
0.064954534 0.0098891128 0.42935508 4278255360
0.064731464 0.00998348 0.42979249 4278255360
0.064508386 0.010077847 0.4302299 4278255360
0.064285316 0.010172214 0.43066734 4278255360
0.064062238 0.010266582 0.43110475 4278255360
0.063839167 0.010360948 0.43154216 4278255360
0.06361609 0.010455314 0.43197957 4278255360
