# .PCD v0.7 - Point Cloud Data file format
VERSION 0.7
FIELDS x y z rgb
SIZE 4 4 4 4
TYPE F F F U
COUNT 1 1 1 1
WIDTH 537
HEIGHT 1
VIEWPOINT 0 0 0 1 0 0 0
POINTS 537
DATA ascii
0.11283351 -0.058702379 0.41800001 4279784240
0.11147585 -0.057344258 0.41800001 4279654705
0.11283351 -0.057344258 0.41800001 4279326508
0.11419117 -0.057344258 0.41800001 4279655473
0.10714591 -0.055852193 0.41700003 4280047664
0.10850032 -0.055852193 0.41700003 4279916848
0.11011818 -0.055986129 0.41800001 4279654959
0.11147585 -0.055986129 0.41800001 4279523887
0.11283351 -0.055986129 0.41800001 4279195433
0.11419117 -0.055986129 0.41800001 4279392299
0.10393617 -0.054235935 0.41500002 4279718445
0.10553779 -0.054366622 0.41600001 4279916594
0.10688896 -0.054366622 0.41600001 4279654957
0.10850032 -0.054497313 0.41700003 4279392299
0.10985474 -0.054497313 0.41700003 4279260713
0.11120916 -0.054497313 0.41700003 4279129127
0.11256358 -0.054497313 0.41700003 4279720750
0.10075242 -0.052632682 0.41300002 4279850033
0.10234106 -0.052760124 0.41400003 4279588142
0.10368572 -0.052760124 0.41400003 4279326506
0.10528409 -0.052887563 0.41500002 4279326506
0.10688896 -0.053015001 0.41600001 4278866468
0.10824013 -0.053015001 0.41600001 4279261226
0.1095913 -0.053015001 0.41600001 4279523371
0.097357206 -0.050918233 0.41000003 4279785521
0.098929591 -0.051042419 0.41100001 4279588396
0.10050847 -0.051166613 0.41200003 4279523885
0.10209385 -0.051290803 0.41300002 4279326506
0.10368572 -0.051414996 0.41400003 4279194918
0.1050304 -0.051414996 0.41400003 4279194918
0.10663202 -0.051539186 0.41500002 4279785771
0.10797994 -0.051539186 0.41500002 4280048430
0.094000965 -0.04922327 0.40700001 4279851568
0.095557109 -0.049344216 0.40800002 4279326508
0.097119749 -0.049465157 0.40900001 4279327021
0.098688893 -0.049586099 0.41000003 4279130410
0.10026452 -0.04970704 0.41100001 4278933031
0.10184665 -0.049827982 0.41200003 4278933029
0.10343527 -0.049948923 0.41300002 4279524137
0.1050304 -0.050069869 0.41400003 4280114990
0.10797994 -0.050190806 0.41500002 4279519523
0.090683691 -0.04754781 0.40400001 4279523121
0.092223607 -0.047665507 0.40500003 4279326254
0.093770005 -0.047783196 0.40600002 4279260713
0.095322892 -0.047900889 0.40700001 4279261226
0.096882291 -0.048018582 0.40800002 4278866466
0.09844818 -0.048136272 0.40900001 4279063845
0.087187432 -0.045777395 0.40000001 4279654957
0.088929072 -0.046006285 0.40200001 4279260713
0.090459235 -0.046120729 0.40300003 4279458605
0.092223607 -0.046349615 0.40500003 4279130410
0.093770005 -0.04646406 0.40600002 4279195431
0.095322892 -0.0465785 0.40700001 4279063845
0.096882291 -0.046692945 0.40800002 4279457576
0.083954617 -0.044144172 0.39700001 4279785521
0.085458793 -0.044255368 0.39800003 4279457580
0.087187432 -0.044477757 0.40000001 4279261224
0.088707857 -0.044588953 0.40100002 4279195431
0.090459235 -0.044811342 0.40300003 4278998052
0.091995887 -0.044922534 0.40400001 4278800673
0.093770005 -0.045144923 0.40600002 4279655469
0.095322892 -0.045256115 0.40700001 4279852334
0.096882291 -0.045367312 0.40800002 4280048432
0.09844818 -0.045478504 0.40900001 4279850285
0.082456939 -0.042746335 0.39600003 4279457326
0.083954617 -0.042854279 0.39700001 4279260711
0.085458793 -0.042962227 0.39800003 4279129638
0.087187432 -0.043178115 0.40000001 4278867236
0.088707857 -0.043286063 0.40100002 4278604064
0.090459235 -0.043501955 0.40300003 4279523371
0.091995887 -0.043609899 0.40400001 4280048430
0.093539044 -0.043717843 0.40500003 4280311086
0.095322892 -0.043933731 0.40700001 4279718949
0.079279326 -0.0411456 0.39300001 4279522349
0.08096575 -0.041354995 0.39500001 4279326508
0.08266516 -0.041564386 0.39700001 4279392299
0.084166095 -0.041669086 0.39800003 4279261226
0.085673511 -0.041773781 0.39900002 4279063847
0.087187432 -0.041878473 0.40000001 4279326504
0.088707857 -0.041983172 0.40100002 4279786541
0.09844818 -0.04282074 0.40900001 4279781412
0.10293437 -0.043030132 0.41100001 4280239914
0.076531172 -0.039767258 0.39200002 4279522349
0.07800287 -0.039868705 0.39300001 4279195181
0.079481058 -0.039970152 0.39400002 4279195951
0.08117073 -0.040173046 0.39600003 4279196205
0.08266516 -0.040274493 0.39700001 4279130410
0.084166095 -0.040375941 0.39800003 4279261226
0.085673511 -0.040477388 0.39900002 4279523885
0.087187432 -0.040578835 0.40000001 4279983154
0.096882291 -0.041390412 0.40800002 4279912231
0.10002057 -0.041593306 0.41000003 4280108840
0.073796004 -0.038395412 0.39100003 4279522349
0.07525795 -0.038493611 0.39200002 4279326506
0.076726399 -0.038591806 0.39300001 4279195433
0.07800287 -0.038591806 0.39300001 4279327789
0.079481058 -0.038690008 0.39400002 4279065130
0.08117073 -0.038886402 0.39600003 4278669859
0.084377564 -0.039180998 0.39900002 4279786543
0.088929072 -0.03947559 0.40200001 4279980074
0.092223607 -0.039770186 0.40500003 4279846440
0.072526038 -0.037125014 0.39100003 4279129640
0.073796004 -0.037125014 0.39100003 4279130410
0.07525795 -0.037219964 0.39200002 4278867238
0.076726399 -0.03731491 0.39300001 4279065130
0.078201354 -0.037409861 0.39400002 4279130408
0.07968279 -0.037504807 0.39500001 4279458603
0.082873389 -0.037789658 0.39800003 4279983150
0.084377564 -0.037884604 0.39900002 4280047662
0.085888229 -0.037979554 0.40000001 4279652391
0.069628112 -0.035671216 0.38900003 4279720498
0.071073823 -0.035762914 0.39000002 4279063849
0.072526038 -0.035854615 0.39100003 4279064617
0.073984742 -0.035946317 0.39200002 4279130408
0.075449936 -0.036038015 0.39300001 4279195431
0.079884522 -0.036313117 0.39600003 4280048943
0.083081611 -0.036588214 0.39900002 4278859545
0.086102955 -0.036771614 0.40100002 4280175916
0.066756174 -0.034230415 0.38700002 4278866216
0.068188891 -0.034318864 0.38800001 4279130158
0.069628112 -0.034407318 0.38900003 4279327791
0.071073823 -0.034495767 0.39000002 4279130925
0.072526038 -0.034584217 0.39100003 4278999337
0.073984742 -0.034672666 0.39200002 4279393580
0.075449936 -0.034761116 0.39300001 4279786541
0.076921634 -0.034849569 0.39400002 4279852334
0.079884522 -0.035026472 0.39600003 4279846692
0.081580684 -0.035203371 0.39800003 4279841822
0.086102955 -0.035468724 0.40100002 4280107043
0.048142299 -0.032291397 0.37900001 4279587629
0.049373291 -0.032291397 0.37900001 4279326254
0.064076215 -0.032887809 0.38600001 4279522351
0.065329939 -0.032887809 0.38600001 4279194668
0.066756174 -0.032973014 0.38700002 4279129642
0.068188891 -0.033058211 0.38800001 4279327021
0.069628112 -0.033143416 0.38900003 4278867240
0.071073823 -0.033228617 0.39000002 4279196205
0.072526038 -0.033313818 0.39100003 4279458607
0.073984742 -0.033399019 0.39200002 4279721266
0.078598313 -0.033739828 0.39600003 4279382809
0.080086246 -0.033825029 0.39700001 4280171041
0.081580684 -0.03391023 0.39800003 4280960303
0.084589034 -0.034080632 0.40000001 4280830766
0.086102955 -0.034165833 0.40100002 4280830253
0.049503569 -0.031141942 0.38000003 4278996775
0.050737809 -0.031141942 0.38000003 4279326508
0.051972046 -0.031141942 0.38000003 4279787059
0.053346302 -0.031223893 0.38100001 4279655473
0.054583795 -0.031223893 0.38100001 4279523633
0.061409254 -0.031551704 0.38500002 4279392301
0.062822483 -0.031633656 0.38600001 4279260715
0.064076215 -0.031633656 0.38600001 4279326508
0.065499194 -0.031715609 0.38700002 4279327019
0.06692867 -0.031797562 0.38800001 4279327017
0.068188891 -0.031797562 0.38800001 4279327017
0.069807105 -0.031961467 0.39000002 4279655469
0.071256064 -0.03204342 0.39100003 4279918127
0.07271152 -0.032125372 0.39200002 4280114736
0.075641923 -0.032289278 0.39400002 4279251736
0.077116869 -0.032371227 0.39500001 4279644957
0.078598313 -0.032453183 0.39600003 4280961071
0.081580684 -0.032617088 0.39800003 4279580188
0.051004853 -0.030064689 0.38200003 4278931234
0.052245583 -0.030064689 0.38200003 4278865955
0.053486321 -0.030064689 0.38200003 4279196203
0.054870322 -0.030143391 0.38300002 4278866468
0.056114309 -0.030143391 0.38300002 4279721266
0.057508048 -0.030222094 0.384 4279523633
0.058908295 -0.030300798 0.38500002 4279589941
0.060158778 -0.030300798 0.38500002 4279195951
0.061568756 -0.0303795 0.38600001 4279130412
0.062822483 -0.0303795 0.38600001 4279459373
0.064242221 -0.030458204 0.38700002 4279854131
0.065499194 -0.030458204 0.38700002 4278998822
0.06692867 -0.030536907 0.38800001 4279589930
0.068364643 -0.030615611 0.38900003 4279721002
0.069807105 -0.030694313 0.39000002 4279521316
0.071256064 -0.030773019 0.39100003 4280047147
0.07271152 -0.030851722 0.39200002 4279122199
0.074362211 -0.031009128 0.39400002 4279382039
0.075833902 -0.031087831 0.39500001 4280499752
0.077312104 -0.031166535 0.39600003 4280697385
0.078598313 -0.031166535 0.39600003 4279710238
0.080086246 -0.031245237 0.39700001 4279842338
0.081580684 -0.031323943 0.39800003 4280437293
0.051271889 -0.028974438 0.384 4278731800
0.052519117 -0.028974438 0.384 4279194404
0.053766351 -0.028974438 0.384 4278538271
0.055013586 -0.028974438 0.384 4279393582
0.056407336 -0.029049894 0.38500002 4282617448
0.057657812 -0.029049894 0.38500002 4282749038
0.0590613 -0.029125346 0.38600001 4280380225
0.060315032 -0.029125346 0.38600001 4279394097
0.061728265 -0.029200802 0.38700002 4279394863
0.062985241 -0.029200802 0.38700002 4279131691
0.06440822 -0.029276256 0.38800001 4279064615
0.065668441 -0.029276256 0.38800001 4279590189
0.067101166 -0.029351711 0.38900003 4279983150
0.068540379 -0.029427165 0.39000002 4280047662
0.069986098 -0.029502621 0.39100003 4280111658
0.07289701 -0.029653527 0.39300001 4280763692
0.074362211 -0.029728983 0.39400002 4280039715
0.075833902 -0.029804435 0.39500001 4280302375
0.077312104 -0.02987989 0.39600003 4279841311
0.050154928 -0.02779899 0.38500002 4279385369
0.051405411 -0.02779899 0.38500002 4278665496
0.052655887 -0.02779899 0.38500002 4278666779
0.05390637 -0.02779899 0.38500002 4278866468
0.055300117 -0.027871193 0.38600001 4278734882
0.056553848 -0.027871193 0.38600001 4279394097
0.057807572 -0.027871193 0.38600001 4279065132
0.059214313 -0.027943401 0.38700002 4279065130
0.060471293 -0.027943401 0.38700002 4278999337
0.061887767 -0.028015604 0.38800001 4279065128
0.063147992 -0.028015604 0.38800001 4279328300
0.064574219 -0.028087812 0.38900003 4279721264
0.065837689 -0.028087812 0.38900003 4279983922
0.067273661 -0.028160015 0.39000002 4280114227
0.068716131 -0.028232221 0.39100003 4279058718
0.073082499 -0.028448837 0.39400002 4280171041
0.074362211 -0.028448837 0.39400002 4279710236
0.075833902 -0.02852104 0.39500001 4279512607
0.050415475 -0.026685998 0.38700002 4279057176
0.051672455 -0.026685998 0.38700002 4278861080
0.052929427 -0.026685998 0.38700002 4278731291
0.054186404 -0.026685998 0.38700002 4278666781
0.055443384 -0.026685998 0.38700002 4279193638
0.05670036 -0.026685998 0.38700002 4279325992
0.057957333 -0.026685998 0.38700002 4279260713
0.059367318 -0.026754953 0.38800001 4279458605
0.060627546 -0.026754953 0.38800001 4279590191
0.062047273 -0.02682391 0.38900003 4279524398
0.06331075 -0.02682391 0.38900003 4279655471
0.064740218 -0.026892865 0.39000002 4280048434
0.066176191 -0.026961822 0.39100003 4280114227
0.068891875 -0.027030777 0.39200002 4279386400
0.071802787 -0.027168689 0.39400002 4279317014
0.073082499 -0.027168689 0.39400002 4279315732
0.050545745 -0.025494302 0.38800001 4279254555
0.051805973 -0.025494302 0.38800001 4278664984
0.053066194 -0.025494302 0.38800001 4278862363
0.054326419 -0.025494302 0.38800001 4278929183
0.055586647 -0.025494302 0.38800001 4279522090
0.056846872 -0.025494302 0.38800001 4279588394
0.058107093 -0.025494302 0.38800001 4279457578
0.05952033 -0.02556001 0.38900003 4279786543
0.060783803 -0.02556001 0.38900003 4279720750
0.062206775 -0.025625715 0.39000002 4279851566
0.063636251 -0.025691424 0.39100003 4280311604
0.064906225 -0.025691424 0.39100003 4280114227
0.066345438 -0.02575713 0.39200002 4280114227
0.067791149 -0.025822837 0.39300001 4280572211
0.070523076 -0.025888544 0.39400002 4279845670
0.071802787 -0.025888544 0.39400002 4280239401
0.050806291 -0.024358567 0.39000002 4278991896
0.052073013 -0.024358567 0.39000002 4278796570
0.053339731 -0.024358567 0.39000002 4278797084
0.054466438 -0.024296109 0.38900003 4279060769
0.055729914 -0.024296109 0.38900003 4279456297
0.056993388 -0.024296109 0.38900003 4279851568
0.058256857 -0.024296109 0.38900003 4279851568
0.059673335 -0.024358567 0.39000002 4279917359
0.060940061 -0.024358567 0.39000002 4279917359
0.062366284 -0.024421025 0.39100003 4280114225
0.063799001 -0.024483481 0.39200002 4279982639
0.065072224 -0.024483481 0.39200002 4280180018
0.066514678 -0.02454594 0.39300001 4280180018
0.067963645 -0.024608398 0.39400002 4279386400
0.049666595 -0.023150627 0.39100003 4279320859
0.050936565 -0.023150627 0.39100003 4279058457
0.052206539 -0.023150627 0.39100003 4278664984
0.053476501 -0.023150627 0.39100003 4278994463
0.054746471 -0.023150627 0.39100003 4279390504
0.055873174 -0.023091417 0.39000002 4279193638
0.0571399 -0.023091417 0.39000002 4279983924
0.058406614 -0.023091417 0.39000002 4279260201
0.059826348 -0.023150627 0.39100003 4279523373
0.061096318 -0.023150627 0.39100003 4279852336
0.062525786 -0.023209834 0.39200002 4280048945
0.063961752 -0.023269042 0.39300001 4280114738
0.065238222 -0.023269042 0.39300001 4280310834
0.066683933 -0.023328252 0.39400002 4280310321
0.067963645 -0.023328252 0.39400002 4279716137
0.04979362 -0.021936186 0.39200002 4279058457
0.051066838 -0.021936186 0.39200002 4278927384
0.052340057 -0.021936186 0.39200002 4278731289
0.053613268 -0.021936186 0.39200002 4279192353
0.054746471 -0.021880228 0.39100003 4279193123
0.056016441 -0.021880228 0.39100003 4279456297
0.057286412 -0.021880228 0.39100003 4279852338
0.058556378 -0.021880228 0.39100003 4279654959
0.059979353 -0.021936186 0.39200002 4279785773
0.061252572 -0.021936186 0.39200002 4280048945
0.062685288 -0.021992145 0.39300001 4280377397
0.06412451 -0.022048106 0.39400002 4280311604
0.065404221 -0.022048106 0.39400002 4280639286
0.066853181 -0.022104066 0.39500001 4280244016
0.04979362 -0.020662537 0.39200002 4278993179
0.051066838 -0.020662537 0.39200002 4278927386
0.052340057 -0.020662537 0.39200002 4278731291
0.053613268 -0.020662537 0.39200002 4279127330
0.054886486 -0.020662537 0.39200002 4279390502
0.056159705 -0.020662537 0.39200002 4280048945
0.057432923 -0.020662537 0.39200002 4279786545
0.058706135 -0.020662537 0.39200002 4279852338
0.060132362 -0.020715248 0.39300001 4280048947
0.061408829 -0.020715248 0.39300001 4280114227
0.062844798 -0.020767959 0.39400002 4280443192
0.06412451 -0.020767959 0.39400002 4280443192
0.049920641 -0.019438351 0.39300001 4279190045
0.051197108 -0.019438351 0.39300001 4279058972
0.052473575 -0.019438351 0.39300001 4279323428
0.053750034 -0.019438351 0.39300001 4279258146
0.055026501 -0.019438351 0.39300001 4279456295
0.056302968 -0.019438351 0.39300001 4280048943
0.057579435 -0.019438351 0.39300001 4279720752
0.058855895 -0.019438351 0.39300001 4279918131
0.060132362 -0.019438351 0.39300001 4280180020
0.061565086 -0.019487813 0.39400002 4280508215
0.051197108 -0.018161453 0.39300001 4279124765
0.052473575 -0.018161453 0.39300001 4279126562
0.053750034 -0.018161453 0.39300001 4279456297
0.055026501 -0.018161453 0.39300001 4279851568
0.056302968 -0.018161453 0.39300001 4280114740
0.057579435 -0.018161453 0.39300001 4279983154
0.058855895 -0.018161453 0.39300001 4280443705
0.060132362 -0.018161453 0.39300001 4280179766
0.051197108 -0.016884556 0.39300001 4278991390
0.052473575 -0.016884556 0.39300001 4279455014
0.053750034 -0.016884556 0.39300001 4279522090
0.055026501 -0.016884556 0.39300001 4279982641
0.056302968 -0.016884556 0.39300001 4279982641
0.057579435 -0.016884556 0.39300001 4280180020
0.058855895 -0.016884556 0.39300001 4280178485
0.072975606 -0.033359729 0.39540416 4294967295
0.072975606 -0.033359729 0.39540416 4294901760
0.072975606 -0.033359729 0.39590415 4294901760
0.072975606 -0.033359729 0.39640415 4294901760
0.072975606 -0.033359729 0.39690417 4294901760
0.072975606 -0.033359729 0.39740416 4294901760
0.072975606 -0.033359729 0.39790416 4294901760
0.072975606 -0.033359729 0.39840415 4294901760
0.072975606 -0.033359729 0.39890417 4294901760
0.072975606 -0.033359729 0.39940417 4294901760
0.072975606 -0.033359729 0.39990416 4294901760
0.072975606 -0.033359729 0.40040416 4294901760
0.072975606 -0.033359729 0.40090415 4294901760
0.072975606 -0.033359729 0.40140417 4294901760
0.072975606 -0.033359729 0.40190417 4294901760
0.072975606 -0.033359729 0.40240416 4294901760
0.072975606 -0.033359729 0.40290415 4294901760
0.072975606 -0.033359729 0.40340418 4294901760
0.072975606 -0.033359729 0.40390417 4294901760
0.072975606 -0.033359729 0.40440416 4294901760
0.072975606 -0.033359729 0.40490416 4294901760
0.072975606 -0.033359729 0.40540415 4294901760
0.072975606 -0.033359729 0.40590417 4294901760
0.072975606 -0.033359729 0.40640417 4294901760
0.072975606 -0.033359729 0.40690416 4294901760
0.072975606 -0.033359729 0.40740415 4294901760
0.072975606 -0.033359729 0.40790415 4294901760
0.072975606 -0.033359729 0.40840417 4294901760
0.072975606 -0.033359729 0.40890417 4294901760
0.072975606 -0.033359729 0.40940416 4294901760
0.072975606 -0.033359729 0.40990415 4294901760
0.072975606 -0.033359729 0.41040418 4294901760
0.072975606 -0.033359729 0.41090417 4294901760
0.072975606 -0.033359729 0.41140416 4294901760
0.072975606 -0.033359729 0.41190416 4294901760
0.072975606 -0.033359729 0.41240418 4294901760
0.072975606 -0.033359729 0.41290417 4294901760
0.072975606 -0.033359729 0.41340417 4294901760
0.072975606 -0.033359729 0.41390416 4294901760
0.072975606 -0.033359729 0.41440415 4294901760
0.072975606 -0.033359729 0.41490418 4294901760
0.072975606 -0.033359729 0.41540417 4294901760
0.072975606 -0.033359729 0.41590416 4294901760
0.072975606 -0.033359729 0.41640416 4294901760
0.072975606 -0.033359729 0.41690415 4294901760
0.072975606 -0.033359729 0.41740417 4294901760
0.072975606 -0.033359729 0.41790417 4294901760
0.072975606 -0.033359729 0.41840416 4294901760
0.072975606 -0.033359729 0.41890416 4294901760
0.072975606 -0.033359729 0.41940418 4294901760
0.072975606 -0.033359729 0.41990417 4294901760
0.072975606 -0.033359729 0.42040417 4294901760
0.072975606 -0.033359729 0.42090416 4294901760
0.072975606 -0.033359729 0.42140415 4294901760
0.072975606 -0.033359729 0.42190418 4294901760
0.072975606 -0.033359729 0.42240417 4294901760
0.072975606 -0.033359729 0.42290416 4294901760
0.072975606 -0.033359729 0.42340416 4294901760
0.072975606 -0.033359729 0.42390418 4294901760
0.072975606 -0.033359729 0.42440417 4294901760
0.072975606 -0.033359729 0.42490417 4294901760
0.072975606 -0.033359729 0.42540416 4294901760
0.072975606 -0.033359729 0.42590415 4294901760
0.072975606 -0.033359729 0.42640418 4294901760
0.072975606 -0.033359729 0.42690417 4294901760
0.072975606 -0.033359729 0.42740417 4294901760
0.072975606 -0.033359729 0.42790416 4294901760
0.072975606 -0.033359729 0.42840418 4294901760
0.072975606 -0.033359729 0.42890418 4294901760
0.072975606 -0.033359729 0.42940417 4294901760
0.072975606 -0.033359729 0.42990416 4294901760
0.072975606 -0.033359729 0.43040416 4294901760
0.072975606 -0.033359729 0.43090418 4294901760
0.072975606 -0.033359729 0.43140417 4294901760
0.072975606 -0.033359729 0.43190417 4294901760
0.072975606 -0.033359729 0.43240416 4294901760
0.072975606 -0.033359729 0.43290418 4294901760
0.072975606 -0.033359729 0.43340418 4294901760
0.072975606 -0.033359729 0.43390417 4294901760
0.072975606 -0.033359729 0.43440416 4294901760
0.072975606 -0.033359729 0.43490416 4294901760
0.072975606 -0.033359729 0.43540418 4294901760
0.072975606 -0.033359729 0.43590418 4294901760
0.072975606 -0.033359729 0.43640417 4294901760
0.072975606 -0.033359729 0.43690416 4294901760
0.072975606 -0.033359729 0.43740416 4294901760
0.072975606 -0.033359729 0.43790418 4294901760
0.072975606 -0.033359729 0.43840417 4294901760
0.072975606 -0.033359729 0.43890417 4294901760
0.072975606 -0.033359729 0.43940416 4294901760
0.072975606 -0.033359729 0.43990415 4294901760
0.072975606 -0.033359729 0.44040418 4294901760
0.072975606 -0.033359729 0.44090417 4294901760
0.072975606 -0.033359729 0.44140416 4294901760
0.072975606 -0.033359729 0.44190419 4294901760
0.072975606 -0.033359729 0.44240418 4294901760
0.072975606 -0.033359729 0.44290417 4294901760
0.072975606 -0.033359729 0.44340417 4294901760
0.072975606 -0.033359729 0.44390416 4294901760
0.072975606 -0.033359729 0.44440418 4294901760
0.072975606 -0.033359729 0.44490418 4294901760
0.072975606 -0.033359729 0.44540417 4294901760
0.072975606 -0.033359729 0.39540416 4278255360
0.072802268 -0.033642367 0.39577842 4278255360
0.072628923 -0.033925008 0.39615268 4278255360
0.072455585 -0.03420765 0.39652693 4278255360
0.072282247 -0.034490287 0.39690119 4278255360
0.072108902 -0.034772925 0.39727545 4278255360
0.071935564 -0.035055567 0.39764971 4278255360
0.071762227 -0.035338208 0.39802396 4278255360
0.071588881 -0.035620846 0.39839822 4278255360
0.071415544 -0.035903484 0.39877248 4278255360
0.071242198 -0.036186125 0.39914674 4278255360
0.071068861 -0.036468767 0.39952099 4278255360
0.070895523 -0.036751404 0.39989525 4278255360
0.070722178 -0.037034042 0.40026951 4278255360
0.07054884 -0.037316684 0.40064377 4278255360
0.070375502 -0.037599325 0.40101802 4278255360
0.070202157 -0.037881963 0.40139228 4278255360
0.070028819 -0.038164601 0.40176654 4278255360
0.069855481 -0.038447242 0.40214077 4278255360
0.069682136 -0.038729884 0.40251502 4278255360
0.069508798 -0.039012522 0.40288928 4278255360
0.069335461 -0.039295159 0.40326354 4278255360
0.069162115 -0.039577801 0.4036378 4278255360
0.068988778 -0.039860442 0.40401205 4278255360
0.06881544 -0.04014308 0.40438631 4278255360
0.068642095 -0.040425718 0.40476057 4278255360
0.068468757 -0.040708359 0.40513483 4278255360
0.068295419 -0.040991001 0.40550908 4278255360
0.068122074 -0.041273639 0.40588334 4278255360
0.067948736 -0.041556276 0.4062576 4278255360
0.067775398 -0.041838918 0.40663186 4278255360
0.067602053 -0.042121559 0.40700611 4278255360
0.067428716 -0.042404197 0.40738037 4278255360
0.06725537 -0.042686835 0.40775463 4278255360
0.067082033 -0.042969476 0.40812889 4278255360
0.066908695 -0.043252118 0.40850314 4278255360
0.06673535 -0.043534756 0.4088774 4278255360
0.066562012 -0.043817393 0.40925166 4278255360
0.066388674 -0.044100035 0.40962592 4278255360
0.066215329 -0.044382676 0.41000018 4278255360
0.066041991 -0.044665314 0.41037443 4278255360
0.065868653 -0.044947952 0.41074869 4278255360
0.065695308 -0.045230594 0.41112295 4278255360
0.06552197 -0.045513235 0.41149721 4278255360
0.065348633 -0.045795873 0.41187146 4278255360
0.065175287 -0.046078511 0.41224572 4278255360
0.06500195 -0.046361152 0.41261998 4278255360
0.064828604 -0.046643794 0.41299424 4278255360
0.064655267 -0.046926431 0.41336849 4278255360
0.064481929 -0.047209069 0.41374275 4278255360
0.064308584 -0.047491711 0.41411698 4278255360
0.064135246 -0.047774352 0.41449124 4278255360
0.063961908 -0.04805699 0.41486549 4278255360
0.063788563 -0.048339628 0.41523975 4278255360
0.063615225 -0.048622269 0.41561401 4278255360
0.063441887 -0.048904911 0.41598827 4278255360
0.063268542 -0.049187548 0.41636252 4278255360
0.063095205 -0.049470186 0.41673678 4278255360
0.062921867 -0.049752828 0.41711104 4278255360
0.062748522 -0.050035469 0.4174853 4278255360
0.062575184 -0.050318107 0.41785955 4278255360
0.062401842 -0.050600745 0.41823381 4278255360
0.062228501 -0.050883386 0.41860807 4278255360
0.062055163 -0.051166028 0.41898233 4278255360
0.061881822 -0.051448666 0.41935658 4278255360
0.06170848 -0.051731303 0.41973084 4278255360
0.061535142 -0.052013945 0.4201051 4278255360
0.061361801 -0.052296586 0.42047936 4278255360
0.061188459 -0.052579224 0.42085361 4278255360
0.061015122 -0.052861862 0.42122787 4278255360
0.06084178 -0.053144503 0.42160213 4278255360
0.060668439 -0.053427145 0.42197639 4278255360
0.060495101 -0.053709783 0.42235065 4278255360
0.060321759 -0.05399242 0.4227249 4278255360
0.060148418 -0.054275062 0.42309916 4278255360
0.05997508 -0.054557703 0.42347342 4278255360
0.059801739 -0.054840341 0.42384768 4278255360
0.059628397 -0.055122979 0.42422193 4278255360
0.059455059 -0.05540562 0.42459619 4278255360
0.059281714 -0.055688262 0.42497045 4278255360
0.059108377 -0.0559709 0.42534471 4278255360
0.058935035 -0.056253538 0.42571896 4278255360
0.058761697 -0.056536179 0.42609322 4278255360
0.058588356 -0.056818821 0.42646748 4278255360
0.058415014 -0.057101458 0.42684174 4278255360
0.058241673 -0.057384096 0.42721599 4278255360
0.058068335 -0.057666738 0.42759025 4278255360
0.057894994 -0.057949379 0.42796448 4278255360
0.057721652 -0.058232017 0.42833874 4278255360
0.057548314 -0.058514655 0.42871299 4278255360
0.057374973 -0.058797296 0.42908725 4278255360
0.057201631 -0.059079938 0.42946151 4278255360
0.057028294 -0.059362575 0.42983577 4278255360
0.056854952 -0.059645213 0.43021002 4278255360
0.056681611 -0.059927855 0.43058428 4278255360
0.056508273 -0.060210496 0.43095854 4278255360
0.056334931 -0.060493134 0.4313328 4278255360
0.05616159 -0.060775772 0.43170705 4278255360
0.055988252 -0.061058413 0.43208131 4278255360
0.055814907 -0.061341055 0.43245557 4278255360
0.055641569 -0.061623693 0.43282983 4278255360
