# .PCD v0.7 - Point Cloud Data file format
VERSION 0.7
FIELDS x y z rgb
SIZE 4 4 4 4
TYPE F F F U
COUNT 1 1 1 1
WIDTH 1061
HEIGHT 1
VIEWPOINT 0 0 0 1 0 0 0
POINTS 1061
DATA ascii
0.043250486 0.050458316 0.33200002 4279782180
0.044462342 0.050610296 0.333 4279455010
0.045543924 0.050610296 0.333 4279191838
0.04662551 0.050610296 0.333 4279387935
0.047850363 0.050762285 0.33400002 4279715106
0.048935197 0.050762285 0.33400002 4279574287
0.043250486 0.051537022 0.33200002 4279323424
0.044328824 0.051537022 0.33200002 4279192351
0.045543924 0.051692251 0.333 4279192351
0.04662551 0.051692251 0.333 4279519008
0.048935197 0.051847484 0.33400002 4279312139
0.045225345 0.052238852 0.32300001 4279191838
0.041028924 0.053288311 0.32300001 4279256347
0.04194776 0.053123333 0.32200003 4279126812
0.04299362 0.053123333 0.32200003 4279062300
0.044039473 0.053123333 0.32200003 4279062300
0.04508533 0.053123333 0.32200003 4279062048
0.046131186 0.053123333 0.32200003 4279127843
0.039979823 0.05433777 0.32300001 4281552433
0.041028924 0.05433777 0.32300001 4279453728
0.042078033 0.05433777 0.32300001 4279257631
0.043127138 0.05433777 0.32300001 4278930203
0.044039473 0.054169547 0.32200003 4279325474
0.04508533 0.054169547 0.32200003 4279193634
0.046131186 0.054169547 0.32200003 4278601497
0.039979823 0.055387229 0.32300001 4281684532
0.041028924 0.055387229 0.32300001 4279124763
0.042078033 0.055387229 0.32300001 4279125533
0.043127138 0.055387229 0.32300001 4279126045
0.044039473 0.055215754 0.32200003 4278995742
0.04508533 0.055215754 0.32200003 4278931234
0.046131186 0.055215754 0.32200003 4281233737
0.047030531 0.055044275 0.32100001 4282086995
0.047324333 0.054186888 0.31600001 4279256351
0.048197698 0.054015413 0.31500003 4279848486
0.041028924 0.056436691 0.32300001 4279058457
0.042078033 0.056436691 0.32300001 4278928154
0.043127138 0.056436691 0.32300001 4279389219
0.04417624 0.056436691 0.32300001 4278863388
0.04508533 0.056261968 0.32200003 4278863388
0.045987923 0.056087237 0.32100001 4279258146
0.046884019 0.055912513 0.32000002 4279915565
0.047474094 0.055388328 0.317 4285111674
0.048350703 0.055213604 0.31600001 4285506171
0.049220819 0.055038881 0.31500003 4279847203
0.041155949 0.057664126 0.324 4278992664
0.042208303 0.057664126 0.324 4278993177
0.043127138 0.057486154 0.32300001 4279126047
0.04417624 0.057486154 0.32300001 4279126047
0.04508533 0.057308178 0.32200003 4278929181
0.045987923 0.057130203 0.32100001 4278797595
0.046884019 0.056952227 0.32000002 4278863386
0.047623854 0.056596275 0.31800002 4278402835
0.048350703 0.056240324 0.31600001 4281492796
0.049220819 0.056062352 0.31500003 4287478680
0.050084431 0.055884372 0.31400001 4286952336
0.041282974 0.058898062 0.32500002 4278993177
0.042208303 0.058716834 0.324 4279124763
0.043260656 0.058716834 0.324 4279125533
0.04417624 0.058535609 0.32300001 4279125535
0.045225345 0.058535609 0.32300001 4278797084
0.046131186 0.058354389 0.32200003 4278666011
0.046884019 0.057991937 0.32000002 4278600214
0.047623854 0.057629488 0.31800002 4278731800
0.048503712 0.05744826 0.317 4279126297
0.049064562 0.056904588 0.31400001 4279125015
0.050084431 0.056904588 0.31400001 4281952327
0.050941553 0.056723364 0.31300002 4287281560
0.051792175 0.056542136 0.31200001 4286689677
0.05280555 0.056542136 0.31200001 4281097018
0.039412834 0.06032297 0.32700002 4280302366
0.041282974 0.059954021 0.32500002 4278795800
0.042338576 0.059954021 0.32500002 4279190556
0.043394178 0.059954021 0.32500002 4279387935
0.044313006 0.059769545 0.324 4279585316
0.045225345 0.059585072 0.32300001 4279059742
0.046131186 0.059400603 0.32200003 4278862875
0.047030531 0.059216123 0.32100001 4278862875
0.047773615 0.058847174 0.31900001 4278862875
0.048656721 0.058662705 0.31800002 4278731541
0.049064562 0.057924807 0.31400001 4278731541
0.049924929 0.057740334 0.31300002 4278731289
0.050941553 0.057740334 0.31300002 4279059740
0.051792175 0.057555858 0.31200001 4281096757
0.05280555 0.057555858 0.31200001 4287281301
0.053818926 0.057555858 0.31200001 4287347353
0.039412834 0.061385423 0.32700002 4281685816
0.040351149 0.061197698 0.32600001 4278991381
0.041409999 0.061197698 0.32600001 4278993177
0.04246885 0.061197698 0.32600001 4279387935
0.043394178 0.061009977 0.32500002 4279454498
0.044449776 0.061009977 0.32500002 4279125533
0.04536536 0.060822252 0.324 4279059740
0.04627445 0.060634531 0.32300001 4278993947
0.047030531 0.060259085 0.32100001 4278993945
0.047773615 0.059883635 0.31900001 4279059738
0.048656721 0.059695914 0.31800002 4279059740
0.049689587 0.059695914 0.31800002 4279322912
0.050084431 0.058945023 0.31400001 4278928668
0.050941553 0.058757301 0.31300002 4278731289
0.051958181 0.058757301 0.31300002 4278862873
0.05280555 0.058569577 0.31200001 4278928152
0.053818926 0.058569577 0.31200001 4279453217
0.054656561 0.058381855 0.31100002 4285965702
0.055666693 0.058381855 0.31100002 4286952595
0.039412834 0.062447883 0.32700002 4281817400
0.040474929 0.062447883 0.32700002 4279320346
0.041537024 0.062447883 0.32700002 4279058968
0.04246885 0.062256906 0.32600001 4279190554
0.043527696 0.062256906 0.32600001 4279256349
0.044449776 0.062065937 0.32500002 4279125535
0.04536536 0.061874963 0.324 4278993947
0.04627445 0.061683994 0.32300001 4278993947
0.047030531 0.061302047 0.32100001 4278993945
0.047773615 0.060920101 0.31900001 4279125533
0.048656721 0.060729131 0.31800002 4279322914
0.049377073 0.060347188 0.31600001 4279322914
0.050084431 0.059965242 0.31400001 4279257121
0.051104303 0.059965242 0.31400001 4279257119
0.051958181 0.059774272 0.31300002 4278993945
0.05280555 0.059583299 0.31200001 4278796566
0.053818926 0.059583299 0.31200001 4278797080
0.054656561 0.059392329 0.31100002 4279257117
0.055666693 0.059392329 0.31100002 4279715619
0.056494575 0.059201352 0.31 4285702530
0.057501458 0.059201352 0.31 4287148691
0.058508337 0.059201352 0.31 4283399260
0.040598705 0.063704558 0.32800001 4279057172
0.041537024 0.063510336 0.32700002 4278993177
0.042599123 0.063510336 0.32700002 4279387935
0.043661222 0.063510336 0.32700002 4279453730
0.044586543 0.063316114 0.32600001 4279190558
0.045505378 0.063121893 0.32500002 4278993949
0.046417713 0.062927671 0.324 4278862361
0.046884019 0.062150788 0.32000002 4278993947
0.047773615 0.061956562 0.31900001 4279059740
0.048656721 0.061762344 0.31800002 4279257119
0.049377073 0.061373901 0.31600001 4279322912
0.050243936 0.061179683 0.31500003 4279453728
0.051104303 0.060985457 0.31400001 4279256349
0.051958181 0.060791239 0.31300002 4279256351
0.052974802 0.060791239 0.31300002 4279124763
0.053818926 0.060597014 0.31200001 4279059738
0.054832306 0.060597014 0.31200001 4278797080
0.055666693 0.060402796 0.31100002 4279257117
0.056494575 0.06020857 0.31 4279387935
0.057501458 0.06020857 0.31 4279255064
0.058319602 0.060014352 0.30900002 4284912233
0.059323233 0.060014352 0.30900002 4286886541
0.060131636 0.059820134 0.30800003 4283202135
0.061132021 0.059820134 0.30800003 4279517727
0.040598705 0.064770259 0.32800001 4278991894
0.041664049 0.064770259 0.32800001 4278993949
0.042599123 0.064572796 0.32700002 4279388705
0.043661222 0.064572796 0.32700002 4279257119
0.044723313 0.064572796 0.32700002 4279059740
0.045645393 0.064375319 0.32600001 4279256349
0.04656098 0.064177856 0.32500002 4278993947
0.046737507 0.062993027 0.31900001 4279125533
0.047623854 0.062795565 0.31800002 4279125533
0.048503712 0.062598087 0.317 4279059740
0.049377073 0.06240062 0.31600001 4279257119
0.050243936 0.062203154 0.31500003 4279257119
0.051104303 0.06200568 0.31400001 4279256097
0.052124176 0.06200568 0.31400001 4279582498
0.052974802 0.06180821 0.31300002 4278858775
0.053991426 0.06180821 0.31300002 4279519521
0.054832306 0.061610736 0.31200001 4279256349
0.055666693 0.061413269 0.31100002 4278928154
0.056676816 0.061413269 0.31100002 4278928154
0.057501458 0.061215796 0.31 4278862873
0.058319602 0.061018329 0.30900002 4279059738
0.059323233 0.061018329 0.30900002 4279648793
0.060131636 0.060820859 0.30800003 4284911719
0.061132021 0.060820859 0.30800003 4287280531
0.061930671 0.060623385 0.30700001 4284188778
0.062722839 0.060425919 0.30600002 4279781412
0.063716725 0.060425919 0.30600002 4279979559
0.06449914 0.060228445 0.30500001 4279914279
0.065275058 0.060030978 0.30400002 4280373036
0.066262454 0.060030978 0.30400002 4280896561
0.040598705 0.065835968 0.32800001 4279189273
0.041664049 0.065835968 0.32800001 4279059740
0.042729393 0.065835968 0.32800001 4279322912
0.04379474 0.065835968 0.32800001 4279257119
0.044723313 0.065635249 0.32700002 4279059740
0.045785412 0.065635249 0.32700002 4278993947
0.046704244 0.065434523 0.32600001 4279059740
0.046737507 0.064029492 0.31900001 4279125533
0.047623854 0.063828774 0.31800002 4279257119
0.048503712 0.063628048 0.317 4279257119
0.049377073 0.063427337 0.31600001 4279257121
0.050243936 0.063226618 0.31500003 4279125535
0.051267058 0.063226618 0.31500003 4279387683
0.052124176 0.063025892 0.31400001 4278726935
0.053144045 0.063025892 0.31400001 4278529042
0.053991426 0.062825181 0.31300002 4279451934
0.054832306 0.062624454 0.31200001 4279715617
0.055845682 0.062624454 0.31200001 4279651107
0.056676816 0.062423736 0.31100002 4279519521
0.057501458 0.062223013 0.31 4279717668
0.058508337 0.062223013 0.31 4278797080
0.059323233 0.062022299 0.30900002 4278731287
0.060131636 0.06182158 0.30800003 4279519519
0.061132021 0.06182158 0.30800003 4279189273
0.061930671 0.061620858 0.30700001 4283596123
0.062722839 0.061420143 0.30600002 4287215517
0.063716725 0.061420143 0.30600002 4282808154
0.06449914 0.06121942 0.30500001 4279848488
0.065275058 0.061018702 0.30400002 4279980072
0.066262454 0.061018702 0.30400002 4280110375
0.067028627 0.060817979 0.303 4280176168
0.068012767 0.060817979 0.303 4280764973
0.040598705 0.066901676 0.32800001 4279189273
0.041664049 0.066901676 0.32800001 4279257119
0.042729393 0.066901676 0.32800001 4279388705
0.04379474 0.066901676 0.32800001 4279388705
0.044723313 0.066697709 0.32700002 4279125533
0.045785412 0.066697709 0.32700002 4279059740
0.046847511 0.066697709 0.32700002 4278993947
0.046737507 0.065065958 0.31900001 4279059740
0.047623854 0.064861991 0.31800002 4279257119
0.048503712 0.064658016 0.317 4279059742
0.049377073 0.064454049 0.31600001 4279388707
0.050403439 0.064454049 0.31600001 4279059742
0.051267058 0.064250089 0.31500003 4278267919
0.052290183 0.064250089 0.31500003 4278198281
0.053144045 0.064046115 0.31400001 4280041768
0.053991426 0.063842148 0.31300002 4279649826
0.055008054 0.063842148 0.31300002 4279519008
0.055845682 0.063638173 0.31200001 4279585314
0.056676816 0.063434213 0.31100002 4279519521
0.057686947 0.063434213 0.31100002 4279388705
0.058508337 0.063230239 0.31 4279257119
0.059323233 0.063026272 0.30900002 4279125533
0.060131636 0.062822305 0.30800003 4278993947
0.061132021 0.062822305 0.30800003 4278797082
0.061930671 0.062618338 0.30700001 4279059740
0.062722839 0.06241437 0.30600002 4279584031
0.063716725 0.06241437 0.30600002 4282149445
0.06449914 0.062210396 0.30500001 4286952082
0.065275058 0.062006433 0.30400002 4282478923
0.066262454 0.062006433 0.30400002 4280045352
0.067249849 0.062006433 0.30400002 4279848488
0.068012767 0.061802458 0.303 4279848486
0.068996914 0.061802458 0.303 4280242731
0.069981061 0.061802458 0.303 4280634157
0.039533362 0.067967378 0.32800001 4280238370
0.040598705 0.067967378 0.32800001 4279517723
0.041664049 0.067967378 0.32800001 4279388703
0.042729393 0.067967378 0.32800001 4279322910
0.043661222 0.067760162 0.32700002 4279257119
0.044723313 0.067760162 0.32700002 4278993947
0.045645393 0.067552939 0.32600001 4279125533
0.046847511 0.067760162 0.32700002 4279125533
0.047909606 0.067760162 0.32700002 4279257119
0.047623854 0.0658952 0.31800002 4279125535
0.048656721 0.0658952 0.31800002 4279454500
0.04953333 0.065687984 0.317 4279322914
0.050403439 0.065480769 0.31600001 4279256351
0.051429808 0.065480769 0.31600001 4279912231
0.052290183 0.065273553 0.31500003 4278787851
0.053144045 0.06506633 0.31400001 4279053074
0.054163922 0.06506633 0.31400001 4279649572
0.055008054 0.064859115 0.31300002 4279453217
0.055845682 0.064651892 0.31200001 4279386654
0.056859057 0.064651892 0.31200001 4279715617
0.057686947 0.064444676 0.31100002 4279585314
0.058508337 0.06423746 0.31 4279453728
0.059323233 0.064030245 0.30900002 4279585314
0.060326867 0.064030245 0.30900002 4279519521
0.061132021 0.063823029 0.30800003 4279125533
0.061930671 0.063615806 0.30700001 4279125533
0.062722839 0.063408591 0.30600002 4278928152
0.063716725 0.063408591 0.30600002 4279190808
0.06449914 0.063201368 0.30500001 4279189523
0.065489776 0.063201368 0.30500001 4282347076
0.066262454 0.062994152 0.30400002 4286952332
0.067249849 0.062994152 0.30400002 4283004754
0.068012767 0.062786937 0.303 4280045865
0.068996914 0.062786937 0.303 4279586084
0.069981061 0.062786937 0.303 4279717672
0.070965201 0.062786937 0.303 4280111660
0.071949348 0.062786937 0.303 4280963635
0.041664049 0.069033086 0.32800001 4279650592
0.042599123 0.068822622 0.32700002 4279519519
0.043661222 0.068822622 0.32700002 4279257121
0.044586543 0.068612151 0.32600001 4279059742
0.045505378 0.068401687 0.32500002 4279125533
0.04627445 0.067980751 0.32300001 4279125533
0.047030531 0.067559816 0.32100001 4279059740
0.047773615 0.06713888 0.31900001 4279257121
0.048656721 0.066928416 0.31800002 4279322914
0.04953333 0.066717945 0.317 4279388707
0.050562941 0.066717945 0.317 4279321631
0.051429808 0.066507481 0.31600001 4279779875
0.052290183 0.066297017 0.31500003 4278789386
0.0533133 0.066297017 0.31500003 4280172836
0.054163922 0.066086553 0.31400001 4279452193
0.055183794 0.066086553 0.31400001 4278727959
0.056024678 0.065876089 0.31300002 4278853135
0.056859057 0.065665618 0.31200001 4278655756
0.057686947 0.065455154 0.31100002 4278264587
0.058508337 0.065244682 0.31 4279912231
0.059515215 0.065244682 0.31 4279781410
0.060326867 0.065034218 0.30900002 4279847203
0.061132021 0.064823754 0.30800003 4279716900
0.061930671 0.064613283 0.30700001 4279585314
0.062927812 0.064613283 0.30700001 4279388705
0.063716725 0.064402819 0.30600002 4278928154
0.06449914 0.064192347 0.30500001 4278862359
0.065489776 0.064192347 0.30500001 4279323164
0.066262454 0.063981883 0.30400002 4279058968
0.067249849 0.063981883 0.30400002 4280965682
0.068012767 0.063771412 0.303 4286821261
0.068996914 0.063771412 0.303 4282544718
0.069981061 0.063771412 0.303 4280309039
0.070965201 0.063771412 0.303 4279848488
0.071949348 0.063771412 0.303 4279586086
0.073174201 0.063981883 0.30400002 4279980074
0.038468018 0.070098795 0.32800001 4280431145
0.039533362 0.070098795 0.32800001 4280562731
0.040598705 0.070098795 0.32800001 4280037670
0.041664049 0.070098795 0.32800001 4279648289
0.042599123 0.069885075 0.32700002 4279584033
0.043661222 0.069885075 0.32700002 4279255838
0.044586543 0.069671355 0.32600001 4279453217
0.045505378 0.069457643 0.32500002 4279256351
0.046131186 0.068816498 0.32200003 4279387935
0.047030531 0.068602778 0.32100001 4279519521
0.047773615 0.068175346 0.31900001 4279387935
0.048656721 0.067961633 0.31800002 4279256349
0.049689587 0.067961633 0.31800002 4279190556
0.050562941 0.067747913 0.317 4279190558
0.051429808 0.067534201 0.31600001 4278660882
0.052456178 0.067534201 0.31600001 4278789648
0.0533133 0.067320488 0.31500003 4279976740
0.054336421 0.067320488 0.31500003 4279583779
0.055183794 0.067106768 0.31400001 4278529296
0.056024678 0.066893056 0.31300002 4279048463
0.056859057 0.066679336 0.31200001 4279180049
0.057872433 0.066679336 0.31200001 4278983183
0.058697078 0.066465624 0.31100002 4278786572
0.059515215 0.066251904 0.31 4278526476
0.060326867 0.066038191 0.30900002 4279844643
0.061132021 0.065824479 0.30800003 4279781410
0.062132403 0.065824479 0.30800003 4279716387
0.062927812 0.065610759 0.30700001 4279716387
0.063716725 0.065397047 0.30600002 4279782180
0.06449914 0.065183327 0.30500001 4279585312
0.065489776 0.065183327 0.30500001 4279124761
0.066262454 0.064969614 0.30400002 4278664980
0.067249849 0.064969614 0.30400002 4279059738
0.068237238 0.064969614 0.30400002 4279716639
0.068996914 0.064755894 0.303 4280768303
0.069981061 0.064755894 0.303 4286360712
0.070965201 0.064755894 0.303 4282414163
0.072186805 0.064969614 0.30400002 4279388453
0.073174201 0.064969614 0.30400002 4279454500
0.074161589 0.064969614 0.30400002 4279586084
0.075148985 0.064969614 0.30400002 4279980072
0.039533362 0.071164496 0.32800001 4280431145
0.040598705 0.071164496 0.32800001 4280366122
0.041537024 0.070947535 0.32700002 4280104231
0.043527696 0.070730567 0.32600001 4279779875
0.044449776 0.070513599 0.32500002 4279649313
0.04536536 0.07029663 0.324 4279255838
0.046131186 0.069862708 0.32200003 4279387937
0.047030531 0.06964574 0.32100001 4279387935
0.047923379 0.069428779 0.32000002 4279519521
0.04880973 0.069211811 0.31900001 4279256349
0.049689587 0.06899485 0.31800002 4279585314
0.050562941 0.068777882 0.317 4279254301
0.051592559 0.068777882 0.317 4278461455
0.052456178 0.068560913 0.31600001 4279119383
0.053482544 0.068560913 0.31600001 4279582498
0.054336421 0.068343952 0.31500003 4279255584
0.055183794 0.068126984 0.31400001 4278197252
0.056203667 0.068126984 0.31400001 4279048463
0.057041299 0.067910023 0.31300002 4280364836
0.057872433 0.067693055 0.31200001 4279245842
0.058697078 0.067476094 0.31100002 4279180049
0.059515215 0.067259125 0.31 4279180303
0.060326867 0.067042165 0.30900002 4278983437
0.061330501 0.067042165 0.30900002 4278460937
0.062132403 0.066825204 0.30800003 4279976994
0.062927812 0.066608228 0.30700001 4279715619
0.063716725 0.066391267 0.30600002 4279781412
0.064710617 0.066391267 0.30600002 4279650594
0.065489776 0.066174299 0.30500001 4279716387
0.066262454 0.065957338 0.30400002 4279453726
0.067249849 0.065957338 0.30400002 4279453726
0.068237238 0.065957338 0.30400002 4278928406
0.068996914 0.065740369 0.303 4278994199
0.069981061 0.065740369 0.303 4279715869
0.070965201 0.065740369 0.303 4280373032
0.072186805 0.065957338 0.30400002 4285308542
0.073174201 0.065957338 0.30400002 4282348116
0.074161589 0.065957338 0.30400002 4279454246
0.075148985 0.065957338 0.30400002 4279454498
0.076386817 0.066174299 0.30500001 4279651105
0.077377461 0.066174299 0.30500001 4280045863
0.041537024 0.072009988 0.32700002 4280233766
0.042599123 0.072009988 0.32700002 4280233766
0.043527696 0.071789771 0.32600001 4280039205
0.044449776 0.071569562 0.32500002 4280172838
0.045225345 0.071129136 0.32300001 4279649826
0.046131186 0.070908919 0.32200003 4279584803
0.047030531 0.070688702 0.32100001 4279256351
0.047923379 0.070468493 0.32000002 4279256349
0.04880973 0.070248276 0.31900001 4279453728
0.049689587 0.070028067 0.31800002 4279256349
0.05072245 0.070028067 0.31800002 4279715106
0.051592559 0.069807842 0.317 4278528013
0.052622177 0.069807842 0.317 4278198281
0.053482544 0.069587633 0.31600001 4279647523
0.054336421 0.069367424 0.31500003 4279781160
0.055359542 0.069367424 0.31500003 4278657548
0.056203667 0.069147207 0.31400001 4279115537
0.057041299 0.068926997 0.31300002 4280366372
0.057872433 0.068706781 0.31200001 4279774235
0.058697078 0.068486564 0.31100002 4280234786
0.059707202 0.068486564 0.31100002 4279246609
0.060522098 0.068266347 0.31 4279246096
0.061330501 0.068046138 0.30900002 4279048717
0.062132403 0.067825928 0.30800003 4279048715
0.062927812 0.067605712 0.30700001 4278723595
0.063924946 0.067605712 0.30700001 4280042020
0.064710617 0.067385495 0.30600002 4279584033
0.065489776 0.067165278 0.30500001 4279912996
0.066480421 0.067165278 0.30500001 4279650592
0.067249849 0.066945069 0.30400002 4279716385
0.068237238 0.066945069 0.30400002 4279585312
0.069224633 0.066945069 0.30400002 4279453726
0.069981061 0.066724852 0.303 4279190808
0.070965201 0.066724852 0.303 4279059222
0.072186805 0.066945069 0.30400002 4278928152
0.073174201 0.066945069 0.30400002 4279519523
0.074161589 0.066945069 0.30400002 4283664230
0.075148985 0.066945069 0.30400002 4282019403
0.076386817 0.067165278 0.30500001 4280046633
0.077377461 0.067165278 0.30500001 4279388703
0.078368105 0.067165278 0.30500001 4279651105
0.042599123 0.073072441 0.32700002 4280562217
0.043661222 0.073072441 0.32700002 4280562217
0.044723313 0.073072441 0.32700002 4280167971
0.045225345 0.072178587 0.32300001 4279974694
0.045987923 0.071731664 0.32100001 4280042281
0.047030531 0.071731664 0.32100001 4279715365
0.047923379 0.071508206 0.32000002 4279519010
0.04880973 0.071284734 0.31900001 4279519010
0.049689587 0.071061276 0.31800002 4279255838
0.05072245 0.071061276 0.31800002 4279121431
0.051592559 0.070837811 0.317 4279054357
0.052622177 0.070837811 0.317 4279581217
0.053482544 0.070614345 0.31600001 4279779877
0.054508913 0.070614345 0.31600001 4279910949
0.055359542 0.070390888 0.31500003 4278854416
0.056203667 0.070167422 0.31400001 4278852365
0.057041299 0.069943964 0.31300002 4279181328
0.058057927 0.069943964 0.31300002 4280367653
0.058885813 0.069720492 0.31200001 4278985230
0.059707202 0.069497034 0.31100002 4279774748
0.060522098 0.069273569 0.31 4279511065
0.061330501 0.069050103 0.30900002 4279707158
0.062334131 0.069050103 0.30900002 4279311889
0.063132793 0.068826646 0.30800003 4279180301
0.063924946 0.06860318 0.30700001 4279246094
0.064710617 0.068379723 0.30600002 4278459908
0.065704502 0.068379723 0.30600002 4280304163
0.066480421 0.06815625 0.30500001 4279780897
0.067471065 0.06815625 0.30500001 4279846690
0.068237238 0.067932792 0.30400002 4280176166
0.069224633 0.067932792 0.30400002 4279913764
0.069981061 0.067709327 0.303 4279782178
0.070965201 0.067709327 0.303 4279584799
0.071949348 0.067709327 0.303 4279124248
0.073174201 0.067932792 0.30400002 4279124761
0.074161589 0.067932792 0.30400002 4279257117
0.075148985 0.067932792 0.30400002 4278862875
0.076386817 0.06815625 0.30500001 4280968512
0.077377461 0.06815625 0.30500001 4280178737
0.078368105 0.06815625 0.30500001 4280178221
0.045987923 0.072774626 0.32100001 4279971616
0.046884019 0.07254792 0.32000002 4279843360
0.047923379 0.07254792 0.32000002 4280107813
0.04880973 0.072321199 0.31900001 4279846438
0.049845841 0.072321199 0.31900001 4279846438
0.05072245 0.072094493 0.31800002 4279911461
0.051755317 0.072094493 0.31800002 4279581984
0.052622177 0.071867779 0.317 4278857748
0.053651791 0.071867779 0.317 4279780645
0.054508913 0.071641065 0.31600001 4279780645
0.055359542 0.071414359 0.31500003 4278460685
0.056382664 0.071414359 0.31500003 4279180562
0.05722354 0.071187645 0.31400001 4279180049
0.058057927 0.070960931 0.31300002 4278851847
0.058885813 0.070734218 0.31200001 4279840026
0.059707202 0.070507504 0.31100002 4280565032
0.060717333 0.070507504 0.31100002 4278657035
0.061528981 0.07028079 0.31 4279379477
0.062334131 0.070054084 0.30900002 4281024302
0.063132793 0.06982737 0.30800003 4279444500
0.064133175 0.06982737 0.30800003 4279246607
0.064922087 0.069600657 0.30700001 4279442705
0.065704502 0.06937395 0.30600002 4279442703
0.066698395 0.06937395 0.30600002 4278853383
0.067471065 0.069147229 0.30500001 4280830507
0.068237238 0.068920523 0.30400002 4279912483
0.069224633 0.068920523 0.30400002 4280241961
0.070212021 0.068920523 0.30400002 4279913766
0.071199417 0.068920523 0.30400002 4280176168
0.071949348 0.068693802 0.303 4279781410
0.073174201 0.068920523 0.30400002 4279781410
0.074161589 0.068920523 0.30400002 4279190556
0.075148985 0.068920523 0.30400002 4278993947
0.076136373 0.068920523 0.30400002 4278994461
0.077377461 0.069147229 0.30500001 4279652391
0.078368105 0.069147229 0.30500001 4279652904
0.045987923 0.073817588 0.32100001 4280233250
0.046884019 0.073587626 0.32000002 4280628774
0.047923379 0.073587626 0.32000002 4280432165
0.04880973 0.073357664 0.31900001 4279908133
0.049845841 0.073357664 0.31900001 4280369967
0.05072245 0.073127702 0.31800002 4280371500
0.051755317 0.073127702 0.31800002 4280239914
0.052622177 0.07289774 0.317 4280043047
0.053651791 0.07289774 0.317 4279846438
0.054508913 0.072667778 0.31600001 4279715365
0.055359542 0.072437823 0.31500003 4279978026
0.056382664 0.072437823 0.31500003 4279577887
0.05722354 0.072207861 0.31400001 4279049490
0.058057927 0.071977898 0.31300002 4279376912
0.058885813 0.071747936 0.31200001 4279442703
0.059899185 0.071747936 0.31200001 4279180812
0.060717333 0.071517974 0.31100002 4279181326
0.061528981 0.071288012 0.31 4278524168
0.06253586 0.071288012 0.31 4279973408
0.063337766 0.07105805 0.30900002 4279116303
0.064133175 0.070828095 0.30800003 4279905819
0.065133564 0.070828095 0.30800003 4279707158
0.06591922 0.070598125 0.30700001 4279443475
0.066698395 0.070368171 0.30600002 4279376912
0.067471065 0.070138201 0.30500001 4279376910
0.068461701 0.070138201 0.30500001 4279186711
0.069224633 0.069908246 0.30400002 4280109864
0.070212021 0.069908246 0.30400002 4279912996
0.071199417 0.069908246 0.30400002 4280110375
0.072186805 0.069908246 0.30400002 4280110377
0.073174201 0.069908246 0.30400002 4279979561
0.074161589 0.069908246 0.30400002 4280045352
0.075148985 0.069908246 0.30400002 4279519008
0.076136373 0.069908246 0.30400002 4279125533
0.077377461 0.070138201 0.30500001 4278993947
0.078368105 0.070138201 0.30500001 4278797080
0.046884019 0.07462734 0.32000002 4280956973
0.047923379 0.07462734 0.32000002 4280364836
0.04880973 0.074394129 0.31900001 4283261525
0.049845841 0.074394129 0.31900001 4286157700
0.05072245 0.074160919 0.31800002 4285763710
0.051755317 0.074160919 0.31800002 4280764210
0.052788179 0.074160919 0.31800002 4280503086
0.053651791 0.073927708 0.317 4279846438
0.054508913 0.073694497 0.31600001 4279715365
0.055535283 0.073694497 0.31600001 4279912744
0.056382664 0.073461294 0.31500003 4279715367
0.05722354 0.073228076 0.31400001 4279977772
0.058057927 0.072994873 0.31300002 4279576856
0.059074551 0.072994873 0.31300002 4279115021
0.059899185 0.072761655 0.31200001 4279311117
0.060717333 0.072528452 0.31100002 4279376910
0.061727464 0.072528452 0.31100002 4279246607
0.06253586 0.072295234 0.31 4279445270
0.063337766 0.072062023 0.30900002 4279115537
0.064341396 0.072062023 0.30900002 4278983697
0.065133564 0.07182882 0.30800003 4278721549
0.06591922 0.071595602 0.30700001 4280366887
0.066916354 0.071595602 0.30700001 4279772953
0.06769228 0.071362399 0.30600002 4279640854
0.068461701 0.07112918 0.30500001 4281290036
0.069452338 0.07112918 0.30500001 4279976227
0.070212021 0.070895977 0.30400002 4278198535
0.071199417 0.070895977 0.30400002 4280567596
0.072186805 0.070895977 0.30400002 4279978278
0.073174201 0.070895977 0.30400002 4280111147
0.074161589 0.070895977 0.30400002 4280045354
0.075148985 0.070895977 0.30400002 4279980074
0.076136373 0.070895977 0.30400002 4279716902
0.077377461 0.07112918 0.30500001 4279716900
0.078368105 0.07112918 0.30500001 4279059738
0.052788179 0.075194135 0.31800002 4285762681
0.053651791 0.074957669 0.317 4280762924
0.054508913 0.07472121 0.31600001 4280043047
0.055535283 0.07472121 0.31600001 4279912744
0.056382664 0.074484758 0.31500003 4279846951
0.05722354 0.074248292 0.31400001 4279781158
0.058057927 0.07401184 0.31300002 4280109610
0.059074551 0.07401184 0.31300002 4280765745
0.059899185 0.073775373 0.31200001 4279511063
0.060717333 0.073538914 0.31100002 4279180814
0.061727464 0.073538914 0.31100002 4279311119
0.06253586 0.073302455 0.31 4279311889
0.063542739 0.073302455 0.31 4279312402
0.064341396 0.073065996 0.30900002 4281155120
0.065345034 0.073065996 0.30900002 4280303911
0.066133946 0.072829537 0.30800003 4278197767
0.066916354 0.072593078 0.30700001 4279115535
0.067913495 0.072593078 0.30700001 4279378193
0.068686165 0.072356619 0.30600002 4280303911
0.069452338 0.07212016 0.30500001 4280569131
0.070442982 0.07212016 0.30500001 4280437032
0.071199417 0.071883701 0.30400002 4280632876
0.072186805 0.071883701 0.30400002 4278460169
0.073174201 0.071883701 0.30400002 4279843360
0.073917635 0.071647234 0.303 4280373549
0.074901782 0.071647234 0.303 4280176170
0.076136373 0.071883701 0.30400002 4280176940
0.077377461 0.07212016 0.30500001 4279782182
0.078368105 0.07212016 0.30500001 4279848488
0.055359542 0.075508229 0.31500003 4280500266
0.056382664 0.075508229 0.31500003 4280371498
0.05722354 0.075268514 0.31400001 4280043047
0.058057927 0.075028807 0.31300002 4279912231
0.059074551 0.075028807 0.31300002 4279912231
0.059899185 0.074789092 0.31200001 4280109094
0.060912564 0.074789092 0.31200001 4280305446
0.061727464 0.074549392 0.31100002 4279840026
0.062737592 0.074549392 0.31100002 4279246096
0.063542739 0.074309677 0.31 4279377682
0.064341396 0.074069969 0.30900002 4279311889
0.065345034 0.074069969 0.30900002 4278985230
0.066133946 0.073830262 0.30800003 4281091630
0.067134328 0.073830262 0.30800003 4279707672
0.067913495 0.073590554 0.30700001 4279312400
0.068686165 0.073350847 0.30600002 4280634411
0.069680057 0.073350847 0.30600002 4280503338
0.070442982 0.073111132 0.30500001 4280569131
0.071433619 0.073111132 0.30500001 4280503338
0.072186805 0.072871432 0.30400002 4280634672
0.073174201 0.072871432 0.30400002 4280173608
0.073917635 0.072631717 0.303 4279052820
0.074901782 0.072631717 0.303 4280172584
0.075635478 0.072392009 0.30200002 4280241196
0.076616377 0.072392009 0.30200002 4280175657
0.078368105 0.073111132 0.30500001 4280045352
0.05722354 0.07628873 0.31400001 4281092143
0.058057927 0.076045781 0.31300002 4280108840
0.059074551 0.076045781 0.31300002 4280108840
0.059899185 0.075802818 0.31200001 4279978278
0.060912564 0.075802818 0.31200001 4279978278
0.061727464 0.075559862 0.31100002 4280109094
0.062737592 0.075559862 0.31100002 4280634157
0.063542739 0.075316899 0.31 4279445270
0.064549617 0.075316899 0.31 4279378195
0.065345034 0.075073943 0.30900002 4279377682
0.066348664 0.075073943 0.30900002 4279311887
0.067134328 0.074830994 0.30800003 4279311887
0.067913495 0.074588031 0.30700001 4280168221
0.068910629 0.074588031 0.30700001 4280569131
0.069680057 0.074345075 0.30600002 4280503338
0.07067395 0.074345075 0.30600002 4279975205
0.071433619 0.074102111 0.30500001 4278198023
0.072186805 0.073859155 0.30400002 4279251221
0.073174201 0.073859155 0.30400002 4280765743
0.073917635 0.073616199 0.303 4280765743
0.074901782 0.073616199 0.303 4280436778
0.075635478 0.073373243 0.30200002 4278921234
0.076616377 0.073373243 0.30200002 4279382555
0.077597275 0.073373243 0.30200002 4280240680
0.059074551 0.077062748 0.31300002 4280434725
0.059899185 0.076816536 0.31200001 4280569131
0.060912564 0.076816536 0.31200001 4280240680
0.061727464 0.076570332 0.31100002 4279978278
0.062737592 0.076570332 0.31100002 4280109864
0.063542739 0.07632412 0.31 4280372266
0.064549617 0.07632412 0.31 4280634670
0.065345034 0.076077916 0.30900002 4280037920
0.066348664 0.076077916 0.30900002 4278852365
0.067134328 0.075831711 0.30800003 4279443986
0.068134718 0.075831711 0.30800003 4280498469
0.068910629 0.075585499 0.30700001 4280371752
0.069680057 0.075339295 0.30600002 4280569131
0.07067395 0.075339295 0.30600002 4279445783
0.071433619 0.075093083 0.30500001 4279378195
0.072424263 0.075093083 0.30500001 4279443725
0.073174201 0.074846886 0.30400002 4279575824
0.073917635 0.074600674 0.303 4280042020
0.074901782 0.074600674 0.303 4280700204
0.075635478 0.07435447 0.30200002 4280634411
0.076616377 0.07435447 0.30200002 4280896046
0.077597275 0.07435447 0.30200002 4278724109
0.078317977 0.074108265 0.30100003 4279580188
0.079295628 0.074108265 0.30100003 4280240166
0.059899185 0.077830255 0.31200001 4284051543
0.060717333 0.077580802 0.31100002 4280500518
0.061727464 0.077580802 0.31100002 4280503338
0.062737592 0.077580802 0.31100002 4280108580
0.063542739 0.077331342 0.31 4280175657
0.064549617 0.077331342 0.31 4280175657
0.065345034 0.077081889 0.30900002 4280307243
0.066348664 0.077081889 0.30900002 4280569131
0.067134328 0.076832436 0.30800003 4279974176
0.068134718 0.076832436 0.30800003 4280632104
0.068910629 0.076582976 0.30700001 4280239399
0.06990777 0.076582976 0.30700001 4280502571
0.07067395 0.076333523 0.30600002 4279116305
0.071433619 0.076084062 0.30500001 4279509266
0.072424263 0.076084062 0.30500001 4279837461
0.073174201 0.07583461 0.30400002 4279706645
0.074161589 0.07583461 0.30400002 4281224241
0.074901782 0.075585149 0.303 4279514393
0.075885922 0.075585149 0.303 4279054355
0.076616377 0.075335696 0.30200002 4280370469
0.077597275 0.075335696 0.30200002 4280765997
0.078317977 0.075086243 0.30100003 4280568618
0.079295628 0.075086243 0.30100003 4278395914
0.080273278 0.075086243 0.30100003 4279251221
0.060717333 0.078591272 0.31100002 4284247641
0.061727464 0.078591272 0.31100002 4283920729
0.062737592 0.078591272 0.31100002 4280565799
0.063542739 0.078338563 0.31 4280765225
0.064549617 0.078338563 0.31 4280240164
0.065345034 0.078085862 0.30900002 4280109092
0.066348664 0.078085862 0.30900002 4279977506
0.067134328 0.077833161 0.30800003 4280240678
0.068134718 0.077833161 0.30800003 4280240166
0.068910629 0.077580452 0.30700001 4279448348
0.06990777 0.077580452 0.30700001 4278790420
0.07067395 0.077327751 0.30600002 4280630827
0.071667835 0.077327751 0.30600002 4279905821
0.072424263 0.077075042 0.30500001 4279575572
0.073174201 0.076822333 0.30400002 4279772438
0.074161589 0.076822333 0.30400002 4280827434
0.074901782 0.076569624 0.303 4280039455
0.075885922 0.076569624 0.303 4280830253
0.076616377 0.076316923 0.30200002 4280632874
0.077597275 0.076316923 0.30200002 4279779102
0.078578167 0.076316923 0.30200002 4280569131
0.079295628 0.076064222 0.30100003 4280568618
0.080273278 0.076064222 0.30100003 4280765227
0.081250928 0.076064222 0.30100003 4278921486
0.06253586 0.079345785 0.31 4284444766
0.063542739 0.079345785 0.31 4283789656
0.064549617 0.079345785 0.31 4281092657
0.065345034 0.079089835 0.30900002 4280437545
0.066133946 0.078833885 0.30800003 4280306471
0.067134328 0.078833885 0.30800003 4280241448
0.067913495 0.078577928 0.30700001 4280175655
0.068910629 0.078577928 0.30700001 4280241196
0.06990777 0.078577928 0.30700001 4280503598
0.07067395 0.078321978 0.30600002 4279973922
0.071667835 0.078321978 0.30600002 4279578650
0.072424263 0.078066014 0.30500001 4281486134
0.073414907 0.078066014 0.30500001 4280894764
0.074161589 0.077810064 0.30400002 4280764460
0.074901782 0.077554107 0.303 4280172323
0.075885922 0.077554107 0.303 4280765227
0.076616377 0.077298157 0.30200002 4280765227
0.077597275 0.077298157 0.30200002 4279383320
0.078578167 0.077298157 0.30200002 4281095475
0.079295628 0.077042207 0.30100003 4279713309
0.080273278 0.077042207 0.30100003 4280173090
0.081250928 0.077042207 0.30100003 4280699432
0.081955381 0.07678625 0.30000001 4280764712
0.063542739 0.080353007 0.31 4283984985
0.064341396 0.080093808 0.30900002 4284313950
0.065345034 0.080093808 0.30900002 4283591510
0.066133946 0.07983461 0.30800003 4280500004
0.067134328 0.07983461 0.30800003 4280240164
0.067913495 0.079575405 0.30700001 4280240678
0.068910629 0.079575405 0.30700001 4280109862
0.069680057 0.079316199 0.30600002 4280307241
0.07067395 0.079316199 0.30600002 4280372266
0.071667835 0.079316199 0.30600002 4280700717
0.072424263 0.079056993 0.30500001 4280105760
0.073414907 0.079056993 0.30500001 4278658314
0.074161589 0.078797795 0.30400002 4280632876
0.075148985 0.078797795 0.30400002 4280436010
0.075885922 0.078538589 0.303 4279974946
0.076870069 0.078538589 0.303 4278790672
0.077597275 0.078279383 0.30200002 4280040739
0.078578167 0.078279383 0.30200002 4279777567
0.079295628 0.078020185 0.30100003 4280896048
0.080273278 0.078020185 0.30100003 4280764460
0.081250928 0.078020185 0.30100003 4279712024
0.081955381 0.07776098 0.30000001 4280568616
0.082929783 0.07776098 0.30000001 4280568618
0.083904184 0.07776098 0.30000001 4280699434
0.065345034 0.081097774 0.30900002 4284115541
0.066133946 0.080835328 0.30800003 4283984215
0.066916354 0.080572866 0.30700001 4283525201
0.067913495 0.080572866 0.30700001 4280302625
0.068910629 0.080572866 0.30700001 4280437545
0.069680057 0.080310419 0.30600002 4280371752
0.07067395 0.080310419 0.30600002 4280306473
0.071433619 0.080047965 0.30500001 4280306473
0.072424263 0.080047965 0.30500001 4280372266
0.073414907 0.080047965 0.30500001 4280568618
0.074161589 0.079785518 0.30400002 4280171555
0.075148985 0.079785518 0.30400002 4279249685
0.075885922 0.079523057 0.303 4280895278
0.076870069 0.079523057 0.303 4280633389
0.077597275 0.07926061 0.30200002 4280699182
0.078578167 0.07926061 0.30200002 4280172838
0.079559065 0.07926061 0.30200002 4280435495
0.080273278 0.078998163 0.30100003 4280765227
0.081250928 0.078998163 0.30100003 4280896298
0.081955381 0.078735702 0.30000001 4279975196
0.082929783 0.078735702 0.30000001 4280503084
0.083624512 0.078473255 0.29900002 4280437545
0.084595665 0.078473255 0.29900002 4280568618
0.085280634 0.078210801 0.29800001 4280699180
0.086248539 0.078210801 0.29800001 4279908383
0.099345259 0.076373629 0.29100001 4280373286
0.10029043 0.076373629 0.29100001 4280897579
0.066133946 0.081836052 0.30800003 4284115287
0.066916354 0.08157035 0.30700001 4283983955
0.067913495 0.08157035 0.30700001 4283523918
0.068686165 0.081304647 0.30600002 4282473283
0.069680057 0.081304647 0.30600002 4281026348
0.07067395 0.081304647 0.30600002 4280436008
0.071433619 0.081038944 0.30500001 4280502825
0.072424263 0.081038944 0.30500001 4280372266
0.073414907 0.081038944 0.30500001 4280569643
0.074161589 0.080773242 0.30400002 4280634922
0.075148985 0.080773242 0.30400002 4280700202
0.075885922 0.080507539 0.303 4280632874
0.076870069 0.080507539 0.303 4278921488
0.077854216 0.080507539 0.303 4280961839
0.078578167 0.080241837 0.30200002 4280436778
0.079559065 0.080241837 0.30200002 4279318297
0.080273278 0.079976141 0.30100003 4279844895
0.081250928 0.079976141 0.30100003 4279448854
0.081955381 0.079710439 0.30000001 4280632106
0.082929783 0.079710439 0.30000001 4279778080
0.083624512 0.079444736 0.29900002 4280239914
0.084595665 0.079444736 0.29900002 4280240166
0.085280634 0.079179034 0.29800001 4280569131
0.086248539 0.079179034 0.29800001 4280830766
0.086923771 0.078913331 0.29700002 4280633387
0.087888427 0.078913331 0.29700002 4280303911
0.088853084 0.078913331 0.29700002 4279250453
0.09745492 0.077319123 0.29100001 4279388957
0.098400094 0.077319123 0.29100001 4279454750
0.099345259 0.077319123 0.29100001 4279059992
0.10029043 0.077319123 0.29100001 4279651359
0.1012356 0.077319123 0.29100001 4279912485
0.10218077 0.077319123 0.29100001 4281028145
0.10312594 0.077319123 0.29100001 4284182879
0.066916354 0.082567826 0.30700001 4284114774
0.067913495 0.082567826 0.30700001 4283983442
0.068686165 0.082298875 0.30600002 4283720270
0.069680057 0.082298875 0.30600002 4283786576
0.07067395 0.082298875 0.30600002 4282669892
0.071433619 0.082029924 0.30500001 4280631077
0.072424263 0.082029924 0.30500001 4280633641
0.073174201 0.081760973 0.30400002 4280371750
0.074161589 0.081760973 0.30400002 4280437543
0.075148985 0.081760973 0.30400002 4280569129
0.075885922 0.081492022 0.303 4280503336
0.076870069 0.081492022 0.303 4280502825
0.077854216 0.081492022 0.303 4280894762
0.078578167 0.081223071 0.30200002 4278657800
0.079559065 0.081223071 0.30200002 4279974944
0.080273278 0.080954127 0.30100003 4280501288
0.081250928 0.080954127 0.30100003 4280764973
0.081955381 0.080685169 0.30000001 4280567594
0.082929783 0.080685169 0.30000001 4280171555
0.083904184 0.080685169 0.30000001 4279118867
0.084595665 0.080416225 0.29900002 4279382809
0.085280634 0.080147266 0.29800001 4280633128
0.086248539 0.080147266 0.29800001 4280436262
0.086923771 0.079878323 0.29700002 4280699434
0.087888427 0.079878323 0.29700002 4280765227
0.088853084 0.079878323 0.29700002 4280633641
0.089515321 0.079609364 0.296 4280303909
0.096841417 0.078533567 0.29200003 4279125785
0.09745492 0.078264616 0.29100001 4279323164
0.098400094 0.078264616 0.29100001 4279388957
0.099345259 0.078264616 0.29100001 4279323678
0.10029043 0.078264616 0.29100001 4279323164
0.1012356 0.078264616 0.29100001 4279388957
0.10218077 0.078264616 0.29100001 4279586336
0.10312594 0.078264616 0.29100001 4280502821
0.10371348 0.077995665 0.29000002 4281355313
0.10465539 0.077995665 0.29000002 4285235054
0.068686165 0.083293103 0.30600002 4284115026
0.069680057 0.083293103 0.30600002 4283917647
0.070442982 0.083020896 0.30500001 4283786576
0.071433619 0.083020896 0.30500001 4283721297
0.072424263 0.083020896 0.30500001 4283326537
0.073174201 0.082748704 0.30400002 4280696100
0.074161589 0.082748704 0.30400002 4280633641
0.075148985 0.082748704 0.30400002 4280502825
0.075885922 0.082476497 0.303 4280634409
0.076870069 0.082476497 0.303 4280700202
0.077854216 0.082476497 0.303 4280700202
0.078578167 0.082204305 0.30200002 4280765995
0.079559065 0.082204305 0.30200002 4280434725
0.080273278 0.081932105 0.30100003 4279578902
0.081250928 0.081932105 0.30100003 4279777565
0.082228571 0.081932105 0.30100003 4280502571
0.082929783 0.081659898 0.30000001 4280502571
0.083904184 0.081659898 0.30000001 4280369702
0.084595665 0.081387706 0.29900002 4280500004
0.085566819 0.081387706 0.29900002 4279841563
0.086248539 0.081115499 0.29800001 4280434465
0.087216437 0.081115499 0.29800001 4280434979
0.087888427 0.080843307 0.29700002 4280370469
0.088853084 0.080843307 0.29700002 4280502825
0.089515321 0.0805711 0.296 4280371752
0.090476729 0.0805711 0.296 4280240166
0.093685046 0.080026701 0.294 4280304676
0.094639964 0.080026701 0.294 4279845920
0.096841417 0.07948231 0.29200003 4279058455
0.097789824 0.07948231 0.29200003 4279124502
0.098400094 0.079210103 0.29100001 4279256601
0.099345259 0.079210103 0.29100001 4279519773
0.10029043 0.079210103 0.29100001 4279519773
0.1012356 0.079210103 0.29100001 4279586336
0.10218077 0.079210103 0.29100001 4279323164
0.10312594 0.079210103 0.29100001 4279781662
0.10371348 0.07893791 0.29000002 4280306723
0.10465539 0.07893791 0.29000002 4281093679
0.10559732 0.07893791 0.29000002 4283131211
0.070442982 0.084011875 0.30500001 4283851856
0.071433619 0.084011875 0.30500001 4283917649
0.072424263 0.084011875 0.30500001 4284312407
0.073174201 0.083736435 0.30400002 4284312407
0.074161589 0.083736435 0.30400002 4284577637
0.075148985 0.083736435 0.30400002 4281880892
0.075885922 0.083460979 0.303 4281027114
0.076870069 0.083460979 0.303 4280567846
0.077597275 0.083185531 0.30200002 4280502823
0.078578167 0.083185531 0.30200002 4280700202
0.079559065 0.083185531 0.30200002 4280963376
0.080273278 0.082910091 0.30100003 4280633641
0.081250928 0.082910091 0.30100003 4280763176
0.082228571 0.082910091 0.30100003 4279644695
0.082929783 0.082634635 0.30000001 4280500520
0.083904184 0.082634635 0.30000001 4280699180
0.084595665 0.082359187 0.29900002 4280633387
0.085566819 0.082359187 0.29900002 4280369702
0.086248539 0.082083732 0.29800001 4280763690
0.087216437 0.082083732 0.29800001 4279973660
0.087888427 0.081808291 0.29700002 4280566311
0.088853084 0.081808291 0.29700002 4279908381
0.089515321 0.081532836 0.296 4280042020
0.090476729 0.081532836 0.296 4280437545
0.091129236 0.081257388 0.29500002 4280371752
0.092087395 0.081257388 0.29500002 4280437291
0.093045548 0.081257388 0.29500002 4280896046
0.093685046 0.08098194 0.294 4278854927
0.094639964 0.08098194 0.294 4279447830
0.095594876 0.08098194 0.294 4280369954
0.096221395 0.080706492 0.29300001 4280042783
0.096841417 0.080431044 0.29200003 4279517723
0.097789824 0.080431044 0.29200003 4279254805
0.098738238 0.080431044 0.29200003 4279189012
0.099345259 0.080155596 0.29100001 4279255316
0.10029043 0.080155596 0.29100001 4279386902
0.1012356 0.080155596 0.29100001 4279059222
0.10218077 0.080155596 0.29100001 4279323164
0.10312594 0.080155596 0.29100001 4279190808
0.10371348 0.079880148 0.29000002 4279519260
0.10465539 0.079880148 0.29000002 4279847455
0.10559732 0.079880148 0.29000002 4280437028
0.10653923 0.079880148 0.29000002 4284116055
0.071433619 0.085002847 0.30500001 4283983442
0.072186805 0.084724151 0.30400002 4284180567
0.073174201 0.084724151 0.30400002 4284510045
0.074161589 0.084724151 0.30400002 4284642147
0.074901782 0.084445447 0.303 4284707940
0.075885922 0.084445447 0.303 4285300077
0.076870069 0.084445447 0.303 4282536769
0.077597275 0.084166758 0.30200002 4280698921
0.078578167 0.084166758 0.30200002 4280437032
0.079559065 0.084166758 0.30200002 4280569131
0.080273278 0.083888061 0.30100003 4280634924
0.081250928 0.083888061 0.30100003 4280700717
0.082228571 0.083888061 0.30100003 4280568618
0.082929783 0.083609357 0.30000001 4280632104
0.083904184 0.083609357 0.30000001 4279710490
0.084595665 0.083330661 0.29900002 4280172325
0.085566819 0.083330661 0.29900002 4280370215
0.086248539 0.083051965 0.29800001 4280568364
0.087216437 0.083051965 0.29800001 4280172323
0.087888427 0.082773268 0.29700002 4280434727
0.088853084 0.082773268 0.29700002 4280829485
0.089515321 0.082494564 0.296 4280500004
0.090476729 0.082494564 0.296 4280303139
0.091438144 0.082494564 0.296 4279975459
0.092087395 0.082215868 0.29500002 4280042022
0.093045548 0.082215868 0.29500002 4280437291
0.093685046 0.081937164 0.294 4280437291
0.094639964 0.081937164 0.294 4280303909
0.095594876 0.081937164 0.294 4279644695
0.096221395 0.081658475 0.29300001 4279844125
0.097173057 0.081658475 0.29300001 4280305446
0.097789824 0.081379779 0.29200003 4279977504
0.098738238 0.081379779 0.29200003 4279911711
0.099345259 0.081101075 0.29100001 4279386391
0.10029043 0.081101075 0.29100001 4279123732
0.1012356 0.081101075 0.29100001 4279124500
0.10218077 0.081101075 0.29100001 4279453465
0.10312594 0.081101075 0.29100001 4279585051
0.1040711 0.081101075 0.29100001 4279256601
0.10501627 0.081101075 0.29100001 4279059222
0.10596144 0.081101075 0.29100001 4279321627
0.10690661 0.081101075 0.29100001 4280895016
0.074901782 0.085429929 0.303 4285036391
0.075885922 0.085429929 0.303 4285035878
0.076870069 0.085429929 0.303 4285299050
0.077597275 0.085147984 0.30200002 4285694321
0.078578167 0.085147984 0.30200002 4283655504
0.079559065 0.085147984 0.30200002 4280303909
0.080273278 0.084866039 0.30100003 4280634924
0.081250928 0.084866039 0.30100003 4280108580
0.082228571 0.084866039 0.30100003 4280503338
0.082929783 0.084584087 0.30000001 4280634924
0.083904184 0.084584087 0.30000001 4280832303
0.084595665 0.08430215 0.29900002 4280698667
0.085566819 0.08430215 0.29900002 4279513623
0.086248539 0.084020197 0.29800001 4279843358
0.087216437 0.084020197 0.29800001 4280633641
0.087888427 0.083738253 0.29700002 4280435749
0.088853084 0.083738253 0.29700002 4280829737
0.08981774 0.083738253 0.29700002 4280632104
0.090476729 0.0834563 0.296 4279907356
0.091438144 0.0834563 0.296 4280829233
0.092087395 0.083174355 0.29500002 4279843106
0.093045548 0.083174355 0.29500002 4280239912
0.094003707 0.083174355 0.29500002 4280371498
0.094639964 0.082892403 0.294 4280502825
0.095594876 0.082892403 0.294 4280040991
0.096549787 0.082892403 0.294 4279379990
0.097173057 0.082610466 0.29300001 4280436008
0.097789824 0.082328521 0.29200003 4280634922
0.098738238 0.082328521 0.29200003 4280371750
0.09968666 0.082328521 0.29200003 4280174371
0.10029043 0.082046568 0.29100001 4279517725
0.1012356 0.082046568 0.29100001 4279123732
0.10218077 0.082046568 0.29100001 4279124502
0.10312594 0.082046568 0.29100001 4279124502
0.1040711 0.082046568 0.29100001 4279388187
0.10501627 0.082046568 0.29100001 4279256601
0.10596144 0.082046568 0.29100001 4279190808
0.10690661 0.082046568 0.29100001 4279780125
0.076616377 0.086129218 0.30200002 4285561454
0.077597275 0.086129218 0.30200002 4285364845
0.078578167 0.086129218 0.30200002 4285562224
0.079559065 0.086129218 0.30200002 4285497456
0.080273278 0.085844025 0.30100003 4285103981
0.081250928 0.085844025 0.30100003 4281552179
0.081955381 0.085558824 0.30000001 4280960809
0.082929783 0.085558824 0.30000001 4280502823
0.083904184 0.085558824 0.30000001 4280569129
0.084595665 0.085273631 0.29900002 4280634922
0.085566819 0.085273631 0.29900002 4280569129
0.086248539 0.08498843 0.29800001 4280699434
0.087216437 0.08498843 0.29800001 4279513877
