# .PCD v0.7 - Point Cloud Data file format
VERSION 0.7
FIELDS x y z rgb
SIZE 4 4 4 4
TYPE F F F U
COUNT 1 1 1 1
WIDTH 647
HEIGHT 1
VIEWPOINT 0 0 0 1 0 0 0
POINTS 647
DATA ascii
-0.043266792 0.0049699531 0.40500003 4281155888
-0.04063591 0.0049699531 0.40500003 4281615669
-0.039320469 0.0049699531 0.40500003 4281418290
-0.036598995 0.0049576815 0.40400001 4281419571
-0.033890516 0.0049454099 0.40300003 4281680946
-0.030038033 0.0049576815 0.40400001 4278800160
-0.028725838 0.0049576815 0.40400001 4278604831
-0.027481504 0.0049699531 0.40500003 4279328554
-0.024911981 0.0049822242 0.40600002 4284525951
-0.043373622 0.0063013597 0.40600002 4280432676
-0.042054933 0.0063013597 0.40600002 4281353267
-0.039417554 0.0063013597 0.40600002 4281287474
-0.038098868 0.0063013597 0.40600002 4280826921
-0.03519946 0.0062547983 0.40300003 4281548849
-0.033890516 0.0062547983 0.40300003 4281549360
-0.032581568 0.0062547983 0.40300003 4280959274
-0.031272627 0.0062547983 0.40300003 4280105760
-0.030038033 0.0062703188 0.40400001 4279193375
-0.028725838 0.0062703188 0.40400001 4278800414
-0.027481504 0.0062858397 0.40500003 4278735902
-0.026166065 0.0062858397 0.40500003 4278933794
-0.024911981 0.0063013597 0.40600002 4278277661
-0.019733962 0.0063324012 0.40800002 4279197998
-0.018453894 0.0063479217 0.40900001 4279659062
-0.017125463 0.0063479217 0.40900001 4279330867
-0.015835654 0.0063634426 0.41000003 4279593271
-0.046979964 0.0075641866 0.40300003 4281811753
-0.043480452 0.0076392652 0.40700001 4281419060
-0.042158514 0.0076392652 0.40700001 4281221681
-0.04083658 0.0076392652 0.40700001 4281286704
-0.039514642 0.0076392652 0.40700001 4280891946
-0.038192704 0.0076392652 0.40700001 4281419058
-0.033890516 0.0075641866 0.40300003 4281220136
-0.032581568 0.0075641866 0.40300003 4280827175
-0.031350225 0.007582956 0.40400001 4280105248
-0.030038033 0.007582956 0.40400001 4279126299
-0.028796943 0.0076017259 0.40500003 4279061789
-0.027481504 0.0076017259 0.40500003 4278603033
-0.026230671 0.0076204957 0.40600002 4278999074
-0.024911981 0.0076204957 0.40600002 4278408220
-0.023651402 0.0076392652 0.40700001 4278540322
-0.022384331 0.007658035 0.40800002 4279329838
-0.021059146 0.007658035 0.40800002 4279593523
-0.019782327 0.0076768044 0.40900001 4279528500
-0.018453894 0.0076768044 0.40900001 4279331121
-0.017167335 0.0076955743 0.41000003 4279067949
-0.015835654 0.0076955743 0.41000003 4279659316
-0.014503974 0.0076955743 0.41000003 4279790902
-0.013172292 0.0076955743 0.41000003 4279396144
-0.043587286 0.0089836689 0.40800002 4281156399
-0.0422621 0.0089836689 0.40800002 4280959020
-0.040936917 0.0089836689 0.40800002 4280432678
-0.039611731 0.0089836689 0.40800002 4280826923
-0.038192704 0.0089616496 0.40700001 4281484083
-0.03519946 0.0088735744 0.40300003 4283062592
-0.033890516 0.0088735744 0.40300003 4281220134
-0.032581568 0.0088735744 0.40300003 4281090860
-0.030038033 0.0088955928 0.40400001 4279519260
-0.028796943 0.008917612 0.40500003 4279389471
-0.027481504 0.008917612 0.40500003 4279128095
-0.026230671 0.0089396304 0.40600002 4278932000
-0.024973338 0.0089616496 0.40700001 4278933029
-0.023651402 0.0089616496 0.40700001 4279460140
-0.022384331 0.0089836689 0.40800002 4279658803
-0.02111076 0.0090056872 0.40900001 4279132459
-0.019782327 0.0090056872 0.40900001 4279067177
-0.018499015 0.0090277065 0.41000003 4279132970
-0.017167335 0.0090277065 0.41000003 4279132970
-0.015874278 0.0090497248 0.41100001 4279132970
-0.014503974 0.0090277065 0.41000003 4279396144
-0.013172292 0.0090277065 0.41000003 4279461424
-0.046237655 0.010309302 0.40800002 4282403111
-0.044912472 0.010309302 0.40800002 4282075177
-0.043587286 0.010309302 0.40800002 4280893227
-0.0422621 0.010309302 0.40800002 4280695850
-0.040936917 0.010309302 0.40800002 4280630057
-0.039611731 0.010309302 0.40800002 4280695850
-0.038192704 0.010284034 0.40700001 4280958507
-0.03687077 0.010284034 0.40700001 4281089577
-0.033890516 0.010182963 0.40300003 4281416997
-0.032581568 0.010182963 0.40300003 4280631079
-0.031350225 0.01020823 0.40400001 4279909151
-0.030038033 0.01020823 0.40400001 4279650592
-0.028796943 0.010233498 0.40500003 4279257631
-0.027549358 0.010258766 0.40600002 4279193121
-0.026230671 0.010258766 0.40600002 4279260197
-0.024973338 0.010284034 0.40700001 4279327017
-0.023709515 0.010309302 0.40800002 4279657006
-0.022384331 0.010309302 0.40800002 4279132459
-0.02111076 0.010334569 0.40900001 4279527217
-0.019830696 0.010359838 0.41000003 4279132459
-0.018499015 0.010359838 0.41000003 4278737701
-0.017209206 0.010385105 0.41100001 4279329838
-0.015912902 0.010410374 0.41200003 4279198252
-0.014716227 0.010511445 0.41600001 4278998826
-0.013397185 0.010536713 0.41700003 4279197486
-0.046237655 0.011634936 0.40800002 4282599720
-0.044912472 0.011634936 0.40800002 4282337066
-0.043587286 0.011634936 0.40800002 4280826923
-0.0422621 0.011634936 0.40800002 4280432678
-0.04083658 0.011606419 0.40700001 4280630057
-0.039514642 0.011606419 0.40700001 4280827436
-0.038098868 0.011577902 0.40600002 4280959020
-0.036598995 0.011520868 0.40400001 4280695335
-0.03519946 0.011492351 0.40300003 4281286181
-0.033890516 0.011492351 0.40300003 4280891169
-0.032581568 0.011492351 0.40300003 4280498721
-0.031350225 0.011520868 0.40400001 4279975711
-0.030038033 0.011520868 0.40400001 4279256347
-0.028796943 0.011549385 0.40500003 4279257885
-0.027549358 0.011577902 0.40600002 4279982637
-0.026295278 0.011606419 0.40700001 4279851564
-0.024973338 0.011606419 0.40700001 4280050227
-0.023709515 0.011634936 0.40800002 4279393834
-0.022439193 0.011663453 0.40900001 4279197738
-0.02111076 0.011663453 0.40900001 4279724596
-0.019830696 0.01169197 0.41000003 4279329838
-0.018544134 0.011720487 0.41100001 4279263531
-0.017251078 0.011749004 0.41200003 4279066666
-0.015951525 0.011777521 0.41300002 4279066666
-0.014716227 0.011863071 0.41600001 4278205454
-0.013397185 0.01189159 0.41700003 4279459375
-0.0096473051 0.012290827 0.43100002 4279195431
-0.0082474155 0.012290827 0.43100002 4279657006
-0.043587286 0.01296057 0.40800002 4281221679
-0.042158514 0.012928803 0.40700001 4280892716
-0.040736247 0.012897038 0.40600002 4280826923
-0.039417554 0.012897038 0.40600002 4280761130
-0.038005028 0.012865272 0.40500003 4281156399
-0.036598995 0.012833506 0.40400001 4281221679
-0.03519946 0.012801739 0.40300003 4281220647
-0.033890516 0.012801739 0.40300003 4281549612
-0.032662418 0.012833506 0.40400001 4280302112
-0.031350225 0.012833506 0.40400001 4279911201
-0.030112386 0.012865272 0.40500003 4279716898
-0.028796943 0.012865272 0.40500003 4279455264
-0.027549358 0.012897038 0.40600002 4279390752
-0.026295278 0.012928803 0.40700001 4279588644
-0.0250347 0.01296057 0.40800002 4279524135
-0.023709515 0.01296057 0.40800002 4279327269
-0.022439193 0.012992335 0.40900001 4279525931
-0.021162378 0.013024103 0.41000003 4279724594
-0.019879064 0.013055868 0.41100001 4278737701
-0.018589254 0.013087635 0.41200003 4279197738
-0.01729295 0.0131194 0.41300002 4279723312
-0.015990149 0.013151167 0.41400003 4279460140
-0.014751602 0.013246465 0.41700003 4278205713
-0.013461441 0.013309998 0.41900003 4278205716
-0.012244926 0.013468828 0.42400002 4278790420
-0.010944667 0.013564126 0.42700002 4278987029
-0.0096249208 0.013659424 0.43000001 4278856213
-0.0082474155 0.013691191 0.43100002 4278856213
-0.0068793017 0.013754723 0.43300003 4279190304
-0.005485557 0.013786488 0.43400002 4278205203
-0.0040853159 0.013818256 0.43500003 4278204178
0.0031571484 0.014644174 0.46100003 4278200067
0.0046544774 0.014644174 0.46100003 4278201354
-0.043587286 0.014286203 0.40800002 4281418288
-0.041951351 0.014181159 0.40500003 4281352497
-0.038005028 0.014181159 0.40500003 4281419058
-0.036598995 0.014146143 0.40400001 4281286702
-0.035286803 0.014146143 0.40400001 4281286188
-0.03397461 0.014146143 0.40400001 4280892198
-0.032662418 0.014146143 0.40400001 4279843358
-0.031350225 0.014146143 0.40400001 4280109094
-0.030112386 0.014181159 0.40500003 4279388705
-0.028868046 0.014216173 0.40600002 4279257631
-0.027617212 0.014251187 0.40700001 4279390754
-0.026295278 0.014251187 0.40700001 4279522853
-0.0250347 0.014286203 0.40800002 4279392551
-0.023767626 0.014321218 0.40900001 4279459627
-0.022439193 0.014321218 0.40900001 4279460140
-0.021162378 0.014356234 0.41000003 4279592496
-0.019879064 0.014391249 0.41100001 4279000359
-0.018589254 0.014426265 0.41200003 4278539554
-0.017334823 0.014496296 0.41400003 4279000359
-0.016028773 0.01453131 0.41500002 4279920691
-0.014786977 0.014636355 0.41800001 4280507698
-0.013493568 0.014706386 0.42000002 4278199552
-0.012244926 0.014846447 0.42400002 4279183383
-0.010944667 0.014951493 0.42700002 4278986004
-0.0096249208 0.015056537 0.43000001 4279117336
-0.0082665514 0.015126568 0.43200001 4279052056
-0.0068793017 0.015161584 0.43300003 4279914027
-0.0054981969 0.015231614 0.43500003 4279457578
-0.0040947073 0.015266629 0.43600002 4279260713
-0.002684722 0.015301644 0.43700001 4279326504
0.00016178592 0.016071979 0.45900002 4279326504
0.0016526188 0.016071979 0.45900002 4279261226
0.0031502999 0.016106993 0.46000001 4279326508
0.0046544774 0.016142009 0.46100003 4279918131
0.0061518066 0.016142009 0.46100003 4279061285
-0.036598995 0.015458779 0.40400001 4280958509
-0.035286803 0.015458779 0.40400001 4281088809
-0.03397461 0.015458779 0.40400001 4281286702
-0.032662418 0.015458779 0.40400001 4280172323
-0.031427827 0.015497045 0.40500003 4279846692
-0.030112386 0.015497045 0.40500003 4279322910
-0.028868046 0.015535308 0.40600002 4279257631
-0.027617212 0.015573572 0.40700001 4279193121
-0.026359886 0.015611837 0.40800002 4279654955
-0.0250347 0.015611837 0.40800002 4279327787
-0.023767626 0.015650101 0.40900001 4279394093
-0.022439193 0.015650101 0.40900001 4279460656
-0.021162378 0.015688365 0.41000003 4279723828
-0.019879064 0.01572663 0.41100001 4279329070
-0.018634373 0.015803158 0.41300002 4279197484
-0.017334823 0.015841423 0.41400003 4279131691
-0.016067395 0.015917951 0.41600001 4279064615
-0.014822354 0.016032744 0.41900003 4280508983
-0.013525696 0.016109273 0.42100003 4278334995
-0.012273805 0.01626233 0.42500001 4279843619
-0.010970299 0.016377123 0.42800003 4279318299
-0.0096249208 0.016453652 0.43000001 4280107815
-0.0082665514 0.01653018 0.43200001 4280963124
-0.0068951892 0.016606709 0.43400002 4280836153
-0.0054981969 0.016644973 0.43500003 4278202633
-0.0041040988 0.016721502 0.43700001 4278666527
-0.0026908657 0.016759766 0.43800002 4278666781
-0.0012740319 0.016836295 0.44000003 4278733855
0.00016143346 0.017525053 0.45800003 4279655473
0.0016526188 0.017563317 0.45900002 4278998824
0.0031502999 0.017601579 0.46000001 4279064617
0.0046443804 0.017601579 0.46000001 4279590191
0.0061518066 0.017639846 0.46100003 4278206483
0.0076491348 0.017639846 0.46100003 4279524398
-0.036598995 0.016771417 0.40400001 4281155888
-0.035374146 0.01681293 0.40500003 4281286704
-0.034058709 0.01681293 0.40500003 4280828206
-0.032743264 0.01681293 0.40500003 4280042020
-0.031505425 0.016854443 0.40600002 4279846951
-0.030186737 0.016854443 0.40600002 4279389217
-0.028939148 0.016895955 0.40700001 4279192351
-0.027617212 0.016895955 0.40700001 4279522599
-0.026359886 0.01693747 0.40800002 4279523369
-0.0250347 0.01693747 0.40800002 4279196201
-0.023767626 0.016978983 0.40900001 4279130921
-0.022494059 0.017020497 0.41000003 4279132718
-0.021213992 0.01706201 0.41100001 4279132972
-0.019927431 0.017103525 0.41200003 4279197736
-0.018634373 0.017145038 0.41300002 4279131943
-0.017376693 0.017228065 0.41500002 4279197738
-0.016106019 0.017311091 0.41700003 4278471197
-0.014822354 0.017394118 0.41900003 4278862877
-0.013557822 0.017518658 0.42200002 4279321377
-0.012273805 0.017643198 0.42500001 4279582498
-0.010970299 0.017767739 0.42800003 4278594576
-0.0096473051 0.017892279 0.43100002 4278397710
-0.0082665514 0.017933792 0.43200001 4278198789
-0.0068951892 0.018016819 0.43400002 4280441143
-0.0055108359 0.018099846 0.43600002 4278202898
-0.0041134907 0.018182872 0.43800002 4279454246
-0.0026970091 0.018224385 0.43900001 4278206228
-0.0012769274 0.018307412 0.44100001 4280377397
0.00016108097 0.018971628 0.45700002 4278205971
0.0016490183 0.01901314 0.45800003 4278665757
0.0031434514 0.019054655 0.45900002 4279060769
0.0046443804 0.019096168 0.46000001 4278602269
0.0061518066 0.019137681 0.46100003 4278404890
0.0076491348 0.019137681 0.46100003 4279065132
-0.036689591 0.018128816 0.40500003 4281287476
-0.035374146 0.018128816 0.40500003 4281155888
-0.034142803 0.018173579 0.40600002 4280762411
-0.03282411 0.018173579 0.40600002 4280108580
-0.031505425 0.018173579 0.40600002 4279584803
-0.030261086 0.01821834 0.40700001 4279257635
-0.028939148 0.01821834 0.40700001 4279323426
-0.02768507 0.018263103 0.40800002 4279456547
-0.026359886 0.018263103 0.40800002 4279457830
-0.025096059 0.018307867 0.40900001 4278933542
-0.023767626 0.018307867 0.40900001 4279197484
-0.022494059 0.01835263 0.41000003 4279198511
-0.021213992 0.018397391 0.41100001 4278672421
-0.019927431 0.018442154 0.41200003 4279198252
-0.018634373 0.018486917 0.41300002 4279132459
-0.016106019 0.018665968 0.41700003 4278205200
-0.014857729 0.018800253 0.42000002 4280901946
-0.01358995 0.01893454 0.42300001 4278661396
-0.012302685 0.01906883 0.42600003 4278922006
-0.010970299 0.019158354 0.42800003 4278658064
-0.0096473051 0.019292641 0.43100002 4278527248
-0.0082856873 0.019382168 0.43300003 4278198278
-0.0069110771 0.019471692 0.43500003 4281032510
-0.0055108359 0.019516453 0.43600002 4278199815
-0.0041134907 0.019605979 0.43800002 4278533660
-0.0027092961 0.019740267 0.44100001 4279587883
-0.0012827184 0.019829791 0.44300002 4279456295
0.00016037603 0.020366941 0.45500001 4279522603
0.0016454178 0.020456467 0.45700002 4278864419
0.0031434514 0.020545991 0.45900002 4279653935
0.0046443804 0.020590754 0.46000001 4280377399
0.0061384616 0.020590754 0.46000001 4279522603
0.0076491348 0.020635517 0.46100003 4279326767
-0.036780179 0.019492716 0.40600002 4281352495
-0.035461489 0.019492716 0.40600002 4281484081
-0.034142803 0.019492716 0.40600002 4280565286
-0.032904956 0.019540727 0.40700001 4279780645
-0.031583022 0.019540727 0.40700001 4279585316
-0.030261086 0.019540727 0.40700001 4279191842
-0.029010253 0.019588739 0.40800002 4279521318
-0.02768507 0.019588739 0.40800002 4279062302
-0.026359886 0.019588739 0.40800002 4279129379
-0.025096059 0.01963675 0.40900001 4279393834
-0.023767626 0.01963675 0.40900001 4279723312
-0.022494059 0.019684762 0.41000003 4279593523
-0.021213992 0.019732773 0.41100001 4278672421
-0.019927431 0.019780785 0.41200003 4279263529
-0.018634373 0.019828796 0.41300002 4279197736
-0.017376693 0.019924819 0.41500002 4279656236
-0.016106019 0.020020844 0.41700003 4278206484
-0.014857729 0.020164877 0.42000002 4280967739
-0.01358995 0.020308912 0.42300001 4278397456
-0.012302685 0.020452948 0.42600003 4279314969
-0.010970299 0.020548971 0.42800003 4279379738
-0.0096473051 0.020693006 0.43100002 4279116566
-0.0082856873 0.020789029 0.43300003 4278657552
-0.0069110771 0.020885052 0.43500003 4279716650
-0.0055234754 0.020981075 0.43700001 4280637752
-0.0041228822 0.021077098 0.43900001 4280177969
-0.0027154398 0.021221135 0.44200003 4279586859
-0.0012885095 0.021365168 0.44500002 4279653422
0.00015967108 0.02174926 0.45300001 4279390250
0.0016418173 0.021893296 0.45600003 4279982387
0.0031366032 0.021989319 0.45800003 4279521836
0.0046342839 0.022037331 0.45900002 4280180020
0.0061384616 0.022085343 0.46000001 4280114227
0.0076491348 0.022133354 0.46100003 4279654959
-0.035548832 0.02086311 0.40700001 4281222192
-0.034226898 0.02086311 0.40700001 4280631852
-0.032904956 0.02086311 0.40700001 4279585064
-0.031660624 0.020914372 0.40800002 4279454500
-0.030335439 0.020914372 0.40800002 4279455014
-0.029010253 0.020914372 0.40800002 4279587113
-0.02768507 0.020914372 0.40800002 4279325990
-0.026359886 0.020914372 0.40800002 4279261224
-0.025096059 0.020965632 0.40900001 4279393580
-0.023767626 0.020965632 0.40900001 4279854644
-0.022494059 0.021016894 0.41000003 4279264558
-0.021213992 0.021068154 0.41100001 4279593521
-0.019927431 0.021119416 0.41200003 4278935591
-0.018679494 0.021221938 0.41400003 4279132457
-0.017418563 0.021324458 0.41600001 4280050994
-0.016144643 0.021426979 0.41800001 4278204941
-0.014857729 0.021529501 0.42000002 4279785773
-0.01358995 0.021683281 0.42300001 4280508213
-0.012302685 0.021837065 0.42600003 4280835899
-0.010970299 0.021939587 0.42800003 4280375348
-0.0096473051 0.022093369 0.43100002 4280506936
-0.0082856873 0.022195891 0.43300003 4280244278
-0.0069110771 0.022298412 0.43500003 4280244789
-0.0055234754 0.022400932 0.43700001 4280113203
-0.0041228822 0.022503454 0.43900001 4280310584
-0.0027215832 0.022708498 0.44300002 4280244791
0.0001593186 0.023169843 0.45200002 4280244791
0.0016382168 0.023323625 0.45500001 4280244537
0.0031297544 0.023426147 0.45700002 4280047158
0.0046342839 0.023528669 0.45900002 4279719469
0.0061384616 0.023579929 0.46000001 4279589680
0.0076491348 0.023631191 0.46100003 4279852084
-0.035548832 0.022185495 0.40700001 4280501036
-0.034226898 0.022185495 0.40700001 4280831797
-0.032985806 0.022240005 0.40800002 4279717166
-0.031660624 0.022240005 0.40800002 4279388455
-0.030335439 0.022240005 0.40800002 4279455014
-0.029010253 0.022240005 0.40800002 4279587881
-0.02768507 0.022240005 0.40800002 4279391785
-0.026359886 0.022240005 0.40800002 4279260711
-0.025096059 0.022294514 0.40900001 4279590959
-0.023767626 0.022294514 0.40900001 4279459886
-0.022494059 0.022349026 0.41000003 4279329584
-0.021213992 0.022403535 0.41100001 4279132718
-0.019927431 0.022458045 0.41200003 4279132972
-0.018679494 0.022567065 0.41400003 4279198511
-0.017418563 0.022676084 0.41600001 4279525168
-0.016144643 0.022785103 0.41800001 4279523885
-0.014857729 0.022894124 0.42000002 4279458605
-0.01358995 0.023057653 0.42300001 4279327787
-0.012302685 0.023221184 0.42600003 4279196455
-0.010970299 0.023330202 0.42800003 4279196455
-0.0096473051 0.023493731 0.43100002 4279130410
-0.0082856873 0.023602752 0.43300003 4278998824
-0.0068951892 0.02365726 0.43400002 4279327789
-0.0055108359 0.023766281 0.43600002 4279196203
-0.0041228822 0.02392981 0.43900001 4279393582
-0.0027215832 0.02414785 0.44300002 4279458605
0.0001593186 0.024638437 0.45200002 4279458353
0.0016382168 0.024801966 0.45500001 4279260974
0.0031297544 0.024910986 0.45700002 4279655732
0.0046342839 0.025020007 0.45900002 4279524146
0.0061384616 0.025074515 0.46000001 4279655732
-0.03687077 0.02350788 0.40700001 4281356608
-0.035548832 0.02350788 0.40700001 4280634170
-0.034310993 0.023565639 0.40800002 4279450408
-0.032985806 0.023565639 0.40800002 4279518508
-0.031660624 0.023565639 0.40800002 4279913779
-0.030335439 0.023565639 0.40800002 4279585834
-0.029010253 0.023565639 0.40800002 4280178483
-0.02768507 0.023565639 0.40800002 4279916594
-0.026359886 0.023565639 0.40800002 4279391787
-0.025096059 0.023623398 0.40900001 4279459373
-0.023767626 0.023623398 0.40900001 4279525679
-0.022494059 0.023681156 0.41000003 4279197484
-0.021213992 0.023738915 0.41100001 4279066414
-0.019927431 0.023796676 0.41200003 4278869035
-0.018634373 0.023854433 0.41300002 4279066414
-0.017418563 0.024027709 0.41600001 4279328302
-0.016144643 0.024143228 0.41800001 4279327789
-0.014857729 0.024258746 0.42000002 4279393582
-0.01358995 0.024432022 0.42300001 4279130923
-0.012273805 0.02454754 0.42500001 4279263277
-0.010970299 0.024720818 0.42800003 4279000105
-0.0096249208 0.024836333 0.43000001 4278933542
-0.0082665514 0.024951853 0.43200001 4279262507
-0.0068951892 0.02506737 0.43400002 4279130921
-0.0055108359 0.025182888 0.43600002 4279328300
-0.0041134907 0.025298407 0.43800002 4279328302
-0.0027215832 0.025587201 0.44300002 4279393584
0.0016382168 0.026280308 0.45500001 4279391535
0.0031297544 0.026395826 0.45700002 4279456045
0.0046342839 0.026511343 0.45900002 4280045365
0.0061384616 0.026569102 0.46000001 4284188526
-0.032985806 0.024891272 0.40800002 4286424206
-0.031660624 0.024891272 0.40800002 4282870871
-0.030335439 0.024891272 0.40800002 4280832831
-0.029010253 0.024891272 0.40800002 4279912496
-0.02768507 0.024891272 0.40800002 4280178235
-0.026359886 0.024891272 0.40800002 4280178746
-0.025096059 0.024952279 0.40900001 4280114488
-0.023767626 0.024952279 0.40900001 4280115256
-0.022494059 0.025013288 0.41000003 4279523887
-0.021213992 0.025074296 0.41100001 4279524400
-0.019927431 0.025135305 0.41200003 4279525170
-0.018634373 0.025196312 0.41300002 4279327021
-0.017418563 0.025379336 0.41600001 4279786805
-0.016144643 0.025501352 0.41800001 4279984186
-0.014857729 0.025623368 0.42000002 4279655734
-0.013557822 0.025745384 0.42200002 4279589941
-0.012273805 0.025928408 0.42500001 4279524148
-0.010970299 0.026111433 0.42800003 4279655734
-0.0096249208 0.026233448 0.43000001 4279589428
-0.0082665514 0.026355464 0.43200001 4279589428
-0.0068951892 0.02647748 0.43400002 4279917107
-0.0054981969 0.026538489 0.43500003 4279851314
-0.0041040988 0.026660504 0.43700001 4279192621
-0.020096391 0.016431624 0.41864172 4294967295
-0.020096391 0.016431624 0.41864172 4294901760
-0.020096391 0.016431624 0.41914171 4294901760
-0.020096391 0.016431624 0.4196417 4294901760
-0.020096391 0.016431624 0.42014173 4294901760
-0.020096391 0.016431624 0.42064172 4294901760
-0.020096391 0.016431624 0.42114171 4294901760
-0.020096391 0.016431624 0.42164171 4294901760
-0.020096391 0.016431624 0.42214173 4294901760
-0.020096391 0.016431624 0.42264172 4294901760
-0.020096391 0.016431624 0.42314172 4294901760
-0.020096391 0.016431624 0.42364171 4294901760
-0.020096391 0.016431624 0.42414171 4294901760
-0.020096391 0.016431624 0.42464173 4294901760
-0.020096391 0.016431624 0.42514172 4294901760
-0.020096391 0.016431624 0.42564172 4294901760
-0.020096391 0.016431624 0.42614171 4294901760
-0.020096391 0.016431624 0.4266417 4294901760
-0.020096391 0.016431624 0.42714173 4294901760
-0.020096391 0.016431624 0.42764172 4294901760
-0.020096391 0.016431624 0.42814171 4294901760
-0.020096391 0.016431624 0.42864171 4294901760
-0.020096391 0.016431624 0.42914173 4294901760
-0.020096391 0.016431624 0.42964172 4294901760
-0.020096391 0.016431624 0.43014172 4294901760
-0.020096391 0.016431624 0.43064171 4294901760
-0.020096391 0.016431624 0.43114173 4294901760
-0.020096391 0.016431624 0.43164173 4294901760
-0.020096391 0.016431624 0.43214172 4294901760
-0.020096391 0.016431624 0.43264171 4294901760
-0.020096391 0.016431624 0.43314171 4294901760
-0.020096391 0.016431624 0.43364173 4294901760
-0.020096391 0.016431624 0.43414173 4294901760
-0.020096391 0.016431624 0.43464172 4294901760
-0.020096391 0.016431624 0.43514171 4294901760
-0.020096391 0.016431624 0.43564171 4294901760
-0.020096391 0.016431624 0.43614173 4294901760
-0.020096391 0.016431624 0.43664172 4294901760
-0.020096391 0.016431624 0.43714172 4294901760
-0.020096391 0.016431624 0.43764171 4294901760
-0.020096391 0.016431624 0.43814173 4294901760
-0.020096391 0.016431624 0.43864173 4294901760
-0.020096391 0.016431624 0.43914172 4294901760
-0.020096391 0.016431624 0.43964171 4294901760
-0.020096391 0.016431624 0.44014174 4294901760
-0.020096391 0.016431624 0.44064173 4294901760
-0.020096391 0.016431624 0.44114172 4294901760
-0.020096391 0.016431624 0.44164172 4294901760
-0.020096391 0.016431624 0.44214171 4294901760
-0.020096391 0.016431624 0.44264174 4294901760
-0.020096391 0.016431624 0.44314173 4294901760
-0.020096391 0.016431624 0.44364172 4294901760
-0.020096391 0.016431624 0.44414172 4294901760
-0.020096391 0.016431624 0.44464171 4294901760
-0.020096391 0.016431624 0.44514173 4294901760
-0.020096391 0.016431624 0.44564173 4294901760
-0.020096391 0.016431624 0.44614172 4294901760
-0.020096391 0.016431624 0.44664171 4294901760
-0.020096391 0.016431624 0.44714171 4294901760
-0.020096391 0.016431624 0.44764173 4294901760
-0.020096391 0.016431624 0.44814172 4294901760
-0.020096391 0.016431624 0.44864172 4294901760
-0.020096391 0.016431624 0.44914171 4294901760
-0.020096391 0.016431624 0.44964173 4294901760
-0.020096391 0.016431624 0.45014173 4294901760
-0.020096391 0.016431624 0.45064172 4294901760
-0.020096391 0.016431624 0.45114172 4294901760
-0.020096391 0.016431624 0.45164174 4294901760
-0.020096391 0.016431624 0.45214173 4294901760
-0.020096391 0.016431624 0.45264173 4294901760
-0.020096391 0.016431624 0.45314172 4294901760
-0.020096391 0.016431624 0.45364171 4294901760
-0.020096391 0.016431624 0.45414174 4294901760
-0.020096391 0.016431624 0.45464173 4294901760
-0.020096391 0.016431624 0.45514172 4294901760
-0.020096391 0.016431624 0.45564172 4294901760
-0.020096391 0.016431624 0.45614171 4294901760
-0.020096391 0.016431624 0.45664173 4294901760
-0.020096391 0.016431624 0.45714173 4294901760
-0.020096391 0.016431624 0.45764172 4294901760
-0.020096391 0.016431624 0.45814171 4294901760
-0.020096391 0.016431624 0.45864174 4294901760
-0.020096391 0.016431624 0.45914173 4294901760
-0.020096391 0.016431624 0.45964172 4294901760
-0.020096391 0.016431624 0.46014172 4294901760
-0.020096391 0.016431624 0.46064171 4294901760
-0.020096391 0.016431624 0.46114174 4294901760
-0.020096391 0.016431624 0.46164173 4294901760
-0.020096391 0.016431624 0.46214172 4294901760
-0.020096391 0.016431624 0.46264172 4294901760
-0.020096391 0.016431624 0.46314174 4294901760
-0.020096391 0.016431624 0.46364173 4294901760
-0.020096391 0.016431624 0.46414173 4294901760
-0.020096391 0.016431624 0.46464172 4294901760
-0.020096391 0.016431624 0.46514171 4294901760
-0.020096391 0.016431624 0.46564174 4294901760
-0.020096391 0.016431624 0.46614173 4294901760
-0.020096391 0.016431624 0.46664172 4294901760
-0.020096391 0.016431624 0.46714172 4294901760
-0.020096391 0.016431624 0.46764174 4294901760
-0.020096391 0.016431624 0.46814173 4294901760
-0.020096391 0.016431624 0.46864173 4294901760
-0.020096391 0.016431624 0.41864172 4278255360
-0.020312054 0.016327037 0.41908053 4278255360
-0.020527719 0.016222451 0.41951934 4278255360
-0.020743381 0.016117863 0.41995814 4278255360
-0.020959046 0.016013278 0.42039695 4278255360
-0.021174708 0.01590869 0.42083573 4278255360
-0.021390371 0.015804105 0.42127454 4278255360
-0.021606036 0.015699517 0.42171335 4278255360
-0.021821698 0.015594931 0.42215216 4278255360
-0.022037363 0.015490345 0.42259097 4278255360
-0.022253025 0.015385758 0.42302978 4278255360
-0.022468688 0.015281172 0.42346859 4278255360
-0.022684352 0.015176585 0.4239074 4278255360
-0.022900015 0.015071997 0.42434621 4278255360
-0.02311568 0.014967411 0.42478499 4278255360
-0.023331342 0.014862824 0.4252238 4278255360
-0.023547005 0.014758238 0.42566261 4278255360
-0.023762669 0.014653651 0.42610142 4278255360
-0.023978332 0.014549064 0.42654023 4278255360
-0.024193995 0.014444478 0.42697904 4278255360
-0.024409659 0.014339891 0.42741784 4278255360
-0.024625322 0.014235305 0.42785665 4278255360
-0.024840986 0.014130718 0.42829546 4278255360
-0.025056649 0.014026131 0.42873424 4278255360
-0.025272314 0.013921545 0.42917305 4278255360
-0.025487976 0.013816958 0.42961186 4278255360
-0.025703639 0.013712372 0.43005067 4278255360
-0.025919303 0.013607785 0.43048948 4278255360
-0.026134966 0.013503199 0.43092829 4278255360
-0.026350629 0.013398612 0.4313671 4278255360
-0.026566293 0.013294025 0.43180591 4278255360
-0.026781958 0.013189439 0.43224472 4278255360
-0.02699762 0.013084852 0.4326835 4278255360
-0.027213283 0.012980266 0.43312231 4278255360
-0.027428947 0.012875678 0.43356112 4278255360
-0.02764461 0.012771092 0.43399993 4278255360
-0.027860273 0.012666505 0.43443874 4278255360
-0.028075937 0.012561919 0.43487754 4278255360
-0.0282916 0.012457332 0.43531635 4278255360
-0.028507262 0.012352746 0.43575516 4278255360
-0.028722927 0.012248158 0.43619397 4278255360
-0.028938591 0.012143573 0.43663275 4278255360
-0.029154252 0.012038985 0.43707156 4278255360
-0.029369917 0.011934399 0.43751037 4278255360
-0.029585581 0.011829812 0.43794918 4278255360
-0.029801244 0.011725226 0.43838799 4278255360
-0.030016907 0.011620639 0.4388268 4278255360
-0.030232571 0.011516052 0.43926561 4278255360
-0.030448234 0.011411466 0.43970442 4278255360
-0.030663896 0.011306879 0.44014323 4278255360
-0.030879561 0.011202293 0.44058204 4278255360
-0.031095225 0.011097706 0.44102082 4278255360
-0.031310886 0.010993119 0.44145963 4278255360
-0.031526551 0.010888533 0.44189844 4278255360
-0.031742215 0.010783946 0.44233724 4278255360
-0.03195788 0.010679359 0.44277605 4278255360
-0.03217354 0.010574773 0.44321486 4278255360
-0.032389205 0.010470186 0.44365367 4278255360
-0.032604866 0.0103656 0.44409248 4278255360
-0.03282053 0.010261013 0.44453126 4278255360
-0.033036195 0.010156427 0.44497007 4278255360
-0.033251859 0.010051839 0.44540888 4278255360
-0.033467524 0.0099472534 0.44584769 4278255360
-0.033683185 0.0098426659 0.4462865 4278255360
-0.033898849 0.0097380802 0.44672531 4278255360
-0.03411451 0.0096334927 0.44716412 4278255360
-0.034330174 0.0095289061 0.44760293 4278255360
-0.034545839 0.0094243195 0.44804174 4278255360
-0.034761503 0.0093197329 0.44848055 4278255360
-0.034977164 0.0092151463 0.44891933 4278255360
-0.035192829 0.0091105606 0.44935814 4278255360
-0.035408489 0.0090059731 0.44979694 4278255360
-0.035624154 0.0089013865 0.45023575 4278255360
-0.035839818 0.0087967999 0.45067456 4278255360
-0.036055483 0.0086922133 0.45111337 4278255360
-0.036271147 0.0085876267 0.45155218 4278255360
-0.036486808 0.0084830401 0.45199099 4278255360
-0.036702473 0.0083784536 0.45242977 4278255360
-0.036918133 0.008273867 0.45286858 4278255360
-0.037133798 0.0081692804 0.45330739 4278255360
-0.037349463 0.0080646938 0.4537462 4278255360
-0.037565127 0.0079601072 0.45418501 4278255360
-0.037780792 0.0078555206 0.45462382 4278255360
-0.037996452 0.007750934 0.45506263 4278255360
-0.038212113 0.0076463474 0.45550144 4278255360
-0.038427778 0.0075417599 0.45594025 4278255360
-0.038643442 0.0074371733 0.45637906 4278255360
-0.038859107 0.0073325867 0.45681784 4278255360
-0.039074771 0.007228001 0.45725664 4278255360
-0.039290432 0.0071234144 0.45769545 4278255360
-0.039506096 0.0070188278 0.45813426 4278255360
-0.039721761 0.0069142403 0.45857307 4278255360
-0.039937422 0.0068096537 0.45901188 4278255360
-0.040153086 0.0067050671 0.45945069 4278255360
-0.040368751 0.0066004805 0.4598895 4278255360
-0.040584415 0.0064958939 0.46032828 4278255360
-0.040800076 0.0063913073 0.46076709 4278255360
-0.04101574 0.0062867207 0.4612059 4278255360
-0.041231401 0.0061821342 0.46164471 4278255360
-0.041447066 0.0060775476 0.46208352 4278255360
-0.04166273 0.005972961 0.46252233 4278255360
