# .PCD v0.7 - Point Cloud Data file format
VERSION 0.7
FIELDS x y z rgb
SIZE 4 4 4 4
TYPE F F F U
COUNT 1 1 1 1
WIDTH 1053
HEIGHT 1
VIEWPOINT 0 0 0 1 0 0 0
POINTS 1053
DATA ascii
0.10829905 0.036199003 0.36200002 4278531343
0.10977723 0.036299001 0.36300001 4278663697
0.11095626 0.036299001 0.36300001 4278992662
0.11275312 0.036498994 0.36500001 4279124502
0.11393864 0.036498994 0.36500001 4279124502
0.11543956 0.036598995 0.36600003 4279125015
0.040990278 0.03820115 0.37 4279641879
0.042192038 0.03820115 0.37 4279251734
0.043276519 0.038097903 0.36900002 4279516957
0.04447503 0.038097903 0.36900002 4278662931
0.045673542 0.038097903 0.36900002 4278663701
0.046872053 0.038097903 0.36900002 4278861078
0.048070569 0.038097903 0.36900002 4278597906
0.049135566 0.037994657 0.36800003 4278597904
0.050330825 0.037994657 0.36800003 4278334732
0.051386073 0.03789141 0.36700001 4278334736
0.052578092 0.03789141 0.36700001 4278400529
0.05377011 0.03789141 0.36700001 4278400527
0.054812364 0.037788164 0.36600003 4278597906
0.056001134 0.037788164 0.36600003 4278532113
0.057033643 0.037684917 0.36500001 4278334736
0.058219161 0.037684917 0.36500001 4278400529
0.059241932 0.037581671 0.36400002 4278333966
0.060424209 0.037581671 0.36400002 4278197513
0.061606478 0.037581671 0.36400002 4278919441
0.062788747 0.037581671 0.36400002 4278792466
0.063971028 0.037581671 0.36400002 4278595087
0.065153301 0.037581671 0.36400002 4278523400
0.066153325 0.037478425 0.36300001 4279443734
0.06733235 0.037478425 0.36300001 4278522632
0.068511374 0.037478425 0.36300001 4279114769
0.069690399 0.037478425 0.36300001 4278654218
0.070869423 0.037478425 0.36300001 4278851597
0.072048448 0.037478425 0.36300001 4278917390
0.073227473 0.037478425 0.36300001 4278851084
0.074611478 0.037581671 0.36400002 4278324740
0.075793751 0.037581671 0.36400002 4278522119
0.076976024 0.037581671 0.36400002 4278587912
0.078158297 0.037581671 0.36400002 4278522119
0.07934057 0.037581671 0.36400002 4278522632
0.080522843 0.037581671 0.36400002 4278853135
0.081705116 0.037581671 0.36400002 4278726675
0.082887389 0.037581671 0.36400002 4278792468
0.083838694 0.037478425 0.36300001 4278792468
0.085017718 0.037478425 0.36300001 4279252506
0.085959293 0.037375178 0.36200002 4279185943
0.087135069 0.037375178 0.36200002 4279185943
0.088066891 0.037271935 0.36100003 4279053844
0.088992216 0.037168685 0.36000001 4278527246
0.090161495 0.037168685 0.36000001 4278263304
0.091077082 0.037065443 0.35900003 4278195712
0.09224312 0.037065443 0.35900003 4278195973
0.093409151 0.037065443 0.35900003 4278194176
0.094575189 0.037065443 0.35900003 4278194176
0.09574122 0.037065443 0.35900003 4278196226
0.096907258 0.037065443 0.35900003 4278198534
0.098073281 0.037065443 0.35900003 4278462988
0.099515744 0.037168685 0.36000001 4278397708
0.10068502 0.037168685 0.36000001 4278858259
0.10185431 0.037168685 0.36000001 4278530062
0.10302359 0.037168685 0.36000001 4278595855
0.1044823 0.037271935 0.36100003 4278990613
0.10565482 0.037271935 0.36100003 4278661648
0.10712326 0.037375178 0.36200002 4278794002
0.10859821 0.037478425 0.36300001 4278859795
0.10977723 0.037478425 0.36300001 4278728209
0.11126193 0.037581671 0.36400002 4278596623
0.11275312 0.037684917 0.36500001 4278794002
0.1142508 0.037788164 0.36600003 4278662927
0.11543956 0.037788164 0.36600003 4278663697
0.11694699 0.03789141 0.36700001 4278663697
0.11813901 0.03789141 0.36700001 4278927382
0.11965618 0.037994657 0.36800003 4279058968
0.12085145 0.037994657 0.36800003 4279124761
0.12204671 0.037994657 0.36800003 4279256347
0.12324197 0.037994657 0.36800003 4279058457
0.042192038 0.039403316 0.37 4279120918
0.043393798 0.039403316 0.37 4278925590
0.04447503 0.039296821 0.36900002 4278728211
0.045673542 0.039296821 0.36900002 4278860310
0.046872053 0.039296821 0.36900002 4278861078
0.048070569 0.039296821 0.36900002 4278663699
0.049135566 0.03919033 0.36800003 4278663699
0.050330825 0.03919033 0.36800003 4278268941
0.051526092 0.03919033 0.36800003 4278400527
0.052578092 0.039083831 0.36700001 4278400527
0.05377011 0.039083831 0.36700001 4278532113
0.054812364 0.038977336 0.36600003 4278400527
0.056001134 0.038977336 0.36600003 4278532113
0.057033643 0.038870838 0.36500001 4278597906
0.058219161 0.038870838 0.36500001 4278532115
0.059404682 0.038870838 0.36500001 4278399759
0.060424209 0.038764346 0.36400002 4278195201
0.061606478 0.038764346 0.36400002 4279380760
0.062788747 0.038764346 0.36400002 4278792466
0.063971028 0.038764346 0.36400002 4278397197
0.065153301 0.038764346 0.36400002 4278588166
0.066335566 0.038764346 0.36400002 4279247123
0.067517839 0.038764346 0.36400002 4279511578
0.06870012 0.038764346 0.36400002 4278458377
0.069882385 0.038764346 0.36400002 4278260998
0.071064658 0.038764346 0.36400002 4278392584
0.072246931 0.038764346 0.36400002 4278589193
0.073429205 0.038764346 0.36400002 4279379477
0.074611478 0.038764346 0.36400002 4278260996
0.075793751 0.038764346 0.36400002 4278918926
0.076976024 0.038764346 0.36400002 4278589193
0.078158297 0.038764346 0.36400002 4280102430
0.07934057 0.038764346 0.36400002 4278522886
0.080522843 0.038764346 0.36400002 4279577369
0.081705116 0.038764346 0.36400002 4278464787
0.082887389 0.038764346 0.36400002 4278465039
0.084069662 0.038764346 0.36400002 4278200583
0.085017718 0.038657848 0.36300001 4278198274
0.086196743 0.038657848 0.36300001 4279186711
0.087135069 0.038551353 0.36200002 4278792466
0.088310838 0.038551353 0.36200002 4278595087
0.089239419 0.038444858 0.36100003 4278792466
0.090411946 0.038444858 0.36100003 4278726673
0.091584474 0.038444858 0.36100003 4278858259
0.092500061 0.038338363 0.36000001 4278858259
0.09366934 0.038338363 0.36000001 4278858259
0.094838627 0.038338363 0.36000001 4278660880
0.096007906 0.038338363 0.36000001 4278923541
0.097177185 0.038338363 0.36000001 4279185941
0.098346457 0.038338363 0.36000001 4278856976
0.099792175 0.038444858 0.36100003 4278659084
0.10096471 0.038444858 0.36100003 4278395912
0.10213724 0.038444858 0.36100003 4278394376
0.10330977 0.038444858 0.36100003 4278195458
0.10477172 0.038551353 0.36200002 4278194944
0.10594749 0.038551353 0.36200002 4278194432
0.10741919 0.038657848 0.36300001 4278194432
0.10889738 0.038764346 0.36400002 4278194944
0.11007966 0.038764346 0.36400002 4278329351
0.11156759 0.038870838 0.36500001 4278724107
0.11275312 0.038870838 0.36500001 4279186963
0.1142508 0.038977336 0.36600003 4278661646
0.11575497 0.039083831 0.36700001 4278794000
0.11694699 0.039083831 0.36700001 4278794000
0.11846092 0.03919033 0.36800003 4278729490
0.11965618 0.03919033 0.36800003 4278334732
0.12085145 0.03919033 0.36800003 4278598417
0.12204671 0.03919033 0.36800003 4278598417
0.12324197 0.03919033 0.36800003 4278795283
0.12443724 0.03919033 0.36800003 4278991894
0.042192038 0.040605485 0.37 4279252504
0.043393798 0.040605485 0.37 4278859797
0.044595558 0.040605485 0.37 4278860308
0.045673542 0.040495742 0.36900002 4278992664
0.046872053 0.040495742 0.36900002 4278795798
0.048070569 0.040495742 0.36900002 4278466833
0.049269084 0.040495742 0.36900002 4278466833
0.050330825 0.040385999 0.36800003 4278532626
0.051526092 0.040385999 0.36800003 4278466833
0.052578092 0.040276252 0.36700001 4278269454
0.05377011 0.040276252 0.36700001 4278532115
0.054812364 0.040166508 0.36600003 4278400529
0.056001134 0.040166508 0.36600003 4278334736
0.057033643 0.040056761 0.36500001 4278532115
0.058219161 0.040056761 0.36500001 4278400529
0.059404682 0.040056761 0.36500001 4278199557
0.060590208 0.040056761 0.36500001 4278393095
0.061606478 0.039947018 0.36400002 4278854416
0.062788747 0.039947018 0.36400002 4278727187
0.063971028 0.039947018 0.36400002 4278594574
0.065153301 0.039947018 0.36400002 4278522632
0.066335566 0.039947018 0.36400002 4278852365
0.067517839 0.039947018 0.36400002 4278194691
0.06870012 0.039947018 0.36400002 4279313686
0.069882385 0.039947018 0.36400002 4278918926
0.071064658 0.039947018 0.36400002 4278392582
0.072246931 0.039947018 0.36400002 4278326021
0.073429205 0.039947018 0.36400002 4278589963
0.074611478 0.039947018 0.36400002 4278522632
0.075793751 0.039947018 0.36400002 4279116307
0.076976024 0.039947018 0.36400002 4278920209
0.078158297 0.039947018 0.36400002 4278195204
0.07934057 0.039947018 0.36400002 4278523146
0.080522843 0.039947018 0.36400002 4279183894
0.081705116 0.039947018 0.36400002 4278464785
0.082887389 0.039947018 0.36400002 4278199815
0.084069662 0.039947018 0.36400002 4278195457
0.085251927 0.039947018 0.36400002 4278260994
0.086196743 0.039837271 0.36300001 4278195714
0.087375768 0.039837271 0.36300001 4278790418
0.088554792 0.039837271 0.36300001 4278197767
0.089486621 0.039727528 0.36200002 4278790418
0.09066239 0.039727528 0.36200002 4278264841
0.091838174 0.039727528 0.36200002 4278726162
0.09301395 0.039727528 0.36200002 4278197504
0.093929537 0.039617784 0.36100003 4278196224
0.095102072 0.039617784 0.36100003 4278792466
0.096274599 0.039617784 0.36100003 4278924566
0.097447127 0.039617784 0.36100003 4278858773
0.09889283 0.039727528 0.36200002 4278661394
0.10006861 0.039727528 0.36200002 4278727187
0.10124438 0.039727528 0.36200002 4278727187
0.10242017 0.039727528 0.36200002 4278858259
0.10359594 0.039727528 0.36200002 4278792466
0.10506114 0.039837271 0.36300001 4278923539
0.10624015 0.039837271 0.36300001 4278923539
0.10771511 0.039947018 0.36400002 4278923539
0.10889738 0.039947018 0.36400002 4279120920
0.11038207 0.040056761 0.36500001 4279185943
0.11156759 0.040056761 0.36500001 4278922258
0.11306203 0.040166508 0.36600003 4278195200
0.1142508 0.040166508 0.36600003 4279317014
0.11575497 0.040276252 0.36700001 4278661646
0.11694699 0.040276252 0.36700001 4278859025
0.11846092 0.040385999 0.36800003 4278662929
0.11965618 0.040385999 0.36800003 4278465550
0.12085145 0.040385999 0.36800003 4278662929
0.12204671 0.040385999 0.36800003 4278926101
0.12324197 0.040385999 0.36800003 4278860308
0.12443724 0.040385999 0.36800003 4279188760
0.042192038 0.041807652 0.37 4279581469
0.043393798 0.041807652 0.37 4279121945
0.044595558 0.041807652 0.37 4278794517
0.045797318 0.041807652 0.37 4279058457
0.046872053 0.04169466 0.36900002 4278993177
0.048070569 0.04169466 0.36900002 4278532626
0.049269084 0.04169466 0.36900002 4278466833
0.050330825 0.041581668 0.36800003 4278335247
0.051526092 0.041581668 0.36800003 4278335247
0.052578092 0.041468672 0.36700001 4278532626
0.05377011 0.041468672 0.36700001 4278269456
0.054812364 0.041355681 0.36600003 4278335249
0.056001134 0.041355681 0.36600003 4278203406
0.057189904 0.041355681 0.36600003 4278203663
0.058219161 0.041242685 0.36500001 4278597908
0.059404682 0.041242685 0.36500001 4278794004
0.060590208 0.041242685 0.36500001 4278524168
0.061775722 0.041242685 0.36500001 4279512857
0.062788747 0.04112969 0.36400002 4278792466
0.063971028 0.04112969 0.36400002 4278396427
0.065153301 0.04112969 0.36400002 4278391560
0.066335566 0.04112969 0.36400002 4278522632
0.067517839 0.04112969 0.36400002 4278587914
0.06870012 0.04112969 0.36400002 4278522634
0.069882385 0.04112969 0.36400002 4278456839
0.071064658 0.04112969 0.36400002 4278522632
0.072246931 0.04112969 0.36400002 4278391046
0.073429205 0.04112969 0.36400002 4278391046
0.074611478 0.04112969 0.36400002 4278654218
0.075793751 0.04112969 0.36400002 4278194181
0.076976024 0.04112969 0.36400002 4278459660
0.078158297 0.04112969 0.36400002 4278919441
0.07934057 0.04112969 0.36400002 4278195205
0.080522843 0.04112969 0.36400002 4278987797
0.081705116 0.04112969 0.36400002 4278924566
0.082887389 0.04112969 0.36400002 4278196996
0.084069662 0.04112969 0.36400002 4278391300
0.085251927 0.04112969 0.36400002 4278720265
0.0864342 0.04112969 0.36400002 4278523400
0.087616481 0.04112969 0.36400002 4278460171
0.088554792 0.041016694 0.36300001 4279251482
0.089733817 0.041016694 0.36300001 4278857494
0.090912841 0.041016694 0.36300001 4278194688
0.092091866 0.041016694 0.36300001 4278197509
0.09327089 0.041016694 0.36300001 4278856724
0.094189726 0.040903702 0.36200002 4279054103
0.095365502 0.040903702 0.36200002 4278194944
0.096541286 0.040903702 0.36200002 4278396425
0.097717062 0.040903702 0.36200002 4278660880
0.09889283 0.040903702 0.36200002 4278199301
0.10006861 0.040903702 0.36200002 4278726927
0.10152406 0.041016694 0.36300001 4278464269
0.10270309 0.041016694 0.36300001 4278595601
0.10388211 0.041016694 0.36300001 4278529294
0.10506114 0.041016694 0.36300001 4278858259
0.10653283 0.04112969 0.36400002 4278858773
0.10771511 0.04112969 0.36400002 4278661394
0.10919655 0.041242685 0.36500001 4278858773
0.11038207 0.041242685 0.36500001 4278728211
0.11187326 0.041355681 0.36600003 4278661648
0.11306203 0.041355681 0.36600003 4278195715
0.11456296 0.041468672 0.36700001 4279381785
0.11575497 0.041468672 0.36700001 4278859025
0.11726565 0.041581668 0.36800003 4278859025
0.11846092 0.041581668 0.36800003 4278596623
0.11965618 0.041581668 0.36800003 4278794002
0.12085145 0.041581668 0.36800003 4278531343
0.12204671 0.041581668 0.36800003 4278991894
0.12324197 0.041581668 0.36800003 4278531343
0.12443724 0.041581668 0.36800003 4278859795
0.042192038 0.043009818 0.37 4279447580
0.043393798 0.043009818 0.37 4279450398
0.044595558 0.043009818 0.37 4278860310
0.045797318 0.043009818 0.37 4279058972
0.046872053 0.042893577 0.36900002 4278927386
0.048070569 0.042893577 0.36900002 4278532628
0.049269084 0.042893577 0.36900002 4278598421
0.050330825 0.042777337 0.36800003 4278466835
0.051526092 0.042777337 0.36800003 4278466835
0.052721359 0.042777337 0.36800003 4278532628
0.05377011 0.042661093 0.36700001 4278532628
0.054812364 0.042544849 0.36600003 4278466835
0.056001134 0.042544849 0.36600003 4278532115
0.057189904 0.042544849 0.36600003 4278532115
0.058219161 0.042428605 0.36500001 4278662931
0.059404682 0.042428605 0.36500001 4278200074
0.060590208 0.042428605 0.36500001 4278329867
0.061775722 0.042428605 0.36500001 4279053590
0.062961243 0.042428605 0.36500001 4278858773
0.064146765 0.042428605 0.36500001 4278661394
0.065332286 0.042428605 0.36500001 4278458890
0.066335566 0.042312365 0.36400002 4278524170
0.067517839 0.042312365 0.36400002 4278523146
0.06870012 0.042312365 0.36400002 4278523148
0.069882385 0.042312365 0.36400002 4278654220
0.071064658 0.042312365 0.36400002 4278654218
0.072246931 0.042312365 0.36400002 4278654218
0.073429205 0.042312365 0.36400002 4278587914
0.074611478 0.042312365 0.36400002 4278587912
0.075793751 0.042312365 0.36400002 4278522119
0.076976024 0.042312365 0.36400002 4278522119
0.078158297 0.042312365 0.36400002 4278522119
0.079558536 0.042428605 0.36500001 4278195204
0.080744058 0.042428605 0.36500001 4278922771
0.081929572 0.042428605 0.36500001 4278726673
0.083115093 0.042428605 0.36500001 4278330121
0.084069662 0.042312365 0.36400002 4278654472
0.085251927 0.042312365 0.36400002 4278654218
0.0864342 0.042312365 0.36400002 4278788623
0.087616481 0.042312365 0.36400002 4278856211
0.088798746 0.042312365 0.36400002 4278197507
0.089981019 0.042312365 0.36400002 4278198534
0.090912841 0.042196121 0.36300001 4278593552
0.092091866 0.042196121 0.36300001 4278198537
0.09327089 0.042196121 0.36300001 4278922517
0.094449915 0.042196121 0.36300001 4278660115
0.09562894 0.042196121 0.36300001 4278198791
0.096807972 0.042196121 0.36300001 4279054355
0.097986996 0.042196121 0.36300001 4278197767
0.099166013 0.042196121 0.36300001 4278526476
0.10034504 0.042196121 0.36300001 4278329097
0.10152406 0.042196121 0.36300001 4278592269
0.10298602 0.042312365 0.36400002 4279251223
0.1041683 0.042312365 0.36400002 4278922258
0.10535057 0.042312365 0.36400002 4278922004
0.10653283 0.042312365 0.36400002 4278197767
0.10801102 0.042428605 0.36500001 4278198535
0.10919655 0.042428605 0.36500001 4278331402
0.11068449 0.042544849 0.36600003 4278661648
0.11187326 0.042544849 0.36600003 4278792720
0.11306203 0.042544849 0.36600003 4278195969
0.11456296 0.042661093 0.36700001 4278988051
0.11575497 0.042661093 0.36700001 4278727441
0.11726565 0.042777337 0.36800003 4278794004
0.11846092 0.042777337 0.36800003 4278728211
0.11965618 0.042777337 0.36800003 4278794004
0.12117984 0.042893577 0.36900002 4278794517
0.12204671 0.042777337 0.36800003 4278728722
0.12324197 0.042777337 0.36800003 4278596623
0.12443724 0.042777337 0.36800003 4278990611
0.045673542 0.044092495 0.36900002 4279189021
0.046872053 0.044092495 0.36900002 4279124252
0.048070569 0.044092495 0.36900002 4278795287
0.049269084 0.044092495 0.36900002 4278532115
0.050467592 0.044092495 0.36900002 4278729494
0.051526092 0.043973006 0.36800003 4278795287
0.052721359 0.043973006 0.36800003 4278729494
0.05377011 0.04385351 0.36700001 4278729492
0.054962121 0.04385351 0.36700001 4278861078
0.056001134 0.043734021 0.36600003 4278795285
0.057189904 0.043734021 0.36600003 4278597906
0.058219161 0.043614529 0.36500001 4278465552
0.059404682 0.043614529 0.36500001 4278595603
0.060590208 0.043614529 0.36500001 4278594322
0.061775722 0.043614529 0.36500001 4279054873
0.062961243 0.043614529 0.36500001 4278924566
0.064146765 0.043614529 0.36500001 4278925336
0.065332286 0.043614529 0.36500001 4278859543
0.066517808 0.043614529 0.36500001 4278924566
0.067703329 0.043614529 0.36500001 4279186711
0.06870012 0.043495037 0.36400002 4279185943
0.069882385 0.043495037 0.36400002 4279053590
0.071064658 0.043495037 0.36400002 4279579934
0.072246931 0.043495037 0.36400002 4279973408
0.073429205 0.043495037 0.36400002 4279644443
0.074611478 0.043495037 0.36400002 4278985232
0.075793751 0.043495037 0.36400002 4278787853
0.076976024 0.043495037 0.36400002 4278391046
0.078158297 0.043495037 0.36400002 4278785804
0.079558536 0.043614529 0.36500001 4278262281
0.080744058 0.043614529 0.36500001 4278198024
0.081929572 0.043614529 0.36500001 4278198024
0.083115093 0.043614529 0.36500001 4278789648
0.084300615 0.043614529 0.36500001 4279314197
0.085486136 0.043614529 0.36500001 4279379990
0.0864342 0.043495037 0.36400002 4279052822
0.087616481 0.043495037 0.36400002 4279251482
0.088798746 0.043495037 0.36400002 4278923539
0.089981019 0.043495037 0.36400002 4278726160
0.091163293 0.043495037 0.36400002 4278858259
0.092345566 0.043495037 0.36400002 4278595601
0.093527839 0.043495037 0.36400002 4278660367
0.094710112 0.043495037 0.36400002 4279055125
0.095892385 0.043495037 0.36400002 4278923539
0.097074665 0.043495037 0.36400002 4278923539
0.098256938 0.043495037 0.36400002 4278922769
0.099439196 0.043495037 0.36400002 4278922258
0.10062148 0.043495037 0.36400002 4278922006
0.10180375 0.043495037 0.36400002 4278987797
0.10298602 0.043495037 0.36400002 4278593293
0.1041683 0.043495037 0.36400002 4278460937
0.10563999 0.043614529 0.36500001 4278789902
0.1068255 0.043614529 0.36500001 4278197254
0.10801102 0.043614529 0.36500001 4278526730
0.10949572 0.043734021 0.36600003 4278987279
0.11068449 0.043734021 0.36600003 4278990613
0.11187326 0.043734021 0.36600003 4278858773
0.11337094 0.04385351 0.36700001 4278194688
0.11456296 0.04385351 0.36700001 4279120918
0.11607038 0.043973006 0.36800003 4278727187
0.11726565 0.043973006 0.36800003 4278925590
0.11846092 0.043973006 0.36800003 4278531345
0.11998133 0.044092495 0.36900002 4278531345
0.12117984 0.044092495 0.36900002 4278531345
0.12237836 0.044092495 0.36900002 4278794515
0.12357686 0.044092495 0.36900002 4278728209
0.12443724 0.043973006 0.36800003 4278991383
0.043276519 0.045291413 0.36900002 4284709741
0.04447503 0.045291413 0.36900002 4285106296
0.045673542 0.045291413 0.36900002 4281685827
0.046872053 0.045291413 0.36900002 4278923287
0.048070569 0.045291413 0.36900002 4279121947
0.049269084 0.045291413 0.36900002 4279517473
0.050467592 0.045291413 0.36900002 4279385887
0.051526092 0.045168675 0.36800003 4279254555
0.052721359 0.045168675 0.36800003 4279057176
0.05377011 0.045045931 0.36700001 4279188762
0.054962121 0.045045931 0.36700001 4279189275
0.056001134 0.044923194 0.36600003 4279189275
0.057189904 0.044923194 0.36600003 4278991896
0.05837867 0.044923194 0.36600003 4279123482
0.059404682 0.044800449 0.36500001 4278991896
0.060590208 0.044800449 0.36500001 4279056922
0.061775722 0.044800449 0.36500001 4278991129
0.062961243 0.044800449 0.36500001 4279188508
0.064146765 0.044800449 0.36500001 4279188508
0.065332286 0.044800449 0.36500001 4278991129
0.066517808 0.044800449 0.36500001 4278991129
0.067703329 0.044800449 0.36500001 4278859543
0.068888851 0.044800449 0.36500001 4278991129
0.070074365 0.044800449 0.36500001 4278925336
0.071064658 0.044677708 0.36400002 4278990359
0.072246931 0.044677708 0.36400002 4278924566
0.073429205 0.044677708 0.36400002 4278990359
0.074611478 0.044677708 0.36400002 4279055638
0.075793751 0.044677708 0.36400002 4279055638
0.076976024 0.044677708 0.36400002 4279120918
0.078158297 0.044677708 0.36400002 4279120918
0.079558536 0.044800449 0.36500001 4279186711
0.080744058 0.044800449 0.36500001 4279252504
0.081929572 0.044800449 0.36500001 4279252506
0.083115093 0.044800449 0.36500001 4279251736
0.084300615 0.044800449 0.36500001 4279447578
0.085486136 0.044800449 0.36500001 4278921234
0.086671658 0.044800449 0.36500001 4278460685
0.087616481 0.044677708 0.36400002 4278197254
0.088798746 0.044677708 0.36400002 4278194944
0.089981019 0.044677708 0.36400002 4278193664
0.091163293 0.044677708 0.36400002 4278195712
0.092345566 0.044677708 0.36400002 4278195456
0.093527839 0.044677708 0.36400002 4278197251
0.094710112 0.044677708 0.36400002 4278329351
0.095892385 0.044677708 0.36400002 4278790672
0.097074665 0.044677708 0.36400002 4279054357
0.098256938 0.044677708 0.36400002 4279185943
0.099439196 0.044677708 0.36400002 4278923541
0.10062148 0.044677708 0.36400002 4278791955
0.10180375 0.044677708 0.36400002 4279120920
0.10298602 0.044677708 0.36400002 4278857748
0.10445447 0.044800449 0.36500001 4278923541
0.10563999 0.044800449 0.36500001 4278923539
0.1068255 0.044800449 0.36500001 4279055125
0.10830695 0.044923194 0.36600003 4278988049
0.10949572 0.044923194 0.36600003 4278922256
0.11068449 0.044923194 0.36600003 4278858513
0.11217892 0.045045931 0.36700001 4278791953
0.11337094 0.045045931 0.36700001 4279119383
0.11487512 0.045168675 0.36800003 4279121431
0.11607038 0.045168675 0.36800003 4278990613
0.11726565 0.045168675 0.36800003 4278596625
0.11878281 0.045291413 0.36900002 4278794004
0.11998133 0.045291413 0.36900002 4278596625
0.12117984 0.045291413 0.36900002 4278859795
0.12237836 0.045291413 0.36900002 4278859795
0.12357686 0.045291413 0.36900002 4278727439
0.12477537 0.045291413 0.36900002 4279450650
0.04447503 0.046490334 0.36900002 4284841840
0.045673542 0.046490334 0.36900002 4284842354
0.046872053 0.046490334 0.36900002 4284711022
0.048070569 0.046490334 0.36900002 4285039987
0.049269084 0.046490334 0.36900002 4284185194
0.050467592 0.046490334 0.36900002 4283067480
0.051526092 0.046364348 0.36800003 4280435497
0.052721359 0.046364348 0.36800003 4279185941
0.05377011 0.046238355 0.36700001 4278594835
0.054962121 0.046238355 0.36700001 4278594835
0.056001134 0.046112366 0.36600003 4279056154
0.057189904 0.046112366 0.36600003 4279056154
0.05837867 0.046112366 0.36600003 4279319326
0.059404682 0.045986373 0.36500001 4279187740
0.060590208 0.045986373 0.36500001 4279319324
0.061775722 0.045986373 0.36500001 4279187738
0.062961243 0.045986373 0.36500001 4279319324
0.064146765 0.045986373 0.36500001 4279319324
0.065332286 0.045986373 0.36500001 4279056922
0.066517808 0.045986373 0.36500001 4279056922
0.067703329 0.045986373 0.36500001 4279056922
0.068888851 0.045986373 0.36500001 4279188762
0.070074365 0.045986373 0.36500001 4278925590
0.071259893 0.045986373 0.36500001 4279188762
0.072445415 0.045986373 0.36500001 4279123482
0.073429205 0.045860387 0.36400002 4278926103
0.074611478 0.045860387 0.36400002 4278991896
0.075793751 0.045860387 0.36400002 4278926101
0.076976024 0.045860387 0.36400002 4278925590
0.078158297 0.045860387 0.36400002 4278991383
0.07934057 0.045860387 0.36400002 4279057176
0.080744058 0.045986373 0.36500001 4279057176
0.081929572 0.045986373 0.36500001 4278859797
0.083115093 0.045986373 0.36500001 4278991383
0.084300615 0.045986373 0.36500001 4279056406
0.085486136 0.045986373 0.36500001 4279121685
0.086671658 0.045986373 0.36500001 4279055892
0.087857179 0.045986373 0.36500001 4279253271
0.089042693 0.045986373 0.36500001 4279121431
0.089981019 0.045860387 0.36400002 4279120918
0.091163293 0.045860387 0.36400002 4278923539
0.092345566 0.045860387 0.36400002 4279515676
0.093527839 0.045860387 0.36400002 4279185941
0.094710112 0.045860387 0.36400002 4279580186
0.095892385 0.045860387 0.36400002 4279579416
0.097074665 0.045860387 0.36400002 4279908129
0.098256938 0.045860387 0.36400002 4278262790
0.099439196 0.045860387 0.36400002 4278194176
0.10062148 0.045860387 0.36400002 4278194944
0.10180375 0.045860387 0.36400002 4278195714
0.10326895 0.045986373 0.36500001 4278193408
0.10445447 0.045986373 0.36500001 4278194176
0.10563999 0.045986373 0.36500001 4278197508
0.1068255 0.045986373 0.36500001 4278527500
0.10830695 0.046112366 0.36600003 4278790672
0.10949572 0.046112366 0.36600003 4279382807
0.11068449 0.046112366 0.36600003 4279251734
0.11217892 0.046238355 0.36700001 4278197764
0.11337094 0.046238355 0.36700001 4278988564
0.11487512 0.046364348 0.36800003 4278990099
0.11607038 0.046364348 0.36800003 4278924818
0.1175843 0.046490334 0.36900002 4278728209
0.11878281 0.046490334 0.36900002 4278859795
0.11998133 0.046490334 0.36900002 4278794002
0.12117984 0.046490334 0.36900002 4278925590
0.12237836 0.046490334 0.36900002 4278596625
0.12357686 0.046490334 0.36900002 4278990613
0.12477537 0.046490334 0.36900002 4278725390
0.04447503 0.047689252 0.36900002 4285236085
0.045673542 0.047689252 0.36900002 4284972913
0.046872053 0.047689252 0.36900002 4285105012
0.048070569 0.047689252 0.36900002 4284907633
0.049269084 0.047689252 0.36900002 4284776561
0.050467592 0.047689252 0.36900002 4284513389
0.051526092 0.047560014 0.36800003 4284249703
0.052721359 0.047560014 0.36800003 4284315496
0.05377011 0.047430772 0.36700001 4283854686
0.054962121 0.047430772 0.36700001 4283788893
0.056001134 0.047301535 0.36600003 4282604619
0.057189904 0.047301535 0.36600003 4284053092
0.05837867 0.047301535 0.36600003 4284119401
0.05956744 0.047301535 0.36600003 4283659104
0.060590208 0.047172293 0.36500001 4282868302
0.061775722 0.047172293 0.36500001 4281750335
0.062961243 0.047172293 0.36500001 4279711522
0.064146765 0.047172293 0.36500001 4279185693
0.065332286 0.047172293 0.36500001 4279054357
0.066517808 0.047172293 0.36500001 4279185941
0.067703329 0.047172293 0.36500001 4279186711
0.068888851 0.047172293 0.36500001 4279516189
0.070074365 0.047172293 0.36500001 4279121945
0.071259893 0.047172293 0.36500001 4278924566
0.072445415 0.047172293 0.36500001 4279187738
0.073429205 0.047043055 0.36400002 4279319578
0.074611478 0.047043055 0.36400002 4279057176
0.075793751 0.047043055 0.36400002 4279188762
0.076976024 0.047043055 0.36400002 4279057176
0.078158297 0.047043055 0.36400002 4279188762
0.07934057 0.047043055 0.36400002 4278991896
0.080522843 0.047043055 0.36400002 4279123482
0.081929572 0.047172293 0.36500001 4278991896
0.083115093 0.047172293 0.36500001 4278991896
0.084300615 0.047172293 0.36500001 4278991896
0.085486136 0.047172293 0.36500001 4278991383
0.086671658 0.047172293 0.36500001 4278925590
0.087857179 0.047172293 0.36500001 4278991383
0.089042693 0.047172293 0.36500001 4278991383
0.090228222 0.047172293 0.36500001 4278991383
0.091163293 0.047043055 0.36400002 4278925590
0.092345566 0.047043055 0.36400002 4279057176
0.093527839 0.047043055 0.36400002 4279057176
0.094710112 0.047043055 0.36400002 4279056406
0.095892385 0.047043055 0.36400002 4279319576
0.097074665 0.047043055 0.36400002 4279319062
0.098256938 0.047043055 0.36400002 4279253271
0.099439196 0.047043055 0.36400002 4279384090
0.1008979 0.047172293 0.36500001 4279383320
0.10208342 0.047172293 0.36500001 4279449113
0.10326895 0.047172293 0.36500001 4279646492
0.10445447 0.047172293 0.36500001 4279382807
0.10563999 0.047172293 0.36500001 4279580186
0.10711818 0.047301535 0.36600003 4279711774
0.10830695 0.047301535 0.36600003 4279382039
0.10949572 0.047301535 0.36600003 4278921488
0.1109869 0.047430772 0.36700001 4278263044
0.11217892 0.047430772 0.36700001 4279315732
0.11367986 0.047560014 0.36800003 4279121172
0.11487512 0.047560014 0.36800003 4279055890
0.11607038 0.047560014 0.36800003 4278859025
0.1175843 0.047689252 0.36900002 4278924818
0.11878281 0.047689252 0.36900002 4278794002
0.12030648 0.047818489 0.37 4278859795
0.12150824 0.047818489 0.37 4279188760
0.12271 0.047818489 0.37 4278991381
0.12357686 0.047689252 0.36900002 4279251734
0.12511352 0.047818489 0.37 4285039210
0.066517808 0.048358217 0.36500001 4285171059
0.067703329 0.048358217 0.36500001 4285631610
0.068888851 0.048358217 0.36500001 4285565817
0.070074365 0.048358217 0.36500001 4284580206
0.071259893 0.048358217 0.36500001 4283001174
0.072445415 0.048358217 0.36500001 4281751107
0.073630929 0.048358217 0.36500001 4280172073
0.074611478 0.048225731 0.36400002 4279513371
0.075793751 0.048225731 0.36400002 4279053074
0.076976024 0.048225731 0.36400002 4279251734
0.078158297 0.048225731 0.36400002 4279449367
0.07934057 0.048225731 0.36400002 4279318551
0.080522843 0.048225731 0.36400002 4279187478
0.081929572 0.048358217 0.36500001 4279319064
0.083115093 0.048358217 0.36500001 4279187992
0.084300615 0.048358217 0.36500001 4279187992
0.085486136 0.048358217 0.36500001 4278990613
0.086671658 0.048358217 0.36500001 4279057176
0.087857179 0.048358217 0.36500001 4279188760
0.089042693 0.048358217 0.36500001 4279057174
0.090228222 0.048358217 0.36500001 4279188760
0.091163293 0.048225731 0.36400002 4279188760
0.092345566 0.048225731 0.36400002 4279188762
0.093527839 0.048225731 0.36400002 4279254555
0.094710112 0.048225731 0.36400002 4279057176
0.095892385 0.048225731 0.36400002 4279057176
0.097341344 0.048358217 0.36500001 4279188760
0.098526873 0.048358217 0.36500001 4279188760
0.099712379 0.048358217 0.36500001 4279254553
0.1008979 0.048358217 0.36500001 4279187990
0.10208342 0.048358217 0.36500001 4279516441
0.10326895 0.048358217 0.36500001 4279450648
0.10445447 0.048358217 0.36500001 4279319062
0.10563999 0.048358217 0.36500001 4279450648
0.10711818 0.048490711 0.36600003 4279319062
0.10830695 0.048490711 0.36600003 4279319064
0.10949572 0.048490711 0.36600003 4279515930
0.1109869 0.048623197 0.36700001 4279647516
0.11217892 0.048623197 0.36700001 4279319064
0.11367986 0.048755687 0.36800003 4279319062
0.11487512 0.048755687 0.36800003 4279319062
0.11638579 0.048888173 0.36900002 4279253269
0.1175843 0.048888173 0.36900002 4279187990
0.11878281 0.048888173 0.36900002 4278991381
0.12030648 0.049020659 0.37 4278925588
0.12150824 0.049020659 0.37 4279254553
0.12271 0.049020659 0.37 4279187990
0.12391175 0.049020659 0.37 4281551159
0.12511352 0.049020659 0.37 4285827191
0.071259893 0.049544137 0.36500001 4285038706
0.072445415 0.049544137 0.36500001 4285236085
0.078158297 0.049408402 0.36400002 4285631097
0.07934057 0.049408402 0.36400002 4285762681
0.080522843 0.049408402 0.36400002 4285171057
0.081929572 0.049544137 0.36500001 4283856994
0.083115093 0.049544137 0.36500001 4282146376
0.084300615 0.049544137 0.36500001 4281355577
0.085486136 0.049544137 0.36500001 4279710750
0.086671658 0.049544137 0.36500001 4279119383
0.087857179 0.049544137 0.36500001 4279119383
0.089042693 0.049544137 0.36500001 4279119637
0.090228222 0.049544137 0.36500001 4278922258
0.091413736 0.049544137 0.36500001 4279185943
0.092345566 0.049408402 0.36400002 4278856978
0.093784779 0.049544137 0.36500001 4279055127
0.094970301 0.049544137 0.36500001 4279186713
0.096155822 0.049544137 0.36500001 4279515678
0.097341344 0.049544137 0.36500001 4279318297
0.098526873 0.049544137 0.36500001 4279646746
0.099712379 0.049544137 0.36500001 4279712539
0.1008979 0.049544137 0.36500001 4279646746
0.10208342 0.049544137 0.36500001 4279646746
0.10326895 0.049544137 0.36500001 4279778332
0.10445447 0.049544137 0.36500001 4279647516
0.10563999 0.049544137 0.36500001 4279450650
0.10711818 0.049679875 0.36600003 4279319064
0.10830695 0.049679875 0.36600003 4279582236
0.10949572 0.049679875 0.36600003 4279582236
0.1109869 0.049815614 0.36700001 4279516443
0.11217892 0.049815614 0.36700001 4279582236
0.11367986 0.049951352 0.36800003 4279516443
0.11487512 0.049951352 0.36800003 4279582236
0.11638579 0.050087087 0.36900002 4279450650
0.1175843 0.050087087 0.36900002 4279450650
0.11910471 0.050222825 0.37 4279121685
0.12030648 0.050222825 0.37 4279319064
0.12150824 0.050222825 0.37 4279382807
0.12271 0.050222825 0.37 4282868041
0.12391175 0.050222825 0.37 4286221179
0.12511352 0.050222825 0.37 4286089595
0.084300615 0.050730061 0.36500001 4284907887
0.085486136 0.050730061 0.36500001 4284907887
0.086671658 0.050730061 0.36500001 4285105266
0.087857179 0.050730061 0.36500001 4284907887
0.089042693 0.050730061 0.36500001 4285434231
0.089981019 0.050591078 0.36400002 4285368438
0.091413736 0.050730061 0.36500001 4285433716
0.092599258 0.050730061 0.36500001 4285827702
0.093784779 0.050730061 0.36500001 4285828472
0.094970301 0.050730061 0.36500001 4285433714
0.096155822 0.050730061 0.36500001 4285828474
0.097341344 0.050730061 0.36500001 4285565815
0.098526873 0.050730061 0.36500001 4285763194
0.099712379 0.050730061 0.36500001 4285368436
0.1008979 0.050730061 0.36500001 4285171057
0.10208342 0.050730061 0.36500001 4285171057
0.10326895 0.050730061 0.36500001 4284513127
0.10445447 0.050730061 0.36500001 4283920990
0.10563999 0.050730061 0.36500001 4283460437
0.10711818 0.050869051 0.36600003 4283065679
0.10830695 0.050869051 0.36600003 4282802759
0.10949572 0.050869051 0.36600003 4282144829
0.1109869 0.051008034 0.36700001 4281355829
0.11217892 0.051008034 0.36700001 4281290036
0.11367986 0.051147025 0.36800003 4281355829
0.11487512 0.051147025 0.36800003 4280895278
0.11638579 0.051286008 0.36900002 4280763692
0.1175843 0.051286008 0.36900002 4280895278
0.11878281 0.051286008 0.36900002 4281881144
0.12030648 0.051424995 0.37 4284577376
0.10208342 0.051915988 0.36500001 4285498228
0.10326895 0.051915988 0.36500001 4285564021
0.10445447 0.051915988 0.36500001 4285564021
0.10563999 0.051915988 0.36500001 4285630325
0.10711818 0.052058224 0.36600003 4285631095
0.10830695 0.052058224 0.36600003 4285499509
0.10949572 0.052058224 0.36600003 4285762681
0.1109869 0.052200459 0.36700001 4285696888
0.11217892 0.052200459 0.36700001 4285630327
0.11367986 0.052342698 0.36800003 4285761913
0.11487512 0.052342698 0.36800003 4285893499
0.11607038 0.052342698 0.36800003 4286025085
0.1175843 0.05248493 0.36900002 4285827706
0.080668047 0.040979691 0.36523548 4294967295
0.080668047 0.040979691 0.36523548 4294901760
0.08072082 0.040486608 0.36517158 4294901760
0.080773592 0.039993521 0.36510769 4294901760
0.080826372 0.039500438 0.36504379 4294901760
0.080879144 0.039007355 0.36497989 4294901760
0.080931917 0.038514268 0.364916 4294901760
0.080984689 0.038021185 0.3648521 4294901760
0.081037462 0.037528101 0.3647882 4294901760
0.081090234 0.037035018 0.36472431 4294901760
0.081143014 0.036541931 0.36466041 4294901760
0.081195787 0.036048848 0.36459652 4294901760
0.081248559 0.035555765 0.36453262 4294901760
0.081301332 0.035062678 0.36446872 4294901760
0.081354104 0.034569595 0.36440483 4294901760
0.081406884 0.034076512 0.36434093 4294901760
0.081459656 0.033583425 0.36427703 4294901760
0.081512429 0.033090342 0.36421314 4294901760
0.081565201 0.032597259 0.36414924 4294901760
0.081617974 0.032104172 0.36408535 4294901760
0.081670746 0.031611089 0.36402145 4294901760
0.081723526 0.031118004 0.36395755 4294901760
0.081776299 0.030624919 0.36389366 4294901760
0.081829071 0.030131835 0.36382976 4294901760
0.081881844 0.02963875 0.36376587 4294901760
0.081934616 0.029145667 0.36370197 4294901760
0.081987396 0.028652582 0.36363807 4294901760
0.082040168 0.028159499 0.36357418 4294901760
0.082092941 0.027666412 0.36351028 4294901760
0.082145713 0.027173329 0.36344638 4294901760
0.082198486 0.026680246 0.36338249 4294901760
0.082251258 0.026187159 0.36331859 4294901760
0.082304038 0.025694076 0.3632547 4294901760
0.082356811 0.025200993 0.3631908 4294901760
0.082409583 0.024707908 0.3631269 4294901760
0.082462355 0.024214823 0.36306301 4294901760
0.082515128 0.02372174 0.36299911 4294901760
0.0825679 0.023228655 0.36293522 4294901760
0.08262068 0.02273557 0.36287132 4294901760
0.082673453 0.022242486 0.36280742 4294901760
0.082726225 0.021749401 0.36274353 4294901760
0.082778998 0.021256316 0.36267963 4294901760
0.08283177 0.020763233 0.36261573 4294901760
0.08288455 0.020270148 0.36255184 4294901760
0.082937323 0.019777063 0.36248794 4294901760
0.082990095 0.01928398 0.36242405 4294901760
0.083042867 0.018790897 0.36236015 4294901760
0.08309564 0.01829781 0.36229625 4294901760
0.083148412 0.017804727 0.36223236 4294901760
0.083201192 0.017311644 0.36216846 4294901760
0.083253965 0.016818557 0.36210456 4294901760
0.083306737 0.016325474 0.36204064 4294901760
0.08335951 0.015832391 0.36197674 4294901760
0.083412282 0.015339306 0.36191285 4294901760
0.083465062 0.014846222 0.36184895 4294901760
0.083517835 0.014353136 0.36178505 4294901760
0.083570607 0.013860051 0.36172116 4294901760
0.083623379 0.013366967 0.36165726 4294901760
0.083676152 0.012873884 0.36159337 4294901760
0.083728924 0.012380799 0.36152947 4294901760
0.083781704 0.011887716 0.36146557 4294901760
0.083834477 0.011394629 0.36140168 4294901760
0.083887249 0.010901546 0.36133778 4294901760
0.083940022 0.010408461 0.36127388 4294901760
0.083992794 0.0099153779 0.36120999 4294901760
0.084045574 0.0094222948 0.36114609 4294901760
0.084098347 0.0089292116 0.3610822 4294901760
0.084151119 0.0084361248 0.3610183 4294901760
0.084203891 0.0079430379 0.3609544 4294901760
0.084256664 0.0074499547 0.36089051 4294901760
0.084309436 0.0069568716 0.36082661 4294901760
0.084362216 0.0064637884 0.36076272 4294901760
0.084414989 0.0059707053 0.36069882 4294901760
0.084467761 0.0054776184 0.36063492 4294901760
0.084520534 0.0049845316 0.36057103 4294901760
0.084573306 0.0044914484 0.36050713 4294901760
0.084626079 0.0039983653 0.36044323 4294901760
0.084678859 0.0035052821 0.36037934 4294901760
0.084731631 0.003012199 0.36031544 4294901760
0.084784403 0.0025191121 0.36025155 4294901760
0.084837176 0.0020260252 0.36018765 4294901760
0.084889948 0.0015329421 0.36012375 4294901760
0.084942728 0.0010398589 0.36005986 4294901760
0.084995501 0.00054677576 0.35999596 4294901760
0.085048273 5.3692609e-05 0.35993207 4294901760
0.085101046 -0.00043939427 0.35986817 4294901760
0.085153818 -0.00093248114 0.35980427 4294901760
0.085206598 -0.0014255643 0.35974038 4294901760
0.085259371 -0.0019186474 0.35967648 4294901760
0.085312143 -0.0024117306 0.35961258 4294901760
0.085364915 -0.0029048137 0.35954869 4294901760
0.085417688 -0.0033978969 0.35948479 4294901760
0.08547046 -0.0038909838 0.3594209 4294901760
0.08552324 -0.0043840706 0.359357 4294901760
0.085576013 -0.0048771538 0.3592931 4294901760
0.085628785 -0.0053702369 0.35922921 4294901760
0.085681558 -0.0058633201 0.35916531 4294901760
0.08573433 -0.0063564032 0.35910141 4294901760
0.085787103 -0.0068494901 0.35903752 4294901760
0.085839882 -0.007342577 0.35897362 4294901760
0.085892655 -0.0078356601 0.35890973 4294901760
0.085945427 -0.0083287433 0.35884583 4294901760
0.080668047 0.040979691 0.36523548 4278255360
0.081164725 0.041034937 0.36521938 4278255360
0.081661403 0.041090183 0.36520326 4278255360
0.082158081 0.041145425 0.36518717 4278255360
0.082654759 0.041200671 0.36517105 4278255360
0.083151437 0.041255917 0.36515495 4278255360
0.083648115 0.041311163 0.36513886 4278255360
0.084144793 0.04136641 0.36512274 4278255360
0.084641472 0.041421656 0.36510664 4278255360
0.085138142 0.041476898 0.36509052 4278255360
0.08563482 0.041532144 0.36507443 4278255360
0.086131498 0.04158739 0.3650583 4278255360
0.086628176 0.041642636 0.36504221 4278255360
0.087124854 0.041697882 0.36502612 4278255360
0.087621532 0.041753128 0.36500999 4278255360
0.08811821 0.041808371 0.3649939 4278255360
0.088614888 0.041863617 0.36497778 4278255360
0.089111567 0.041918863 0.36496168 4278255360
0.089608245 0.041974109 0.36494559 4278255360
0.090104923 0.042029355 0.36492947 4278255360
0.090601601 0.042084601 0.36491337 4278255360
0.091098279 0.042139843 0.36489725 4278255360
0.091594957 0.042195089 0.36488116 4278255360
0.092091635 0.042250335 0.36486506 4278255360
0.092588305 0.042305581 0.36484894 4278255360
0.093084991 0.042360827 0.36483285 4278255360
0.093581662 0.042416073 0.36481673 4278255360
0.094078347 0.042471316 0.36480063 4278255360
0.094575018 0.042526562 0.36478454 4278255360
0.095071696 0.042581808 0.36476842 4278255360
0.095568374 0.042637054 0.36475232 4278255360
0.096065052 0.0426923 0.3647362 4278255360
0.09656173 0.042747546 0.36472011 4278255360
0.097058408 0.042802788 0.36470398 4278255360
0.097555086 0.042858034 0.36468789 4278255360
0.098051764 0.04291328 0.3646718 4278255360
0.098548442 0.042968526 0.36465567 4278255360
0.09904512 0.043023773 0.36463958 4278255360
0.099541798 0.043079019 0.36462346 4278255360
0.10003847 0.043134261 0.36460736 4278255360
0.10053515 0.043189507 0.36459127 4278255360
0.10103182 0.043244753 0.36457515 4278255360
0.10152851 0.043299999 0.36455905 4278255360
0.10202518 0.043355245 0.36454293 4278255360
0.10252186 0.043410487 0.36452684 4278255360
0.10301854 0.043465734 0.36451074 4278255360
0.10351522 0.04352098 0.36449462 4278255360
0.10401189 0.043576226 0.36447853 4278255360
0.10450857 0.043631472 0.36446241 4278255360
0.10500525 0.043686718 0.36444631 4278255360
0.10550193 0.043741964 0.36443019 4278255360
0.10599861 0.043797206 0.3644141 4278255360
0.10649528 0.043852452 0.364398 4278255360
0.10699196 0.043907698 0.36438188 4278255360
0.10748864 0.043962944 0.36436579 4278255360
0.10798532 0.04401819 0.36434966 4278255360
0.108482 0.044073433 0.36433357 4278255360
0.10897867 0.044128679 0.36431748 4278255360
0.10947534 0.044183925 0.36430135 4278255360
0.10997202 0.044239171 0.36428526 4278255360
0.1104687 0.044294417 0.36426914 4278255360
0.11096539 0.044349663 0.36425304 4278255360
0.11146206 0.044404905 0.36423695 4278255360
0.11195873 0.044460151 0.36422083 4278255360
0.11245541 0.044515397 0.36420473 4278255360
0.11295209 0.044570643 0.36418861 4278255360
0.11344877 0.04462589 0.36417252 4278255360
0.11394545 0.044681136 0.36415642 4278255360
0.11444212 0.044736378 0.3641403 4278255360
0.1149388 0.044791624 0.36412421 4278255360
0.11543548 0.04484687 0.36410809 4278255360
0.11593215 0.044902116 0.36409199 4278255360
0.11642884 0.044957362 0.36407587 4278255360
0.11692551 0.045012608 0.36405978 4278255360
0.11742219 0.045067851 0.36404368 4278255360
0.11791886 0.045123097 0.36402756 4278255360
0.11841555 0.045178343 0.36401147 4278255360
0.11891222 0.045233589 0.36399534 4278255360
0.1194089 0.045288835 0.36397925 4278255360
0.11990558 0.045344081 0.36396316 4278255360
0.12040226 0.045399323 0.36394703 4278255360
0.12089893 0.045454569 0.36393094 4278255360
0.12139561 0.045509815 0.36391482 4278255360
0.12189229 0.045565061 0.36389872 4278255360
0.12238897 0.045620307 0.36388263 4278255360
0.12288564 0.045675553 0.36386651 4278255360
0.12338232 0.045730796 0.36385041 4278255360
0.123879 0.045786042 0.36383429 4278255360
0.12437567 0.045841288 0.3638182 4278255360
0.12487236 0.045896534 0.36380211 4278255360
0.12536903 0.04595178 0.36378598 4278255360
0.12586571 0.046007026 0.36376989 4278255360
0.12636238 0.046062268 0.36375377 4278255360
0.12685907 0.046117514 0.36373767 4278255360
0.12735574 0.04617276 0.36372155 4278255360
0.12785241 0.046228006 0.36370546 4278255360
0.1283491 0.046283253 0.36368936 4278255360
0.12884578 0.046338499 0.36367324 4278255360
0.12934245 0.046393741 0.36365715 4278255360
0.12983912 0.046448987 0.36364102 4278255360
0.13033581 0.046504233 0.36362493 4278255360
0.080668047 0.040979691 0.36523548 4278190335
0.080677733 0.040916469 0.36573136 4278190335
0.080687426 0.040853243 0.36622727 4278190335
0.080697112 0.040790021 0.36672315 4278190335
0.080706798 0.040726796 0.36721906 4278190335
0.080716483 0.040663574 0.36771494 4278190335
0.080726177 0.040600352 0.36821082 4278190335
0.080735862 0.040537126 0.36870673 4278190335
0.080745548 0.040473904 0.36920261 4278190335
0.080755241 0.040410679 0.36969849 4278190335
0.080764927 0.040347457 0.37019441 4278190335
0.080774613 0.040284231 0.37069029 4278190335
0.080784298 0.040221009 0.3711862 4278190335
0.080793992 0.040157788 0.37168208 4278190335
0.080803677 0.040094562 0.37217796 4278190335
0.080813363 0.04003134 0.37267387 4278190335
0.080823049 0.039968114 0.37316975 4278190335
0.080832742 0.039904892 0.37366563 4278190335
0.080842428 0.039841671 0.37416154 4278190335
0.080852114 0.039778445 0.37465742 4278190335
0.080861807 0.039715223 0.37515333 4278190335
0.080871493 0.039651997 0.37564921 4278190335
0.080881178 0.039588775 0.37614509 4278190335
0.080890864 0.039525554 0.37664101 4278190335
0.080900557 0.039462328 0.37713689 4278190335
0.080910243 0.039399106 0.3776328 4278190335
0.080919929 0.03933588 0.37812868 4278190335
0.080929622 0.039272659 0.37862456 4278190335
0.080939308 0.039209437 0.37912047 4278190335
0.080948994 0.039146211 0.37961635 4278190335
0.080958679 0.039082989 0.38011223 4278190335
0.080968373 0.039019763 0.38060814 4278190335
0.080978058 0.038956542 0.38110402 4278190335
0.080987744 0.038893316 0.38159993 4278190335
0.080997437 0.038830094 0.38209581 4278190335
0.081007123 0.038766872 0.38259169 4278190335
0.081016809 0.038703647 0.38308761 4278190335
0.081026495 0.038640425 0.38358349 4278190335
0.081036188 0.038577199 0.38407937 4278190335
0.081045873 0.038513977 0.38457528 4278190335
0.081055559 0.038450755 0.38507116 4278190335
0.081065245 0.03838753 0.38556707 4278190335
0.081074938 0.038324308 0.38606295 4278190335
0.081084624 0.038261082 0.38655883 4278190335
0.08109431 0.03819786 0.38705474 4278190335
0.081104003 0.038134638 0.38755062 4278190335
0.081113689 0.038071413 0.3880465 4278190335
0.081123374 0.038008191 0.38854241 4278190335
0.08113306 0.037944965 0.38903829 4278190335
0.081142753 0.037881743 0.38953421 4278190335
0.081152439 0.037818521 0.39003009 4278190335
0.081162125 0.037755296 0.39052597 4278190335
0.081171818 0.037692074 0.39102188 4278190335
0.081181504 0.037628848 0.39151776 4278190335
0.08119119 0.037565626 0.39201367 4278190335
0.081200875 0.037502401 0.39250955 4278190335
0.081210569 0.037439179 0.39300543 4278190335
0.081220254 0.037375957 0.39350134 4278190335
0.08122994 0.037312731 0.39399722 4278190335
0.081239633 0.037249509 0.3944931 4278190335
0.081249319 0.037186284 0.39498901 4278190335
0.081259005 0.037123062 0.39548489 4278190335
0.081268691 0.03705984 0.39598081 4278190335
0.081278384 0.036996614 0.39647669 4278190335
0.081288069 0.036933392 0.39697257 4278190335
0.081297755 0.036870167 0.39746848 4278190335
0.081307441 0.036806945 0.39796436 4278190335
0.081317134 0.036743723 0.39846027 4278190335
0.08132682 0.036680497 0.39895615 4278190335
0.081336506 0.036617275 0.39945203 4278190335
0.081346199 0.03655405 0.39994794 4278190335
0.081355885 0.036490828 0.40044382 4278190335
0.08136557 0.036427602 0.4009397 4278190335
0.081375256 0.03636438 0.40143561 4278190335
0.081384949 0.036301158 0.40193149 4278190335
0.081394635 0.036237933 0.40242738 4278190335
0.081404321 0.036174711 0.40292329 4278190335
0.081414014 0.036111489 0.40341917 4278190335
0.0814237 0.036048263 0.40391508 4278190335
0.081433386 0.035985041 0.40441096 4278190335
0.081443071 0.035921816 0.40490684 4278190335
0.081452765 0.035858594 0.40540275 4278190335
0.08146245 0.035795368 0.40589863 4278190335
0.081472136 0.035732146 0.40639454 4278190335
0.081481829 0.035668924 0.40689042 4278190335
0.081491515 0.035605699 0.4073863 4278190335
0.081501201 0.035542477 0.40788221 4278190335
0.081510887 0.035479251 0.40837809 4278190335
0.08152058 0.035416029 0.40887398 4278190335
