# .PCD v0.7 - Point Cloud Data file format
VERSION 0.7
FIELDS x y z rgb
SIZE 4 4 4 4
TYPE F F F U
COUNT 1 1 1 1
WIDTH 882
HEIGHT 1
VIEWPOINT 0 0 0 1 0 0 0
POINTS 882
DATA ascii
-0.012355713 0.039056942 0.55200005 4279848234
-0.0071034175 0.039764494 0.56200004 4280108840
-0.01579711 0.040480424 0.54700005 4281488444
-0.014020452 0.040480424 0.54700005 4279782182
-0.012288562 0.040628433 0.54900002 4279126560
-0.015710471 0.04202592 0.54400003 4280436780
-0.013943558 0.04202592 0.54400003 4279321631
-0.012199028 0.042103175 0.54500002 4279257633
-0.015623831 0.043551922 0.54100001 4280306219
-0.013866662 0.043551922 0.54100001 4279123998
-0.012109494 0.043551922 0.54100001 4279257121
-0.010371461 0.043632429 0.54200006 4279125535
-0.015594952 0.045225937 0.54000002 4279977254
-0.013815399 0.045142185 0.53900003 4279190304
-0.012042344 0.045058437 0.53800005 4278993949
-0.010294919 0.045058437 0.53800005 4279059742
-0.0085474933 0.045058437 0.53800005 4279059742
-0.015537194 0.046806451 0.53800005 4280437807
-0.013764136 0.046719447 0.537 4279059488
-0.011997576 0.046632446 0.53600001 4278928416
-0.010256647 0.046632446 0.53600001 4278862623
-0.00849983 0.046545446 0.53500003 4278665498
-0.0031884916 0.045153435 0.51900005 4278796570
-0.0014969874 0.044979431 0.51700002 4278465300
0.000181877 0.04489243 0.51600003 4278795033
0.0018542454 0.044805434 0.51500005 4279058972
0.0035201176 0.044718426 0.514 4278268171
0.0051794942 0.044631429 0.51300001 4278728211
0.0068457192 0.044631429 0.51300001 4279386652
-0.015508313 0.04846422 0.537 4279977256
-0.013738505 0.048373971 0.53600001 4279321379
-0.011975193 0.048283722 0.53500003 4278796830
-0.010256647 0.048373971 0.53600001 4278862623
-0.0085157175 0.048373971 0.53600001 4278796830
-0.0049023791 0.047110472 0.52200001 4278862877
-0.0031823479 0.046749469 0.51800001 4279257121
-0.0014940919 0.046568971 0.51600003 4278196480
0.00018152452 0.046478722 0.51500005 4279319324
0.0018542454 0.046478722 0.51500005 4278197767
0.0035201176 0.04638847 0.514 4278524683
0.0051794942 0.046298221 0.51300001 4278655502
0.0068323747 0.046207972 0.51200002 4278589709
0.0084621664 0.046027474 0.51000005 4278327304
0.010098807 0.045937221 0.509 4278328072
0.011728952 0.045846973 0.50800002 4278263304
0.013378936 0.045846973 0.50800002 4278197764
0.014999337 0.045756724 0.50700003 4278727187
0.016613243 0.045666475 0.50600004 4278861080
0.018220648 0.045576219 0.505 4279321631
0.01982156 0.04548597 0.50400001 4278993177
0.021458555 0.04548597 0.50400001 4278599189
0.024339961 0.044763971 0.49600002 4278862361
0.025898648 0.044673722 0.49500003 4278731289
0.027395273 0.044493224 0.49300003 4278665496
0.028878905 0.044312723 0.49100003 4278862875
0.030349545 0.044132221 0.48900002 4278731289
0.031807192 0.043951724 0.48700002 4278797597
0.033251848 0.043771222 0.48500001 4278928929
-0.015479434 0.050115488 0.53600001 4279976742
-0.013687242 0.049928494 0.53400004 4279320607
-0.011930427 0.049834993 0.53300005 4278993695
-0.010256647 0.050115488 0.53600001 4278731037
-0.0085157175 0.050115488 0.53600001 4278665244
-0.0048742048 0.048526008 0.51900005 4278796830
-0.0031762044 0.048339006 0.51700002 4279125535
-0.0014940919 0.048245508 0.51600003 4278196992
0.00018152452 0.048152011 0.51500005 4279516189
0.0018506448 0.048058506 0.514 4278195203
0.0035132691 0.047965009 0.51300001 4279642397
0.0051693977 0.047871511 0.51200002 4278786318
0.0068190307 0.047778014 0.51100004 4278654732
0.0084621664 0.047684517 0.51000005 4278720527
0.010098807 0.047591012 0.509 4278720527
0.011728952 0.047497515 0.50800002 4278654732
0.013378936 0.047497515 0.50800002 4278720525
0.014999337 0.047404017 0.50700003 4278393867
0.016613243 0.04731052 0.50600004 4279581984
0.018220648 0.047217015 0.505 4278727957
0.01982156 0.047123518 0.50400001 4278266636
0.021415979 0.047030021 0.50300002 4278196480
0.022912249 0.046749521 0.5 4278196480
0.024389032 0.046469025 0.49700001 4278199303
0.025950968 0.046375528 0.49600002 4278858773
0.027450841 0.04618853 0.49400002 4279386654
0.02893772 0.046001531 0.49200001 4279190043
0.030411609 0.045814533 0.49000001 4278927384
0.031872503 0.045627534 0.48800004 4278796570
0.033320412 0.045440536 0.48600003 4278862363
0.034683511 0.045160037 0.48300001 4278928156
0.036252294 0.045160037 0.48300001 4278665498
0.037742779 0.045066539 0.48200002 4278665498
0.039308313 0.045066539 0.48200002 4278666011
0.040873852 0.045066539 0.48200002 4278994209
0.042527433 0.045160037 0.48300001 4279125797
0.046421364 0.045908034 0.49100003 4280900922
0.049914021 0.04618853 0.49400002 4283794283
0.051622823 0.046282031 0.49500003 4279320359
0.053230584 0.046282031 0.49500003 4279650090
-0.015450555 0.05176026 0.53500003 4279845668
-0.013635978 0.051470011 0.53200001 4279124511
-0.011863275 0.05127652 0.53000003 4279059488
-0.010027021 0.05069603 0.52400005 4278993695
-0.0082774051 0.050405785 0.52100003 4278796830
-0.0065599177 0.05021229 0.51900005 4278665244
-0.0048648128 0.050115541 0.51800001 4278862623
-0.0031700609 0.049922045 0.51600003 4279453476
-0.0014911965 0.0498253 0.51500005 4278196992
0.00018152452 0.0498253 0.51500005 4279187738
0.0018506448 0.049728546 0.514 4278460173
0.0035132691 0.049631801 0.51300001 4279775520
0.0051693977 0.049535051 0.51200002 4278919957
0.0068190307 0.049438305 0.51100004 4280235301
0.0084621664 0.049341559 0.51000005 4278393097
0.010098807 0.049244806 0.509 4279445785
0.011728952 0.049148057 0.50800002 4279576604
0.013378936 0.049148057 0.50800002 4279774237
0.014999337 0.049051311 0.50700003 4278392584
0.016613243 0.048954565 0.50600004 4279514908
0.018220648 0.048857812 0.505 4278859543
0.01982156 0.048761066 0.50400001 4279385887
0.021415979 0.048664317 0.50300002 4279582496
0.022958076 0.048470825 0.50100005 4279188508
0.024438106 0.048180576 0.49800003 4279254301
0.026003288 0.048083827 0.49700001 4279320094
0.027506409 0.047890335 0.49500003 4279253017
0.028996538 0.047696836 0.49300003 4279187226
0.030473674 0.047503341 0.49100003 4278198790
0.031937815 0.047309846 0.48900002 4278197248
0.033457533 0.047213096 0.48800004 4278196737
0.034898937 0.047019601 0.48600003 4278199563
0.036402408 0.046922851 0.48500001 4278858775
0.037977692 0.046922851 0.48500001 4278991129
0.039552972 0.046922851 0.48500001 4279321377
0.041128252 0.046922851 0.48500001 4279058718
0.042791583 0.047019601 0.48600003 4278533144
0.044461407 0.047116347 0.48700002 4278796316
0.046421364 0.047503341 0.49100003 4279059488
0.048211716 0.047696836 0.49300003 4278862109
0.049914021 0.047793586 0.49400002 4278992414
0.051622823 0.047890335 0.49500003 4279387683
0.053230584 0.047890335 0.49500003 4279125795
0.054838348 0.047890335 0.49500003 4279322660
-0.015421676 0.053398531 0.53400004 4279715365
-0.013610347 0.053098537 0.53100002 4278993695
-0.011818508 0.052798543 0.528 4278862623
-0.010027021 0.052398562 0.52400005 4278731037
-0.0082774051 0.052098569 0.52100003 4278862623
-0.0065599177 0.051898576 0.51900005 4278796830
-0.0048648128 0.051798575 0.51800001 4278731037
-0.0031700609 0.051598582 0.51600003 4278860826
-0.0014911965 0.051498584 0.51500005 4278198533
0.00018117203 0.051398583 0.514 4279319324
0.0018470443 0.051298589 0.51300001 4278590474
0.0035132691 0.051298589 0.51300001 4278590476
0.0051693977 0.051198591 0.51200002 4278853648
0.0068190307 0.051098596 0.51100004 4279379992
0.0084621664 0.050998598 0.51000005 4278194690
0.010098807 0.050898597 0.509 4278524429
0.011728952 0.050798602 0.50800002 4279578650
0.013378936 0.050798602 0.50800002 4278591755
0.014999337 0.050698604 0.50700003 4278195207
0.016613243 0.05059861 0.50600004 4279384092
0.018220648 0.050498608 0.505 4278199047
0.01982156 0.050398611 0.50400001 4278459656
0.021415979 0.050298616 0.50300002 4278197767
0.022958076 0.050098624 0.50100005 4278397970
0.024487179 0.049898628 0.49900001 4278199302
0.02605561 0.04979863 0.49800003 4279056924
0.027561978 0.049598634 0.49600002 4278200585
0.029055353 0.049398642 0.49400002 4278990359
0.030597804 0.049298644 0.49300003 4279188508
0.032068443 0.049098648 0.49100003 4279057176
0.033594649 0.04899865 0.49000001 4279320348
0.035042554 0.048798658 0.48800004 4279320348
0.036627579 0.048798658 0.48800004 4278727189
0.038212605 0.048798658 0.48800004 4280108842
0.03979763 0.048798658 0.48800004 4278924568
0.041382656 0.048798658 0.48800004 4278198532
0.043055728 0.048898656 0.48900002 4278196736
0.044735294 0.04899865 0.49000001 4278990361
0.046610452 0.049298644 0.49300003 4278993949
0.048309509 0.049398642 0.49400002 4278928156
0.050015066 0.04949864 0.49500003 4278928156
0.051622823 0.04949864 0.49500003 4279059742
0.053230584 0.04949864 0.49500003 4278928156
0.054838348 0.04949864 0.49500003 4279125533
0.056560136 0.049598634 0.49600002 4279121181
-0.015421676 0.055133551 0.53400004 4279386654
-0.013610347 0.054823812 0.53100002 4279125535
-0.010027021 0.054101091 0.52400005 4278731804
-0.0082774051 0.053791348 0.52100003 4278797597
-0.0065599177 0.053584859 0.51900005 4278731804
-0.0048648128 0.053481609 0.51800001 4278796570
-0.0031700609 0.05327512 0.51600003 4278466835
-0.0014911965 0.053171873 0.51500005 4279253019
0.00018117203 0.053068623 0.514 4279319326
0.0018470443 0.052965377 0.51300001 4278197511
0.0035064209 0.05286213 0.51200002 4278852365
0.0051693977 0.05286213 0.51200002 4278917390
0.0068190307 0.052758887 0.51100004 4278917390
0.0084621664 0.052655641 0.51000005 4278917392
0.010098807 0.052552391 0.509 4278851599
0.011728952 0.052449144 0.50800002 4278524170
0.013378936 0.052449144 0.50800002 4278458890
0.014999337 0.052345902 0.50700003 4278195460
0.016613243 0.052242655 0.50600004 4279450398
0.018220648 0.052139405 0.505 4278789134
0.01982156 0.052036159 0.50400001 4278983949
0.021415979 0.051932916 0.50300002 4278196997
0.022958076 0.051726423 0.50100005 4278923541
0.02453625 0.051623173 0.5 4279581984
0.02605561 0.051416684 0.49800003 4278792214
0.027617546 0.051313434 0.49700001 4279911463
0.029114172 0.051106945 0.49500003 4278266636
0.030659867 0.051003698 0.49400002 4278199555
0.032133754 0.050797205 0.49200001 4278398476
0.033663213 0.050693959 0.49100003 4278859797
0.035186172 0.050590709 0.49000001 4279385887
0.03677769 0.050590709 0.49000001 4278925590
0.038369212 0.050590709 0.49000001 4279123482
0.039960731 0.050590709 0.49000001 4279123482
0.041637056 0.050693959 0.49100003 4279386654
0.043231826 0.050693959 0.49100003 4279516703
0.044917889 0.050797205 0.49200001 4278198533
0.046704996 0.051003698 0.49400002 4279058970
0.048407301 0.051106945 0.49500003 4279059740
0.050015066 0.051106945 0.49500003 4278928154
0.051727112 0.051210191 0.49600002 4278928156
0.053338118 0.051210191 0.49600002 4278796568
0.054949131 0.051210191 0.49600002 4278664982
0.056560136 0.051210191 0.49600002 4279253017
-0.015450555 0.056975067 0.53500003 4279451164
-0.010027021 0.055803619 0.52400005 4278731289
-0.0082774051 0.055484131 0.52100003 4278731289
-0.0065599177 0.055271141 0.51900005 4278533910
-0.0048648128 0.055164643 0.51800001 4278664982
-0.0031700609 0.054951653 0.51600003 4278664214
-0.0014911965 0.054845162 0.51500005 4278465039
0.00018117203 0.054738659 0.514 4279188508
0.0018470443 0.054632165 0.51300001 4279189021
0.0035132691 0.054632165 0.51300001 4279714852
0.0051693977 0.054525673 0.51200002 4279647010
0.0068190307 0.054419179 0.51100004 4279778596
0.0084621664 0.054312684 0.51000005 4279052824
0.010098807 0.054206181 0.509 4278394380
0.011728952 0.05409969 0.50800002 4278524683
0.013378936 0.05409969 0.50800002 4278721549
0.014999337 0.053993195 0.50700003 4278459660
0.016613243 0.0538867 0.50600004 4279449115
0.018220648 0.053780202 0.505 4280303911
0.01982156 0.053673707 0.50400001 4279249685
0.021415979 0.053567212 0.50300002 4279909412
0.022958076 0.053354222 0.50100005 4279055386
0.02453625 0.053247724 0.5 4278529296
0.02610793 0.053141229 0.49900001 4279647777
0.027617546 0.052928239 0.49700001 4278727189
0.029172987 0.052821744 0.49600002 4278200331
0.030721933 0.052715249 0.49500003 4279121431
0.032264378 0.052608754 0.49400002 4279120918
0.033800334 0.05250226 0.49300003 4278264587
0.035329789 0.052395761 0.49200001 4278265357
0.036927804 0.052395761 0.49200001 4278923541
0.038525824 0.052395761 0.49200001 4278660369
0.040123839 0.052395761 0.49200001 4278660367
0.041721858 0.052395761 0.49200001 4279187990
0.043407921 0.05250226 0.49300003 4279451934
0.045009185 0.05250226 0.49300003 4278792468
0.046799541 0.052715249 0.49500003 4279321631
0.048407301 0.052715249 0.49500003 4279190556
0.050116103 0.052821744 0.49600002 4278927384
0.051727112 0.052821744 0.49600002 4278927384
0.053338118 0.052821744 0.49600002 4278795798
0.054949131 0.052821744 0.49600002 4278795798
0.056560136 0.052821744 0.49600002 4278727441
-0.010027021 0.057506148 0.52400005 4278991894
-0.0082932925 0.057286657 0.52200001 4278860308
-0.0065725571 0.057067171 0.52000004 4278861078
-0.0048648128 0.056847677 0.51800001 4278598419
-0.0031762044 0.056737933 0.51700002 4278730007
-0.0014940919 0.05662819 0.51600003 4278927386
0.00018152452 0.056518447 0.51500005 4279058972
0.0018506448 0.0564087 0.514 4279058972
0.0035132691 0.056298956 0.51300001 4278993179
0.0051693977 0.056189213 0.51200002 4278992925
0.0068190307 0.05607947 0.51100004 4279058718
0.0084621664 0.055969726 0.51000005 4278927132
0.010098807 0.055859976 0.509 4278992412
0.011728952 0.055750232 0.50800002 4279189023
0.013378936 0.055750232 0.50800002 4279452195
0.014999337 0.055640489 0.50700003 4279385117
0.016613243 0.055530746 0.50600004 4279516703
0.018220648 0.055420995 0.505 4279515676
0.01982156 0.055311255 0.50400001 4278331402
0.021415979 0.055201512 0.50300002 4278194944
0.022958076 0.054982025 0.50100005 4278197254
0.02453625 0.054872274 0.5 4278198022
0.02610793 0.054762531 0.49900001 4278857748
0.027673116 0.054652788 0.49800003 4279385117
0.029231803 0.054543041 0.49700001 4279516703
0.030721933 0.054323554 0.49500003 4279385117
0.032264378 0.054213811 0.49400002 4279385117
0.033868894 0.054213811 0.49400002 4279319324
0.035401598 0.054104067 0.49300003 4279253017
0.037002861 0.054104067 0.49300003 4278331404
0.038604129 0.054104067 0.49300003 4279384092
0.040205393 0.054104067 0.49300003 4278923541
0.041806657 0.054104067 0.49300003 4279648029
0.043495968 0.054213811 0.49400002 4279451680
0.04510048 0.054213811 0.49400002 4278529808
0.046799541 0.054323554 0.49500003 4279058457
0.048505094 0.054433297 0.49600002 4279124763
0.050116103 0.054433297 0.49600002 4279124765
0.051727112 0.054433297 0.49600002 4278927386
0.053338118 0.054433297 0.49600002 4278993177
0.054949131 0.054433297 0.49600002 4278795798
0.056560136 0.054433297 0.49600002 4279452193
-0.0082932925 0.058982685 0.52200001 4278789386
-0.0065851966 0.058869693 0.52100003 4279251475
-0.0048742048 0.05864371 0.51900005 4278858513
-0.0031823479 0.058530711 0.51800001 4279319578
-0.0014940919 0.058304727 0.51600003 4279451934
0.00018152452 0.058191735 0.51500005 4279189275
0.0018506448 0.058078736 0.514 4278992412
0.0035132691 0.057965744 0.51300001 4279189793
0.0051693977 0.057852753 0.51200002 4279124000
0.0068190307 0.057739761 0.51100004 4278795548
0.0084621664 0.057626769 0.51000005 4278795546
0.010098807 0.05751377 0.509 4279058718
0.011728952 0.057400778 0.50800002 4279124511
0.013378936 0.057400778 0.50800002 4278992925
0.014999337 0.057287782 0.50700003 4278993179
0.016613243 0.057174791 0.50600004 4278927386
0.018220648 0.057061791 0.505 4279256351
0.019782232 0.056835808 0.50300002 4278927386
0.021373402 0.056722816 0.50200003 4278861080
0.022958076 0.056609824 0.50100005 4279254814
0.02453625 0.056496825 0.5 4278991129
0.02610793 0.056383833 0.49900001 4279056922
0.027673116 0.056270842 0.49800003 4279253019
0.029231803 0.056157846 0.49700001 4279318812
0.030783996 0.056044854 0.49600002 4278198790
0.032329693 0.055931862 0.49500003 4278196224
0.033868894 0.055818867 0.49400002 4278195968
0.035473406 0.055818867 0.49400002 4278199047
0.037077915 0.055818867 0.49400002 4279318812
0.038682431 0.055818867 0.49400002 4279976742
0.040286943 0.055818867 0.49400002 4279977256
0.041891459 0.055818867 0.49400002 4279385887
0.043584019 0.055931862 0.49500003 4280306989
0.04519178 0.055931862 0.49500003 4278859543
0.046894085 0.056044854 0.49600002 4279058972
0.048505094 0.056044854 0.49600002 4278993949
0.050116103 0.056044854 0.49600002 4279059740
0.051727112 0.056044854 0.49600002 4278862361
0.053338118 0.056044854 0.49600002 4278533396
0.054949131 0.056044854 0.49600002 4278335247
0.056560136 0.056044854 0.49600002 4278925336
-0.0048835962 0.060446236 0.52000004 4279312652
-0.0031823479 0.060213745 0.51800001 4279576338
-0.0014969874 0.060097504 0.51700002 4279577106
0.00018152452 0.059865024 0.51500005 4285170794
0.0018506448 0.059748773 0.514 4283263572
0.0035132691 0.059632532 0.51300001 4280567346
0.0051693977 0.059516292 0.51200002 4279056422
0.0068190307 0.059400052 0.51100004 4279384615
0.0084621664 0.059283808 0.51000005 4279385639
0.010098807 0.05916756 0.509 4279648809
0.011728952 0.05905132 0.50800002 4279649574
0.013378936 0.05905132 0.50800002 4279254816
0.014999337 0.05893508 0.50700003 4278927134
0.016580408 0.058702588 0.505 4279058718
0.018184567 0.058586348 0.50400001 4279058972
0.019782232 0.058470108 0.50300002 4279058972
0.021373402 0.058353864 0.50200003 4278795800
0.022958076 0.058237623 0.50100005 4278466835
0.02453625 0.058121376 0.5 4278993179
0.02610793 0.058005136 0.49900001 4278795800
0.027673116 0.057888892 0.49800003 4278795800
0.029231803 0.057772648 0.49700001 4279058459
0.030783996 0.057656407 0.49600002 4279189021
0.032329693 0.057540167 0.49500003 4279254814
0.033937454 0.057540167 0.49500003 4279254301
0.035473406 0.057423919 0.49400002 4279516703
0.037077915 0.057423919 0.49400002 4279450912
0.038682431 0.057423919 0.49400002 4279516705
0.040286943 0.057423919 0.49400002 4278923541
0.041976258 0.057540167 0.49500003 4278198533
0.043584019 0.057540167 0.49500003 4278196480
0.04519178 0.057540167 0.49500003 4279647777
0.046894085 0.057656407 0.49600002 4279255838
0.048505094 0.057656407 0.49600002 4279058972
0.050116103 0.057656407 0.49600002 4278862363
0.051727112 0.057656407 0.49600002 4278862363
0.053338118 0.057656407 0.49600002 4278927386
0.054949131 0.057656407 0.49600002 4278927386
0.056560136 0.057656407 0.49600002 4278397458
0.0051693977 0.061179832 0.51200002 4285368438
0.0068190307 0.061060343 0.51100004 4286092161
0.0084621664 0.060940851 0.51000005 4286223747
0.010098807 0.060821354 0.509 4286026368
0.011728952 0.060701862 0.50800002 4284250471
0.0133526 0.060582373 0.50700003 4281619267
0.014969753 0.060462881 0.50600004 4279647527
0.016580408 0.060343385 0.505 4279647523
0.018184567 0.060223896 0.50400001 4279385889
0.019782232 0.060104404 0.50300002 4279386402
0.021373402 0.059984915 0.50200003 4279255586
0.022912249 0.059745926 0.5 4279321379
0.024487179 0.059626438 0.49900001 4279124000
0.02610793 0.059626438 0.49900001 4279124000
0.027673116 0.059506945 0.49800003 4279123998
0.029231803 0.059387453 0.49700001 4279124511
0.030783996 0.05926796 0.49600002 4278992927
0.032329693 0.059148472 0.49500003 4279124513
0.033937454 0.059148472 0.49500003 4279190304
0.035545215 0.059148472 0.49500003 4279058205
0.037152976 0.059148472 0.49500003 4279058205
0.038760737 0.059148472 0.49500003 4279189791
0.040368497 0.059148472 0.49500003 4279189021
0.041976258 0.059148472 0.49500003 4279189021
0.043584019 0.059148472 0.49500003 4279254301
0.045283075 0.05926796 0.49600002 4279320094
0.046894085 0.05926796 0.49600002 4279190043
0.048505094 0.05926796 0.49600002 4279190043
0.050116103 0.05926796 0.49600002 4279124763
0.051727112 0.05926796 0.49600002 4278927384
0.053338118 0.05926796 0.49600002 4278795800
0.054949131 0.05926796 0.49600002 4278728470
0.056560136 0.05926796 0.49600002 4280568116
0.011728952 0.062352408 0.50800002 4285433718
0.0133526 0.062229667 0.50700003 4285367925
0.014969753 0.06210693 0.50600004 4285302132
0.016580408 0.061984181 0.505 4285367925
0.018184567 0.061861441 0.50400001 4284973165
0.019782232 0.061738703 0.50300002 4285302643
0.021373402 0.061615963 0.50200003 4284316262
0.022912249 0.061370477 0.5 4282672207
0.024487179 0.061247736 0.49900001 4280830518
0.02605561 0.061124999 0.49800003 4279975207
0.027673116 0.061124999 0.49800003 4279318045
0.029231803 0.061002254 0.49700001 4279318045
0.030783996 0.060879517 0.49600002 4279186974
0.032395005 0.060879517 0.49600002 4279450660
0.033937454 0.060756776 0.49500003 4279648037
0.035545215 0.060756776 0.49500003 4279779623
0.037152976 0.060756776 0.49500003 4279845670
0.038760737 0.060756776 0.49500003 4279780647
0.040368497 0.060756776 0.49500003 4279649061
0.041976258 0.060756776 0.49500003 4279517475
0.043584019 0.060756776 0.49500003 4279386402
0.045283075 0.060879517 0.49600002 4279320609
0.046894085 0.060879517 0.49600002 4279189793
0.048505094 0.060879517 0.49600002 4279123998
0.050116103 0.060879517 0.49600002 4279058205
0.051727112 0.060879517 0.49600002 4279123998
0.053338118 0.060879517 0.49600002 4279320094
0.054949131 0.060879517 0.49600002 4278594837
0.022912249 0.062995031 0.5 4284578407
0.024487179 0.062869042 0.49900001 4284775786
0.02605561 0.062743053 0.49800003 4284578407
0.027673116 0.062743053 0.49800003 4284578407
0.029231803 0.062617064 0.49700001 4284775786
0.030783996 0.062491074 0.49600002 4284577637
0.032395005 0.062491074 0.49600002 4285170544
0.033937454 0.062365085 0.49500003 4285499509
0.035545215 0.062365085 0.49500003 4285763194
0.037152976 0.062365085 0.49500003 4285171573
0.038760737 0.062365085 0.49500003 4285040757
0.040368497 0.062365085 0.49500003 4283199066
0.041976258 0.062365085 0.49500003 4282541136
0.043672066 0.062491074 0.49600002 4281225274
0.045283075 0.062491074 0.49600002 4280172586
0.046894085 0.062491074 0.49600002 4279581221
0.048505094 0.062491074 0.49600002 4279121183
0.050116103 0.062491074 0.49600002 4278858525
0.051727112 0.062491074 0.49600002 4278858525
0.053338118 0.062491074 0.49600002 4281554241
0.02145513 0.053174138 0.50502938 4294967295
0.02145513 0.053174138 0.50502938 4294901760
0.021488816 0.052675281 0.50502688 4294901760
0.0215225 0.052176423 0.50502431 4294901760
0.021556186 0.051677566 0.50502181 4294901760
0.02158987 0.051178709 0.50501925 4294901760
0.021623556 0.050679851 0.50501674 4294901760
0.02165724 0.050180994 0.50501418 4294901760
0.021690926 0.049682133 0.50501168 4294901760
0.02172461 0.049183279 0.50500911 4294901760
0.021758296 0.048684418 0.50500661 4294901760
0.021791982 0.048185561 0.50500411 4294901760
0.021825666 0.047686704 0.50500154 4294901760
0.021859352 0.047187846 0.50499904 4294901760
0.021893036 0.046688989 0.50499648 4294901760
0.021926722 0.046190131 0.50499398 4294901760
0.021960406 0.045691274 0.50499141 4294901760
0.021994092 0.045192417 0.50498891 4294901760
0.022027778 0.044693559 0.50498641 4294901760
0.022061462 0.044194702 0.50498384 4294901760
0.022095148 0.043695845 0.50498134 4294901760
0.022128832 0.043196984 0.50497878 4294901760
0.022162518 0.04269813 0.50497627 4294901760
0.022196202 0.042199269 0.50497371 4294901760
0.022229888 0.041700412 0.50497121 4294901760
0.022263572 0.041201554 0.50496864 4294901760
0.022297258 0.040702697 0.50496614 4294901760
0.022330943 0.04020384 0.50496364 4294901760
0.022364628 0.039704982 0.50496107 4294901760
0.022398314 0.039206125 0.50495857 4294901760
0.022431998 0.038707267 0.50495601 4294901760
0.022465684 0.03820841 0.5049535 4294901760
0.022499368 0.037709553 0.50495094 4294901760
0.022533054 0.037210695 0.50494844 4294901760
0.022566739 0.036711834 0.50494587 4294901760
0.022600424 0.036212981 0.50494337 4294901760
0.022634109 0.03571412 0.50494087 4294901760
0.022667794 0.035215266 0.5049383 4294901760
0.022701479 0.034716405 0.5049358 4294901760
0.022735164 0.034217551 0.50493324 4294901760
0.02276885 0.03371869 0.50493073 4294901760
0.022802534 0.033219833 0.50492817 4294901760
0.02283622 0.032720976 0.50492567 4294901760
0.022869904 0.032222118 0.50492316 4294901760
0.02290359 0.031723261 0.5049206 4294901760
0.022937275 0.031224404 0.5049181 4294901760
0.02297096 0.030725546 0.50491554 4294901760
0.023004645 0.030226687 0.50491303 4294901760
0.02303833 0.02972783 0.50491047 4294901760
0.023072015 0.029228974 0.50490797 4294901760
0.0231057 0.028730115 0.5049054 4294901760
0.023139386 0.028231258 0.5049029 4294901760
0.023173071 0.0277324 0.5049004 4294901760
0.023206756 0.027233543 0.50489783 4294901760
0.023240441 0.026734686 0.50489533 4294901760
0.023274126 0.026235826 0.50489277 4294901760
0.023307811 0.025736969 0.50489026 4294901760
0.023341496 0.025238112 0.5048877 4294901760
0.023375181 0.024739254 0.5048852 4294901760
0.023408867 0.024240397 0.50488263 4294901760
0.023442551 0.02374154 0.50488013 4294901760
0.023476237 0.02324268 0.50487763 4294901760
0.023509922 0.022743823 0.50487506 4294901760
0.023543607 0.022244966 0.50487256 4294901760
0.023577292 0.02174611 0.50487 4294901760
0.023610977 0.021247253 0.50486749 4294901760
0.023644662 0.020748395 0.50486493 4294901760
0.023678347 0.020249534 0.50486243 4294901760
0.023712032 0.019750677 0.50485992 4294901760
0.023745717 0.01925182 0.50485736 4294901760
0.023779403 0.018752962 0.50485486 4294901760
0.023813087 0.018254105 0.50485229 4294901760
0.023846773 0.017755248 0.50484979 4294901760
0.023880458 0.01725639 0.50484723 4294901760
0.023914143 0.016757533 0.50484473 4294901760
0.023947828 0.016258676 0.50484216 4294901760
0.023981513 0.015759818 0.50483966 4294901760
0.024015199 0.015260961 0.50483716 4294901760
0.024048883 0.014762104 0.50483459 4294901760
0.024082569 0.014263246 0.50483209 4294901760
0.024116253 0.013764385 0.50482953 4294901760
0.024149939 0.013265528 0.50482702 4294901760
0.024183623 0.01276667 0.50482446 4294901760
0.024217309 0.012267813 0.50482196 4294901760
0.024250995 0.011768956 0.50481939 4294901760
0.024284679 0.011270098 0.50481689 4294901760
0.024318365 0.010771241 0.50481439 4294901760
0.024352049 0.010272384 0.50481182 4294901760
0.024385735 0.0097735263 0.50480932 4294901760
0.024419419 0.009274669 0.50480676 4294901760
0.024453105 0.0087758116 0.50480425 4294901760
0.024486789 0.0082769543 0.50480169 4294901760
0.024520475 0.0077780932 0.50479919 4294901760
0.024554159 0.0072792359 0.50479668 4294901760
0.024587845 0.0067803785 0.50479412 4294901760
0.024621531 0.0062815212 0.50479162 4294901760
0.024655215 0.0057826675 0.50478905 4294901760
0.024688901 0.0052838102 0.50478655 4294901760
0.024722585 0.0047849491 0.50478399 4294901760
0.024756271 0.0042860918 0.50478148 4294901760
0.024789955 0.0037872344 0.50477892 4294901760
0.024823641 0.0032883771 0.50477642 4294901760
0.02145513 0.053174138 0.50502938 4278255360
0.021874895 0.053203851 0.50475937 4278255360
0.022294659 0.053233564 0.5044893 4278255360
0.022714425 0.053263281 0.50421929 4278255360
0.023134191 0.053292993 0.50394928 4278255360
0.023553954 0.053322706 0.50367928 4278255360
0.02397372 0.053352423 0.50340921 4278255360
0.024393486 0.053382136 0.5031392 4278255360
0.02481325 0.053411849 0.50286919 4278255360
0.025233015 0.053441562 0.50259912 4278255360
0.025652781 0.053471275 0.50232911 4278255360
0.026072547 0.053500991 0.5020591 4278255360
0.026492311 0.053530704 0.50178909 4278255360
0.026912076 0.053560417 0.50151902 4278255360
0.02733184 0.053590134 0.50124902 4278255360
0.027751606 0.053619847 0.50097901 4278255360
0.028171372 0.05364956 0.50070894 4278255360
0.028591137 0.053679273 0.50043893 4278255360
0.029010903 0.053708985 0.50016892 4278255360
0.029430667 0.053738702 0.49989888 4278255360
0.029850431 0.053768415 0.49962884 4278255360
0.030270196 0.053798128 0.49935883 4278255360
0.030689962 0.053827845 0.49908879 4278255360
0.031109728 0.053857557 0.49881878 4278255360
0.031529494 0.05388727 0.49854875 4278255360
0.031949259 0.053916983 0.49827874 4278255360
0.032369021 0.053946696 0.4980087 4278255360
0.032788787 0.053976413 0.49773866 4278255360
0.033208553 0.054006126 0.49746865 4278255360
0.033628318 0.054035839 0.49719861 4278255360
0.034048084 0.054065555 0.4969286 4278255360
0.034467846 0.054095268 0.49665856 4278255360
0.034887612 0.054124981 0.49638852 4278255360
0.035307378 0.054154694 0.49611852 4278255360
0.035727143 0.054184407 0.49584848 4278255360
0.036146909 0.054214124 0.49557847 4278255360
0.036566675 0.054243837 0.49530843 4278255360
0.03698644 0.054273549 0.49503842 4278255360
0.037406206 0.054303266 0.49476838 4278255360
0.037825968 0.054332979 0.49449834 4278255360
0.038245734 0.054362692 0.49422833 4278255360
0.0386655 0.054392405 0.49395829 4278255360
0.039085262 0.054422118 0.49368829 4278255360
0.039505027 0.054451834 0.49341825 4278255360
0.039924793 0.054481547 0.49314821 4278255360
0.040344559 0.05451126 0.4928782 4278255360
0.040764324 0.054540977 0.49260816 4278255360
0.04118409 0.05457069 0.49233815 4278255360
0.041603856 0.054600403 0.49206811 4278255360
0.042023621 0.054630116 0.4917981 4278255360
0.042443387 0.054659829 0.49152806 4278255360
0.042863149 0.054689545 0.49125803 4278255360
0.043282915 0.054719258 0.49098802 4278255360
0.043702677 0.054748971 0.49071798 4278255360
0.044122446 0.054778688 0.49044797 4278255360
0.044542212 0.054808401 0.49017793 4278255360
0.044961974 0.054838113 0.48990792 4278255360
0.04538174 0.054867826 0.48963788 4278255360
0.045801505 0.054897539 0.48936784 4278255360
0.046221271 0.054927256 0.48909783 4278255360
0.046641037 0.054956969 0.48882779 4278255360
0.047060803 0.054986682 0.48855779 4278255360
0.047480568 0.055016398 0.48828775 4278255360
0.047900334 0.055046111 0.48801771 4278255360
0.048320096 0.055075824 0.4877477 4278255360
0.048739862 0.055105537 0.48747766 4278255360
0.049159627 0.05513525 0.48720765 4278255360
0.049579393 0.055164967 0.48693761 4278255360
0.049999155 0.05519468 0.4866676 4278255360
0.050418921 0.055224393 0.48639756 4278255360
0.050838687 0.055254109 0.48612753 4278255360
0.051258452 0.055283822 0.48585752 4278255360
0.051678218 0.055313535 0.48558748 4278255360
0.052097984 0.055343248 0.48531747 4278255360
0.052517749 0.055372961 0.48504743 4278255360
0.052937515 0.055402678 0.48477739 4278255360
0.053357281 0.05543239 0.48450738 4278255360
0.053777039 0.055462103 0.48423734 4278255360
0.054196805 0.05549182 0.48396733 4278255360
0.054616578 0.055521533 0.4836973 4278255360
0.055036336 0.055551246 0.48342729 4278255360
0.055456102 0.055580959 0.48315725 4278255360
0.055875868 0.055610672 0.48288721 4278255360
0.056295633 0.055640388 0.4826172 4278255360
0.056715399 0.055670101 0.48234716 4278255360
0.057135165 0.055699814 0.48207715 4278255360
0.05755493 0.055729531 0.48180711 4278255360
0.057974696 0.055759244 0.4815371 4278255360
0.058394462 0.055788957 0.48126706 4278255360
0.058814228 0.055818669 0.48099703 4278255360
0.059233986 0.055848382 0.48072702 4278255360
0.059653759 0.055878099 0.48045698 4278255360
0.060073517 0.055907812 0.48018697 4278255360
0.060493283 0.055937525 0.47991693 4278255360
0.060913049 0.055967242 0.47964692 4278255360
0.061332814 0.055996954 0.47937688 4278255360
0.06175258 0.056026667 0.47910684 4278255360
0.062172346 0.05605638 0.47883683 4278255360
0.062592112 0.056086093 0.4785668 4278255360
0.063011877 0.05611581 0.47829679 4278255360
0.063431643 0.056145523 0.47802675 4278255360
0.02145513 0.053174138 0.50502938 4278190335
0.021718955 0.053189799 0.50545382 4278190335
0.021982782 0.053205464 0.50587827 4278190335
0.022246607 0.053221125 0.50630271 4278190335
0.022510432 0.053236786 0.50672716 4278190335
0.022774259 0.053252447 0.5071516 4278190335
0.023038084 0.053268112 0.50757605 4278190335
0.023301909 0.053283773 0.50800049 4278190335
0.023565736 0.053299434 0.50842494 4278190335
0.023829561 0.053315099 0.50884938 4278190335
0.024093386 0.05333076 0.50927377 4278190335
0.024357213 0.053346422 0.50969821 4278190335
0.024621038 0.053362083 0.51012266 4278190335
0.024884863 0.053377748 0.5105471 4278190335
0.02514869 0.053393409 0.51097155 4278190335
0.025412515 0.05340907 0.51139599 4278190335
0.02567634 0.053424731 0.51182044 4278190335
0.025940167 0.053440396 0.51224488 4278190335
0.026203992 0.053456057 0.51266932 4278190335
0.026467817 0.053471718 0.51309377 4278190335
0.026731644 0.053487383 0.51351821 4278190335
0.026995469 0.053503044 0.51394266 4278190335
0.027259294 0.053518705 0.5143671 4278190335
0.027523121 0.053534366 0.51479155 4278190335
0.027786946 0.053550031 0.51521599 4278190335
0.028050771 0.053565692 0.51564044 4278190335
0.028314598 0.053581353 0.51606488 4278190335
0.028578423 0.053597018 0.51648933 4278190335
0.028842248 0.053612679 0.51691377 4278190335
0.029106073 0.05362834 0.51733822 4278190335
0.0293699 0.053644001 0.51776266 4278190335
0.029633727 0.053659666 0.51818705 4278190335
0.029897552 0.053675327 0.51861149 4278190335
0.030161377 0.053690989 0.51903594 4278190335
0.030425202 0.053706653 0.51946038 4278190335
0.030689027 0.053722315 0.51988482 4278190335
0.030952854 0.053737976 0.52030927 4278190335
0.031216681 0.053753637 0.52073371 4278190335
0.031480506 0.053769302 0.52115816 4278190335
0.031744331 0.053784963 0.5215826 4278190335
0.032008156 0.053800624 0.52200705 4278190335
0.032271981 0.053816285 0.52243149 4278190335
0.032535806 0.05383195 0.52285594 4278190335
0.032799635 0.053847611 0.52328038 4278190335
0.03306346 0.053863272 0.52370483 4278190335
0.033327285 0.053878937 0.52412927 4278190335
0.03359111 0.053894598 0.52455372 4278190335
0.033854935 0.053910259 0.52497816 4278190335
0.03411876 0.05392592 0.52540261 4278190335
0.034382589 0.053941585 0.52582705 4278190335
0.034646414 0.053957246 0.52625144 4278190335
0.034910239 0.053972907 0.52667588 4278190335
0.035174064 0.053988572 0.52710032 4278190335
0.035437889 0.054004233 0.52752477 4278190335
0.035701714 0.054019894 0.52794921 4278190335
0.035965543 0.054035556 0.52837366 4278190335
0.036229368 0.05405122 0.5287981 4278190335
0.036493193 0.054066882 0.52922255 4278190335
0.036757018 0.054082543 0.52964699 4278190335
0.037020843 0.054098208 0.53007144 4278190335
0.037284672 0.054113869 0.53049588 4278190335
0.037548497 0.05412953 0.53092033 4278190335
0.037812322 0.054145191 0.53134477 4278190335
0.038076147 0.054160856 0.53176922 4278190335
0.038339972 0.054176517 0.53219366 4278190335
0.038603798 0.054192178 0.53261811 4278190335
0.038867623 0.054207839 0.53304255 4278190335
0.039131448 0.054223504 0.53346699 4278190335
0.039395276 0.054239165 0.53389144 4278190335
0.039659102 0.054254826 0.53431588 4278190335
0.039922927 0.054270491 0.53474033 4278190335
0.040186752 0.054286152 0.53516471 4278190335
0.04045058 0.054301813 0.53558916 4278190335
0.040714405 0.054317474 0.5360136 4278190335
0.040978231 0.054333139 0.53643805 4278190335
0.041242056 0.0543488 0.53686249 4278190335
0.041505881 0.054364461 0.53728694 4278190335
0.041769706 0.054380126 0.53771138 4278190335
0.042033531 0.054395787 0.53813583 4278190335
0.042297356 0.054411449 0.53856027 4278190335
0.042561185 0.05442711 0.53898472 4278190335
0.04282501 0.054442775 0.53940916 4278190335
0.043088835 0.054458436 0.53983361 4278190335
0.04335266 0.054474097 0.54025805 4278190335
0.043616485 0.054489762 0.54068249 4278190335
0.043880314 0.054505423 0.54110694 4278190335
0.044144139 0.054521084 0.54153138 4278190335
0.044407964 0.054536745 0.54195583 4278190335
0.044671789 0.05455241 0.54238027 4278190335
0.044935614 0.054568071 0.54280472 4278190335
0.045199439 0.054583732 0.5432291 4278190335
0.045463264 0.054599397 0.54365355 4278190335
0.045727093 0.054615058 0.54407799 4278190335
0.045990918 0.054630719 0.54450244 4278190335
0.046254743 0.05464638 0.54492688 4278190335
0.046518568 0.054662045 0.54535133 4278190335
0.046782393 0.054677706 0.54577577 4278190335
0.047046222 0.054693367 0.54620022 4278190335
0.047310047 0.054709028 0.54662466 4278190335
0.047573872 0.054724693 0.54704911 4278190335
0.047837697 0.054740354 0.54747355 4278190335
0.02145513 0.053174138 0.50502938 4294967295
0.019872176 0.053080164 0.50248271 4294967295
0.018289221 0.052986193 0.49993607 4294967295
0.016706267 0.052892219 0.49738944 4294967295
0.015123314 0.052798245 0.49484277 4294967295
0.01354036 0.052704275 0.49229613 4294967295
0.011957406 0.0526103 0.48974949 4294967295
0.010374452 0.052516326 0.48720282 4294967295
0.0087914988 0.052422352 0.48465618 4294967295
0.0072085438 0.052328382 0.48210952 4294967295
0.0056255907 0.052234408 0.47956288 4294967295
0.0040426366 0.052140433 0.47701624 4294967295
0.0024596825 0.052046463 0.47446957 4294967295
0.00087672845 0.051952489 0.47192293 4294967295
-0.00070622563 0.051858515 0.46937627 4294967295
-0.0022891797 0.05176454 0.46682963 4294967295
-0.0038721319 0.05167057 0.46428299 4294967295
-0.0054550879 0.051576596 0.46173632 4294967295
-0.0070380419 0.051482622 0.45918968 4294967295
-0.0086209942 0.051388651 0.45664302 4294967295
-0.010203948 0.051294677 0.45409638 4294967295
-0.011786902 0.051200703 0.45154974 4294967295
-0.013369856 0.051106732 0.44900307 4294967295
-0.01495281 0.051012758 0.44645643 4294967295
-0.016535765 0.050918784 0.44390976 4294967295
-0.018118719 0.050824814 0.44136313 4294967295
-0.019701673 0.050730839 0.43881649 4294967295
-0.021284627 0.050636865 0.43626982 4294967295
-0.022867581 0.050542891 0.43372318 4294967295
-0.024450531 0.050448921 0.43117654 4294967295
-0.026033489 0.050354946 0.42862988 4294967295
-0.027616443 0.050260972 0.42608321 4294967295
-0.029199393 0.050167002 0.42353657 4294967295
-0.030782351 0.050073028 0.42098993 4294967295
-0.032365307 0.049979053 0.41844326 4294967295
-0.033948258 0.049885079 0.41589662 4294967295
-0.035531215 0.049791109 0.41334999 4294967295
-0.037114166 0.049697135 0.41080332 4294967295
-0.038697116 0.04960316 0.40825668 4294967295
-0.040280074 0.04950919 0.40571004 4294967295
-0.041863024 0.049415216 0.40316337 4294967295
-0.043445982 0.049321242 0.40061674 4294967295
-0.045028932 0.049227271 0.39807007 4294967295
-0.04661189 0.049133297 0.39552343 4294967295
-0.048194841 0.049039323 0.39297676 4294967295
-0.049777791 0.048945352 0.39043012 4294967295
-0.051360749 0.048851378 0.38788348 4294967295
-0.052943707 0.048757404 0.38533682 4294967295
-0.054526657 0.04866343 0.38279018 4294967295
-0.056109615 0.048569459 0.38024351 4294967295
-0.057692565 0.048475485 0.37769687 4294967295
-0.059275515 0.048381511 0.3751502 4294967295
-0.060858473 0.048287541 0.3726036 4294967295
-0.062441424 0.048193567 0.37005693 4294967295
-0.064024381 0.048099592 0.36751026 4294967295
-0.065607339 0.048005618 0.36496362 4294967295
-0.067190289 0.047911648 0.36241698 4294967295
-0.06877324 0.047817674 0.35987031 4294967295
-0.07035619 0.047723703 0.35732368 4294967295
-0.071939148 0.047629729 0.35477704 4294967295
-0.073522106 0.047535755 0.35223037 4294967295
-0.075105064 0.047441781 0.3496837 4294967295
-0.076688014 0.04734781 0.34713706 4294967295
-0.078270964 0.047253836 0.34459043 4294967295
-0.079853915 0.047159862 0.34204376 4294967295
-0.081436872 0.047065891 0.33949712 4294967295
-0.08301983 0.046971917 0.33695048 4294967295
-0.084602788 0.046877943 0.33440381 4294967295
-0.086185738 0.046783969 0.33185714 4294967295
-0.087768689 0.046689998 0.32931054 4294967295
-0.089351639 0.046596024 0.32676387 4294967295
-0.090934597 0.04650205 0.32421723 4294967295
-0.092517555 0.04640808 0.32167056 4294967295
-0.094100505 0.046314105 0.31912392 4294967295
-0.095683463 0.046220131 0.31657726 4294967295
-0.097266413 0.046126157 0.31403062 4294967295
-0.098849364 0.046032187 0.31148398 4294967295
-0.10043232 0.045938212 0.30893731 4294967295
-0.10201527 0.045844242 0.30639067 4294967295
-0.10359823 0.045750268 0.303844 4294967295
-0.10518118 0.045656294 0.30129737 4294967295
-0.10676413 0.045562319 0.2987507 4294967295
-0.1083471 0.045468349 0.29620409 4294967295
-0.10993005 0.045374375 0.29365742 4294967295
-0.111513 0.045280401 0.29111075 4294967295
-0.11309596 0.04518643 0.28856412 4294967295
-0.11467891 0.045092456 0.28601748 4294967295
-0.11626186 0.044998482 0.28347081 4294967295
-0.11784481 0.044904508 0.28092417 4294967295
-0.11942776 0.044810537 0.27837753 4294967295
-0.12101071 0.044716563 0.27583086 4294967295
-0.12259368 0.044622589 0.2732842 4294967295
-0.12417663 0.044528618 0.27073756 4294967295
-0.12575959 0.044434644 0.26819092 4294967295
-0.12734255 0.04434067 0.26564425 4294967295
-0.1289255 0.044246696 0.26309761 4294967295
-0.13050845 0.044152725 0.26055098 4294967295
-0.13209142 0.044058751 0.25800431 4294967295
-0.13367437 0.043964777 0.25545764 4294967295
-0.13525732 0.043870807 0.252911 4294967295
-0.13684027 0.043776833 0.25036436 4294967295
