# .PCD v0.7 - Point Cloud Data file format
VERSION 0.7
FIELDS x y z rgb
SIZE 4 4 4 4
TYPE F F F U
COUNT 1 1 1 1
WIDTH 852
HEIGHT 1
VIEWPOINT 0 0 0 1 0 0 0
POINTS 852
DATA ascii
0.065471902 -0.059724875 0.45700002 4286093191
0.066956237 -0.059724875 0.45700002 4286159497
0.062366456 -0.058112599 0.45600003 4286224777
0.063847549 -0.058112599 0.45600003 4283793000
0.065328635 -0.058112599 0.45600003 4282017357
0.066956237 -0.058240037 0.45700002 4280901440
0.068440571 -0.058240037 0.45700002 4280506684
0.059274007 -0.056506816 0.45500001 4286422156
0.060751848 -0.056506816 0.45500001 4282805851
0.062229685 -0.056506816 0.45500001 4281821263
0.06370753 -0.056506816 0.45500001 4280507963
0.065328635 -0.05663101 0.45600003 4280377145
0.066809729 -0.05663101 0.45600003 4279326508
0.068290815 -0.05663101 0.45600003 4279852852
0.056070771 -0.054786589 0.45300001 4286356363
0.057542115 -0.054786589 0.45300001 4283069793
0.059143737 -0.054907534 0.45400003 4281821776
0.06061833 -0.054907534 0.45400003 4279785521
0.062092919 -0.054907534 0.45400003 4279523887
0.06370753 -0.055028476 0.45500001 4279721264
0.065185368 -0.055028476 0.45500001 4279523885
0.066809729 -0.055149417 0.45600003 4279063334
0.068290815 -0.055149417 0.45600003 4279523885
0.054599427 -0.053314749 0.45300001 4283332449
0.056070771 -0.053314749 0.45300001 4281623884
0.057542115 -0.053314749 0.45300001 4280311867
0.05901346 -0.053314749 0.45300001 4279721012
0.060484808 -0.053314749 0.45300001 4279327789
0.062092919 -0.053432442 0.45400003 4279327789
0.063567512 -0.053432442 0.45400003 4279130408
0.065042108 -0.053432442 0.45400003 4279196201
0.066663213 -0.053550132 0.45500001 4279327019
0.068141051 -0.053550132 0.45500001 4279392299
0.069771901 -0.053667828 0.45600003 4280635702
0.050074611 -0.051728461 0.45200002 4285632640
0.051542707 -0.051728461 0.45200002 4283858793
0.053010803 -0.051728461 0.45200002 4282017870
0.054478899 -0.051728461 0.45200002 4279785523
0.055946995 -0.051728461 0.45200002 4279786805
0.057288069 -0.051614016 0.45100003 4279327791
0.05888319 -0.051728461 0.45200002 4278933544
0.06035129 -0.051728461 0.45200002 4278867749
0.061819382 -0.051728461 0.45200002 4279130921
0.063427493 -0.051842902 0.45300001 4279261224
0.064898841 -0.051842902 0.45300001 4278734880
0.066516705 -0.051957346 0.45400003 4278536478
0.068141051 -0.052071787 0.45500001 4280310584
0.069771901 -0.052186236 0.45600003 4283727207
0.049963828 -0.050148673 0.45100003 4281820491
0.051314641 -0.050037477 0.45000002 4280442940
0.052776244 -0.050037477 0.45000002 4279786293
0.054237843 -0.050037477 0.45000002 4279393584
0.055699442 -0.050037477 0.45000002 4279130410
0.057161041 -0.050037477 0.45000002 4279130410
0.058622643 -0.050037477 0.45000002 4278933031
0.060217768 -0.050148673 0.45100003 4279130408
0.061682615 -0.050148673 0.45100003 4279129638
0.063287482 -0.050259866 0.45200002 4278996257
0.064755581 -0.050259866 0.45200002 4278203662
0.066370189 -0.050371058 0.45300001 4279323176
0.067991294 -0.050482254 0.45400003 4280572989
0.046721261 -0.048359491 0.44800001 4282805851
0.048176363 -0.048359491 0.44800001 4280508479
0.049631473 -0.048359491 0.44800001 4279523119
0.051086575 -0.048359491 0.44800001 4279130925
0.052541681 -0.048359491 0.44800001 4279460658
0.053996786 -0.048359491 0.44800001 4278868519
0.055451889 -0.048359491 0.44800001 4278933542
0.056906991 -0.048359491 0.44800001 4278998822
0.0583621 -0.048359491 0.44800001 4279063845
0.059950728 -0.048467435 0.44900003 4279063332
0.061545841 -0.048575379 0.45000002 4278204943
0.063007444 -0.048575379 0.45000002 4279584549
0.064612314 -0.048683327 0.45100003 4279716135
0.066223674 -0.048791271 0.45200002 4280374580
0.06784153 -0.048899215 0.45300001 4280373043
0.046616975 -0.046799198 0.44700003 4280837698
0.048068829 -0.046799198 0.44700003 4279459377
0.049409904 -0.046694499 0.44600001 4279262509
0.050744478 -0.046589803 0.44500002 4279000105
0.052189842 -0.046589803 0.44500002 4278736933
0.053755727 -0.046694499 0.44600001 4278933542
0.055204336 -0.046694499 0.44600001 4278604577
0.056652941 -0.046694499 0.44600001 4278998052
0.058231827 -0.046799198 0.44700003 4278996257
0.059683688 -0.046799198 0.44700003 4278598421
0.061272305 -0.046903893 0.44800001 4279716135
0.062867433 -0.047008589 0.44900003 4280374578
0.064469047 -0.047113284 0.45000002 4279123998
0.066077165 -0.047217984 0.45100003 4280440373
0.067691766 -0.047322679 0.45200002 4283200863
0.046616975 -0.045346849 0.44700003 4279393584
0.047961291 -0.045245402 0.44600001 4279131693
0.049077548 -0.04494106 0.44300002 4279131691
0.050516412 -0.04494106 0.44300002 4278210589
0.051955279 -0.04494106 0.44300002 4279130921
0.053394143 -0.04494106 0.44300002 4278406687
0.054956786 -0.045042507 0.44400004 4279260199
0.056398895 -0.045042507 0.44400004 4278202378
0.057971284 -0.045143954 0.44500002 4279716902
0.059550162 -0.045245402 0.44600001 4279453730
0.061135538 -0.045346849 0.44700003 4279387683
0.062727414 -0.045448296 0.44800001 4280966463
0.064325787 -0.045549743 0.44900003 4279650857
0.06593065 -0.04565119 0.45000002 4279715885
0.043548469 -0.042323332 0.43100002 4279262507
0.045156933 -0.04251973 0.43300003 4278999335
0.046670854 -0.042617925 0.43400002 4278604577
0.04863441 -0.043108914 0.43900001 4278933542
0.050174315 -0.043207116 0.44000003 4279064615
0.05160344 -0.043207116 0.44000003 4278998052
0.053153086 -0.043305311 0.44100001 4279061539
0.05470923 -0.04340351 0.44200003 4278203922
0.05627187 -0.043501709 0.44300002 4279650594
0.057710737 -0.043501709 0.44300002 4279256349
0.059283126 -0.043599907 0.44400004 4279124765
0.060998768 -0.043796301 0.44600001 4279190304
0.06244738 -0.043796301 0.44600001 4279848236
0.06418252 -0.043992698 0.44800001 4279650857
0.065784141 -0.044090897 0.44900003 4283331683
0.037244525 -0.040163375 0.42300001 4279786805
0.038801022 -0.040353276 0.42500001 4279327791
0.040275969 -0.040448226 0.42600003 4279000107
0.041855201 -0.040638123 0.42800003 4278736935
0.043447427 -0.040828019 0.43000001 4278736933
0.044948358 -0.04092297 0.43100002 4278868519
0.04656332 -0.041112866 0.43300003 4278735650
0.048302058 -0.041397713 0.43600002 4278734880
0.049832217 -0.04149266 0.43700001 4278931232
0.051368877 -0.041587614 0.43800002 4278203657
0.052912027 -0.04168256 0.43900001 4279520293
0.054461677 -0.04177751 0.44000003 4279586086
0.05601782 -0.041872457 0.44100001 4278861078
0.057580467 -0.041967407 0.44200003 4278663701
0.059149604 -0.042062357 0.44300002 4279584549
0.060862001 -0.042252254 0.44500002 4278663447
0.062307365 -0.042252254 0.44500002 4280110645
0.064039253 -0.04244215 0.44700003 4282806103
0.035616219 -0.03851391 0.42000002 4279983670
0.037156478 -0.03869731 0.42200002 4279263279
0.038618427 -0.038789008 0.42300001 4279132205
0.040181424 -0.038972408 0.42500001 4278408736
0.041757409 -0.039155807 0.42700002 4278606115
0.043346386 -0.039339207 0.42900002 4278671394
0.044844069 -0.039430905 0.43000001 4278604577
0.046455778 -0.039614305 0.43200001 4278800673
0.048080489 -0.039797705 0.43400002 4279062818
0.049718186 -0.039981104 0.43600002 4278599189
0.051251594 -0.040072802 0.43700001 4279520293
0.052791502 -0.040164504 0.43800002 4278862363
0.0543379 -0.040256202 0.43900001 4278993179
0.055890799 -0.040347904 0.44000003 4279321631
0.05745019 -0.040439606 0.44100001 4279716389
0.059016086 -0.040531304 0.44200003 4278992673
0.060725234 -0.040714704 0.44400004 4279913264
0.062307365 -0.040806405 0.44500002 4284384110
0.018513098 -0.035734076 0.40400001 4280109864
0.019825291 -0.035734076 0.40400001 4278800677
0.021137482 -0.035734076 0.40400001 4279787572
0.022449676 -0.035734076 0.40400001 4279916857
0.02936968 -0.036176328 0.40900001 4284319342
0.03077317 -0.036264781 0.41000003 4281427014
0.032339767 -0.03653013 0.41300002 4280311354
0.033844296 -0.036707032 0.41500002 4279525168
0.035446618 -0.036972385 0.41800001 4279460658
0.036980379 -0.037149288 0.42000002 4278540068
0.038527131 -0.037326187 0.42200002 4278408482
0.04008688 -0.03750309 0.42400002 4278606115
0.041659616 -0.037679993 0.42600003 4278211357
0.043245349 -0.037856892 0.42800003 4278341659
0.044739779 -0.037945341 0.42900002 4278800673
0.046348244 -0.038122244 0.43100002 4278398994
0.047969706 -0.038299147 0.43300003 4278199301
0.04949012 -0.038387597 0.43400002 4280045100
0.051017039 -0.038476046 0.43500003 4278201868
0.052550443 -0.038564496 0.43600002 4278992925
0.054214124 -0.038741399 0.43800002 4278334995
0.05576377 -0.038829848 0.43900001 4278334482
0.057319921 -0.038918301 0.44000003 4279848234
0.058882561 -0.039006751 0.44100001 4279714602
0.019825291 -0.034421436 0.40400001 4279391017
0.021137482 -0.034421436 0.40400001 4278734882
0.022505244 -0.034506641 0.40500003 4279130923
0.023820685 -0.034506641 0.40500003 4279393843
0.025198191 -0.034591842 0.40600002 4279458871
0.026516879 -0.034591842 0.40600002 4279655480
0.02936968 -0.034847446 0.40900001 4279917107
0.03077317 -0.034932647 0.41000003 4279458607
0.032339767 -0.035188254 0.41300002 4279459375
0.033762742 -0.035273455 0.41400003 4279591472
0.035361819 -0.035529058 0.41700003 4278868519
0.036892332 -0.035699464 0.41900003 4278539808
0.038435835 -0.035869867 0.42100003 4278474015
0.039992332 -0.036040269 0.42300001 4278538525
0.041561823 -0.036210671 0.42500001 4278735134
0.043144308 -0.036381073 0.42700002 4278927134
0.044635493 -0.036466278 0.42800003 4278199049
0.046240706 -0.036636677 0.43000001 4278527250
0.04785892 -0.036807083 0.43200001 4279778596
0.049376089 -0.036892284 0.43300003 4278198789
0.050899755 -0.036977485 0.43400002 4279582498
0.052429914 -0.03706269 0.43500003 4279189791
0.054090347 -0.037233088 0.43700001 4278663447
0.055636749 -0.037318293 0.43800002 4279913514
0.057189647 -0.037403494 0.43900001 4279913262
0.019874364 -0.033190753 0.40500003 4278861080
0.021189803 -0.033190753 0.40500003 4278271251
0.022505244 -0.033190753 0.40500003 4278800927
0.023820685 -0.033190753 0.40500003 4278802210
0.025198191 -0.033272706 0.40600002 4279129642
0.026582189 -0.033354659 0.40700001 4283734639
0.027972691 -0.033436611 0.40800002 4281497675
0.02936968 -0.033518564 0.40900001 4279984951
0.03077317 -0.033600517 0.41000003 4279329072
0.032261461 -0.033764422 0.41200003 4279394863
0.033762742 -0.033928327 0.41400003 4278933796
0.035277016 -0.034092229 0.41600001 4278868003
0.036804281 -0.034256134 0.41800001 4278209046
0.03834454 -0.03442004 0.42000002 4278204939
0.039897792 -0.034583945 0.42200002 4279653674
0.041464031 -0.03474785 0.42400002 4278202121
0.043043267 -0.034911755 0.42600003 4278658064
0.044635493 -0.035075661 0.42800003 4278987031
0.046133172 -0.035157613 0.42900002 4279184410
0.047748134 -0.035321519 0.43100002 4280963124
0.049262054 -0.035403471 0.43200001 4278331663
0.050899755 -0.035567377 0.43400002 4278595351
0.052429914 -0.035649329 0.43500003 4279452965
0.053966571 -0.035731282 0.43600002 4279913516
0.05550972 -0.035813231 0.43700001 4282346324
0.019874364 -0.031874865 0.40500003 4279582236
0.021189803 -0.031874865 0.40500003 4278795798
0.022505244 -0.031874865 0.40500003 4278337812
0.023879502 -0.03195357 0.40600002 4278733853
0.025198191 -0.03195357 0.40600002 4278537501
0.026582189 -0.03203227 0.40700001 4278735650
0.027972691 -0.032110974 0.40800002 4278342943
0.02936968 -0.032189678 0.40900001 4278277663
0.030848226 -0.032347083 0.41100001 4278672167
0.032261461 -0.032425791 0.41200003 4278343456
0.033762742 -0.032583196 0.41400003 4278802210
0.035277016 -0.0327406 0.41600001 4278670111
0.036804281 -0.032898009 0.41800001 4278931486
0.03834454 -0.033055414 0.42000002 4278797593
0.039897792 -0.033212822 0.42200002 4278200331
0.041464031 -0.03337023 0.42400002 4278789650
0.043043267 -0.033527635 0.42600003 4280038690
0.044531204 -0.033606339 0.42700002 4279250201
0.046133172 -0.033763744 0.42900002 4278856726
0.047637347 -0.033842448 0.43000001 4279977002
0.049262054 -0.033999857 0.43200001 4278661142
0.050782476 -0.034078561 0.43300003 4279583527
0.052309386 -0.034157261 0.43400002 4279781676
0.053842794 -0.034235965 0.43500003 4284121965
0.019923436 -0.030634433 0.40600002 4279713820
0.021242123 -0.030634433 0.40600002 4278992664
0.022560813 -0.030634433 0.40600002 4278797082
0.023938317 -0.030709887 0.40700001 4278666777
0.025260255 -0.030709887 0.40700001 4278339349
0.026647503 -0.030785341 0.40800002 4278997279
0.028041249 -0.030860795 0.40900001 4278669339
0.029441491 -0.03093625 0.41000003 4278670363
0.030848226 -0.031011704 0.41100001 4278868001
0.032339767 -0.031162612 0.41300002 4278802210
0.033844296 -0.03131352 0.41500002 4278604064
0.035361819 -0.031464431 0.41700003 4278734880
0.036892332 -0.031615339 0.41900003 4279192355
0.03834454 -0.031690791 0.42000002 4278533398
0.039897792 -0.031841703 0.42200002 4278594576
0.041464031 -0.031992611 0.42400002 4279249685
0.042942226 -0.032068063 0.42500001 4279380760
0.044531204 -0.032218974 0.42700002 4278788623
0.046133172 -0.032369882 0.42900002 4279251484
0.047637347 -0.032445334 0.43000001 4280108842
0.049148023 -0.03252079 0.43100002 4279846953
0.050782476 -0.032671697 0.43300003 4279583781
0.052188858 -0.032671697 0.43300003 4286028681
0.019972509 -0.029387502 0.40700001 4279319576
0.021294443 -0.029387502 0.40700001 4278992664
0.022616381 -0.029387502 0.40700001 4278797082
0.023938317 -0.029387502 0.40700001 4278863388
0.02532232 -0.029459707 0.40800002 4278996255
0.026712814 -0.029531913 0.40900001 4278997279
0.028109811 -0.029604118 0.41000003 4278866720
0.029513298 -0.029676324 0.41100001 4279064099
0.030923283 -0.029748529 0.41200003 4279064097
0.032418072 -0.02989294 0.41400003 4278998304
0.033844296 -0.029965144 0.41500002 4278865953
0.035361819 -0.030109555 0.41700003 4278865439
0.036892332 -0.030253965 0.41900003 4278731291
0.038435835 -0.030398376 0.42100003 4279979307
0.039897792 -0.03047058 0.42200002 4278858007
0.041464031 -0.030614991 0.42400002 4279250971
0.042942226 -0.030687196 0.42500001 4278722830
0.044531204 -0.030831605 0.42700002 4279644445
0.046025638 -0.030903812 0.42800003 4280241198
0.047526564 -0.030976016 0.42900002 4279649572
0.049148023 -0.031120427 0.43100002 4281687620
0.018650571 -0.028065117 0.40700001 4279513363
0.019972509 -0.028065117 0.40700001 4279255066
0.021294443 -0.028065117 0.40700001 4278993177
0.022671949 -0.028134074 0.40800002 4278797082
0.023997135 -0.028134074 0.40800002 4278797595
0.025384383 -0.028203029 0.40900001 4279193888
0.026778128 -0.028271988 0.41000003 4279128095
0.028178371 -0.028340943 0.41100001 4279392551
0.029585108 -0.0284099 0.41200003 4279261478
0.03099834 -0.028478855 0.41300002 4279063584
0.032496374 -0.028616767 0.41500002 4279392035
0.033925846 -0.028685723 0.41600001 4278930716
0.035446618 -0.028823635 0.41800001 4279193888
0.036892332 -0.028892592 0.41900003 4278202120
0.038435835 -0.029030504 0.42100003 4278730007
0.039897792 -0.029099459 0.42200002 4278854929
0.041464031 -0.029237373 0.42400002 4278394380
0.042942226 -0.029306328 0.42500001 4279977004
0.044426914 -0.029375285 0.42600003 4279913775
0.046025638 -0.029513197 0.42800003 4279321125
0.047526564 -0.029582152 0.42900002 4284779893
0.018696396 -0.026808441 0.40800002 4280039705
0.020021582 -0.026808441 0.40800002 4279255066
0.021346765 -0.026808441 0.40800002 4279058970
0.022727517 -0.026874147 0.40900001 4278666009
0.02405595 -0.026874147 0.40900001 4278995742
0.025446448 -0.026939856 0.41000003 4279391267
0.02684344 -0.027005563 0.41100001 4278864923
0.028246932 -0.027071269 0.41200003 4279392551
0.029656915 -0.027136976 0.41300002 4279261478
0.031073397 -0.027202684 0.41400003 4278800673
0.032496374 -0.027268389 0.41500002 4279129125
0.0340074 -0.027399804 0.41700003 4279063072
0.035446618 -0.027465511 0.41800001 4279194658
0.036892332 -0.027531218 0.41900003 4278795287
0.038435835 -0.027662633 0.42100003 4278199302
0.039897792 -0.02772834 0.42200002 4278922519
0.041366238 -0.027794044 0.42300001 4280240176
0.042841185 -0.027859753 0.42400002 4279716398
0.044426914 -0.027991166 0.42600003 4282281042
0.018696396 -0.025482807 0.40800002 4280040989
0.020070653 -0.025545266 0.40900001 4279124250
0.021399084 -0.025545266 0.40900001 4279190556
0.022727517 -0.025545266 0.40900001 4278994459
0.024114769 -0.025607724 0.41000003 4279127328
0.025508514 -0.025670182 0.41100001 4278997025
0.026908753 -0.02573264 0.41200003 4278997279
0.028315492 -0.025795097 0.41300002 4279392037
0.029728726 -0.025857557 0.41400003 4279195172
0.031148452 -0.025920013 0.41500002 4279195431
0.03257468 -0.025982469 0.41600001 4278800673
0.0340074 -0.026044929 0.41700003 4278866207
0.035446618 -0.026107386 0.41800001 4278996255
0.036892332 -0.026169846 0.41900003 4279650855
0.03834454 -0.026232302 0.42000002 4279716648
0.039803248 -0.02629476 0.42100003 4279716135
0.041366238 -0.026419675 0.42300001 4280570674
0.042841185 -0.026482133 0.42400002 4285568382
0.017413788 -0.024216382 0.40900001 4280039707
0.01874222 -0.024216382 0.40900001 4279647516
0.020070653 -0.024216382 0.40900001 4279190045
0.021399084 -0.024216382 0.40900001 4279058972
0.022783088 -0.024275592 0.41000003 4278928668
0.024173584 -0.024334799 0.41100001 4279258916
0.025508514 -0.024334799 0.41100001 4279194404
0.026908753 -0.024394009 0.41200003 4279260197
0.028315492 -0.024453219 0.41300002 4279655209
0.029728726 -0.024512429 0.41400003 4279260451
0.031148452 -0.024571637 0.41500002 4279721262
0.032652985 -0.024690054 0.41700003 4278734369
0.034088951 -0.024749262 0.41800001 4278800160
0.03553142 -0.024808472 0.41900003 4278469398
0.036892332 -0.024808472 0.41900003 4279586086
0.03834454 -0.02486768 0.42000002 4279454500
0.039803248 -0.02492689 0.42100003 4281885001
0.017413788 -0.0228875 0.40900001 4279842326
0.01874222 -0.0228875 0.40900001 4279451164
0.020119727 -0.022943461 0.41000003 4279190558
0.021451406 -0.022943461 0.41000003 4279059742
0.022838654 -0.022999419 0.41100001 4279060767
0.024173584 -0.022999419 0.41100001 4279390502
0.025570579 -0.02305538 0.41200003 4278931232
0.026974065 -0.02311134 0.41300002 4279063332
0.028384054 -0.023167299 0.41400003 4279523883
0.029800532 -0.023223259 0.41500002 4279129379
0.031223508 -0.023279218 0.41600001 4279392297
0.032652985 -0.023335177 0.41700003 4279194406
0.034088951 -0.023391137 0.41800001 4279325222
0.03553142 -0.023447098 0.41900003 4278533398
0.036892332 -0.023447098 0.41900003 4281031227
0.039803248 -0.023559017 0.42100003 4285962372
0.04107286 -0.023503058 0.42000002 4286159497
0.017413788 -0.021558616 0.40900001 4279976481
0.018788045 -0.021611327 0.41000003 4279320861
0.020119727 -0.021611327 0.41000003 4279058972
0.021503726 -0.021664038 0.41100001 4278928154
0.022838654 -0.021664038 0.41100001 4279323426
0.024232401 -0.021716749 0.41200003 4279390502
0.025570579 -0.021716749 0.41200003 4278602269
0.026974065 -0.021769458 0.41300002 4279326506
0.028384054 -0.021822169 0.41400003 4279327017
0.029800532 -0.02187488 0.41500002 4278866466
0.031223508 -0.02192759 0.41600001 4279983922
0.032652985 -0.021980301 0.41700003 4279456810
0.034088951 -0.022033012 0.41800001 4280507188
0.03553142 -0.022085723 0.41900003 4282214986
0.036892332 -0.022085723 0.41900003 4286160519
0.03834454 -0.022138434 0.42000002 4285896577
0.016085355 -0.020229734 0.40900001 4280105246
0.017413788 -0.020229734 0.40900001 4279516957
0.018788045 -0.020279195 0.41000003 4279124252
0.020168798 -0.020328658 0.41100001 4279058970
0.021503726 -0.020328658 0.41100001 4279190556
0.022894224 -0.020378118 0.41200003 4279389219
0.024232401 -0.020378118 0.41200003 4279587881
0.025632642 -0.020427579 0.41300002 4278865955
0.027039379 -0.020477042 0.41400003 4279326506
0.028384054 -0.020477042 0.41400003 4279392297
0.029800532 -0.020526502 0.41500002 4279391783
0.031223508 -0.020575963 0.41600001 4280574776
0.032652985 -0.020625426 0.41700003 4280507702
0.034088951 -0.020674886 0.41800001 4285305208
0.035446618 -0.020674886 0.41800001 4286488201
0.014720841 -0.018854639 0.40800002 4279643930
0.016085355 -0.018900851 0.40900001 4279842590
0.017456364 -0.018947065 0.41000003 4279188762
0.018788045 -0.018947065 0.41000003 4279255068
0.020168798 -0.018993275 0.41100001 4279124763
0.021503726 -0.018993275 0.41100001 4279257119
0.022894224 -0.019039489 0.41200003 4279522088
0.024291217 -0.019085702 0.41300002 4279391015
0.025632642 -0.019085702 0.41300002 4279589678
0.027039379 -0.019131914 0.41400003 4279524398
0.028384054 -0.019131914 0.41400003 4278931746
0.029800532 -0.019178126 0.41500002 4280443190
0.031223508 -0.019224338 0.41600001 4281885769
0.032652985 -0.01927055 0.41700003 4286752656
0.018788045 -0.017614933 0.41000003 4279120920
0.020168798 -0.017657895 0.41100001 4279254814
0.021556048 -0.01770086 0.41200003 4279256867
0.022894224 -0.01770086 0.41200003 4279587113
0.024291217 -0.017743822 0.41300002 4279391015
0.025632642 -0.017743822 0.41300002 4279983152
0.027039379 -0.017786786 0.41400003 4279851568
0.028384054 -0.017786786 0.41400003 4280309555
0.020168798 -0.016322514 0.41100001 4286093695
0.021556048 -0.016362229 0.41200003 4283001683
0.022894224 -0.016362229 0.41200003 4280701497
0.027039379 -0.016441658 0.41400003 4284319342
0.041053452 -0.035271112 0.42702675 4294967295
0.041053452 -0.035271112 0.42702675 4294901760
0.040833056 -0.03571441 0.42695665 4294901760
0.04061266 -0.036157705 0.42688656 4294901760
0.040392265 -0.036601003 0.42681646 4294901760
0.040171873 -0.037044302 0.42674637 4294901760
0.039951477 -0.0374876 0.42667627 4294901760
0.039731082 -0.037930895 0.42660618 4294901760
0.039510686 -0.038374193 0.42653608 4294901760
0.03929029 -0.038817491 0.42646599 4294901760
0.039069895 -0.039260786 0.42639589 4294901760
0.038849499 -0.039704084 0.4263258 4294901760
0.038629107 -0.040147383 0.42625567 4294901760
0.038408712 -0.040590681 0.42618558 4294901760
0.038188316 -0.041033976 0.42611548 4294901760
0.03796792 -0.041477274 0.42604539 4294901760
0.037747525 -0.041920573 0.42597529 4294901760
0.037527129 -0.042363867 0.4259052 4294901760
0.037306733 -0.042807166 0.4258351 4294901760
0.037086338 -0.043250464 0.42576501 4294901760
0.036865946 -0.043693759 0.42569491 4294901760
0.03664555 -0.044137057 0.42562482 4294901760
0.036425155 -0.044580355 0.42555472 4294901760
0.036204759 -0.04502365 0.42548463 4294901760
0.035984363 -0.045466952 0.42541453 4294901760
0.035763968 -0.045910247 0.42534444 4294901760
0.035543576 -0.046353545 0.42527434 4294901760
0.03532318 -0.04679684 0.42520425 4294901760
0.035102785 -0.047240138 0.42513415 4294901760
0.034882389 -0.047683436 0.42506406 4294901760
0.034661993 -0.048126735 0.42499396 4294901760
0.034441598 -0.048570029 0.42492384 4294901760
0.034221202 -0.049013328 0.42485374 4294901760
0.034000807 -0.049456626 0.42478365 4294901760
0.033780411 -0.049899921 0.42471355 4294901760
0.033560019 -0.050343219 0.42464346 4294901760
0.033339623 -0.050786518 0.42457336 4294901760
0.033119228 -0.051229812 0.42450327 4294901760
0.032898832 -0.051673114 0.42443317 4294901760
0.032678436 -0.052116409 0.42436308 4294901760
0.032458045 -0.052559704 0.42429298 4294901760
0.032237649 -0.053003006 0.42422289 4294901760
0.032017253 -0.0534463 0.42415279 4294901760
0.031796858 -0.053889595 0.4240827 4294901760
0.031576462 -0.054332897 0.4240126 4294901760
0.031356066 -0.054776192 0.42394251 4294901760
0.031135671 -0.05521949 0.42387241 4294901760
0.030915277 -0.055662788 0.42380232 4294901760
0.030694881 -0.056106083 0.42373222 4294901760
0.030474488 -0.056549381 0.42366213 4294901760
0.030254092 -0.05699268 0.42359203 4294901760
0.030033696 -0.057435974 0.42352194 4294901760
0.029813301 -0.057879273 0.42345181 4294901760
0.029592907 -0.058322571 0.42338172 4294901760
0.029372511 -0.058765866 0.42331162 4294901760
0.029152116 -0.059209168 0.42324153 4294901760
0.028931722 -0.059652463 0.42317143 4294901760
0.028711326 -0.060095761 0.42310134 4294901760
0.028490931 -0.060539059 0.42303124 4294901760
0.028270535 -0.060982354 0.42296115 4294901760
0.028050141 -0.061425649 0.42289105 4294901760
0.027829744 -0.061868951 0.42282096 4294901760
0.02760935 -0.062312245 0.42275086 4294901760
0.027388956 -0.06275554 0.42268077 4294901760
0.027168561 -0.063198842 0.42261067 4294901760
0.026948165 -0.063642137 0.42254058 4294901760
0.02672777 -0.064085439 0.42247048 4294901760
0.026507374 -0.064528733 0.42240039 4294901760
0.026286978 -0.064972028 0.42233029 4294901760
0.026066585 -0.06541533 0.4222602 4294901760
0.025846191 -0.065858625 0.4221901 4294901760
0.025625795 -0.06630192 0.42211998 4294901760
0.0254054 -0.066745222 0.42204988 4294901760
0.025185004 -0.067188516 0.42197978 4294901760
0.024964608 -0.067631811 0.42190969 4294901760
0.024744214 -0.068075113 0.42183959 4294901760
0.024523819 -0.068518408 0.4217695 4294901760
0.024303423 -0.06896171 0.4216994 4294901760
0.024083029 -0.069405004 0.42162931 4294901760
0.023862634 -0.069848299 0.42155921 4294901760
0.023642238 -0.070291594 0.42148912 4294901760
0.023421843 -0.070734896 0.42141902 4294901760
0.023201449 -0.071178198 0.42134893 4294901760
0.022981053 -0.071621493 0.42127883 4294901760
0.022760658 -0.072064787 0.42120874 4294901760
0.022540264 -0.072508082 0.42113864 4294901760
0.022319868 -0.072951384 0.42106855 4294901760
0.022099473 -0.073394679 0.42099845 4294901760
0.021879077 -0.073837981 0.42092836 4294901760
0.021658683 -0.074281275 0.42085826 4294901760
0.021438288 -0.07472457 0.42078817 4294901760
0.021217892 -0.075167865 0.42071807 4294901760
0.020997496 -0.075611167 0.42064795 4294901760
0.020777103 -0.076054469 0.42057785 4294901760
0.020556707 -0.076497763 0.42050776 4294901760
0.020336311 -0.076941058 0.42043766 4294901760
0.020115918 -0.077384353 0.42036757 4294901760
0.019895522 -0.077827647 0.42029747 4294901760
0.019675126 -0.078270949 0.42022738 4294901760
0.019454731 -0.078714252 0.42015728 4294901760
0.019234337 -0.079157546 0.42008719 4294901760
0.019013941 -0.079600841 0.42001709 4294901760
0.041053452 -0.035271112 0.42702675 4278255360
0.041356485 -0.035475701 0.42736781 4278255360
0.041659519 -0.03568029 0.42770883 4278255360
0.041962553 -0.035884876 0.42804989 4278255360
0.042265587 -0.036089465 0.42839095 4278255360
0.04256862 -0.036294054 0.42873198 4278255360
0.042871654 -0.036498643 0.42907304 4278255360
0.043174688 -0.036703229 0.42941409 4278255360
0.043477722 -0.036907818 0.42975515 4278255360
0.043780752 -0.037112407 0.43009618 4278255360
0.044083785 -0.037316997 0.43043724 4278255360
0.044386819 -0.037521586 0.43077829 4278255360
0.044689853 -0.037726171 0.43111932 4278255360
0.044992886 -0.037930761 0.43146038 4278255360
0.04529592 -0.03813535 0.43180144 4278255360
0.045598954 -0.038339939 0.4321425 4278255360
0.045901988 -0.038544524 0.43248352 4278255360
0.046205021 -0.038749114 0.43282458 4278255360
0.046508055 -0.038953703 0.43316564 4278255360
0.046811089 -0.039158292 0.43350667 4278255360
0.047114123 -0.039362881 0.43384773 4278255360
0.047417156 -0.039567467 0.43418878 4278255360
0.04772019 -0.039772056 0.43452981 4278255360
0.048023224 -0.039976645 0.43487087 4278255360
0.048326254 -0.040181234 0.43521193 4278255360
0.048629291 -0.04038582 0.43555295 4278255360
0.048932321 -0.040590409 0.43589401 4278255360
0.049235359 -0.040794998 0.43623507 4278255360
0.049538389 -0.040999588 0.43657613 4278255360
0.049841423 -0.041204177 0.43691716 4278255360
0.050144456 -0.041408762 0.43725821 4278255360
0.05044749 -0.041613352 0.43759927 4278255360
0.050750524 -0.041817941 0.4379403 4278255360
0.051053558 -0.04202253 0.43828136 4278255360
0.051356591 -0.042227119 0.43862242 4278255360
0.051659625 -0.042431705 0.43896347 4278255360
0.051962659 -0.042636294 0.4393045 4278255360
0.052265693 -0.042840883 0.43964556 4278255360
0.052568726 -0.043045472 0.43998662 4278255360
0.052871756 -0.043250058 0.44032764 4278255360
0.053174794 -0.043454647 0.4406687 4278255360
0.053477824 -0.043659236 0.44100976 4278255360
0.053780857 -0.043863826 0.44135079 4278255360
0.054083891 -0.044068411 0.44169185 4278255360
0.054386925 -0.044273 0.4420329 4278255360
0.054689959 -0.044477589 0.44237393 4278255360
0.054992992 -0.044682179 0.44271499 4278255360
0.055296026 -0.044886768 0.44305605 4278255360
0.05559906 -0.045091353 0.4433971 4278255360
0.055902094 -0.045295943 0.44373813 4278255360
0.056205127 -0.045500532 0.44407919 4278255360
0.056508161 -0.045705121 0.44442025 4278255360
0.056811191 -0.04590971 0.44476128 4278255360
0.057114229 -0.046114296 0.44510233 4278255360
0.057417262 -0.046318885 0.44544339 4278255360
0.057720296 -0.046523474 0.44578445 4278255360
0.058023326 -0.046728063 0.44612548 4278255360
0.058326364 -0.046932653 0.44646654 4278255360
0.058629394 -0.047137238 0.44680759 4278255360
0.058932427 -0.047341827 0.44714862 4278255360
0.059235461 -0.047546417 0.44748968 4278255360
0.059538499 -0.047751006 0.44783074 4278255360
0.059841529 -0.047955595 0.44817176 4278255360
0.060144562 -0.04816018 0.44851282 4278255360
0.060447596 -0.04836477 0.44885388 4278255360
0.06075063 -0.048569359 0.44919491 4278255360
0.061053663 -0.048773944 0.44953597 4278255360
0.061356697 -0.048978534 0.44987702 4278255360
0.061659731 -0.049183123 0.45021808 4278255360
0.061962765 -0.049387712 0.45055911 4278255360
0.062265798 -0.049592301 0.45090017 4278255360
0.062568828 -0.049796887 0.45124123 4278255360
0.062871866 -0.050001476 0.45158225 4278255360
0.063174903 -0.050206065 0.45192331 4278255360
0.063477933 -0.050410654 0.45226437 4278255360
0.063780963 -0.050615244 0.45260543 4278255360
0.064084001 -0.050819829 0.45294645 4278255360
0.064387031 -0.051024418 0.45328751 4278255360
0.064690068 -0.051229008 0.45362857 4278255360
0.064993098 -0.051433593 0.4539696 4278255360
0.065296136 -0.051638186 0.45431066 4278255360
0.065599166 -0.051842771 0.45465171 4278255360
0.065902203 -0.052047361 0.45499274 4278255360
0.066205233 -0.05225195 0.4553338 4278255360
0.066508263 -0.052456535 0.45567486 4278255360
0.066811301 -0.052661128 0.45601588 4278255360
0.067114338 -0.052865714 0.45635694 4278255360
0.067417368 -0.053070303 0.456698 4278255360
0.067720398 -0.053274892 0.45703906 4278255360
0.068023436 -0.053479478 0.45738009 4278255360
0.068326466 -0.053684067 0.45772114 4278255360
0.068629503 -0.053888656 0.4580622 4278255360
0.068932533 -0.054093245 0.45840323 4278255360
0.069235571 -0.054297835 0.45874429 4278255360
0.069538601 -0.05450242 0.45908535 4278255360
0.069841638 -0.054707009 0.4594264 4278255360
0.070144668 -0.054911599 0.45976743 4278255360
0.070447706 -0.055116188 0.46010849 4278255360
0.070750736 -0.055320777 0.46044955 4278255360
0.071053773 -0.055525362 0.46079057 4278255360
0.071356803 -0.055729952 0.46113163 4278255360
0.041053452 -0.035271112 0.42702675 4278190335
0.040718988 -0.035160955 0.42738172 4278190335
0.040384524 -0.035050794 0.42773667 4278190335
0.04005006 -0.034940638 0.42809165 4278190335
0.039715592 -0.034830481 0.42844659 4278190335
0.039381128 -0.034720324 0.42880157 4278190335
0.039046664 -0.034610167 0.42915651 4278190335
0.0387122 -0.034500007 0.42951149 4278190335
0.038377736 -0.03438985 0.42986646 4278190335
0.038043272 -0.034279693 0.43022141 4278190335
0.037708804 -0.034169532 0.43057638 4278190335
0.03737434 -0.034059376 0.43093133 4278190335
0.037039876 -0.033949219 0.43128631 4278190335
0.036705412 -0.033839062 0.43164128 4278190335
0.036370948 -0.033728905 0.43199623 4278190335
0.036036484 -0.033618744 0.4323512 4278190335
0.03570202 -0.033508588 0.43270615 4278190335
0.035367552 -0.033398431 0.43306112 4278190335
0.035033088 -0.03328827 0.43341607 4278190335
0.034698624 -0.033178113 0.43377104 4278190335
0.03436416 -0.033067957 0.43412602 4278190335
0.034029696 -0.0329578 0.43448097 4278190335
0.033695232 -0.032847643 0.43483594 4278190335
0.033360764 -0.032737482 0.43519089 4278190335
0.0330263 -0.032627326 0.43554586 4278190335
0.032691836 -0.032517169 0.43590081 4278190335
0.032357372 -0.032407008 0.43625578 4278190335
0.032022908 -0.032296851 0.43661076 4278190335
0.031688444 -0.032186694 0.4369657 4278190335
0.03135398 -0.032076538 0.43732068 4278190335
0.031019514 -0.031966377 0.43767563 4278190335
0.030685049 -0.03185622 0.4380306 4278190335
0.030350585 -0.031746063 0.43838558 4278190335
0.030016121 -0.031635907 0.43874052 4278190335
0.029681657 -0.031525746 0.4390955 4278190335
0.029347192 -0.031415589 0.43945044 4278190335
0.029012727 -0.031305432 0.43980542 4278190335
0.028678263 -0.031195275 0.44016036 4278190335
0.028343797 -0.031085117 0.44051534 4278190335
0.028009333 -0.030974958 0.44087031 4278190335
0.027674869 -0.030864801 0.44122526 4278190335
0.027340405 -0.030754644 0.44158024 4278190335
0.027005941 -0.030644486 0.44193518 4278190335
0.026671475 -0.030534327 0.44229016 4278190335
0.026337011 -0.03042417 0.44264513 4278190335
0.026002545 -0.030314013 0.44300008 4278190335
0.025668081 -0.030203855 0.44335505 4278190335
0.025333617 -0.030093696 0.44371 4278190335
0.024999153 -0.029983539 0.44406497 4278190335
0.024664687 -0.029873382 0.44441992 4278190335
0.024330223 -0.029763224 0.4447749 4278190335
0.023995759 -0.029653065 0.44512987 4278190335
0.023661295 -0.029542908 0.44548482 4278190335
0.023326831 -0.029432751 0.44583979 4278190335
0.022992363 -0.029322593 0.44619474 4278190335
0.022657899 -0.029212434 0.44654971 4278190335
0.022323435 -0.029102277 0.44690466 4278190335
0.021988971 -0.02899212 0.44725963 4278190335
0.021654507 -0.028881961 0.44761461 4278190335
0.021320043 -0.028771805 0.44796956 4278190335
0.020985577 -0.028661646 0.44832453 4278190335
0.020651111 -0.028551489 0.44867948 4278190335
0.020316647 -0.02844133 0.44903445 4278190335
0.019982183 -0.028331172 0.44938943 4278190335
0.019647719 -0.028221015 0.44974437 4278190335
0.019313255 -0.028110858 0.45009935 4278190335
0.018978789 -0.028000699 0.45045429 4278190335
0.018644325 -0.027890541 0.45080927 4278190335
0.01830986 -0.027780384 0.45116422 4278190335
0.017975396 -0.027670227 0.45151919 4278190335
0.017640932 -0.027560068 0.45187417 4278190335
0.017306468 -0.02744991 0.45222911 4278190335
0.016972002 -0.027339753 0.45258409 4278190335
0.016637538 -0.027229596 0.45293903 4278190335
0.016303074 -0.027119437 0.45329401 4278190335
0.01596861 -0.027009279 0.45364898 4278190335
0.015634144 -0.026899122 0.45400393 4278190335
0.01529968 -0.026788965 0.45435891 4278190335
0.014965216 -0.026678806 0.45471385 4278190335
0.01463075 -0.026568647 0.45506883 4278190335
0.014296286 -0.026458491 0.45542377 4278190335
0.013961822 -0.026348334 0.45577875 4278190335
0.013627358 -0.026238175 0.45613372 4278190335
0.013292892 -0.026128016 0.45648867 4278190335
0.012958428 -0.02601786 0.45684364 4278190335
0.012623962 -0.025907703 0.45719859 4278190335
0.012289498 -0.025797544 0.45755357 4278190335
0.011955034 -0.025687385 0.45790851 4278190335
0.01162057 -0.025577229 0.45826349 4278190335
0.011286106 -0.025467072 0.45861846 4278190335
0.01095164 -0.025356913 0.45897341 4278190335
0.010617174 -0.025246754 0.45932838 4278190335
0.01028271 -0.025136597 0.45968333 4278190335
0.0099482462 -0.025026441 0.4600383 4278190335
0.0096137822 -0.024916282 0.46039325 4278190335
0.0092793182 -0.024806123 0.46074823 4278190335
0.0089448541 -0.024695966 0.4611032 4278190335
0.0086103864 -0.02458581 0.46145815 4278190335
0.0082759224 -0.024475651 0.46181312 4278190335
0.0079414584 -0.024365492 0.46216807 4278190335
0.0076069944 -0.024255335 0.46252304 4278190335
0.041053452 -0.035271112 0.42702675 4294967295
0.043060239 -0.035932057 0.42489699 4294967295
0.045067027 -0.036593005 0.42276719 4294967295
0.047073815 -0.03725395 0.42063743 4294967295
0.049080603 -0.037914898 0.41850764 4294967295
0.051087391 -0.038575843 0.41637787 4294967295
0.053094178 -0.039236791 0.41424808 4294967295
0.055100966 -0.039897736 0.41211832 4294967295
0.057107754 -0.040558685 0.40998852 4294967295
0.059114542 -0.041219629 0.40785876 4294967295
0.06112133 -0.041880578 0.40572897 4294967295
0.063128114 -0.042541523 0.4035992 4294967295
0.065134905 -0.043202471 0.40146941 4294967295
0.067141689 -0.043863416 0.39933965 4294967295
0.069148481 -0.044524364 0.39720985 4294967295
0.071155265 -0.045185309 0.39508009 4294967295
0.073162049 -0.045846254 0.3929503 4294967295
0.075168841 -0.046507202 0.39082053 4294967295
0.077175632 -0.047168151 0.38869074 4294967295
0.079182416 -0.047829095 0.38656098 4294967295
0.0811892 -0.048490044 0.38443118 4294967295
0.083195992 -0.049150988 0.38230142 4294967295
0.085202783 -0.049811937 0.38017163 4294967295
0.087209567 -0.050472882 0.37804186 4294967295
0.089216352 -0.051133826 0.37591207 4294967295
0.091223143 -0.051794775 0.37378231 4294967295
0.093229927 -0.052455723 0.37165251 4294967295
0.095236719 -0.053116668 0.36952275 4294967295
0.097243503 -0.053777613 0.36739296 4294967295
0.099250287 -0.054438561 0.36526319 4294967295
0.10125709 -0.05509951 0.3631334 4294967295
0.10326387 -0.055760454 0.36100364 4294967295
0.10527065 -0.056421399 0.35887384 4294967295
0.10727745 -0.057082348 0.35674408 4294967295
0.10928423 -0.057743296 0.35461429 4294967295
0.11129102 -0.058404237 0.35248452 4294967295
0.11329781 -0.059065185 0.35035473 4294967295
0.1153046 -0.059726134 0.34822497 4294967295
0.11731138 -0.060387079 0.3460952 4294967295
0.11931816 -0.061048023 0.34396541 4294967295
0.12132496 -0.061708972 0.34183562 4294967295
0.12333175 -0.06236992 0.33970585 4294967295
0.12533852 -0.063030869 0.33757609 4294967295
0.12734532 -0.06369181 0.3354463 4294967295
0.12935211 -0.064352758 0.3333165 4294967295
0.13135889 -0.065013707 0.33118674 4294967295
0.13336569 -0.065674648 0.32905698 4294967295
0.13537247 -0.066335596 0.32692719 4294967295
0.13737926 -0.066996545 0.32479739 4294967295
0.13938606 -0.067657493 0.32266763 4294967295
0.14139283 -0.068318442 0.32053787 4294967295
0.14339963 -0.068979383 0.31840807 4294967295
0.1454064 -0.069640331 0.31627831 4294967295
0.14741319 -0.070301279 0.31414852 4294967295
0.14941999 -0.07096222 0.31201875 4294967295
0.15142678 -0.071623176 0.30988896 4294967295
0.15343356 -0.072284117 0.30775917 4294967295
0.15544035 -0.072945058 0.3056294 4294967295
0.15744713 -0.073606014 0.30349964 4294967295
0.15945393 -0.074266955 0.30136985 4294967295
0.16146071 -0.074927904 0.29924005 4294967295
0.1634675 -0.075588852 0.29711029 4294967295
0.1654743 -0.076249793 0.29498053 4294967295
0.16748106 -0.076910742 0.29285073 4294967295
0.16948786 -0.07757169 0.29072094 4294967295
0.17149463 -0.078232631 0.28859121 4294967295
0.17350143 -0.078893587 0.28646141 4294967295
0.17550823 -0.079554528 0.28433162 4294967295
0.177515 -0.080215476 0.28220183 4294967295
0.1795218 -0.080876425 0.28007206 4294967295
0.1815286 -0.081537366 0.2779423 4294967295
0.18353537 -0.082198314 0.27581251 4294967295
0.18554217 -0.082859263 0.27368271 4294967295
0.18754897 -0.083520204 0.27155295 4294967295
0.18955573 -0.08418116 0.26942319 4294967295
0.19156253 -0.084842101 0.26729339 4294967295
0.1935693 -0.085503042 0.26516363 4294967295
0.1955761 -0.086163998 0.26303387 4294967295
0.19758287 -0.086824939 0.26090407 4294967295
0.19958967 -0.087485887 0.25877428 4294967295
0.20159647 -0.088146836 0.25664449 4294967295
0.20360324 -0.088807777 0.25451475 4294967295
0.20561004 -0.089468725 0.25238496 4294967295
0.20761684 -0.090129673 0.25025517 4294967295
0.20962361 -0.090790614 0.2481254 4294967295
0.2116304 -0.09145157 0.24599561 4294967295
0.2136372 -0.092112511 0.24386585 4294967295
0.21564397 -0.09277346 0.24173607 4294967295
0.21765077 -0.093434408 0.23960629 4294967295
0.21965754 -0.094095349 0.23747651 4294967295
0.22166434 -0.094756298 0.23534673 4294967295
0.22367114 -0.095417246 0.23321694 4294967295
0.22567791 -0.096078187 0.23108718 4294967295
0.22768471 -0.096739143 0.2289574 4294967295
0.22969151 -0.097400084 0.22682762 4294967295
0.23169827 -0.098061025 0.22469784 4294967295
0.23370507 -0.098721981 0.22256806 4294967295
0.23571187 -0.099382922 0.22043829 4294967295
0.23771864 -0.10004388 0.21830851 4294967295
0.23972544 -0.10070482 0.21617873 4294967295
0.24173221 -0.10136576 0.21404895 4294967295
