# .PCD v0.7 - Point Cloud Data file format
VERSION 0.7
FIELDS x y z rgb
SIZE 4 4 4 4
TYPE F F F U
COUNT 1 1 1 1
WIDTH 1039
HEIGHT 1
VIEWPOINT 0 0 0 1 0 0 0
POINTS 1039
DATA ascii
-0.0082147587 0.033121731 0.36700001 4279509268
-0.0070036063 0.033031482 0.36600003 4279443475
-0.0057989494 0.03294123 0.36500001 4279048717
-0.0046007899 0.032850981 0.36400002 4279378195
-0.0033997342 0.032670479 0.36200002 4278856978
-0.0022178141 0.03258023 0.36100003 4278791953
-0.0010423897 0.032489982 0.36000001 4278925590
0.00012689093 0.032489982 0.36000001 4278794517
0.0012925711 0.032399733 0.35900003 4278794517
0.0024586036 0.032399733 0.35900003 4278861080
0.0036246362 0.032399733 0.35900003 4278598419
0.0047906693 0.032399733 0.35900003 4278664212
0.0059567015 0.032399733 0.35900003 4278532626
0.0071227346 0.032399733 0.35900003 4278597906
0.0082887672 0.032399733 0.35900003 4278729494
0.0094284629 0.03230948 0.35800001 4278663699
0.010591248 0.03230948 0.35800001 4278532113
0.011754032 0.03230948 0.35800001 4278730005
0.012916816 0.03230948 0.35800001 4278664212
0.014079601 0.03230948 0.35800001 4278795798
0.015242386 0.03230948 0.35800001 4278532626
0.016405171 0.03230948 0.35800001 4278532626
0.017567955 0.03230948 0.35800001 4278729494
0.018730739 0.03230948 0.35800001 4278598421
0.019949093 0.032399733 0.35900003 4278599191
0.021115126 0.032399733 0.35900003 4278599191
0.022281159 0.032399733 0.35900003 4278796570
0.023447191 0.032399733 0.35900003 4278599191
0.024681784 0.032489982 0.36000001 4278664982
0.025851065 0.032489982 0.36000001 4278665496
0.027020345 0.032489982 0.36000001 4278533910
0.028189626 0.032489982 0.36000001 4278665496
0.029440459 0.03258023 0.36100003 4278797082
0.03061299 0.03258023 0.36100003 4278797082
0.031785518 0.03258023 0.36100003 4278862875
0.033049341 0.032670479 0.36200002 4278928668
0.034225117 0.032670479 0.36200002 4278862875
0.035400894 0.032670479 0.36200002 4278862875
-0.010656551 0.034501147 0.36900002 4279771416
-0.0094324071 0.034407649 0.36800003 4279574037
-0.0082147587 0.034314148 0.36700001 4279574037
-0.0070036063 0.034220651 0.36600003 4279640854
-0.0057989494 0.03412715 0.36500001 4279115023
-0.00458815 0.033940151 0.36300001 4279182100
-0.0033997342 0.033846654 0.36200002 4278856978
-0.0022178141 0.033753157 0.36100003 4278858259
-0.0010423897 0.033659656 0.36000001 4278596625
0.00012653845 0.033566158 0.35900003 4278531345
0.0012925711 0.033566158 0.35900003 4278860310
0.0024517551 0.033472657 0.35800001 4278992666
0.0036145397 0.033472657 0.35800001 4278532113
0.0047773244 0.033472657 0.35800001 4278466833
0.0059401086 0.033472657 0.35800001 4278664212
0.0071028937 0.033472657 0.35800001 4278729492
0.0082656788 0.033472657 0.35800001 4278663701
0.0094284629 0.033472657 0.35800001 4278795287
0.010591248 0.033472657 0.35800001 4278532113
0.011754032 0.033472657 0.35800001 4278663699
0.012916816 0.033472657 0.35800001 4278598419
0.014079601 0.033472657 0.35800001 4278466833
0.015242386 0.033472657 0.35800001 4278728724
0.016405171 0.033472657 0.35800001 4278464015
0.017567955 0.033472657 0.35800001 4278200588
0.018730739 0.033472657 0.35800001 4278793752
0.019949093 0.033566158 0.35900003 4278663960
0.021115126 0.033566158 0.35900003 4278532374
0.022281159 0.033566158 0.35900003 4278598421
0.023447191 0.033566158 0.35900003 4278532626
0.024681784 0.033659656 0.36000001 4278335247
0.025851065 0.033659656 0.36000001 4278795798
0.027020345 0.033659656 0.36000001 4278598419
0.028189626 0.033659656 0.36000001 4278335247
0.029440459 0.033753157 0.36100003 4278467603
0.03061299 0.033753157 0.36100003 4278401810
0.031785518 0.033753157 0.36100003 4278533396
0.033049341 0.033846654 0.36200002 4278664982
0.034225117 0.033846654 0.36200002 4278796568
0.035400894 0.033846654 0.36200002 4278796568
0.036576673 0.033846654 0.36200002 4278796568
0.03775245 0.033846654 0.36200002 4278928154
0.038928226 0.033846654 0.36200002 4278664982
0.040104002 0.033846654 0.36200002 4278533910
-0.010656551 0.035700068 0.36900002 4279574037
-0.0094324071 0.035603318 0.36800003 4279574037
-0.0082147587 0.035506569 0.36700001 4279639830
-0.0070036063 0.035409823 0.36600003 4279771416
-0.0057989494 0.035313074 0.36500001 4279180816
-0.00458815 0.035119578 0.36300001 4279445783
-0.0033997342 0.035022829 0.36200002 4278856724
-0.0022116704 0.034829333 0.36000001 4279187226
-0.0010394942 0.034732588 0.35900003 4278727957
0.00012653845 0.034732588 0.35900003 4278794263
0.0012889706 0.034635838 0.35800001 4278795287
0.0024517551 0.034635838 0.35800001 4278729494
0.0036145397 0.034635838 0.35800001 4278729494
0.0047773244 0.034635838 0.35800001 4278597906
0.0059401086 0.034635838 0.35800001 4278203661
0.0071028937 0.034635838 0.35800001 4278466833
0.0082656788 0.034635838 0.35800001 4278598419
0.0094284629 0.034635838 0.35800001 4278598421
0.010591248 0.034635838 0.35800001 4278532628
0.011754032 0.034635838 0.35800001 4278730007
0.012916816 0.034635838 0.35800001 4278532628
0.014079601 0.034635838 0.35800001 4278598421
0.015242386 0.034635838 0.35800001 4278663701
0.016405171 0.034635838 0.35800001 4278198275
0.017567955 0.034635838 0.35800001 4278199817
0.018730739 0.034635838 0.35800001 4279187740
0.019949093 0.034732588 0.35900003 4278333712
0.021115126 0.034732588 0.35900003 4278662677
0.022281159 0.034732588 0.35900003 4278662931
0.023447191 0.034732588 0.35900003 4278531345
0.024681784 0.034829333 0.36000001 4278531345
0.025851065 0.034829333 0.36000001 4278662931
0.027020345 0.034829333 0.36000001 4278531345
0.028267931 0.034926083 0.36100003 4278400529
0.029440459 0.034926083 0.36100003 4278532115
0.03061299 0.034926083 0.36100003 4278400275
0.031873565 0.035022829 0.36200002 4278466835
0.033049341 0.035022829 0.36200002 4278532628
0.034225117 0.035022829 0.36200002 4278664212
0.035400894 0.035022829 0.36200002 4278466833
0.036576673 0.035022829 0.36200002 4278664212
0.03775245 0.035022829 0.36200002 4278532626
0.038928226 0.035022829 0.36200002 4278533396
0.040214784 0.035119578 0.36300001 4278664982
-0.010656551 0.036898986 0.36900002 4279771416
-0.0094324071 0.036798988 0.36800003 4279771416
-0.0082147587 0.03669899 0.36700001 4279837209
-0.0070036063 0.036598995 0.36600003 4279574037
-0.005783062 0.036398999 0.36400002 4279443475
-0.00458815 0.036299001 0.36300001 4279444500
-0.0033903427 0.036099009 0.36100003 4278856211
-0.0022116704 0.035999011 0.36000001 4279055127
-0.0010394942 0.035899013 0.35900003 4278858773
0.00012653845 0.035899013 0.35900003 4278925336
0.0012889706 0.035799015 0.35800001 4278795287
0.0024517551 0.035799015 0.35800001 4278795287
0.0036145397 0.035799015 0.35800001 4278663701
0.0047773244 0.035799015 0.35800001 4278532115
0.0059401086 0.035799015 0.35800001 4278400527
0.0071028937 0.035799015 0.35800001 4278729492
0.0082656788 0.035799015 0.35800001 4278598419
0.0094284629 0.035799015 0.35800001 4278598419
0.010591248 0.035799015 0.35800001 4278532628
0.011754032 0.035799015 0.35800001 4278532628
0.012916816 0.035799015 0.35800001 4278532628
0.014079601 0.035799015 0.35800001 4278598421
0.015242386 0.035799015 0.35800001 4278662931
0.016405171 0.035799015 0.35800001 4278199046
0.017567955 0.035799015 0.35800001 4278726675
0.018730739 0.035799015 0.35800001 4278727957
0.019949093 0.035899013 0.35900003 4278661394
0.021115126 0.035899013 0.35900003 4278196992
0.022281159 0.035899013 0.35900003 4278195712
0.023447191 0.035899013 0.35900003 4278195969
0.024681784 0.035999011 0.36000001 4278196226
0.025851065 0.035999011 0.36000001 4278197765
0.027020345 0.035999011 0.36000001 4278198021
0.028267931 0.036099009 0.36100003 4278593804
0.029440459 0.036099009 0.36100003 4278923541
0.03061299 0.036099009 0.36100003 4279055640
0.031873565 0.036199003 0.36200002 4278727189
0.033049341 0.036199003 0.36200002 4278596371
0.034225117 0.036199003 0.36200002 4278662931
0.035498686 0.036299001 0.36300001 4278532115
0.036677711 0.036299001 0.36300001 4278597908
0.037856735 0.036299001 0.36300001 4278532115
0.03903576 0.036299001 0.36300001 4278532115
0.040214784 0.036299001 0.36300001 4278532115
0.041393809 0.036299001 0.36300001 4278400529
0.042572834 0.036299001 0.36300001 4278597906
0.058219161 0.036498994 0.36500001 4278797082
-0.011855063 0.038097903 0.36900002 4279772188
-0.010627672 0.037994657 0.36800003 4279705110
-0.0094324071 0.037994657 0.36800003 4279837209
-0.0082147587 0.03789141 0.36700001 4279903002
-0.0069844704 0.037684917 0.36500001 4279639830
-0.005783062 0.037581671 0.36400002 4279443473
-0.00458815 0.037478425 0.36300001 4279510291
-0.0033903427 0.037271935 0.36100003 4279118867
-0.0022116704 0.037168685 0.36000001 4279120920
-0.0010394942 0.037065443 0.35900003 4278858773
0.00012618597 0.036962193 0.35800001 4278793750
0.0012889706 0.036962193 0.35800001 4278663701
0.0024517551 0.036962193 0.35800001 4278729494
0.0036145397 0.036962193 0.35800001 4278663701
0.0047773244 0.036962193 0.35800001 4278663699
0.0059401086 0.036962193 0.35800001 4278663699
0.0071028937 0.036962193 0.35800001 4278597906
0.0082656788 0.036962193 0.35800001 4278532115
0.0094284629 0.036962193 0.35800001 4278400529
0.010591248 0.036962193 0.35800001 4278663701
0.011754032 0.036962193 0.35800001 4278663701
0.012916816 0.036962193 0.35800001 4278597908
0.014079601 0.036962193 0.35800001 4278663701
0.015242386 0.036962193 0.35800001 4278660882
0.016405171 0.036962193 0.35800001 4278196999
0.017567955 0.036962193 0.35800001 4278197253
0.018730739 0.036962193 0.35800001 4278793750
0.019949093 0.037065443 0.35900003 4278196480
0.021115126 0.037065443 0.35900003 4278392584
0.022281159 0.037065443 0.35900003 4278391814
0.023447191 0.037065443 0.35900003 4278654472
0.024681784 0.037168685 0.36000001 4278457093
0.025851065 0.037168685 0.36000001 4278654472
0.027020345 0.037168685 0.36000001 4278654218
0.028267931 0.037271935 0.36100003 4278522632
0.029440459 0.037271935 0.36100003 4278654218
0.030697789 0.037375178 0.36200002 4278391560
0.031873565 0.037375178 0.36200002 4278392584
0.033049341 0.037375178 0.36200002 4278260998
0.034319662 0.037478425 0.36300001 4278195200
0.035498686 0.037478425 0.36300001 4278331663
0.036677711 0.037478425 0.36300001 4278195970
0.037856735 0.037478425 0.36300001 4278196482
0.03903576 0.037478425 0.36300001 4278196996
0.040214784 0.037478425 0.36300001 4278197767
0.041507844 0.037581671 0.36400002 4278264587
0.042690117 0.037581671 0.36400002 4278462220
0.04387239 0.037581671 0.36400002 4278529296
0.045178436 0.037684917 0.36500001 4279121433
0.046363954 0.037684917 0.36500001 4279056152
0.047549479 0.037684917 0.36500001 4278991129
0.0546626 0.037684917 0.36500001 4278532115
0.055848122 0.037684917 0.36500001 4278532113
0.057033643 0.037684917 0.36500001 4278597906
0.05837867 0.037788164 0.36600003 4278466833
0.05956744 0.037788164 0.36600003 4278598419
0.060922209 0.03789141 0.36700001 4278730005
0.065904215 0.038717382 0.37500003 4279058970
0.067122221 0.038717382 0.37500003 4278928154
0.068522453 0.038820628 0.37600002 4278928154
0.069743708 0.038820628 0.37600002 4279059740
0.071153685 0.038923874 0.377 4279059740
0.072378181 0.038923874 0.377 4279124763
-0.020080062 0.038977336 0.36600003 4279969819
-0.011855063 0.039296821 0.36900002 4279969567
-0.010627672 0.03919033 0.36800003 4279836698
-0.0094067743 0.039083831 0.36700001 4279968282
-0.0081923753 0.038977336 0.36600003 4279968795
-0.0069844704 0.038870838 0.36500001 4279771416
-0.005783062 0.038764346 0.36400002 4279640854
-0.004575511 0.038551353 0.36200002 4279576086
-0.0033903427 0.038444858 0.36100003 4278988564
-0.0022116704 0.038338363 0.36000001 4279121433
-0.0010394942 0.038231868 0.35900003 4278793752
0.00012618597 0.03812537 0.35800001 4278794265
0.0012889706 0.03812537 0.35800001 4278795287
0.0024517551 0.03812537 0.35800001 4278795287
0.0036145397 0.03812537 0.35800001 4278597908
0.0047639804 0.038018879 0.35700002 4278532628
0.0059235166 0.038018879 0.35700002 4278532628
0.0071028937 0.03812537 0.35800001 4278598421
0.0082656788 0.03812537 0.35800001 4278597908
0.0094284629 0.03812537 0.35800001 4278729494
0.010591248 0.03812537 0.35800001 4278597908
0.011754032 0.03812537 0.35800001 4278663701
0.012916816 0.03812537 0.35800001 4278795287
0.014079601 0.03812537 0.35800001 4278663701
0.015242386 0.03812537 0.35800001 4278858261
0.016405171 0.03812537 0.35800001 4278196488
0.017567955 0.03812537 0.35800001 4279185941
0.018730739 0.03812537 0.35800001 4278727187
0.019949093 0.038231868 0.35900003 4278195202
0.021115126 0.038231868 0.35900003 4278720265
0.022281159 0.038231868 0.35900003 4278720011
0.023447191 0.038231868 0.35900003 4278654218
0.024681784 0.038338363 0.36000001 4278587912
0.025851065 0.038338363 0.36000001 4278391048
0.027095402 0.038444858 0.36100003 4278654220
0.028267931 0.038444858 0.36100003 4278720013
0.029440459 0.038444858 0.36100003 4278719500
0.030697789 0.038551353 0.36200002 4278587912
0.031873565 0.038551353 0.36200002 4278719498
0.033140637 0.038657848 0.36300001 4278587912
0.034319662 0.038657848 0.36300001 4278195460
0.035498686 0.038657848 0.36300001 4279054873
0.036677711 0.038657848 0.36300001 4278793752
0.037856735 0.038657848 0.36300001 4278727189
0.039143298 0.038764346 0.36400002 4278726162
0.040325571 0.038764346 0.36400002 4278923541
0.041507844 0.038764346 0.36400002 4278857494
0.042690117 0.038764346 0.36400002 4279054103
0.043992914 0.038870838 0.36500001 4279053590
0.045178436 0.038870838 0.36500001 4278527246
0.046363954 0.038870838 0.36500001 4278198281
0.047679752 0.038977336 0.36600003 4278197510
0.048868522 0.038977336 0.36600003 4278194691
0.050194055 0.039083831 0.36700001 4278195715
0.051386073 0.039083831 0.36700001 4278193920
0.052578092 0.039083831 0.36700001 4278194945
0.05377011 0.039083831 0.36700001 4278195456
0.054812364 0.038977336 0.36600003 4278195456
0.056001134 0.038977336 0.36600003 4278197509
0.057346158 0.039083831 0.36700001 4278199818
0.058538172 0.039083831 0.36700001 4278858261
0.059892945 0.03919033 0.36800003 4278726673
0.061254211 0.039296821 0.36900002 4278661394
0.062960461 0.039616309 0.37200001 4278398992
0.064341217 0.039722804 0.37300003 4278728722
0.065728471 0.039829299 0.37400001 4278663699
0.067122221 0.039935797 0.37500003 4278597906
0.068522453 0.040042289 0.37600002 4278795285
0.069743708 0.040042289 0.37600002 4278664210
0.071153685 0.040148783 0.377 4278928152
0.072378181 0.040148783 0.377 4278795798
0.073797919 0.040255282 0.37800002 4279058457
0.075025663 0.040255282 0.37800002 4279843621
-0.021326941 0.040276252 0.36700001 4279772188
-0.020134924 0.040276252 0.36700001 4279968795
-0.011855063 0.040495742 0.36900002 4279639832
-0.010627672 0.040385999 0.36800003 4279902491
-0.0094067743 0.040276252 0.36700001 4280165661
-0.0081923753 0.040166508 0.36600003 4280100381
-0.006965335 0.039947018 0.36400002 4279903002
-0.0057671745 0.039837271 0.36300001 4279641367
-0.004575511 0.039727528 0.36200002 4279314197
-0.0033903427 0.039617784 0.36100003 4278988564
-0.0022116704 0.039508041 0.36000001 4279121433
-0.0010394942 0.039398298 0.35900003 4278793752
0.00012618597 0.039288551 0.35800001 4278793752
0.0012889706 0.039288551 0.35800001 4278795033
0.0024517551 0.039288551 0.35800001 4278598167
0.0036145397 0.039288551 0.35800001 4278532628
0.0047639804 0.039178807 0.35700002 4278532628
0.0059235166 0.039178807 0.35700002 4278466835
0.0071028937 0.039288551 0.35800001 4278598421
0.0082656788 0.039288551 0.35800001 4278532628
0.0094284629 0.039288551 0.35800001 4278598421
0.010591248 0.039288551 0.35800001 4278598421
0.011754032 0.039288551 0.35800001 4278532628
0.012916816 0.039288551 0.35800001 4278598421
0.014079601 0.039288551 0.35800001 4278598421
0.015242386 0.039288551 0.35800001 4279450144
0.016405171 0.039288551 0.35800001 4278196742
0.017567955 0.039288551 0.35800001 4279055125
0.018783061 0.039398298 0.35900003 4279055638
0.019949093 0.039398298 0.35900003 4278524168
0.021115126 0.039398298 0.35900003 4278852365
0.022281159 0.039398298 0.35900003 4278458375
0.023512503 0.039508041 0.36000001 4278853133
0.024681784 0.039508041 0.36000001 4278589963
0.025851065 0.039508041 0.36000001 4278853135
0.027095402 0.039617784 0.36100003 4278853648
0.028267931 0.039617784 0.36100003 4279774750
0.029522011 0.039727528 0.36200002 4278918928
0.030697789 0.039727528 0.36200002 4279510295
0.031873565 0.039727528 0.36200002 4279576088
0.033140637 0.039837271 0.36300001 4278654732
0.034319662 0.039837271 0.36300001 4278197001
0.035498686 0.039837271 0.36300001 4278989847
0.036778755 0.039947018 0.36400002 4278596371
0.037961025 0.039947018 0.36400002 4278464785
0.039143298 0.039947018 0.36400002 4278266122
0.040325571 0.039947018 0.36400002 4278989845
0.041507844 0.039947018 0.36400002 4278924566
0.042807397 0.040056761 0.36500001 4278924566
0.043992914 0.040056761 0.36500001 4278858773
0.045178436 0.040056761 0.36500001 4278924566
0.046490982 0.040166508 0.36600003 4278924566
0.047679752 0.040166508 0.36600003 4278990359
0.04900204 0.040276252 0.36700001 4278924566
0.050194055 0.040276252 0.36700001 4278858775
0.051386073 0.040276252 0.36700001 4278989593
0.052578092 0.040276252 0.36700001 4278792214
0.05377011 0.040276252 0.36700001 4279120666
0.054962121 0.040276252 0.36700001 4279120666
0.056154139 0.040276252 0.36700001 4278923287
0.057502419 0.040385999 0.36800003 4278660115
0.058697678 0.040385999 0.36800003 4278856724
0.060055695 0.040495742 0.36900002 4278593552
0.06142021 0.040605485 0.37 4278396173
0.062960461 0.040824972 0.37200001 4278329869
0.064341217 0.040934719 0.37300003 4278195712
0.065728471 0.041044462 0.37400001 4278530580
0.067122221 0.04115421 0.37500003 4278663701
0.068522453 0.041263953 0.37600002 4278663699
0.069743708 0.041263953 0.37600002 4278597906
0.071153685 0.041373696 0.377 4278598419
0.072378181 0.041373696 0.377 4278664212
0.073797919 0.041483443 0.37800002 4278795287
0.075025663 0.041483443 0.37800002 4278397458
-0.027138321 0.041242685 0.36500001 4280100631
-0.011855063 0.04169466 0.36900002 4279969565
-0.010598792 0.041468672 0.36700001 4280494626
-0.0093811434 0.041355681 0.36600003 4280428833
-0.008169991 0.041242685 0.36500001 4280298784
-0.006965335 0.04112969 0.36400002 4279904026
-0.0057671745 0.041016694 0.36300001 4279641879
-0.0045628715 0.040790711 0.36100003 4279380760
-0.003380951 0.040677715 0.36000001 4279185943
-0.0022116704 0.040677715 0.36000001 4279121433
-0.0010394942 0.040564723 0.35900003 4278727189
0.00012618597 0.040451728 0.35800001 4278859543
0.0012889706 0.040451728 0.35800001 4278795033
0.0024517551 0.040451728 0.35800001 4278664214
0.0036145397 0.040451728 0.35800001 4278664212
0.0047773244 0.040451728 0.35800001 4278532626
0.0059401086 0.040451728 0.35800001 4278598421
0.0071028937 0.040451728 0.35800001 4278664214
0.0082656788 0.040451728 0.35800001 4278598421
0.0094284629 0.040451728 0.35800001 4278466835
0.010591248 0.040451728 0.35800001 4278664214
0.011754032 0.040451728 0.35800001 4278532628
0.012916816 0.040451728 0.35800001 4278532628
0.014079601 0.040451728 0.35800001 4278597908
0.015242386 0.040451728 0.35800001 4278527759
0.016405171 0.040451728 0.35800001 4278262279
0.017567955 0.040451728 0.35800001 4278924568
0.018783061 0.040564723 0.35900003 4278859545
0.019949093 0.040564723 0.35900003 4278589963
0.021115126 0.040564723 0.35900003 4279576858
0.022281159 0.040564723 0.35900003 4278196742
0.023512503 0.040677715 0.36000001 4279118101
0.024681784 0.040677715 0.36000001 4279050512
0.025922874 0.040790711 0.36100003 4278458377
0.027095402 0.040790711 0.36100003 4278853648
0.028267931 0.040790711 0.36100003 4278195460
0.029522011 0.040903702 0.36200002 4278392584
0.030697789 0.040903702 0.36200002 4278458890
0.031961612 0.041016694 0.36300001 4279117590
0.033140637 0.041016694 0.36300001 4278458890
0.034319662 0.041016694 0.36300001 4279183894
0.035596479 0.04112969 0.36400002 4278989845
0.036778755 0.04112969 0.36400002 4278200074
0.037961025 0.04112969 0.36400002 4278263558
0.039143298 0.04112969 0.36400002 4278327302
0.040436354 0.041242685 0.36500001 4278262279
0.041621875 0.041242685 0.36500001 4278199561
0.042807397 0.041242685 0.36500001 4278791955
0.044113446 0.041355681 0.36600003 4278198276
0.045302216 0.041355681 0.36600003 4278792468
0.046490982 0.041355681 0.36600003 4278198789
0.047810022 0.041468672 0.36700001 4278199046
0.04900204 0.041468672 0.36700001 4278529810
0.050194055 0.041468672 0.36700001 4278858775
0.051526092 0.041581668 0.36800003 4278727957
0.052721359 0.041581668 0.36800003 4278727957
0.053916626 0.041581668 0.36800003 4278596371
0.055111885 0.041581668 0.36800003 4278793750
0.056460157 0.04169466 0.36900002 4278793750
0.057658672 0.04169466 0.36900002 4278727957
0.059016682 0.041807652 0.37 4278793750
0.0603812 0.041920647 0.37100002 4279056406
0.061586212 0.041920647 0.37100002 4278727441
0.063129716 0.042146634 0.37300003 4278924820
0.064513713 0.042259626 0.37400001 4278988310
0.065904215 0.042372622 0.37500003 4278989847
0.067122221 0.042372622 0.37500003 4278597908
0.068522453 0.042485613 0.37600002 4278597908
0.06992919 0.042598605 0.377 4278466833
0.071153685 0.042598605 0.377 4278532628
0.072570167 0.042711601 0.37800002 4278335249
0.073797919 0.042711601 0.37800002 4278729494
0.075025663 0.042711601 0.37800002 4278661142
-0.017847626 0.042893577 0.36900002 4280101405
-0.016694233 0.043009818 0.37 4285365872
-0.015492473 0.043009818 0.37 4285103216
-0.014290712 0.043009818 0.37 4283589977
-0.011822936 0.042777337 0.36800003 4279904287
-0.010598792 0.042661093 0.36700001 4280231967
-0.0093811434 0.042544849 0.36600003 4279968282
-0.0081476076 0.042312365 0.36400002 4279969049
-0.0069461991 0.042196121 0.36300001 4279837463
-0.0057512871 0.042079877 0.36200002 4279576086
-0.0045628715 0.041963637 0.36100003 4279446551
-0.003380951 0.041847393 0.36000001 4279383322
-0.0022055269 0.041731153 0.35900003 4279187226
-0.0010394942 0.041731153 0.35900003 4278924566
0.00012618597 0.041614905 0.35800001 4278793750
0.0012889706 0.041614905 0.35800001 4278729240
0.0024517551 0.041614905 0.35800001 4278663447
0.0036145397 0.041614905 0.35800001 4278335249
0.0047773244 0.041614905 0.35800001 4278598421
0.0059401086 0.041614905 0.35800001 4278269456
0.0071028937 0.041614905 0.35800001 4278532628
0.0082656788 0.041614905 0.35800001 4278466835
0.0094284629 0.041614905 0.35800001 4278532628
0.010591248 0.041614905 0.35800001 4278269456
0.011754032 0.041614905 0.35800001 4278466835
0.012916816 0.041614905 0.35800001 4278730007
0.014079601 0.041614905 0.35800001 4278334736
0.015242386 0.041614905 0.35800001 4278196742
0.016405171 0.041614905 0.35800001 4278459658
0.017617028 0.041731153 0.35900003 4278792468
0.018783061 0.041731153 0.35900003 4279056154
0.019949093 0.041731153 0.35900003 4278589191
0.021115126 0.041731153 0.35900003 4278523400
0.022343224 0.041847393 0.36000001 4278589193
0.023512503 0.041847393 0.36000001 4278786572
0.024681784 0.041847393 0.36000001 4278852365
0.025922874 0.041963637 0.36100003 4278589193
0.027095402 0.041963637 0.36100003 4278720779
0.028346235 0.042079877 0.36200002 4278523400
0.029522011 0.042079877 0.36200002 4278918928
0.030697789 0.042079877 0.36200002 4279578654
0.031961612 0.042196121 0.36300001 4279447582
0.033140637 0.042196121 0.36300001 4278392843
0.034414209 0.042312365 0.36400002 4279842336
0.035596479 0.042312365 0.36400002 4279253019
0.036778755 0.042312365 0.36400002 4278262790
0.037961025 0.042312365 0.36400002 4278458377
0.039250832 0.042428605 0.36500001 4278851597
0.040436354 0.042428605 0.36500001 4278194437
0.041621875 0.042428605 0.36500001 4278527759
0.04292468 0.042544849 0.36600003 4278923541
0.044113446 0.042544849 0.36600003 4278988564
0.045302216 0.042544849 0.36600003 4278593552
0.046618003 0.042661093 0.36700001 4278857748
0.047810022 0.042661093 0.36700001 4278923541
0.049135566 0.042777337 0.36800003 4278199047
0.050330825 0.042777337 0.36800003 4278397197
0.051526092 0.042777337 0.36800003 4278725908
0.052721359 0.042777337 0.36800003 4278791955
0.054063134 0.042893577 0.36900002 4278199303
0.055261642 0.042893577 0.36900002 4278266124
0.056460157 0.042893577 0.36900002 4278199046
0.057814926 0.043009818 0.37 4278660880
0.059176192 0.043126062 0.37100002 4278726673
0.060543951 0.043242306 0.37200001 4278529294
0.061752211 0.043242306 0.37200001 4278728211
0.063129716 0.043358549 0.37300003 4278728211
0.064513713 0.04347479 0.37400001 4278197253
0.065904215 0.043591034 0.37500003 4278857748
0.067301206 0.043707278 0.37600002 4278728724
0.068522453 0.043707278 0.37600002 4278597908
0.06992919 0.043823518 0.377 4278466833
0.071153685 0.043823518 0.377 4278532626
0.072570167 0.043939762 0.37800002 4278598419
0.073797919 0.043939762 0.37800002 4278729492
0.075025663 0.043939762 0.37800002 4278858261
-0.016739354 0.04433148 0.37100002 4285037677
-0.015534345 0.04433148 0.37100002 4285103731
-0.014329337 0.04433148 0.37100002 4285038706
-0.013053576 0.044092495 0.36900002 4284907120
-0.011822936 0.043973006 0.36800003 4284512364
-0.010569912 0.043734021 0.36600003 4284774000
-0.0093555115 0.043614529 0.36500001 4279509790
-0.0081476076 0.043495037 0.36400002 4279968797
-0.0069270642 0.043256052 0.36200002 4280034588
-0.0057353997 0.043136563 0.36100003 4279576856
-0.0045628715 0.043136563 0.36100003 4279380758
-0.003380951 0.043017067 0.36000001 4279186713
-0.0022055269 0.042897578 0.35900003 4279187224
-0.0010394942 0.042897578 0.35900003 4279254814
0.00012618597 0.042778086 0.35800001 4278925849
0.0012889706 0.042778086 0.35800001 4279058205
0.0024517551 0.042778086 0.35800001 4278334482
0.0036145397 0.042778086 0.35800001 4278466835
0.0047773244 0.042778086 0.35800001 4278466835
0.0059401086 0.042778086 0.35800001 4278664214
0.0071028937 0.042778086 0.35800001 4278466835
0.0082656788 0.042778086 0.35800001 4278466835
0.0094284629 0.042778086 0.35800001 4278730007
0.010591248 0.042778086 0.35800001 4278532628
0.011754032 0.042778086 0.35800001 4278532628
0.012916816 0.042778086 0.35800001 4278598421
0.014079601 0.042778086 0.35800001 4278663447
0.015242386 0.042778086 0.35800001 4278393863
0.016405171 0.042778086 0.35800001 4278986002
0.017617028 0.042897578 0.35900003 4279121431
0.018783061 0.042897578 0.35900003 4278792466
0.019949093 0.042897578 0.35900003 4278720265
0.021115126 0.042897578 0.35900003 4278786058
0.022343224 0.043017067 0.36000001 4278785804
0.023512503 0.043017067 0.36000001 4278720011
0.024681784 0.043017067 0.36000001 4278719498
0.025922874 0.043136563 0.36100003 4278587912
0.027095402 0.043136563 0.36100003 4278719498
0.028346235 0.043256052 0.36200002 4278719498
0.029522011 0.043256052 0.36200002 4278654218
0.03078259 0.043375544 0.36300001 4278325767
0.031961612 0.043375544 0.36300001 4278392330
0.033140637 0.043375544 0.36300001 4278458123
0.034414209 0.043495037 0.36400002 4279449115
0.035596479 0.043495037 0.36400002 4278727189
0.036778755 0.043495037 0.36400002 4278393865
0.038065314 0.043614529 0.36500001 4278654986
0.039250832 0.043614529 0.36500001 4278785804
0.040436354 0.043614529 0.36500001 4279314199
0.04173591 0.043734021 0.36600003 4278198281
0.04292468 0.043734021 0.36600003 4278856978
0.044113446 0.043734021 0.36600003 4278265609
0.045425989 0.04385351 0.36700001 4278660367
0.046618003 0.04385351 0.36700001 4278660367
0.047940299 0.043973006 0.36800003 4278791953
0.049135566 0.043973006 0.36800003 4278397197
0.050330825 0.043973006 0.36800003 4278331150
0.051666107 0.044092495 0.36900002 4278264587
0.052864619 0.044092495 0.36900002 4278460683
0.054063134 0.044092495 0.36900002 4278987797
0.055411402 0.044211987 0.37 4278593552
0.056613166 0.044211987 0.37 4279186713
0.057971187 0.04433148 0.37100002 4278331404
0.059335694 0.044450969 0.37200001 4278593293
0.060543951 0.044450969 0.37200001 4278790672
0.061918214 0.044570465 0.37300003 4278727187
0.063298963 0.044689953 0.37400001 4278530578
0.064513713 0.044689953 0.37400001 4278196480
0.065904215 0.044809449 0.37500003 4279055127
0.067301206 0.044928938 0.37600002 4278662931
0.068522453 0.044928938 0.37600002 4278728724
0.06992919 0.045048431 0.377 4278334736
0.071342431 0.045167923 0.37800002 4278532115
0.072570167 0.045167923 0.37800002 4278400529
0.073797919 0.045167923 0.37800002 4278663701
0.075224139 0.045287412 0.37900001 4279647775
-0.010569912 0.044923194 0.36600003 4284512364
-0.0093298806 0.044677708 0.36400002 4284249192
-0.0081252242 0.044554967 0.36300001 4284643180
-0.0069270642 0.044432227 0.36200002 4279575836
-0.0057353997 0.044309489 0.36100003 4279380762
-0.0045502316 0.044186745 0.36000001 4279184408
-0.003380951 0.044186745 0.36000001 4279581471
-0.0022055269 0.044064008 0.35900003 4279056152
-0.0010394942 0.044064008 0.35900003 4278926103
0.00012618597 0.043941263 0.35800001 4278861080
0.0012889706 0.043941263 0.35800001 4278664214
0.0024517551 0.043941263 0.35800001 4278730007
0.0036145397 0.043941263 0.35800001 4278598421
0.0047773244 0.043941263 0.35800001 4278598421
0.0059401086 0.043941263 0.35800001 4278598421
0.0071028937 0.043941263 0.35800001 4278598421
0.0082656788 0.043941263 0.35800001 4278532628
0.0094284629 0.043941263 0.35800001 4278664214
0.010591248 0.043941263 0.35800001 4278532628
0.011754032 0.043941263 0.35800001 4278664214
0.012916816 0.043941263 0.35800001 4278598421
0.014079601 0.043941263 0.35800001 4278333712
0.015242386 0.043941263 0.35800001 4278594576
0.016405171 0.043941263 0.35800001 4278528013
0.017617028 0.044064008 0.35900003 4279121685
0.018783061 0.044064008 0.35900003 4279187478
0.019949093 0.044064008 0.35900003 4278723857
0.021115126 0.044064008 0.35900003 4278327304
0.022343224 0.044186745 0.36000001 4278654732
0.023512503 0.044186745 0.36000001 4278720011
0.024750346 0.044309489 0.36100003 4278720011
0.025922874 0.044309489 0.36100003 4278720011
0.027095402 0.044309489 0.36100003 4278785291
0.028346235 0.044432227 0.36200002 4278785291
0.029522011 0.044432227 0.36200002 4278785291
0.03078259 0.044554967 0.36300001 4278785291
0.031961612 0.044554967 0.36300001 4278719500
0.033140637 0.044554967 0.36300001 4278522632
0.034414209 0.044677708 0.36400002 4278922771
0.035596479 0.044677708 0.36400002 4279121431
0.036778755 0.044677708 0.36400002 4279317529
0.038065314 0.044800449 0.36500001 4279052820
0.039250832 0.044800449 0.36500001 4279512859
0.040436354 0.044800449 0.36500001 4279053592
0.04173591 0.044923194 0.36600003 4278923541
0.04292468 0.044923194 0.36600003 4279120918
0.044233974 0.045045931 0.36700001 4278858259
0.045425989 0.045045931 0.36700001 4278989845
0.046745032 0.045168675 0.36800003 4278595087
0.047940299 0.045168675 0.36800003 4278594576
0.049135566 0.045168675 0.36800003 4278858261
0.050467592 0.045291413 0.36900002 4278858261
0.051666107 0.045291413 0.36900002 4279055127
0.052864619 0.045291413 0.36900002 4278594576
0.054209646 0.045414153 0.37 4279251736
0.055411402 0.045414153 0.37 4278197766
0.056766175 0.045536898 0.37100002 4278196224
0.058127441 0.045659635 0.37200001 4279185943
0.059335694 0.045659635 0.37200001 4278330634
0.060706709 0.04578238 0.37300003 4278395914
0.061918214 0.04578238 0.37300003 4278858261
0.063298963 0.045905117 0.37400001 4278661396
0.064686216 0.046027862 0.37500003 4278197252
0.065904215 0.046027862 0.37500003 4278858261
0.067301206 0.046150602 0.37600002 4278531091
0.068704695 0.04627334 0.377 4278532115
0.06992919 0.04627334 0.377 4278532115
0.071342431 0.046396084 0.37800002 4278663701
0.072570167 0.046396084 0.37800002 4278597908
0.073993146 0.046518821 0.37900001 4278860310
0.075224139 0.046518821 0.37900001 4278923287
0.076455131 0.046518821 0.37900001 4285567099
-0.0093042487 0.045734394 0.36300001 4284314985
-0.0081028407 0.045608405 0.36200002 4283986020
-0.0069079287 0.045482416 0.36100003 4283328090
-0.0057195118 0.045356423 0.36000001 4278722578
-0.0045502316 0.045356423 0.36000001 4279184410
-0.0033715598 0.045230437 0.35900003 4279383838
-0.0022055269 0.045230437 0.35900003 4279253017
-0.0010365986 0.045104444 0.35800001 4278991129
0.00012618597 0.045104444 0.35800001 4279056922
0.0012889706 0.045104444 0.35800001 4278992666
0.0024517551 0.045104444 0.35800001 4278663701
0.0036145397 0.045104444 0.35800001 4278729494
0.0047773244 0.045104444 0.35800001 4278335249
0.0059401086 0.045104444 0.35800001 4278598421
0.0071028937 0.045104444 0.35800001 4278730007
0.0082656788 0.045104444 0.35800001 4278795800
0.0094284629 0.045104444 0.35800001 4278532628
0.010591248 0.045104444 0.35800001 4278664214
0.011754032 0.045104444 0.35800001 4278532628
0.012916816 0.045104444 0.35800001 4278663701
0.014079601 0.045104444 0.35800001 4278201609
0.015242386 0.045104444 0.35800001 4278462736
0.016405171 0.045104444 0.35800001 4278396943
0.017617028 0.045230437 0.35900003 4278924820
0.018783061 0.045230437 0.35900003 4278925590
0.019949093 0.045230437 0.35900003 4278925590
0.021115126 0.045230437 0.35900003 4278925336
0.022343224 0.045356423 0.36000001 4278925338
0.023512503 0.045356423 0.36000001 4279385119
0.024750346 0.045482416 0.36100003 4279055640
0.025922874 0.045482416 0.36100003 4279251736
0.027095402 0.045482416 0.36100003 4279317016
0.028346235 0.045608405 0.36200002 4279711774
0.029522011 0.045608405 0.36200002 4279777567
0.03078259 0.045734394 0.36300001 4279711774
0.031961612 0.045734394 0.36300001 4279513371
0.033231933 0.045860387 0.36400002 4279118101
0.034414209 0.045860387 0.36400002 4279054103
0.035596479 0.045860387 0.36400002 4278198280
0.036879793 0.045986373 0.36500001 4278195971
0.038065314 0.045986373 0.36500001 4278194432
0.039250832 0.045986373 0.36500001 4278194945
0.04054714 0.046112366 0.36600003 4278195462
0.04173591 0.046112366 0.36600003 4278195716
0.04292468 0.046112366 0.36600003 4278195971
0.044233974 0.046238355 0.36700001 4278197253
0.045425989 0.046238355 0.36700001 4278198278
0.046745032 0.046364348 0.36800003 4278462220
0.047940299 0.046364348 0.36800003 4278922771
0.049269084 0.046490334 0.36900002 4278792468
0.050467592 0.046490334 0.36900002 4279055640
0.051666107 0.046490334 0.36900002 4279253019
0.053007882 0.046616323 0.37 4279450398
0.054209646 0.046616323 0.37 4278661396
0.055561166 0.046742316 0.37100002 4278858775
0.056766175 0.046742316 0.37100002 4278989847
0.058127441 0.046868306 0.37200001 4278792468
0.059495199 0.046994295 0.37300003 4279121433
0.060706709 0.046994295 0.37300003 4279055638
0.062084213 0.047120284 0.37400001 4279056152
0.063298963 0.047120284 0.37400001 4279056152
0.064686216 0.047246277 0.37500003 4278198283
0.066079959 0.047372267 0.37600002 4279319326
0.067301206 0.047372267 0.37600002 4278662677
0.068704695 0.047498256 0.377 4278531091
0.06992919 0.047498256 0.377 4278729494
0.071342431 0.047624245 0.37800002 4278532115
0.072570167 0.047624245 0.37800002 4278860056
0.073993146 0.047750235 0.37900001 4278925849
0.075224139 0.047750235 0.37900001 4279975207
-0.0080804573 0.046655338 0.36100003 4283986020
-0.0068887929 0.046526097 0.36000001 4283788641
-0.0057195118 0.046526097 0.36000001 4283657055
-0.0045375922 0.046396859 0.35900003 4282078536
-0.0033715598 0.046396859 0.35900003 4278592789
-0.0022055269 0.046396859 0.35900003 4279448863
-0.0010365986 0.046267621 0.35800001 4279187740
0.00012618597 0.046267621 0.35800001 4279320609
0.0012889706 0.046267621 0.35800001 4279189021
0.0024517551 0.046267621 0.35800001 4278925849
0.0036145397 0.046267621 0.35800001 4279123482
0.0047773244 0.046267621 0.35800001 4278861080
0.0059401086 0.046267621 0.35800001 4278795287
0.0071028937 0.046267621 0.35800001 4278663701
0.0082656788 0.046267621 0.35800001 4278663701
0.0094284629 0.046267621 0.35800001 4278663960
0.010591248 0.046267621 0.35800001 4278795546
0.011754032 0.046267621 0.35800001 4278532374
0.012916816 0.046267621 0.35800001 4278663960
0.014079601 0.046267621 0.35800001 4278795287
0.015242386 0.046267621 0.35800001 4278859543
0.016405171 0.046267621 0.35800001 4278991131
0.017567955 0.046267621 0.35800001 4278991129
0.018783061 0.046396859 0.35900003 4278925590
0.019949093 0.046396859 0.35900003 4278860310
0.021115126 0.046396859 0.35900003 4278729494
0.022343224 0.046526097 0.36000001 4278729494
0.023512503 0.046526097 0.36000001 4278597908
0.024750346 0.046655338 0.36100003 4278860310
0.025922874 0.046655338 0.36100003 4278860310
0.027170457 0.046784576 0.36200002 4278991383
0.028346235 0.046784576 0.36200002 4278925590
0.029522011 0.046784576 0.36200002 4278925590
0.03078259 0.046913814 0.36300001 4278925590
0.031961612 0.046913814 0.36300001 4278794004
0.033231933 0.047043055 0.36400002 4278794004
0.034414209 0.047043055 0.36400002 4278859543
0.035596479 0.047043055 0.36400002 4278925336
0.036879793 0.047172293 0.36500001 4279056152
0.038065314 0.047172293 0.36500001 4279121431
0.039250832 0.047172293 0.36500001 4279121433
0.04054714 0.047301535 0.36600003 4278858261
0.04173591 0.047301535 0.36600003 4279120666
0.043041959 0.047430772 0.36700001 4279120666
0.044233974 0.047430772 0.36700001 4279251482
0.045425989 0.047430772 0.36700001 4279251482
0.046745032 0.047560014 0.36800003 4279383068
0.047940299 0.047560014 0.36800003 4279448348
0.049269084 0.047689252 0.36900002 4278527246
0.050467592 0.047689252 0.36900002 4278658832
0.051806122 0.047818489 0.37 4278526476
0.053007882 0.047818489 0.37 4278196226
0.054209646 0.047818489 0.37 4278195969
0.055561166 0.047947731 0.37100002 4278194177
0.056919184 0.048076969 0.37200001 4278194176
0.058127441 0.048076969 0.37200001 4278194432
0.059495199 0.04820621 0.37300003 4278194944
0.060706709 0.04820621 0.37300003 4278196740
0.062084213 0.048335448 0.37400001 4278197254
0.06346821 0.048464689 0.37500003 4278460683
0.064686216 0.048464689 0.37500003 4278462736
0.066079959 0.048593923 0.37600002 4278991129
0.067301206 0.048593923 0.37600002 4278728470
0.068704695 0.048723161 0.377 4278925849
0.07011468 0.048852403 0.37800002 4278663447
0.071342431 0.048852403 0.37800002 4278597654
0.072762154 0.04898164 0.37900001 4278795033
0.073993146 0.04898164 0.37900001 4278925849
0.075224139 0.04898164 0.37900001 4284316010
-0.0068887929 0.047695778 0.36000001 4283920227
-0.0057036243 0.047563292 0.35900003 4283788641
-0.0045375922 0.047563292 0.35900003 4284052326
-0.0033715598 0.047563292 0.35900003 4284644463
-0.0021993832 0.047430802 0.35800001 4284119403
-0.0010365986 0.047430802 0.35800001 4279974955
0.00012618597 0.047430802 0.35800001 4278857498
0.0012889706 0.047430802 0.35800001 4279450146
0.0024517551 0.047430802 0.35800001 4279581730
0.0036145397 0.047430802 0.35800001 4279450910
0.0047773244 0.047430802 0.35800001 4279320094
0.0059401086 0.047430802 0.35800001 4278991644
0.0071028937 0.047430802 0.35800001 4278925851
0.0082656788 0.047430802 0.35800001 4279123230
0.0094284629 0.047430802 0.35800001 4279123230
0.010591248 0.047430802 0.35800001 4279123230
0.011754032 0.047430802 0.35800001 4278991642
0.012916816 0.047430802 0.35800001 4278860826
0.014079601 0.047430802 0.35800001 4278795033
0.015242386 0.047430802 0.35800001 4278991642
0.016405171 0.047430802 0.35800001 4278860056
0.017567955 0.047430802 0.35800001 4279189021
0.018730739 0.047430802 0.35800001 4278860310
0.019949093 0.047563292 0.35900003 4278728724
0.021115126 0.047563292 0.35900003 4278860310
0.022343224 0.047695778 0.36000001 4278860310
0.023512503 0.047695778 0.36000001 4278860310
0.024750346 0.047828268 0.36100003 4278662931
0.025922874 0.047828268 0.36100003 4278926103
0.027170457 0.047960754 0.36200002 4278728724
0.028346235 0.047960754 0.36200002 4278794517
0.029603563 0.048093241 0.36300001 4278794517
0.03078259 0.048093241 0.36300001 4278728724
0.031961612 0.048093241 0.36300001 4278860310
0.033231933 0.048225731 0.36400002 4278662931
0.034414209 0.048225731 0.36400002 4278794517
0.035596479 0.048225731 0.36400002 4278794517
0.036879793 0.048358217 0.36500001 4278794517
0.038065314 0.048358217 0.36500001 4278663701
0.039250832 0.048358217 0.36500001 4278729494
0.04054714 0.048490711 0.36600003 4278795287
0.04173591 0.048490711 0.36600003 4278794517
0.043041959 0.048623197 0.36700001 4278662931
0.044233974 0.048623197 0.36700001 4278794517
0.045549769 0.048755687 0.36800003 4278859797
0.046745032 0.048755687 0.36800003 4278925336
0.048070569 0.048888173 0.36900002 4278991129
0.049269084 0.048888173 0.36900002 4278924566
0.050604358 0.049020659 0.37 4278990359
0.051806122 0.049020659 0.37 4279121945
0.053007882 0.049020659 0.37 4278924566
0.054356162 0.049153149 0.37100002 4278990359
0.055561166 0.049153149 0.37100002 4279056152
0.056919184 0.049285635 0.37200001 4279121431
0.058283698 0.049418125 0.37300003 4279516189
0.059495199 0.049418125 0.37300003 4279120920
0.060869459 0.049550612 0.37400001 4279318299
0.062084213 0.049550612 0.37400001 4279448861
0.06346821 0.049683105 0.37500003 4279646240
0.064686216 0.049683105 0.37500003 4279187226
0.066079959 0.049815591 0.37600002 4278925336
0.067480199 0.049948078 0.377 4278794517
0.068704695 0.049948078 0.377 4278728724
0.07011468 0.050080568 0.37800002 4278729494
0.071342431 0.050080568 0.37800002 4278663701
0.072762154 0.050213054 0.37900001 4279056922
0.073993146 0.050213054 0.37900001 4279252252
-0.0057036243 0.048729714 0.35900003 4283920227
-0.0045375922 0.048729714 0.35900003 4284117606
-0.0033715598 0.048729714 0.35900003 4284512877
-0.0021993832 0.048593976 0.35800001 4284644463
-0.0010365986 0.048593976 0.35800001 4284907635
0.00012618597 0.048593976 0.35800001 4285236600
0.0012889706 0.048593976 0.35800001 4285171319
0.0024517551 0.048593976 0.35800001 4284579952
0.0036145397 0.048593976 0.35800001 4283593311
0.0047773244 0.048593976 0.35800001 4281751107
0.0059401086 0.048593976 0.35800001 4280436530
0.0071028937 0.048593976 0.35800001 4279252256
0.0082656788 0.048593976 0.35800001 4278923291
0.0094284629 0.048593976 0.35800001 4278726171
0.010591248 0.048593976 0.35800001 4278989343
0.011754032 0.048593976 0.35800001 4279186976
0.012916816 0.048593976 0.35800001 4278990109
0.014079601 0.048593976 0.35800001 4279121695
0.015242386 0.048593976 0.35800001 4279121693
0.016405171 0.048593976 0.35800001 4279384865
0.017567955 0.048593976 0.35800001 4279056670
0.018730739 0.048593976 0.35800001 4279188510
0.019893523 0.048593976 0.35800001 4279188510
0.021115126 0.048729714 0.35900003 4279188510
0.022343224 0.048865452 0.36000001 4279189023
0.023512503 0.048865452 0.36000001 4278991644
0.024750346 0.049001191 0.36100003 4279123230
0.025922874 0.049001191 0.36100003 4279123230
0.027170457 0.049136925 0.36200002 4278991644
0.028346235 0.049136925 0.36200002 4278860058
0.029603563 0.049272664 0.36300001 4278860058
0.03078259 0.049272664 0.36300001 4278728472
0.032049663 0.049408402 0.36400002 4278794263
0.033231933 0.049408402 0.36400002 4278860056
0.034414209 0.049408402 0.36400002 4278860056
0.035694271 0.049544137 0.36500001 4278794263
0.036879793 0.049544137 0.36500001 4278728470
0.038065314 0.049544137 0.36500001 4278597654
0.03935837 0.049679875 0.36600003 4278597654
0.04054714 0.049679875 0.36600003 4278597654
0.04173591 0.049679875 0.36600003 4278597654
0.043041959 0.049815614 0.36700001 4278663701
0.044233974 0.049815614 0.36700001 4278860310
0.045549769 0.049951352 0.36800003 4278926103
0.046745032 0.049951352 0.36800003 4278728470
0.048070569 0.050087087 0.36900002 4278794263
0.049269084 0.050087087 0.36900002 4278794263
0.050604358 0.050222825 0.37 4278925849
0.051806122 0.050222825 0.37 4278860056
0.053151149 0.050358564 0.37100002 4278860056
0.054356162 0.050358564 0.37100002 4278925849
0.055710923 0.050494298 0.37200001 4278860056
0.056919184 0.050494298 0.37200001 4278794263
0.058283698 0.050630037 0.37300003 4278794263
0.059495199 0.050630037 0.37300003 4278925849
0.060869459 0.050765775 0.37400001 4278991642
0.062084213 0.050765775 0.37400001 4278925336
0.06346821 0.050901514 0.37500003 4278925336
0.064858705 0.051037248 0.37600002 4279056922
0.066079959 0.051037248 0.37600002 4278925849
0.067480199 0.051172987 0.377 4278925849
0.068704695 0.051172987 0.377 4278729240
0.07011468 0.051308725 0.37800002 4278991642
0.071342431 0.051308725 0.37800002 4279123228
0.072762154 0.05144446 0.37900001 4278790933
0.073993146 0.05144446 0.37900001 4284710768
0.016405171 0.049757157 0.35800001 4283988330
0.017567955 0.049757157 0.35800001 4283067226
0.018730739 0.049757157 0.35800001 4282146378
0.019893523 0.049757157 0.35800001 4280698930
0.021056309 0.049757157 0.35800001 4279777828
0.022343224 0.05003513 0.36000001 4279646244
0.023512503 0.05003513 0.36000001 4278725658
0.024750346 0.050174121 0.36100003 4278726425
0.025922874 0.050174121 0.36100003 4278660632
0.027170457 0.050313104 0.36200002 4279318049
0.028346235 0.050313104 0.36200002 4279318047
0.029603563 0.050452087 0.36300001 4279383840
0.03078259 0.050452087 0.36300001 4279318560
0.032049663 0.050591078 0.36400002 4279187486
0.033231933 0.050591078 0.36400002 4279450658
0.034414209 0.050591078 0.36400002 4279121947
0.035694271 0.050730061 0.36500001 4279121947
0.036879793 0.050730061 0.36500001 4279254303
0.038065314 0.050730061 0.36500001 4279056924
0.03935837 0.050869051 0.36600003 4278991131
0.04054714 0.050869051 0.36600003 4279188510
0.041849941 0.051008034 0.36700001 4279056922
0.043041959 0.051008034 0.36700001 4279320094
0.044354506 0.051147025 0.36800003 4278991129
0.045549769 0.051147025 0.36800003 4279056922
0.046872053 0.051286008 0.36900002 4278793750
0.048070569 0.051286008 0.36900002 4279254301
0.049402602 0.051424995 0.37 4279254301
0.050604358 0.051424995 0.37 4279320094
0.051806122 0.051424995 0.37 4279188508
0.053151149 0.051563982 0.37100002 4279188508
0.054356162 0.051563982 0.37100002 4279254301
0.055710923 0.051702969 0.37200001 4278991129
0.056919184 0.051702969 0.37200001 4279254301
0.058283698 0.051841956 0.37300003 4279188508
0.059654702 0.051980942 0.37400001 4279188762
0.060869459 0.051980942 0.37400001 4279057176
0.062250216 0.052119929 0.37500003 4278925590
0.06346821 0.052119929 0.37500003 4279188762
0.064858705 0.052258916 0.37600002 4279188762
0.066079959 0.052258916 0.37600002 4279188762
0.067480199 0.052397899 0.377 4279188762
0.068886936 0.052536886 0.37800002 4279057176
0.07011468 0.052536886 0.37800002 4279516705
0.071342431 0.052536886 0.37800002 4279383838
0.072762154 0.052675873 0.37900001 4284841327
0.023512503 0.051204808 0.36000001 4285237366
0.024750346 0.051347047 0.36100003 4285039987
0.025922874 0.051347047 0.36100003 4285434491
0.03078259 0.051631514 0.36300001 4284646258
0.032049663 0.051773753 0.36400002 4284448366
0.033231933 0.051773753 0.36400002 4283461471
0.034414209 0.051773753 0.36400002 4283000920
0.035694271 0.051915988 0.36500001 4282343244
0.036879793 0.051915988 0.36500001 4281093690
0.038169604 0.052058224 0.36600003 4280172588
0.03935837 0.052058224 0.36600003 4279777830
0.04054714 0.052058224 0.36600003 4279974955
0.041849941 0.052200459 0.36700001 4279777576
0.043041959 0.052200459 0.36700001 4279580967
0.044354506 0.052342698 0.36800003 4279646760
0.045549769 0.052342698 0.36800003 4279580967
0.046872053 0.05248493 0.36900002 4279514658
0.048070569 0.05248493 0.36900002 4279514658
0.049402602 0.052627165 0.37 4279975209
0.050604358 0.052627165 0.37 4279712037
0.051946141 0.052769404 0.37100002 4279777830
0.053151149 0.052769404 0.37100002 4279843623
0.054356162 0.052769404 0.37100002 4279909416
0.055710923 0.052911635 0.37200001 4279908903
0.057072192 0.053053875 0.37300003 4280369452
0.058283698 0.053053875 0.37300003 4279712035
0.059654702 0.053196106 0.37400001 4280106793
0.060869459 0.053196106 0.37400001 4280238379
0.062250216 0.053338345 0.37500003 4280764725
0.06346821 0.053338345 0.37500003 4280435760
0.064858705 0.05348058 0.37600002 4280830005
0.066079959 0.05348058 0.37600002 4281356349
0.067480199 0.053622812 0.377 4281685314
0.068886936 0.053765051 0.37800002 4282803795
0.07011468 0.053765051 0.37800002 4284907633
0.071531162 0.053907286 0.37900001 4285433979
0.067659192 0.054993208 0.37800002 4285039733
0.068886936 0.054993208 0.37800002 4285039733
0.026840933 0.041735329 0.36426568 4294967295
0.026840933 0.041735329 0.36426568 4294901760
0.026840933 0.041735329 0.36476567 4294901760
