# .PCD v0.7 - Point Cloud Data file format
VERSION 0.7
FIELDS x y z rgb
SIZE 4 4 4 4
TYPE F F F U
COUNT 1 1 1 1
WIDTH 1051
HEIGHT 1
VIEWPOINT 0 0 0 1 0 0 0
POINTS 1051
DATA ascii
0.050545745 0.017367853 0.38800001 4278797597
0.051805973 0.017367853 0.38800001 4278404122
0.052929427 0.017323092 0.38700002 4282877792
0.054186404 0.017323092 0.38700002 4279323941
0.055443384 0.017323092 0.38700002 4278797595
0.056553848 0.017278329 0.38600001 4278797080
0.057807572 0.017278329 0.38600001 4278862873
0.0590613 0.017278329 0.38600001 4278862873
0.060158778 0.017233565 0.38500002 4278797593
0.061409254 0.017233565 0.38500002 4278797595
0.062496983 0.017188802 0.384 4278731800
0.063744217 0.017188802 0.384 4278731800
0.064991444 0.017188802 0.384 4278600214
0.066411175 0.017233565 0.38500002 4278797593
0.067661658 0.017233565 0.38500002 4278666007
0.068912141 0.017233565 0.38500002 4278666007
0.070344858 0.017278329 0.38600001 4278731800
0.071598589 0.017278329 0.38600001 4278666007
0.072852321 0.017278329 0.38600001 4278797595
0.074106045 0.017278329 0.38600001 4278797595
0.075359777 0.017278329 0.38600001 4278731802
0.076415025 0.017233565 0.38500002 4278600216
0.097926885 0.017278329 0.38600001 4278797595
0.099180616 0.017278329 0.38600001 4278994461
0.10043435 0.017278329 0.38600001 4278928668
0.10168808 0.017278329 0.38600001 4278862875
0.10294181 0.017278329 0.38600001 4278928668
0.10446548 0.017323092 0.38700002 4278862873
0.11090802 0.017546903 0.39200002 4279125533
0.11218124 0.017546903 0.39200002 4279125533
0.11345446 0.017546903 0.39200002 4279125533
0.11472767 0.017546903 0.39200002 4279125533
0.11629681 0.017591666 0.39300001 4279059738
0.11757327 0.017591666 0.39300001 4278928152
0.11884973 0.017591666 0.39300001 4279190556
0.1201262 0.017591666 0.39300001 4279124763
0.12330346 0.017681191 0.39500001 4279124763
0.12458641 0.017681191 0.39500001 4279780645
0.038725842 0.0190126 0.39600003 4279574291
0.039911009 0.018964587 0.39500001 4279639569
0.04108968 0.018916577 0.39400002 4279639569
0.042261854 0.018868564 0.39300001 4279771666
0.043427538 0.018820552 0.39200002 4279377678
0.044700753 0.018820552 0.39200002 4279183379
0.045856692 0.018772542 0.39100003 4279185943
0.04700613 0.018724529 0.39000002 4278859543
0.048272848 0.018724529 0.39000002 4278728724
0.049412545 0.018676519 0.38900003 4278467605
0.050545745 0.018628506 0.38800001 4278665496
0.051805973 0.018628506 0.38800001 4278468628
0.052929427 0.018580494 0.38700002 4278468630
0.054186404 0.018580494 0.38700002 4278204171
0.055443384 0.018580494 0.38700002 4278468628
0.056553848 0.018532483 0.38600001 4278403089
0.057807572 0.018532483 0.38600001 4278468882
0.058908295 0.018484471 0.38500002 4278600468
0.060158778 0.018484471 0.38500002 4278600468
0.061409254 0.018484471 0.38500002 4278469398
0.062496983 0.01843646 0.384 4278206226
0.063744217 0.01843646 0.384 4278205969
0.064991444 0.01843646 0.384 4278272019
0.066411175 0.018484471 0.38500002 4278469398
0.067661658 0.018484471 0.38500002 4278272019
0.068912141 0.018484471 0.38500002 4278272019
0.070344858 0.018532483 0.38600001 4278205969
0.071598589 0.018532483 0.38600001 4278272019
0.072852321 0.018532483 0.38600001 4278206226
0.074106045 0.018532483 0.38600001 4278205712
0.075359777 0.018532483 0.38600001 4278337042
0.076415025 0.018484471 0.38500002 4278666009
0.0776655 0.018484471 0.38500002 4278402835
0.096673153 0.018532483 0.38600001 4278600214
0.097926885 0.018532483 0.38600001 4278468628
0.099180616 0.018532483 0.38600001 4278600214
0.10043435 0.018532483 0.38600001 4278402835
0.10195152 0.018580494 0.38700002 4278994459
0.1032085 0.018580494 0.38700002 4278533908
0.10473541 0.018628506 0.38800001 4278797080
0.106542 0.018724529 0.39000002 4278665494
0.10808516 0.018772542 0.39100003 4278994459
0.10935513 0.018772542 0.39100003 4278797080
0.11090802 0.018820552 0.39200002 4278928666
0.11218124 0.018820552 0.39200002 4278862873
0.11345446 0.018820552 0.39200002 4278994459
0.11472767 0.018820552 0.39200002 4278862873
0.11629681 0.018868564 0.39300001 4279191838
0.11757327 0.018868564 0.39300001 4278994459
0.11884973 0.018868564 0.39300001 4278994461
0.1201262 0.018868564 0.39300001 4279059740
0.12171158 0.018916577 0.39400002 4279257119
0.1229913 0.018916577 0.39400002 4279059740
0.12458641 0.018964587 0.39500001 4278993947
0.12586936 0.018964587 0.39500001 4279190558
0.037439633 0.020299245 0.39600003 4279706393
0.038725842 0.020299245 0.39600003 4279573778
0.039809968 0.020196723 0.39400002 4279573776
0.04108968 0.020196723 0.39400002 4279639569
0.042261854 0.020145461 0.39300001 4279573774
0.043427538 0.020094201 0.39200002 4279377678
0.044586722 0.020042941 0.39100003 4279117840
0.045739412 0.019991679 0.39000002 4279384090
0.04700613 0.019991679 0.39000002 4278793750
0.048149075 0.019940419 0.38900003 4278530578
0.049412545 0.019940419 0.38900003 4278204176
0.050545745 0.019889157 0.38800001 4278599189
0.051805973 0.019889157 0.38800001 4278533394
0.053066194 0.019889157 0.38800001 4278533908
0.054186404 0.019837897 0.38700002 4278533908
0.055443384 0.019837897 0.38700002 4278533908
0.056553848 0.019786635 0.38600001 4278533394
0.057807572 0.019786635 0.38600001 4278533394
0.058908295 0.019735375 0.38500002 4278796566
0.060158778 0.019735375 0.38500002 4278533394
0.061409254 0.019735375 0.38500002 4278533394
0.062496983 0.019684114 0.384 4278533394
0.063744217 0.019684114 0.384 4278467601
0.064991444 0.019684114 0.384 4278467603
0.066411175 0.019735375 0.38500002 4278533396
0.067661658 0.019735375 0.38500002 4278401810
0.068912141 0.019735375 0.38500002 4278467601
0.070344858 0.019786635 0.38600001 4278467601
0.071598589 0.019786635 0.38600001 4278467601
0.072852321 0.019786635 0.38600001 4278533394
0.074106045 0.019786635 0.38600001 4278467601
0.075359777 0.019786635 0.38600001 4278664980
0.076613501 0.019786635 0.38600001 4278533396
0.0776655 0.019735375 0.38500002 4278664982
0.096923605 0.019837897 0.38700002 4278599187
0.098180585 0.019837897 0.38700002 4278796566
0.099437565 0.019837897 0.38700002 4278664210
0.10069454 0.019837897 0.38700002 4278730003
0.10195152 0.019837897 0.38700002 4278730005
0.1032085 0.019837897 0.38700002 4278927384
0.10500535 0.019940419 0.38900003 4278795798
0.106542 0.019991679 0.39000002 4278664212
0.10808516 0.020042941 0.39100003 4278730005
0.10935513 0.020042941 0.39100003 4278730005
0.11090802 0.020094201 0.39200002 4278598419
0.11218124 0.020094201 0.39200002 4278795798
0.11345446 0.020094201 0.39200002 4278730005
0.11472767 0.020094201 0.39200002 4278599189
0.11629681 0.020145461 0.39300001 4278599187
0.11757327 0.020145461 0.39300001 4278599187
0.11884973 0.020145461 0.39300001 4278796566
0.1201262 0.020145461 0.39300001 4278599187
0.12171158 0.020196723 0.39400002 4278664980
0.1229913 0.020196723 0.39400002 4278533394
0.12427101 0.020196723 0.39400002 4278664982
0.12555072 0.020196723 0.39400002 4278862361
0.12715234 0.020247983 0.39500001 4279318047
0.029572265 0.021476869 0.39400002 4280034579
0.030930284 0.021531377 0.39500001 4280099602
0.032294799 0.021585887 0.39600003 4280100633
0.033581007 0.021585887 0.39600003 4279772438
0.034955263 0.021640398 0.39700001 4284249442
0.036244716 0.021640398 0.39700001 4284052063
0.037439633 0.021585887 0.39600003 4285103729
0.038628045 0.021531377 0.39500001 4279707160
0.039809968 0.021476869 0.39400002 4279967764
0.040985391 0.021422358 0.39300001 4279835408
0.04215432 0.021367848 0.39200002 4279639567
0.043427538 0.021367848 0.39200002 4279377678
0.044586722 0.021313339 0.39100003 4278987279
0.045739412 0.021258829 0.39000002 4279252504
0.04700613 0.021258829 0.39000002 4279385371
0.048149075 0.021204319 0.38900003 4278596625
0.049412545 0.021204319 0.38900003 4278269456
0.050545745 0.021149809 0.38800001 4278664984
0.051805973 0.021149809 0.38800001 4278796570
0.053066194 0.021149809 0.38800001 4278928156
0.054326419 0.021149809 0.38800001 4278796568
0.055443384 0.0210953 0.38700002 4278664980
0.05670036 0.0210953 0.38700002 4278664980
0.057807572 0.02104079 0.38600001 4278599187
0.0590613 0.02104079 0.38600001 4278796566
0.060158778 0.020986279 0.38500002 4278467601
0.061409254 0.020986279 0.38500002 4278533394
0.062659733 0.020986279 0.38500002 4278664980
0.063910216 0.020986279 0.38500002 4278267406
0.065160699 0.020986279 0.38500002 4278198275
0.066411175 0.020986279 0.38500002 4278662929
0.067661658 0.020986279 0.38500002 4278861078
0.068912141 0.020986279 0.38500002 4278730005
0.070344858 0.02104079 0.38600001 4278730005
0.071598589 0.02104079 0.38600001 4278664210
0.072852321 0.02104079 0.38600001 4278664210
0.074106045 0.02104079 0.38600001 4278795796
0.075359777 0.02104079 0.38600001 4278730003
0.076613501 0.02104079 0.38600001 4278664212
0.078270689 0.021149809 0.38800001 4278730005
0.096923605 0.0210953 0.38700002 4278861076
0.098180585 0.0210953 0.38700002 4278992662
0.099437565 0.0210953 0.38700002 4279123478
0.10095473 0.021149809 0.38800001 4278926101
0.10221496 0.021149809 0.38800001 4278861078
0.10400856 0.021258829 0.39000002 4278861078
0.10527529 0.021258829 0.39000002 4278992664
0.10681519 0.021313339 0.39100003 4278861078
0.10808516 0.021313339 0.39100003 4279058457
0.1096348 0.021367848 0.39200002 4278861078
0.11090802 0.021367848 0.39200002 4278860308
0.11218124 0.021367848 0.39200002 4278531343
0.11345446 0.021367848 0.39200002 4279123480
0.11502033 0.021422358 0.39300001 4278991894
0.11629681 0.021422358 0.39300001 4278991894
0.11757327 0.021422358 0.39300001 4278861076
0.11884973 0.021422358 0.39300001 4278861076
0.1201262 0.021422358 0.39300001 4278795796
0.12171158 0.021476869 0.39400002 4278993175
0.1229913 0.021476869 0.39400002 4278993177
0.12427101 0.021476869 0.39400002 4278795798
0.12555072 0.021476869 0.39400002 4278992664
0.12715234 0.021531377 0.39500001 4279185943
0.028220745 0.022699254 0.39300001 4280429848
0.039708927 0.022699254 0.39300001 4279442703
0.040881105 0.022641497 0.39200002 4279836178
0.04215432 0.022641497 0.39200002 4279836946
0.043316755 0.022583738 0.39100003 4279509264
0.044586722 0.022583738 0.39100003 4279251223
0.045739412 0.022525977 0.39000002 4279055640
0.04700613 0.022525977 0.39000002 4278858773
0.048149075 0.02246822 0.38900003 4278530832
0.049412545 0.02246822 0.38900003 4278664214
0.050676022 0.02246822 0.38900003 4278730007
0.051939495 0.02246822 0.38900003 4278796570
0.053066194 0.02241046 0.38800001 4278928156
0.054326419 0.02241046 0.38800001 4278862361
0.055586647 0.02241046 0.38800001 4278795798
0.05670036 0.022352701 0.38700002 4278795798
0.057957333 0.022352701 0.38700002 4278795798
0.0590613 0.022294942 0.38600001 4278664212
0.060315032 0.022294942 0.38600001 4278730005
0.061409254 0.022237184 0.38500002 4278730005
0.062659733 0.022237184 0.38500002 4278730005
0.063910216 0.022237184 0.38500002 4278199817
0.065160699 0.022237184 0.38500002 4278265611
0.066411175 0.022237184 0.38500002 4278924818
0.067661658 0.022237184 0.38500002 4278991381
0.068912141 0.022237184 0.38500002 4278859795
0.070344858 0.022294942 0.38600001 4278727439
0.071598589 0.022294942 0.38600001 4278726927
0.072852321 0.022294942 0.38600001 4278989845
0.074298032 0.022352701 0.38700002 4278660880
0.075555012 0.022352701 0.38700002 4278660367
0.076811984 0.022352701 0.38700002 4278397195
0.078270689 0.02241046 0.38800001 4278462988
0.07953091 0.02241046 0.38800001 4278660369
0.080791138 0.02241046 0.38800001 4278199561
0.082051367 0.02241046 0.38800001 4278199047
0.083311588 0.02241046 0.38800001 4278198531
0.084571816 0.02241046 0.38800001 4279911199
0.085832037 0.02241046 0.38800001 4278200067
0.087092258 0.02241046 0.38800001 4278198017
0.088580206 0.02246822 0.38900003 4278199559
0.094897561 0.02246822 0.38900003 4278196224
0.096161038 0.02246822 0.38900003 4278196224
0.097174056 0.02241046 0.38800001 4278195456
0.098434277 0.02241046 0.38800001 4278196480
0.099694505 0.02241046 0.38800001 4278195712
0.10095473 0.02241046 0.38800001 4278196480
0.10247841 0.02246822 0.38900003 4278196736
0.10400856 0.022525977 0.39000002 4278196480
0.10554523 0.022583738 0.39100003 4278198275
0.10681519 0.022583738 0.39100003 4278330119
0.10836159 0.022641497 0.39200002 4278198533
0.1096348 0.022641497 0.39200002 4278198533
0.11090802 0.022641497 0.39200002 4278856465
0.11246742 0.022699254 0.39300001 4278856978
0.11374388 0.022699254 0.39300001 4278791185
0.11502033 0.022699254 0.39300001 4278791185
0.11629681 0.022699254 0.39300001 4278200329
0.11757327 0.022699254 0.39300001 4279123482
0.11884973 0.022699254 0.39300001 4278861078
0.1201262 0.022699254 0.39300001 4278992664
0.12140267 0.022699254 0.39300001 4278992664
0.1229913 0.022757014 0.39400002 4279058457
0.12427101 0.022757014 0.39400002 4279189273
0.12555072 0.022757014 0.39400002 4279189273
0.12683043 0.022757014 0.39400002 4279053844
0.025602503 0.023915144 0.39200002 4280363803
0.039708927 0.023976151 0.39300001 4284511846
0.040881105 0.023915144 0.39200002 4279311887
0.04215432 0.023915144 0.39200002 4279903252
0.043316755 0.023854136 0.39100003 4279641363
0.044586722 0.023854136 0.39100003 4279053844
0.045739412 0.023793127 0.39000002 4279056154
0.04700613 0.023793127 0.39000002 4278727187
0.048272848 0.023793127 0.39000002 4278596371
0.049412545 0.02373212 0.38900003 4278795798
0.050676022 0.02373212 0.38900003 4278730005
0.051939495 0.02373212 0.38900003 4278664982
0.053202964 0.02373212 0.38900003 4278862361
0.054466438 0.02373212 0.38900003 4278927384
0.055586647 0.023671111 0.38800001 4278927384
0.056846872 0.023671111 0.38800001 4279058970
0.057957333 0.023610104 0.38700002 4278927384
0.059214313 0.023610104 0.38700002 4278927384
0.060315032 0.023549095 0.38600001 4278664212
0.061568756 0.023549095 0.38600001 4278795798
0.062659733 0.023488088 0.38500002 4278795285
0.063910216 0.023488088 0.38500002 4278462218
0.065160699 0.023488088 0.38500002 4278330634
0.066411175 0.023488088 0.38500002 4278925590
0.067661658 0.023488088 0.38500002 4278465039
0.069091134 0.023549095 0.38600001 4278392834
0.070344858 0.023549095 0.38600001 4278523396
0.071598589 0.023549095 0.38600001 4278523398
0.073041059 0.023610104 0.38700002 4278523400
0.074298032 0.023610104 0.38700002 4278720011
0.075555012 0.023610104 0.38700002 4278720011
0.076811984 0.023610104 0.38700002 4278654218
0.078270689 0.023671111 0.38800001 4278720011
0.07953091 0.023671111 0.38800001 4278391560
0.080791138 0.023671111 0.38800001 4278458377
0.082051367 0.023671111 0.38800001 4278458377
0.083311588 0.023671111 0.38800001 4278392582
0.084571816 0.023671111 0.38800001 4279318551
0.085832037 0.023671111 0.38800001 4279713309
0.087316729 0.02373212 0.38900003 4279319064
0.088580206 0.02373212 0.38900003 4279581723
0.089843675 0.02373212 0.38900003 4279318551
0.091107145 0.02373212 0.38900003 4279384344
0.092370622 0.02373212 0.38900003 4279384090
0.093634091 0.02373212 0.38900003 4279384090
0.094897561 0.02373212 0.38900003 4279516189
0.096161038 0.02373212 0.38900003 4279318810
0.097424507 0.02373212 0.38900003 4279450396
0.098687984 0.02373212 0.38900003 4279647775
0.099951454 0.02373212 0.38900003 4279319578
0.10121493 0.02373212 0.38900003 4279385371
0.10274184 0.023793127 0.39000002 4279319578
0.10427526 0.023854136 0.39100003 4279187992
0.10554523 0.023854136 0.39100003 4279187992
0.10708836 0.023915144 0.39200002 4279385371
0.10836159 0.023915144 0.39200002 4279450650
0.10991448 0.023976151 0.39300001 4279187478
0.11119094 0.023976151 0.39300001 4279516443
0.11246742 0.023976151 0.39300001 4279319578
0.11374388 0.023976151 0.39300001 4279188762
0.11502033 0.023976151 0.39300001 4279647777
0.11629681 0.023976151 0.39300001 4279383320
0.11757327 0.023976151 0.39300001 4279254553
0.11884973 0.023976151 0.39300001 4279058457
0.1201262 0.023976151 0.39300001 4278992664
0.12140267 0.023976151 0.39300001 4279058457
0.1229913 0.02403716 0.39400002 4279058457
0.12427101 0.02403716 0.39400002 4279189273
0.12555072 0.02403716 0.39400002 4279188762
0.12683043 0.02403716 0.39400002 4279317277
0.040881105 0.025188792 0.39200002 4282538056
0.04215432 0.025188792 0.39200002 4279443473
0.043316755 0.025124537 0.39100003 4279510545
0.044586722 0.025124537 0.39100003 4279054355
0.045856692 0.025124537 0.39100003 4279056152
0.04700613 0.025060279 0.39000002 4278530832
0.048272848 0.025060279 0.39000002 4278531345
0.04953957 0.025060279 0.39000002 4278795798
0.050806291 0.025060279 0.39000002 4278795798
0.052073013 0.025060279 0.39000002 4278927384
0.053339731 0.025060279 0.39000002 4279124763
0.054466438 0.024996022 0.38900003 4278927384
0.055729914 0.024996022 0.38900003 4278730005
0.056846872 0.024931764 0.38800001 4278795798
0.058107093 0.024931764 0.38800001 4278927384
0.059214313 0.024867509 0.38700002 4278730005
0.060471293 0.024867509 0.38700002 4278730005
0.061568756 0.024803249 0.38600001 4278730005
0.062822483 0.024803249 0.38600001 4278860308
0.064076215 0.024803249 0.38600001 4278591755
0.065329939 0.024803249 0.38600001 4279579164
0.066583671 0.024803249 0.38600001 4279056154
0.067837402 0.024803249 0.38600001 4278199561
0.069091134 0.024803249 0.38600001 4278589193
0.070344858 0.024803249 0.38600001 4278786058
0.071784079 0.024867509 0.38700002 4278785804
0.073041059 0.024867509 0.38700002 4278851597
0.074298032 0.024867509 0.38700002 4278917390
0.075555012 0.024867509 0.38700002 4279377941
0.076811984 0.024867509 0.38700002 4279576088
0.078270689 0.024931764 0.38800001 4278983951
0.07953091 0.024931764 0.38800001 4279641881
0.080791138 0.024931764 0.38800001 4279641879
0.082051367 0.024931764 0.38800001 4278852363
0.083311588 0.024931764 0.38800001 4279314197
0.084571816 0.024931764 0.38800001 4278990359
0.08605326 0.024996022 0.38900003 4278858773
0.087316729 0.024996022 0.38900003 4278329351
0.088580206 0.024996022 0.38900003 4278460169
0.089843675 0.024996022 0.38900003 4278395912
0.091107145 0.024996022 0.38900003 4278922769
0.092370622 0.024996022 0.38900003 4278660621
0.093634091 0.024996022 0.38900003 4278199045
0.094897561 0.024996022 0.38900003 4279384090
0.096161038 0.024996022 0.38900003 4278331402
0.097424507 0.024996022 0.38900003 4279253017
0.098687984 0.024996022 0.38900003 4278529296
0.10020839 0.025060279 0.39000002 4278529808
0.10147512 0.025060279 0.39000002 4279319324
0.10274184 0.025060279 0.39000002 4279253017
0.10427526 0.025124537 0.39100003 4278595087
0.10581516 0.025188792 0.39200002 4278660880
0.10708836 0.025188792 0.39200002 4278196992
0.10863802 0.02525305 0.39300001 4279121170
0.10991448 0.02525305 0.39300001 4278792205
0.11119094 0.02525305 0.39300001 4278200070
0.11246742 0.02525305 0.39300001 4278990613
0.11374388 0.02525305 0.39300001 4279188762
0.11502033 0.02525305 0.39300001 4278331404
0.11629681 0.02525305 0.39300001 4279647262
0.11757327 0.02525305 0.39300001 4279189273
0.11884973 0.02525305 0.39300001 4279123480
0.1201262 0.02525305 0.39300001 4279255066
0.12140267 0.02525305 0.39300001 4279123480
0.12267914 0.02525305 0.39300001 4279189273
0.12427101 0.025317308 0.39400002 4279320348
0.12555072 0.025317308 0.39400002 4279582496
0.040881105 0.026462441 0.39200002 4283855199
0.04215432 0.026462441 0.39200002 4279116303
0.043316755 0.026394935 0.39100003 4279314195
0.044586722 0.026394935 0.39100003 4279054357
0.045856692 0.026394935 0.39100003 4279055640
0.047126662 0.026394935 0.39100003 4278464785
0.048396628 0.026394935 0.39100003 4278465552
0.049666595 0.026394935 0.39100003 4278663699
0.050936565 0.026394935 0.39100003 4278795285
0.052206539 0.026394935 0.39100003 4279058970
0.053339731 0.026327427 0.39000002 4279058970
0.054606453 0.026327427 0.39000002 4278993177
0.055873174 0.026327427 0.39000002 4278795798
0.056993388 0.026259923 0.38900003 4278927384
0.058107093 0.026192416 0.38800001 4278598419
0.059367318 0.026192416 0.38800001 4278927384
0.060471293 0.02612491 0.38700002 4278795798
0.061728265 0.02612491 0.38700002 4278795798
0.062822483 0.026057404 0.38600001 4278729494
0.064076215 0.026057404 0.38600001 4278194176
0.065329939 0.026057404 0.38600001 4279383068
0.066583671 0.026057404 0.38600001 4279450910
0.067837402 0.026057404 0.38600001 4278197250
0.069091134 0.026057404 0.38600001 4278721549
0.070344858 0.026057404 0.38600001 4279642651
0.071784079 0.02612491 0.38700002 4278195205
0.073041059 0.02612491 0.38700002 4279050514
0.074298032 0.02612491 0.38700002 4278524170
0.075555012 0.02612491 0.38700002 4278260998
0.077010468 0.026192416 0.38800001 4278590472
0.078270689 0.026192416 0.38800001 4278786568
0.07953091 0.026192416 0.38800001 4279709723
0.080791138 0.026192416 0.38800001 4278196484
0.082051367 0.026192416 0.38800001 4278720779
0.083526313 0.026259923 0.38900003 4279775516
0.084789783 0.026259923 0.38900003 4279056406
0.08605326 0.026259923 0.38900003 4278198531
0.087316729 0.026259923 0.38900003 4278654984
0.088580206 0.026259923 0.38900003 4278983435
0.089843675 0.026259923 0.38900003 4278394376
0.091107145 0.026259923 0.38900003 4278987797
0.092370622 0.026259923 0.38900003 4279450650
0.093634091 0.026259923 0.38900003 4278199816
0.095141515 0.026327427 0.39000002 4278725138
0.096408233 0.026327427 0.39000002 4279449115
0.097674951 0.026327427 0.39000002 4279121685
0.098941676 0.026327427 0.39000002 4278397197
0.10020839 0.026327427 0.39000002 4278199307
0.10147512 0.026327427 0.39000002 4278527761
0.10300529 0.026394935 0.39100003 4278395662
0.10454194 0.026462441 0.39200002 4279777567
0.10581516 0.026462441 0.39200002 4278922258
0.10736155 0.026529947 0.39300001 4279580186
0.10863802 0.026529947 0.39300001 4279383320
0.10991448 0.026529947 0.39300001 4278790670
0.11147388 0.026597453 0.39400002 4278461707
0.11275359 0.026597453 0.39400002 4279647262
0.11403331 0.026597453 0.39400002 4279188762
0.11502033 0.026529947 0.39300001 4278195712
0.11629681 0.026529947 0.39300001 4279385117
0.11757327 0.026529947 0.39300001 4278991896
0.11884973 0.026529947 0.39300001 4279124250
0.1201262 0.026529947 0.39300001 4279255064
0.12140267 0.026529947 0.39300001 4279254551
0.12267914 0.026529947 0.39300001 4279254551
0.12395559 0.026529947 0.39300001 4279254553
0.12555072 0.026597453 0.39400002 4280567344
0.040881105 0.027736088 0.39200002 4283657307
0.04215432 0.027736088 0.39200002 4281420856
0.043427538 0.027736088 0.39200002 4279118613
0.044700753 0.027736088 0.39200002 4279120666
0.045856692 0.027665334 0.39100003 4279055640
0.047126662 0.027665334 0.39100003 4278596625
0.048396628 0.027665334 0.39100003 4278662931
0.049666595 0.027665334 0.39100003 4278861080
0.050936565 0.027665334 0.39100003 4278861080
0.052206539 0.027665334 0.39100003 4278993179
0.053476501 0.027665334 0.39100003 4278993179
0.054746471 0.027665334 0.39100003 4278795798
0.056016441 0.027665334 0.39100003 4278927384
0.0571399 0.027594578 0.39000002 4278664212
0.058256857 0.027523823 0.38900003 4278664212
0.059367318 0.027453067 0.38800001 4278992664
0.060627546 0.027453067 0.38800001 4278992664
0.061728265 0.027382312 0.38700002 4278795285
0.062985241 0.027382312 0.38700002 4278795287
0.064242221 0.027382312 0.38700002 4278394380
0.065329939 0.027311556 0.38600001 4279383838
0.066583671 0.027311556 0.38600001 4279056152
0.067837402 0.027311556 0.38600001 4278196997
0.069270127 0.027382312 0.38700002 4279378195
0.070527099 0.027382312 0.38700002 4278523400
0.071784079 0.027382312 0.38700002 4279379479
0.073041059 0.027382312 0.38700002 4278721549
0.074298032 0.027382312 0.38700002 4278851851
0.075750239 0.027453067 0.38800001 4278983437
0.077010468 0.027453067 0.38800001 4278720265
0.078270689 0.027453067 0.38800001 4279180814
0.07953091 0.027453067 0.38800001 4278985230
0.080791138 0.027453067 0.38800001 4278985230
0.082262844 0.027523823 0.38900003 4278589961
0.083526313 0.027523823 0.38900003 4280171301
0.084789783 0.027523823 0.38900003 4279187478
0.08605326 0.027523823 0.38900003 4278263558
0.087316729 0.027523823 0.38900003 4278786056
0.088580206 0.027523823 0.38900003 4278720265
0.089843675 0.027523823 0.38900003 4279644959
0.091341354 0.027594578 0.39000002 4278856724
0.092608072 0.027594578 0.39000002 4278199818
0.093874797 0.027594578 0.39000002 4279450396
0.095141515 0.027594578 0.39000002 4279647775
0.096408233 0.027594578 0.39000002 4278462990
0.097674951 0.027594578 0.39000002 4278726675
0.098941676 0.027594578 0.39000002 4279516191
0.10020839 0.027594578 0.39000002 4279253019
0.10173532 0.027665334 0.39100003 4279910949
0.10300529 0.027665334 0.39100003 4279647010
0.10454194 0.027736088 0.39200002 4279384092
0.10608509 0.027806843 0.39300001 4279515678
0.10736155 0.027806843 0.39300001 4279647262
0.10863802 0.027806843 0.39300001 4279581469
0.11019417 0.027877599 0.39400002 4279318297
0.11147388 0.027877599 0.39400002 4279647262
0.11275359 0.027877599 0.39400002 4279450396
0.11403331 0.027877599 0.39400002 4279647262
0.11531302 0.027877599 0.39400002 4278659086
0.11659273 0.027877599 0.39400002 4279254301
0.11757327 0.027806843 0.39300001 4279123482
0.11884973 0.027806843 0.39300001 4279320859
0.1201262 0.027806843 0.39300001 4279123480
0.12140267 0.027806843 0.39300001 4279255066
0.12267914 0.027806843 0.39300001 4279386652
0.12395559 0.027806843 0.39300001 4279054103
0.040881105 0.029009737 0.39200002 4283328855
0.04215432 0.029009737 0.39200002 4283394648
0.043427538 0.029009737 0.39200002 4278723345
0.044700753 0.029009737 0.39200002 4279251736
0.045973971 0.029009737 0.39200002 4279121433
0.047247186 0.029009737 0.39200002 4278596625
0.048520405 0.029009737 0.39200002 4278795287
0.04979362 0.029009737 0.39200002 4278927384
0.051066838 0.029009737 0.39200002 4278730005
0.052340057 0.029009737 0.39200002 4279124763
0.053613268 0.029009737 0.39200002 4278993177
0.054886486 0.029009737 0.39200002 4278927384
0.056016441 0.028935732 0.39100003 4278795285
0.057286412 0.028935732 0.39100003 4278795285
0.058406614 0.028861728 0.39000002 4278861078
0.05952033 0.028787725 0.38900003 4278795285
0.060627546 0.028713718 0.38800001 4278861078
0.061887767 0.028713718 0.38800001 4278729492
0.062985241 0.028639715 0.38700002 4278197248
0.064242221 0.028639715 0.38700002 4278196742
0.065499194 0.028639715 0.38700002 4278923289
0.066756174 0.028639715 0.38700002 4279318810
0.068013154 0.028639715 0.38700002 4278393863
0.069270127 0.028639715 0.38700002 4278720265
0.070527099 0.028639715 0.38700002 4278720265
0.071784079 0.028639715 0.38700002 4278785804
0.073041059 0.028639715 0.38700002 4278785804
0.074490011 0.028713718 0.38800001 4278851084
0.075750239 0.028713718 0.38800001 4278785291
0.077010468 0.028713718 0.38800001 4278851338
0.078270689 0.028713718 0.38800001 4278851338
0.07953091 0.028713718 0.38800001 4278588166
0.080999367 0.028787725 0.38900003 4278720265
0.082262844 0.028787725 0.38900003 4278260996
0.083526313 0.028787725 0.38900003 4279382039
0.084789783 0.028787725 0.38900003 4279186711
0.08605326 0.028787725 0.38900003 4279251223
0.087316729 0.028787725 0.38900003 4279578137
0.088807911 0.028861728 0.39000002 4279840539
0.090074636 0.028861728 0.39000002 4278723341
0.091341354 0.028861728 0.39000002 4278592269
0.092608072 0.028861728 0.39000002 4278658832
0.093874797 0.028861728 0.39000002 4278527500
0.095141515 0.028861728 0.39000002 4278196736
0.096408233 0.028861728 0.39000002 4278198020
0.097674951 0.028861728 0.39000002 4278196736
0.098941676 0.028861728 0.39000002 4278196224
0.10046534 0.028935732 0.39100003 4278195712
0.10173532 0.028935732 0.39100003 4278195712
0.10326872 0.029009737 0.39200002 4278195456
0.10454194 0.029009737 0.39200002 4278195968
0.10608509 0.02908374 0.39300001 4278195200
0.10736155 0.02908374 0.39300001 4278195968
0.10891445 0.029157747 0.39400002 4278196225
0.11019417 0.029157747 0.39400002 4278195968
0.11147388 0.029157747 0.39400002 4278195968
0.11275359 0.029157747 0.39400002 4278196224
0.11403331 0.029157747 0.39400002 4278395914
0.11531302 0.029157747 0.39400002 4279713055
0.11659273 0.029157747 0.39400002 4279254555
0.11787244 0.029157747 0.39400002 4279320348
0.11915216 0.029157747 0.39400002 4279320861
0.1201262 0.02908374 0.39300001 4279320861
0.12140267 0.02908374 0.39300001 4279320348
0.12267914 0.02908374 0.39300001 4279056152
0.03843246 0.030360637 0.39300001 4283591514
0.039708927 0.030360637 0.39300001 4283525721
0.040881105 0.030283384 0.39200002 4283525721
0.04215432 0.030283384 0.39200002 4283065429
0.043427538 0.030283384 0.39200002 4283525980
0.044700753 0.030283384 0.39200002 4279119385
0.045973971 0.030283384 0.39200002 4279186713
0.047247186 0.030283384 0.39200002 4278662677
0.048520405 0.030283384 0.39200002 4278861080
0.049920641 0.030360637 0.39300001 4278861078
0.051197108 0.030360637 0.39300001 4278795798
0.052473575 0.030360637 0.39300001 4279124763
0.053750034 0.030360637 0.39300001 4278795798
0.054886486 0.030283384 0.39200002 4278927384
0.056159705 0.030283384 0.39200002 4278795798
0.057286412 0.030206133 0.39100003 4278664212
0.058406614 0.030128878 0.39000002 4278795798
0.059673335 0.030128878 0.39000002 4278597906
0.060783803 0.030051624 0.38900003 4278992664
0.061887767 0.029974369 0.38800001 4278991894
0.063147992 0.029974369 0.38800001 4278727187
0.064242221 0.029897118 0.38700002 4278790931
0.065499194 0.029897118 0.38700002 4279318812
0.066756174 0.029897118 0.38700002 4279187738
0.068013154 0.029897118 0.38700002 4279186713
0.069270127 0.029897118 0.38700002 4279381273
0.070527099 0.029897118 0.38700002 4279512859
0.071784079 0.029897118 0.38700002 4279776031
0.073041059 0.029897118 0.38700002 4279841824
0.074490011 0.029974369 0.38800001 4279973410
0.075750239 0.029974369 0.38800001 4280104996
0.077010468 0.029974369 0.38800001 4279973410
0.078270689 0.029974369 0.38800001 4279973410
0.07973589 0.030051624 0.38900003 4280433961
0.080999367 0.030051624 0.38900003 4280302375
0.082262844 0.030051624 0.38900003 4279579934
0.083526313 0.030051624 0.38900003 4279384092
0.084789783 0.030051624 0.38900003 4279647264
0.08605326 0.030051624 0.38900003 4279713057
0.087541193 0.030128878 0.39000002 4279712287
0.088807911 0.030128878 0.39000002 4279514908
0.090074636 0.030128878 0.39000002 4279843871
0.091341354 0.030128878 0.39000002 4279909664
0.092608072 0.030128878 0.39000002 4279581469
0.093874797 0.030128878 0.39000002 4279647262
0.095141515 0.030128878 0.39000002 4279778848
0.096408233 0.030128878 0.39000002 4279581469
0.097674951 0.030128878 0.39000002 4279581469
0.099195376 0.030206133 0.39100003 4279581469
0.10046534 0.030206133 0.39100003 4279778848
0.10173532 0.030206133 0.39100003 4279581469
0.10326872 0.030283384 0.39200002 4279515676
0.10454194 0.030283384 0.39200002 4279581469
0.10608509 0.030360637 0.39300001 4279515676
0.10763474 0.030437892 0.39400002 4279778848
0.10891445 0.030437892 0.39400002 4279581982
0.11019417 0.030437892 0.39400002 4279647775
0.11147388 0.030437892 0.39400002 4279713822
0.11303977 0.030515144 0.39500001 4279648029
0.11432273 0.030515144 0.39500001 4279582236
0.11531302 0.030437892 0.39400002 4279713822
0.11659273 0.030437892 0.39400002 4279779615
0.11787244 0.030437892 0.39400002 4279516957
0.11915216 0.030437892 0.39400002 4279451164
0.1201262 0.030360637 0.39300001 4279318810
0.12140267 0.030360637 0.39300001 4281092405
0.12267914 0.030360637 0.39300001 4285828476
0.03843246 0.031637534 0.39300001 4283459928
0.039708927 0.031637534 0.39300001 4283525721
0.040985391 0.031637534 0.39300001 4283459928
0.04215432 0.031557031 0.39200002 4283328342
0.043427538 0.031557031 0.39200002 4282868052
0.044700753 0.031557031 0.39200002 4283658334
0.045973971 0.031557031 0.39200002 4279514141
0.047367714 0.031637534 0.39300001 4278793750
0.048644178 0.031637534 0.39300001 4278926103
0.049920641 0.031637534 0.39300001 4278992664
0.051197108 0.031637534 0.39300001 4278992664
0.052473575 0.031637534 0.39300001 4279190043
0.053750034 0.031637534 0.39300001 4279124250
0.055026501 0.031637534 0.39300001 4278993177
0.056302968 0.031637534 0.39300001 4278927384
0.057432923 0.031557031 0.39200002 4278993177
0.058556378 0.031476531 0.39100003 4278730005
0.059673335 0.031396028 0.39000002 4278795798
0.060783803 0.031315524 0.38900003 4278927384
0.062047273 0.031315524 0.38900003 4278531345
0.063147992 0.031235021 0.38800001 4278200586
0.06440822 0.031235021 0.38800001 4278397708
0.065499194 0.031154519 0.38700002 4278990359
0.066756174 0.031154519 0.38700002 4279056922
0.068013154 0.031154519 0.38700002 4279254814
0.069270127 0.031154519 0.38700002 4279254301
0.070527099 0.031154519 0.38700002 4279385117
0.071784079 0.031154519 0.38700002 4279385117
0.073041059 0.031154519 0.38700002 4279254301
0.074490011 0.031235021 0.38800001 4279056922
0.075750239 0.031235021 0.38800001 4279254301
0.077010468 0.031235021 0.38800001 4279385887
0.078270689 0.031235021 0.38800001 4279188508
0.07973589 0.031315524 0.38900003 4279320094
0.080999367 0.031315524 0.38900003 4279385887
0.082262844 0.031315524 0.38900003 4279320348
0.083526313 0.031315524 0.38900003 4279188762
0.084789783 0.031315524 0.38900003 4279057176
0.086274475 0.031396028 0.39000002 4279516957
0.087541193 0.031396028 0.39000002 4279319578
0.088807911 0.031396028 0.39000002 4279319578
0.090074636 0.031396028 0.39000002 4279385369
0.091341354 0.031396028 0.39000002 4279319576
0.092608072 0.031396028 0.39000002 4279516955
0.093874797 0.031396028 0.39000002 4279451162
0.095141515 0.031396028 0.39000002 4279516955
0.096408233 0.031396028 0.39000002 4279451162
0.097674951 0.031396028 0.39000002 4279385369
0.099195376 0.031476531 0.39100003 4279385371
0.10046534 0.031476531 0.39100003 4279582750
0.10173532 0.031476531 0.39100003 4279582750
0.10326872 0.031557031 0.39200002 4279713822
0.10454194 0.031557031 0.39200002 4279779615
0.10608509 0.031637534 0.39300001 4279648029
0.10763474 0.031718038 0.39400002 4279582236
0.10891445 0.031718038 0.39400002 4279121172
0.11019417 0.031718038 0.39400002 4279581469
0.11175681 0.031798538 0.39500001 4279383320
0.11303977 0.031798538 0.39500001 4279909151
0.11432273 0.031798538 0.39500001 4280830001
0.11560568 0.031798538 0.39500001 4281488446
0.11688864 0.031798538 0.39500001 4283067478
0.03843246 0.03291443 0.39300001 4283328342
0.039708927 0.03291443 0.39300001 4283328342
0.040985391 0.03291443 0.39300001 4283328342
0.042261854 0.03291443 0.39300001 4283065170
0.043427538 0.032830682 0.39200002 4283064916
0.044700753 0.032830682 0.39200002 4283328601
0.046091251 0.03291443 0.39300001 4284118631
0.047367714 0.03291443 0.39300001 4279777826
0.048644178 0.03291443 0.39300001 4279516191
0.049920641 0.03291443 0.39300001 4279385887
0.051327381 0.032998186 0.39400002 4279452447
0.052607097 0.032998186 0.39400002 4279124252
0.053886805 0.032998186 0.39400002 4279058459
0.05516652 0.032998186 0.39400002 4279058459
0.056302968 0.03291443 0.39300001 4278992666
0.057432923 0.032830682 0.39200002 4278861080
0.058556378 0.03274693 0.39100003 4279058459
0.059673335 0.032663178 0.39000002 4278992666
0.060940061 0.032663178 0.39000002 4279123482
0.062047273 0.032579426 0.38900003 4279189275
0.063147992 0.032495674 0.38800001 4279189275
0.06440822 0.032495674 0.38800001 4279254555
0.065668441 0.032495674 0.38800001 4279188762
0.066756174 0.032411922 0.38700002 4279123228
0.068013154 0.032411922 0.38700002 4279254301
0.069270127 0.032411922 0.38700002 4279188508
0.070527099 0.032411922 0.38700002 4279254301
0.071784079 0.032411922 0.38700002 4279320094
0.073041059 0.032411922 0.38700002 4279320094
0.074490011 0.032495674 0.38800001 4279254301
0.075750239 0.032495674 0.38800001 4279254301
0.077010468 0.032495674 0.38800001 4279188508
0.078472421 0.032579426 0.38900003 4279188508
0.07973589 0.032579426 0.38900003 4279320094
0.080999367 0.032579426 0.38900003 4279254301
0.082262844 0.032579426 0.38900003 4279254301
0.083526313 0.032579426 0.38900003 4279385887
0.085007749 0.032663178 0.39000002 4279516957
0.086274475 0.032663178 0.39000002 4279451164
0.087541193 0.032663178 0.39000002 4279450650
0.088807911 0.032663178 0.39000002 4279713822
0.090074636 0.032663178 0.39000002 4279450396
0.091341354 0.032663178 0.39000002 4279121431
0.092608072 0.032663178 0.39000002 4279253019
0.093874797 0.032663178 0.39000002 4279318299
0.095141515 0.032663178 0.39000002 4279384092
0.096408233 0.032663178 0.39000002 4279384092
0.097674951 0.032663178 0.39000002 4279976229
0.099195376 0.03274693 0.39100003 4281554491
0.10046534 0.03274693 0.39100003 4282606925
0.10173532 0.03274693 0.39100003 4283396441
0.10326872 0.032830682 0.39200002 4284383338
0.10454194 0.032830682 0.39200002 4285370233
0.10608509 0.03291443 0.39300001 4285697915
0.10763474 0.032998186 0.39400002 4285763708
0.10891445 0.032998186 0.39400002 4285894780
0.11019417 0.032998186 0.39400002 4285763194
0.11175681 0.033081934 0.39500001 4285434745
0.11303977 0.033081934 0.39500001 4285303159
0.11432273 0.033081934 0.39500001 4285368438
0.11560568 0.033081934 0.39500001 4285433718
0.11688864 0.033081934 0.39500001 4285499511
0.03843246 0.034191329 0.39300001 4283130709
0.039708927 0.034191329 0.39300001 4283328088
0.040985391 0.034191329 0.39300001 4283328342
0.042261854 0.034191329 0.39300001 4282999377
0.043538321 0.034191329 0.39300001 4283130709
0.044814784 0.034191329 0.39300001 4283394394
0.046091251 0.034191329 0.39300001 4283789152
0.047367714 0.034191329 0.39300001 4283658080
0.048644178 0.034191329 0.39300001 4284448620
0.05004767 0.034278329 0.39400002 4282541132
0.051327381 0.034278329 0.39400002 4280172838
0.052607097 0.034278329 0.39400002 4279187226
0.053886805 0.034278329 0.39400002 4278989847
0.05516652 0.034278329 0.39400002 4278727189
0.056302968 0.034191329 0.39300001 4278464017
0.057579435 0.034191329 0.39300001 4278726935
0.058706135 0.034104329 0.39200002 4278858775
0.059826348 0.034017328 0.39100003 4278989847
0.060940061 0.033930324 0.39000002 4279055640
0.062047273 0.033843327 0.38900003 4279252506
0.063147992 0.033756323 0.38800001 4279384090
0.06440822 0.033756323 0.38800001 4279713055
0.065668441 0.033756323 0.38800001 4279647264
0.066756174 0.033669323 0.38700002 4279976229
0.068013154 0.033669323 0.38700002 4281028145
0.069270127 0.033669323 0.38700002 4281093940
0.070527099 0.033669323 0.38700002 4281357112
0.071784079 0.033669323 0.38700002 4281356599
0.073041059 0.033669323 0.38700002 4281619771
0.074490011 0.033756323 0.38800001 4282145861
0.075750239 0.033756323 0.38800001 4282869584
0.077010468 0.033756323 0.38800001 4283198549
0.078472421 0.033843327 0.38900003 4283527514
0.07973589 0.033843327 0.38900003 4283198553
0.080999367 0.033843327 0.38900003 4284382827
0.082262844 0.033843327 0.38900003 4284382827
0.083526313 0.033843327 0.38900003 4284711792
0.085007749 0.033930324 0.39000002 4285171573
0.086274475 0.033930324 0.39000002 4285434743
0.087541193 0.033930324 0.39000002 4285369720
0.088807911 0.033930324 0.39000002 4285501306
0.090074636 0.033930324 0.39000002 4284776813
0.091341354 0.033930324 0.39000002 4285895294
0.092608072 0.033930324 0.39000002 4285303157
0.093874797 0.033930324 0.39000002 4285631608
0.095141515 0.033930324 0.39000002 4285172341
0.096408233 0.033930324 0.39000002 4285106548
0.097674951 0.033930324 0.39000002 4285106548
0.099195376 0.034017328 0.39100003 4285500536
0.10046534 0.034017328 0.39100003 4285566329
0.10173532 0.034017328 0.39100003 4285303157
0.10326872 0.034104329 0.39200002 4285500536
0.10454194 0.034104329 0.39200002 4285434745
0.10608509 0.034191329 0.39300001 4285434231
0.10763474 0.034278329 0.39400002 4285434231
0.10891445 0.034278329 0.39400002 4285499511
0.11019417 0.034278329 0.39400002 4285696890
0.11175681 0.03436533 0.39500001 4285433718
0.11303977 0.03436533 0.39500001 4285697403
0.11432273 0.03436533 0.39500001 4285697403
0.11560568 0.03436533 0.39500001 4285696890
0.040985391 0.035468228 0.39300001 4283196756
0.042261854 0.035468228 0.39300001 4282604619
0.043538321 0.035468228 0.39300001 4283064916
0.044814784 0.035468228 0.39300001 4283393881
0.046091251 0.035468228 0.39300001 4283789152
0.047367714 0.035468228 0.39300001 4283920738
0.076295704 0.024659354 0.39018679 4294967295
0.076295704 0.024659354 0.39018679 4294901760
0.076295704 0.024659354 0.39068678 4294901760
0.076295704 0.024659354 0.39118677 4294901760
0.076295704 0.024659354 0.3916868 4294901760
0.076295704 0.024659354 0.39218679 4294901760
0.076295704 0.024659354 0.39268678 4294901760
0.076295704 0.024659354 0.39318678 4294901760
0.076295704 0.024659354 0.3936868 4294901760
0.076295704 0.024659354 0.39418679 4294901760
0.076295704 0.024659354 0.39468679 4294901760
0.076295704 0.024659354 0.39518678 4294901760
0.076295704 0.024659354 0.39568678 4294901760
0.076295704 0.024659354 0.3961868 4294901760
0.076295704 0.024659354 0.39668679 4294901760
0.076295704 0.024659354 0.39718679 4294901760
0.076295704 0.024659354 0.39768678 4294901760
0.076295704 0.024659354 0.3981868 4294901760
0.076295704 0.024659354 0.3986868 4294901760
0.076295704 0.024659354 0.39918679 4294901760
0.076295704 0.024659354 0.39968678 4294901760
0.076295704 0.024659354 0.40018678 4294901760
0.076295704 0.024659354 0.4006868 4294901760
0.076295704 0.024659354 0.40118679 4294901760
0.076295704 0.024659354 0.40168679 4294901760
0.076295704 0.024659354 0.40218678 4294901760
0.076295704 0.024659354 0.40268677 4294901760
0.076295704 0.024659354 0.4031868 4294901760
0.076295704 0.024659354 0.40368679 4294901760
0.076295704 0.024659354 0.40418679 4294901760
0.076295704 0.024659354 0.40468678 4294901760
0.076295704 0.024659354 0.4051868 4294901760
0.076295704 0.024659354 0.4056868 4294901760
0.076295704 0.024659354 0.40618679 4294901760
0.076295704 0.024659354 0.40668678 4294901760
0.076295704 0.024659354 0.40718681 4294901760
0.076295704 0.024659354 0.4076868 4294901760
0.076295704 0.024659354 0.40818679 4294901760
0.076295704 0.024659354 0.40868679 4294901760
0.076295704 0.024659354 0.40918678 4294901760
0.076295704 0.024659354 0.4096868 4294901760
0.076295704 0.024659354 0.4101868 4294901760
0.076295704 0.024659354 0.41068679 4294901760
0.076295704 0.024659354 0.41118678 4294901760
0.076295704 0.024659354 0.41168678 4294901760
0.076295704 0.024659354 0.4121868 4294901760
0.076295704 0.024659354 0.41268679 4294901760
0.076295704 0.024659354 0.41318679 4294901760
0.076295704 0.024659354 0.41368678 4294901760
0.076295704 0.024659354 0.41418681 4294901760
0.076295704 0.024659354 0.4146868 4294901760
0.076295704 0.024659354 0.41518679 4294901760
0.076295704 0.024659354 0.41568679 4294901760
0.076295704 0.024659354 0.41618678 4294901760
0.076295704 0.024659354 0.4166868 4294901760
0.076295704 0.024659354 0.4171868 4294901760
0.076295704 0.024659354 0.41768679 4294901760
0.076295704 0.024659354 0.41818678 4294901760
0.076295704 0.024659354 0.41868681 4294901760
0.076295704 0.024659354 0.4191868 4294901760
0.076295704 0.024659354 0.41968679 4294901760
0.076295704 0.024659354 0.42018679 4294901760
0.076295704 0.024659354 0.42068678 4294901760
0.076295704 0.024659354 0.4211868 4294901760
0.076295704 0.024659354 0.4216868 4294901760
0.076295704 0.024659354 0.42218679 4294901760
0.076295704 0.024659354 0.42268679 4294901760
0.076295704 0.024659354 0.42318681 4294901760
0.076295704 0.024659354 0.4236868 4294901760
0.076295704 0.024659354 0.4241868 4294901760
0.076295704 0.024659354 0.42468679 4294901760
0.076295704 0.024659354 0.42518678 4294901760
0.076295704 0.024659354 0.42568681 4294901760
0.076295704 0.024659354 0.4261868 4294901760
0.076295704 0.024659354 0.42668679 4294901760
0.076295704 0.024659354 0.42718679 4294901760
0.076295704 0.024659354 0.42768681 4294901760
0.076295704 0.024659354 0.4281868 4294901760
0.076295704 0.024659354 0.4286868 4294901760
0.076295704 0.024659354 0.42918679 4294901760
0.076295704 0.024659354 0.42968678 4294901760
0.076295704 0.024659354 0.43018681 4294901760
0.076295704 0.024659354 0.4306868 4294901760
0.076295704 0.024659354 0.4311868 4294901760
0.076295704 0.024659354 0.43168679 4294901760
0.076295704 0.024659354 0.43218678 4294901760
0.076295704 0.024659354 0.43268681 4294901760
0.076295704 0.024659354 0.4331868 4294901760
0.076295704 0.024659354 0.43368679 4294901760
0.076295704 0.024659354 0.43418679 4294901760
0.076295704 0.024659354 0.43468678 4294901760
0.076295704 0.024659354 0.4351868 4294901760
0.076295704 0.024659354 0.4356868 4294901760
0.076295704 0.024659354 0.43618679 4294901760
0.076295704 0.024659354 0.43668681 4294901760
0.076295704 0.024659354 0.43718681 4294901760
0.076295704 0.024659354 0.4376868 4294901760
0.076295704 0.024659354 0.43818679 4294901760
0.076295704 0.024659354 0.43868679 4294901760
0.076295704 0.024659354 0.43918681 4294901760
0.076295704 0.024659354 0.43968681 4294901760
0.076295704 0.024659354 0.4401868 4294901760
0.076295704 0.024659354 0.39018679 4278255360
0.076223493 0.024599679 0.39067793 4278255360
0.076151274 0.024540002 0.39116907 4278255360
0.076079063 0.024480326 0.39166021 4278255360
0.076006845 0.024420649 0.39215136 4278255360
0.075934634 0.024360973 0.3926425 4278255360
0.075862415 0.024301296 0.39313367 4278255360
0.075790204 0.024241621 0.39362481 4278255360
0.075717986 0.024181943 0.39411595 4278255360
0.075645775 0.024122268 0.3946071 4278255360
0.075573556 0.024062593 0.39509824 4278255360
0.075501345 0.024002915 0.39558938 4278255360
0.075429127 0.02394324 0.39608052 4278255360
0.075356916 0.023883563 0.39657167 4278255360
0.075284697 0.023823887 0.39706281 4278255360
0.075212486 0.02376421 0.39755398 4278255360
0.075140268 0.023704534 0.39804512 4278255360
0.075068057 0.023644857 0.39853626 4278255360
0.074995838 0.023585182 0.39902741 4278255360
0.074923627 0.023525504 0.39951855 4278255360
0.074851409 0.023465829 0.40000969 4278255360
0.074779198 0.023406154 0.40050083 4278255360
0.074706979 0.023346476 0.40099198 4278255360
0.074634768 0.023286801 0.40148312 4278255360
0.07456255 0.023227124 0.40197426 4278255360
0.074490339 0.023167448 0.4024654 4278255360
0.074418128 0.023107771 0.40295658 4278255360
0.074345909 0.023048095 0.40344772 4278255360
0.074273698 0.022988418 0.40393886 4278255360
0.07420148 0.022928743 0.40443 4278255360
0.074129269 0.022869065 0.40492114 4278255360
0.07405705 0.02280939 0.40541229 4278255360
0.073984839 0.022749715 0.40590343 4278255360
0.073912621 0.022690037 0.40639457 4278255360
0.07384041 0.022630362 0.40688571 4278255360
0.073768191 0.022570685 0.40737689 4278255360
0.07369598 0.022511009 0.40786803 4278255360
0.073623762 0.022451332 0.40835917 4278255360
0.073551551 0.022391656 0.40885031 4278255360
0.073479332 0.022331979 0.40934145 4278255360
0.073407121 0.022272304 0.4098326 4278255360
0.073334903 0.022212628 0.41032374 4278255360
0.073262691 0.022152951 0.41081488 4278255360
0.073190473 0.022093276 0.41130602 4278255360
0.073118262 0.022033598 0.41179717 4278255360
0.073046044 0.021973923 0.41228831 4278255360
0.072973832 0.021914246 0.41277948 4278255360
0.072901614 0.02185457 0.41327062 4278255360
0.072829403 0.021794893 0.41376176 4278255360
0.072757185 0.021735217 0.41425291 4278255360
0.072684973 0.021675542 0.41474405 4278255360
0.072612762 0.021615865 0.41523519 4278255360
0.072540544 0.021556189 0.41572633 4278255360
0.072468333 0.021496512 0.41621748 4278255360
0.072396114 0.021436837 0.41670862 4278255360
0.072323903 0.021377159 0.41719979 4278255360
0.072251685 0.021317484 0.41769093 4278255360
0.072179474 0.021257807 0.41818208 4278255360
0.072107255 0.021198131 0.41867322 4278255360
0.072035044 0.021138456 0.41916436 4278255360
0.071962826 0.021078778 0.4196555 4278255360
0.071890615 0.021019101 0.42014664 4278255360
0.071818396 0.020959426 0.42063779 4278255360
0.071746185 0.02089975 0.42112893 4278255360
0.071673967 0.020840073 0.42162007 4278255360
0.071601756 0.020780398 0.42211121 4278255360
0.071529537 0.02072072 0.42260239 4278255360
0.071457326 0.020661045 0.42309353 4278255360
0.071385108 0.020601369 0.42358467 4278255360
0.071312897 0.020541692 0.42407581 4278255360
0.071240678 0.020482015 0.42456695 4278255360
0.071168467 0.020422339 0.4250581 4278255360
0.071096249 0.020362664 0.42554924 4278255360
0.071024038 0.020302987 0.42604038 4278255360
0.070951819 0.020243311 0.42653152 4278255360
0.070879608 0.020183634 0.4270227 4278255360
0.070807397 0.020123959 0.42751384 4278255360
