# .PCD v0.7 - Point Cloud Data file format
VERSION 0.7
FIELDS x y z rgb
SIZE 4 4 4 4
TYPE F F F U
COUNT 1 1 1 1
WIDTH 1062
HEIGHT 1
VIEWPOINT 0 0 0 1 0 0 0
POINTS 1062
DATA ascii
0.074901782 0.074600674 0.303 4280437041
0.075635478 0.07435447 0.30200002 4280437039
0.076616377 0.07435447 0.30200002 4280764721
0.077340335 0.074108265 0.30100003 4279052306
0.078317977 0.074108265 0.30100003 4279579934
0.079295628 0.074108265 0.30100003 4280240426
0.060912564 0.077830255 0.31200001 4280302625
0.061727464 0.077580802 0.31100002 4280240166
0.062737592 0.077580802 0.31100002 4279780899
0.063542739 0.077331342 0.31 4279912485
0.064549617 0.077331342 0.31 4280109610
0.065345034 0.077081889 0.30900002 4280109094
0.066348664 0.077081889 0.30900002 4280371752
0.067134328 0.076832436 0.30800003 4279973660
0.068134718 0.076832436 0.30800003 4280501542
0.068910629 0.076582976 0.30700001 4280503850
0.06990777 0.076582976 0.30700001 4281029682
0.07067395 0.076333523 0.30600002 4279576086
0.071433619 0.076084062 0.30500001 4279443475
0.072424263 0.076084062 0.30500001 4279837463
0.073174201 0.07583461 0.30400002 4279575320
0.074161589 0.07583461 0.30400002 4281158968
0.074901782 0.075585149 0.303 4279712805
0.075885922 0.075585149 0.303 4278922517
0.076616377 0.075335696 0.30200002 4280764460
0.077597275 0.075335696 0.30200002 4280764973
0.078317977 0.075086243 0.30100003 4280830766
0.079295628 0.075086243 0.30100003 4278263558
0.080273278 0.075086243 0.30100003 4279513371
0.060912564 0.078843974 0.31200001 4284116573
0.061727464 0.078591272 0.31100002 4283592277
0.062737592 0.078591272 0.31100002 4281224241
0.063542739 0.078338563 0.31 4280371498
0.064549617 0.078338563 0.31 4280240426
0.065345034 0.078085862 0.30900002 4279846692
0.066348664 0.078085862 0.30900002 4280175657
0.067134328 0.077833161 0.30800003 4279978278
0.068134718 0.077833161 0.30800003 4280109092
0.068910629 0.077580452 0.30700001 4279909918
0.06990777 0.077580452 0.30700001 4278789900
0.07067395 0.077327751 0.30600002 4281090608
0.071667835 0.077327751 0.30600002 4279905051
0.072424263 0.077075042 0.30500001 4279706647
0.073174201 0.076822333 0.30400002 4279312402
0.074161589 0.076822333 0.30400002 4280961591
0.074901782 0.076569624 0.303 4280040487
0.075885922 0.076569624 0.303 4281028147
0.076616377 0.076316923 0.30200002 4279843871
0.077597275 0.076316923 0.30200002 4280436008
0.078317977 0.076064222 0.30100003 4280568877
0.079295628 0.076064222 0.30100003 4280568364
0.080273278 0.076064222 0.30100003 4280896561
0.080980986 0.075811513 0.30000001 4279118101
0.062737592 0.079601742 0.31100002 4283590229
0.063542739 0.079345785 0.31 4283722580
0.064549617 0.079345785 0.31 4280302625
0.065345034 0.079089835 0.30900002 4280502825
0.066133946 0.078833885 0.30800003 4279846692
0.067134328 0.078833885 0.30800003 4279978276
0.067913495 0.078577928 0.30700001 4279978276
0.068910629 0.078577928 0.30700001 4280175655
0.06990777 0.078577928 0.30700001 4280437545
0.07067395 0.078321978 0.30600002 4279973408
0.071667835 0.078321978 0.30600002 4279972125
0.072424263 0.078066014 0.30500001 4281419571
0.073414907 0.078066014 0.30500001 4281026350
0.074161589 0.077810064 0.30400002 4280699952
0.075148985 0.077810064 0.30400002 4279843619
0.075885922 0.077554107 0.303 4280699950
0.076616377 0.077298157 0.30200002 4280371498
0.077597275 0.077298157 0.30200002 4279711772
0.078317977 0.077042207 0.30100003 4281225011
0.079295628 0.077042207 0.30100003 4279712285
0.080273278 0.077042207 0.30100003 4280436008
0.080980986 0.07678625 0.30000001 4280830766
0.081955381 0.07678625 0.30000001 4281488696
0.082929783 0.07678625 0.30000001 4279249939
0.063542739 0.080353007 0.31 4284181598
0.064549617 0.080353007 0.31 4284181596
0.065345034 0.080093808 0.30900002 4283787858
0.066133946 0.07983461 0.30800003 4280828710
0.067134328 0.07983461 0.30800003 4280240678
0.067913495 0.079575405 0.30700001 4280241448
0.068910629 0.079575405 0.30700001 4279978276
0.069680057 0.079316199 0.30600002 4280241450
0.07067395 0.079316199 0.30600002 4280437291
0.071667835 0.079316199 0.30600002 4280700463
0.072424263 0.079056993 0.30500001 4279250453
0.073414907 0.079056993 0.30500001 4278789388
0.074161589 0.078797795 0.30400002 4280436008
0.075148985 0.078797795 0.30400002 4280633387
0.075885922 0.078538589 0.303 4279251221
0.076870069 0.078538589 0.303 4278988049
0.077597275 0.078279383 0.30200002 4279909153
0.078578167 0.078279383 0.30200002 4278789648
0.079295628 0.078020185 0.30100003 4280960557
0.080273278 0.078020185 0.30100003 4280763690
0.080980986 0.07776098 0.30000001 4279317014
0.081955381 0.07776098 0.30000001 4280765227
0.082929783 0.07776098 0.30000001 4280765227
0.083624512 0.077501781 0.29900002 4280370469
0.063542739 0.081360221 0.31 4284509534
0.064549617 0.081360221 0.31 4284377948
0.065556504 0.081360221 0.31 4284377946
0.066133946 0.080835328 0.30800003 4284048981
0.066916354 0.080572866 0.30700001 4283788371
0.067913495 0.080572866 0.30700001 4280762917
0.068910629 0.080572866 0.30700001 4280239653
0.069680057 0.080310419 0.30600002 4280174373
0.07067395 0.080310419 0.30600002 4280306473
0.071667835 0.080310419 0.30600002 4280240680
0.072424263 0.080047965 0.30500001 4280634924
0.073414907 0.080047965 0.30500001 4280568618
0.074161589 0.079785518 0.30400002 4280238118
0.075148985 0.079785518 0.30400002 4278592523
0.075885922 0.079523057 0.303 4280763692
0.076870069 0.079523057 0.303 4280633389
0.077597275 0.07926061 0.30200002 4280503084
0.078578167 0.07926061 0.30200002 4280172836
0.079295628 0.078998163 0.30100003 4280566311
0.080273278 0.078998163 0.30100003 4280764973
0.080980986 0.078735702 0.30000001 4279909151
0.081955381 0.078735702 0.30000001 4280172323
0.082929783 0.078735702 0.30000001 4280502571
0.083624512 0.078473255 0.29900002 4280700204
0.08431273 0.078210801 0.29800001 4280634411
0.085280634 0.078210801 0.29800001 4280568618
0.086248539 0.078210801 0.29800001 4279974176
0.06591922 0.08157035 0.30700001 4284114774
0.066916354 0.08157035 0.30700001 4283917908
0.067913495 0.08157035 0.30700001 4283786322
0.068686165 0.081304647 0.30600002 4283064648
0.069680057 0.081304647 0.30600002 4281157934
0.07067395 0.081304647 0.30600002 4280633641
0.071433619 0.081038944 0.30500001 4280371750
0.072424263 0.081038944 0.30500001 4280569129
0.073414907 0.081038944 0.30500001 4280503336
0.074161589 0.080773242 0.30400002 4280569131
0.075148985 0.080773242 0.30400002 4280568618
0.075885922 0.080507539 0.303 4280566313
0.076870069 0.080507539 0.303 4279315478
0.077597275 0.080241837 0.30200002 4280435497
0.078578167 0.080241837 0.30200002 4280896559
0.079295628 0.079976141 0.30100003 4279580186
0.080273278 0.079976141 0.30100003 4279842588
0.080980986 0.079710439 0.30000001 4279184658
0.081955381 0.079710439 0.30000001 4280566311
0.082653359 0.079444736 0.29900002 4279843358
0.083624512 0.079444736 0.29900002 4280698921
0.08431273 0.079179034 0.29800001 4280305444
0.085280634 0.079179034 0.29800001 4280700202
0.086248539 0.079179034 0.29800001 4280700204
0.086923771 0.078913331 0.29700002 4280896300
0.087888427 0.078913331 0.29700002 4280367905
0.099945791 0.077053428 0.29000002 4279979811
0.066916354 0.082567826 0.30700001 4284048981
0.06769228 0.082298875 0.30600002 4284114774
0.068686165 0.082298875 0.30600002 4283917395
0.069680057 0.082298875 0.30600002 4283392078
0.07067395 0.082298875 0.30600002 4283064648
0.071433619 0.082029924 0.30500001 4280763176
0.072424263 0.082029924 0.30500001 4280699434
0.073414907 0.082029924 0.30500001 4280371752
0.074161589 0.081760973 0.30400002 4280240166
0.075148985 0.081760973 0.30400002 4280700717
0.075885922 0.081492022 0.303 4280634924
0.076870069 0.081492022 0.303 4280568364
0.077597275 0.081223071 0.30200002 4280565799
0.078578167 0.081223071 0.30200002 4278723595
0.079295628 0.080954127 0.30100003 4280434473
0.080273278 0.080954127 0.30100003 4280698669
0.080980986 0.080685169 0.30000001 4280633387
0.081955381 0.080685169 0.30000001 4280896559
0.082653359 0.080416225 0.29900002 4280105762
0.083624512 0.080416225 0.29900002 4279842076
0.08431273 0.080147266 0.29800001 4279710488
0.085280634 0.080147266 0.29800001 4280304422
0.086248539 0.080147266 0.29800001 4280436778
0.086923771 0.079878323 0.29700002 4280699434
0.087888427 0.079878323 0.29700002 4280567848
0.088553913 0.079609364 0.296 4280633387
0.089515321 0.079609364 0.296 4280171555
0.090476729 0.079609364 0.296 4279578389
0.099345259 0.078264616 0.29100001 4279388957
0.10029043 0.078264616 0.29100001 4279125785
0.1012356 0.078264616 0.29100001 4279519773
0.10182964 0.077995665 0.29000002 4279651359
0.06769228 0.083293103 0.30600002 4283983188
0.068686165 0.083293103 0.30600002 4283917397
0.069680057 0.083293103 0.30600002 4283917395
0.07067395 0.083293103 0.30600002 4283852369
0.071433619 0.083020896 0.30500001 4284049746
0.072424263 0.083020896 0.30500001 4283196234
0.073174201 0.082748704 0.30400002 4280762663
0.074161589 0.082748704 0.30400002 4280632874
0.075148985 0.082748704 0.30400002 4280699434
0.075885922 0.082476497 0.303 4280502825
0.076616377 0.082204305 0.30200002 4280502825
0.077597275 0.082204305 0.30200002 4280765997
0.078317977 0.081932105 0.30100003 4280634411
0.079295628 0.081932105 0.30100003 4280368934
0.080273278 0.081932105 0.30100003 4279183892
0.080980986 0.081659898 0.30000001 4280237864
0.081955381 0.081659898 0.30000001 4280567596
0.082653359 0.081387706 0.29900002 4280436008
0.083624512 0.081387706 0.29900002 4280763692
0.084595665 0.081387706 0.29900002 4280302114
0.085280634 0.081115499 0.29800001 4279775516
0.086248539 0.081115499 0.29800001 4280566311
0.086923771 0.080843307 0.29700002 4280434725
0.087888427 0.080843307 0.29700002 4280238116
0.088553913 0.0805711 0.296 4280239399
0.089515321 0.0805711 0.296 4280568618
0.090476729 0.0805711 0.296 4280633641
0.091129236 0.080298908 0.29500002 4280434465
0.092730135 0.080026701 0.294 4278988310
0.093685046 0.080026701 0.294 4279910947
0.096841417 0.07948231 0.29200003 4278992664
0.097789824 0.07948231 0.29200003 4278795796
0.098738238 0.07948231 0.29200003 4279124761
0.099345259 0.079210103 0.29100001 4279323164
0.10029043 0.079210103 0.29100001 4279257371
0.1012356 0.079210103 0.29100001 4279323164
0.10218077 0.079210103 0.29100001 4279257117
0.10312594 0.079210103 0.29100001 4279519519
0.1040711 0.079210103 0.29100001 4279847201
0.10501627 0.079210103 0.29100001 4281158186
0.07067395 0.084287331 0.30600002 4283917649
0.071433619 0.084011875 0.30500001 4283786576
0.072424263 0.084011875 0.30500001 4283852629
0.073174201 0.083736435 0.30400002 4284378973
0.074161589 0.083736435 0.30400002 4284774503
0.074901782 0.083460979 0.303 4281222962
0.075885922 0.083460979 0.303 4280830507
0.076616377 0.083185531 0.30200002 4280568618
0.077597275 0.083185531 0.30200002 4280634409
0.078317977 0.082910091 0.30100003 4280568616
0.079295628 0.082910091 0.30100003 4280634409
0.080273278 0.082910091 0.30100003 4281028399
0.080980986 0.082634635 0.30000001 4280434727
0.081955381 0.082634635 0.30000001 4279645209
0.082653359 0.082359187 0.29900002 4280829483
0.083624512 0.082359187 0.29900002 4280698667
0.084595665 0.082359187 0.29900002 4280699180
0.085280634 0.082083732 0.29800001 4280369702
0.086248539 0.082083732 0.29800001 4280632104
0.086923771 0.081808291 0.29700002 4279974176
0.087888427 0.081808291 0.29700002 4280632106
0.088553913 0.081532836 0.296 4279777565
0.089515321 0.081532836 0.296 4280238883
0.090476729 0.081532836 0.296 4280765225
0.091129236 0.081257388 0.29500002 4280567846
0.092087395 0.081257388 0.29500002 4280633641
0.093045548 0.081257388 0.29500002 4280896048
0.093685046 0.08098194 0.294 4279250453
0.094639964 0.08098194 0.294 4279711004
0.095594876 0.08098194 0.294 4280304424
0.096221395 0.080706492 0.29300001 4280043299
0.097173057 0.080706492 0.29300001 4279517725
0.097789824 0.080431044 0.29200003 4279189271
0.098738238 0.080431044 0.29200003 4279255064
0.099345259 0.080155596 0.29100001 4278993429
0.10029043 0.080155596 0.29100001 4279256601
0.1012356 0.080155596 0.29100001 4279257371
0.10218077 0.080155596 0.29100001 4279257885
0.10312594 0.080155596 0.29100001 4279125785
0.1040711 0.080155596 0.29100001 4279453980
0.10501627 0.080155596 0.29100001 4279846942
0.10596144 0.080155596 0.29100001 4280240162
0.10690661 0.080155596 0.29100001 4282932301
0.073174201 0.084724151 0.30400002 4284444254
0.074161589 0.084724151 0.30400002 4284839012
0.074901782 0.084445447 0.303 4284642147
0.075885922 0.084445447 0.303 4285300075
0.076616377 0.084166758 0.30200002 4282405183
0.077597275 0.084166758 0.30200002 4280960296
0.078317977 0.083888061 0.30100003 4280829735
0.079295628 0.083888061 0.30100003 4280634409
0.080006585 0.083609357 0.30000001 4280700715
0.080980986 0.083609357 0.30000001 4280569129
0.081955381 0.083609357 0.30000001 4280634922
0.082653359 0.083330661 0.29900002 4280304424
0.083624512 0.083330661 0.29900002 4279381785
0.084595665 0.083330661 0.29900002 4280171555
0.085280634 0.083051965 0.29800001 4280699180
0.086248539 0.083051965 0.29800001 4280436778
0.086923771 0.082773268 0.29700002 4280040737
0.087888427 0.082773268 0.29700002 4280171555
0.088853084 0.082773268 0.29700002 4280303141
0.089515321 0.082494564 0.296 4280369184
0.090476729 0.082494564 0.296 4280106012
0.091438144 0.082494564 0.296 4280171805
0.092087395 0.082215868 0.29500002 4280435749
0.093045548 0.082215868 0.29500002 4280699180
0.094003707 0.082215868 0.29500002 4280567594
0.094639964 0.081937164 0.294 4280566313
0.095594876 0.081937164 0.294 4279578904
0.096221395 0.081658475 0.29300001 4280304676
0.097173057 0.081658475 0.29300001 4280240166
0.097789824 0.081379779 0.29200003 4280109864
0.098738238 0.081379779 0.29200003 4279649311
0.09968666 0.081379779 0.29200003 4279255318
0.10029043 0.081101075 0.29100001 4279189525
0.1012356 0.081101075 0.29100001 4279125015
0.10218077 0.081101075 0.29100001 4279323164
0.10312594 0.081101075 0.29100001 4279257371
0.1040711 0.081101075 0.29100001 4279190808
0.10501627 0.081101075 0.29100001 4279190295
0.10596144 0.081101075 0.29100001 4279584283
0.10690661 0.081101075 0.29100001 4280368932
0.075635478 0.085147984 0.30200002 4285101671
0.076616377 0.085147984 0.30200002 4285299050
0.077340335 0.084866039 0.30100003 4285891702
0.078317977 0.084866039 0.30100003 4283852117
0.079295628 0.084866039 0.30100003 4280500520
0.080006585 0.084584087 0.30000001 4280633387
0.080980986 0.084584087 0.30000001 4280502571
0.081955381 0.084584087 0.30000001 4280699950
0.082653359 0.08430215 0.29900002 4280568877
0.083624512 0.08430215 0.29900002 4280634670
0.084595665 0.08430215 0.29900002 4280896561
0.085280634 0.084020197 0.29800001 4279579164
0.086248539 0.084020197 0.29800001 4280039715
0.087216437 0.084020197 0.29800001 4280699182
0.087888427 0.083738253 0.29700002 4280567594
0.088853084 0.083738253 0.29700002 4280238629
0.089515321 0.0834563 0.296 4280633126
0.090476729 0.0834563 0.296 4279711254
0.091438144 0.0834563 0.296 4280763428
0.092087395 0.083174355 0.29500002 4279973914
0.093045548 0.083174355 0.29500002 4280305192
0.094003707 0.083174355 0.29500002 4280239912
0.094639964 0.082892403 0.294 4280436778
0.095594876 0.082892403 0.294 4280830253
0.096549787 0.082892403 0.294 4278854666
0.097173057 0.082610466 0.29300001 4280305192
0.098124713 0.082610466 0.29300001 4280306473
0.098738238 0.082328521 0.29200003 4280306473
0.09968666 0.082328521 0.29200003 4279912481
0.10063507 0.082328521 0.29200003 4279715356
0.1012356 0.082046568 0.29100001 4279058709
0.10218077 0.082046568 0.29100001 4279058709
0.10312594 0.082046568 0.29100001 4279123730
0.1040711 0.082046568 0.29100001 4279452695
0.10501627 0.082046568 0.29100001 4279386902
0.10596144 0.082046568 0.29100001 4279386902
0.10690661 0.082046568 0.29100001 4279845145
0.077340335 0.085844025 0.30100003 4285364591
0.078317977 0.085844025 0.30100003 4285430384
0.079295628 0.085844025 0.30100003 4285760630
0.080006585 0.085558824 0.30000001 4284971884
0.080980986 0.085558824 0.30000001 4281156653
0.081682198 0.085273631 0.29900002 4281025835
0.082653359 0.085273631 0.29900002 4280634157
0.083624512 0.085273631 0.29900002 4280700463
0.084595665 0.085273631 0.29900002 4280634670
0.085280634 0.08498843 0.29800001 4280699950
0.086248539 0.08498843 0.29800001 4280830768
0.087216437 0.08498843 0.29800001 4279579418
0.087888427 0.084703237 0.29700002 4279776281
0.088853084 0.084703237 0.29700002 4280501288
0.08981774 0.084703237 0.29700002 4280436008
0.090476729 0.084418036 0.296 4279843358
0.091438144 0.084418036 0.296 4280302625
0.092399552 0.084418036 0.296 4279710488
0.093045548 0.084132843 0.29500002 4280107813
0.094003707 0.084132843 0.29500002 4280569131
0.094961874 0.084132843 0.29500002 4280436262
0.095594876 0.083847642 0.294 4279315730
0.096549787 0.083847642 0.294 4279842074
0.097173057 0.083562449 0.29300001 4280436262
0.098124713 0.083562449 0.29300001 4280372264
0.099076383 0.083562449 0.29300001 4280240164
0.09968666 0.083277255 0.29200003 4280371750
0.10063507 0.083277255 0.29200003 4280371750
0.1015835 0.083277255 0.29200003 4280043299
0.10218077 0.082992055 0.29100001 4279517723
0.10312594 0.082992055 0.29100001 4279123732
0.1040711 0.082992055 0.29100001 4279189523
0.10501627 0.082992055 0.29100001 4279715867
0.10596144 0.082992055 0.29100001 4279321109
0.10690661 0.082992055 0.29100001 4279386137
0.080006585 0.086533554 0.30000001 4285496944
0.080980986 0.086533554 0.30000001 4285233518
0.081682198 0.086245112 0.29900002 4285694069
0.082653359 0.086245112 0.29900002 4282077501
0.083624512 0.086245112 0.29900002 4280961069
0.08431273 0.085956663 0.29800001 4280174119
0.085280634 0.085956663 0.29800001 4280437291
0.086248539 0.085956663 0.29800001 4280634670
0.087216437 0.085956663 0.29800001 4280568366
0.087888427 0.085668221 0.29700002 4280763692
0.088853084 0.085668221 0.29700002 4280170528
0.08981774 0.085668221 0.29700002 4279644697
0.090476729 0.085379772 0.296 4280632106
0.091438144 0.085379772 0.296 4280369704
0.092399552 0.085379772 0.296 4280303911
0.093045548 0.08509133 0.29500002 4280567594
0.094003707 0.08509133 0.29500002 4280371498
0.094961874 0.08509133 0.29500002 4280567848
0.095920034 0.08509133 0.29500002 4279117070
0.096549787 0.084802881 0.294 4280631844
0.097504705 0.084802881 0.294 4280699432
0.098124713 0.084514439 0.29300001 4280437030
0.099076383 0.084514439 0.29300001 4280502823
0.09968666 0.084225997 0.29200003 4280437543
0.10063507 0.084225997 0.29200003 4280371750
0.1015835 0.084225997 0.29200003 4280437543
0.10253191 0.084225997 0.29200003 4280108578
0.10348033 0.084225997 0.29200003 4279780379
0.1040711 0.083937548 0.29100001 4279386391
0.10501627 0.083937548 0.29100001 4279517975
0.10596144 0.083937548 0.29100001 4279189523
0.10690661 0.083937548 0.29100001 4279123732
0.081682198 0.087216586 0.29900002 4285299311
0.082653359 0.087216586 0.29900002 4284904553
0.083624512 0.087216586 0.29900002 4284839014
0.08431273 0.086924888 0.29800001 4283064398
0.085280634 0.086924888 0.29800001 4280566059
0.086248539 0.086924888 0.29800001 4280567596
0.087216437 0.086924888 0.29800001 4280764973
0.087888427 0.086633198 0.29700002 4280633387
0.088853084 0.086633198 0.29700002 4280633387
0.08981774 0.086633198 0.29700002 4280369450
0.090476729 0.0863415 0.296 4279513371
0.091438144 0.0863415 0.296 4279776283
0.092399552 0.0863415 0.296 4280500518
0.093360953 0.0863415 0.296 4280567848
0.094003707 0.08604981 0.29500002 4280240166
0.094961874 0.08604981 0.29500002 4280171041
0.095920034 0.08604981 0.29500002 4278919178
0.096878193 0.08604981 0.29500002 4280698919
0.097504705 0.085758112 0.294 4280437030
0.098124713 0.085466422 0.29300001 4280371750
0.099076383 0.085466422 0.29300001 4280437030
0.10002805 0.085466422 0.29300001 4280305444
0.10063507 0.085174732 0.29200003 4280239651
0.1015835 0.085174732 0.29200003 4280240164
0.10253191 0.085174732 0.29200003 4280371750
0.10348033 0.085174732 0.29200003 4279911199
0.10442874 0.085174732 0.29200003 4279582746
0.10537716 0.085174732 0.29200003 4279517977
0.10596144 0.084883027 0.29100001 4279320598
0.10690661 0.084883027 0.29100001 4279056656
0.083344825 0.087893121 0.29800001 4285101419
0.08431273 0.087893121 0.29800001 4285100903
0.085280634 0.087893121 0.29800001 4284838501
0.086248539 0.087893121 0.29800001 4284050780
0.087216437 0.087893121 0.29800001 4280631079
0.087888427 0.087598182 0.29700002 4280632874
0.088853084 0.087598182 0.29700002 4280567594
0.08981774 0.087598182 0.29700002 4280502571
0.090476729 0.087303236 0.296 4280502571
0.091438144 0.087303236 0.296 4280632104
0.092399552 0.087303236 0.296 4280434211
0.093360953 0.087303236 0.296 4279578391
0.094003707 0.087008297 0.29500002 4280040221
0.094961874 0.087008297 0.29500002 4279445520
0.095920034 0.087008297 0.29500002 4280103452
0.096878193 0.087008297 0.29500002 4280305446
0.097504705 0.086713351 0.294 4280503338
0.098459609 0.086713351 0.294 4280240680
0.099076383 0.086418413 0.29300001 4280437545
0.10002805 0.086418413 0.29300001 4280502825
0.10097972 0.086418413 0.29300001 4280174373
0.1015835 0.086123466 0.29200003 4280108580
0.10253191 0.086123466 0.29200003 4280108580
0.10348033 0.086123466 0.29200003 4279911201
0.10442874 0.086123466 0.29200003 4279713820
0.10537716 0.086123466 0.29200003 4279582232
0.10632557 0.086123466 0.29200003 4279516439
0.107274 0.086123466 0.29200003 4279187474
0.08431273 0.088861361 0.29800001 4284838247
0.085280634 0.088861361 0.29800001 4284772454
0.086248539 0.088861361 0.29800001 4284378463
0.087216437 0.088861361 0.29800001 4283918424
0.087888427 0.088563167 0.29700002 4283523918
0.088853084 0.088563167 0.29700002 4280827686
0.08981774 0.088563167 0.29700002 4280434725
0.090476729 0.088264972 0.296 4280435495
0.091438144 0.088264972 0.296 4280633641
0.092399552 0.088264972 0.296 4280633641
0.093360953 0.088264972 0.296 4280698667
0.094003707 0.087966785 0.29500002 4280566311
0.094961874 0.087966785 0.29500002 4280301344
0.095920034 0.087966785 0.29500002 4280697383
0.096878193 0.087966785 0.29500002 4280502571
0.09783636 0.087966785 0.29500002 4280371498
0.098794512 0.087966785 0.29500002 4280371752
0.099752672 0.087966785 0.29500002 4280371752
0.10071083 0.087966785 0.29500002 4280503338
0.10097972 0.087370396 0.29300001 4280437030
0.10193138 0.087370396 0.29300001 4280502823
0.10288304 0.087370396 0.29300001 4280042272
0.10348033 0.087072209 0.29200003 4279779615
0.10442874 0.087072209 0.29200003 4279713820
0.10537716 0.087072209 0.29200003 4279582234
0.10632557 0.087072209 0.29200003 4279516441
0.107274 0.087072209 0.29200003 4279319064
0.08431273 0.089829594 0.29800001 4285035880
0.085280634 0.089829594 0.29800001 4284575329
0.086248539 0.089829594 0.29800001 4284443743
0.086923771 0.089528158 0.29700002 4284115291
0.087888427 0.089528158 0.29700002 4283193674
0.088853084 0.089528158 0.29700002 4281615153
0.089515321 0.089226708 0.296 4281419310
0.090476729 0.089226708 0.296 4281223214
0.091129236 0.088925272 0.29500002 4280960555
0.092087395 0.088925272 0.29500002 4280501542
0.093045548 0.088925272 0.29500002 4280831020
0.094003707 0.088925272 0.29500002 4280765227
0.094961874 0.088925272 0.29500002 4280239653
0.095920034 0.088925272 0.29500002 4280502825
0.096878193 0.088925272 0.29500002 4280765743
0.09783636 0.088925272 0.29500002 4280568618
0.098794512 0.088925272 0.29500002 4280437030
0.099752672 0.088925272 0.29500002 4280502823
0.10071083 0.088925272 0.29500002 4280437032
0.101669 0.088925272 0.29500002 4280305444
0.10193138 0.088322386 0.29300001 4280568616
0.10288304 0.088322386 0.29300001 4280042272
0.10383471 0.088322386 0.29300001 4279976479
0.10442874 0.088020951 0.29200003 4279582234
0.10537716 0.088020951 0.29200003 4279451160
0.10632557 0.088020951 0.29200003 4279516953
0.107274 0.088020951 0.29200003 4279516443
0.085280634 0.090797819 0.29800001 4284377696
0.086248539 0.090797819 0.29800001 4284311903
0.086923771 0.090493135 0.29700002 4284311903
0.087888427 0.090493135 0.29700002 4282140734
0.088853084 0.090493135 0.29700002 4281680183
0.089515321 0.090188436 0.296 4281812023
0.090476729 0.090188436 0.296 4282404673
0.091129236 0.089883752 0.29500002 4283852631
0.091775231 0.089579053 0.294 4284050778
0.093045548 0.089883752 0.29500002 4280960042
0.094003707 0.089883752 0.29500002 4281158188
0.094639964 0.089579053 0.294 4280896813
0.095920034 0.089883752 0.29500002 4280830766
0.096878193 0.089883752 0.29500002 4280764973
0.09783636 0.089883752 0.29500002 4280765227
0.098794512 0.089883752 0.29500002 4280634411
0.099752672 0.089883752 0.29500002 4280634411
0.10071083 0.089883752 0.29500002 4280239653
0.10132435 0.089579053 0.294 4280305446
0.10193138 0.089274369 0.29300001 4279911201
0.10288304 0.089274369 0.29300001 4279976992
0.10383471 0.089274369 0.29300001 4279911199
0.10478637 0.089274369 0.29300001 4279648027
0.10537716 0.088969678 0.29200003 4279582232
0.10632557 0.088969678 0.29200003 4279911197
0.107274 0.088969678 0.29200003 4279779100
0.086923771 0.091458119 0.29700002 4284180317
0.087888427 0.091458119 0.29700002 4281285427
0.088553913 0.091150172 0.296 4282009148
0.089515321 0.091150172 0.296 4282206011
0.090171069 0.09084224 0.29500002 4283061318
0.090820312 0.090534292 0.294 4284311385
0.091463074 0.090226352 0.29300001 4284771938
0.093045548 0.09084224 0.29500002 4284444768
0.093685046 0.090534292 0.294 4284642147
0.09399616 0.08991842 0.29200003 4282077240
0.095920034 0.09084224 0.29500002 4281091628
0.096878193 0.09084224 0.29500002 4281027116
0.09783636 0.09084224 0.29500002 4280764714
0.098794512 0.09084224 0.29500002 4280634411
0.099752672 0.09084224 0.29500002 4280568618
0.10036944 0.090534292 0.294 4280503338
0.10132435 0.090534292 0.294 4280108580
0.10227926 0.090534292 0.294 4280437545
0.10288304 0.090226352 0.29300001 4279779615
0.10383471 0.090226352 0.29300001 4279713818
0.10478637 0.090226352 0.29300001 4279648025
0.10573804 0.090226352 0.29300001 4279713820
0.10632557 0.08991842 0.29200003 4279713307
0.107274 0.08991842 0.29200003 4279578391
0.085959122 0.092423104 0.29700002 4284377696
0.086923771 0.092423104 0.29700002 4284312157
0.087888427 0.092423104 0.29700002 4282336830
0.088553913 0.092111908 0.296 4282074171
0.089515321 0.092111908 0.296 4282271804
0.090171069 0.091800727 0.29500002 4283258184
0.090202495 0.090867162 0.29200003 4284442973
0.091150917 0.090867162 0.29200003 4285100903
0.091468506 0.090244778 0.29000002 4285232489
0.092091769 0.089933589 0.289 4285299565
0.09367425 0.090555966 0.29100001 4285169263
0.094294272 0.090244778 0.29000002 4284906091
0.09523619 0.090244778 0.29000002 4283919959
0.096509762 0.090555966 0.29100001 4281090858
0.098794512 0.091800727 0.29500002 4280895530
0.099752672 0.091800727 0.29500002 4280634411
0.10036944 0.091489531 0.294 4280371752
0.10132435 0.091489531 0.294 4280240166
0.10227926 0.091489531 0.294 4279976994
0.10323418 0.091489531 0.294 4279648029
0.10383471 0.091178343 0.29300001 4279582748
0.10478637 0.091178343 0.29300001 4279451162
0.10573804 0.091178343 0.29300001 4279384342
0.1066897 0.091178343 0.29300001 4279250705
0.10764136 0.091178343 0.29300001 4285695603
0.086923771 0.093388088 0.29700002 4284903270
0.087592505 0.093073644 0.296 4282007865
0.088553913 0.093073644 0.296 4282139451
0.089515321 0.093073644 0.296 4282468670
0.090171069 0.092759214 0.29500002 4283455565
0.089893579 0.091501459 0.29100001 4284641122
0.090838753 0.091501459 0.29100001 4285035626
0.091153093 0.090872578 0.289 4285430638
0.092091769 0.090872578 0.289 4285562224
0.093352348 0.091187023 0.29000002 4285365872
0.093969114 0.090872578 0.289 4285497458
0.09523619 0.091187023 0.29000002 4285891700
0.096509762 0.091501459 0.29100001 4285694321
0.09745492 0.091501459 0.29100001 4285760114
0.099752672 0.092759214 0.29500002 4282932299
0.10036944 0.09244477 0.294 4280762665
0.10132435 0.09244477 0.294 4280632106
0.10227926 0.09244477 0.294 4280305446
0.10323418 0.09244477 0.294 4279779100
0.10418909 0.09244477 0.294 4279976477
0.10478637 0.092130333 0.29300001 4279844121
0.10573804 0.092130333 0.29300001 4280235551
0.1066897 0.092130333 0.29300001 4285300075
0.10764136 0.092130333 0.29300001 4285825907
0.088553913 0.09403538 0.296 4282270521
0.089515321 0.09403538 0.296 4282664509
0.090476729 0.09403538 0.296 4283850323
0.089584671 0.092129268 0.29000002 4284640098
0.090526596 0.092129268 0.29000002 4285232235
0.090837687 0.09149389 0.28800002 4285495407
0.091773115 0.09149389 0.28800002 4285824372
0.093030438 0.091811575 0.289 4285824372
0.093969114 0.091811575 0.289 4285825142
0.09523619 0.092129268 0.29000002 4285956982
0.096509762 0.092446946 0.29100001 4286022003
0.09745492 0.092446946 0.29100001 4286022773
0.099752672 0.093717702 0.29500002 4285891700
0.10071083 0.093717702 0.29500002 4285891700
0.101669 0.093717702 0.29500002 4286286458
0.10262716 0.093717702 0.29500002 4284773731
0.10358532 0.093717702 0.29500002 4282800965
0.10454348 0.093717702 0.29500002 4284378711
0.10550164 0.093717702 0.29500002 4286154863
0.1064598 0.093717702 0.29500002 4285957232
0.10741796 0.093717702 0.29500002 4285825392
0.10837612 0.093717702 0.29500002 4286220154
0.090837687 0.092429623 0.28800002 4285495409
0.091773115 0.092429623 0.28800002 4285692788
0.092708535 0.092429623 0.28800002 4285955958
0.093643963 0.092429623 0.28800002 4285955958
0.09490779 0.092750557 0.289 4286021751
0.096509762 0.093392432 0.29100001 4286153337
0.09745492 0.093392432 0.29100001 4285956728
0.099752672 0.094676174 0.29500002 4286154107
0.10071083 0.094676174 0.29500002 4285825142
0.101669 0.094676174 0.29500002 4286022521
0.10262716 0.094676174 0.29500002 4286285693
0.10358532 0.094676174 0.29500002 4286154107
0.10454348 0.094676174 0.29500002 4285957493
0.10550164 0.094676174 0.29500002 4286154359
0.1064598 0.094676174 0.29500002 4286022773
0.10741796 0.094676174 0.29500002 4285956980
0.10837612 0.094676174 0.29500002 4286022773
0.090837687 0.093365364 0.28800002 4285890165
0.091773115 0.093365364 0.28800002 4285890167
0.092708535 0.093365364 0.28800002 4286087546
0.093643963 0.093365364 0.28800002 4286087546
0.09490779 0.093689546 0.289 4286087546
0.096509762 0.094337918 0.29100001 4286350718
0.09745492 0.094337918 0.29100001 4286482302
0.099752672 0.095634662 0.29500002 4286153337
0.10071083 0.095634662 0.29500002 4286087544
0.101669 0.095634662 0.29500002 4286416509
0.10262716 0.095634662 0.29500002 4286350716
0.10358532 0.095634662 0.29500002 4286284923
0.10454348 0.095634662 0.29500002 4286416761
0.10550164 0.095634662 0.29500002 4286285175
0.1064598 0.095634662 0.29500002 4286285175
0.10741796 0.095634662 0.29500002 4286087796
0.10837612 0.095634662 0.29500002 4286220152
0.091454454 0.093973674 0.287 4285890165
0.092708535 0.094301112 0.28800002 4286219900
0.093643963 0.094301112 0.28800002 4285890935
0.09490779 0.094628543 0.289 4286022521
0.096509762 0.095283411 0.29100001 4286154109
0.09745492 0.095283411 0.29100001 4286284925
0.099752672 0.096593149 0.29500002 4286416511
0.10071083 0.096593149 0.29500002 4286285693
0.101669 0.096593149 0.29500002 4286154107
0.10262716 0.096593149 0.29500002 4286351486
0.10358532 0.096593149 0.29500002 4286022521
0.10454348 0.096593149 0.29500002 4286220154
0.10550164 0.096593149 0.29500002 4286285177
0.1064598 0.096593149 0.29500002 4286350968
0.10741796 0.096593149 0.29500002 4286350968
0.10837612 0.096593149 0.29500002 4286220154
0.073612392 0.075499609 0.30524996 4294967295
0.073612392 0.075499609 0.30524996 4294901760
0.07380522 0.075046733 0.3051621 4294901760
0.073998049 0.074593857 0.30507421 4294901760
0.074190877 0.074140988 0.30498636 4294901760
0.074383713 0.073688112 0.30489847 4294901760
0.074576542 0.073235236 0.30481061 4294901760
0.07476937 0.07278236 0.30472273 4294901760
0.074962199 0.072329484 0.30463487 4294901760
0.075155027 0.071876615 0.30454698 4294901760
0.075347856 0.071423739 0.30445912 4294901760
0.075540692 0.070970863 0.30437124 4294901760
0.07573352 0.070517987 0.30428338 4294901760
0.075926349 0.070065111 0.30419549 4294901760
0.076119177 0.069612242 0.30410764 4294901760
0.076312006 0.069159366 0.30401978 4294901760
0.076504834 0.06870649 0.30393189 4294901760
0.07669767 0.068253614 0.30384403 4294901760
0.076890498 0.067800738 0.30375615 4294901760
0.077083327 0.067347869 0.30366829 4294901760
0.077276155 0.066894993 0.3035804 4294901760
0.077468984 0.066442117 0.30349255 4294901760
0.077661812 0.065989241 0.30340466 4294901760
0.077854648 0.065536365 0.3033168 4294901760
0.078047477 0.065083489 0.30322891 4294901760
0.078240305 0.06463062 0.30314106 4294901760
0.078433134 0.064177744 0.3030532 4294901760
0.078625962 0.063724868 0.30296531 4294901760
0.078818791 0.063271992 0.30287746 4294901760
0.079011619 0.062819123 0.30278957 4294901760
0.079204455 0.062366247 0.30270171 4294901760
0.079397283 0.061913371 0.30261382 4294901760
0.079590112 0.061460495 0.30252597 4294901760
0.07978294 0.061007619 0.30243808 4294901760
0.079975769 0.060554747 0.30235022 4294901760
0.080168597 0.06010187 0.30226234 4294901760
0.080361433 0.059648998 0.30217448 4294901760
0.080554262 0.059196122 0.30208659 4294901760
0.08074709 0.058743246 0.30199873 4294901760
0.080939919 0.058290374 0.30191088 4294901760
0.081132747 0.057837501 0.30182299 4294901760
0.081325576 0.057384625 0.30173513 4294901760
0.081518412 0.056931749 0.30164725 4294901760
0.08171124 0.056478873 0.30155939 4294901760
0.081904069 0.056025997 0.3014715 4294901760
0.082096897 0.055573124 0.30138364 4294901760
0.082289726 0.055120252 0.30129576 4294901760
0.082482554 0.054667376 0.3012079 4294901760
0.082675382 0.0542145 0.30112001 4294901760
0.082868218 0.053761628 0.30103216 4294901760
0.083061047 0.053308751 0.30094427 4294901760
0.083253875 0.052855879 0.30085641 4294901760
0.083446704 0.052403003 0.30076855 4294901760
0.083639532 0.051950127 0.30068067 4294901760
0.083832361 0.051497255 0.30059281 4294901760
0.084025197 0.051044378 0.30050492 4294901760
0.084218025 0.050591506 0.30041707 4294901760
0.084410854 0.05013863 0.30032918 4294901760
0.084603682 0.049685754 0.30024132 4294901760
0.084796511 0.049232882 0.30015343 4294901760
0.084989339 0.048780009 0.30006558 4294901760
0.085182175 0.048327129 0.29997769 4294901760
0.085375004 0.047874257 0.29988983 4294901760
0.085567832 0.047421381 0.29980195 4294901760
0.08576066 0.046968505 0.29971409 4294901760
0.085953489 0.046515632 0.29962623 4294901760
0.086146317 0.04606276 0.29953834 4294901760
0.086339153 0.045609884 0.29945049 4294901760
0.086531982 0.045157008 0.2993626 4294901760
0.08672481 0.044704132 0.29927474 4294901760
0.086917639 0.044251259 0.29918686 4294901760
0.087110467 0.043798383 0.299099 4294901760
0.087303296 0.043345511 0.29901111 4294901760
0.087496132 0.042892635 0.29892325 4294901760
0.08768896 0.042439759 0.29883537 4294901760
0.087881789 0.041986886 0.29874751 4294901760
0.088074617 0.04153401 0.29865962 4294901760
0.088267446 0.041081138 0.29857177 4294901760
0.088460274 0.040628262 0.29848391 4294901760
0.088653103 0.040175389 0.29839602 4294901760
0.088845938 0.039722513 0.29830816 4294901760
0.089038767 0.039269637 0.29822028 4294901760
0.089231595 0.038816765 0.29813242 4294901760
0.089424424 0.038363889 0.29804453 4294901760
0.089617252 0.037911016 0.29795668 4294901760
0.089810081 0.03745814 0.29786879 4294901760
0.090002917 0.037005264 0.29778093 4294901760
0.090195745 0.036552388 0.29769304 4294901760
0.090388574 0.036099516 0.29760519 4294901760
0.090581402 0.03564664 0.29751733 4294901760
0.090774231 0.035193767 0.29742944 4294901760
0.090967059 0.034740891 0.29734159 4294901760
0.091159895 0.034288015 0.2972537 4294901760
0.091352724 0.033835143 0.29716584 4294901760
0.091545552 0.033382267 0.29707795 4294901760
0.09173838 0.032929394 0.2969901 4294901760
0.091931209 0.032476518 0.29690221 4294901760
0.092124037 0.032023646 0.29681435 4294901760
0.092316866 0.031570766 0.29672647 4294901760
0.092509702 0.031117894 0.29663861 4294901760
0.09270253 0.030665018 0.29655072 4294901760
0.092895359 0.030212145 0.29646286 4294901760
0.073612392 0.075499609 0.30524996 4278255360
0.074011251 0.075711131 0.30503508 4278255360
0.074410111 0.075922653 0.30482021 4278255360
0.074808978 0.076134175 0.30460536 4278255360
0.075207837 0.076345697 0.30439049 4278255360
0.075606696 0.076557219 0.30417562 4278255360
0.076005556 0.076768741 0.30396074 4278255360
0.076404415 0.076980263 0.30374587 4278255360
0.076803282 0.077191785 0.30353102 4278255360
0.077202141 0.077403307 0.30331615 4278255360
0.077601001 0.077614829 0.30310127 4278255360
0.07799986 0.077826351 0.3028864 4278255360
0.078398719 0.078037873 0.30267152 4278255360
0.078797586 0.078249395 0.30245668 4278255360
0.079196446 0.078460917 0.3022418 4278255360
0.079595305 0.078672439 0.30202693 4278255360
0.079994164 0.078883961 0.30181205 4278255360
0.080393024 0.079095483 0.30159718 4278255360
0.080791891 0.079307005 0.30138233 4278255360
0.08119075 0.079518527 0.30116746 4278255360
0.081589609 0.079730049 0.30095258 4278255360
0.081988469 0.079941571 0.30073771 4278255360
0.082387328 0.080153093 0.30052283 4278255360
0.082786195 0.080364615 0.30030799 4278255360
0.083185054 0.080576137 0.30009311 4278255360
0.083583914 0.080787659 0.29987824 4278255360
0.083982773 0.080999181 0.29966336 4278255360
0.08438164 0.081210703 0.29944849 4278255360
0.084780499 0.081422225 0.29923365 4278255360
0.085179359 0.081633747 0.29901877 4278255360
0.085578218 0.081845269 0.2988039 4278255360
0.085977077 0.082056791 0.29858902 4278255360
0.086375937 0.082268313 0.29837415 4278255360
0.086774804 0.082479835 0.2981593 4278255360
0.087173663 0.082691357 0.29794443 4278255360
0.087572522 0.082902879 0.29772955 4278255360
0.087971382 0.083114401 0.29751468 4278255360
0.088370241 0.083325922 0.2972998 4278255360
0.088769108 0.083537444 0.29708496 4278255360
0.089167967 0.083748966 0.29687008 4278255360
0.089566827 0.083960488 0.29665521 4278255360
0.089965686 0.08417201 0.29644033 4278255360
0.090364546 0.084383532 0.29622546 4278255360
0.090763412 0.084595054 0.29601061 4278255360
0.091162272 0.084806576 0.29579574 4278255360
0.091561131 0.085018098 0.29558086 4278255360
0.091959991 0.08522962 0.29536599 4278255360
0.092358857 0.085441142 0.29515111 4278255360
0.092757717 0.085652664 0.29493627 4278255360
0.093156576 0.085864186 0.29472139 4278255360
0.093555436 0.086075708 0.29450652 4278255360
0.093954295 0.08628723 0.29429165 4278255360
0.094353154 0.086498745 0.29407677 4278255360
0.094752014 0.086710267 0.29386193 4278255360
0.095150881 0.086921796 0.29364705 4278255360
0.09554974 0.087133318 0.29343218 4278255360
0.095948599 0.08734484 0.2932173 4278255360
0.096347459 0.087556355 0.29300243 4278255360
0.096746325 0.087767877 0.29278758 4278255360
0.097145185 0.087979399 0.29257271 4278255360
0.097544044 0.088190928 0.29235783 4278255360
0.097942904 0.088402443 0.29214296 4278255360
0.098341763 0.088613965 0.29192808 4278255360
0.098740622 0.088825487 0.29171324 4278255360
0.099139489 0.089037009 0.29149836 4278255360
0.099538349 0.089248531 0.29128349 4278255360
0.099937208 0.089460053 0.29106861 4278255360
0.10033607 0.089671575 0.29085374 4278255360
0.10073493 0.089883097 0.29063889 4278255360
0.10113379 0.090094618 0.29042402 4278255360
0.10153265 0.09030614 0.29020914 4278255360
0.10193151 0.090517662 0.28999427 4278255360
0.10233037 0.090729184 0.28977939 4278255360
0.10272924 0.090940706 0.28956455 4278255360
0.1031281 0.091152228 0.28934968 4278255360
0.10352696 0.09136375 0.2891348 4278255360
0.10392582 0.091575272 0.28891993 4278255360
0.10432468 0.091786794 0.28870505 4278255360
0.10472354 0.091998316 0.28849021 4278255360
0.1051224 0.092209838 0.28827533 4278255360
0.10552126 0.09242136 0.28806046 4278255360
0.10592012 0.092632882 0.28784558 4278255360
0.10631898 0.092844404 0.28763071 4278255360
0.10671784 0.093055926 0.28741586 4278255360
0.1071167 0.093267448 0.28720099 4278255360
0.10751557 0.09347897 0.28698611 4278255360
0.10791443 0.093690492 0.28677124 4278255360
0.10831329 0.093902014 0.28655636 4278255360
0.10871215 0.094113536 0.28634152 4278255360
0.10911101 0.094325058 0.28612664 4278255360
0.10950987 0.09453658 0.28591177 4278255360
0.10990873 0.094748102 0.28569689 4278255360
0.11030759 0.094959624 0.28548202 4278255360
0.11070645 0.095171146 0.28526717 4278255360
0.11110532 0.095382668 0.2850523 4278255360
0.11150417 0.09559419 0.28483742 4278255360
0.11190303 0.095805712 0.28462255 4278255360
0.1123019 0.096017234 0.28440768 4278255360
0.11270076 0.096228756 0.28419283 4278255360
0.11309962 0.096440278 0.28397796 4278255360
0.11349848 0.0966518 0.28376308 4278255360
0.073612392 0.075499609 0.30524996 4278190335
0.073827229 0.075503483 0.30570143 4278190335
0.074042074 0.075507365 0.30615291 4278190335
0.074256912 0.075511247 0.30660439 4278190335
0.074471757 0.075515121 0.30705586 4278190335
0.074686594 0.075518996 0.30750734 4278190335
0.074901439 0.075522877 0.30795881 4278190335
0.075116277 0.075526759 0.30841029 4278190335
0.075331114 0.075530633 0.30886176 4278190335
0.075545959 0.075534508 0.30931321 4278190335
0.075760797 0.075538389 0.30976468 4278190335
0.075975642 0.075542271 0.31021616 4278190335
0.076190479 0.075546145 0.31066763 4278190335
0.076405324 0.07555002 0.31111911 4278190335
0.076620162 0.075553901 0.31157058 4278190335
0.076834999 0.075557783 0.31202206 4278190335
0.077049844 0.075561658 0.31247354 4278190335
0.077264681 0.075565532 0.31292501 4278190335
0.077479526 0.075569414 0.31337649 4278190335
0.077694364 0.075573295 0.31382796 4278190335
0.077909209 0.07557717 0.31427944 4278190335
0.078124046 0.075581044 0.31473091 4278190335
0.078338884 0.075584926 0.31518239 4278190335
0.078553729 0.075588807 0.31563386 4278190335
0.078768566 0.075592682 0.31608534 4278190335
0.078983411 0.075596556 0.31653678 4278190335
0.079198249 0.075600438 0.31698826 4278190335
0.079413094 0.07560432 0.31743973 4278190335
0.079627931 0.075608194 0.31789121 4278190335
0.079842769 0.075612068 0.31834269 4278190335
0.080057614 0.07561595 0.31879416 4278190335
0.080272451 0.075619832 0.31924564 4278190335
0.080487296 0.075623706 0.31969711 4278190335
0.080702133 0.07562758 0.32014859 4278190335
0.080916978 0.075631462 0.32060006 4278190335
0.081131816 0.075635344 0.32105154 4278190335
0.081346661 0.075639218 0.32150301 4278190335
0.081561498 0.075643092 0.32195449 4278190335
0.081776336 0.075646974 0.32240596 4278190335
0.081991181 0.075650856 0.32285744 4278190335
0.082206018 0.07565473 0.32330891 4278190335
0.082420863 0.075658605 0.32376039 4278190335
0.082635701 0.075662486 0.32421184 4278190335
0.082850546 0.075666368 0.32466331 4278190335
0.083065383 0.075670242 0.32511479 4278190335
0.083280221 0.075674117 0.32556626 4278190335
0.083495066 0.075677998 0.32601774 4278190335
0.083709903 0.07568188 0.32646921 4278190335
0.083924748 0.075685754 0.32692069 4278190335
0.084139585 0.075689629 0.32737216 4278190335
0.08435443 0.07569351 0.32782364 4278190335
0.084569268 0.075697392 0.32827511 4278190335
0.084784105 0.075701267 0.32872659 4278190335
0.08499895 0.075705141 0.32917807 4278190335
0.085213788 0.075709023 0.32962954 4278190335
0.085428633 0.075712904 0.33008102 4278190335
0.08564347 0.075716779 0.33053249 4278190335
0.085858315 0.075720653 0.33098397 4278190335
0.086073153 0.075724535 0.33143544 4278190335
0.08628799 0.075728409 0.33188689 4278190335
0.086502835 0.075732291 0.33233836 4278190335
0.086717673 0.075736165 0.33278984 4278190335
0.086932518 0.075740047 0.33324131 4278190335
0.087147355 0.075743929 0.33369279 4278190335
0.0873622 0.075747803 0.33414426 4278190335
0.087577038 0.075751677 0.33459574 4278190335
0.087791875 0.075755559 0.33504722 4278190335
0.08800672 0.075759441 0.33549869 4278190335
0.088221557 0.075763315 0.33595017 4278190335
0.088436402 0.075767189 0.33640164 4278190335
0.08865124 0.075771071 0.33685312 4278190335
0.088866085 0.075774953 0.33730459 4278190335
0.089080922 0.075778827 0.33775607 4278190335
0.08929576 0.075782701 0.33820754 4278190335
0.089510605 0.075786583 0.33865902 4278190335
0.089725442 0.075790465 0.33911049 4278190335
0.089940287 0.075794339 0.33956194 4278190335
0.090155125 0.075798213 0.34001341 4278190335
0.09036997 0.075802095 0.34046489 4278190335
0.090584807 0.075805977 0.34091637 4278190335
0.090799645 0.075809851 0.34136784 4278190335
0.09101449 0.075813726 0.34181932 4278190335
0.091229327 0.075817607 0.34227079 4278190335
0.091444172 0.075821489 0.34272227 4278190335
0.091659009 0.075825363 0.34317374 4278190335
0.091873854 0.075829238 0.34362522 4278190335
0.092088692 0.075833119 0.34407669 4278190335
0.092303529 0.075837001 0.34452817 4278190335
0.092518374 0.075840876 0.34497964 4278190335
0.092733212 0.07584475 0.34543112 4278190335
0.092948057 0.075848632 0.34588259 4278190335
0.093162894 0.075852513 0.34633407 4278190335
0.093377739 0.075856388 0.34678555 4278190335
0.093592577 0.075860262 0.34723699 4278190335
0.093807414 0.075864144 0.34768847 4278190335
0.094022259 0.075868025 0.34813994 4278190335
0.094237097 0.0758719 0.34859142 4278190335
0.094451942 0.075875774 0.34904289 4278190335
0.094666779 0.075879656 0.34949437 4278190335
0.094881624 0.075883538 0.34994584 4278190335
0.095096461 0.075887412 0.35039732 4278190335
0.073612392 0.075499609 0.30524996 4294967295
0.072323345 0.075476341 0.30254111 4294967295
0.071034305 0.075453073 0.29983228 4294967295
0.069745257 0.075429805 0.29712343 4294967295
0.068456218 0.075406536 0.29441458 4294967295
0.06716717 0.075383268 0.29170576 4294967295
0.06587813 0.07536 0.28899691 4294967295
0.064589083 0.075336732 0.28628805 4294967295
0.063300043 0.075313464 0.28357923 4294967295
0.062010996 0.075290196 0.28087038 4294967295
0.060721952 0.075266927 0.27816153 4294967295
0.059432909 0.075243659 0.2754527 4294967295
0.058143865 0.075220391 0.27274385 4294967295
0.056854822 0.075197123 0.27003503 4294967295
0.055565774 0.075173855 0.26732618 4294967295
0.054276731 0.075150587 0.26461732 4294967295
0.052987687 0.075127319 0.26190847 4294967295
0.051698644 0.07510405 0.25919965 4294967295
0.0504096 0.075080782 0.2564908 4294967295
0.049120557 0.075057514 0.25378197 4294967295
0.047831513 0.075034246 0.25107312 4294967295
0.046542466 0.075010978 0.24836427 4294967295
0.045253426 0.07498771 0.24565543 4294967295
0.043964379 0.074964441 0.24294659 4294967295
0.042675339 0.074941173 0.24023774 4294967295
0.041386291 0.074917898 0.23752891 4294967295
0.040097248 0.074894629 0.23482007 4294967295
0.038808201 0.074871361 0.23211122 4294967295
0.037519161 0.074848093 0.22940238 4294967295
0.036230117 0.074824825 0.22669354 4294967295
0.03494107 0.074801557 0.22398469 4294967295
0.033652026 0.074778289 0.22127585 4294967295
0.032362983 0.07475502 0.21856701 4294967295
0.031073939 0.074731752 0.21585816 4294967295
0.029784895 0.074708484 0.21314932 4294967295
0.028495852 0.074685216 0.21044049 4294967295
0.027206805 0.074661948 0.20773163 4294967295
0.025917761 0.07463868 0.2050228 4294967295
0.024628721 0.074615411 0.20231396 4294967295
0.023339678 0.074592143 0.19960512 4294967295
0.02205063 0.074568875 0.19689627 4294967295
0.020761587 0.074545607 0.19418743 4294967295
0.019472543 0.074522339 0.1914786 4294967295
0.0181835 0.074499071 0.18876974 4294967295
0.016894456 0.074475802 0.18606091 4294967295
0.015605412 0.074452534 0.18335207 4294967295
0.014316365 0.074429266 0.18064322 4294967295
0.013027322 0.074405998 0.17793438 4294967295
0.011738282 0.07438273 0.17522554 4294967295
0.010449231 0.074359462 0.17251669 4294967295
0.0091601908 0.074336194 0.16980785 4294967295
0.007871151 0.074312925 0.16709901 4294967295
0.0065821037 0.074289657 0.16439018 4294967295
0.0052930638 0.074266389 0.16168134 4294967295
0.0040040091 0.074243121 0.15897247 4294967295
0.0027149692 0.074219853 0.15626363 4294967295
0.0014259294 0.074196585 0.1535548 4294967295
0.00013688207 0.074173316 0.15084596 4294967295
-0.0011521578 0.074150048 0.14813712 4294967295
-0.0024412051 0.07412678 0.14542829 4294967295
-0.0037302524 0.074103512 0.14271942 4294967295
