# .PCD v0.7 - Point Cloud Data file format
VERSION 0.7
FIELDS x y z rgb
SIZE 4 4 4 4
TYPE F F F U
COUNT 1 1 1 1
WIDTH 832
HEIGHT 1
VIEWPOINT 0 0 0 1 0 0 0
POINTS 832
DATA ascii
0.076250836 -0.0778194 0.42600003 4286947218
0.077816725 -0.078002073 0.42700002 4286091909
0.074867189 -0.076435283 0.42600003 4286422158
0.076250836 -0.076435283 0.42600003 4280963901
0.077634484 -0.076435283 0.42600003 4280833596
0.079018138 -0.076435283 0.42600003 4280240944
0.080590516 -0.076614708 0.42700002 4280634672
0.071930639 -0.074874982 0.42500001 4287080088
0.073311038 -0.074874982 0.42500001 4285041016
0.074867189 -0.075051166 0.42600003 4281161280
0.076250836 -0.075051166 0.42600003 4280310071
0.077634484 -0.075051166 0.42600003 4279586861
0.079018138 -0.075051166 0.42600003 4279456043
0.080401786 -0.075051166 0.42600003 4279717672
0.068844333 -0.073148265 0.42300001 4287409051
0.070218235 -0.073148265 0.42300001 4287737765
0.071761392 -0.073321193 0.42400002 4283857263
0.073138542 -0.073321193 0.42400002 4281163331
0.074691445 -0.073494121 0.42500001 4280375348
0.076071844 -0.073494121 0.42500001 4279587629
0.077452242 -0.073494121 0.42500001 4279654189
0.079018138 -0.073667049 0.42600003 4279325994
0.080401786 -0.073667049 0.42600003 4278994209
0.068681583 -0.071604215 0.42200002 4287868832
0.070218235 -0.071773894 0.42300001 4281622347
0.071592137 -0.071773894 0.42300001 4280571707
0.073138542 -0.071943574 0.42400002 4279981617
0.0745157 -0.071943574 0.42400002 4279785775
0.076071844 -0.072113246 0.42500001 4279326508
0.077452242 -0.072113246 0.42500001 4279260715
0.078832641 -0.072113246 0.42500001 4279652906
0.080401786 -0.072282933 0.42600003 4283201629
0.065627754 -0.069900237 0.42000002 4287539867
0.06699191 -0.069900237 0.42000002 4288264614
0.068681583 -0.070233099 0.42200002 4281489731
0.070052236 -0.070233099 0.42200002 4280507963
0.071592137 -0.070399523 0.42300001 4279719215
0.072966047 -0.070399523 0.42300001 4279851566
0.0745157 -0.070565954 0.42400002 4279392297
0.075892851 -0.070565954 0.42400002 4279260711
0.077270001 -0.070565954 0.42400002 4279654955
0.078832641 -0.070732385 0.42500001 4281424700
0.080213048 -0.070732385 0.42500001 4285501558
0.063957579 -0.068209253 0.41800001 4287869602
0.0654715 -0.068372436 0.41900003 4287343771
0.06699191 -0.068535611 0.42000002 4281030723
0.068518832 -0.068698794 0.42100003 4280507198
0.069886245 -0.068698794 0.42100003 4279325994
0.07142289 -0.068861976 0.42200002 4280181813
0.072966047 -0.069025151 0.42300001 4279260711
0.074339949 -0.069025151 0.42300001 4279129125
0.075713858 -0.069025151 0.42300001 4280573495
0.077270001 -0.069188334 0.42400002 4281427520
0.078832641 -0.069351509 0.42500001 4282080835
0.062150627 -0.066371337 0.41500002 4287540637
0.063804567 -0.066691197 0.41700003 4286489232
0.065158986 -0.066691197 0.41700003 4281292866
0.066832408 -0.067011058 0.41900003 4279654455
0.068356074 -0.067170985 0.42000002 4279195183
0.069720238 -0.067170985 0.42000002 4279195433
0.071253642 -0.067330919 0.42100003 4279129640
0.072793551 -0.067490846 0.42200002 4278998052
0.074339949 -0.06765078 0.42300001 4280377399
0.075713858 -0.06765078 0.42300001 4280308785
0.07708776 -0.06765078 0.42300001 4281886023
0.062000871 -0.064866282 0.41400003 4285633923
0.063498549 -0.06502296 0.41500002 4280900670
0.065002732 -0.065179639 0.41600001 4280507963
0.066672906 -0.065493003 0.41800001 4279261228
0.068193324 -0.065649688 0.41900003 4279130412
0.069720238 -0.065806367 0.42000002 4278998824
0.071253642 -0.065963052 0.42100003 4278735652
0.072793551 -0.06611973 0.42200002 4280574006
0.074164212 -0.06611973 0.42200002 4280638774
0.075713858 -0.066276409 0.42300001 4281884737
0.07708776 -0.066276409 0.42300001 4282476361
0.058595203 -0.062753983 0.40900001 4287672223
0.059923634 -0.062753983 0.40900001 4283857766
0.06170135 -0.06321428 0.41200003 4280833594
0.063192531 -0.06336771 0.41300002 4279917109
0.064690217 -0.063521147 0.41400003 4279391533
0.066353895 -0.063828006 0.41600001 4279130412
0.068030566 -0.064134873 0.41800001 4278998826
0.06955424 -0.064288311 0.41900003 4279194408
0.071253642 -0.064595178 0.42100003 4280836926
0.072621055 -0.064595178 0.42100003 4280570674
0.074164212 -0.064748608 0.42200002 4281556286
0.075534865 -0.064748608 0.42200002 4282279495
0.055528026 -0.060974553 0.40600002 4287343258
0.056986734 -0.061124735 0.40700001 4287607197
0.058451939 -0.06127492 0.40800002 4282674519
0.059777126 -0.06127492 0.40800002 4281097536
0.061401825 -0.061575286 0.41000003 4279652654
0.062886514 -0.061725467 0.41100001 4279326254
0.064221449 -0.061725467 0.41100001 4279327021
0.066353895 -0.062476385 0.41600001 4279064617
0.067867815 -0.06262657 0.41700003 4279129640
0.069388233 -0.062776752 0.41800001 4281033792
0.054075826 -0.05950848 0.40500003 4287342488
0.055528026 -0.059655413 0.40600002 4287474844
0.056846719 -0.059655413 0.40600002 4282281042
0.058308672 -0.059802346 0.40700001 4280638522
0.05963061 -0.059802346 0.40700001 4279720498
0.061102305 -0.059949283 0.40800002 4279195433
0.062427491 -0.059949283 0.40800002 4279327019
0.063908935 -0.060096215 0.40900001 4279655984
0.052630108 -0.058048911 0.40400001 4287014293
0.0539423 -0.058048911 0.40400001 4287606943
0.055391259 -0.058192596 0.40500003 4282475859
0.056706704 -0.058192596 0.40500003 4280243764
0.058022145 -0.058192596 0.40500003 4279522603
0.059484098 -0.05833628 0.40600002 4279196203
0.060802784 -0.05833628 0.40600002 4278999337
0.062274482 -0.058479965 0.40700001 4278999337
0.06359642 -0.058479965 0.40700001 4279852850
0.064439841 -0.058048911 0.40400001 4281296702
0.065752037 -0.058048911 0.40400001 4280440110
0.051063862 -0.056455396 0.40200001 4287210902
0.052499834 -0.056595836 0.40300003 4288198567
0.053808782 -0.056595836 0.40300003 4282016589
0.055254489 -0.056736268 0.40400001 4280505401
0.056566685 -0.056736268 0.40400001 4279325740
0.058022145 -0.056876708 0.40500003 4279458605
0.05933759 -0.056876708 0.40500003 4279130408
0.060653023 -0.056876708 0.40500003 4279064615
0.061968468 -0.056876708 0.40500003 4280311604
0.063283913 -0.056876708 0.40500003 4281034044
0.064439841 -0.056736268 0.40400001 4281162550
0.065752037 -0.056736268 0.40400001 4281819710
0.049510613 -0.054874886 0.40000001 4287145109
0.05093684 -0.055012077 0.40100002 4287804324
0.052369561 -0.055149261 0.40200001 4281424198
0.05367526 -0.055149261 0.40200001 4280573502
0.055117723 -0.055286452 0.40300003 4279917109
0.05642667 -0.055286452 0.40300003 4279327021
0.057878878 -0.055423636 0.40400001 4279130410
0.059191074 -0.055423636 0.40400001 4279196203
0.060503263 -0.055423636 0.40400001 4279852852
0.061968468 -0.055560827 0.40500003 4281034046
0.063283913 -0.055560827 0.40500003 4280440625
0.064439841 -0.055423636 0.40400001 4281096505
0.065752037 -0.055423636 0.40400001 4281621565
0.048090886 -0.053441305 0.39900002 4286684558
0.049510613 -0.053575244 0.40000001 4288329637
0.050809812 -0.053575244 0.40000001 4281030973
0.052239291 -0.053709183 0.40100002 4279717934
0.05367526 -0.053843118 0.40200001 4279326254
0.054980952 -0.053843118 0.40200001 4279327021
0.05642667 -0.053977061 0.40300003 4279328304
0.057735614 -0.053977061 0.40300003 4279065132
0.059191074 -0.054110996 0.40400001 4279984438
0.060503263 -0.054110996 0.40400001 4280640571
0.061815456 -0.054110996 0.40400001 4280966202
0.063127652 -0.054110996 0.40400001 4281162811
0.064439841 -0.054110996 0.40400001 4281556286
0.046560373 -0.051883534 0.39700001 4286881937
0.047970362 -0.052014224 0.39800003 4287804576
0.04938684 -0.052144911 0.39900002 4281358141
0.050809812 -0.052275598 0.40000001 4280047662
0.052109014 -0.052275598 0.40000001 4279260199
0.053541742 -0.052406289 0.40100002 4279196205
0.054980952 -0.052536976 0.40200001 4279130412
0.056286652 -0.052536976 0.40200001 4279065130
0.057735614 -0.05266767 0.40300003 4280182328
0.059044562 -0.05266767 0.40300003 4281099837
0.060503263 -0.052798357 0.40400001 4281163833
0.061815456 -0.052798357 0.40400001 4280833333
0.063127652 -0.052798357 0.40400001 4281425470
0.064439841 -0.052798357 0.40400001 4281752386
0.045156885 -0.050466206 0.39600003 4286422158
0.046443094 -0.050466206 0.39600003 4287870115
0.04784983 -0.050593644 0.39700001 4281358395
0.049263064 -0.050721087 0.39800003 4280834870
0.050682791 -0.050848521 0.39900002 4279261226
0.052109014 -0.05097596 0.40000001 4279261226
0.053408217 -0.05097596 0.40000001 4278998824
0.054844186 -0.051103402 0.40100002 4279064617
0.056286652 -0.05123084 0.40200001 4280510014
0.057735614 -0.051358283 0.40300003 4280640571
0.059044562 -0.051358283 0.40300003 4281163065
0.060353503 -0.051358283 0.40300003 4281885505
0.061815456 -0.051485721 0.40400001 4282148423
0.063127652 -0.051485721 0.40400001 4281950530
0.064439841 -0.051485721 0.40400001 4286355070
0.042261854 -0.048806984 0.39300001 4286552972
0.043649107 -0.048931178 0.39400002 4286487179
0.04504285 -0.049055368 0.39500001 4287738783
0.046443094 -0.049179561 0.39600003 4281227071
0.047729302 -0.049179561 0.39600003 4280244276
0.049139284 -0.049303748 0.39700001 4279719467
0.050555769 -0.049427941 0.39800003 4278800673
0.051978745 -0.049552131 0.39900002 4279195431
0.053408217 -0.049676321 0.40000001 4279195431
0.054844186 -0.049800515 0.40100002 4280181303
0.056286652 -0.049924701 0.40200001 4280704567
0.057592351 -0.049924701 0.40200001 4281229628
0.059044562 -0.050048895 0.40300003 4280700463
0.060353503 -0.050048895 0.40300003 4281818944
0.061815456 -0.050173085 0.40400001 4281950019
0.063127652 -0.050173085 0.40400001 4284909421
0.040881105 -0.047409147 0.39200002 4286750091
0.042261854 -0.047530089 0.39300001 4287738270
0.043538321 -0.047530089 0.39300001 4287015060
0.044928819 -0.047651034 0.39400002 4281030973
0.046325814 -0.047771972 0.39500001 4280375350
0.047729302 -0.047892917 0.39600003 4278997027
0.049139284 -0.048013855 0.39700001 4279195433
0.050555769 -0.0481348 0.39800003 4279064615
0.051848475 -0.0481348 0.39800003 4279327787
0.053274699 -0.048255742 0.39900002 4280772668
0.054707415 -0.048376679 0.40000001 4280705594
0.056146637 -0.048497625 0.40100002 4279845670
0.057592351 -0.048618563 0.40200001 4280700465
0.059044562 -0.048739508 0.40300003 4281686593
0.060353503 -0.048739508 0.40300003 4281950532
0.061815456 -0.048860449 0.40400001 4284778348
0.040776815 -0.046017811 0.39100003 4287869084
0.04215432 -0.0461355 0.39200002 4285765763
0.043538321 -0.046253193 0.39300001 4280833085
0.044814784 -0.046253193 0.39300001 4279850549
0.046208534 -0.046370886 0.39400002 4279260461
0.04760877 -0.046488576 0.39500001 4279393582
0.049015511 -0.046606272 0.39600003 4278998824
0.050428741 -0.046723962 0.39700001 4278933031
0.051848475 -0.046841659 0.39800003 4280510264
0.053274699 -0.046959348 0.39900002 4281953860
0.054707415 -0.047077041 0.40000001 4279976994
0.056146637 -0.047194734 0.40100002 4282738765
0.057592351 -0.047312424 0.40200001 4280304424
0.058898047 -0.047312424 0.40200001 4282343753
0.060353503 -0.04743012 0.40300003 4284974960
0.039304767 -0.044518519 0.38900003 4285895294
0.040672526 -0.044632964 0.39000002 4286027652
0.042046785 -0.044747408 0.39100003 4280635702
0.043427538 -0.044861849 0.39200002 4280112692
0.044700753 -0.044861849 0.39200002 4279589939
0.046091251 -0.04497629 0.39300001 4279459377
0.047488246 -0.045090739 0.39400002 4278999335
0.048891731 -0.04520518 0.39500001 4279065128
0.050301719 -0.045319624 0.39600003 4280574778
0.051718198 -0.045434065 0.39700001 4281033530
0.05314118 -0.045548514 0.39800003 4279843871
0.054570649 -0.045662954 0.39900002 4280501290
0.056006618 -0.045777395 0.40000001 4281752640
0.057592351 -0.046006285 0.40200001 4282015812
0.058898047 -0.046006285 0.40200001 4284842604
0.060353503 -0.046120729 0.40300003 4286026364
0.033898681 -0.04280984 0.38500002 4286948500
0.035149161 -0.04280984 0.38500002 4286817168
0.036494188 -0.042921033 0.38600001 4285763196
0.037747912 -0.042921033 0.38600001 4286026366
0.039203726 -0.043143425 0.38800001 4286291335
0.04056824 -0.043254621 0.38900003 4281029690
0.041939247 -0.043365814 0.39000002 4279522349
0.043316755 -0.04347701 0.39100003 4279129129
0.044700753 -0.043588202 0.39200002 4279130410
0.046091251 -0.043699395 0.39300001 4279064617
0.047488246 -0.043810591 0.39400002 4279261226
0.048891731 -0.043921784 0.39500001 4280969536
0.050301719 -0.04403298 0.39600003 4280966202
0.051718198 -0.044144172 0.39700001 4280107815
0.05314118 -0.044255368 0.39800003 4281488444
0.054570649 -0.044366561 0.39900002 4281685823
0.056006618 -0.044477757 0.40000001 4281950019
0.057449088 -0.044588953 0.40100002 4284909167
0.058898047 -0.044700146 0.40200001 4285828985
0.019521238 -0.045984697 0.42600003 4280365352
0.020953959 -0.046092637 0.42700002 4280102948
0.022340855 -0.046092637 0.42700002 4280892718
0.032648202 -0.041558936 0.38500002 4286817681
0.033898681 -0.041558936 0.38500002 4286817168
0.035149161 -0.041558936 0.38500002 4286289286
0.036494188 -0.04166688 0.38600001 4286026366
0.037747912 -0.04166688 0.38600001 4286224259
0.039102685 -0.041774828 0.38700002 4280175918
0.04046395 -0.041882772 0.38800001 4280243762
0.041831709 -0.04199072 0.38900003 4278998054
0.043205969 -0.042098664 0.39000002 4278999337
0.044586722 -0.042206611 0.39100003 4279065132
0.045973971 -0.042314555 0.39200002 4279130923
0.047367714 -0.0424225 0.39300001 4280640569
0.048767958 -0.042530444 0.39400002 4281296450
0.050174691 -0.042638388 0.39500001 4279647525
0.051587928 -0.042746335 0.39600003 4280764721
0.053007659 -0.042854279 0.39700001 4279909412
0.054433882 -0.042962227 0.39800003 4282212937
0.056006618 -0.043178115 0.40000001 4284842858
0.018180164 -0.044705272 0.42700002 4281088811
0.019521238 -0.044600576 0.42600003 4280628260
0.020904887 -0.044600576 0.42600003 4280826155
0.022288535 -0.044600576 0.42600003 4280497190
0.023561046 -0.044391185 0.42400002 4280957737
0.024879381 -0.044286486 0.42300001 4280826151
0.026253287 -0.044286486 0.42300001 4280828204
0.030225543 -0.040412728 0.38600001 4280114754
0.031397719 -0.040308032 0.38500002 4282808417
0.032648202 -0.040308032 0.38500002 4286030478
0.033898681 -0.040308032 0.38500002 4286489486
0.035149161 -0.040308032 0.38500002 4286225542
0.036494188 -0.040412728 0.38600001 4284187240
0.037747912 -0.040412728 0.38600001 4280702778
0.039102685 -0.040517427 0.38700002 4279720498
0.04046395 -0.040622123 0.38800001 4279392299
0.041831709 -0.040726818 0.38900003 4279130408
0.043205969 -0.040831514 0.39000002 4279064615
0.044586722 -0.040936213 0.39100003 4279261226
0.045973971 -0.041040905 0.39200002 4280115510
0.047367714 -0.0411456 0.39300001 4281098555
0.048767958 -0.0412503 0.39400002 4279714600
0.050174691 -0.041354995 0.39500001 4281290554
0.051587928 -0.041459691 0.39600003 4279843108
0.053007659 -0.041564386 0.39700001 4282671689
0.054433882 -0.041669086 0.39800003 4285171307
0.018180164 -0.043317907 0.42700002 4280233502
0.019521238 -0.043216459 0.42600003 4280299297
0.020904887 -0.043216459 0.42600003 4280036385
0.022236213 -0.043115012 0.42500001 4280102178
0.023505477 -0.042912118 0.42300001 4279904537
0.024820566 -0.042810671 0.42200002 4280299295
0.025384383 -0.041491859 0.40900001 4280036637
0.026647503 -0.041390412 0.40800002 4280628772
0.027904129 -0.041288964 0.40700001 4279778850
0.029121926 -0.039361469 0.38800001 4279063849
0.030225543 -0.039158575 0.38600001 4279064619
0.031479269 -0.039158575 0.38600001 4279524664
0.032648202 -0.039057128 0.38500002 4279720760
0.033898681 -0.039057128 0.38500002 4280179514
0.035149161 -0.039057128 0.38500002 4279718193
0.036494188 -0.039158575 0.38600001 4279851314
0.037747912 -0.039158575 0.38600001 4279391787
0.039102685 -0.039260022 0.38700002 4278933546
0.04046395 -0.039361469 0.38800001 4279328302
0.041831709 -0.039462917 0.38900003 4279262507
0.043095186 -0.039462917 0.38900003 4279196203
0.044472687 -0.039564364 0.39000002 4280575037
0.045973971 -0.039767258 0.39200002 4280310069
0.047367714 -0.039868705 0.39300001 4280634672
0.048644178 -0.039868705 0.39300001 4281094456
0.05004767 -0.039970152 0.39400002 4280171303
0.051587928 -0.040173046 0.39600003 4282277701
0.05287414 -0.040173046 0.39600003 4284842344
0.016793268 -0.041930541 0.42700002 4280891946
0.018137589 -0.041832343 0.42600003 4280694055
0.019521238 -0.041832343 0.42600003 4280101664
0.020855812 -0.041734144 0.42500001 4280101664
0.022183893 -0.041635945 0.42400002 4280101664
0.023449909 -0.041439552 0.42200002 4280232989
0.024761749 -0.041341353 0.42100003 4280101916
0.025508514 -0.04035937 0.41100001 4280167711
0.026712814 -0.040162977 0.40900001 4280299297
0.027972691 -0.040064778 0.40800002 4279709725
0.029154256 -0.039868381 0.40600002 4279385117
0.030547999 -0.03996658 0.40700001 4279326504
0.030225543 -0.037904423 0.38600001 4279129125
0.031479269 -0.037904423 0.38600001 4278998824
0.032733001 -0.037904423 0.38600001 4280117307
0.033898681 -0.037806224 0.38500002 4279786291
0.035240456 -0.037904423 0.38600001 4279457326
0.036494188 -0.037904423 0.38600001 4279260715
0.037747912 -0.037904423 0.38600001 4278734884
0.039102685 -0.038002621 0.38700002 4279459888
0.04046395 -0.038100816 0.38800001 4279525681
0.041831709 -0.038199019 0.38900003 4279327019
0.043205969 -0.038297214 0.39000002 4280641082
0.044586722 -0.038395412 0.39100003 4281230657
0.045973971 -0.038493611 0.39200002 4280637237
0.047367714 -0.038591806 0.39300001 4280634159
0.048644178 -0.038591806 0.39300001 4279908901
0.05004767 -0.038690008 0.39400002 4281949767
0.018137589 -0.040448226 0.42600003 4279970846
0.019475412 -0.040353276 0.42500001 4280036385
0.020806741 -0.040258329 0.42400002 4280167457
0.022131572 -0.040163375 0.42300001 4280167457
0.023394341 -0.039973482 0.42100003 4280035871
0.024644116 -0.039783582 0.41900003 4280167711
0.025632642 -0.039213888 0.41300002 4280167709
0.02684344 -0.039023992 0.41100001 4280167709
0.028041249 -0.038834091 0.40900001 4279576856
0.029226065 -0.038644195 0.40700001 4279251736
0.030472944 -0.038549248 0.40600002 4278468880
0.030225543 -0.03665027 0.38600001 4278732822
0.031479269 -0.03665027 0.38600001 4278208790
0.032733001 -0.03665027 0.38600001 4278472991
0.033986729 -0.03665027 0.38600001 4278539306
0.035240456 -0.03665027 0.38600001 4281631323
0.036494188 -0.03665027 0.38600001 4282288985
0.037845708 -0.03674522 0.38700002 4279130921
0.039203726 -0.036840167 0.38800001 4278801958
0.04046395 -0.036840167 0.38800001 4279262509
0.041831709 -0.036935117 0.38900003 4280640571
0.043205969 -0.037030064 0.39000002 4281034046
0.044586722 -0.037125014 0.39100003 4280439858
0.045973971 -0.037219964 0.39200002 4281557058
0.047367714 -0.03731491 0.39300001 4279777315
0.048644178 -0.03731491 0.39300001 4282343240
0.05004767 -0.037409861 0.39400002 4284645995
0.018137589 -0.039064109 0.42600003 4280365604
0.019475412 -0.038972408 0.42500001 4280233764
0.020806741 -0.03888071 0.42400002 4279904799
0.022079252 -0.03869731 0.42200002 4280036385
0.023338772 -0.03851391 0.42000002 4279970592
0.024585299 -0.03833051 0.41800001 4280101664
0.025694707 -0.037963711 0.41400003 4279904285
0.026908753 -0.037780311 0.41200003 4280035871
0.028109811 -0.037596911 0.41000003 4279773467
0.029297873 -0.037413511 0.40800002 4279184408
0.030472944 -0.037230112 0.40600002 4278664212
0.030303849 -0.035487816 0.38700002 4278665494
0.031479269 -0.035396114 0.38600001 4278206225
0.032817803 -0.035487816 0.38700002 4278733853
0.03407478 -0.035487816 0.38700002 4278801956
0.035331756 -0.035487816 0.38700002 4278671142
0.036588732 -0.035487816 0.38700002 4278868519
0.037845708 -0.035487816 0.38700002 4279262507
0.039203726 -0.035579514 0.38800001 4279525166
0.04056824 -0.035671216 0.38900003 4279852850
0.041939247 -0.035762914 0.39000002 4280902458
0.043316755 -0.035854615 0.39100003 4281230911
0.044700753 -0.035946317 0.39200002 4280241711
0.045973971 -0.035946317 0.39200002 4279977002
0.047367714 -0.036038015 0.39300001 4282475341
0.048644178 -0.036038015 0.39300001 4285304440
0.05004767 -0.036129717 0.39400002 4285697913
0.016832596 -0.037856892 0.42800003 4280497186
0.018137589 -0.037679993 0.42600003 4280102432
0.019475412 -0.037591539 0.42500001 4280168225
0.020806741 -0.03750309 0.42400002 4279773467
0.022079252 -0.037326187 0.42200002 4279905053
0.023338772 -0.037149288 0.42000002 4280167457
0.024585299 -0.036972385 0.41800001 4279706906
0.025756771 -0.036707032 0.41500002 4279904285
0.026974065 -0.03653013 0.41300002 4280101151
0.028178371 -0.03635323 0.41100001 4279576088
0.02936968 -0.036176328 0.40900001 4279448602
0.030472944 -0.035910975 0.40600002 4278729492
0.030303849 -0.034230415 0.38700002 4278664212
0.031560823 -0.034230415 0.38700002 4279060767
0.032817803 -0.034230415 0.38700002 4278995744
0.03407478 -0.034230415 0.38700002 4279194406
0.035331756 -0.034230415 0.38700002 4279194920
0.036683276 -0.034318864 0.38800001 4279524396
0.037943501 -0.034318864 0.38800001 4279524396
0.039304767 -0.034407318 0.38900003 4280114736
0.040672526 -0.034495767 0.39000002 4280443701
0.042046785 -0.034584217 0.39100003 4280902458
0.043316755 -0.034584217 0.39100003 4280966715
0.044700753 -0.034672666 0.39200002 4281490241
0.046091251 -0.034761116 0.39300001 4281950792
0.047367714 -0.034761116 0.39300001 4285961855
0.048644178 -0.034761116 0.39300001 4285763706
0.05004767 -0.034849569 0.39400002 4286026618
0.018137589 -0.036295872 0.42600003 4280234018
0.019475412 -0.036210671 0.42500001 4280168225
0.020757668 -0.036040269 0.42300001 4279904539
0.022079252 -0.035955068 0.42200002 4280167711
0.023338772 -0.035784662 0.42000002 4280167711
0.024644116 -0.035699464 0.41900003 4280101918
0.025818836 -0.035443857 0.41600001 4279838746
0.027039379 -0.035273455 0.41400003 4279838746
0.028315492 -0.035188254 0.41300002 4279578139
0.029441491 -0.034932647 0.41000003 4279055125
0.030397888 -0.034506641 0.40500003 4278926103
0.032902602 -0.033058211 0.38800001 4279127330
0.034162827 -0.033058211 0.38800001 4279588394
0.035423048 -0.033058211 0.38800001 4279851566
0.03677782 -0.033143416 0.38900003 4280115508
0.038041294 -0.033143416 0.38900003 4279918129
0.039405808 -0.033228617 0.39000002 4280508983
0.040776815 -0.033313818 0.39100003 4280837178
0.042046785 -0.033313818 0.39100003 4281230911
0.043427538 -0.033399019 0.39200002 4281032249
0.044814784 -0.033484221 0.39300001 4282147657
0.046091251 -0.033484221 0.39300001 4285304438
0.047367714 -0.033484221 0.39300001 4285894778
0.048644178 -0.033484221 0.39300001 4286026618
0.05004767 -0.033569422 0.39400002 4286026618
0.018137589 -0.034911755 0.42600003 4280365090
0.019475412 -0.034829803 0.42500001 4280431397
0.020757668 -0.034665897 0.42300001 4280365090
0.022079252 -0.034583945 0.42200002 4280233504
0.023338772 -0.03442004 0.42000002 4280167711
0.024644116 -0.034338091 0.41900003 4279904539
0.025880901 -0.034174185 0.41700003 4279838492
0.027104691 -0.03401028 0.41500002 4279772699
0.028384054 -0.033928327 0.41400003 4279381785
0.029800532 -0.03401028 0.41500002 4279121685
0.031148452 -0.03401028 0.41500002 4278663701
0.030695371 -0.032125372 0.39200002 4278992666
0.031887036 -0.03204342 0.39100003 4278928154
0.033072203 -0.031961467 0.39000002 4279192351
0.034250874 -0.031879514 0.38900003 4278469911
0.035514347 -0.031879514 0.38900003 4279983150
0.036872365 -0.031961467 0.39000002 4279720750
0.038139086 -0.031961467 0.39000002 4280312889
0.039506849 -0.03204342 0.39100003 4280574778
0.040881105 -0.032125372 0.39200002 4281034559
0.04215432 -0.032125372 0.39200002 4281427520
0.043538321 -0.032207321 0.39300001 4281687872
0.044814784 -0.032207321 0.39300001 4286092673
0.046091251 -0.032207321 0.39300001 4285697915
0.047367714 -0.032207321 0.39300001 4286026364
0.048644178 -0.032207321 0.39300001 4285960058
0.05004767 -0.032289278 0.39400002 4286026618
0.019521238 -0.033527635 0.42600003 4280562215
0.020757668 -0.033291526 0.42300001 4280233504
0.022026932 -0.033134121 0.42100003 4280167711
0.023338772 -0.033055414 0.42000002 4280233504
0.024644116 -0.032976713 0.41900003 4280167457
0.025942964 -0.032898009 0.41800001 4279904285
0.027170002 -0.0327406 0.41600001 4279444502
0.028452614 -0.0326619 0.41500002 4279514906
0.029800532 -0.0326619 0.41500002 4279056406
0.029572265 -0.031009128 0.39400002 4278729494
0.030773675 -0.030930424 0.39300001 4278795800
0.031968586 -0.030851722 0.39200002 4278928152
0.033157006 -0.030773019 0.39100003 4279389217
0.034426972 -0.030773019 0.39100003 4279850281
0.035696942 -0.030773019 0.39100003 4279917357
0.036966912 -0.030773019 0.39100003 4279852336
0.038236879 -0.030773019 0.39100003 4280181301
0.03960789 -0.030851722 0.39200002 4280903743
0.040881105 -0.030851722 0.39200002 4281231425
0.042261854 -0.030930424 0.39300001 4282279495
0.043538321 -0.030930424 0.39300001 4285303925
0.019521238 -0.032143518 0.42600003 4280628262
0.020904887 -0.032143518 0.42600003 4280759846
0.022026932 -0.031766247 0.42100003 4280167709
0.023338772 -0.031690791 0.42000002 4280299297
0.024644116 -0.031615339 0.41900003 4280233504
0.025942964 -0.031539883 0.41800001 4279904539
0.027300628 -0.031539883 0.41800001 4279641879
0.027218524 -0.029955344 0.39700001 4279121431
0.02850798 -0.029955344 0.39700001 4278860310
0.029647322 -0.029804435 0.39500001 4278795800
0.030851981 -0.029728983 0.39400002 4278928156
0.032050136 -0.029653527 0.39300001 4278797082
0.033241805 -0.029578073 0.39200002 4279718182
0.03451502 -0.029578073 0.39200002 4279982639
0.035788238 -0.029578073 0.39200002 4280048945
0.037061453 -0.029578073 0.39200002 4279918131
0.038334671 -0.029578073 0.39200002 4280575289
0.039708927 -0.029653527 0.39300001 4281034044
0.040985391 -0.029653527 0.39300001 4281098040
0.042261854 -0.029653527 0.39300001 4285567097
0.019521238 -0.030759402 0.42600003 4285894782
0.020904887 -0.030759402 0.42600003 4282207806
0.022288535 -0.030759402 0.42600003 4281286190
0.023672184 -0.030759402 0.42600003 4280365090
0.025055833 -0.030759402 0.42600003 4280167711
0.024701675 -0.028737657 0.39800003 4279642649
0.025929065 -0.028665451 0.39700001 4279776029
0.027218524 -0.028665451 0.39700001 4278793750
0.02850798 -0.028665451 0.39700001 4278729494
0.029647322 -0.02852104 0.39500001 4278467603
0.030851981 -0.028448837 0.39400002 4278993947
0.032131691 -0.028448837 0.39400002 4279258146
0.033326603 -0.02837663 0.39300001 4279323939
0.034603067 -0.02837663 0.39300001 4280443703
0.03587953 -0.02837663 0.39300001 4279917361
0.037155997 -0.02837663 0.39300001 4279917361
0.03843246 -0.02837663 0.39300001 4280903743
0.039708927 -0.02837663 0.39300001 4281030966
0.040985391 -0.02837663 0.39300001 4285962620
0.019521238 -0.029375285 0.42600003 4287080340
0.020904887 -0.029375285 0.42600003 4287473810
0.022288535 -0.029375285 0.42600003 4285367921
0.023672184 -0.029375285 0.42600003 4280234016
0.025055833 -0.029375285 0.42600003 4280826923
0.024701675 -0.027444515 0.39800003 4279447832
0.025929065 -0.027375558 0.39700001 4279384090
0.027218524 -0.027375558 0.39700001 4279056922
0.028436171 -0.027306603 0.39600003 4278861080
0.02972238 -0.027306603 0.39600003 4278796568
0.030930284 -0.027237644 0.39500001 4279191840
0.032131691 -0.027168689 0.39400002 4279389730
0.033411406 -0.027168689 0.39400002 4279851053
0.034691118 -0.027168689 0.39400002 4279851566
0.035970829 -0.027168689 0.39400002 4280114738
0.037250545 -0.027168689 0.39400002 4280706364
0.038530257 -0.027168689 0.39400002 4280835899
0.039708927 -0.027099732 0.39300001 4286487167
0.019521238 -0.027991166 0.42600003 4287145363
0.020904887 -0.027991166 0.42600003 4287013261
0.022288535 -0.027991166 0.42600003 4286092157
0.023672184 -0.027991166 0.42600003 4286814849
0.025055833 -0.027991166 0.42600003 4281748790
0.024701675 -0.026151372 0.39800003 4279119637
0.025929065 -0.026085664 0.39700001 4279450650
0.027218524 -0.026085664 0.39700001 4279188762
0.028436171 -0.026019959 0.39600003 4278992666
0.02972238 -0.026019959 0.39600003 4279124761
0.030930284 -0.02595425 0.39500001 4279322910
0.032213245 -0.02595425 0.39500001 4279389730
0.033496205 -0.02595425 0.39500001 4280310832
0.034691118 -0.025888544 0.39400002 4280180018
0.035970829 -0.025888544 0.39400002 4280311604
0.037250545 -0.025888544 0.39400002 4280835129
0.038530257 -0.025888544 0.39400002 4285831804
0.024701675 -0.024858231 0.39800003 4286815619
0.025929065 -0.024795771 0.39700001 4283592275
0.027218524 -0.024795771 0.39700001 4279317781
0.028436171 -0.024733314 0.39600003 4279450650
0.02972238 -0.024733314 0.39600003 4279453217
0.030930284 -0.024670856 0.39500001 4279585312
0.032213245 -0.024670856 0.39500001 4279126045
0.033496205 -0.024670856 0.39500001 4280377397
0.034779165 -0.024670856 0.39500001 4280442168
0.036062125 -0.024670856 0.39500001 4281887306
0.037345089 -0.024670856 0.39500001 4286553222
0.038628045 -0.024670856 0.39500001 4285895292
0.025929065 -0.023505878 0.39700001 4285895030
0.027149964 -0.02344667 0.39600003 4286487167
0.028436171 -0.02344667 0.39600003 4286223995
0.02972238 -0.02344667 0.39600003 4282869836
0.03100859 -0.02344667 0.39600003 4281488696
0.032294799 -0.02344667 0.39600003 4281358132
0.033496205 -0.02338746 0.39500001 4282477126
0.034779165 -0.02338746 0.39500001 4285962622
0.036062125 -0.02338746 0.39500001 4285896062
0.037345089 -0.02338746 0.39500001 4286157950
0.027149964 -0.022160025 0.39600003 4286289788
0.028436171 -0.022160025 0.39600003 4286223995
0.02972238 -0.022160025 0.39600003 4286026616
0.03100859 -0.022160025 0.39600003 4286026616
0.032294799 -0.022160025 0.39600003 4286158202
0.033581007 -0.022160025 0.39600003 4285895546
0.034867216 -0.022160025 0.39600003 4285895292
0.036153425 -0.022160025 0.39600003 4286026878
0.037439633 -0.022160025 0.39600003 4286157950
0.044588897 -0.044167664 0.40369657 4294967295
0.044588897 -0.044167664 0.40369657 4294901760
0.044588897 -0.044167664 0.40419656 4294901760
0.044588897 -0.044167664 0.40469655 4294901760
0.044588897 -0.044167664 0.40519658 4294901760
0.044588897 -0.044167664 0.40569657 4294901760
0.044588897 -0.044167664 0.40619656 4294901760
0.044588897 -0.044167664 0.40669656 4294901760
0.044588897 -0.044167664 0.40719658 4294901760
0.044588897 -0.044167664 0.40769657 4294901760
0.044588897 -0.044167664 0.40819657 4294901760
0.044588897 -0.044167664 0.40869656 4294901760
0.044588897 -0.044167664 0.40919656 4294901760
0.044588897 -0.044167664 0.40969658 4294901760
0.044588897 -0.044167664 0.41019657 4294901760
0.044588897 -0.044167664 0.41069657 4294901760
0.044588897 -0.044167664 0.41119656 4294901760
0.044588897 -0.044167664 0.41169655 4294901760
0.044588897 -0.044167664 0.41219658 4294901760
0.044588897 -0.044167664 0.41269657 4294901760
0.044588897 -0.044167664 0.41319656 4294901760
0.044588897 -0.044167664 0.41369656 4294901760
0.044588897 -0.044167664 0.41419658 4294901760
0.044588897 -0.044167664 0.41469657 4294901760
0.044588897 -0.044167664 0.41519657 4294901760
0.044588897 -0.044167664 0.41569656 4294901760
0.044588897 -0.044167664 0.41619658 4294901760
0.044588897 -0.044167664 0.41669658 4294901760
0.044588897 -0.044167664 0.41719657 4294901760
0.044588897 -0.044167664 0.41769657 4294901760
0.044588897 -0.044167664 0.41819656 4294901760
0.044588897 -0.044167664 0.41869658 4294901760
0.044588897 -0.044167664 0.41919658 4294901760
0.044588897 -0.044167664 0.41969657 4294901760
0.044588897 -0.044167664 0.42019656 4294901760
0.044588897 -0.044167664 0.42069656 4294901760
0.044588897 -0.044167664 0.42119658 4294901760
0.044588897 -0.044167664 0.42169657 4294901760
0.044588897 -0.044167664 0.42219657 4294901760
0.044588897 -0.044167664 0.42269656 4294901760
0.044588897 -0.044167664 0.42319658 4294901760
0.044588897 -0.044167664 0.42369658 4294901760
0.044588897 -0.044167664 0.42419657 4294901760
0.044588897 -0.044167664 0.42469656 4294901760
0.044588897 -0.044167664 0.42519659 4294901760
0.044588897 -0.044167664 0.42569658 4294901760
0.044588897 -0.044167664 0.42619658 4294901760
0.044588897 -0.044167664 0.42669657 4294901760
0.044588897 -0.044167664 0.42719656 4294901760
0.044588897 -0.044167664 0.42769659 4294901760
0.044588897 -0.044167664 0.42819658 4294901760
0.044588897 -0.044167664 0.42869657 4294901760
0.044588897 -0.044167664 0.42919657 4294901760
0.044588897 -0.044167664 0.42969656 4294901760
0.044588897 -0.044167664 0.43019658 4294901760
0.044588897 -0.044167664 0.43069658 4294901760
0.044588897 -0.044167664 0.43119657 4294901760
0.044588897 -0.044167664 0.43169656 4294901760
0.044588897 -0.044167664 0.43219656 4294901760
0.044588897 -0.044167664 0.43269658 4294901760
0.044588897 -0.044167664 0.43319657 4294901760
0.044588897 -0.044167664 0.43369657 4294901760
0.044588897 -0.044167664 0.43419656 4294901760
0.044588897 -0.044167664 0.43469658 4294901760
0.044588897 -0.044167664 0.43519658 4294901760
0.044588897 -0.044167664 0.43569657 4294901760
0.044588897 -0.044167664 0.43619657 4294901760
0.044588897 -0.044167664 0.43669659 4294901760
0.044588897 -0.044167664 0.43719658 4294901760
0.044588897 -0.044167664 0.43769658 4294901760
0.044588897 -0.044167664 0.43819657 4294901760
0.044588897 -0.044167664 0.43869656 4294901760
0.044588897 -0.044167664 0.43919659 4294901760
0.044588897 -0.044167664 0.43969658 4294901760
0.044588897 -0.044167664 0.44019657 4294901760
0.044588897 -0.044167664 0.44069657 4294901760
0.044588897 -0.044167664 0.44119656 4294901760
0.044588897 -0.044167664 0.44169658 4294901760
0.044588897 -0.044167664 0.44219658 4294901760
0.044588897 -0.044167664 0.44269657 4294901760
0.044588897 -0.044167664 0.44319656 4294901760
0.044588897 -0.044167664 0.44369659 4294901760
0.044588897 -0.044167664 0.44419658 4294901760
0.044588897 -0.044167664 0.44469658 4294901760
0.044588897 -0.044167664 0.44519657 4294901760
0.044588897 -0.044167664 0.44569656 4294901760
0.044588897 -0.044167664 0.44619659 4294901760
0.044588897 -0.044167664 0.44669658 4294901760
0.044588897 -0.044167664 0.44719657 4294901760
0.044588897 -0.044167664 0.44769657 4294901760
0.044588897 -0.044167664 0.44819659 4294901760
0.044588897 -0.044167664 0.44869658 4294901760
0.044588897 -0.044167664 0.44919658 4294901760
0.044588897 -0.044167664 0.44969657 4294901760
0.044588897 -0.044167664 0.45019656 4294901760
0.044588897 -0.044167664 0.45069659 4294901760
0.044588897 -0.044167664 0.45119658 4294901760
0.044588897 -0.044167664 0.45169657 4294901760
0.044588897 -0.044167664 0.45219657 4294901760
0.044588897 -0.044167664 0.45269659 4294901760
0.044588897 -0.044167664 0.45319659 4294901760
0.044588897 -0.044167664 0.45369658 4294901760
0.044588897 -0.044167664 0.40369657 4278255360
0.044364385 -0.043996938 0.40410942 4278255360
0.044139877 -0.043826211 0.40452227 4278255360
0.043915365 -0.043655485 0.40493512 4278255360
0.043690857 -0.043484759 0.40534797 4278255360
0.043466344 -0.043314029 0.40576082 4278255360
0.043241836 -0.043143302 0.40617368 4278255360
0.043017324 -0.042972576 0.40658653 4278255360
0.042792816 -0.04280185 0.40699938 4278255360
0.042568304 -0.042631123 0.40741223 4278255360
0.042343792 -0.042460397 0.40782508 4278255360
0.042119283 -0.042289671 0.40823793 4278255360
0.041894771 -0.042118944 0.40865079 4278255360
0.041670263 -0.041948218 0.40906367 4278255360
0.041445751 -0.041777492 0.40947652 4278255360
0.041221242 -0.041606762 0.40988937 4278255360
0.04099673 -0.041436035 0.41030222 4278255360
0.040772222 -0.041265309 0.41071507 4278255360
0.04054771 -0.041094583 0.41112792 4278255360
0.040323198 -0.040923856 0.41154078 4278255360
0.040098689 -0.04075313 0.41195363 4278255360
0.039874177 -0.040582404 0.41236648 4278255360
0.039649669 -0.040411677 0.41277933 4278255360
0.039425157 -0.040240951 0.41319218 4278255360
0.039200649 -0.040070221 0.41360503 4278255360
0.038976137 -0.039899494 0.41401789 4278255360
0.038751628 -0.039728768 0.41443074 4278255360
0.038527116 -0.039558042 0.41484359 4278255360
0.038302608 -0.039387316 0.41525644 4278255360
0.038078096 -0.039216589 0.41566929 4278255360
0.037853584 -0.039045863 0.41608214 4278255360
0.037629075 -0.038875137 0.416495 4278255360
0.037404563 -0.03870441 0.41690785 4278255360
0.037180055 -0.03853368 0.4173207 4278255360
0.036955543 -0.038362954 0.41773355 4278255360
0.036731035 -0.038192227 0.4181464 4278255360
0.036506522 -0.038021501 0.41855925 4278255360
0.03628201 -0.037850775 0.41897213 4278255360
0.036057502 -0.037680048 0.41938496 4278255360
0.035832994 -0.037509322 0.41979784 4278255360
0.035608482 -0.037338596 0.42021069 4278255360
0.03538397 -0.03716787 0.42062354 4278255360
0.035159461 -0.036997143 0.42103639 4278255360
0.034934949 -0.036826417 0.42144924 4278255360
0.034710437 -0.036655687 0.4218621 4278255360
0.034485929 -0.03648496 0.42227495 4278255360
0.03426142 -0.036314234 0.4226878 4278255360
0.034036908 -0.036143508 0.42310065 4278255360
0.033812396 -0.035972781 0.4235135 4278255360
0.033587888 -0.035802055 0.42392635 4278255360
0.033363376 -0.035631329 0.42433921 4278255360
0.033138867 -0.035460602 0.42475206 4278255360
0.032914355 -0.035289876 0.42516491 4278255360
0.032689847 -0.035119146 0.42557776 4278255360
0.032465335 -0.03494842 0.42599061 4278255360
0.032240823 -0.034777693 0.42640346 4278255360
0.032016315 -0.034606967 0.42681631 4278255360
0.031791806 -0.034436241 0.42722917 4278255360
0.031567294 -0.034265514 0.42764202 4278255360
0.031342782 -0.034094788 0.42805487 4278255360
0.031118272 -0.033924058 0.42846772 4278255360
0.030893762 -0.033753335 0.42888057 4278255360
0.030669251 -0.033582605 0.42929345 4278255360
0.030444741 -0.033411883 0.42970628 4278255360
0.030220231 -0.033241153 0.43011916 4278255360
0.029995721 -0.033070426 0.43053201 4278255360
0.029771209 -0.0328997 0.43094486 4278255360
0.0295467 -0.032728974 0.43135771 4278255360
0.029322188 -0.032558247 0.43177056 4278255360
0.02909768 -0.032387521 0.43218341 4278255360
0.028873168 -0.032216795 0.43259627 4278255360
0.028648658 -0.032046068 0.43300912 4278255360
0.028424148 -0.031875338 0.43342197 4278255360
0.028199637 -0.031704612 0.43383482 4278255360
0.027975127 -0.031533886 0.43424767 4278255360
0.027750617 -0.031363159 0.43466052 4278255360
0.027526107 -0.031192433 0.43507338 4278255360
0.027301596 -0.031021707 0.43548623 4278255360
0.027077086 -0.03085098 0.43589908 4278255360
0.026852574 -0.030680252 0.43631193 4278255360
0.026628064 -0.030509526 0.43672478 4278255360
0.026403554 -0.0303388 0.43713763 4278255360
0.026179044 -0.030168073 0.43755049 4278255360
0.025954533 -0.029997345 0.43796334 4278255360
0.025730023 -0.029826619 0.43837619 4278255360
0.025505511 -0.029655892 0.43878904 4278255360
0.025281001 -0.029485166 0.43920189 4278255360
0.025056491 -0.02931444 0.43961477 4278255360
0.02483198 -0.029143713 0.44002759 4278255360
0.02460747 -0.028972987 0.44044048 4278255360
0.02438296 -0.028802261 0.44085333 4278255360
0.02415845 -0.028631531 0.44126618 4278255360
0.02393394 -0.028460806 0.44167903 4278255360
0.023709429 -0.028290078 0.44209188 4278255360
0.023484919 -0.028119352 0.44250473 4278255360
0.023260409 -0.027948625 0.44291759 4278255360
0.023035899 -0.027777899 0.44333044 4278255360
0.022811387 -0.027607171 0.44374329 4278255360
0.022586877 -0.027436445 0.44415614 4278255360
0.022362366 -0.027265718 0.44456899 4278255360
0.022137856 -0.027094992 0.44498184 4278255360
